0.303581 -0.0142073 0.435706
0.0231502 -0.0308578 0.407813
-0.428295 -0.00921811 0.415971
0.0544638 -0.0265703 0.429049
0.0502455 -0.0209355 0.381173
-0.0184015 -0.0274969 0.0237513
-0.0179407 -0.0221832 0.664289
-0.0979825 -0.0251336 0.39992
-0.36157 -0.0119806 0.433071
-0.31526 -0.0163652 0.433998
-0.483502 -0.0109082 0.413023
0.146917 -0.0197104 0.360426
-0.240331 -0.0160031 0.376862
0.095114 -0.0253089 0.408614
-0.164532 -0.0199388 0.350112
0.275042 -0.0184347 0.390497
-0.10381 -0.0290266 0.0328815
-0.00138821 -0.0486848 0.223022
-0.0195444 -0.0404242 0.636349
0.150219 -0.0231273 0.391734
0.405776 -0.00991821 0.418828
-0.00495652 -0.0223521 0.0439673
0.22466 -0.0155046 0.424088
0.0895038 -0.022954 0.442432
-0.205183 -0.0204004 0.378634
0.0138037 -0.0105849 0.494353
0.00932373 -0.0252871 0.165512
0.383856 -0.011418 0.385998
0.38976 -0.014418 0.416379
-0.203694 -0.0211209 0.389142
0.348924 -0.0138712 0.367114
-0.0203409 -0.0230697 0.578405
0.104825 -0.0291214 0.0363691
-0.341977 -0.011848 0.413564
-0.0163261 -0.0134516 0.430769
-0.0107053 -0.0383342 0.0853064
-0.018839 -0.0344659 0.277738
-0.0229007 -0.0318242 0.418559
-0.0761244 -0.0284551 0.0352473
-0.147809 -0.0231551 0.385384
-0.0190105 -0.0434755 0.531653
0.00143008 -0.0187059 0.450233
0.00809166 -0.0476555 0.273712
0.0116844 -0.0220284 0.231858
0.0183583 -0.0452754 0.443359
0.0874586 -0.020953 0.366121
0.00195162 -0.0457245 0.134654
-0.00612028 -0.0426562 0.737588
0.209794 -0.0209974 0.402441
0.022935 -0.0283968 0.651745
0.0190035 -0.046559 0.654144
-0.00228752 -0.0145215 0.0567042
0.00841263 -0.0256466 0.34102
-0.386341 -0.014509 0.411814
-0.138261 -0.0180896 0.403514
-0.00450284 0.00764146 0.0331357
0.0403226 -0.0232997 0.350943
0.247839 -0.0147556 0.405775
-0.0286603 -0.0229466 0.360692
-0.011101 -0.00877993 0.481471
-0.020952 -0.033414 0.604722
-0.0179067 -0.0153854 0.391071
-0.332982 -0.0122188 0.400721
-0.362162 -0.0124683 0.37949
0.0180702 -0.016138 0.391157
-0.00309128 -0.0471434 0.158468
-0.0218445 -0.0381727 0.434382
0.294245 -0.0157743 0.363102
-0.0772784 -0.0258909 0.398367
0.431818 -0.00910405 0.41696
0.481113 -0.0109536 0.407305
0.0221882 -0.0229768 0.487047
-0.260416 -0.0166425 0.359621
-0.0126666 -0.0092963 0.405926
-0.248704 -0.0147196 0.420335
0.448999 -0.0121731 0.410812
0.0115535 -0.0521273 0.600265
-0.142157 -0.0180537 0.425576
-0.172359 -0.0224565 0.411008
-0.00756064 -0.0519131 0.468402
-0.00572717 -0.0231109 0.367444
-0.0211345 -0.0311224 0.340283
-0.00964756 -0.00775482 0.466265
0.0232746 -0.0273082 0.455276
0.0122635 -0.0287988 0.19851
0.334097 -0.0155588 0.382967
0.00228334 -0.0323513 0.608285
-0.140868 -0.019223 0.369883
0.00573276 -0.0153353 0.218252
-0.0120301 -0.0240827 0.146103
-0.0025239 -0.00461343 0.553746
-0.225992 -0.0187835 0.438132
0.00231311 -0.0215218 0.603967
-0.0021618 0.00712978 0.0115212
-0.00214437 -0.0151387 0.695718
-0.0226021 -0.0295815 0.472957
0.410142 -0.0107132 0.385731
0.194266 -0.018792 0.440653
-0.120951 -0.0212019 0.349191
-0.00914 -0.0477163 0.246284
-0.269425 -0.0159698 0.365764
-0.453349 -0.00901258 0.393075
-0.00405339 -0.00522884 0.602483
-0.00600243 -0.0185425 0.531833
0.063297 -0.0308929 0.0153012
0.0110899 -0.0474957 0.716281
0.260801 -0.0190232 0.392249
0.0233132 -0.0232073 0.35905
0.0229463 -0.0270793 0.577752
-0.01535 -0.029334 0.698809
-0.00903677 -0.0526739 0.630508
-0.319839 -0.0161048 0.382639
-0.00280468 -0.0449954 0.103573
-0.0188657 -0.0241259 0.296325
0.136737 -0.0235055 0.384065
0.0208087 -0.0417832 0.515556
-0.095129 -0.0243516 0.372305
-0.0215426 -0.0384506 0.39153
-0.0538097 -0.0232941 0.345656
0.0145431 -0.0507942 0.618047
0.316325 -0.0138424 0.377863
0.00421704 -0.0523654 0.470309
-0.00369383 -0.0323513 0.639632
-0.00688237 -0.0290193 0.445508
0.00161494 -0.05374 0.565517
-0.0702616 -0.0205092 0.379383
0.0496117 -0.032699 0.0385372
0.00455315 -0.0272013 0.0315597
-0.0119557 -0.029319 0.11124
-0.00603072 -0.00584645 0.518912
0.480227 -0.0109541 0.425169
0.115095 -0.0243798 0.384893
-0.274513 -0.0185628 0.398709
0.34361 -0.0160554 0.406502
-0.48521 -0.00954499 0.383152
0.0216824 -0.0274991 0.0426735
0.167177 -0.0225163 0.394184
-0.218926 -0.0171109 0.369361
-0.0140646 -0.0496102 0.602065
-0.125245 -0.0312167 0.0296058
-0.000265613 -0.016142 0.152538
-0.0205202 -0.0387189 0.36213
-0.00628158 -0.031813 0.550099
0.0753741 -0.0308108 0.0513555
0.0316047 -0.0287153 0.0154249
0.0145958 -0.0324295 0.0179738
0.0344882 -0.0212764 0.397651
-0.0443099 -0.0209967 0.395433
0.173892 -0.0187431 0.363679
0.0920501 -0.029143 0.0232695
0.000791268 -0.00355806 0.456371
-0.476516 -0.00824102 0.394999
-0.33416 -0.0153769 0.434992
-0.00247889 -0.0323513 0.482563
-0.0545491 -0.0305916 0.0096826
0.0212847 -0.035879 0.376763
0.0079578 -0.00641996 0.628183
-0.0875467 -0.0224502 0.344433
-0.414748 -0.0101571 0.391895
0.00126623 -0.0185425 0.560486
0.069546 -0.026195 0.400482
0.00337384 -0.0519577 0.424218
-0.0641311 -0.0202936 0.408512
0.019693 -0.0402801 0.689519
-0.000575699 0.0394442 0.0365804
0.464493 -0.0113738 0.397647
-3.31656e-05 -0.0516026 0.377723
0.00209557 -0.0388801 0.0262196
-0.00724694 -0.00904397 0.324683
0.206934 -0.0210383 0.425766
-0.0290681 -0.0214674 0.424352
-0.115931 -0.0243638 0.386878
0.112609 -0.0243638 0.429397
-0.340137 -0.0140414 0.365508
-0.00178252 -0.00789652 0.302444
-0.00208133 0.0314022 0.0169115
-0.0464553 -0.0209861 0.426308
0.0866878 -0.0254294 0.428051
0.00678996 -0.0440835 0.741109
0.00852393 -0.0436635 0.191994
-0.189125 -0.0201811 0.366202
0.00242372 -0.0211805 0.623224
-0.0106939 -0.0483835 0.315922
0.00545902 -0.0347921 0.0693921
-0.00124291 -0.0223948 0.0903676
0.402458 -0.0100581 0.408283
-0.171609 -0.0187048 0.365142
0.00568824 -0.00482596 0.44267
-0.395356 -0.0134686 0.432938
0.118318 -0.0311296 0.0262985
0.00712393 -0.015027 0.240618
0.0113634 -0.0201802 0.698143
-0.25303 -0.0193529 0.397662
-0.199275 -0.016212 0.419178
0.262213 -0.0190121 0.42505
0.378321 -0.0144783 0.428863
-0.2219 -0.0156043 0.397705
-0.0208517 -0.0279456 0.62606
-0.0223962 -0.0292708 0.374325
0.0127952 -0.022021 0.426711
0.0196934 -0.018148 0.526765
0.330526 -0.016595 0.413237
-0.0218763 -0.0307709 0.535528
-0.00542817 -0.0528946 0.542635
-0.00537286 -0.0518367 0.701333
0.00889354 -0.0516772 0.454699
0.465032 -0.0115784 0.421666
-0.00855967 -0.0360453 0.0484399
0.00297398 -0.040172 0.04504
0.00627652 -0.052437 0.497894
0.196341 -0.0163821 0.397158
0.00183336 -0.026606 0.520443
-0.010173 -0.0424186 0.117929
0.120219 -0.0210696 0.351396
-0.0191627 -0.0289066 0.67821
0.00224038 -0.019436 0.591306
-0.461618 -0.0101775 0.434514
-0.0412995 -0.0283075 0.0188976
-0.0480446 -0.0244571 0.443099
-0.0929267 -0.0252134 0.427409
0.061725 -0.0235459 0.341388
-0.0782857 -0.0257519 0.427521
0.260542 -0.0156974 0.373239
0.00323661 -0.0141461 0.208161
0.0827299 -0.0287157 0.0307221
-0.0167904 -0.0458977 0.676095
-0.0139537 -0.0429221 0.213724
0.0023442 -0.0065293 0.347214
-0.496278 -0.00716545 0.419166
0.00992099 -0.052128 0.68626
0.0218186 -0.0220999 0.513957
0.182096 -0.0219242 0.38927
0.0152358 -0.0282415 0.403994
-0.131746 -0.0182794 0.420102
-0.00334266 -0.0539017 0.660319
0.00938836 -0.0494499 0.354164
-0.00658316 -0.0241536 0.497597
-0.105619 -0.0203357 0.367821
-0.176467 -0.0170079 0.425533
0.494943 -0.00729773 0.403288
0.425622 -0.009692 0.394277
-0.0135312 -0.042449 0.18577
-0.106319 -0.0248657 0.405243
0.00922322 -0.0403049 0.166049
-0.00277162 -0.0177481 0.00872926
0.166341 -0.0172613 0.423238
-0.0942545 -0.0212033 0.359796
0.236063 -0.0164465 0.372148
0.000346903 -0.0508218 0.340476
0.360309 -0.0127728 0.435694
0.0485406 -0.0219261 0.438977
-0.0277688 -0.0326523 0.0210571
0.0166641 -0.0433507 0.701914
-0.303427 -0.0155142 0.364636
0.0227369 -0.0348818 0.424231
-0.0107105 -0.0517254 0.615942
0.0422822 -0.027066 0.428234
-0.196474 -0.0176213 0.437637
-0.103038 -0.0223077 0.442636
-0.152845 -0.0231407 0.419361
0.071118 -0.0218145 0.360166
-0.397443 -0.012159 0.370337
-0.0630746 -0.0323664 0.0259277
-0.0876531 -0.0196127 0.404586
0.0177578 -0.0286822 0.297256
0.0167465 -0.0136447 0.477357
-0.0160979 -0.0144866 0.520626
-0.218732 -0.0155729 0.415092
-0.431531 -0.0112181 0.376388
-0.0735759 -0.0207572 0.434479
0.0113758 -0.0147183 0.680995
-0.0103685 -0.0517377 0.587127
0.154161 -0.0175467 0.411432
0.0132107 -0.0485591 0.384253
-0.0179319 -0.0453994 0.450265
0.0112516 -0.0447626 0.725244
0.0114625 -0.0129313 0.336612
-0.400484 -0.0109715 0.385837
0.284687 -0.0135963 0.411596
0.0571003 -0.0256357 0.368942
0.0197619 -0.0209581 0.374154
-0.0190682 -0.0441689 0.410958
0.00462908 -0.0492679 0.287573
-0.0147767 -0.0271941 0.0395889
0.102141 -0.0301412 0.0496242
-0.00310229 -0.0536943 0.595766
0.00263537 -0.0216946 0.118097
-0.402632 -0.0138473 0.404461
0.0806817 -0.0258151 0.404782
-0.41648 -0.0133831 0.420777
0.105215 -0.0191462 0.39636
-0.193582 -0.0216258 0.405701
-0.305678 -0.0130788 0.396457
-0.440781 -0.012432 0.40469
0.0220326 -0.0392346 0.561537
-0.23786 -0.0153211 0.387649
0.0111183 -0.0426325 0.225995
-0.0172663 -0.0377263 0.242688
0.00728552 -0.00588452 0.55686
0.00274806 -0.020219 0.13231
0.382337 -0.0125921 0.369671
0.0139388 -0.0125532 0.376443
-0.285171 -0.0141961 0.385105
-0.153982 -0.0176651 0.397023
0.321293 -0.013043 0.431467
-0.00894135 -0.0282852 0.428791
0.0804452 -0.0200269 0.382285
-0.0189546 -0.019781 0.547524
0.229468 -0.0153722 0.398098
-0.469617 -0.00801241 0.410092
0.010895 -0.00801422 0.427759
-0.0156525 -0.0384479 0.199073
0.114892 -0.0246075 0.412891
-0.0207061 -0.0301096 0.323473
-0.100695 -0.0292517 0.0228161
0.00555119 -0.0527835 0.52237
0.126332 -0.0233865 0.43442
0.318192 -0.0164843 0.387177
-0.0170564 -0.0228749 0.43902
0.264044 -0.0165688 0.359242
0.29615 -0.0132649 0.409551
0.281989 -0.0159575 0.36094
-0.356396 -0.0114311 0.411012
-0.167051 -0.0216329 0.436973
0.458481 -0.01001 0.376707
0.0046847 -0.0308258 0.00464233
0.287052 -0.0180945 0.425044
0.308227 -0.0148509 0.366501
-0.0544625 -0.020986 0.378778
0.022732 -0.0349068 0.43997
0.00745994 -0.0283451 0.428564
-0.0113262 -0.0273318 0.0256546
0.191814 -0.0179428 0.368121
0.0152543 -0.0252518 0.266031
-0.0443693 -0.0268427 0.379055
-0.0372123 -0.02733 0.392013
-0.0140255 -0.0404858 0.169385
0.370554 -0.0151028 0.412691
-0.020631 -0.0317146 0.651113
-0.0760954 -0.0319373 0.0471809
-0.474817 -0.00786428 0.423129
0.452185 -0.012004 0.424566
-0.022326 -0.030838 0.489272
0.0351542 -0.0261652 0.363943
-0.0884286 -0.0319158 0.0305633
-0.0361083 -0.0280562 0.0482572
0.00879643 -0.0442379 0.205857
0.344827 -0.0144896 0.436182
0.000349687 -0.0323513 0.580336
0.0157969 -0.0280606 0.383725
0.133904 -0.0198537 0.363533
-0.0136832 -0.0204005 0.212435
0.28711 -0.0173518 0.381797
-0.429028 -0.0101938 0.433405
0.00809669 -0.00641023 0.582567
0.134548 -0.0181291 0.414384
0.189097 -0.0164746 0.413423
0.370791 -0.0141708 0.384056
-0.00437097 -0.00454123 0.432693
-0.373529 -0.0109732 0.403062
0.0662513 -0.0263118 0.421631
0.429651 -0.00975228 0.431068
0.00750065 -0.0219959 0.409962
0.261513 -0.0142843 0.413322
-0.00396316 -0.00981344 0.0206019
-0.0171147 -0.0316396 0.214614
0.0632083 -0.0283105 0.0409314
-0.317005 -0.0126375 0.420179
0.024675 -0.0285598 0.0521526
-0.0161455 -0.0471429 0.649569
-0.109657 -0.0314105 0.0454338
-0.174907 -0.0221917 0.389328
0.00540747 -0.00696287 0.36164
-0.235388 -0.0201261 0.412575
-0.0286054 -0.0221006 0.372949
0.437258 -0.0090417 0.403464
-0.0180442 -0.0151378 0.419124
-0.253769 -0.0145618 0.407626
-0.00583009 -0.00764843 0.337045
0.244665 -0.0149371 0.394955
-0.0137412 -0.0382333 0.709539
0.23008 -0.019001 0.437074
0.341943 -0.0160163 0.394108
-0.192615 -0.0166292 0.386745
0.0145657 -0.0449853 0.330669
-0.00440924 0.021132 0.0430896
0.0938222 -0.0216702 0.353216
0.0145811 -0.0353251 0.245268
-0.0110044 -0.0089736 0.381459
0.0464659 -0.0282972 0.0214564
0.0781147 -0.0252285 0.433976
0.0170481 -0.04641 0.419244
0.0064028 -0.00763828 0.66201
0.0175502 -0.0221551 0.32757
0.320658 -0.012567 0.403851
-0.0853575 -0.0245226 0.369141
-0.18436 -0.0216944 0.429252
-0.147798 -0.021484 0.36121
-0.061956 -0.0218792 0.362877
-0.019463 -0.0237535 0.352684
0.398901 -0.0111885 0.383347
-0.00617996 -0.0324292 0.729816
-0.0145147 -0.0126585 0.507736
0.0448021 -0.0209968 0.393532
0.19597 -0.0169669 0.380569
-0.28272 -0.0177496 0.432145
0.0529492 -0.0206228 0.409671
-0.256273 -0.0192017 0.426366
-0.355296 -0.0115154 0.423634
-0.0601103 -0.0281446 0.0406441
0.0441904 -0.026616 0.375673
0.0723419 -0.0259775 0.386086
-0.351142 -0.0139185 0.369078
0.212639 -0.0157816 0.417122
0.436007 -0.0113601 0.381024
-0.0186061 -0.0270261 0.26924
0.0200324 -0.0267126 0.346086
-0.389456 -0.0143657 0.422106
0.00278739 -0.00970268 0.282591
0.237969 -0.0151033 0.424251
0.00100886 -0.0323513 0.453552
0.0226558 -0.0358265 0.540642
0.404215 -0.013289 0.431273
-0.0185436 -0.0173452 0.474408
0.0306329 -0.0276471 0.035148
0.00861944 -0.0273107 0.719018
0.0563241 -0.0283285 0.0244487
-0.0209025 -0.0198837 0.406413
0.219546 -0.0161396 0.383132
-0.292434 -0.0178482 0.427131
0.0122078 -0.0333547 0.0445995
-0.376529 -0.0139049 0.38352
-0.000277046 0.0150902 0.0347051
0.145111 -0.0223956 0.372843
0.0021752 -0.049018 0.25999
-0.0202425 -0.0291589 0.305749
-0.000821231 0.000115212 0.0217891
-0.161862 -0.017332 0.409012
0.0157102 -0.0489726 0.523799
0.0223855 -0.0234167 0.437147
-0.267025 -0.0188268 0.396848
0.19519 -0.0215846 0.408062
-0.130635 -0.0233109 0.377732
0.0207866 -0.0204156 0.561646
-0.224254 -0.0154546 0.407656
0.00890887 -0.0213205 0.188922
-0.0218204 -0.0367886 0.379896
0.300641 -0.013221 0.397752
0.00517498 -0.0129598 0.25391
-0.117355 -0.0186652 0.415478
-0.0192517 -0.0218671 0.381243
-0.00308894 -0.0479958 0.190137
-0.0622018 -0.0206805 0.429913
-0.437362 -0.0126205 0.419957
-0.131906 -0.0202937 0.357964
0.145125 -0.0207631 0.349244
-0.016728 -0.0269671 0.364913
-0.0152197 -0.0141977 0.356953
0.0142443 -0.0503727 0.565921
0.101265 -0.0242242 0.374002
-0.0120619 -0.0160948 0.252517
0.143197 -0.0180321 0.425985
-0.00859225 -0.05252 0.572854
0.218236 -0.0206075 0.392674
-0.328898 -0.0163221 0.391007
-0.0064982 -0.0322591 0.512388
0.10242 -0.0219631 0.442969
-0.140468 -0.0236418 0.410985
0.308825 -0.0128715 0.410861
-0.0202124 -0.0401207 0.558295
-0.0228832 -0.0266943 0.431639
0.154507 -0.0177265 0.427588
0.09644 -0.0194928 0.42748
-0.348429 -0.0126241 0.38268
0.0157827 -0.0487006 0.507331
0.00250777 -0.0217737 0.637857
-0.106679 -0.0228402 0.357107
-0.0150831 -0.030409 0.159307
0.00291438 -0.00442127 0.646425
-0.305507 -0.0173658 0.427105
0.0980892 -0.0304034 0.0115375
-0.327202 -0.0123124 0.411262
-0.00467549 -0.0527653 0.688726
0.0262306 -0.0277346 0.0239437
-0.0042712 -0.0439 0.07573
0.296551 -0.0136183 0.388906
-0.0154518 -0.0152965 0.625915
4.79734e-05 -0.00906987 0.0457993
0.00661491 -0.00535605 0.40834
-0.010987 -0.0185201 0.185937
-0.0537255 -0.026678 0.387175
-0.0212058 -0.0392028 0.468156
-0.451764 -0.00855784 0.422372
-0.00489943 -0.0331279 0.0134843
0.0171811 -0.0139573 0.402968
-0.0108029 -0.0504848 0.435891
-0.0033811 0.0384382 0.0248713
0.0943961 -0.0194767 0.395973
0.239253 -0.0199661 0.410508
0.156061 -0.0217136 0.369295
-0.174348 -0.0170129 0.401566
-0.170494 -0.0176128 0.381363
-0.0045842 -0.0517097 0.414547
-0.0538836 -0.0206187 0.417259
-0.0199961 -0.0232064 0.611324
-0.313473 -0.0127519 0.408087
-0.0784127 -0.0319032 0.0244235
0.142944 -0.0179607 0.401899
-0.00803667 -0.0111612 0.668094
-0.341979 -0.0160582 0.425341
0.490968 -0.0100214 0.39336
-0.107788 -0.0247624 0.422841
-0.254259 -0.0181336 0.374157
-0.2973 -0.0135116 0.390142
0.222499 -0.0168676 0.371457
0.0172817 -0.0149 0.635647
-0.0161993 -0.0174748 0.653858
0.00483246 -0.0285798 0.0135596
-0.284351 -0.0137348 0.395113
0.0899784 -0.0308067 0.0504523
-0.284763 -0.0149643 0.3742
-0.0110065 -0.0355956 0.720552
-0.0138233 -0.0474618 0.340556
0.108626 -0.0194548 0.379362
-0.0360528 -0.0211328 0.414706
0.103773 -0.0293626 0.0237002
-0.237672 -0.0158604 0.434786
0.0233728 -0.0215391 0.416472
-0.010085 -0.0497834 0.366767
-0.0416166 -0.027229 0.421049
0.00774815 -0.00612891 0.503191
0.417853 -0.0133683 0.417616
-0.00436829 -0.0464094 0.144229
-0.0216586 -0.0303649 0.561392
-0.115159 -0.0314421 0.0356627
0.342105 -0.0161685 0.417591
-0.00403544 0.0118203 0.0254045
-0.0218448 -0.0332694 0.0333635
0.347142 -0.0149309 0.381408
0.0155856 -0.0394633 0.284739
0.0129596 -0.0181364 0.287374
-0.00120294 0.0183863 0.052615
-0.000320377 -0.0373179 0.746356
-0.142089 -0.0212072 0.441154
-0.0154837 -0.0282879 0.413459
-0.47383 -0.00993189 0.433781
0.171228 -0.0213934 0.373413
-0.282095 -0.0137035 0.407795
0.0192529 -0.0461547 0.666179
-0.0220481 -0.0326127 0.500567
-0.0768995 -0.0218607 0.357196
0.182879 -0.016754 0.422919
0.0952615 -0.0237178 0.363214
0.00496488 -0.0501077 0.33028
0.125459 -0.024063 0.393679
-0.270111 -0.0187745 0.422119
0.237398 -0.017508 0.356265
0.00147735 -0.00789443 0.313652
-0.0465139 -0.0328294 0.0368738
0.0016778 -0.0298888 0.493361
0.484056 -0.00956642 0.382796
0.0151097 -0.037297 0.260415
-0.0123247 -0.0499407 0.458702
-0.239276 -0.0167217 0.366889
-0.214265 -0.0179912 0.358484
-0.424081 -0.01307 0.407024
0.201937 -0.0180737 0.362197
-0.0244667 -0.0277993 0.391441
0.103284 -0.0191112 0.408189
0.280281 -0.0138148 0.400582
0.0219468 -0.0389014 0.484459
-0.328658 -0.0139144 0.371913
-0.0414546 -0.0232934 0.350584
-0.0016736 -0.0144138 0.164747
0.0103915 -0.0527322 0.674607
-0.00187775 0.0471542 0.0516775
0.381042 -0.0107077 0.408061
0.0177835 -0.0281356 0.418932
-0.00689589 -0.0193161 0.443155
0.272926 -0.0185355 0.427632
-0.00154373 -0.0532353 0.531399
-0.486339 -0.0107274 0.403061
-0.00722839 -0.0512791 0.401943
-0.0786507 -0.0252407 0.375659
0.000920509 -0.00378385 0.59361
-0.202969 -0.0161417 0.402206
0.457305 -0.0094521 0.433325
-0.00491717 -0.023373 0.0334121
-0.375632 -0.0127837 0.369569
-0.0177581 -0.0200897 0.319574
-0.0400841 -0.0222924 0.365606
-2.59664e-05 0.0011234 0.0398858
0.413603 -0.00974337 0.405314
0.217462 -0.0207633 0.408892
-0.00270729 -0.0438564 0.054583
0.0635467 -0.0225553 0.352466
0.0172474 -0.0140916 0.445393
0.460045 -0.0109534 0.389003
0.171371 -0.0170923 0.402922
-0.210997 -0.0196459 0.371077
-0.00607854 -0.0192394 0.585446
0.063297 -0.0203314 0.40692
-0.0683408 -0.0262004 0.395482
-0.0141423 -0.0334132 0.141832
-0.0941225 -0.0303904 0.0103907
-0.315048 -0.0140344 0.375596
0.012927 -0.0193577 0.27557
0.0182634 -0.0456903 0.476975
-0.157573 -0.0176396 0.386492
-0.0145374 -0.0489844 0.495887
0.0763148 -0.0200138 0.397249
0.438362 -0.0125576 0.422221
0.0760592 -0.0321717 0.0388193
0.0256397 -0.021487 0.404895
0.38159 -0.0106646 0.419686
-0.0525051 -0.0249371 0.356189
-0.0044015 -0.00547889 0.622927
-0.00374353 -0.00499899 0.569402
0.113959 -0.0245127 0.396499
-0.0183071 -0.0380359 0.684167
-0.452185 -0.0120011 0.403732
-0.114797 -0.0223359 0.441216
0.0227224 -0.0320362 0.397094
0.0219196 -0.0259095 0.66366
-0.295955 -0.0147915 0.372245
-0.016272 -0.0321192 0.188853
0.254876 -0.0174256 0.438508
0.00191876 -0.0248407 0.535312
0.014841 -0.0272485 0.367893
-0.00474257 -0.00984212 0.275105
0.0910327 -0.0200658 0.37753
0.00985144 -0.00738744 0.450752
0.0119563 -0.0495442 0.39759
0.115908 -0.0236274 0.373815
0.00440965 -0.0524634 0.481294
-0.0167752 -0.020718 0.285697
0.266054 -0.0168124 0.438892
-0.00907141 -0.0281469 0.0807045
-0.017529 -0.0316899 0.0123121
-0.445763 -0.0112659 0.385287
-0.066847 -0.0324024 0.0357395
-0.00679817 -0.0222926 0.460166
0.411373 -0.0114167 0.375113
0.0220569 -0.0384484 0.455739
0.0193191 -0.0182064 0.648781
0.325885 -0.0130942 0.384839
-0.026463 -0.0252165 0.34521
6.37058e-05 -0.0269528 0.0570936
-0.311061 -0.016874 0.3887
0.0228061 -0.0259854 0.535623
-0.102144 -0.019548 0.430659
0.00154498 -0.0038294 0.511497
0.338743 -0.0148668 0.375639
-0.207298 -0.0211348 0.418891
-0.198075 -0.0177691 0.36814
0.00667577 -0.0452083 0.181359
-0.0132609 -0.0111197 0.493731
0.0209968 -0.0425063 0.642226
-0.370405 -0.0150121 0.425159
-0.00929048 -0.00873915 0.361892
-0.0143968 -0.011781 0.454405
0.251802 -0.0160412 0.371745
0.0122018 -0.0261867 0.351016
-0.38047 -0.0110098 0.393198
0.0188275 -0.0457077 0.541145
-0.0736766 -0.0201521 0.389853
-0.155913 -0.0216311 0.368018
-0.0138879 -0.0253378 0.339712
-0.00297608 0.0169275 0.0172088
-0.0966272 -0.0288544 0.03759
-0.27214 -0.015227 0.375426
-0.02416 -0.0274225 0.0357978
0.0960061 -0.0289344 0.0379821
0.0926815 -0.022468 0.343653
0.0174103 -0.0149565 0.613019
-0.00923861 -0.0522211 0.669427
0.0212685 -0.0207173 0.466195
-0.194727 -0.0214846 0.425978
-0.00422419 0.0302259 0.0347425
-0.428908 -0.00932769 0.399208
0.00417802 -0.0190666 0.7062
0.121843 -0.0201213 0.364463
0.0223041 -0.0242293 0.588211
-0.00739347 -0.00618948 0.39462
0.00941728 -0.0334125 0.0325939
-0.0619794 -0.0226167 0.352202
0.450713 -0.00864285 0.402376
-0.0228491 -0.0300667 0.442863
-0.129598 -0.0183031 0.409683
0.00983734 -0.0246359 0.178049
-0.261584 -0.0186771 0.430649
-0.321345 -0.0168194 0.425393
0.00683448 -0.0229117 0.148481
-0.343142 -0.011936 0.397587
0.00585326 -0.0507651 0.368395
0.316871 -0.0148221 0.363478
-0.0193751 -0.0359292 0.298899
0.2045 -0.0177772 0.438607
-0.380252 -0.0107086 0.419962
-0.142194 -0.0180484 0.393661
-0.460228 -0.00929228 0.38634
0.204171 -0.0160487 0.40944
0.0167357 -0.0399759 0.312364
-0.0171571 -0.0280006 0.688055
0.000524676 -0.00792296 0.671356
-0.0158132 -0.0198267 0.674131
-0.00392827 -0.0114308 0.231289
0.0136019 -0.0378865 0.235061
0.00631017 -0.0397869 0.102869
0.0471615 -0.0270355 0.42013
0.358218 -0.0140812 0.375511
-0.212992 -0.020784 0.390254
0.00724433 -0.00579166 0.469275
0.0178592 -0.0385644 0.322832
0.0100949 -0.0534326 0.646373
0.000487094 -0.00363876 0.526779
-0.3047 -0.0174901 0.405023
0.261536 -0.0190888 0.404292
0.181451 -0.0207293 0.369705
0.292464 -0.0140541 0.433039
0.00435364 -0.0541907 0.634917
-0.0155466 -0.040667 0.222754
-0.00295589 -0.00981829 0.263245
-0.000258539 -0.0171665 0.142835
0.0794123 -0.0229361 0.443633
-0.0771968 -0.0260037 0.412267
-0.0878473 -0.0201339 0.377813
0.213235 -0.0175823 0.364807
-0.0573154 -0.0285412 0.0194719
-0.122236 -0.0236017 0.433735
-0.156791 -0.0208308 0.35695
-0.00479584 -0.021681 0.0256588
-0.191584 -0.0194602 0.357196
-0.0155225 -0.0480265 0.566598
-0.130668 -0.0196313 0.368038
-0.042489 -0.0278992 0.0276775
-0.00591818 -0.0230776 0.613363
-0.0168834 -0.0463579 0.627829
0.241943 -0.0148739 0.413656
0.00576092 -0.0294749 0.0898726
-0.116184 -0.0193514 0.37785
-0.00531196 -0.053524 0.605881
0.00196948 -0.0323513 0.596418
0.029519 -0.030394 0.00409315
-0.0137326 -0.0333921 0.030828
0.0162073 -0.0471874 0.409007
0.00681216 -0.0493297 0.309742
-0.0131117 -0.0120515 0.58176
-0.0139636 -0.0133091 0.60392
-0.00202962 -0.0524527 0.45974
-0.0597056 -0.0265702 0.401677
0.155889 -0.0230094 0.403498
0.405898 -0.0101917 0.394896
0.0859265 -0.0308818 0.0185543
0.469976 -0.00880788 0.389444
-0.0633392 -0.0259307 0.376806
-0.0203081 -0.0238671 0.59643
-0.0137765 -0.0464875 0.306347
0.000403597 -0.0495817 0.278262
-0.362798 -0.0112981 0.403038
-0.354184 -0.0120299 0.388938
0.179127 -0.0172263 0.43057
0.022449 -0.0245592 0.552482
-0.116006 -0.0227484 0.36116
-0.424132 -0.010508 0.383148
-0.0103552 -0.0286409 0.0940983
-0.0126959 -0.0296685 0.121362
0.00181435 -0.0480643 0.212158
0.0118922 -0.0241934 0.217759
0.0039798 -0.0541168 0.62435
-0.00562939 -0.0216459 0.107436
0.0230059 -0.0321192 0.513061
-0.00623916 -0.0212059 0.557484
0.273099 -0.0167974 0.3657
-0.13538 -0.0236689 0.42635
-0.00645127 -0.0197155 0.520557
-0.178816 -0.0181678 0.370039
0.263439 -0.0183512 0.382598
0.0198978 -0.0201849 0.383436
0.445065 -0.0107032 0.37675
0.0612635 -0.0242123 0.442251
-0.433776 -0.0127373 0.410639
-0.176959 -0.0222712 0.417628
0.155585 -0.0230405 0.419279
-0.00631911 -0.0249746 0.543566
0.0229246 -0.0255511 0.423169
-0.125952 -0.0185711 0.389716
0.485674 -0.00747065 0.41748
-0.289841 -0.0181247 0.415443
0.0154753 -0.0204235 0.310063
-0.248976 -0.0189303 0.382631
-0.0134862 -0.0481284 0.686581
-0.00653408 -0.0136028 0.205965
0.17002 -0.0221275 0.430361
-0.0172741 -0.024508 0.251048
-0.387078 -0.0123388 0.371448
0.0217377 -0.0364455 0.386701
0.015176 -0.0392747 0.713356
0.194998 -0.021443 0.389017
-0.00217855 -0.0492906 0.727444
-0.0197161 -0.041693 0.541385
-0.148112 -0.0185586 0.376608
-0.218996 -0.0156881 0.424528
-0.00707587 -0.0499048 0.325
-0.00582155 -0.0245078 0.630186
-0.00417597 0.0373568 0.0442829
-0.390683 -0.0104603 0.402275
-0.459794 -0.00831543 0.409326
0.0101371 -0.0509306 0.437891
-0.0181181 -0.0179448 0.537941
0.151426 -0.0195062 0.439664
-0.0217573 -0.0387776 0.40318
0.0071185 -0.00578894 0.566684
0.385684 -0.0144364 0.399116
-0.0198126 -0.0208122 0.527155
-0.192452 -0.0165213 0.394444
-0.0107638 -0.0430812 0.138009
0.0101436 -0.00759271 0.483069
-0.00630445 -0.0332476 0.0271823
-0.069763 -0.0202 0.422971
0.0198297 -0.044437 0.531532
-0.394973 -0.0102508 0.419141
-0.00617714 -0.0205444 0.568281
0.032221 -0.0278164 0.0460401
0.0576128 -0.0265173 0.385114
0.062371 -0.0205539 0.428451
0.00755371 -0.00616674 0.6379
-0.013389 -0.0119599 0.549009
0.137151 -0.0181995 0.393859
0.328515 -0.0145862 0.437784
0.0211706 -0.0419025 0.625427
0.0231103 -0.028114 0.603797
-0.227971 -0.0188958 0.370018
0.0230289 -0.0319213 0.624621
0.36592 -0.011184 0.40559
0.474233 -0.00782657 0.418257
-0.250426 -0.0164501 0.366379
0.0222944 -0.038294 0.65792
0.0755112 -0.0320448 0.0261356
-0.0195009 -0.041246 0.596837
-0.000567286 -0.0517636 0.387855
-0.120706 -0.0308452 0.0211134
-0.0200123 -0.0412772 0.522334
-0.0208137 -0.0312457 0.638928
0.0162773 -0.0162043 0.360249
0.0452423 -0.0222006 0.364881
-0.0202334 -0.0296373 0.668353
0.028864 -0.025763 0.354498
0.0015632 -0.028704 0.473409
-0.000165307 0.0111458 0.0432387
-0.0187488 -0.017094 0.448412
-0.00616554 -0.0309133 0.0558157
0.00251766 -0.0523071 0.44762
0.00211614 -0.0308418 0.569674
0.32683 -0.0137244 0.375389
-0.461846 -0.00832439 0.40003
0.0194193 -0.0314977 0.693159
-0.116374 -0.0188225 0.394594
-0.476013 -0.0100869 0.385683
-0.232953 -0.0152851 0.39577
-0.478109 -0.00778741 0.405881
-0.0169092 -0.0463567 0.611192
-0.00162911 -0.0434762 0.0190555
-0.0246231 -0.0312958 0.0106898
-0.0334706 -0.0256305 0.355238
-0.00426201 -0.00639642 0.354246
-0.0943361 -0.0253379 0.408625
-0.0843593 -0.0197878 0.395037
0.0553055 -0.0241993 0.347133
0.048875 -0.028071 0.0303598
-0.0517061 -0.0268258 0.396379
0.00450975 -0.0130288 0.688273
0.13571 -0.0227412 0.372419
0.0222728 -0.0245336 0.632146
0.00651237 -0.0413984 0.122375
0.0138749 -0.0218331 0.416884
0.140518 -0.0236243 0.409007
-0.00437971 -0.00164181 0.0498577
-0.053418 -0.0212415 0.433174
-0.0209147 -0.0326369 0.615738
-0.0118569 -0.0267692 0.359241
0.00399051 -0.0518539 0.705049
0.0827479 -0.025797 0.413928
0.00499943 -0.0449776 0.154257
0.172664 -0.0200501 0.354815
-0.000145935 -0.0337072 0.0390124
-0.493494 -0.00830671 0.387346
-0.019958 -0.0279174 0.38518
0.0167571 -0.0190993 0.342847
-0.00242145 -0.0501988 0.312014
0.00194787 -0.00748825 0.324797
0.290774 -0.0165091 0.371724
0.0187712 -0.0463172 0.676727
-0.01913 -0.0437436 0.489494
-0.196739 -0.0171696 0.377342
-0.23814 -0.0151364 0.425801
-0.0133465 -0.0451864 0.25517
-0.305264 -0.0166554 0.382197
-0.00600751 -0.0215912 0.597812
-0.271305 -0.0140209 0.408985
0.023053 -0.0316354 0.61271
-0.0139705 -0.0496126 0.541078
-0.102009 -0.0197612 0.377566
-0.0110199 -0.0506837 0.476925
0.0716394 -0.028449 0.0393944
0.184851 -0.0179635 0.437769
-0.0125456 -0.0507605 0.660896
0.159587 -0.0175322 0.392369
-0.0787877 -0.0227765 0.3432
-0.0159542 -0.0458475 0.358417
-0.187543 -0.0165553 0.408973
0.387455 -0.0130988 0.378166
0.00450153 -0.00480363 0.607959
0.110157 -0.031315 0.0452235
-0.0424088 -0.0211341 0.385326
-0.0851406 -0.0286231 0.0375883
0.00489442 -0.0140791 0.231095
0.000940605 -0.0323513 0.559915
-0.0110272 -0.0455557 0.194107
0.00970158 -0.0205041 0.209735
-0.0373363 -0.0212923 0.427467
0.10958 -0.0292627 0.0286789
-0.0156208 -0.0219324 0.426607
-0.00672262 -0.0225593 0.473319
0.0229371 -0.0259987 0.475108
-0.00458595 -0.0309257 0.00453258
0.0632834 -0.0249252 0.362232
0.0199163 -0.0445927 0.571201
-0.00419822 -0.0526985 0.507577
-0.362182 -0.0154353 0.416805
0.0224878 -0.0243344 0.501782
0.0502306 -0.0268446 0.39182
0.222109 -0.0197984 0.434521
-0.030926 -0.0276682 0.417454
-0.00988799 -0.0421115 0.108499
0.0353685 -0.0274958 0.404332
-0.229509 -0.0157988 0.384089
-0.163055 -0.019116 0.362599
0.234212 -0.0201569 0.417561
-0.00725734 -0.0193835 0.138924
-0.0215957 -0.0358652 0.513702
-0.0200342 -0.0390005 0.645776
0.0195244 -0.0180416 0.572584
-0.399287 -0.0137677 0.394662
-0.018001 -0.0450428 0.396592
-0.0207888 -0.0225796 0.369134
-0.408558 -0.0103705 0.430895
0.00797994 -0.0392372 0.132969
-0.110644 -0.0220145 0.347453
-0.151455 -0.0203196 0.349809
0.344656 -0.0158306 0.427874
0.131205 -0.0184178 0.42682
0.0131708 -0.0239611 0.240506
-0.01231 -0.0505332 0.551953
-0.0306145 -0.0214507 0.390425
0.00151 -0.0255502 0.464148
0.240925 -0.0168419 0.364495
-0.30454 -0.0161216 0.374058
0.0125239 -0.0104463 0.38503
-0.00659917 -0.00642985 0.546336
-0.14032 -0.0231159 0.380497
-0.34487 -0.013237 0.375257
0.010208 -0.0394655 0.733532
0.12692 -0.0237016 0.38124
-0.206295 -0.0179333 0.362494
0.0600921 -0.0323855 0.0320922
0.00448723 -0.0185585 0.159808
0.0101807 -0.0297979 0.157872
-0.131194 -0.0209261 0.349102
-0.15999 -0.022838 0.40109
-0.277087 -0.0183662 0.390687
-0.0864619 -0.024957 0.433532
-0.171348 -0.020284 0.357437
0.0293753 -0.0277223 0.417715
-0.00563432 -0.00647716 0.645031
-0.0314242 -0.0330723 0.0441873
-0.118043 -0.0243908 0.42225
-0.0223875 -0.0329377 0.461068
0.000479837 -0.0323513 0.627033
0.0206741 -0.0419959 0.501736
0.00468365 -0.036295 0.0601412
0.0147032 -0.0115358 0.504322
0.432634 -0.0120729 0.389384
-0.169837 -0.0223529 0.428027
-0.0189859 -0.0409531 0.343675
-0.0147191 -0.0189163 0.260479
0.054583 -0.0309967 0.0145403
-0.49329 -0.0073243 0.406381
-0.00365892 -0.0323513 0.524671
0.0229443 -0.0327689 0.586413
0.348802 -0.0117642 0.397664
0.0148808 -0.0507408 0.628188
-0.41741 -0.0106547 0.383698
-0.00548722 -0.00524971 0.48724
0.457256 -0.00841369 0.406493
0.0713046 -0.022433 0.351147
-0.043752 -0.0239774 0.339778
0.10106 -0.0212252 0.356771
-0.323449 -0.0132181 0.434079
0.0269123 -0.0215795 0.388305
-0.0853799 -0.0214791 0.35934
-0.166809 -0.0171756 0.41695
0.419638 -0.0131791 0.399639
0.00236864 -0.0202797 0.613635
0.150898 -0.0179171 0.384737
-0.039781 -0.0329453 0.0424599
0.238932 -0.0198898 0.399329
0.0766103 -0.0291774 0.0171513
-0.0153978 -0.0480551 0.467978
0.203335 -0.0162117 0.391931
-0.0387343 -0.0210789 0.406396
0.200181 -0.0164359 0.428839
0.235964 -0.0152275 0.391524
-0.2956 -0.0133683 0.398412
0.25442 -0.0147307 0.428015
-0.00463238 -0.0537737 0.623048
-0.0177589 -0.0319936 0.236151
0.113814 -0.0188165 0.419301
0.0231762 -0.030495 0.482606
0.310305 -0.0135536 0.384399
0.390986 -0.0142047 0.42675
-0.0212185 -0.0225747 0.491837
-0.0281176 -0.0275384 0.379743
0.321533 -0.0125067 0.42081
-0.0128408 -0.0468865 0.293403
0.0022167 -0.0273797 0.587183
0.188102 -0.020857 0.375387
0.0572021 -0.0206239 0.393233
0.0129819 -0.0219992 0.38855
0.00363271 -0.0483039 0.2352
-0.453207 -0.00931366 0.432673
0.00655272 -0.0117494 0.290099
-0.00544674 -0.04848 0.236196
-0.00761816 -0.0150111 0.193073
0.0284394 -0.0225845 0.366017
0.00239391 -0.0280595 0.618034
-0.0137241 -0.0274645 0.0481322
-0.193366 -0.0217012 0.414243
0.10296 -0.0247089 0.429565
-0.0047157 -0.0127429 0.0286564
0.022546 -0.0370895 0.574472
-0.278063 -0.0146622 0.381222
0.283251 -0.0148218 0.376863
-0.348201 -0.0159065 0.409259
0.0404585 -0.0217754 0.43474
0.188103 -0.0165702 0.404911
-0.00813574 -0.0107989 0.296042
-0.408339 -0.0128701 0.386902
0.00775217 -0.027196 0.131635
0.113853 -0.0208338 0.35734
-0.320278 -0.016903 0.404
0.00979681 -0.00736056 0.459668
-0.0115552 -0.0301829 0.711375
-0.370061 -0.0118906 0.433973
-0.0110575 -0.0289105 0.0113352
-0.010298 -0.0272405 0.102502
0.0488265 -0.0209011 0.425789
-0.00629516 -0.0503798 0.346478
0.269278 -0.0147297 0.383724
-0.0185702 -0.0209397 0.632441
0.00167687 -0.021386 0.493198
0.0221852 -0.0379614 0.666401
-0.00611314 -0.0252169 0.579422
0.334874 -0.0121217 0.405806
0.0745676 -0.0259846 0.423249
0.0180723 -0.0409185 0.347488
0.0682834 -0.0300866 0.00942428
-0.341519 -0.0123544 0.389283
0.431227 -0.0128124 0.408058
-0.0144313 -0.019594 0.242681
0.0193982 -0.0266682 0.335009
-0.277062 -0.0163945 0.36216
0.0864199 -0.019696 0.39877
0.196051 -0.018522 0.358058
0.0786515 -0.025257 0.375894
0.137357 -0.023658 0.423618
-0.0190288 -0.0215685 0.620837
0.370944 -0.0149933 0.425109
-0.424759 -0.0130584 0.422357
0.00516349 -0.0171089 0.182219
-0.00593956 -0.0306276 0.609642
-0.000842225 -0.00378433 0.468098
-0.0108737 -0.00990287 0.615705
-0.0702641 -0.0262239 0.407512
-0.407937 -0.0121793 0.376682
0.00382993 -0.042626 0.0924306
-0.00829517 -0.0464473 0.167926
0.298918 -0.0146867 0.37258
0.0661661 -0.0203348 0.395489
0.0139368 -0.0450244 0.319119
-0.199576 -0.0166312 0.430784
0.00641508 -0.0467432 0.220419
-0.446168 -0.00880806 0.398862
-0.0935428 -0.0195054 0.395602
0.243968 -0.0159534 0.376132
0.0116559 -0.0510764 0.516788
-0.0361409 -0.026943 0.37576
0.108716 -0.0200668 0.370477
-0.312658 -0.0150845 0.363745
0.0136984 -0.0108503 0.396049
-0.019363 -0.0200088 0.361275
-0.0223492 -0.0236036 0.399087
-0.0203732 -0.0354867 0.329842
0.1774 -0.0221679 0.424082
-0.335251 -0.0164072 0.411701
-0.0490892 -0.031432 0.0159227
-0.40849 -0.00995993 0.397394
-0.0673071 -0.02481 0.362888
0.115292 -0.0313434 0.0343712
-0.147607 -0.0177474 0.415796
0.00200746 -0.0321286 0.550754
0.225463 -0.0195752 0.378397
0.0676546 -0.032298 0.0361447
0.00272992 -0.0425583 0.0705267
0.00140528 -0.0290987 0.445915
-0.0698117 -0.0287646 0.0201151
-0.0160729 -0.0137067 0.467375
-0.188558 -0.0173002 0.37871
-0.0700947 -0.020091 0.414274
0.0237735 -0.0277644 0.383758
-0.0178513 -0.0419202 0.318506
0.0132817 -0.0511376 0.592222
-0.00949869 -0.0397959 0.728037
0.0175075 -0.0231668 0.317598
-0.022322 -0.0236346 0.417606
0.25523 -0.0188232 0.38469
-0.299979 -0.0131549 0.40879
0.00212179 -0.0224349 0.570658
-0.00667573 -0.00677702 0.587631
0.254999 -0.0173709 0.363555
0.0162423 -0.033352 0.037406
0.0169022 -0.0324598 0.0515549
0.0192606 -0.0170102 0.425681
-0.466468 -0.00837157 0.428101
0.0170615 -0.0281478 0.287168
0.33547 -0.0124367 0.390492
-0.070036 -0.0260117 0.428796
0.166951 -0.0208433 0.36299
-0.0609489 -0.0237485 0.343869
0.0138175 -0.0425785 0.276727
-0.000516466 -0.00344167 0.402392
0.306973 -0.0173995 0.404255
-0.00682976 -0.0301449 0.454666
0.422789 -0.0118717 0.380798
-0.0309199 -0.0265049 0.366413
-0.0118138 -0.0252898 0.135499
-0.0033198 -0.0435378 0.0337032
0.00838599 -0.028397 0.391436
0.00826169 -0.0271854 0.0409129
0.186479 -0.0166954 0.395276
0.00775524 -0.0331004 0.107365
-0.0263565 -0.0246355 0.337183
-0.0210199 -0.0399438 0.445026
0.0226893 -0.0356668 0.64636
0.35674 -0.0114882 0.402193
-0.108381 -0.0243433 0.379827
0.0174193 -0.0357542 0.301328
-0.000708397 -0.00565367 0.655679
-0.0932245 -0.0292879 0.0195217
0.137575 -0.0186337 0.432307
0.395541 -0.0141505 0.409708
0.138859 -0.0213704 0.354411
-0.00736 -0.019623 0.700068
-0.00132511 -0.0458574 0.127213
-0.0497368 -0.0269392 0.420227
0.232947 -0.0183087 0.364398
0.00944066 -0.00735239 0.593932
-0.00706573 -0.00927306 0.316585
0.0122754 -0.0500143 0.445816
0.00328334 -0.0535404 0.681615
-0.210112 -0.0158384 0.413463
0.0408524 -0.0271796 0.390099
-0.0120315 -0.0101505 0.52922
-0.00627061 -0.047953 0.212108
-0.320934 -0.0128735 0.389964
-0.00588864 -0.0311546 0.0334199
0.0025449 -0.0114365 0.246219
0.0292189 -0.027683 0.39908
0.302502 -0.0176543 0.415662
-0.00122654 -0.0323513 0.53928
0.119474 -0.0187427 0.392813
0.454773 -0.00885882 0.394721
-0.126632 -0.0241261 0.417978
0.0224401 -0.0249315 0.596432
0.0692645 -0.0201087 0.412309
-0.00662859 -0.0255307 0.489689
0.0775186 -0.0198772 0.409927
0.00560763 -0.0284179 0.381003
-0.0477499 -0.0214905 0.374153
-0.000919005 0.0302765 0.0267616
-0.0178378 -0.0384136 0.270855
0.11217 -0.018861 0.405818
0.00113475 -0.0493402 0.270171
0.0196725 -0.0454167 0.603547
-0.38102 -0.0121162 0.377078
0.00283887 -0.0527327 0.489504
0.417014 -0.010032 0.392797
-0.0213912 -0.0260853 0.5433
-0.261642 -0.0189686 0.390491
-0.0976708 -0.0313969 0.0479635
0.0129802 -0.00985887 0.575022
0.0861559 -0.0203489 0.434147
0.0194668 -0.0196833 0.656588
-0.488311 -0.00739321 0.417169
0.365732 -0.0147931 0.390138
-0.437889 -0.0122768 0.428588
0.00419021 -0.0419775 0.750389
0.146241 -0.0177862 0.411445
-0.00104573 -0.0335428 0.0466613
-0.00889552 -0.00765894 0.510198
0.0047789 -0.0536894 0.595103
-0.0554516 -0.0280514 0.0339815
0.00937235 -0.012746 0.306233
0.0083364 -0.0518247 0.462579
0.0233407 -0.0289611 0.429427
-0.113601 -0.0199369 0.370412
0.216777 -0.0157513 0.398725
-0.277017 -0.0184451 0.425929
0.237419 -0.0150739 0.405398
0.01341 -0.046769 0.708771
-0.234825 -0.0151438 0.406481
0.0168025 -0.0474342 0.684285
0.449761 -0.0115223 0.431986
0.0145284 -0.0114434 0.559779
0.0141884 -0.0293971 0.230784
-0.0206056 -0.0401807 0.499068
-0.212864 -0.0162674 0.383938
-0.123152 -0.0188436 0.382399
0.038495 -0.028302 0.019139
-0.396046 -0.0128595 0.37966
-0.420875 -0.00946152 0.413477
-0.0537488 -0.0326992 0.0409939
-0.0210166 -0.0225035 0.508234
-0.123441 -0.0203263 0.360862
0.373727 -0.0135542 0.376833
0.230964 -0.0154992 0.428713
0.109437 -0.0190913 0.387129
-0.275791 -0.0175587 0.435753
0.392201 -0.0134949 0.386629
0.441147 -0.0124534 0.409308
0.0104062 -0.0379901 0.173407
0.226084 -0.0203963 0.402998
0.316998 -0.0170648 0.409053
0.089542 -0.0318197 0.0328602
-0.0135537 -0.0218537 0.404781
-0.0364377 -0.021207 0.398967
-0.00447815 -0.023563 0.0516339
-0.370592 -0.0150784 0.409779
0.0392748 -0.0227831 0.358832
-0.000934633 -0.0537299 0.573402
0.0151213 -0.0338673 0.252879
-0.0683338 -0.0252073 0.43823
0.00498924 -0.0508889 0.712692
0.0104129 -0.0202313 0.224262
-0.141403 -0.0215427 0.358371
0.0168975 -0.016529 0.368479
-0.0975916 -0.0216359 0.352212
0.202081 -0.0212792 0.401822
-0.0162852 -0.0471181 0.585234
0.022798 -0.0275266 0.0331964
0.266382 -0.0142344 0.400706
-0.159584 -0.0220924 0.434987
-0.353424 -0.0143383 0.376463
0.018652 -0.0217653 0.396435
0.0554385 -0.0258302 0.436679
0.0140136 -0.0111068 0.627163
0.35194 -0.0123715 0.434038
-0.00382183 -0.0435889 0.0437019
-0.00131222 0.00829311 0.0191073
-0.064833 -0.0213228 0.369779
0.279102 -0.0184314 0.423014
-0.00250572 -0.00944746 0.00802739
-0.0191003 -0.044153 0.424706
-0.254974 -0.0193744 0.418818
-0.0149071 -0.0419248 0.701818
-0.0151954 -0.0483803 0.558747
-0.387698 -0.0136463 0.433557
-0.109913 -0.0189851 0.398751
-0.14079 -0.0235329 0.398717
0.0115928 -0.0368581 0.190186
-0.241509 -0.0198479 0.420761
0.451429 -0.00850964 0.417099
-0.0183224 -0.044974 0.434793
0.0032303 -0.0543144 0.656389
-0.021106 -0.0282923 0.332958
0.0565887 -0.0211777 0.375159
-0.102201 -0.0250698 0.411703
0.0181223 -0.0466223 0.560483
0.0938805 -0.0247861 0.432387
-0.012789 -0.0134187 0.321718
-0.0125239 -0.0425381 0.162162
0.121156 -0.0208465 0.441226
-0.0137453 -0.0157886 0.663944
0.214637 -0.0202234 0.432918
-0.015925 -0.0474351 0.641928
0.290255 -0.0135707 0.393265
0.0016497 -0.0487233 0.242572
0.103665 -0.024856 0.391518
0.0135697 -0.0104005 0.530916
0.00550515 -0.0127011 0.262033
-0.0168444 -0.0451842 0.365973
0.232898 -0.0160009 0.379846
-0.0189552 -0.0358716 0.285232
-0.00628442 -0.0203377 0.549605
0.458757 -0.00841685 0.425923
0.00776474 -0.0530554 0.569951
-0.0048231 -0.00474251 0.45137
0.0636281 -0.0214118 0.368971
0.00247913 -0.0275169 0.63287
8.10411e-05 -0.0236344 0.718589
-0.1424 -0.0230753 0.431275
0.00388992 -0.050801 0.359232
-0.00302851 0.0241782 0.0190658
-0.00575132 -0.05058 0.708785
-0.0827115 -0.0233189 0.350208
-0.290056 -0.0171137 0.380053
0.00421778 -0.0459738 0.165593
-0.00247226 -0.0323513 0.499201
-0.0484424 -0.0281502 0.0230022
-0.0131276 -0.0282818 0.421022
-0.0162866 -0.0263536 0.207722
0.388979 -0.0104604 0.409011
0.281105 -0.013974 0.389902
0.0595706 -0.0265854 0.402954
-0.09014 -0.03196 0.0412432
0.000885254 -0.0185425 0.461416
0.408093 -0.0136999 0.411735
-0.0124991 -0.044365 0.202637
0.0117317 -0.0281775 0.191006
-0.00596573 -0.0196026 0.605086
0.0168021 -0.023486 0.303315
0.00220634 -0.003885 0.429092
0.0013627 -0.00385152 0.561033
-0.0924552 -0.0288277 0.0297093
0.317201 -0.0169473 0.426505
-0.166901 -0.0181682 0.374776
0.00244106 -0.0497174 0.296491
-0.0984399 -0.0194437 0.384654
0.112242 -0.0215754 0.347255
0.256365 -0.0193355 0.411208
-0.0142492 -0.0284141 0.151826
0.0234266 -0.0245207 0.444501
-0.257522 -0.0144992 0.401124
-0.0163145 -0.0151998 0.555101
-0.493916 -0.0102486 0.427883
0.00322824 -0.0424118 0.0779998
-0.00691818 -0.0491045 0.279768
0.095668 -0.0251239 0.387797
-0.0198696 -0.0411666 0.548848
-0.222559 -0.0182245 0.357191
0.463981 -0.00950875 0.381748
0.220038 -0.0205227 0.427149
-0.161577 -0.017442 0.396169
0.0230044 -0.0322748 0.415146
-0.0108675 -0.033031 0.020865
0.352062 -0.0115825 0.408338
-0.381425 -0.0146484 0.406219
-0.154968 -0.0229418 0.426499
-0.176116 -0.0175381 0.432953
-0.00654408 -0.0271761 0.504401
0.488527 -0.0074364 0.410605
0.294387 -0.0168144 0.378223
0.00214722 -0.0332027 0.0214111
0.109489 -0.0247271 0.420604
0.00326386 -0.0271466 0.726551
0.162548 -0.0173042 0.416843
0.0115438 -0.0088408 0.617877
0.0838303 -0.0318487 0.0456189
0.0158107 -0.0469431 0.391797
-0.114263 -0.0246262 0.412305
-0.0131904 -0.0209303 0.192605
0.14911 -0.0232922 0.407392
0.0014532 -0.00389375 0.574572
-0.0451104 -0.0270975 0.399739
0.0119299 -0.0139596 0.329292
-0.0110629 -0.0158122 0.237278
0.467637 -0.0114642 0.408619
0.389472 -0.0125677 0.371651
-0.21179 -0.0158726 0.422846
-0.015668 -0.0414377 0.236488
-0.00205974 -0.00478779 0.629909
-0.0036796 -0.0519308 0.426419
-0.0771705 -0.0199435 0.420253
-0.345125 -0.0123441 0.431645
-0.266677 -0.0189109 0.405971
-0.000806463 0.043176 0.0302276
-0.248754 -0.0194889 0.42595
-0.00129439 -0.0513614 0.370074
-0.0205888 -0.0325983 0.0194199
-0.0010402 -0.0481291 0.734619
0.00605583 -0.00778246 0.354358
0.0110251 -0.0284472 0.410219
-0.101124 -0.03006 0.0126046
-0.0178405 -0.0164138 0.374589
0.0126093 -0.0220708 0.380912
-0.0766136 -0.0245417 0.364376
0.0884291 -0.019691 0.391699
0.31307 -0.0170499 0.392403
-0.0856155 -0.0255888 0.399353
0.0918095 -0.0253598 0.399511
-0.0217138 -0.0387086 0.416321
-0.00767319 -0.00617068 0.422772
-0.219262 -0.0206769 0.406415
-0.402253 -0.0138122 0.426174
0.00765732 -0.00765123 0.374025
-0.364227 -0.0112002 0.410217
0.0218346 -0.0223333 0.5445
-0.00307238 -0.0233914 0.0799936
0.147223 -0.0227939 0.379822
0.0425168 -0.0210202 0.422115
-0.309933 -0.0128516 0.420069
-0.305079 -0.0133971 0.388712
0.000209765 -0.0403742 0.00198351
0.255074 -0.014543 0.404968
0.117944 -0.0307141 0.0190418
0.0211336 -0.0294701 0.361093
0.0201347 -0.0228446 0.36556
0.366166 -0.0152613 0.419165
0.0114391 -0.0122809 0.345061
-0.0224443 -0.0305283 0.480152
-0.477744 -0.0111554 0.417366
-0.0124694 -0.0220659 0.382059
-0.0513574 -0.0208078 0.392345
-0.0435423 -0.0262996 0.370724
-0.00229509 -0.0440063 0.062267
0.032971 -0.0329094 0.0307496
-0.00125092 -0.0148268 0.0151772
0.0161147 -0.0255263 0.697042
0.0575316 -0.0324911 0.0425527
-0.0737745 -0.025898 0.382691
-0.0807781 -0.0197733 0.410596
-0.13392 -0.0185374 0.382541
-0.00113017 -0.00778843 0.0543445
-0.254868 -0.0146477 0.392494
-0.180765 -0.0168586 0.396508
-0.0180693 -0.0325011 0.247606
0.00217346 -0.0253991 0.579654
0.294532 -0.017898 0.42004
-0.174435 -0.0197366 0.441441
9.97525e-07 -0.0524862 0.440864
-0.00431447 -0.0323513 0.58628
0.214047 -0.0159095 0.389161
-0.356469 -0.0155632 0.404605
0.327775 -0.0125362 0.392104
-0.013016 -0.039953 0.144638
0.000340414 -0.0270708 0.0427165
0.0912763 -0.019507 0.404082
0.431862 -0.00919615 0.424156
-0.022006 -0.0279371 0.528914
-0.0129084 -0.0234333 0.695494
-0.0761978 -0.0308029 0.0156523
-0.259689 -0.0192161 0.411728
-0.0144584 -0.0275276 0.37171
0.00326856 -0.0540079 0.607047
0.282303 -0.0183905 0.416581
-0.299762 -0.013449 0.428904
0.0164082 -0.0464153 0.695429
-0.0903118 -0.0208991 0.365766
0.13385 -0.0238516 0.406409
-0.0531751 -0.032125 0.0495108
0.010595 -0.0453807 0.260538
-0.282935 -0.0183668 0.413606
0.379134 -0.0109073 0.395198
0.119718 -0.0240382 0.43004
0.13303 -0.0237539 0.390166
0.0259915 -0.0330991 0.0436816
0.217472 -0.0156941 0.422371
-0.0422819 -0.03111 0.0124099
-0.00474701 -0.00367139 0.0422519
-0.0438353 -0.0215064 0.432921
0.00169531 -0.0534166 0.53775
-0.224959 -0.0199971 0.431181
-0.363318 -0.0152904 0.424432
-0.0797065 -0.0198789 0.401331
0.14751 -0.0225817 0.434567
0.0756516 -0.0260651 0.413425
0.394172 -0.0103045 0.421719
0.163191 -0.0217366 0.373741
0.0224292 -0.0253967 0.645314
0.0129829 -0.0214999 0.258992
-0.0113657 -0.0482738 0.700673
-0.323281 -0.0168784 0.415031
0.0847434 -0.0256336 0.42123
-0.0116817 -0.00869252 0.4283
-0.0048104 -0.0351224 0.736233
0.188663 -0.0212094 0.432747
0.0117266 -0.0485535 0.360797
0.404628 -0.0123394 0.377089
0.0134064 -0.0165007 0.315712
-0.0468028 -0.0208325 0.417091
-0.0152075 -0.0344898 0.165099
0.197778 -0.0175174 0.371899
0.216046 -0.0169282 0.373149
0.0174784 -0.0276197 0.374783
0.0122037 -0.0301714 0.00285722
0.0532274 -0.0302216 0.00685157
-0.00654661 -0.0180712 0.145921
0.0191231 -0.042814 0.385149
-0.00567705 -0.0273254 0.720317
-0.370184 -0.0143686 0.386566
-0.478889 -0.0107909 0.42809
0.184523 -0.0219813 0.418482
0.301138 -0.0154006 0.361673
-0.127438 -0.0238474 0.428987
0.296296 -0.0177879 0.403175
0.223577 -0.0155809 0.394247
0.266132 -0.017323 0.369281
0.345485 -0.0117556 0.411748
-0.0728337 -0.0260809 0.420634
-0.120437 -0.0293456 0.0398118
0.117865 -0.019519 0.435459
0.0607384 -0.0264508 0.39141
0.202093 -0.021105 0.387043
0.0762064 -0.020091 0.387888
0.0201598 -0.0426439 0.42739
0.175085 -0.0221826 0.388997
-0.00634503 -0.0185425 0.47906
-0.198115 -0.0163825 0.39031
-0.106619 -0.0314274 0.0258744
-0.0931255 -0.0245138 0.435668
-0.0115063 -0.0181285 0.203975
-0.0185391 -0.0435574 0.604983
-0.00325034 -0.0185425 0.455437
0.0164829 -0.0275125 0.0262135
-0.0184413 -0.016391 0.441457
0.0228693 -0.0334917 0.48892
-0.0199196 -0.0410022 0.374645
-0.244617 -0.0183077 0.371114
0.287022 -0.0154748 0.365918
0.00714643 -0.0455713 0.199197
-0.135176 -0.0237999 0.406105
0.377911 -0.0141879 0.388409
-0.136751 -0.0220868 0.363555
-0.0125884 -0.0506273 0.593655
0.379183 -0.0121897 0.435403
-0.312151 -0.0130576 0.428694
-0.479569 -0.00948599 0.379046
0.411945 -0.0135447 0.421318
0.00733547 -0.0228645 0.711122
-0.331088 -0.0165178 0.40611
-0.0153974 -0.0426372 0.249015
0.0109086 -0.0315055 0.168235
-0.0126225 -0.0106639 0.515948
-0.00366431 0.052725 0.0300761
0.00823253 -0.00637475 0.433975
0.122321 -0.0242873 0.417827
-0.0185634 -0.0421681 0.670496
-0.0328288 -0.0277316 0.0265134
-0.0483086 -0.0207761 0.408045
0.0351579 -0.0305931 0.00814907
0.0827572 -0.0214342 0.361033
0.0130634 -0.00973114 0.441983
0.00569368 -0.0418688 0.114711
0.00159789 -0.0253008 0.479448
-0.0612211 -0.0204585 0.398777
-0.421947 -0.00987706 0.429905
0.0265884 -0.0251603 0.34447
0.161858 -0.0175573 0.428506
-0.0787209 -0.0249886 0.436366
0.398333 -0.010135 0.414606
0.0429704 -0.0253652 0.44122
-0.0208054 -0.0299194 0.00509
0.133686 -0.0199543 0.439666
0.475804 -0.00781437 0.411526
-0.00825269 -0.0179239 0.158864
-0.000439396 0.032496 0.0400519
-0.0152989 -0.0215401 0.680793
0.330809 -0.0122918 0.424889
0.340852 -0.012794 0.383234
-0.00622972 -0.00662469 0.608868
-0.0187172 -0.0254844 0.344617
0.0200912 -0.043701 0.524431
-0.0179737 -0.040679 0.307005
-0.0385191 -0.0277369 0.0332837
-0.222168 -0.0156504 0.39084
0.0708874 -0.026092 0.393748
0.000910212 -0.0118998 0.225949
0.00013999 -0.018931 0.0320714
0.182076 -0.0202334 0.362893
-0.0175886 -0.0273809 0.030291
-0.0674524 -0.0221821 0.356309
-0.00557348 -0.0272068 0.361946
0.0904248 -0.0255169 0.413608
0.338531 -0.0155243 0.433683
-0.427084 -0.00983962 0.391579
-0.00607433 -0.0114943 0.676348
-0.283231 -0.0137812 0.426596
0.0139766 -0.0109093 0.584227
-0.401599 -0.0139507 0.412936
