0.316328 -0.0128562 0.427862
-0.496223 -0.00932867 0.386375
0.0429552 -0.0327351 0.0447888
-0.207293 -0.0161326 0.388075
0.174029 -0.0223459 0.404862
-0.123166 -0.0186681 0.388116
-0.00652357 -0.0515164 0.699742
-0.316467 -0.0152717 0.368648
-0.0808492 -0.028563 0.0403678
0.0114117 -0.0182581 0.692297
-0.00495641 -0.0202335 0.0425366
0.0512565 -0.0262519 0.374483
-0.266249 -0.016881 0.36296
0.099716 -0.0250612 0.39891
-0.344601 -0.0133213 0.374145
0.431648 -0.0124721 0.428995
0.357798 -0.0113738 0.418318
-0.00221108 -0.0042468 0.490655
-0.165665 -0.0225586 0.425967
0.001707 -0.0197014 0.498445
0.0115554 -0.0523636 0.620117
0.0226787 -0.0248933 0.470975
-0.0179715 -0.0430306 0.337608
0.0117128 -0.0323874 0.0171683
0.193159 -0.0165226 0.391558
1.97887e-05 -0.03013 0.0018624
-0.0473397 -0.0268738 0.381884
0.00537467 -0.0500733 0.330836
0.398649 -0.010111 0.416688
-0.114817 -0.0245322 0.420446
0.104517 -0.0315765 0.0405955
-0.00131357 -0.0185425 0.587176
0.0435927 -0.031545 0.0523349
0.0843879 -0.0202709 0.377208
0.402366 -0.0101068 0.402261
-0.0214943 -0.0351117 0.364444
0.194644 -0.0215657 0.421868
-0.0157075 -0.0125158 0.401091
-0.0257211 -0.0306426 0.00615162
0.206035 -0.0197194 0.437878
-0.0111093 -0.0222857 0.149474
0.0811951 -0.0320099 0.0351533
0.163965 -0.0209786 0.363225
0.0117282 -0.046192 0.71903
-0.0134844 -0.050237 0.620936
0.349526 -0.0146051 0.378072
0.44552 -0.0104012 0.376208
0.0495117 -0.0208976 0.388046
-0.00054692 0.0316203 0.0307106
-0.242392 -0.0195939 0.388431
0.0972222 -0.0221023 0.442991
0.23535 -0.0150666 0.414559
-0.202046 -0.0212202 0.394168
0.00156756 -0.0324561 0.0159045
-0.0878011 -0.0290287 0.0220254
0.197408 -0.0166676 0.430468
0.227193 -0.016728 0.371607
0.00204846 -0.0251795 0.557892
-0.323101 -0.0167649 0.399627
-0.175864 -0.0169377 0.420284
-0.0100288 -0.0231299 0.131588
-0.221908 -0.0155256 0.407642
0.459524 -0.0103481 0.43429
0.348073 -0.0125372 0.384067
-0.151319 -0.017707 0.401924
0.203146 -0.0183357 0.357926
-0.264122 -0.0189824 0.403003
-0.0170868 -0.0460647 0.649418
0.0187177 -0.0464812 0.608013
0.0186914 -0.0169263 0.647939
-0.279342 -0.0170229 0.37256
0.282899 -0.0141451 0.430932
-0.0201845 -0.0200237 0.465903
-0.0223776 -0.0335159 0.455926
0.257671 -0.0192826 0.410653
0.021763 -0.039212 0.467802
0.322003 -0.0133623 0.382523
0.0222974 -0.0321644 0.389083
0.110159 -0.0230123 0.439914
0.263453 -0.0151837 0.379507
0.395278 -0.0119117 0.37436
0.124738 -0.0202185 0.361906
-0.177274 -0.0220181 0.428625
0.0254343 -0.0215836 0.393451
0.102873 -0.0239249 0.3706
0.0211604 -0.0371224 0.377298
-0.000180152 -0.0323513 0.445567
0.0411814 -0.0278364 0.036883
0.00110184 -0.00695978 0.33135
-0.00274687 -0.0532458 0.545566
0.00826023 -0.0311643 0.120654
-0.143657 -0.0226908 0.376274
-0.191811 -0.021588 0.392526
0.388511 -0.0108613 0.392153
0.274797 -0.0186692 0.416475
0.0181451 -0.015789 0.609889
0.249062 -0.0195084 0.39872
0.251612 -0.0179289 0.36967
0.13935 -0.023494 0.386889
-0.0125199 -0.050281 0.526792
0.0592915 -0.0323711 0.0297025
0.46658 -0.0114457 0.401003
-0.16802 -0.018022 0.435549
0.198363 -0.0211921 0.386151
-0.126085 -0.021859 0.441218
-0.228813 -0.0152894 0.417157
0.0512877 -0.0227037 0.355199
0.275786 -0.0139819 0.396643
0.14878 -0.0195883 0.361451
0.260899 -0.0148164 0.431054
0.00396963 -0.0517533 0.705973
0.0237731 -0.0236583 0.352345
-0.254543 -0.0180727 0.37344
0.271127 -0.0168234 0.364938
-0.22669 -0.0155217 0.389813
0.0171504 -0.0281168 0.397213
-0.0210959 -0.0348308 0.350926
0.0171775 -0.0241223 0.305307
0.330363 -0.0146009 0.366962
-0.0220952 -0.0244087 0.451715
-0.492819 -0.00845671 0.385459
-0.00642742 -0.0323513 0.456025
-0.138289 -0.0180379 0.409977
0.266864 -0.0178145 0.376811
-0.27199 -0.0146906 0.383214
-0.289796 -0.0151864 0.368986
0.0203867 -0.0201935 0.64511
0.0176547 -0.0180483 0.366938
0.209681 -0.0198424 0.437125
-0.0217262 -0.0344637 0.514881
-0.458945 -0.0112048 0.392005
0.445825 -0.0107558 0.377947
0.00198227 -0.021545 0.546368
-0.303458 -0.0130183 0.412921
0.159101 -0.0174875 0.399898
-0.229205 -0.0189031 0.370835
0.151418 -0.0183248 0.378673
0.137136 -0.0214538 0.354624
-0.0770719 -0.0322448 0.0387475
-0.015036 -0.0123191 0.445489
0.0109126 -0.00835413 0.593222
-0.0690451 -0.0243446 0.357159
-0.0174385 -0.0279627 0.230983
-0.101698 -0.019435 0.382385
-0.108379 -0.0233658 0.36569
-0.00175265 -0.0185425 0.574089
0.0205745 -0.027503 0.0438784
-0.227123 -0.0200845 0.38672
0.45951 -0.00863844 0.428715
0.00301107 -0.0517252 0.707196
0.416564 -0.0121307 0.380954
0.00761178 -0.0225582 0.374687
-0.0897456 -0.0219616 0.4421
0.280218 -0.0177836 0.384067
-0.0204496 -0.0217147 0.39595
-0.0116767 -0.0219261 0.419173
0.0317094 -0.027543 0.393077
0.0599012 -0.0305629 0.0102523
-0.00765206 -0.0321076 0.0465451
0.160522 -0.0227209 0.427188
-0.0265638 -0.0243288 0.341537
0.181066 -0.0174805 0.433934
-0.244259 -0.0148502 0.407531
0.00874172 -0.0339477 0.128796
0.334953 -0.016401 0.409519
-0.00808579 -0.0221653 0.426747
-0.27371 -0.0186065 0.400521
-0.00682159 -0.0296725 0.00538679
-0.026865 -0.0278477 0.415067
-0.376795 -0.0148405 0.408852
-0.142557 -0.0206171 0.349049
-0.265866 -0.0148249 0.432743
0.426363 -0.0127489 0.395542
0.29584 -0.0153105 0.364785
-0.175483 -0.0203188 0.360325
0.0135925 -0.0467194 0.344259
0.0853062 -0.0196304 0.411371
0.0211274 -0.0320262 0.0161875
-0.257115 -0.0144503 0.408979
0.299801 -0.0143611 0.376938
-0.352474 -0.0140557 0.436483
0.0152286 -0.0219874 0.38143
-0.0910633 -0.0222706 0.34563
-0.111542 -0.0215168 0.348381
-0.399073 -0.0106167 0.430477
0.0106318 -0.0375404 0.174704
-0.103144 -0.0249868 0.405625
0.1003 -0.0193193 0.393271
0.115652 -0.0229537 0.363925
-0.00340575 -0.0335485 0.0276198
0.00737717 -0.0303554 0.0562064
-0.00593594 -0.0234108 0.363024
-0.200456 -0.0161292 0.413654
0.0133464 -0.0103021 0.613901
0.000945472 -0.00384546 0.610651
0.01477 -0.031582 0.711176
-0.15681 -0.0209548 0.440156
-0.384396 -0.0144843 0.399118
0.0132663 -0.0364442 0.221915
0.226932 -0.0181881 0.359186
0.298631 -0.0176487 0.396306
0.00174449 -0.053717 0.564876
-0.0126662 -0.0163875 0.674993
0.467818 -0.00987878 0.377949
-0.0160946 -0.0194576 0.668314
-0.0654995 -0.0202628 0.407161
0.152578 -0.0204756 0.349385
0.0228016 -0.034164 0.482008
-0.0303438 -0.0214526 0.39123
0.0107308 -0.0529951 0.637285
-0.00747726 -0.0183322 0.149902
-0.00204598 -0.0440961 0.0740469
0.427186 -0.0103163 0.384694
-0.145554 -0.0214397 0.359275
0.0227752 -0.025519 0.500465
-0.341176 -0.0142421 0.36801
0.305533 -0.0175147 0.41207
-0.274062 -0.0139632 0.421733
0.389477 -0.011858 0.377447
0.199973 -0.0208033 0.381456
-0.169872 -0.021828 0.433666
-0.0978414 -0.0294567 0.0182793
-0.012826 -0.0471559 0.305369
0.01787 -0.0478263 0.640397
-0.110812 -0.0291655 0.0408913
-0.260921 -0.0180522 0.376823
0.0189899 -0.045399 0.526273
0.0876277 -0.0201772 0.377274
0.381082 -0.0107892 0.397424
0.222022 -0.020464 0.426508
0.001536 -0.0273776 0.468673
-0.18918 -0.0165506 0.403266
-0.051175 -0.0268665 0.421812
-0.215701 -0.0173998 0.366466
0.0175404 -0.0297217 0.292631
0.183983 -0.0193989 0.351926
-0.123827 -0.0188426 0.430068
-0.0337685 -0.027721 0.0454168
-0.000313061 -0.053588 0.552659
-0.438046 -0.00897881 0.422649
-0.266794 -0.0179265 0.378392
0.283087 -0.0182243 0.396062
-0.0217799 -0.0381043 0.447644
-0.337457 -0.0145731 0.370651
-0.0166709 -0.0209267 0.671218
-0.00770172 -0.0278123 0.0714923
-0.0209985 -0.0310779 0.621738
0.0212952 -0.0400913 0.438316
0.318453 -0.0169825 0.422621
0.0187039 -0.0198317 0.667255
-0.167343 -0.0174868 0.384418
-0.0331926 -0.0286896 0.0152794
0.152216 -0.0214616 0.439309
0.289539 -0.0135855 0.394137
-0.00958586 -0.0492855 0.333367
0.288588 -0.0169435 0.376745
-0.294003 -0.0178802 0.423063
0.248769 -0.0167189 0.363151
-0.0403706 -0.0211206 0.424244
0.236409 -0.0169614 0.364564
0.343512 -0.0127661 0.382583
0.0230528 -0.026476 0.47376
0.151536 -0.0231759 0.404091
0.0579763 -0.028182 0.0356389
0.410977 -0.0136088 0.413778
-0.000222384 -0.0323513 0.550238
0.0932163 -0.0194285 0.417944
-0.102933 -0.024968 0.402245
0.0110262 -0.0378176 0.184317
0.320736 -0.0129893 0.43071
-0.0213525 -0.0241746 0.366819
-0.112415 -0.0236371 0.437383
-0.0229276 -0.0321322 0.400309
-0.0152231 -0.0270141 0.173548
0.295446 -0.0132863 0.419491
0.0869231 -0.0294343 0.0164377
0.326177 -0.0124168 0.401722
-0.0148558 -0.0159509 0.314338
-0.0195493 -0.0225353 0.436165
0.0419555 -0.023707 0.344402
0.0202249 -0.0190927 0.526295
-0.0530841 -0.0207861 0.388476
0.374908 -0.0109266 0.403672
0.160165 -0.0229112 0.411188
0.0770563 -0.0305674 0.0121524
-0.00187126 -0.0336893 0.042462
-0.0460909 -0.0260684 0.437901
-0.0143229 -0.0486248 0.406466
-0.00501679 -0.00864618 0.305564
0.186901 -0.0175045 0.376414
-0.00473243 -0.00890751 0.0465243
0.231081 -0.0192472 0.376894
0.377895 -0.0109905 0.427692
-0.00359885 -0.00519701 0.62159
0.0209586 -0.042573 0.638983
-0.0123457 -0.0153921 0.272634
0.00631686 -0.00520958 0.457176
0.151642 -0.0209413 0.355578
-0.0201187 -0.0397513 0.592153
0.0143752 -0.0462286 0.706681
0.326944 -0.0158207 0.434612
-0.00146412 -0.00403388 0.486188
0.0176465 -0.0248969 0.311109
-0.0199695 -0.0189305 0.435461
0.0151668 -0.012053 0.526246
-0.268842 -0.0142029 0.395268
0.317291 -0.0131267 0.387767
0.237683 -0.0151646 0.392903
0.168512 -0.019421 0.356016
0.118596 -0.0235391 0.374088
0.0206677 -0.0198783 0.515315
-0.00382799 -0.00526209 0.622646
0.00131362 -0.0520851 0.705663
0.00448435 -0.00901944 0.313738
0.282611 -0.0143098 0.384484
0.00175 -0.0368116 0.0194878
0.118023 -0.0307291 0.0193111
0.312079 -0.016282 0.435063
0.341579 -0.012402 0.388576
-0.434334 -0.0120647 0.43236
-0.470273 -0.0113796 0.410381
-0.205262 -0.0179747 0.362305
-0.11274 -0.0309622 0.0223001
-0.21695 -0.0158736 0.428199
-0.0148203 -0.0248115 0.4447
-0.335856 -0.0159364 0.430258
-0.224739 -0.0204333 0.401351
-0.05441 -0.0223566 0.358976
0.0232437 -0.0299457 0.405602
-0.0067608 -0.0322102 0.466673
0.00186975 -0.01865 0.140562
-0.00136903 0.024398 0.0217225
0.0312372 -0.0323529 0.0503944
0.345729 -0.0147958 0.378641
0.167762 -0.017195 0.421209
0.0327944 -0.0328425 0.0249345
0.0114718 -0.0527063 0.650962
-0.0060673 -0.032022 0.587403
-0.00278451 -0.00296023 0.0117008
0.358738 -0.0114808 0.395471
-0.287589 -0.0180308 0.42697
0.0141483 -0.0280246 0.0185553
-0.0176864 -0.0287381 0.6861
-0.212499 -0.0159094 0.395096
0.0173993 -0.0331358 0.0473128
0.257471 -0.0144395 0.408984
0.31427 -0.0171327 0.404811
-0.326834 -0.0149955 0.370632
0.123105 -0.0205727 0.357433
0.0341887 -0.0213528 0.389135
-0.170851 -0.0179726 0.376034
0.100611 -0.0227667 0.352545
0.0642334 -0.0262737 0.427408
0.351715 -0.0150433 0.385672
-0.423297 -0.00944158 0.406437
0.0163765 -0.0412444 0.316169
0.0133398 -0.0332022 0.0237721
-0.0904543 -0.0204301 0.436412
-0.352214 -0.0157352 0.406443
-0.0192918 -0.0273664 0.434638
0.0148947 -0.0478209 0.390405
-0.00230114 0.0536993 0.0193208
0.240934 -0.0167079 0.438199
-0.0117549 -0.0343842 0.0953684
-0.0141087 -0.0442798 0.25681
-0.0181088 -0.0194386 0.605374
0.00223791 -0.0248266 0.590875
-0.190164 -0.0164867 0.418923
-0.271621 -0.0141156 0.395675
0.368568 -0.0111638 0.425859
0.139653 -0.0206523 0.349695
-0.0184623 -0.0280615 0.39638
-0.345491 -0.012186 0.430067
-0.0148668 -0.0133989 0.365665
0.33421 -0.0147426 0.371229
0.426852 -0.0103097 0.38492
-0.0291952 -0.0270191 0.372855
-0.223273 -0.0167438 0.372939
0.256276 -0.0191825 0.391078
-0.0203949 -0.030241 0.667501
-0.0647154 -0.0203287 0.420765
0.00488943 -0.0137334 0.237046
0.273178 -0.0187144 0.411691
-0.0799967 -0.0198029 0.409847
0.478447 -0.00780912 0.401665
0.00794542 -0.0533136 0.595541
0.27724 -0.0145435 0.383251
0.240836 -0.0191691 0.433745
-0.162331 -0.017443 0.42572
0.00188248 -0.0218092 0.528994
-0.0161982 -0.0222025 0.376414
-0.0105414 -0.0123922 0.297784
0.00560784 -0.00907165 0.326867
0.441152 -0.0124868 0.419404
-0.263418 -0.0152893 0.377996
-0.302883 -0.0139726 0.381315
-0.10078 -0.0251242 0.411899
-0.00854383 -0.00716883 0.477664
0.074358 -0.0207027 0.434144
0.0452264 -0.0327969 0.0391439
-0.0933652 -0.0312483 0.0222773
0.178047 -0.01695 0.425139
0.0094466 -0.00716989 0.49293
0.0162139 -0.0130067 0.442669
-0.0419665 -0.0241346 0.444666
0.0147259 -0.0501509 0.566258
0.108463 -0.0314837 0.0363656
-0.00857101 -0.0528565 0.620311
0.14347 -0.0182401 0.429936
-0.0504653 -0.0326307 0.0294033
-0.0632512 -0.031969 0.0490518
-0.00773296 -0.0382754 0.73322
0.240551 -0.0173575 0.357186
-0.282076 -0.0184094 0.415659
0.0168689 -0.0208444 0.328631
-0.156086 -0.0227668 0.384542
-0.0205986 -0.0243633 0.580306
0.490876 -0.00735938 0.411391
-0.14889 -0.0180844 0.430015
-0.00312348 -0.0484902 0.218904
-0.00107469 -0.00367896 0.43004
-0.00482674 -0.0174478 0.0324758
0.00197438 -0.0272086 0.544995
-0.418618 -0.00961567 0.402173
-0.169777 -0.0218804 0.433129
-0.017066 -0.0337506 0.218764
-0.353786 -0.0155955 0.426504
0.134245 -0.0223441 0.365831
-0.0186129 -0.0442221 0.391255
0.00313749 -0.0203458 0.133832
0.0790092 -0.0286203 0.033122
-0.230018 -0.0183786 0.438768
-0.315506 -0.0170467 0.424887
0.0116152 -0.0491205 0.378046
-0.325387 -0.012963 0.386919
-0.00163682 -0.0164234 0.0115208
0.227605 -0.0166002 0.373291
0.0453722 -0.0208482 0.414643
0.135693 -0.0238344 0.412901
0.00043842 -0.0323513 0.512342
-0.0744254 -0.0208269 0.435505
-0.00973182 -0.0464995 0.2044
-0.00452776 -0.0430516 0.0287416
0.140492 -0.0212609 0.353769
-0.251276 -0.018276 0.374496
0.0763093 -0.0316004 0.0490035
-0.394791 -0.0129455 0.38018
-0.0820794 -0.0235493 0.353176
0.0657058 -0.0290498 0.016632
-0.271681 -0.0143652 0.429697
-0.26826 -0.0187672 0.395022
0.455097 -0.00840451 0.417822
0.0085305 -0.027169 0.039919
-0.104351 -0.0192176 0.426088
0.0219249 -0.0231724 0.644729
0.239369 -0.0199556 0.409727
-0.291992 -0.0179627 0.405058
-0.0828807 -0.0298034 0.012519
-0.0820044 -0.0247785 0.370909
-0.00766801 -0.0478234 0.213516
-0.408512 -0.00994002 0.399829
-0.0507499 -0.032613 0.0284032
-0.00505162 -0.0308296 0.0287158
0.0172869 -0.0435943 0.698385
-0.000473794 0.0324475 0.0449213
-0.00432864 -0.0516942 0.410234
-0.428742 -0.0104967 0.381489
0.263781 -0.0142833 0.404487
-0.00650597 -0.0331604 0.0296623
-0.191496 -0.016427 0.410128
0.0200686 -0.0442606 0.57723
-0.0123286 -0.0266735 0.358129
-0.0790039 -0.0320784 0.0279909
0.0146062 -0.0280787 0.380404
-0.0985707 -0.0301192 0.011906
0.0871192 -0.0203865 0.434864
-0.00594813 -0.0323513 0.53774
0.0694344 -0.0239537 0.351731
0.411029 -0.0110151 0.381044
0.0731419 -0.0284705 0.0385584
0.19264 -0.0188504 0.4407
-0.279203 -0.0166153 0.366587
-0.248758 -0.0166782 0.363744
0.0314467 -0.0324106 0.0207616
0.3695 -0.0119193 0.384472
0.358767 -0.0113798 0.421441
-0.161322 -0.0174033 0.402049
-0.0929763 -0.0293646 0.0488915
0.0962648 -0.0238847 0.43914
0.0483223 -0.0283634 0.0475903
-8.62912e-05 -0.0045259 0.376068
0.00930197 -0.0531535 0.675868
-0.00585461 -0.0216073 0.62443
0.0132025 -0.0381838 0.22932
-0.0135964 -0.0167789 0.272685
0.488297 -0.00918269 0.379694
-0.0467008 -0.0211413 0.429858
-0.0215506 -0.0217346 0.389215
-0.00530718 -0.028125 0.049578
-0.259094 -0.019043 0.390097
-0.152774 -0.0202768 0.44184
-0.0148657 -0.0123985 0.385814
-0.0734639 -0.031223 0.0186399
-0.0166336 -0.0274106 0.0271571
0.020511 -0.0312657 0.686866
-0.400393 -0.0117301 0.374952
0.436155 -0.0126792 0.41457
0.0186633 -0.0464852 0.602908
0.0115003 -0.0479238 0.33615
-0.0184993 -0.0443515 0.391581
0.456823 -0.011932 0.417246
0.0334784 -0.025171 0.348598
0.00654323 -0.0497685 0.323684
0.00910914 -0.0245103 0.34586
0.0225214 -0.0373077 0.548542
0.353228 -0.0157674 0.416712
0.00171968 -0.0229395 0.500651
-0.0721027 -0.0205333 0.378304
-0.00521974 -0.0195523 0.703051
0.12022 -0.0311976 0.0439274
-0.35561 -0.0132755 0.370425
0.119803 -0.0186447 0.420235
0.00037558 -0.00541234 0.656019
0.00667691 -0.0269962 0.359536
0.0125161 -0.0521051 0.65506
-0.0678809 -0.0219742 0.359144
-0.278195 -0.0150055 0.376219
0.172235 -0.019731 0.350052
0.20279 -0.0211492 0.388433
-0.413799 -0.0117105 0.373284
0.233261 -0.016035 0.435247
-0.00499402 -0.0422633 0.0170266
-0.24546 -0.0188028 0.435848
-0.160774 -0.0218649 0.437001
0.320248 -0.0168231 0.393315
0.0182797 -0.0158664 0.579628
-0.14411 -0.018408 0.380372
0.126853 -0.0199072 0.365566
-0.393184 -0.0125201 0.373101
0.00231052 -0.0303287 0.603516
-0.159284 -0.0218443 0.373044
-0.185124 -0.0219365 0.40524
-0.15249 -0.0230845 0.397004
-0.0101307 -0.00795702 0.454803
-0.00807609 -0.0457809 0.151293
-0.00961561 -0.0335847 0.037715
0.165024 -0.0195102 0.356115
0.249365 -0.0195652 0.420152
-0.273892 -0.0146238 0.383421
-0.0213146 -0.0267333 0.348338
0.384768 -0.0126159 0.369635
-0.295096 -0.0159655 0.366356
-0.0102883 -0.0507005 0.432511
0.00019659 -0.0208067 0.109993
0.140894 -0.0179577 0.416315
-0.258766 -0.0144148 0.420477
0.0123754 -0.0093477 0.591664
0.0111616 -0.00828348 0.488196
-0.00643205 -0.0320007 0.523904
0.141772 -0.0206248 0.34925
0.199367 -0.0163553 0.42741
0.0181434 -0.0453263 0.425029
0.0137981 -0.0129397 0.369255
-0.0138096 -0.0434597 0.223569
-0.0868801 -0.0201723 0.432476
-0.00361049 -0.0103169 0.255384
-0.213738 -0.0158221 0.423469
-0.00909159 -0.0121864 0.670286
0.0374714 -0.0274218 0.40485
-0.0226659 -0.0331556 0.429203
-0.0783739 -0.0321136 0.0319921
-0.388242 -0.0136408 0.386455
0.0359922 -0.0256353 0.356763
-0.0315507 -0.0275768 0.0349989
0.179099 -0.0169832 0.387124
0.0165265 -0.048923 0.601361
0.156499 -0.020998 0.440074
0.388887 -0.0122939 0.436342
0.223727 -0.0205647 0.413225
0.409808 -0.0136404 0.419838
-0.00619319 -0.00612134 0.54189
0.0159257 -0.0487652 0.52732
-0.23182 -0.019984 0.387976
-0.00565354 -0.0323513 0.588312
0.199469 -0.0196123 0.438917
-0.0183714 -0.0199359 0.337281
0.335959 -0.0163972 0.417462
0.395814 -0.0134152 0.38756
-0.15862 -0.0175731 0.390899
-0.422801 -0.0124156 0.38867
-0.00027094 -0.0185425 0.568519
0.122892 -0.0236475 0.378134
0.0347739 -0.0222285 0.437784
0.0914834 -0.0249251 0.378496
-0.349454 -0.0116819 0.405629
-0.381553 -0.0107204 0.404354
-0.236078 -0.0150435 0.41469
-0.0115075 -0.0421369 0.13798
0.241039 -0.0156307 0.381945
0.00572672 -0.0524511 0.493588
-0.0394482 -0.0308449 0.00999848
0.0281659 -0.0331386 0.0400493
0.22694 -0.0163028 0.377858
-0.0468448 -0.0219918 0.439139
-0.0854902 -0.0197994 0.389238
0.000154518 -0.0185425 0.505814
-0.10625 -0.0248874 0.417304
-0.0135346 -0.0111013 0.384076
0.105166 -0.0305086 0.0141161
0.0233861 -0.0284498 0.476052
-0.20313 -0.0212559 0.403809
-0.00511604 -0.0531499 0.564976
-0.027154 -0.0326808 0.0494828
0.425714 -0.00929334 0.416348
0.345267 -0.0124261 0.386773
-0.00666285 -0.0113474 0.261415
0.00324342 -0.0321365 0.0138817
0.0183795 -0.0163634 0.394067
-0.120631 -0.0187666 0.385353
-0.0142913 -0.0423849 0.208545
-0.055521 -0.0280909 0.04258
-0.0259889 -0.0265465 0.364171
0.00235677 -0.0209658 0.611568
0.0229518 -0.0326351 0.559352
0.428587 -0.00927249 0.423146
-0.00727335 -0.0136237 0.217533
0.232169 -0.0173448 0.360706
0.0207839 -0.0417382 0.504152
0.0213541 -0.0413914 0.620987
-0.00575711 -0.0309729 0.641405
0.0925236 -0.022445 0.343229
-0.345396 -0.0117494 0.412925
-0.0684931 -0.0202292 0.399946
-0.434446 -0.0095931 0.39221
0.36583 -0.0112559 0.396771
-0.012069 -0.03449 0.101862
-0.0182417 -0.022758 0.296
-0.236274 -0.0152975 0.388614
0.00606764 -0.0106469 0.304196
0.0125444 -0.00947964 0.598954
-0.0155868 -0.022231 0.235321
-0.00558778 -0.0315008 0.648385
0.0090696 -0.0069006 0.445549
-0.115956 -0.024569 0.413024
0.257813 -0.0145319 0.425583
0.232656 -0.0186514 0.369186
-0.0245796 -0.0238939 0.348616
0.290021 -0.0160818 0.365111
-0.281341 -0.0179129 0.430923
-0.000976413 0.034225 0.0501788
0.0191337 -0.0450964 0.50999
0.435079 -0.00910306 0.424374
-0.000235244 -0.00485982 0.0259133
0.0127361 -0.00941488 0.45684
-0.0103527 -0.0517009 0.579248
0.164566 -0.0225303 0.428234
-0.169283 -0.0224027 0.426947
0.0193595 -0.0326185 0.0201689
0.0451321 -0.0209603 0.396887
0.0838825 -0.0198288 0.391674
0.0208097 -0.0404128 0.681402
0.0227142 -0.0351845 0.5381
-0.0231595 -0.0277817 0.383064
-0.228031 -0.0169277 0.368386
0.0664784 -0.0286814 0.046811
0.300563 -0.0177041 0.412658
0.0053805 -0.0534631 0.581547
-0.160318 -0.017485 0.395548
0.218779 -0.0156224 0.419573
-0.10859 -0.0242537 0.378652
-0.0169109 -0.0238209 0.249977
-0.013136 -0.0495955 0.463325
0.211073 -0.02086 0.426886
0.4746 -0.00784955 0.411691
0.00548627 -0.00961941 0.315932
-0.150825 -0.0190693 0.368143
-0.444336 -0.0116867 0.43239
0.0232623 -0.0278837 0.515238
0.257871 -0.0192309 0.405048
0.113787 -0.0245268 0.397478
0.00149452 -0.0235183 0.461453
0.475705 -0.007863 0.405504
-0.120382 -0.0299547 0.017808
0.192369 -0.017508 0.374187
0.273775 -0.0140749 0.392576
0.111839 -0.0220922 0.349266
-0.0127555 -0.0106994 0.375849
0.343256 -0.0157722 0.429048
-0.118316 -0.0308587 0.0481969
0.0172023 -0.047517 0.546411
0.158146 -0.0224351 0.431828
-0.00632729 -0.0444457 0.103176
0.0734976 -0.0284798 0.0390657
-0.108504 -0.019598 0.377341
0.0944551 -0.0317086 0.0296853
-0.00481987 -0.0153209 0.0341456
-0.0340122 -0.0277387 0.0275272
0.0121551 -0.00887282 0.449772
0.441594 -0.0108638 0.377069
0.0206448 -0.0332051 0.0437504
-0.214918 -0.0182407 0.354615
-0.25873 -0.0151692 0.434145
-0.133784 -0.0192409 0.372444
-0.425669 -0.0129716 0.401814
-0.0152648 -0.0378711 0.178449
-0.0563136 -0.0284453 0.0207592
0.139457 -0.0235027 0.388561
0.142208 -0.0186015 0.378339
0.00622123 -0.00521603 0.542274
0.00470743 -0.0243238 0.114841
0.0207278 -0.0201798 0.543254
-0.229893 -0.0153093 0.404433
-0.462876 -0.00933437 0.384689
0.0551943 -0.0281099 0.0383914
0.173374 -0.0223374 0.423006
-0.00501347 -0.0259149 0.0434061
-0.0513725 -0.0245977 0.350628
-0.00644736 -0.0204518 0.123774
0.00634115 -0.0466005 0.215202
0.465086 -0.0113407 0.427735
0.0617004 -0.0204486 0.423233
0.159242 -0.0198474 0.35354
0.22099 -0.0163752 0.379179
0.33026 -0.0122672 0.405022
-0.123071 -0.0239382 0.429767
-0.127765 -0.0221142 0.35877
0.284522 -0.0156828 0.438396
-0.119641 -0.0196583 0.372037
-0.304596 -0.0174735 0.423846
0.488414 -0.0101763 0.430904
0.0647384 -0.0323046 0.0328785
0.150785 -0.0207608 0.352474
-0.0136735 -0.0337515 0.13295
-0.0140856 -0.0371192 0.146967
-0.250719 -0.0171432 0.357794
0.290596 -0.0141207 0.384044
0.29723 -0.0157214 0.364058
-0.192615 -0.0180046 0.366907
0.321695 -0.0168423 0.402953
-0.0851019 -0.0214422 0.359984
-0.143465 -0.0178885 0.417113
0.00980186 -0.0307114 0.148379
0.0145545 -0.0389216 0.716326
0.0118606 -0.0360961 0.726553
-0.0141627 -0.0489727 0.672486
0.430462 -0.0106644 0.434771
0.0171726 -0.0254538 0.343283
-0.0038674 0.0467559 0.0306833
-0.349805 -0.0134312 0.370485
-0.320483 -0.012616 0.398315
0.0222404 -0.0221709 0.374466
-0.330924 -0.0126958 0.388568
0.259413 -0.0154096 0.37785
-0.0103907 -0.00861893 0.514565
-0.110303 -0.0211635 0.353985
0.101395 -0.0208745 0.36171
0.260259 -0.0170709 0.36225
-0.00575198 -0.0290778 0.642298
-0.01767 -0.0216109 0.663847
-0.0085092 -0.0356501 0.0472366
0.000509451 -0.00400856 0.619982
-0.018949 -0.0245346 0.667288
0.00112326 -0.053084 0.695441
-0.204809 -0.018876 0.356374
0.0819128 -0.0257455 0.420633
-0.08196 -0.019725 0.412247
-0.0138814 -0.0220302 0.381175
0.0326036 -0.0245176 0.338644
0.331185 -0.0162039 0.390616
-0.00598512 -0.00589389 0.529905
-0.0177195 -0.027306 0.242586
0.00154354 -0.0301276 0.0453321
0.000942672 -0.0495567 0.280015
0.245761 -0.0196789 0.421735
0.0887155 -0.0308394 0.0504865
-0.237324 -0.0151416 0.397188
0.449023 -0.0121477 0.407571
0.00440649 -0.0446093 0.139617
-0.443096 -0.0123256 0.425187
-0.0212266 -0.0243257 0.343706
-0.0509572 -0.027968 0.0411311
0.368609 -0.0142059 0.383305
-0.425838 -0.0130097 0.407678
0.0157005 -0.0164275 0.348874
0.13737 -0.0222144 0.365759
0.478238 -0.00791164 0.399049
0.0014266 -0.0277019 0.449627
0.0181882 -0.0250558 0.320403
-0.0471254 -0.0286737 0.0504505
0.0233808 -0.0285287 0.457524
-0.297914 -0.0134306 0.391062
0.00471682 -0.0309185 0.0709064
-0.479796 -0.00977385 0.383339
-0.480679 -0.00762293 0.417615
-0.493235 -0.0104752 0.403578
0.0110024 -0.0483392 0.342259
0.0229497 -0.027174 0.395946
0.0153281 -0.0350496 0.25925
0.407876 -0.0132376 0.391949
-0.192479 -0.0188436 0.354827
-0.392214 -0.013777 0.390716
-0.144914 -0.0178568 0.407504
0.0521724 -0.0254651 0.363633
-0.0173693 -0.0256325 0.681708
-0.00367288 -0.0540253 0.636914
-0.0103522 -0.0520121 0.633723
-0.00407415 -0.0329344 0.0511099
-0.00655068 -0.0270429 0.503252
-0.0130975 -0.0455533 0.256598
-0.390487 -0.0135819 0.433412
-0.0209387 -0.0396071 0.483624
-0.321799 -0.0160371 0.38279
0.322322 -0.012467 0.419428
0.462361 -0.0103899 0.382192
-0.00191548 -0.0185425 0.524131
0.211782 -0.0158762 0.423147
-0.0494968 -0.0311914 0.0142512
0.428236 -0.0128754 0.401712
-9.90789e-05 -0.0279158 0.0226451
0.084637 -0.0255378 0.388283
0.127439 -0.0187955 0.381396
0.176185 -0.0210698 0.371591
-0.0140665 -0.0293186 0.145726
0.00908141 -0.0198166 0.210315
0.371927 -0.0133773 0.373239
-0.00960782 -0.0517901 0.537954
-0.136216 -0.0237956 0.410448
-0.0200547 -0.0408808 0.538425
-0.0177867 -0.0254594 0.343719
-0.281164 -0.013736 0.407212
-0.0195322 -0.0436852 0.409772
0.00590417 -0.0117179 0.283619
-0.358803 -0.0155616 0.415477
-0.330001 -0.0122727 0.405334
0.117379 -0.0186605 0.411301
-0.189746 -0.0173116 0.434921
0.470789 -0.00799444 0.407785
0.00444155 -0.0165477 0.182201
-0.000753087 -0.0212981 0.10215
0.209745 -0.0159598 0.399268
-0.398826 -0.0107317 0.431651
-0.0897469 -0.02153 0.440932
-0.00812701 -0.0506195 0.370982
-0.473364 -0.0112992 0.419125
0.00957976 -0.040345 0.173549
-0.0919644 -0.0198266 0.430358
0.0136062 -0.050459 0.545986
0.232343 -0.0174617 0.358946
-0.146251 -0.0177864 0.411373
-0.0149907 -0.0167736 0.303161
0.401109 -0.010037 0.416767
0.145679 -0.0180536 0.384841
0.126863 -0.0231913 0.373827
-0.191531 -0.0164043 0.415343
0.251319 -0.0147273 0.396022
-0.145742 -0.0203317 0.351909
0.0473341 -0.0269005 0.385265
-0.0888174 -0.0229274 0.348068
0.0229074 -0.027211 0.607331
0.173266 -0.0169581 0.415117
-0.0499379 -0.0207726 0.420225
0.0117591 -0.0199845 0.249924
-0.0151404 -0.0480237 0.66159
0.369471 -0.0149697 0.427166
-0.0162044 -0.0449543 0.340134
0.0023628 -0.0267797 0.612618
-0.249905 -0.017186 0.439725
0.022071 -0.0239887 0.649563
-0.33898 -0.01624 0.40808
0.0795899 -0.032003 0.0321488
0.209747 -0.0186338 0.35572
-0.134183 -0.0210578 0.442462
0.194167 -0.021577 0.402282
0.218884 -0.020684 0.42074
-0.00578926 -0.00651255 0.6352
0.0150366 -0.0282091 0.421207
0.0177369 -0.0477888 0.623776
0.105735 -0.0248479 0.422059
0.215189 -0.0208326 0.406973
0.23062 -0.0181239 0.439389
-0.0119705 -0.0507322 0.556067
0.00891814 -0.0490023 0.331796
0.0311783 -0.0216473 0.430291
0.128416 -0.022122 0.440239
-0.0057459 -0.00769847 0.334622
0.47213 -0.0112324 0.426086
-0.000396775 -0.0121302 0.686726
0.0210963 -0.0415405 0.567371
-0.0135921 -0.0184422 0.244051
-0.262176 -0.0180738 0.377858
0.125039 -0.0190245 0.379054
-0.324518 -0.0164514 0.429278
0.108884 -0.0189668 0.405008
-0.20141 -0.0161002 0.415057
0.385649 -0.014481 0.404841
0.011502 -0.0519811 0.585815
0.291236 -0.0135227 0.39559
0.338747 -0.016082 0.393215
0.185741 -0.0219674 0.415915
0.0989417 -0.0317005 0.0394267
0.147263 -0.0183507 0.379948
-0.293908 -0.0135593 0.428183
-0.154902 -0.0231252 0.414348
0.0225826 -0.0364998 0.476365
0.365259 -0.0111672 0.410438
-0.0211843 -0.0353645 0.562716
-0.0861465 -0.0302278 0.00980303
0.175346 -0.0170762 0.389731
0.00227026 -0.0426976 0.0647772
-0.0423357 -0.0211653 0.381655
0.00226246 -0.0294679 0.595149
0.366746 -0.011716 0.388481
-0.223946 -0.015468 0.407126
-0.0150161 -0.0244126 0.19529
-0.0429181 -0.021503 0.43258
0.0113414 -0.0414362 0.216421
-0.155742 -0.0176834 0.427348
0.0196531 -0.0181537 0.547155
0.023327 -0.0290327 0.473031
0.119534 -0.0204211 0.361047
0.0167779 -0.014093 0.57935
-0.0212269 -0.03403 0.571095
-0.21245 -0.0159161 0.394437
-0.164591 -0.0173877 0.391499
0.0101901 -0.0532245 0.633085
0.0315606 -0.0250175 0.345272
-0.0132768 -0.013402 0.332279
-0.153161 -0.02318 0.412263
-0.0124844 -0.0455321 0.234479
-0.00607984 -0.0288636 0.58522
-0.304595 -0.0174599 0.400619
-0.0126351 -0.0283934 0.41099
-0.00351258 -0.0469398 0.154744
0.396403 -0.013374 0.387305
-0.00281935 -0.00567805 0.0114775
-0.194744 -0.0168149 0.431206
0.0222793 -0.0249893 0.393372
0.0071271 -0.0479493 0.268429
-0.49664 -0.00755983 0.396828
-0.00724511 -0.0265529 0.0763825
0.117285 -0.0223908 0.356725
-0.294504 -0.0178011 0.42584
-0.0129584 -0.0108253 0.498009
0.47115 -0.0112733 0.400647
-0.0105959 -0.0391015 0.0888888
0.00993501 -0.034859 0.154274
-0.00303934 0.0450204 0.023182
0.0265765 -0.0306638 0.00726937
0.305858 -0.017367 0.394552
0.0288169 -0.0245489 0.337457
0.446879 -0.0117363 0.392731
-0.00847302 -0.0314991 0.0579121
0.0935816 -0.019536 0.391581
-0.197335 -0.0210702 0.383796
0.0694427 -0.0202216 0.397265
-0.00610495 -0.0139214 0.192105
0.0137277 -0.0358939 0.229798
-0.0172151 -0.0281681 0.40402
-0.429852 -0.0125043 0.394018
-0.00831997 -0.0221284 0.39005
-0.00441067 0.0103711 0.0482265
-0.317117 -0.0169692 0.397249
0.275103 -0.0160263 0.362686
0.01159 -0.0224658 0.226615
0.00773076 -0.0403294 0.135774
-0.014906 -0.0486427 0.620511
0.00514309 -0.0520894 0.454368
0.0783765 -0.0244127 0.363526
0.0159207 -0.0428416 0.320885
-0.314229 -0.0170787 0.425554
-0.294533 -0.0132813 0.413853
0.0151959 -0.0447372 0.338316
0.139122 -0.0189409 0.436105
-0.0842566 -0.025243 0.378924
-0.0219873 -0.0283381 0.051895
0.0328156 -0.0322196 0.0196163
-0.0208946 -0.0344296 0.343265
-0.0221684 -0.0324609 0.489429
0.0518551 -0.0250348 0.357227
-0.0112821 -0.0406521 0.114544
-0.0308842 -0.0276835 0.416337
0.0145708 -0.0128811 0.380882
0.45661 -0.00855161 0.42688
-0.0170169 -0.0259137 0.231513
0.0670205 -0.0201819 0.414035
0.319915 -0.0146331 0.364999
0.0225564 -0.0241328 0.437881
0.00965281 -0.0322165 0.144159
0.0812926 -0.0204484 0.375873
-0.0354255 -0.0275555 0.41216
0.496117 -0.00763777 0.395916
0.353382 -0.0115727 0.423598
0.0185527 -0.0361761 0.699468
0.00202828 -0.051796 0.398995
-0.00438118 0.0231077 0.0396575
0.0556317 -0.0282639 0.0262451
-0.112508 -0.018998 0.387186
0.0257038 -0.0278851 0.408132
0.0200663 -0.0435955 0.506617
-0.121745 -0.0243562 0.413327
-0.287664 -0.0168168 0.37438
-0.017215 -0.0144237 0.434179
0.0114416 -0.0224152 0.375231
-0.028213 -0.0226612 0.364997
-0.0213554 -0.0278394 0.342537
0.0594811 -0.0264381 0.383883
0.0798029 -0.0257859 0.396951
-0.314544 -0.0169441 0.428005
0.114912 -0.0245926 0.415255
0.336554 -0.0145713 0.370105
-0.0785687 -0.0198839 0.418757
0.0023132 -0.0336666 0.0395676
-0.0844441 -0.0319661 0.045205
-0.213379 -0.0157919 0.406609
-0.0678319 -0.0247455 0.362258
0.0126522 -0.045939 0.311219
-0.0205831 -0.0200252 0.391858
-0.00154839 -0.053134 0.688405
-0.373738 -0.0109267 0.408327
-0.0598892 -0.032575 0.0377892
0.191359 -0.0193466 0.355424
-0.0147543 -0.0219464 0.388436
0.00250499 -0.00403404 0.480696
-0.088754 -0.0319743 0.0365128
0.00218702 -0.0280549 0.582016
-0.446864 -0.0087231 0.423474
0.300808 -0.0175924 0.399544
0.348118 -0.0116445 0.415901
-0.262822 -0.0189777 0.425575
0.000766126 -0.0531682 0.692939
-0.000260064 -0.0424261 0.75458
-0.0641263 -0.0225672 0.352063
0.366278 -0.0152453 0.420211
0.330488 -0.016461 0.426301
-0.335823 -0.0163136 0.402429
0.00865626 -0.0220487 0.421867
0.054211 -0.0309403 0.0140677
0.00800508 -0.0528115 0.549969
-0.089395 -0.02035 0.374072
0.0219418 -0.039629 0.671044
-0.447258 -0.0087465 0.402492
0.0766857 -0.0224679 0.3485
-0.0629015 -0.0263055 0.383166
-0.00579125 -0.0216932 0.63546
0.165008 -0.0223113 0.3831
0.231161 -0.0156552 0.385498
0.0100575 -0.0525883 0.574134
-0.0533867 -0.0207948 0.386213
0.0113098 -0.00857466 0.571271
-0.252633 -0.0146386 0.423505
-0.00923071 -0.0524159 0.602875
0.0528013 -0.0303109 0.00616157
-0.238096 -0.0153982 0.386448
0.342674 -0.0160852 0.422829
0.00201399 -0.0310057 0.551891
0.312324 -0.0172588 0.418524
0.094981 -0.0317216 0.0433877
-0.0255658 -0.0289492 0.0125964
-0.16719 -0.0218123 0.377142
0.00631348 -0.00535276 0.62238
0.169392 -0.0202418 0.3557
-0.0175671 -0.0253225 0.680116
-0.000888953 -0.0293697 0.0315715
-0.379475 -0.0145982 0.395245
-0.000642797 -0.0185425 0.444357
-0.00297266 0.011202 0.0160719
0.044759 -0.0259219 0.365963
-0.0085173 -0.0530288 0.645645
-0.00298455 -0.0290414 0.00953308
0.164516 -0.017661 0.383033
0.00199511 -0.0318553 0.548605
-0.00569457 -0.0221118 0.419484
0.496031 -0.0104318 0.421732
0.00313759 -0.0497775 0.303414
-0.374585 -0.012957 0.368694
0.0544721 -0.0206621 0.422653
0.0514096 -0.0242542 0.34568
0.404073 -0.0137851 0.424411
-0.0131237 -0.0470291 0.698019
-0.0119398 -0.0218924 0.406058
-0.0198502 -0.0218814 0.569806
-0.00505513 -0.0270666 0.0420091
0.000234474 -0.00417291 0.641098
-0.00437474 -0.0185425 0.470791
-0.00244908 -0.0040104 0.42495
0.0185055 -0.0158901 0.480223
-0.434778 -0.009036 0.418929
0.0226812 -0.031817 0.673204
-0.0209983 -0.0337777 0.596638
0.0227677 -0.0346254 0.550395
0.480077 -0.00766782 0.419951
0.0233752 -0.027427 0.422351
0.162988 -0.0182509 0.375138
-0.16797 -0.0221541 0.430899
-0.211371 -0.0173203 0.437839
-0.109935 -0.0230807 0.362464
0.00736076 -0.0278905 0.121791
-0.393045 -0.010303 0.413543
0.134504 -0.023843 0.408392
0.221833 -0.0156616 0.390708
-0.0042422 -0.0527145 0.509632
0.386231 -0.0109969 0.430421
0.131237 -0.0182273 0.414157
-0.0159497 -0.0265862 0.196545
0.1047 -0.0291299 0.0344871
0.0938362 -0.0252904 0.400255
0.0133938 -0.0511453 0.597714
0.308196 -0.0172595 0.42718
-0.0115781 -0.0485664 0.343091
-0.0789691 -0.0199024 0.401178
-0.0486466 -0.0328045 0.0380006
0.157634 -0.0192684 0.362553
0.00155252 -0.00864426 0.298222
-0.00451407 -0.0431227 0.0304358
-0.120546 -0.029364 0.0328302
0.0183693 -0.0272094 0.691387
0.033583 -0.0215485 0.429999
0.257096 -0.0144744 0.421253
0.152905 -0.0203211 0.349211
0.292715 -0.0152996 0.366185
-0.282468 -0.0141701 0.431059
-0.0157227 -0.0352028 0.701955
0.172336 -0.0214847 0.436431
0.00364254 -0.00449384 0.575498
-0.0130053 -0.0497432 0.476539
-0.147287 -0.0230718 0.429347
0.00199033 -0.0509163 0.354427
0.000208669 -0.0154382 0.0417147
-0.238286 -0.0199643 0.405722
0.449362 -0.00865845 0.405709
0.376018 -0.0117925 0.383718
0.260999 -0.0153424 0.378191
-0.020124 -0.022903 0.592818
-0.305309 -0.0174487 0.423777
0.00358958 -0.0446474 0.130725
0.0126551 -0.022023 0.699125
0.00156169 -0.0255429 0.473147
0.38011 -0.0107044 0.412224
0.301785 -0.0131874 0.39762
-0.10318 -0.0235181 0.364894
0.0318333 -0.0214178 0.389922
0.140885 -0.0188468 0.435661
0.414834 -0.0132798 0.396572
0.235148 -0.0193495 0.380719
-0.328924 -0.0154793 0.378833
-0.0154457 -0.0473599 0.386829
-0.467107 -0.00960943 0.434413
0.00204714 -0.0268432 0.557662
0.45274 -0.0104131 0.376981
-0.20684 -0.0160363 0.400708
0.00183815 -0.0323116 0.0149055
0.103381 -0.0292466 0.0255485
0.00448089 -0.0538637 0.607326
-0.173005 -0.0212171 0.371887
0.0215368 -0.0275267 0.0440575
-0.00391386 0.0545246 0.045846
-0.0151176 -0.0483499 0.470919
-0.26607 -0.0151678 0.378698
0.00195361 -0.0185425 0.56673
-0.317447 -0.0150093 0.365419
0.459108 -0.010191 0.377441
0.0211608 -0.0203209 0.419726
0.136069 -0.0208536 0.34821
0.488017 -0.0106832 0.40546
-0.00385999 -0.0185425 0.452083
0.159841 -0.0228697 0.404407
-0.0423912 -0.0210804 0.392195
-0.0066958 -0.0195523 0.477988
-0.0219953 -0.0310355 0.520987
-0.0230361 -0.02641 0.399565
0.432685 -0.0127595 0.422861
-0.421894 -0.0127033 0.392306
0.0903555 -0.0318328 0.0355934
0.0869391 -0.0197531 0.426302
-0.408002 -0.0137164 0.413398
-0.0639714 -0.0284689 0.0230945
-0.0157286 -0.0444961 0.312628
-0.361889 -0.0153882 0.408049
-0.0163021 -0.0313352 0.187729
0.0202194 -0.0424941 0.42567
-0.00063678 -0.0508744 0.714763
-0.315264 -0.0141079 0.374446
-0.182773 -0.0182076 0.36789
-0.0801992 -0.021988 0.354042
0.468247 -0.0114836 0.419552
-0.0200597 -0.0391447 0.634281
-0.0745237 -0.0250069 0.437891
0.114401 -0.031358 0.0339862
0.0611589 -0.0319238 0.0489927
-0.00054687 0.0336143 0.0327857
-0.20311 -0.0211346 0.388079
-0.0484621 -0.0322409 0.0492017
0.37203 -0.0149606 0.424784
0.00813035 -0.0101932 0.334525
0.00805583 -0.00967965 0.342734
0.0229163 -0.0255187 0.423441
0.0151182 -0.0228256 0.437861
0.0431742 -0.03282 0.0408886
-0.00681297 -0.0530467 0.575578
-0.202644 -0.0162032 0.425228
-0.013248 -0.0219107 0.422033
-0.105238 -0.0241353 0.434853
-0.00637159 -0.0241185 0.53443
-0.022796 -0.0294895 0.454136
0.436814 -0.00933929 0.428928
0.402093 -0.0138808 0.40623
-0.425775 -0.0128348 0.396447
-0.307786 -0.015699 0.437139
0.00390223 -0.0511802 0.378421
0.394285 -0.0119839 0.373712
-0.436417 -0.0123342 0.428563
0.0816704 -0.0221857 0.442156
0.199176 -0.0189302 0.35391
-0.0189402 -0.0433998 0.377328
-0.4386 -0.0113084 0.381771
-0.0171521 -0.0348236 0.224398
-0.112137 -0.029558 0.0472624
-0.0318724 -0.0278614 0.0220227
0.0345811 -0.02779 0.0444585
-0.410727 -0.0131154 0.430506
0.000423549 -0.0484194 0.220243
0.0711083 -0.0251776 0.437417
0.407533 -0.0112954 0.378396
0.135095 -0.0181733 0.419745
-0.0473373 -0.0209665 0.387659
-0.0441076 -0.0209444 0.41971
-0.0652083 -0.0235722 0.343776
-0.0223481 -0.0293438 0.500932
0.110771 -0.0195399 0.43339
-0.434708 -0.0114063 0.434258
0.0176544 -0.0169449 0.37706
0.312294 -0.012888 0.395254
-0.0143241 -0.0194525 0.242669
0.0860814 -0.0231649 0.349924
0.227247 -0.0193544 0.376233
-0.00214267 -0.00470004 0.602261
-0.0219795 -0.0278578 0.529544
-0.25389 -0.0191067 0.388016
-0.149075 -0.022936 0.430088
-0.105467 -0.0217563 0.442618
-0.0164121 -0.0149 0.526768
-0.00750242 -0.0440644 0.10859
0.158367 -0.0228631 0.396628
0.430689 -0.00961151 0.39343
-0.031532 -0.0263002 0.363806
-0.271865 -0.0173541 0.373037
0.357472 -0.014586 0.382379
-0.0088017 -0.00687437 0.42358
0.443994 -0.0106491 0.375348
0.173639 -0.0204527 0.439593
-0.00672987 -0.00558399 0.422278
0.0802384 -0.0257378 0.392905
0.093679 -0.0314422 0.0472437
0.484701 -0.00757724 0.407295
-0.00363054 -0.00547151 0.649357
-0.332327 -0.014337 0.364341
-0.000810146 -0.0328404 0.0182747
0.230259 -0.0203129 0.416703
-0.0081293 -0.0309458 0.0571831
-0.0163998 -0.0330305 0.0489754
0.40937 -0.00991283 0.399984
-0.000617742 0.0459971 0.0400899
0.114246 -0.0245987 0.416762
0.0018659 -0.0262223 0.526109
0.134847 -0.0237681 0.40053
-0.392258 -0.0121027 0.372801
0.264599 -0.0142954 0.399822
-0.0175502 -0.0416375 0.304529
-0.0718729 -0.0201046 0.420231
-0.0154611 -0.0274374 0.370983
0.00577485 -0.00814059 0.345024
-0.00470406 -0.0115256 0.0290083
-0.351718 -0.0155905 0.393587
-0.166937 -0.0173443 0.388003
0.394844 -0.0103176 0.404439
-0.00448368 0.00439742 0.028266
-0.0060327 -0.0310754 0.593427
-0.403495 -0.0134826 0.392965
-0.00933229 -0.00889263 0.630289
0.0206183 -0.0204446 0.615245
0.0156184 -0.0409294 0.298158
-0.36003 -0.0113303 0.420471
0.0918628 -0.0243224 0.369999
-0.0180985 -0.0446911 0.600946
-0.0179571 -0.0403727 0.302175
-0.0112522 -0.046643 0.248467
-0.0582725 -0.0245371 0.35373
0.444943 -0.00873378 0.413416
0.171216 -0.0202945 0.357513
-0.00385759 0.0450654 0.0302726
-0.297848 -0.0177305 0.40322
0.376259 -0.0118516 0.382774
-0.297328 -0.0133108 0.399071
0.395136 -0.0102552 0.411501
-0.0651913 -0.0324565 0.0415093
0.179314 -0.0219019 0.38543
-0.0299433 -0.0280666 0.0491661
0.0233669 -0.0286963 0.435711
0.152242 -0.0177834 0.388716
0.203236 -0.0212227 0.4001
0.0226037 -0.0363689 0.527251
0.373075 -0.0140375 0.383446
-0.0531228 -0.023111 0.348577
-0.0188687 -0.0192201 0.529933
-0.0108705 -0.0352181 0.0801568
0.0223584 -0.0216476 0.397134
0.124642 -0.0223734 0.360717
-0.13512 -0.0231626 0.378173
0.264003 -0.0142307 0.410451
-0.0170298 -0.0213894 0.670015
-0.0150841 -0.0336784 0.161255
-0.117944 -0.0211005 0.441694
-0.296205 -0.0159067 0.366145
0.379094 -0.0107626 0.42162
-0.28446 -0.0159895 0.36057
-0.0169915 -0.0229609 0.262122
-0.493497 -0.0105199 0.422216
-0.0356424 -0.0276249 0.037795
-0.00839289 -0.0462302 0.723234
-0.000219809 -0.0223292 0.0939456
-0.3466 -0.0117665 0.405856
-0.293142 -0.0169388 0.435449
0.155774 -0.0221828 0.375916
0.0228459 -0.0337477 0.537994
-0.0484412 -0.0283008 0.020419
-0.362544 -0.0129854 0.371862
0.0292189 -0.023751 0.348836
0.237178 -0.0156683 0.432553
0.398745 -0.0133214 0.387894
0.0378252 -0.0217043 0.43311
-0.00805556 -0.0527079 0.564266
-0.205039 -0.021188 0.421344
-0.0644728 -0.0324825 0.0377669
0.188119 -0.0184014 0.362958
-0.331302 -0.0156917 0.383277
-0.260279 -0.0162047 0.366006
0.00808501 -0.0482368 0.293082
0.0229175 -0.0329709 0.539839
-0.240873 -0.0157411 0.380426
0.0135569 -0.0103957 0.536165
-0.0159708 -0.0411587 0.243599
-0.0026382 -0.00459157 0.542416
-0.0966024 -0.0199593 0.376853
0.0488153 -0.0270482 0.410945
-0.342369 -0.015098 0.381073
0.258077 -0.0189844 0.388663
0.0163396 -0.0131668 0.460952
0.0826703 -0.02574 0.404642
-0.00289756 -0.00579143 0.360373
-0.106306 -0.0213724 0.352553
-0.0194958 -0.0404533 0.35321
-0.017727 -0.0283063 0.237237
-0.014363 -0.0185656 0.258734
0.273638 -0.0182812 0.387469
0.0201276 -0.0284765 0.340239
-0.390184 -0.010397 0.419171
-0.210323 -0.0163759 0.383384
-0.428711 -0.00951759 0.428245
-0.171854 -0.0189635 0.361303
0.022191 -0.0382064 0.465646
-0.00502132 -0.0268303 0.0379867
-0.0196336 -0.0425518 0.491521
0.456662 -0.0110487 0.432712
0.311794 -0.0153125 0.366543
0.0020206 -0.0317259 0.553042
0.0107188 -0.0530922 0.644886
0.356734 -0.0121007 0.432793
-0.000332815 -0.00245005 0.0500218
-0.0504974 -0.0307557 0.0112709
0.00379727 -0.00447659 0.543505
0.0224012 -0.0334316 0.393619
0.450045 -0.00858275 0.419966
0.115118 -0.0200682 0.367909
-0.00237587 -0.00425976 0.484134
0.025069 -0.0331732 0.0413623
-0.449325 -0.0102594 0.376745
0.0167003 -0.0337007 0.283263
-0.00912556 -0.0491635 0.314954
0.428229 -0.0129541 0.41206
0.000621943 -0.0528971 0.48019
-0.204073 -0.0211514 0.425442
0.0896149 -0.0195539 0.419329
-0.0157527 -0.0423657 0.25184
-0.0100216 -0.0506398 0.4072
-0.371608 -0.0147953 0.393558
0.0671488 -0.0202686 0.400109
0.0222262 -0.0241661 0.617776
0.0198663 -0.0451093 0.660156
0.0301359 -0.0215422 0.380679
-0.0813656 -0.0222113 0.442204
-0.0132122 -0.0298182 0.129604
0.0110468 -0.0514492 0.521636
-0.00273705 -0.0045749 0.0109768
0.0823024 -0.023332 0.350161
-0.159546 -0.0175241 0.393558
-0.363439 -0.0153674 0.41869
0.000913968 -0.0544496 0.659004
-0.48791 -0.00762179 0.399389
0.0590216 -0.0265719 0.422195
0.347752 -0.011748 0.40373
0.311431 -0.0172603 0.407607
-0.021289 -0.0275864 0.58139
0.14434 -0.0184215 0.380087
0.0171083 -0.0274465 0.044841
0.0232562 -0.0292572 0.648149
-0.0704833 -0.0261442 0.398452
0.163136 -0.017378 0.398296
0.00944809 -0.0520337 0.501384
0.363024 -0.0150082 0.429315
-0.0252364 -0.0216249 0.388983
0.219148 -0.0173571 0.438469
0.0137065 -0.0513899 0.661734
-0.015624 -0.0255041 0.688891
0.0210623 -0.0406271 0.437841
-0.0281368 -0.0221786 0.372007
-0.0260925 -0.0242947 0.342217
0.159069 -0.0175091 0.397289
-0.00613245 -0.0316171 0.576061
-0.421465 -0.0111783 0.374544
0.0374053 -0.0211179 0.417018
-0.0577187 -0.0262984 0.430664
0.291546 -0.0178126 0.427914
0.0144399 -0.0281549 0.70651
-0.12978 -0.0238796 0.390797
-0.0107996 -0.0329197 0.0200476
0.00944408 -0.00747775 0.647688
0.308488 -0.0152397 0.363584
0.405385 -0.0135476 0.394995
0.0181143 -0.0333218 0.701097
-0.0228398 -0.0269724 0.440741
-0.294595 -0.0134414 0.393009
-0.0131813 -0.0113448 0.518998
0.0162927 -0.0282042 0.417829
-0.190661 -0.0213224 0.430719
-0.22133 -0.018138 0.440412
0.292405 -0.0149818 0.370905
-0.0204243 -0.019537 0.394878
0.00675082 -0.0494991 0.314456
-0.0579844 -0.0311504 0.015428
-0.391325 -0.0123348 0.436617
0.213461 -0.0174415 0.366754
-0.0822559 -0.0258161 0.413851
0.000529525 -0.0185425 0.445184
0.373191 -0.0121471 0.434881
0.00405309 -0.0482927 0.237343
-0.145652 -0.0193344 0.438805
0.469006 -0.0107755 0.391599
0.110864 -0.0245855 0.425875
-0.0172516 -0.0271373 0.230283
-0.00537021 -0.0323513 0.528163
-0.0562196 -0.0213032 0.434749
-0.295377 -0.0138392 0.386198
-0.477155 -0.00778439 0.422367
0.47988 -0.00774151 0.404863
-0.00398354 -0.00580199 0.0215544
0.000332142 -0.00411121 0.632772
0.0226203 -0.0245672 0.460023
-0.172757 -0.0224441 0.411309
-0.219696 -0.0191412 0.437882
-0.33102 -0.0151648 0.375495
0.0617211 -0.026069 0.377873
-0.00126386 -0.0442911 0.0879522
0.444378 -0.0116076 0.389429
-0.114129 -0.0206122 0.360434
-0.00912926 -0.0379674 0.0587217
-0.0895079 -0.0304504 0.0109434
0.180841 -0.0186046 0.362916
0.111732 -0.0197663 0.373622
0.00871703 -0.0331823 0.126948
0.118001 -0.0312851 0.0331179
-0.110775 -0.0246237 0.395558
0.00888886 -0.00716835 0.648797
-0.0102692 -0.031558 0.0765483
0.198049 -0.0174027 0.437152
-0.00415272 0.0205744 0.0281067
-0.00627008 -0.0330384 0.0278767
0.41451 -0.0104382 0.387952
0.00775206 -0.0303611 0.1148
0.0898237 -0.0198342 0.381345
0.0585441 -0.0242326 0.349483
-0.0411187 -0.0302133 0.00512627
0.00575905 -0.0532897 0.57026
0.388063 -0.0111064 0.38881
-0.297463 -0.013248 0.421522
0.430286 -0.00962699 0.393367
0.00887651 -0.00680426 0.475295
-0.147972 -0.0232597 0.423881
0.199818 -0.021403 0.406844
-0.0592709 -0.0236861 0.341999
0.353703 -0.0132492 0.371565
-0.00120418 0.0466506 0.0274521
0.302763 -0.0137191 0.385002
0.00297345 -0.0238357 0.101667
-0.317993 -0.0168571 0.427561
0.254268 -0.0148524 0.387894
-0.00246623 -0.0269998 0.0422336
-0.0244692 -0.0272396 0.433912
0.0178813 -0.0155971 0.637493
0.00113811 -0.0185425 0.561665
-0.431686 -0.0127932 0.407775
0.00131636 -0.0540859 0.592932
0.491776 -0.00982462 0.390981
-0.147349 -0.0233561 0.418356
-0.148707 -0.0230097 0.383799
-0.278366 -0.0155834 0.367792
-0.477634 -0.00838628 0.392471
-0.41335 -0.0123844 0.382768
0.0167652 -0.0406939 0.319206
0.423164 -0.00939112 0.419051
0.0113686 -0.0331418 0.723703
-0.0386749 -0.0274117 0.409246
0.182397 -0.0203256 0.364411
-0.219057 -0.0178086 0.359217
-0.164937 -0.0172223 0.416044
0.00674909 -0.0172871 0.205669
0.0140155 -0.0242258 0.348021
0.314222 -0.0162093 0.435015
0.0403723 -0.0268661 0.431534
0.00018403 -0.0545947 0.648868
-0.190758 -0.020512 0.37193
0.0119357 -0.0380697 0.203807
0.00716025 -0.00596722 0.398202
-0.0120376 -0.026173 0.132936
0.119314 -0.0300892 0.0168023
-0.00594685 -0.0453238 0.122122
0.0178642 -0.0152792 0.563692
-0.0871003 -0.0197086 0.394568
-0.140523 -0.0198078 0.361562
0.0606779 -0.0266198 0.413317
0.0835527 -0.0314378 0.0490053
0.0448834 -0.0327081 0.0441339
-0.00461663 -0.0461401 0.138262
0.149516 -0.0217985 0.366749
-0.0732444 -0.0288789 0.0193828
0.140601 -0.0183204 0.383016
-0.144974 -0.0178484 0.408326
-0.129601 -0.018457 0.426426
-0.452904 -0.0106847 0.381002
0.455205 -0.00874477 0.428475
-0.433116 -0.00914148 0.406832
-0.00141814 -0.00620394 0.341147
-0.10857 -0.0225757 0.354373
-0.00106604 -0.0503305 0.309161
-0.473534 -0.0112583 0.410356
0.00662684 -0.0135124 0.25995
0.200946 -0.0193544 0.361064
0.417184 -0.0126675 0.432779
-0.0953505 -0.0308818 0.0190568
0.335822 -0.012169 0.396137
0.00158788 -0.0310434 0.477706
-0.35773 -0.0122794 0.383953
-0.0192599 -0.0172917 0.3978
0.0293353 -0.023706 0.34944
0.0718485 -0.0297224 0.0507171
0.0403347 -0.0212042 0.384392
-0.0977 -0.0251383 0.42258
0.00847209 -0.00661966 0.559929
-0.120382 -0.0192665 0.377407
-0.00401053 0.0491773 0.0376711
0.188518 -0.0213808 0.383202
-0.0225373 -0.0324509 0.45039
-0.0193427 -0.043862 0.434815
-0.425954 -0.00937553 0.404541
-0.0123656 -0.0136353 0.659771
-0.0132562 -0.0355011 0.127477
-0.492272 -0.00923688 0.433556
-0.0570991 -0.0324889 0.0276365
0.361563 -0.0112851 0.40965
0.0791043 -0.022831 0.342286
0.00889674 -0.0433628 0.194581
-0.334617 -0.0121401 0.404415
-0.0680436 -0.0208159 0.433328
-0.00272217 -0.0436453 0.0344261
0.0202733 -0.022233 0.66376
0.021598 -0.032722 0.376585
-0.00476411 -0.0409967 0.0017908
-0.319099 -0.0125685 0.419722
-0.247637 -0.0196522 0.41022
0.0139516 -0.049189 0.441985
-0.000247406 0.00853536 0.0302213
0.445004 -0.0122995 0.407907
0.0132571 -0.035522 0.219904
-0.19901 -0.016213 0.408366
0.00859368 -0.0213639 0.183032
-0.00132174 -0.0394583 0.74863
-0.0123267 -0.0499558 0.460885
-0.462814 -0.00816401 0.417252
-0.448764 -0.0110232 0.383509
-0.0151804 -0.028252 0.405062
-0.0256798 -0.0242972 0.342345
0.412772 -0.0135056 0.422011
0.109599 -0.0190849 0.427192
-0.0521615 -0.0207854 0.392098
-0.00376018 -0.0185425 0.45112
0.165617 -0.0179231 0.378833
