-0.0568006 -0.0154008 0.0582926
0.123917 -0.0127697 0.0434586
-0.0898514 0.0420117 0.306996
-0.202799 0.0525415 0.325941
0.221182 0.0536942 0.400767
-0.198322 0.0375229 0.32632
0.320321 0.0454111 0.362996
0.405299 0.0675689 0.375978
-0.149285 0.0431206 0.28743
-0.00446444 -0.00200049 0.0728052
0.296269 0.0568755 0.312431
-0.1347 -0.00827505 0.0719999
-0.00966783 -0.0111629 0.121233
0.251085 0.0403646 0.387326
0.281809 0.0424593 0.377515
-0.00252061 -0.0434908 0.120148
-0.0378686 0.0267027 0.317189
-0.197023 0.0536712 0.359856
-0.00523449 -0.0698732 0.446018
-0.467253 0.0567423 0.362243
0.184925 0.0478502 0.302784
0.0304964 0.0425277 0.394134
-0.265126 0.0411577 0.363078
-0.0618292 0.0265251 0.330504
-0.34204 0.0604047 0.31519
-0.0216256 0.0196007 0.427616
0.144951 0.0502714 0.365194
-0.0032909 -0.0720026 0.279395
0.360799 0.0647439 0.365777
0.289799 0.0430872 0.377492
0.0137865 0.0249129 0.417914
-0.115251 0.0324106 0.411533
0.101016 -0.0162169 0.066894
-0.101519 0.0354164 0.291346
-0.454937 0.0710394 0.365039
-0.0895882 0.0461076 0.337961
0.0363298 -0.00463098 0.442306
0.0277204 -0.0612941 0.276672
-0.00344995 -0.0047394 0.0461073
0.330164 0.0563684 0.293678
0.138447 -0.0118089 0.0414595
0.014919 -0.0551246 0.20915
-0.158508 0.0504292 0.331953
-0.34421 0.0632677 0.385328
0.403495 0.0595658 0.283302
0.0746406 0.0316181 0.419271
-0.177199 0.0523108 0.357929
0.0490072 -0.0181152 0.343355
0.471992 0.0718277 0.343846
0.266672 0.048853 0.28542
0.0355304 -0.00692112 0.0858646
-0.241911 0.043319 0.309763
-0.0400056 -0.0488524 0.349203
-0.0480554 -0.0280758 0.373936
-0.40044 0.0519219 0.342381
0.133278 -0.00978014 0.0547821
-0.179641 0.0425526 0.283343
0.123405 0.0356579 0.417099
0.0832843 0.0294509 0.321869
0.121044 0.0370361 0.290438
0.0519549 -0.0170878 0.0856627
0.330864 0.056829 0.29643
0.11617 0.0439232 0.307798
-0.190607 0.0530772 0.35002
-0.00600676 -0.0678088 0.46028
-0.00301711 0.053309 0.0314872
-0.00247461 0.0312116 0.0304658
0.384269 0.0588462 0.285651
-0.11226 0.0478259 0.349899
0.17194 0.0475306 0.413232
-0.142752 0.0446852 0.30082
0.36392 0.0488838 0.356074
-0.0507921 -0.0169821 0.078522
-0.157004 0.0460577 0.303502
0.0158977 -0.0660182 0.268999
-0.0669157 0.0350658 0.276163
0.124041 0.0467402 0.407574
-0.0324816 -0.0617072 0.334486
-0.369957 0.0491737 0.366704
-0.207338 0.0371091 0.338585
0.360239 0.0618875 0.316818
0.259566 0.0549683 0.405429
0.0387635 -0.0161996 0.282315
-0.333414 0.0466906 0.382699
0.0035428 -0.0253265 0.0287339
0.1576 0.0509802 0.389554
0.4698 0.0578633 0.385527
-0.190362 0.0525331 0.331526
-0.049143 -0.0258127 0.428684
0.0567387 0.0253854 0.346027
0.36937 0.055224 0.294959
-0.0430893 0.0351118 0.425452
-0.026871 0.0401541 0.323181
-0.00321126 0.0445433 0.0352824
0.00662626 -0.0714676 0.427423
-0.0645569 -0.0167643 0.0748581
-0.372201 0.0499688 0.331414
0.118117 0.0453346 0.316321
-0.437867 0.0545716 0.356581
-0.0327882 -0.0265833 0.470001
-0.0138649 0.0412376 0.35016
-0.183398 0.0529316 0.379209
-0.433303 0.0541761 0.371244
-0.193402 0.0360937 0.335045
-0.159615 0.0390196 0.296748
-0.0340953 0.00864923 0.303422
-0.0119002 0.0413411 0.364249
0.321165 0.0621215 0.367765
0.199414 0.0540315 0.371824
0.408164 0.0656621 0.320236
0.136389 -0.00902911 0.0944404
-0.221194 0.0441436 0.293779
-0.10984 -0.0102196 0.0509152
0.153541 0.0436993 0.289357
0.045469 -0.0136294 0.0460432
-0.428988 0.0588806 0.300775
0.0030582 0.00779996 0.0931853
-0.0109142 -0.0471932 0.158291
0.103089 0.0320244 0.414857
0.142425 0.0343783 0.318975
-0.0497696 -0.00837144 0.0608381
0.0979118 0.0331558 0.304585
0.108875 -0.0115628 0.104717
-0.0440361 -0.0384359 0.421196
0.212919 0.0541719 0.332217
0.28132 0.0582601 0.395254
0.128352 0.0391643 0.279955
-0.385258 0.0661218 0.350164
0.100068 -0.013779 0.0492334
0.231282 0.0535462 0.319718
-0.417603 0.0549356 0.321302
0.048084 -0.0163031 0.377046
0.325236 0.0460687 0.346042
-0.00170577 -0.009855 0.0490175
0.0265627 -0.0161621 0.20811
-0.476724 0.0708707 0.388429
-0.108334 0.0370794 0.421587
-0.0415885 -0.0444971 0.365439
0.0106866 0.0242341 0.427153
-0.0204219 -0.0132453 0.479008
0.125136 0.0470755 0.406215
0.317862 0.0454478 0.349255
-0.333565 0.0624619 0.33842
-0.307964 0.0474736 0.403521
0.0303776 0.0308681 0.285638
-0.017295 -0.00901926 0.16687
0.128259 0.0306528 0.360732
-0.116055 0.0399052 0.281073
0.208744 0.0545509 0.3655
-0.0053435 -0.00374714 0.169347
0.371873 0.0655143 0.367478
-0.0236055 0.0215518 0.357169
0.406892 0.0674559 0.382479
0.297941 0.0572553 0.314203
-0.336892 0.0632058 0.371018
0.090461 -0.00848615 0.100447
0.131258 0.042088 0.288724
0.0456881 -0.0101953 0.362996
0.111002 0.0335481 0.308598
-0.450817 0.0555715 0.371787
0.221556 0.0433088 0.299526
-0.00228415 0.00138293 0.0347807
0.244091 0.0485061 0.280321
-0.106189 0.0426753 0.304009
0.0893443 0.0277372 0.355738
0.00569741 -0.0613439 0.221724
-0.22773 0.0558423 0.36665
-0.0525596 0.0264747 0.326147
0.0473191 -0.0304174 0.428368
0.351831 0.0640969 0.363019
-0.0540104 0.0421932 0.324461
-0.218571 0.0380693 0.33293
0.349611 0.0560867 0.28298
0.0902647 0.0444901 0.409104
0.16024 0.0456947 0.299616
-0.0431415 0.0427687 0.404159
-0.0383681 -0.0415269 0.292096
-0.00776167 -0.0683299 0.263276
0.130648 0.0392929 0.280261
0.0446597 -0.032908 0.437199
-0.0153353 -0.0132499 0.134884
-0.231539 0.0561836 0.371794
0.382628 0.0501282 0.36802
0.422799 0.064768 0.30764
0.135663 -0.0158451 0.0682574
-0.0793819 -0.0159922 0.101131
-0.304063 0.0517137 0.410612
0.0652187 -0.0119134 0.0378301
-0.430851 0.054046 0.373193
0.0467819 -0.0318595 0.383905
0.0425683 -0.00279243 0.383407
0.00363306 -0.00915988 0.101936
-0.0298523 -0.0319714 0.482382
0.14612 0.0321962 0.390141
0.0495341 -0.0245849 0.375378
0.100908 0.0298386 0.404886
-0.0563365 0.0444996 0.375109
0.381549 0.0542652 0.307515
-0.474362 0.0720055 0.344981
-0.0910458 -0.0086551 0.0605962
-0.247338 0.0428455 0.315666
0.0131836 0.0319512 0.274724
0.346714 0.0583482 0.299365
-0.239757 0.0394362 0.348943
-0.313222 0.0605756 0.3294
0.0885943 0.0276895 0.355128
-0.264091 0.041076 0.363198
0.181726 0.0526981 0.362961
-0.0308548 -0.0171706 0.0762096
0.326824 0.0460711 0.353338
-0.137046 0.0375262 0.295274
0.186217 0.0454726 0.286354
-0.0765533 0.0265438 0.368369
-0.0304249 0.0232802 0.395862
0.0689797 -0.00982024 0.0519431
-0.404744 0.0641787 0.311902
-0.00163813 -0.0276023 0.034058
0.0431624 -0.0280813 0.288748
-0.389558 0.066295 0.343296
0.359873 0.0508197 0.319502
0.0224609 0.0155533 0.296436
0.248377 0.0454618 0.298757
0.0335205 0.024779 0.327808
-0.0180545 0.0218751 0.378213
0.390167 0.0658258 0.388756
-0.172997 0.0413293 0.417125
0.0309498 -0.0414774 0.233215
-0.11157 -0.012927 0.103857
0.0228091 0.022446 0.339926
-0.0225032 0.0168529 0.302598
0.0394307 0.00440331 0.422008
-0.0405066 -0.0346041 0.454572
0.425162 0.0545628 0.388321
0.0585696 0.0443688 0.394155
-0.217757 0.0487151 0.293657
-0.0119404 -0.00969247 0.0505114
0.389922 0.0662296 0.337918
-0.0857432 -0.00989602 0.0521089
0.0288531 -0.00296418 0.264551
-0.15267 -0.0156206 0.0663986
-0.0348459 0.0431285 0.381543
0.127728 0.0303679 0.375544
-0.196379 0.0363218 0.335128
0.0060535 -0.0416752 0.118354
-0.0758739 0.0441883 0.406477
-0.0626923 0.030483 0.304565
-0.000494472 0.0611489 0.00731836
-0.187981 0.0527379 0.394248
-0.435023 0.0566698 0.394571
-0.315496 0.0614161 0.348292
-0.0136403 0.023801 0.409211
-0.126802 0.0453833 0.312706
-0.0855592 0.0331226 0.298552
0.0320862 0.0232602 0.391324
-0.248206 0.0552086 0.400968
0.257571 0.0446081 0.309101
0.0245235 -0.0530246 0.223158
0.00412116 0.00384167 0.05353
0.453515 0.0583168 0.316951
-0.303631 0.0606338 0.349058
0.0246546 0.0262878 0.313264
0.306239 0.044701 0.340214
-0.0340974 0.0363444 0.294515
0.139199 -0.00972645 0.0553767
-0.040568 -0.0391169 0.442897
-0.0127143 -0.0674597 0.439939
0.0413834 -0.00496077 0.432205
-0.351483 0.0640538 0.361833
-0.36092 0.0569416 0.407454
-0.0785793 -0.0121315 0.037388
-0.0619614 -0.0127514 0.0408554
0.341581 0.0494685 0.398966
0.290706 0.0432406 0.356263
0.35158 0.061141 0.315771
-0.0312735 -0.0170484 0.104575
0.0694587 -0.00750665 0.0737743
0.0336173 0.00530907 0.29356
-0.447112 0.0554575 0.346014
-0.364342 0.0632261 0.323878
-0.212153 0.0540702 0.396298
0.242406 0.0517526 0.30272
0.024942 -0.0338621 0.178323
-0.416036 0.0684725 0.36741
0.124688 0.0434461 0.300755
0.336262 0.0630793 0.374424
-0.0854773 -0.00754592 0.0906967
0.111815 0.0366464 0.288362
-0.462513 0.0566844 0.37766
-0.0565565 0.0439379 0.340563
-0.135689 -0.0159754 0.0761147
0.0197582 0.0177321 0.301138
-0.034885 -0.0171749 0.0792233
-0.0640787 -0.0168274 0.078316
-0.337451 0.046902 0.379502
-0.149724 0.0347119 0.408136
-0.253733 0.0409626 0.331452
-0.346385 0.0552621 0.283067
-0.00676425 -0.0369927 0.0951026
0.381535 0.0659092 0.352377
0.0789712 -0.0138081 0.10786
0.129668 0.0457707 0.313988
-0.405849 0.0654163 0.319648
0.0467658 -0.0320415 0.398614
-0.310841 0.0446486 0.374576
-0.101924 0.0287375 0.390748
-0.307673 0.0566812 0.305963
-0.00237752 0.00157417 0.204363
0.0367444 -0.0569862 0.390165
0.180605 0.0404949 0.414693
0.011093 -0.0168325 0.0659858
0.378436 0.0523134 0.397256
-0.147358 -0.00837187 0.0748049
0.00596381 0.023262 0.297031
-0.100756 0.0454069 0.324677
-0.441435 0.0671781 0.315249
0.387775 0.0543768 0.309923
0.419698 0.057829 0.400509
0.288011 0.0533893 0.292943
0.234956 0.0391916 0.341328
-0.254692 0.0485644 0.281278
0.153924 0.0505232 0.344253
0.292156 0.0586656 0.326226
-0.0906063 0.044806 0.407626
0.00512812 -0.0678914 0.464517
-0.165288 0.0339416 0.334226
0.0192856 -0.0670594 0.382851
0.0694928 -0.0075416 0.0716994
-0.176314 0.0345893 0.34649
0.0711176 0.0318924 0.420237
0.461292 0.0567763 0.332231
0.0305652 0.0134389 0.304128
-0.0591277 -0.0159944 0.104958
-0.0393785 0.00540608 0.402173
-0.114389 0.0481542 0.389213
0.00442547 -0.00540902 0.0653067
0.160706 0.0334755 0.394069
0.158347 0.0448326 0.294729
0.00436643 -0.00658855 0.102673
-0.440309 0.0546852 0.361116
0.0600083 0.0442439 0.345042
0.0280387 -0.0172147 0.0769356
-0.00309976 0.0549081 0.0553923
-0.0137008 -0.00679262 0.0787386
-0.233672 0.0404707 0.324574
-0.143945 0.044495 0.299012
0.0025004 -0.00669738 0.0768418
-0.352759 0.0483017 0.339169
0.100472 0.0461874 0.330007
0.216661 0.0373919 0.365039
0.112743 -0.00894979 0.0594982
-0.0859317 0.0348492 0.287234
-0.00386361 0.0308248 0.344659
-0.0679179 -0.0127258 0.0409235
-0.000202206 0.0664632 0.00372284
-0.021694 0.00743594 0.444891
0.180986 0.0524721 0.352389
0.45797 0.0707467 0.382588
0.102993 -0.00799997 0.0669528
0.0502344 0.0405213 0.315032
-0.224619 0.0493749 0.294942
-0.158761 0.0509873 0.352645
-0.297941 0.0606167 0.370828
-0.0326551 -0.0605508 0.41924
-0.0270532 -0.0625661 0.307506
0.0348978 -0.024999 0.463699
0.0271118 -0.00678398 0.0883755
-0.0472572 0.041974 0.40931
0.276979 0.0485318 0.292779
-0.352735 0.0639496 0.350582
-0.157645 0.0507995 0.393858
0.0768339 -0.0116668 0.0399404
0.0174763 -0.0584578 0.489272
0.0308324 -0.0020812 0.451469
-0.387425 0.0505665 0.363842
0.323668 0.0500285 0.306444
0.462177 0.0703734 0.327136
0.017389 -0.0175135 0.0875909
0.070466 0.0454388 0.37466
-0.298444 0.0520005 0.411165
-0.0284751 0.0231732 0.348148
0.12936 0.0308214 0.38848
0.218092 0.0412057 0.311787
-0.0357279 -0.0591457 0.415282
-0.0279091 -0.063624 0.340663
0.0196113 -0.00796019 0.111276
0.14346 0.0497161 0.337907
0.447719 0.0672131 0.312632
0.0366905 -0.0565835 0.328298
0.263692 0.0578224 0.340938
-0.0174173 0.0302626 0.426657
-0.400991 0.0670366 0.341834
-0.0345647 0.0428412 0.392275
0.258701 0.0409777 0.343942
0.25073 0.0431694 0.406746
0.105536 -0.00938837 0.0562858
-0.307962 0.046168 0.39701
0.418344 0.0603035 0.285904
0.0315927 -0.0296108 0.207754
0.0599911 0.0349764 0.273655
-0.0046488 -0.0174644 0.0759363
0.390407 0.0547836 0.308545
0.327407 0.0482352 0.39893
-0.117471 0.0330968 0.314881
-0.0250079 0.0418292 0.340873
-0.238599 0.0565052 0.381109
0.326016 0.0460987 0.347871
0.372933 0.0502892 0.32965
0.220971 0.0432293 0.299759
0.0173419 -0.00660518 0.0924688
-0.449034 0.0554549 0.355178
-0.239394 0.0541639 0.320156
-0.127654 0.030801 0.348905
-0.345554 0.0575348 0.294471
-0.41239 0.0608019 0.28593
-0.260689 0.0467497 0.410584
0.00820423 -0.0238558 0.518354
-0.0779616 -0.0165557 0.0964123
0.0889028 0.0302811 0.319181
-0.18714 0.0462519 0.415712
0.0967305 0.0401932 0.291757
-0.251382 0.0572781 0.383725
0.326822 0.0601379 0.320314
-0.0170592 -0.0679514 0.321325
0.155744 0.0381156 0.300813
-0.0510022 0.0246802 0.362011
-0.0335563 -0.04458 0.467496
0.326561 0.0514743 0.298273
0.367662 0.0628212 0.319673
-0.00850566 -0.00726532 0.408644
0.0337664 0.0166316 0.326295
0.0388456 -0.0520379 0.372939
0.00125488 0.0568117 0.0147783
-0.0369065 0.0137046 0.341896
0.144512 0.0503628 0.379933
0.336872 0.0631761 0.367893
0.442746 0.0681198 0.392398
-0.131651 0.0306853 0.374617
0.469881 0.0650251 0.287999
0.209843 0.0479462 0.292123
0.0148414 -0.0653529 0.263143
-0.00995081 -0.0154158 0.0890396
-0.104141 0.0285415 0.37611
0.0849196 0.0461363 0.392596
0.193232 0.0358292 0.387882
-0.35041 0.0640388 0.365231
-0.0137481 -0.00966135 0.148687
-0.038627 -0.00345395 0.437226
-0.0266926 -0.0144066 0.214368
0.426758 0.0591905 0.297581
-0.0221106 -0.0237963 0.491897
-0.0103683 -0.0665259 0.259477
0.0407723 0.0397632 0.314272
-0.0449443 -0.00728269 0.343722
0.00129824 -0.0426576 0.113057
0.0107138 -0.0223921 0.512074
-0.113982 -0.00798137 0.075546
-0.0966569 0.0445746 0.320989
0.0193347 -0.0647837 0.281417
-0.439378 0.0545564 0.364589
-0.042609 -0.00117881 0.343593
0.017399 -0.0321022 0.509198
0.0197655 -0.043908 0.172061
0.0364248 -0.0584765 0.337473
-0.288873 0.0445131 0.325583
-0.00357127 0.00424121 0.0453629
-0.0544207 -0.00738992 0.0705591
0.0457608 -0.015284 0.0570706
-0.192944 0.0404538 0.412623
-0.219085 0.0379796 0.340675
-0.085909 0.0464101 0.370857
0.277156 0.042163 0.37966
0.15613 0.0327075 0.366341
0.243384 0.0474602 0.282911
-0.165092 -0.0154358 0.0872027
-0.451883 0.0558588 0.343957
0.0414342 -0.0322528 0.288355
0.168771 0.051889 0.366486
-0.0133595 0.0400288 0.328474
0.00485399 -0.0187005 0.0924219
-0.0721266 0.034009 0.285844
-0.0070429 -0.0155976 0.0738467
0.416384 0.0533264 0.331655
0.382647 0.0502355 0.37264
0.160378 -0.0087892 0.0624723
-0.0736715 0.04553 0.387347
0.375242 0.063 0.317427
0.0656692 -0.00726909 0.0854679
-0.263214 0.0466933 0.298062
0.186806 0.0356013 0.334096
0.0783893 0.0323278 0.300218
-0.0744839 -0.00898035 0.0577656
0.0520406 -0.016477 0.0652659
-0.251847 0.0462106 0.295524
0.0134795 -0.0238823 0.0892722
-0.275011 0.0461377 0.307738
-0.026278 0.0418242 0.335473
-0.00316858 -0.00717007 0.0441553
-0.374086 0.0655842 0.362777
0.0456388 0.0249261 0.332963
-0.330977 0.062607 0.379429
-0.00532666 0.0266645 0.423768
0.243439 0.0563862 0.336189
-0.0431381 0.0433373 0.39492
-0.16448 0.0457915 0.298337
-0.0274801 -0.0629559 0.401242
0.0250808 -0.0634118 0.305507
-0.00849936 -0.04564 0.144733
0.00289402 -0.0670491 0.245747
-0.0037604 -0.01604 0.115244
-0.0182906 0.0169751 0.294113
0.101701 0.0283574 0.375876
0.0191916 -0.0665382 0.409586
0.211246 0.0369324 0.367613
0.044666 -0.0370873 0.352074
0.0183338 -0.01732 0.0766183
-0.0182163 -0.0387445 0.149993
0.109258 0.034425 0.301872
-0.030665 -0.059188 0.280047
0.0459667 -0.0112574 0.38956
-0.0372915 -0.0558483 0.356506
-0.143558 0.0499695 0.352696
-0.348899 0.0542792 0.29089
-0.0475255 -0.0158024 0.428638
-0.119396 0.0487132 0.374407
-0.0190992 -0.0309676 0.136078
-0.00716002 -0.00657487 0.100394
-0.25592 0.0547714 0.405365
-0.0243885 -0.0359943 0.180262
-0.118404 0.0315382 0.32574
-0.285333 0.0556722 0.309371
0.229238 0.0558199 0.383952
-0.141335 -0.0157638 0.0672475
-0.0407957 0.0287655 0.304925
0.0301463 -0.0204618 0.221366
0.0155218 -0.0102564 0.149923
-0.203261 0.0375278 0.328787
0.45268 0.0620496 0.291652
0.0147924 0.0217324 0.386187
-0.155103 -0.014942 0.0919881
-0.26902 0.0585801 0.364921
-0.468823 0.0654231 0.291132
0.00339735 0.0209493 0.0405162
-0.318066 0.0559034 0.296066
0.129802 -0.012121 0.0393686
0.0562 -0.0118349 0.0379928
-0.0946579 0.0463327 0.333612
-0.442975 0.0699202 0.346044
-0.469601 0.05691 0.363042
0.0108732 -0.0316824 0.0884562
0.118898 -0.0152373 0.0597025
0.0183365 0.0224428 0.399282
-0.0967621 0.02794 0.378741
-0.0334003 0.0152322 0.411745
0.193005 0.0357446 0.385888
-0.423681 0.0584216 0.301147
0.0486984 -0.0181796 0.403411
-0.394285 0.0650298 0.322318
-0.314321 0.045278 0.3854
0.388631 0.0654681 0.327803
0.0139251 0.0208588 0.303365
-0.390755 0.0647405 0.32199
-0.127881 -0.0160016 0.0885833
0.0244514 -0.0651088 0.352624
0.183756 0.0526494 0.351889
-0.0165295 -0.0267148 0.506108
0.0262868 -0.0634209 0.415044
0.106897 0.0475853 0.392306
0.45172 0.0559296 0.338889
-0.457617 0.0655227 0.399779
0.228264 0.0423907 0.30904
0.214754 0.0372925 0.380869
0.431586 0.0634834 0.295094
0.0191702 -0.0273407 0.127549
0.0608041 0.0399325 0.306315
0.305377 0.0504479 0.294387
0.226811 0.040481 0.403653
0.342774 0.0609035 0.318182
0.022959 -0.000396511 0.454331
0.440758 0.0629524 0.287395
0.384564 0.0627237 0.311358
-0.00165309 -0.00677165 0.108109
0.405766 0.0602379 0.285176
-0.269359 0.0424674 0.329335
-0.0832365 0.0273318 0.392703
-0.00329179 0.0137349 0.0872831
-0.0990517 0.04709 0.358836
-0.087219 -0.0113461 0.0424952
-0.128188 0.0357268 0.30278
-0.0202377 -0.0636342 0.445392
-0.445439 0.0561496 0.387488
-0.381035 0.0528145 0.398632
-0.157338 0.0422571 0.278023
-0.105991 0.0435896 0.310191
-0.0430567 -0.00265989 0.366046
0.0278085 -0.0127027 0.0391629
0.0213923 -0.0656816 0.314083
0.0381881 0.00821864 0.395251
0.00363648 0.0037984 0.0460178
0.0647688 -0.0166485 0.0680388
0.0387094 -0.0137706 0.046711
0.265577 0.0557615 0.318927
-0.0794337 -0.0166638 0.0789912
0.0325664 0.0324231 0.276383
0.227403 0.0399418 0.400709
0.117629 0.035159 0.417327
0.0222101 -0.0637208 0.289573
0.13562 0.0367864 0.416722
-0.146233 -0.00846368 0.0685118
0.00106837 0.0427988 0.0750195
-0.370759 0.0654078 0.365558
0.256821 0.0566665 0.396171
0.0198457 -0.00711262 0.068036
-0.0473829 -0.0125782 0.0391169
0.0345242 0.00697869 0.302468
0.15429 0.0328621 0.348349
0.107135 0.0288439 0.381451
-0.0648892 -0.0145312 0.109101
-0.0794579 0.0288595 0.40926
-0.0265749 0.0342128 0.283722
0.0183653 0.0398969 0.325325
-0.119545 0.0327074 0.318527
-0.081638 0.0279935 0.330748
-0.357188 0.064307 0.354116
0.042093 -0.0347101 0.4469
-0.0324481 -0.0612396 0.369374
0.408014 0.0566596 0.400742
0.442195 0.0547359 0.366876
-0.371426 0.0623981 0.315147
0.468728 0.0595398 0.394344
0.320071 0.0568404 0.301401
0.462711 0.0713356 0.351609
0.105607 -0.0130411 0.0445348
0.283622 0.0592987 0.349387
-0.0972904 0.0288133 0.333209
0.0279117 -0.0130178 0.0412648
-0.184995 0.0485682 0.412309
-0.0474536 -0.0289452 0.430555
-0.384739 0.0662139 0.376229
-0.0238823 -0.0300768 0.1626
0.190245 0.0532675 0.383736
0.0553364 0.0249743 0.38778
-0.0239441 0.0221847 0.334969
0.00299427 0.0540912 0.0593886
0.0316861 -0.0409193 0.478445
0.025197 0.0103565 0.288168
-0.0497781 -0.0202956 0.371262
0.089286 0.046359 0.354241
0.266532 0.0417618 0.33294
-0.0235023 -0.0162781 0.185437
0.00390601 -0.0215986 0.0261821
0.0233715 0.0420445 0.360342
-0.118276 0.046347 0.40788
-0.0217963 -0.00688028 0.078979
-0.00352106 0.0401727 0.0537551
-0.0418093 -0.0394494 0.436739
-0.0427375 -0.0366995 0.437578
-0.469121 0.0595152 0.316866
0.000150097 0.00816671 0.014932
-0.0421903 -0.000271454 0.357059
0.0147559 -0.0103211 0.0464306
0.0360354 0.0134694 0.405445
0.0107658 -0.00468216 0.18071
-0.319777 0.0457967 0.337
-0.198251 0.0534023 0.338812
0.0654906 -0.0168396 0.0800183
-0.156036 0.0435894 0.287492
0.282053 0.0594117 0.362436
0.0223501 -0.0112035 0.0408487
0.332785 0.0500221 0.311103
-0.458081 0.0652266 0.294694
-0.0294882 -0.0611666 0.302806
0.0080975 -0.0643898 0.482256
-0.115575 -0.0160262 0.0938141
0.0546002 0.0364121 0.285668
-0.250069 0.0567605 0.332618
-0.0436523 0.0239364 0.372792
-0.0454093 -0.00904457 0.383152
-0.287898 0.0549117 0.30314
-0.0909125 -0.0159172 0.0631034
0.232613 0.0522322 0.310357
-0.380728 0.0657932 0.348664
-0.105397 0.0471624 0.337697
-0.0389618 -0.00695042 0.0957062
-0.0364813 -0.0578614 0.364286
0.0233841 -0.00401302 0.231544
-0.0422572 0.0248263 0.405187
-0.0748439 -0.0168465 0.0868259
0.028379 -0.0195075 0.47313
0.0493695 0.0274839 0.317806
0.153757 0.0327767 0.35104
0.283623 0.0448406 0.320742
0.0280351 -0.0301379 0.187694
-0.381074 0.0655949 0.335412
0.00403059 0.016334 0.0626343
-0.0670108 0.025963 0.359003
0.301969 0.0443824 0.339585
-0.212228 0.037473 0.339364
0.0191984 -0.0355808 0.14808
-0.0425434 -0.00208593 0.329429
0.0387031 0.0237043 0.363736
0.207764 0.036948 0.350384
-0.0293219 0.0178425 0.389618
-0.0709653 0.0263789 0.352249
0.0458206 -0.0168766 0.0687796
0.376689 0.0616621 0.307855
0.274508 0.0587051 0.350405
-0.0404502 -0.00755001 0.436871
-0.0248271 -0.0047948 0.45968
0.445228 0.0664837 0.397872
-0.0556095 0.0380733 0.421756
-0.397955 0.0537163 0.395832
-0.433819 0.0566536 0.318063
0.475417 0.0578375 0.381766
-0.0487436 0.0242232 0.380635
-0.458048 0.0562998 0.346021
0.244547 0.0419789 0.320028
0.212223 0.0549004 0.376106
-0.198905 0.0518709 0.323238
-0.048568 -0.0177263 0.414
0.0303563 0.0354821 0.290466
-0.0721893 0.0452549 0.394441
-0.119757 0.033018 0.316564
0.0192546 0.0239177 0.342643
0.183049 0.0501003 0.31863
0.449219 0.0704448 0.352401
0.00232192 -0.0723728 0.280592
0.0218197 -0.0664909 0.335852
-0.145575 -0.00825426 0.0817836
0.451802 0.0651218 0.296843
0.213757 0.0372587 0.38224
-0.301016 0.0528953 0.283753
0.337635 0.0469347 0.351461
0.432234 0.0632295 0.401968
0.135541 0.0316385 0.39838
-0.05548 0.0269105 0.409883
0.12651 0.0489716 0.361341
0.0208002 -0.0128925 0.175833
0.146638 0.0348912 0.410364
-0.0415916 -0.0125832 0.0389188
-0.0222954 -0.0243028 0.152492
-0.0192126 0.0240153 0.325653
-0.340275 0.0629611 0.341391
0.328336 0.0625178 0.362731
0.0410383 -0.0461925 0.406076
-0.338476 0.0598146 0.402821
-0.434635 0.0543654 0.353981
0.0678183 0.0320766 0.296541
-0.021587 -0.0658533 0.368792
-0.0771935 0.0406143 0.303425
0.179801 0.0401817 0.414376
0.397518 0.0641218 0.3148
0.006712 -0.0691481 0.449514
0.00374895 -0.00649104 0.0900804
0.00564511 -0.0418999 0.118642
0.138104 0.0460492 0.312018
-0.459937 0.0648954 0.291645
-0.361853 0.0572132 0.284935
0.0102593 -0.0168949 0.0663678
-0.0969777 0.0446603 0.321415
-0.0433409 0.0429967 0.337224
-0.232854 0.0558942 0.349205
0.461011 0.0562126 0.366808
0.0800316 0.026872 0.364714
-0.455071 0.0706684 0.342323
-0.108695 0.0343219 0.302273
-0.242935 0.0545399 0.402792
-0.0332976 0.0163967 0.324076
-0.140979 0.0497167 0.347899
0.0633169 -0.0147876 0.108989
0.401883 0.0519624 0.379173
-0.142537 0.0498655 0.350562
0.203845 0.0530618 0.328934
0.121292 0.0368395 0.291874
-0.0874919 0.0320768 0.417832
-0.297021 0.0435199 0.373291
-0.108069 0.0473531 0.338398
0.33184 0.0576957 0.301763
0.0304894 -0.0432462 0.478848
0.0304569 -0.0244213 0.211725
-0.0276677 0.0109291 0.436729
0.134883 -0.00903584 0.0598091
-0.0149083 0.0268561 0.422197
-0.0358678 0.0327768 0.275697
0.200128 0.0535379 0.393928
-0.367969 0.0597874 0.299317
-0.0649006 0.0382943 0.421839
0.0313615 0.0344846 0.283363
-0.361474 0.061116 0.311116
-0.0163717 -0.0456624 0.50525
0.0115179 -0.00661609 0.0878536
-0.00346454 -0.0650311 0.236316
0.169986 -0.0153654 0.0628988
-0.158413 0.0511344 0.362855
-0.0173714 0.022439 0.404396
-0.0694763 -0.00727784 0.0875378
0.13552 -0.0119868 0.0401554
-0.0309346 -0.00129593 0.27667
0.0210549 -0.0101119 0.0480789
0.338264 0.0492018 0.319343
-0.009992 -0.0701868 0.414784
-0.00800189 0.0252901 0.311482
-0.0380683 -0.0534706 0.382369
0.0698972 0.0310819 0.304222
0.29638 0.0594281 0.329392
-0.0255431 -0.0604508 0.260811
0.348707 0.0478355 0.380936
-0.133637 0.0490873 0.339662
-0.376351 0.0502159 0.333281
0.421167 0.0686757 0.359011
0.0419983 -0.00241069 0.428818
-0.00975942 -0.0719074 0.333796
0.328424 0.0625425 0.37533
0.0725719 -0.0168513 0.0855579
-0.0578846 0.0444567 0.366318
-0.41685 0.0681266 0.343466
-0.318642 0.0477038 0.400061
0.373545 0.0498771 0.383521
-0.0387169 -0.00723386 0.0692529
0.168643 -0.0114281 0.0452074
0.00669698 -0.014749 0.0519374
-0.0554639 0.0439546 0.345953
0.409915 0.0643419 0.399417
0.0345423 0.0340686 0.426576
0.00877163 0.0355933 0.300997
-0.0183113 -0.0669641 0.390336
0.231413 0.0487759 0.414006
-0.00228044 0.0449214 0.070882
0.468087 0.0583712 0.388796
-0.235347 0.0563141 0.364342
0.189352 0.0406344 0.301043
-0.0112709 -0.0702829 0.377845
0.277274 0.0422216 0.381176
-0.38755 0.0509379 0.382275
-0.109172 -0.0100421 0.052072
0.192631 0.0437233 0.282118
-0.0549541 0.044417 0.382761
0.387699 0.0535489 0.399422
-0.0171173 -0.0452467 0.16168
-0.233318 0.0391519 0.392892
-0.0267232 -0.0611245 0.266985
0.40749 0.0522552 0.355151
0.323755 0.0461617 0.389624
-0.0707484 0.027974 0.325364
-0.0149117 0.0274683 0.300464
0.436718 0.0620543 0.283539
-0.295514 0.0599416 0.340167
-0.326971 0.047366 0.394783
0.283302 0.0428362 0.346171
-0.0192281 -0.00222343 0.232032
-0.0415488 -0.0444255 0.406697
-0.214766 0.0533695 0.326032
-0.355837 0.0480483 0.37022
-0.0779923 0.0327743 0.297042
-0.353069 0.0478405 0.368655
0.32861 0.0567607 0.296997
0.21661 0.0438766 0.293238
0.145348 0.0439855 0.29498
-0.162514 -0.00884773 0.0621674
-0.250941 0.0538179 0.312612
0.205097 0.0365824 0.382397
-0.34508 0.0633476 0.345258
-0.0167369 -0.0674134 0.408275
0.24077 0.0469585 0.284931
-0.066023 0.0412656 0.312831
-0.211979 0.0441781 0.288883
-0.0148337 0.0241399 0.390371
-0.286728 0.0432888 0.390876
-0.145077 0.0446591 0.299591
0.00452476 -0.0188318 0.0582398
0.00210155 -0.0171819 0.0425908
-0.0717725 -0.0119892 0.0375872
-0.0162107 -0.00696907 0.0698497
0.315634 0.0606461 0.393201
-0.000752861 0.0234085 0.0171062
0.0877374 0.0274438 0.385327
0.0370212 -0.0559999 0.329257
-0.00534301 0.00587479 0.251827
0.22862 0.0551566 0.395606
0.00961696 0.0183619 0.289612
-0.00157093 0.00580663 0.0277157
0.27644 0.0530626 0.296014
0.233271 0.0388231 0.355833
-0.277619 0.0577008 0.32639
-0.110204 -0.0101148 0.0516284
0.0775405 0.0434975 0.410403
-0.00403574 0.0290537 0.32145
-0.218201 0.0493789 0.412575
-0.0878474 0.0462955 0.356208
-0.390791 0.0667587 0.370328
0.408567 0.063203 0.303666
-0.414816 0.0528325 0.374683
0.427748 0.0679193 0.389097
-0.0672692 -0.0132992 0.0447209
-0.0182081 -0.0351671 0.141104
0.130044 0.04005 0.421167
-0.0729816 -0.0168202 0.0839746
-0.0143837 -0.0457082 0.158088
-0.208902 0.0536452 0.397486
-0.034545 -0.0119488 0.0363656
0.240341 0.0567311 0.376654
0.395799 0.0512532 0.361321
0.0256902 0.0408391 0.328282
0.00383631 0.0244165 0.297914
-0.294462 0.0602349 0.361936
-0.363937 0.0539257 0.30086
0.267525 0.0528269 0.298487
-0.190335 0.0529343 0.342551
-0.283822 0.0459219 0.313637
0.0436725 0.0429986 0.402745
-0.167524 -0.00934793 0.0590324
0.229399 0.0474777 0.415266
0.332844 0.0523797 0.295421
-0.38309 0.058866 0.286318
0.387686 0.0664866 0.373066
0.125786 -0.0161646 0.0807114
0.348352 0.0493046 0.323766
-0.468502 0.0677736 0.306942
0.0673069 -0.0077666 0.0655719
-0.00324575 0.0490719 0.0579985
0.0549765 0.0441655 0.360548
-0.117135 0.0483546 0.388404
-0.187494 0.0403148 0.302232
0.366198 0.0589684 0.294662
0.346093 0.0636433 0.377652
0.129294 0.0423621 0.291442
0.371021 0.064983 0.385627
0.239707 0.0462279 0.289262
0.0668989 0.0309611 0.303509
0.26022 0.0499103 0.282364
0.349858 0.0635556 0.386855
0.254251 0.0460057 0.41057
-0.324417 0.0458772 0.353847
0.0376446 0.0431056 0.366619
0.258414 0.0453352 0.304683
0.219147 0.0553525 0.371753
0.270076 0.046936 0.299919
-0.401648 0.0526505 0.388927
-0.283658 0.0517925 0.411938
-0.072788 0.0264385 0.357154
-0.0286204 -0.0487842 0.237279
-0.06379 0.0260253 0.340157
-0.104308 0.0445808 0.412686
0.0153985 0.0245815 0.366425
0.0389523 -0.022954 0.453074
-0.00280248 -0.00761035 0.112718
0.283488 0.0501349 0.285391
0.0334214 0.00954293 0.30158
-0.284951 0.0514168 0.281186
0.0444262 -0.0291513 0.305348
0.18899 0.0381431 0.408312
0.130489 0.0494479 0.3739
-0.30145 0.0608323 0.369661
-0.0597512 0.0252982 0.365409
-0.0346094 -0.0457007 0.265625
0.280812 0.0489725 0.410483
-0.0120894 -0.00367711 0.194057
-0.192509 0.0534449 0.36441
0.0108319 -0.00941817 0.140347
-0.127124 -0.0131889 0.0463823
-0.108369 -0.00915507 0.100387
-0.273517 0.0421542 0.388039
0.00235762 -0.0438416 0.121666
-0.00233596 -0.0189994 0.114163
0.438382 0.0548954 0.339298
0.144495 -0.0154446 0.0621123
-0.164423 0.0481216 0.313892
-0.0351988 -0.0440035 0.460363
0.0806499 0.0388059 0.289806
0.262121 0.0568276 0.327599
-0.0981381 0.0335342 0.418181
-0.0151143 -0.0564332 0.216504
0.40545 0.0540924 0.394476
-0.0213291 0.0227989 0.350754
0.349408 0.058419 0.298615
-0.444556 0.0553191 0.379101
0.457384 0.0656132 0.297586
-0.106413 0.0467166 0.330839
0.00167586 0.0506367 0.0196625
0.0477317 -0.0294888 0.395655
0.301244 0.0585495 0.32133
0.0400479 -0.0431451 0.312376
-0.0187809 0.0224388 0.347392
-0.193387 0.0512043 0.321299
-0.114578 0.0479473 0.395309
0.102552 0.0476151 0.376238
-0.0150347 0.0233246 0.409444
0.168937 -0.012906 0.0946273
-0.0959963 0.0453055 0.406681
0.449535 0.0555153 0.353861
-0.0723935 -0.0129911 0.110089
0.346388 0.0626024 0.327865
-0.174432 0.0519495 0.39253
-0.0967656 0.0467691 0.348786
-0.169992 0.0340348 0.350585
0.236032 0.048366 0.283042
0.15446 0.050805 0.388326
-0.171055 0.0515998 0.395162
-0.0349727 0.0310481 0.286765
0.00343022 -0.00277183 0.170868
0.248925 0.0402896 0.390171
0.34112 0.0473015 0.382828
0.0719542 0.0381654 0.289481
0.117673 0.0343446 0.306668
0.0111712 -0.0695908 0.425333
-0.0219654 -0.0652698 0.402717
0.0670556 -0.0164081 0.101405
0.142649 -0.0159029 0.0842933
0.0487707 -0.0262469 0.340303
0.39234 0.0538591 0.398967
0.244905 0.050204 0.291267
0.0174066 0.0346649 0.290893
-0.0131715 -0.0698028 0.360545
0.124001 0.0327072 0.409235
0.359467 0.0487854 0.34118
0.0895496 0.0345811 0.290853
0.465751 0.0709086 0.329081
0.139477 0.036307 0.304629
0.14584 0.0430784 0.288711
-0.0558835 0.0355183 0.425421
0.3339 0.0532342 0.290261
-0.188919 0.042418 0.416087
-0.0222922 0.0421247 0.369478
-0.0260758 -0.0205206 0.479506
-0.334317 0.0467455 0.347418
-0.0988466 0.0472508 0.369293
-0.0998514 0.04701 0.350827
-0.0465069 0.0433078 0.343154
-0.167346 0.0337239 0.357088
-0.127407 -0.0106032 0.100349
0.0221967 -0.0130767 0.0414271
0.142803 0.0318151 0.386515
-0.29475 0.0560857 0.307856
-0.022518 0.0415656 0.335071
0.175708 0.0342797 0.362454
0.0336573 0.0171587 0.352513
0.0960319 -0.0164104 0.0919545
-0.0394934 -0.0496074 0.392663
-0.152784 0.0493346 0.327254
0.130658 0.0491992 0.35833
-0.252496 0.0574662 0.364522
-0.0363539 0.0271603 0.313373
0.280897 0.0552188 0.308362
-0.297983 0.0605468 0.366481
-0.262627 0.0549849 0.406223
-0.0303755 -0.0606025 0.43554
0.0290413 0.0372037 0.421859
0.000899491 -0.0199843 0.0270564
0.0498171 0.0438339 0.361388
-0.269288 0.041885 0.338359
0.0129293 0.0390296 0.322011
-0.273835 0.0419934 0.353077
-0.375178 0.0499744 0.342472
0.197502 0.0532953 0.335404
0.389414 0.0596438 0.405255
0.0390491 -0.0156475 0.284238
0.0598805 -0.0101757 0.0492079
-0.0547771 -0.0135281 0.0457433
0.0397448 -0.0498537 0.370559
-0.00655976 0.00996677 0.274418
-0.0742162 0.0262033 0.378111
0.0388463 0.0240432 0.398862
0.345198 0.0613954 0.397946
-0.00821442 -0.00801857 0.477603
0.00963677 -0.068265 0.267073
-0.0776766 0.031458 0.305654
-0.41999 0.0686942 0.364822
-0.0438782 -0.0384146 0.378605
0.0501186 0.0302793 0.299557
-0.00419223 0.00186728 0.213361
0.0674527 0.0445896 0.335872
-0.298984 0.0531019 0.286052
0.00395351 0.0184985 0.0594174
-0.26372 0.0581793 0.362191
0.0495067 -0.0250401 0.415714
-0.00146773 0.0283799 0.0223063
-0.119666 0.0487295 0.374306
-0.0977399 -0.00984941 0.104062
0.00818874 -0.00746329 0.476713
0.297008 0.0441238 0.39154
-0.0176169 -0.000254191 0.243154
-0.416259 0.0566914 0.399443
-0.0129584 -0.0163872 0.0630957
0.138407 -0.0142008 0.053581
-0.35374 0.0528594 0.302804
0.20906 0.0390313 0.404081
0.132974 0.0495622 0.370772
-0.376514 0.0655102 0.348626
0.367218 0.0637618 0.392462
0.0507613 -0.0156298 0.0595745
-0.152626 0.0327926 0.392663
-0.155973 0.0506858 0.393973
0.287354 0.0592308 0.33217
-0.434791 0.0696824 0.364616
0.391266 0.0508934 0.372015
0.00410191 0.00797754 0.265417
-0.0188436 0.0236179 0.359103
0.00396419 -0.0729307 0.411723
-0.0496111 -0.0239669 0.345354
0.199208 0.0513182 0.406314
-0.0262631 -0.0637563 0.377534
0.448045 0.0677774 0.316245
-0.112901 0.0342063 0.305174
-0.409506 0.0665339 0.325437
-0.196241 0.0389434 0.409176
-0.211425 0.0547692 0.367811
0.0155454 0.000829156 0.245037
0.184678 0.0425975 0.417035
-0.402814 0.0594211 0.404966
-0.0410804 0.00200637 0.380479
-0.449629 0.0554432 0.35868
0.0216923 -0.0660038 0.321707
-0.019119 -0.0118871 0.0361593
0.0428042 -0.0169315 0.07002
0.0186384 0.0255548 0.315103
0.0758775 -0.014486 0.0529694
-0.224734 0.0381677 0.355695
-0.150086 0.0385254 0.295217
-0.20226 0.0468917 0.415447
-0.0109957 -0.00736081 0.158571
-0.0839038 -0.0136182 0.107335
0.0293101 0.0254121 0.321456
0.26232 0.0459539 0.302537
0.211649 0.0371932 0.353665
0.0715237 0.0429596 0.321626
0.0193579 -0.00658691 0.19509
-0.337651 0.0471245 0.339986
-0.112727 0.0421137 0.418433
0.108752 0.0460474 0.406642
-0.00059284 0.0234908 0.291538
-0.337235 0.0550159 0.281458
0.0389897 -0.0513594 0.397192
0.0378036 0.00885625 0.405253
-0.362439 0.0527391 0.402564
-0.112318 0.0441729 0.311209
0.448703 0.0554004 0.356956
-0.044932 -0.0358583 0.382801
-0.190125 0.0374109 0.404168
-0.0662434 -0.00750677 0.0715814
0.304609 0.0443639 0.35309
0.0765604 -0.0166208 0.0951628
0.041601 -0.0171642 0.0831702
-0.0175202 0.0227719 0.320257
-0.223194 0.0543457 0.398095
0.363187 0.064572 0.345925
0.3586 0.0606396 0.309245
0.458382 0.0692434 0.321327
-0.00534355 -0.000594009 0.196377
0.00231063 -0.0728866 0.289754
-0.0504881 0.0437075 0.351126
0.46991 0.0614407 0.397489
0.381442 0.0576048 0.285205
0.00930188 -0.0344362 0.0871559
0.000127682 0.0315818 0.362961
0.13897 0.0475742 0.407699
0.208301 0.0537145 0.331263
-0.0228144 -0.0599586 0.252178
-0.0161323 -0.0379572 0.511403
-0.231237 0.0555712 0.393416
-0.0272235 -0.0142368 0.0493531
0.318684 0.061777 0.357103
0.0373428 0.0104848 0.393686
0.346472 0.0598914 0.309759
-0.0117029 -0.0143311 0.490504
-0.0334232 0.0161725 0.38485
0.10085 0.0341956 0.299143
-0.0132349 -0.0615852 0.23964
0.134113 -0.0158281 0.0661725
-0.0393196 -0.0162577 0.0632941
0.4172 0.0627324 0.402032
0.0437282 -0.0395236 0.350524
0.0885366 0.0393348 0.289753
0.0634824 0.0258212 0.35111
-0.429931 0.0538821 0.370354
0.0126688 0.0385709 0.319072
0.28483 0.059474 0.383655
0.00683281 -0.0302942 0.0607643
-0.0579923 0.0252412 0.36064
0.431913 0.0589817 0.301583
0.346282 0.0636675 0.359572
0.451752 0.0703716 0.337872
-0.0490335 -0.0182847 0.366552
-0.314513 0.0464459 0.395569
-0.169227 0.049652 0.321911
0.163753 0.0492365 0.406521
0.0822077 -0.0167008 0.0831108
-0.015782 -0.0138472 0.136351
0.0165157 -0.0453762 0.16105
0.0375639 -0.00901561 0.443425
-0.0459055 0.0433719 0.398168
-0.410782 0.063292 0.303254
-0.113836 -0.0161555 0.0719822
0.16035 -0.012827 0.0452997
-0.168188 0.0348013 0.3292
-0.163208 0.0396089 0.29464
0.310799 0.0449914 0.343924
0.00446191 -0.0112799 0.0605452
-0.421211 0.0533129 0.373977
-0.10473 0.0463615 0.329236
-0.204708 0.0486643 0.299237
-0.0317479 -0.0479839 0.254083
-0.028527 0.017917 0.320863
-0.250626 0.0528042 0.305999
0.252992 0.042293 0.322211
-0.415591 0.0540686 0.326061
-0.00367595 0.0241063 0.0450729
-0.180826 0.0435009 0.277623
-0.049139 -0.0231928 0.325895
-0.0429266 -0.0172288 0.0879598
-0.00988692 0.00306723 0.244
0.36133 0.0534251 0.302877
0.4106 0.0679463 0.357735
0.0442382 -0.0383852 0.370978
-0.0380019 -0.032192 0.252617
-0.00155866 -0.0126352 0.037657
0.160013 0.0404162 0.417936
0.0829668 -0.0109084 0.0452449
0.300469 0.0517323 0.283343
0.39833 0.0580274 0.290939
-0.227831 0.0387212 0.336552
0.164997 0.051351 0.349402
0.00318952 -0.0609282 0.494485
-0.219545 0.0553233 0.368409
-0.319158 0.0456074 0.345614
-0.0671257 -0.0080813 0.0634663
0.00428693 0.00740589 0.0710909
0.184907 0.0529534 0.382298
0.35103 0.0638313 0.382863
-0.216962 0.0395169 0.32247
0.462553 0.0714453 0.358804
-0.00760238 -0.0430602 0.520476
-0.308252 0.0445008 0.361814
-0.0400839 -0.0433323 0.314745
0.018493 0.0262197 0.310598
0.158704 -0.0110621 0.0472503
0.0537571 0.0363757 0.285808
-0.211021 0.0472738 0.287107
0.37334 0.0629074 0.398478
0.0279005 -0.0638082 0.332289
-0.211725 0.0375117 0.394673
-0.10378 0.0301829 0.405366
-0.397501 0.0516549 0.344855
-0.0306593 0.00212312 0.27997
0.0449216 0.0243604 0.352987
0.0377633 -0.0539719 0.427895
-0.417179 0.0621092 0.402923
0.00921301 -0.0716847 0.366453
0.394475 0.0663409 0.330969
0.0708102 0.0448918 0.3405
-0.00148622 0.0272737 0.0226879
-0.262172 0.040872 0.36661
0.276538 0.0591994 0.371839
0.0458651 -0.00706444 0.0959881
-0.0154868 0.0287041 0.29252
-0.246306 0.0430659 0.313675
0.0390558 -0.0265029 0.268305
-0.0423857 -0.000801476 0.358459
0.0168535 -0.0131774 0.0418823
0.349719 0.0556767 0.281993
-0.00419215 -0.0485353 0.150556
0.163128 0.0335979 0.392025
0.0519079 0.0251826 0.402192
-0.111212 -0.00885656 0.0983598
0.0566539 0.0258344 0.404003
0.311091 0.0613816 0.376284
0.160483 0.0390106 0.297248
-0.190642 0.0356527 0.348939
0.00801168 -0.0158857 0.0595581
0.0610272 -0.00822118 0.0622899
-0.359807 0.0621397 0.318695
0.122603 -0.0160191 0.0697812
-0.224265 0.0550565 0.394706
-0.00952481 -0.0432181 0.13417
0.37199 0.0595791 0.296104
0.288674 0.0430585 0.357819
-0.103452 0.0407824 0.292635
-0.003815 -0.0115055 0.0973784
-0.297504 0.0461581 0.31899
-0.0441651 -0.00564043 0.372112
0.157715 0.0332638 0.339968
-0.197904 0.0417852 0.297704
-0.107541 0.0476583 0.358802
0.371205 0.0548361 0.298473
-0.0210681 -0.0484255 0.495052
0.00995076 -0.0398501 0.117294
-0.27565 0.0517456 0.287596
0.126359 -0.0120702 0.0392322
0.104873 0.0334027 0.306464
-0.0694334 0.0296329 0.313643
-0.151512 0.0354807 0.411203
-0.0385053 -0.0130132 0.0416601
-0.00498336 -0.0643821 0.236233
-0.111723 0.0340335 0.416681
-0.244085 0.0542893 0.318864
-0.00407196 0.00801595 0.0551365
0.19877 0.0365834 0.396309
0.436957 0.0543984 0.362866
-0.328904 0.0496176 0.311834
-0.231968 0.052068 0.309556
0.272595 0.0416401 0.368727
-0.0463827 0.0438109 0.373803
0.0268309 -0.0112853 0.0404828
0.171733 0.034336 0.393844
0.469742 0.0718478 0.373917
-0.255815 0.0576626 0.379988
0.187432 0.052222 0.330782
-0.367407 0.0516229 0.398569
0.332104 0.054771 0.282153
0.462099 0.0689707 0.393705
0.0209259 0.0256673 0.315511
-0.00169845 -0.0118365 0.0869766
0.0985151 -0.0163471 0.0926032
-0.117029 -0.00941165 0.0565899
0.00322948 0.0287284 0.395638
-0.0577397 0.0259912 0.331991
-0.0227207 -0.010579 0.196863
0.367119 0.0573026 0.283143
-0.096464 0.0312834 0.31633
-0.120302 0.0486746 0.383923
-0.110352 0.0386947 0.275593
0.386885 0.0564479 0.403884
-0.0416994 -0.015928 0.294204
-0.0144099 -0.00528884 0.188535
0.000252381 -0.00658472 0.104889
-0.167212 -0.0155542 0.0827143
0.175804 0.0433104 0.418449
-0.0140522 0.0263171 0.3077
-0.370385 0.0492799 0.362258
-0.350488 0.0478289 0.357292
-0.0524949 0.0249349 0.353531
-0.289834 0.0433989 0.34255
-0.0474941 0.0243975 0.362766
-0.164596 0.0494315 0.405789
-0.0174573 0.0415006 0.351494
0.0478183 -0.0161964 0.416913
0.423912 0.0676146 0.389515
-0.0168149 -0.00983366 0.15818
-0.382898 0.0560387 0.296379
0.0438737 -0.039207 0.357205
0.0308938 -0.0602366 0.298009
0.170131 0.0467124 0.301911
-0.0357357 -0.0195494 0.264961
-0.112411 0.0296388 0.34817
0.0808821 0.0268489 0.370095
0.241745 0.0393924 0.360904
0.114137 0.034741 0.417299
-0.0304189 -0.0594235 0.450696
0.412685 0.0529282 0.338548
-0.000274032 0.0316079 0.011317
0.00170451 -0.0178201 0.0952763
-0.00595487 0.00715054 0.453501
0.358207 0.0641826 0.342588
-0.121704 0.0486793 0.363124
-0.222956 0.04052 0.405511
-0.419931 0.0620549 0.29086
-0.459237 0.0708804 0.338311
-0.3704 0.0496124 0.3421
-0.0715815 -0.00730086 0.0875876
-0.104267 -0.00783339 0.0904968
0.267933 0.0580952 0.340258
0.274881 0.0429572 0.328867
0.0420071 0.035748 0.424496
-0.154513 0.0374498 0.304627
0.0365679 -0.0464678 0.293699
0.069057 0.0259279 0.370701
-0.0420675 -0.0262236 0.450038
0.315014 0.0599638 0.32451
0.199447 0.053993 0.378871
0.0684462 0.0259974 0.363625
0.168842 0.0338387 0.385742
0.0649951 -0.010615 0.110443
0.0389317 -0.0385329 0.455411
-0.0313906 0.0232389 0.357789
-0.0994756 0.0430909 0.309823
-0.0403776 -0.0359306 0.290205
0.0343803 -0.0400205 0.250215
0.332921 0.0623337 0.333322
0.105584 0.0338598 0.303778
0.00959593 -0.0702049 0.427753
0.186843 0.0476798 0.300779
0.135668 0.031194 0.362529
-0.0551409 0.043905 0.344277
-0.00883287 0.0306822 0.275968
0.0215367 -0.0473933 0.191308
-0.028275 -0.0624238 0.313693
0.0431734 -0.00939067 0.112218
-0.152738 0.0325052 0.362752
0.0120973 -0.0433962 0.140811
0.259568 0.040765 0.379223
0.167853 0.0337603 0.357249
-0.003053 0.0530831 0.0339977
0.00169713 -0.00450489 0.425099
0.231546 0.0450288 0.293121
-0.253326 0.0406067 0.341326
-0.269696 0.0552545 0.31368
-0.345614 0.0620099 0.324267
-0.27474 0.0520111 0.289778
-0.0267258 0.00928568 0.287856
0.128495 0.0438379 0.301639
-0.0239954 -0.0647427 0.375244
-0.461868 0.0645957 0.288772
-0.105031 0.0286435 0.380377
0.0135758 -0.0691418 0.398927
0.0255958 -0.0621712 0.282879
-0.00408114 -0.0226211 0.108942
-0.395378 0.0667935 0.349784
-0.388101 0.0622399 0.30653
-0.0421152 -0.00163317 0.41024
0.014027 0.024903 0.372976
0.178515 0.0453955 0.289333
-0.171117 0.0512545 0.398565
0.0511332 0.0373409 0.422611
7.27574e-05 -0.0396169 0.530948
-0.0749387 0.0429852 0.412214
-0.0542434 -0.0156252 0.0596835
0.135608 0.0351949 0.414448
-0.007788 -0.0310411 0.528157
0.0361726 0.0429049 0.360506
0.0766899 -0.0166785 0.0779969
-0.0323706 0.023678 0.33572
-0.0619719 0.044335 0.342619
0.254791 0.0570926 0.332943
0.192284 0.0355147 0.380565
-0.0410323 -0.0210038 0.285093
-0.0054453 -0.0732789 0.322727
0.286938 0.0429355 0.357167
0.114662 -0.0157489 0.0629382
0.00332353 0.0375453 0.0695315
0.0374588 0.010261 0.391528
0.00101853 -0.0758022 0.331251
-0.087256 0.0464538 0.368072
0.0409057 -0.0468858 0.348927
-0.119913 0.0356658 0.298998
0.421941 0.0533471 0.356451
-0.102157 0.0327951 0.416469
-0.386207 0.0506677 0.377337
-0.124636 0.0337203 0.314354
-0.417055 0.0670955 0.390137
0.0378831 0.027926 0.309044
0.446511 0.0552757 0.35426
0.282416 0.0594414 0.378644
0.211011 0.0371576 0.352842
0.0026373 0.0256398 0.0329923
-0.338535 0.0468065 0.363455
0.149989 -0.0105661 0.0502092
0.100379 0.0285023 0.360899
0.0386564 0.00690934 0.397583
-0.167671 -0.00979126 0.0922787
-0.237766 0.0438616 0.304048
0.0687258 0.0274581 0.406898
0.442891 0.0701942 0.362772
-0.0382488 0.0263736 0.414643
0.444952 0.0699326 0.338867
0.104849 0.0291751 0.396957
-0.0320751 -0.0170555 0.0701329
0.264345 0.0412857 0.351659
0.191332 0.0528552 0.396221
-0.321496 0.0585061 0.403963
-0.00420189 -0.0247383 0.0312482
-0.0216007 -0.055791 0.488643
0.0452837 0.0241478 0.386689
0.0287165 -0.00326912 0.262636
0.0335797 -0.0421136 0.250579
0.166757 0.0460726 0.299178
0.00486648 -0.0254602 0.073775
0.11655 0.0315823 0.406839
-0.00096707 -0.0163235 0.114356
-0.392089 0.066444 0.342061
-0.103929 0.0456434 0.324813
-0.0461157 0.0410004 0.413842
-0.0240967 -0.0651816 0.347706
-0.0190668 0.0387917 0.317642
-0.429512 0.0639112 0.298885
-0.286382 0.0572276 0.401856
0.0235723 -0.0147378 0.190541
0.19592 0.047288 0.414608
0.397338 0.0671743 0.364709
-0.0526892 -0.0171356 0.0914632
0.140408 0.0368896 0.301219
0.0648167 -0.0135041 0.045987
0.0423639 -0.029308 0.278847
0.223845 0.0379247 0.366295
-0.257709 0.0568033 0.329438
-0.0119878 -0.0644251 0.251927
0.363381 0.0531175 0.305965
0.219706 0.0478261 0.286849
-0.350166 0.0502432 0.318429
0.11922 0.0480634 0.336186
0.426126 0.0631124 0.295098
-0.171257 0.0507537 0.328333
-0.293818 0.0600861 0.355623
0.132148 0.0362927 0.416582
0.0412814 0.0242029 0.345527
0.0465531 -0.016916 0.0716547
-0.0216792 -0.0216658 0.155919
0.00948426 0.0212502 0.384203
-0.123745 -0.00797214 0.0840283
-0.00388799 0.0126355 0.0467568
0.377612 0.0499123 0.357667
0.00945526 -0.0703089 0.425682
-0.041185 0.0253908 0.327611
-0.0411305 0.000711729 0.327378
0.129031 0.0476458 0.326773
0.026158 -0.0644795 0.34138
0.450009 0.0611832 0.296073
0.0424579 -0.016974 0.101314
-0.0268524 -0.00546693 0.45943
-0.364302 0.0648617 0.358782
-0.443433 0.0572707 0.318818
-0.0308816 0.0383798 0.309538
0.0128508 -0.0277101 0.090516
-0.270262 0.0587871 0.372327
-0.237988 0.0441514 0.410569
-0.0680811 -0.0135784 0.0466132
-0.242444 0.0396773 0.346868
0.101413 0.0288616 0.343922
0.347359 0.0636657 0.355149
-0.283349 0.059402 0.382649
-0.0368651 0.0113279 0.409604
0.0377512 -0.0149836 0.280129
-0.192806 0.0422584 0.291969
-0.349933 0.0516328 0.309051
-0.42618 0.0627167 0.402441
0.463958 0.0711835 0.381584
0.0337177 -0.0483385 0.45943
0.0166319 -0.0124457 0.146715
-0.157578 0.0327729 0.369137
-0.392555 0.0573516 0.292519
-0.0509076 -0.0085534 0.108298
0.0069954 -0.0703766 0.283367
0.392726 0.0668474 0.371863
-0.0460208 -0.0332616 0.339434
0.198227 0.0364717 0.334664
-0.0713416 0.0308202 0.306697
0.283391 0.0425761 0.377276
0.452779 0.0707656 0.3727
-0.0369418 0.0135784 0.342967
0.428071 0.061303 0.284168
-0.0605423 -0.0166794 0.101264
-0.0426626 0.0241502 0.355183
-0.462208 0.0567121 0.379206
0.263805 0.0559676 0.321104
-0.165967 -0.0154107 0.0628714
0.0804945 0.0317766 0.304958
0.279688 0.0574256 0.398944
-0.172509 0.0341975 0.35248
-0.0660169 0.0343867 0.280234
0.10767 0.0358867 0.41999
0.161982 0.0493781 0.323372
0.138747 0.0313349 0.381565
-0.0246768 -0.00467384 0.230502
0.222696 0.0551249 0.343893
-0.0412388 -0.0336317 0.290305
-0.133692 0.0359154 0.304311
0.047764 -0.0145582 0.0523192
-0.104393 -0.00803877 0.0655754
0.149093 0.0323862 0.352934
0.444957 0.0550661 0.370417
0.458112 0.056503 0.333956
0.0412494 0.0242648 0.34162
-0.242562 0.0446543 0.410543
0.415281 0.0655192 0.316056
0.244215 0.0396398 0.357439
-0.0133449 -0.010354 0.141308
0.213572 0.054796 0.383805
0.0162138 -0.0690428 0.332186
0.0501058 -0.0213397 0.380994
0.390192 0.0511383 0.342029
-0.149182 0.0355083 0.412347
0.0584975 0.0254911 0.347835
-0.310341 0.0600518 0.394645
-0.0415486 0.00115783 0.37214
0.316912 0.057634 0.308123
0.302272 0.0595573 0.32758
-0.0445056 -0.00709685 0.0814151
0.0389036 0.00589732 0.326253
0.372831 0.0497634 0.381802
-0.249695 0.0403871 0.391276
-0.00101631 0.0575066 0.0652985
-0.0204006 -0.011325 0.177672
-0.0136108 0.0246477 0.390578
0.405539 0.0677583 0.369053
0.434429 0.0586067 0.305355
-0.0891566 0.0277661 0.353107
0.00456177 -0.00832074 0.0593661
0.00258427 -0.0512216 0.161248
0.28871 0.0549162 0.302801
-0.0499131 0.0436304 0.398171
-0.186985 0.052907 0.35436
0.0372074 -0.0320023 0.247379
-0.0116407 -0.0251757 0.514948
-0.00355505 -0.0139192 0.105952
-0.0243483 -0.038065 0.185137
0.124688 -0.00822104 0.0684299
0.290591 0.0575445 0.319464
0.0952331 0.0437571 0.316187
-0.0423634 -0.0374849 0.315095
0.0294101 -0.0587791 0.26672
0.263294 0.0426399 0.398682
-0.213792 0.0385715 0.327164
0.0324847 0.0161621 0.394754
0.379635 0.0500515 0.358677
0.0446317 -0.0360276 0.430655
0.32135 0.0618962 0.353551
0.300123 0.0601567 0.390625
-0.0212295 -0.0483823 0.191903
0.0281211 -0.0634025 0.357702
0.0577728 0.0383222 0.421493
0.197472 0.0511312 0.406749
0.367451 0.0570401 0.281884
-0.0474212 0.0306745 0.295557
-0.458956 0.0676733 0.310602
-0.141699 0.0489642 0.329813
0.0883335 -0.00951323 0.054766
-0.236393 0.0411873 0.403042
0.0551247 0.0252925 0.344121
-0.0874299 0.0278542 0.339686
-0.000206001 -0.00904357 0.0188586
-0.122101 -0.0161906 0.0797492
0.000998121 0.0377276 0.0163699
-0.374892 0.0521915 0.317964
-0.255559 0.0497134 0.283165
-0.0287433 -0.0106524 0.0447809
0.280006 0.0593492 0.366904
0.459126 0.0712148 0.358747
0.359346 0.0540514 0.297698
0.207792 0.0371573 0.337782
-0.0251332 0.0276965 0.304118
0.102299 0.0299847 0.405015
-0.0115283 -0.0708809 0.344661
0.234796 0.0414122 0.404853
0.00911658 -0.00458217 0.468136
-0.223259 0.0472589 0.281458
0.434107 0.0541807 0.362751
-0.0558589 0.0261044 0.405695
-0.202153 0.0361176 0.375201
0.175075 0.0357452 0.326397
0.326079 0.0620684 0.38591
