-0.00599192 -0.00194281 0.187132
-0.347155 0.0637318 0.37689
-0.186998 0.0403651 0.301646
-0.332961 0.0491918 0.316725
0.255048 0.0574116 0.351025
0.330526 0.0463574 0.353269
0.13491 -0.0160087 0.077586
0.106022 0.0413268 0.41927
-0.291354 0.0459953 0.316961
0.0434605 -0.0338199 0.311714
-0.464975 0.0642318 0.284937
-0.00281751 -0.0727159 0.43124
-0.0743003 -0.00734171 0.0894557
-0.0203137 -0.0248348 0.136417
0.385014 0.0522752 0.394229
-0.222155 0.0555438 0.371137
-0.00267212 0.0288343 0.400372
-0.00300297 -0.0290914 0.0449494
-0.0398991 -0.00255311 0.312511
0.0728806 0.0454595 0.366203
-0.00780141 -0.0604058 0.221396
0.00772762 0.0353627 0.299934
-0.0163634 0.0402146 0.409217
-0.0411014 0.00107028 0.404638
0.197673 0.0357896 0.373517
-0.438894 0.0697971 0.355032
-0.080381 0.0269641 0.360755
0.474995 0.059365 0.390771
0.323892 0.0493194 0.311283
0.00582279 -0.0386156 0.101642
0.0566648 0.0345907 0.425525
-0.13197 0.0311799 0.393064
0.0123263 -0.0459208 0.154686
0.425634 0.068154 0.32892
0.0692542 0.0263058 0.348683
-0.432544 0.0584839 0.399352
-0.0279216 -0.0179991 0.212543
0.0728348 -0.0167995 0.0826267
-0.0437804 0.0304851 0.294976
0.419838 0.0554692 0.395134
0.277768 0.0435216 0.326568
0.182186 0.0528346 0.36928
-0.042755 -0.00167514 0.351879
-0.436897 0.0556325 0.326427
0.0123369 0.041517 0.373032
-0.0142176 0.0411587 0.344011
-0.0176733 -0.0677756 0.322843
-0.205272 0.0515295 0.318075
-0.0633374 0.0259859 0.340433
-0.471409 0.057237 0.351624
-0.144836 0.0336898 0.324784
0.0267184 0.0150517 0.431537
-0.0997494 0.0467517 0.335764
-0.0132731 0.017763 0.291707
-0.0370027 -0.0424128 0.454117
0.265217 0.0581692 0.384382
-0.03583 0.000488866 0.295641
-0.269808 0.0430712 0.398023
-0.216805 0.0382995 0.397087
-0.0685662 0.045227 0.369596
-0.287713 0.0598981 0.36884
0.0724572 0.0404481 0.304465
0.321533 0.0619383 0.355334
0.0865168 -0.0121475 0.0378123
-0.114895 -0.00804966 0.0720614
-0.0425315 0.0256399 0.409131
0.210228 0.0516846 0.316861
-0.236399 0.0392725 0.343164
0.0322961 -0.0540915 0.27745
0.0229257 -0.00185786 0.248381
0.424489 0.0536448 0.350275
0.250919 0.0450971 0.302474
0.115861 0.0484021 0.369969
0.176075 0.0468101 0.414439
-0.00371295 0.0256224 0.0499305
-0.387101 0.0505911 0.360832
-0.173144 0.0342837 0.388952
-0.0243511 -0.0629452 0.279155
0.141066 0.0442912 0.298959
0.422152 0.0613738 0.285314
0.011981 -0.00681165 0.0764265
-0.0126697 -0.0256207 0.0842555
-0.0126772 0.0215988 0.369842
-0.280409 0.0425364 0.350853
0.0561141 -0.0161565 0.0632965
0.452491 0.0704403 0.339019
0.104777 0.0436256 0.310982
0.0100964 -0.0165613 0.497855
-0.153146 -0.0085024 0.0708956
0.347808 0.0486475 0.32787
0.0974229 0.0282049 0.385299
0.0410713 -0.0463069 0.391403
0.0406224 0.043372 0.386951
0.137318 -0.00972398 0.0974914
0.0317198 0.0240265 0.405744
0.153926 0.0326613 0.358836
0.103001 -0.00789138 0.0734789
-0.034067 -0.0173932 0.259255
-0.404397 0.0561153 0.306754
0.0268093 -0.0249668 0.183426
-0.121604 0.0391405 0.276698
-0.346785 0.0634776 0.346202
0.00231805 0.0482711 0.0257008
-0.0427569 0.043043 0.342346
0.00275059 -0.0539337 0.506042
-0.391004 0.0667028 0.361883
0.341265 0.047562 0.389597
0.2064 0.0543186 0.360997
-0.31436 0.0599127 0.324466
-0.0600794 -0.0159068 0.0617934
0.285375 0.0488651 0.409585
-0.0191131 0.0381463 0.31332
0.0636034 -0.0127487 0.111854
-0.100654 -0.0123529 0.0397481
-0.0801144 0.0411176 0.305454
-0.16073 0.0513753 0.367979
-0.255218 0.0575804 0.381707
0.0257164 -0.0603191 0.46324
-0.0966756 0.0463243 0.40179
-0.273701 0.0575477 0.327146
-0.04818 -0.00700429 0.0921476
-0.236522 0.049024 0.287205
-0.121251 0.044123 0.306825
0.0362327 -0.0586761 0.358003
0.0122938 -0.0688831 0.299335
0.0754293 0.0458348 0.379783
-0.0179873 -0.0415077 0.155446
-0.313317 0.0612104 0.386597
0.189476 0.0379552 0.407163
0.14013 0.0332441 0.404954
0.0487801 -0.0186489 0.422898
-0.357435 0.0529519 0.304058
0.476951 0.0631816 0.296397
0.00414683 -0.056223 0.191183
0.382746 0.0506015 0.33979
-0.0279782 -0.0213847 0.475663
-0.333865 0.0483628 0.396782
0.280817 0.0593732 0.365086
-0.185904 0.0517011 0.328003
-0.202992 0.054163 0.365347
-0.392715 0.0518334 0.329374
0.237135 0.0393067 0.344539
-0.00893795 0.00139786 0.226298
-0.0159791 -0.0608487 0.241799
0.271549 0.0416329 0.376923
-0.0653844 0.042867 0.410059
0.398932 0.0669683 0.345998
0.131001 0.0312396 0.337919
-0.0931953 -0.013197 0.106437
-0.0436676 -0.038985 0.383942
-0.256633 0.0446571 0.3083
-0.0025609 0.0439739 0.0697445
-0.0935752 -0.0165317 0.0807266
0.292154 0.0433953 0.353643
-0.107548 0.0288098 0.375755
0.274075 0.0573073 0.325374
0.0149157 -0.0098456 0.0496091
0.386018 0.0580277 0.284703
0.0594059 0.0252523 0.366581
0.0670993 0.0354951 0.273888
-0.175299 0.0343389 0.356946
0.164047 0.0474055 0.30929
-0.0721331 0.0265236 0.394674
0.0702992 0.04479 0.336453
-0.0374102 -0.0125243 0.0383587
-0.385804 0.0566265 0.404315
-0.345531 0.0476563 0.344561
0.0207591 -0.0156596 0.113918
0.370073 0.0652052 0.356201
0.158839 0.0509931 0.352681
-0.356619 0.0483156 0.356416
0.0425178 -0.0279758 0.279824
0.402888 0.0517222 0.369361
-0.448086 0.0600191 0.302858
0.144002 -0.0135058 0.0491708
0.0122597 -0.060471 0.231591
-0.0415287 -0.040063 0.316347
0.445998 0.0585667 0.31148
-0.0145106 -0.00702967 0.107583
0.0338299 -0.0272988 0.227719
0.0312816 0.0426233 0.363268
-0.0207481 0.0421973 0.380031
0.384791 0.0642942 0.321721
0.086931 0.0288278 0.327868
-0.0161111 -0.0678329 0.39543
-0.151269 0.045845 0.304686
0.0433719 -0.00763246 0.322221
0.00851977 0.0216987 0.344335
-0.157163 0.051163 0.381114
-0.171513 0.0355752 0.325726
0.213273 0.0472986 0.286251
0.216668 0.0465689 0.416022
-0.216772 0.0373668 0.367077
0.0775591 0.0296528 0.41404
0.169275 0.0339056 0.386752
-0.00418703 0.00268614 0.0572114
0.0391335 -0.0342016 0.463635
-0.117772 0.039962 0.421726
0.447228 0.0571579 0.391742
-0.0483937 -0.02761 0.412115
-0.0261196 -0.0426374 0.207073
0.00971618 -0.00647708 0.161571
-0.046657 0.0405893 0.416051
-0.0406824 0.00272852 0.387547
0.235 0.0393418 0.394439
0.0328723 -0.0161216 0.254344
-0.0211227 -0.0165788 0.16715
-0.469819 0.0667948 0.398484
0.172209 0.0339617 0.365393
-0.0582934 0.0348061 0.273528
0.188898 0.051136 0.32288
0.0310632 -0.0343184 0.216207
-0.341214 0.0469872 0.365018
0.091753 -0.0156622 0.0614389
-0.168818 0.0352258 0.40246
-0.0922508 0.0467078 0.363239
-0.116397 0.0482447 0.358388
0.12088 0.0325383 0.320329
0.0266668 0.0375683 0.306042
-0.0336919 0.0235379 0.350402
0.232294 0.0557959 0.390295
0.0299569 -0.0171091 0.0719026
-0.140085 -0.00826235 0.0854433
0.165324 -0.0145495 0.0920148
0.135872 0.0402703 0.276392
-0.207775 0.0541806 0.347211
0.164478 0.042686 0.277643
-0.303295 0.0443658 0.346805
-0.169809 -0.011057 0.0477277
0.0230646 -0.0138535 0.478122
0.354187 0.0604634 0.310073
-0.33544 0.0604309 0.399956
-0.463567 0.0578953 0.324849
0.360038 0.0488392 0.384279
0.302794 0.0569944 0.310263
-0.453598 0.0557543 0.370671
0.0108892 -0.0412614 0.126839
-0.000168452 -0.0760751 0.339914
-0.0563824 -0.0169015 0.0775045
0.449195 0.0556877 0.341777
-0.0174386 -0.0547683 0.495265
-0.0389361 0.0254284 0.326222
-0.0335287 -0.0453535 0.258278
-0.156627 0.0506056 0.338342
-0.191628 0.0355542 0.383366
-0.314617 0.0576503 0.309272
0.464797 0.0564978 0.365615
0.0453753 0.0427986 0.404652
-0.014274 -0.0317676 0.109078
0.345017 0.0576998 0.295814
-0.126887 0.0307705 0.347165
0.0466679 -0.0323425 0.403375
0.424792 0.0689231 0.359278
-0.430152 0.0687224 0.330659
-0.188154 0.0441459 0.277035
-0.428245 0.0690336 0.377592
-0.419146 0.0534532 0.336887
0.15522 -0.0116816 0.0429803
0.0113478 0.0126271 0.281401
0.13042 0.0489184 0.342457
0.221806 0.0377504 0.367344
0.337874 0.0627492 0.33833
0.269151 0.0443935 0.404903
-0.00576613 0.0291799 0.363433
0.314282 0.0539216 0.284575
0.00494637 -0.0731386 0.382737
0.00878674 0.0237866 0.321898
-0.379005 0.0624902 0.312323
0.210602 0.0376792 0.331495
0.0239622 -0.0638605 0.43138
0.193008 0.0400567 0.306744
-0.0108285 -0.0684383 0.271796
-0.0303093 -0.0138092 0.242582
0.0986463 0.0469629 0.394433
0.00865892 0.0304984 0.277106
0.363186 0.0646933 0.38049
-0.286391 0.054039 0.298008
0.0371527 0.00200573 0.307152
-0.0231974 -0.00672169 0.0963273
0.291298 0.0596719 0.388938
0.00958818 -0.0637537 0.482588
-0.273646 0.0570049 0.399309
-0.344274 0.0551854 0.28251
-0.26733 0.0411988 0.373754
-0.0626353 0.0255755 0.362061
0.0505067 0.0248335 0.350388
0.355066 0.0482346 0.354071
0.0252345 -0.0591257 0.253113
-0.0309721 -0.0602713 0.436952
-0.223159 0.040121 0.321581
0.30704 0.0611782 0.36795
-0.0720376 -0.0114423 0.110491
-0.212639 0.0534606 0.399482
0.0370786 -0.0558336 0.414836
-0.0228926 0.0196136 0.415362
-0.229478 0.0515306 0.307104
-0.00729247 -0.00157343 0.428487
-0.0273915 -0.0637519 0.345506
-0.000574747 -0.070645 0.455746
-0.0249135 -0.0194306 0.186266
-0.00695487 -0.016691 0.0641727
0.00752919 -0.0290235 0.0618062
0.0166408 0.0407848 0.332024
-8.48595e-05 0.0321294 0.00957345
0.030614 0.0358832 0.423814
0.00268672 0.0736742 0.0320155
-0.474996 0.0722369 0.35628
0.0527872 0.0399251 0.309901
0.0060606 0.0119701 0.446828
0.0028493 -0.0237786 0.020739
0.171864 0.0517767 0.392669
-0.244739 0.04007 0.393464
-0.142974 0.0500933 0.362458
0.366004 0.0580612 0.406513
-0.0986217 0.0285803 0.347946
0.0870901 0.0274939 0.359968
-0.0305386 -0.0448867 0.477117
-0.0276282 0.0149512 0.304771
0.124331 -0.0155552 0.0620374
0.372353 0.0512014 0.323277
0.474028 0.0720925 0.351527
-0.202957 0.0393161 0.408137
0.270723 0.0515038 0.288219
-0.049668 -0.0238118 0.333247
-0.0823785 -0.0164288 0.0668801
0.257841 0.0410014 0.338474
0.314624 0.045609 0.331317
0.229436 0.055472 0.33763
-0.0362347 -0.0584542 0.368129
0.123814 0.0304064 0.389125
0.0170726 0.0220506 0.412529
0.0325366 0.0166368 0.380696
-0.447922 0.0702958 0.37865
-0.0462914 -0.0298035 0.434198
-0.409599 0.0640083 0.39988
-0.452052 0.0704611 0.342023
-0.252694 0.0422632 0.322259
0.0116979 0.00476636 0.265037
-0.363404 0.0646796 0.381604
0.345704 0.0636659 0.361796
-0.0324873 0.0426284 0.358732
-0.0105536 0.0237678 0.309563
0.127886 0.0468949 0.322288
-0.380879 0.0504293 0.382768
0.0894385 0.0344017 0.291992
-0.210666 0.0471695 0.286573
-0.00453317 -0.00189271 0.0782906
-0.0226486 -0.0614213 0.462495
0.404656 0.0604887 0.404703
-0.0645333 0.0317393 0.297125
0.458858 0.0683447 0.315122
0.0534047 0.043927 0.352568
0.0366616 -0.0135074 0.278496
-0.153977 0.0329059 0.344223
-0.0355118 -0.0582641 0.323681
-0.0200538 0.0219309 0.390413
0.070047 -0.00952992 0.0539224
0.0863979 -0.0076056 0.0924841
0.00602676 0.000444164 0.207717
0.119452 0.0441835 0.415763
-0.166076 0.0454123 0.295087
-0.302775 0.0445394 0.390499
0.0194586 -0.0316079 0.139826
-0.447709 0.0554833 0.347241
0.388039 0.0661047 0.385159
0.0391596 0.00741799 0.347901
0.0353959 -0.0553128 0.312406
-0.0170117 -0.067249 0.412278
0.0197364 0.0418437 0.393264
0.0422311 -0.0436533 0.376066
0.124137 0.0362928 0.296957
-0.00336428 0.0462901 0.0494434
-0.341078 0.0626247 0.330422
-0.316918 0.0455677 0.38795
0.0427386 -0.0124548 0.115585
-0.0356941 -0.0159745 0.454473
-0.108869 0.035636 0.293604
0.284715 0.0472292 0.305377
-0.1418 0.0339171 0.407589
-0.0204116 -0.00290081 0.459519
0.0174857 -0.00670628 0.0992509
-0.00920904 0.0330168 0.426992
-0.0400148 -0.0219992 0.279742
0.138424 0.0497698 0.361336
0.427375 0.054568 0.328699
-0.0170723 -0.0131888 0.0419668
0.435277 0.0594713 0.300023
-0.0490966 -0.0188207 0.393314
0.0245123 -0.0267825 0.161178
-0.425837 0.0540364 0.384806
0.250484 0.0555305 0.324233
0.0110893 0.0214613 0.38681
0.37904 0.0500358 0.375243
0.0170051 -0.0256969 0.110479
-0.117296 0.0476543 0.401075
0.228782 0.0472992 0.279222
0.0396698 0.0361842 0.290921
-0.476572 0.0617665 0.305635
0.0408323 0.0024778 0.363409
-0.048808 -0.0175838 0.358518
-0.0323115 -0.0597675 0.300768
0.408652 0.0663208 0.324405
-0.168662 0.051525 0.39357
0.0531318 -0.0170266 0.0827929
0.0889817 0.0462806 0.350762
0.000760563 -0.0113371 0.0879037
0.0149616 -0.030181 0.51256
-0.106311 -0.00785673 0.090164
0.268605 0.0414705 0.360365
0.063279 0.0272406 0.32647
0.0159574 -0.00640154 0.184525
-0.423273 0.0634977 0.29896
0.228213 0.0558453 0.364894
-0.237504 0.0542134 0.321343
-0.283331 0.0592514 0.347721
-0.0298049 0.0422686 0.399448
-0.0787576 0.0458354 0.388472
-0.00327815 0.0158545 0.0405007
0.116312 -0.0159798 0.0941729
-0.0805838 0.0299694 0.317046
-0.423028 0.0687656 0.356926
-0.0823408 0.0277436 0.332769
0.0135088 -5.46984e-05 0.230182
-0.0036717 -0.0583716 0.201503
0.379406 0.0611356 0.303114
0.00227622 -0.00661903 0.0363137
0.319671 0.0616791 0.385425
0.404494 0.0522825 0.339447
0.2251 0.0423994 0.30738
-0.327187 0.0623685 0.3584
0.171724 0.0352258 0.401205
-0.262934 0.0580519 0.357724
0.4132 0.0680404 0.377841
-0.0306262 0.00149684 0.27909
-0.0342098 -0.0171234 0.0756717
-0.398974 0.0669179 0.342816
-0.297296 0.0517897 0.281354
-0.231142 0.0558864 0.355613
-0.0224411 0.0291972 0.292754
-0.119182 0.046847 0.325916
-0.013063 -0.0027485 0.205497
0.33311 0.0604753 0.319711
-0.235214 0.0560756 0.388472
0.101446 0.0295696 0.330273
-0.0322636 -0.0610564 0.391036
-0.00190103 -0.0533467 0.170979
0.173018 0.0369601 0.317259
-0.357066 0.0495982 0.326221
0.420384 0.0531616 0.371311
-0.144563 0.0470701 0.315892
-0.039413 0.00718088 0.331922
-0.12125 -0.0110252 0.0459983
0.0481046 -0.0279656 0.33797
0.0381364 -0.0540171 0.337698
-0.00115888 0.0126346 0.27477
-0.169711 0.0475932 0.307972
-0.0941317 0.038344 0.423024
-0.164058 0.0332644 0.369602
0.134704 0.0310502 0.366748
-0.447191 0.0567195 0.389573
-0.0119173 -0.0447267 0.513668
0.326968 0.0459006 0.374057
2.41856e-05 0.00439626 0.102317
0.00734695 -0.0725145 0.364554
-0.00648132 -0.00546051 0.158726
0.225482 0.0526217 0.407353
0.0650179 -0.0119914 0.0373017
0.0296064 0.0233017 0.345639
0.0216387 -0.0531735 0.213654
0.334963 0.0470347 0.332848
-0.103041 0.0441364 0.315174
0.178202 0.0521426 0.34382
-0.00264426 0.0306084 0.0320569
-0.37071 0.0652227 0.35469
0.1519 0.0418194 0.419869
-0.00255666 -0.0729168 0.290349
-0.215683 0.0376916 0.342254
0.228946 0.0531488 0.31813
0.0282582 -0.0100775 0.238805
-0.137249 0.0438524 0.297766
-0.25473 0.0500985 0.413117
0.402493 0.0571819 0.298681
-0.00714851 -0.0415354 0.120011
-0.0368918 0.0336474 0.275275
0.0501575 -0.021546 0.386724
0.288076 0.0596495 0.352523
-0.256022 0.0548896 0.31745
-0.40512 0.0520496 0.356547
-0.00137173 -0.0370983 0.0837604
0.0591773 0.0288045 0.313971
0.192225 0.053008 0.394324
0.0786792 0.0265315 0.379059
-0.182493 0.0527418 0.362501
-0.00534495 -0.0117135 0.490302
0.00399765 -0.0391154 0.529137
-0.410374 0.0602333 0.283055
0.0168173 0.019498 0.303214
0.0195234 0.0416846 0.354227
0.11777 0.0483748 0.389262
-0.106193 0.0477987 0.381941
-0.286156 0.0432217 0.390212
-0.00966631 0.00292411 0.241985
-0.000173918 -0.00708517 0.0181889
0.0438262 -0.00728948 0.0693866
0.15518 -0.0157151 0.0738028
0.0710418 -0.00762236 0.0679028
0.0365876 -0.0376994 0.257734
-0.0867529 0.027191 0.376776
-0.193617 0.0361314 0.333765
0.00752246 0.0212048 0.369653
-0.293548 0.0581212 0.321966
-0.046927 -0.00717061 0.0786325
-0.321775 0.0459315 0.33816
0.105572 0.0473998 0.351218
0.0382535 0.00735758 0.418122
0.475044 0.0697335 0.317035
-0.405181 0.0519396 0.370503
0.29423 0.044637 0.32747
-0.023662 -0.061208 0.260667
-0.00801277 -0.00916723 0.132425
0.261991 0.0541704 0.30995
-0.340104 0.0596499 0.311038
-0.120555 0.0317824 0.325202
0.310869 0.0447576 0.35847
0.136381 0.0346129 0.314352
0.0308442 -0.0617937 0.389848
0.029488 -0.0607146 0.29548
-0.00253825 0.0297159 0.381946
0.163146 0.0516331 0.373718
-0.142626 0.0500752 0.386468
0.239709 0.0391002 0.376065
0.430144 0.0682964 0.387905
-0.0470574 -0.01326 0.376573
0.000269813 0.0519776 0.00720662
0.0146449 -0.0667498 0.273709
-0.015005 0.0220923 0.350768
0.0578291 0.0317017 0.293981
-0.0382879 0.0237361 0.359865
0.418383 0.0564708 0.311466
0.0408051 0.0239555 0.391609
0.0501388 0.0256008 0.330745
0.21613 0.0376769 0.345249
0.023911 -0.0280154 0.491944
-0.00945182 -0.0203315 0.508062
-0.439058 0.0667132 0.313229
0.194349 0.0358816 0.352384
-0.268055 0.0418546 0.334436
-0.377267 0.0512261 0.3256
-0.303218 0.0481694 0.30848
-0.0620388 -0.0168137 0.0965119
0.00421167 0.0103288 0.0754579
-0.399531 0.0541036 0.397083
-0.134509 -0.0150885 0.0593396
0.455413 0.0656037 0.298417
0.200677 0.0507267 0.409686
0.329699 0.0549596 0.284501
0.0982942 0.0473439 0.37708
-0.0275667 0.0225965 0.378909
0.0728941 -0.00755622 0.0974108
-0.232906 0.0385836 0.376639
-0.302863 0.0445584 0.333067
0.063805 0.0446622 0.395471
0.0980662 0.0290164 0.402008
-0.378411 0.0655253 0.384323
-0.0390426 -0.0478852 0.433801
0.0174954 -0.0655744 0.442991
0.109579 0.028992 0.374192
-0.0866418 0.0441757 0.322873
-0.352127 0.0549613 0.407423
0.202178 0.0365834 0.389378
0.00489041 -0.0242637 0.0771954
0.0452413 -0.015108 0.0558782
-0.321192 0.0524173 0.408827
0.0291257 -0.0304934 0.482933
-0.0488532 0.043791 0.362688
-0.166642 -0.015666 0.0787019
-0.0117183 -0.0174871 0.101034
-0.395827 0.0649236 0.32091
-0.0464344 -0.0243834 0.307317
-0.0292885 -0.0139711 0.115648
0.0439093 -0.0156374 0.435914
0.131549 0.0404505 0.421078
0.458635 0.0688219 0.393454
-0.0732007 0.0347436 0.281493
0.000751548 -0.00788748 0.117442
0.0443643 -0.0303413 0.444266
0.000972337 0.00370391 0.408081
0.0107818 -0.0706142 0.316671
0.376603 0.0653253 0.337208
-0.450852 0.0629421 0.284778
-0.296118 0.0478699 0.406411
0.0145429 -0.0696045 0.348133
0.0152992 -0.048391 0.505038
0.219027 0.0395774 0.402506
-0.0338708 0.0414426 0.328594
0.404115 0.0522559 0.382696
-0.125499 -0.0161952 0.0823526
-0.0937637 -0.00786477 0.0687962
0.466575 0.0568787 0.350767
-0.451696 0.0645448 0.400924
-0.0652239 0.028253 0.412378
0.328947 0.0490252 0.402207
-0.037814 -0.0158681 0.0606399
0.0454741 -0.0217684 0.303425
0.0669767 0.0423254 0.413221
0.302611 0.0523877 0.410918
-0.422254 0.0658661 0.315205
0.308797 0.055937 0.300494
0.0268371 -0.0373416 0.1983
0.256584 0.0431167 0.31854
0.0436741 -0.0395084 0.420218
0.0248677 -0.0554485 0.479886
-0.112384 -0.0147326 0.0560802
-0.11162 0.0294246 0.357473
0.165788 0.0451066 0.29318
0.00460961 -0.0175386 0.0484969
0.120733 -0.00799975 0.0790437
-0.37713 0.0500615 0.346327
0.340503 0.0533424 0.407003
0.017267 -0.0173715 0.136538
0.114864 0.0309255 0.404287
-0.00927103 -0.0270528 0.0673844
0.0212623 -0.0407843 0.17333
-0.00297967 0.0601048 0.0373407
-0.132995 -0.0082785 0.0706293
-0.0588047 0.0439848 0.334349
-0.224019 0.0447304 0.291299
-0.150596 -0.0149366 0.058975
0.0259912 -0.00774499 0.462889
-0.371284 0.061772 0.401432
0.287546 0.0427689 0.370122
0.276335 0.0578614 0.395812
-0.462566 0.0674382 0.307398
-0.435277 0.0545386 0.346451
-0.250008 0.0486538 0.278622
0.0108799 0.0270077 0.357474
-0.142232 -0.0137668 0.0977093
-0.0534964 0.0250229 0.393665
0.432168 0.0661628 0.312686
-0.0559552 -0.0111828 0.0423324
0.0859904 0.0316875 0.308334
-0.0232035 -0.00442027 0.227408
-0.337527 0.0523112 0.298249
-0.0362752 -0.0316276 0.467318
0.0317323 -0.0590401 0.446322
-0.393483 0.0611641 0.29692
0.150834 0.0367351 0.307526
-0.225212 0.0496491 0.41249
0.0532442 -0.00741885 0.101966
-0.0482776 0.028221 0.312341
-0.1899 0.0363745 0.399092
0.0328203 0.023425 0.35318
0.333357 0.0628718 0.375098
0.0722349 0.0382971 0.290232
0.438962 0.0696917 0.348461
-0.309905 0.0613489 0.366672
-0.030021 -0.0281122 0.197465
0.384286 0.0663081 0.365206
0.230775 0.0500271 0.296496
-0.454816 0.0709864 0.362352
0.0903937 0.0439883 0.319922
0.201274 0.0426698 0.293515
0.282875 0.0429667 0.39031
-0.471092 0.0571626 0.371661
0.299558 0.0501465 0.29345
-0.205657 0.03651 0.378817
0.111891 0.0296712 0.343776
0.0866311 0.0371201 0.275858
-0.158604 0.0363778 0.313842
0.0163644 -0.0175 0.0860802
0.0332287 -0.0173942 0.0912568
-0.0391425 -0.0366017 0.270578
0.00121325 -0.0671468 0.242554
0.030797 -0.046833 0.472759
-0.273964 0.0441423 0.320505
-0.0863313 -0.0143023 0.0521673
0.0486964 0.0258977 0.407756
-0.0239458 -0.0343327 0.173498
-0.0196803 -0.0659515 0.42631
0.0241607 -0.00681502 0.0845048
-0.0413692 -0.0452113 0.331301
-0.286748 0.0593901 0.388702
0.14485 0.0484178 0.324743
-0.373611 0.0548396 0.299668
0.0366566 0.0121104 0.398249
-0.013942 -0.0172841 0.0714631
0.00395617 0.0216487 0.0637076
-0.000948081 0.00839849 0.257754
0.45022 0.0554523 0.360904
-0.0255134 0.0375006 0.421283
-0.270167 0.0505913 0.412845
-0.191111 0.0534539 0.37856
-0.0346739 -0.0367146 0.243808
0.084196 -0.0164971 0.0722375
-0.0912673 0.0468798 0.379539
0.0258465 -0.0168862 0.200699
-0.0465588 -0.0093474 0.0541995
0.101753 -0.0105454 0.0484182
-0.0124687 -0.00795303 0.0621355
-0.0459371 -0.00981146 0.339006
0.367795 0.0621952 0.315442
-0.00182436 -0.0739952 0.402133
-0.452262 0.0693827 0.325031
-0.00497046 -0.0255462 0.0981979
0.422284 0.0685112 0.344695
0.00976397 -0.066271 0.463611
-0.242901 0.0446424 0.301445
-0.281807 0.0423604 0.374453
-0.0257873 -0.0639499 0.378164
-0.0137778 -0.0142603 0.120469
-0.0834037 0.0392727 0.291667
-0.280551 0.0507923 0.279523
-0.438638 0.0545728 0.370531
-0.0172052 0.0417175 0.365504
-0.0423432 -0.000831932 0.368658
0.0259197 -0.0146688 0.0521767
0.16388 0.0336296 0.346603
-0.00366625 0.0353356 0.0588076
-0.000113534 0.0324221 0.329546
-0.0261886 -0.0420084 0.490956
-0.360441 0.0578139 0.289579
0.12419 0.0442185 0.306128
0.283906 0.0429587 0.341553
0.00818629 0.0198502 0.435467
0.0262285 -0.0510297 0.228467
0.214634 0.0550732 0.375522
0.244147 0.0395637 0.361739
-0.154266 0.0376422 0.414907
0.00272406 -0.00208455 0.174236
-0.34835 0.0624765 0.393458
0.121632 0.0485377 0.354927
-0.0586088 0.0250115 0.38101
-0.229606 0.0555366 0.340818
0.0227949 0.0233169 0.332121
0.0471072 0.0437406 0.366679
-0.0260919 0.0252916 0.32063
0.0407016 0.0237931 0.367693
0.18856 0.0377505 0.319861
-0.07033 -0.00755806 0.0712802
0.0401081 -0.0115763 0.294394
0.00489715 -0.0601466 0.213617
0.160283 0.0329142 0.373208
0.0246772 -0.00743157 0.0661024
0.182404 0.0474771 0.301441
0.365762 0.0589382 0.294658
0.347671 0.0475296 0.374062
-0.0783118 0.0456278 0.354481
0.0187491 0.0290309 0.291993
0.365342 0.0492929 0.337842
0.034411 -0.0483776 0.456241
0.0223967 -0.0341837 0.500637
0.0965357 -0.016457 0.090325
0.0554675 0.0444871 0.381309
-0.324502 0.0621895 0.379139
-0.195339 0.03572 0.36682
-0.168287 -0.00880721 0.0628759
-0.0435988 -0.028386 0.448594
0.0412099 -0.0340456 0.293817
0.0412549 -0.0437749 0.325299
-0.0907705 0.0279901 0.394656
-0.0236333 -0.0283054 0.156727
-0.353566 0.0627517 0.325604
-0.129813 0.0435315 0.41714
-0.307027 0.0506693 0.293748
0.000191286 -0.017485 0.106755
-0.00387359 0.0215749 0.0732338
0.0709234 0.0450901 0.351927
-0.109097 -0.0112975 0.104301
-0.117993 0.0306117 0.401369
-0.113096 -0.0163641 0.0848881
-0.177367 0.034761 0.340979
-0.272026 0.0461209 0.306338
-0.409174 0.0677705 0.35293
0.107188 0.0354557 0.293955
0.252019 0.0570945 0.389785
0.146828 0.0325124 0.334663
-0.0391452 -0.0504839 0.395165
0.0579624 0.0427837 0.326604
0.0230984 0.0403559 0.410447
0.0643125 -0.00727429 0.0842297
0.22128 0.0397267 0.323257
-0.0552276 0.0266112 0.326588
0.164556 0.049654 0.404667
-0.0188326 -0.0640606 0.446676
0.0382109 -0.0449364 0.302642
-0.299175 0.0601017 0.335055
0.457077 0.0563205 0.379574
0.241573 0.0466813 0.413601
-0.255238 0.0564155 0.396969
-0.0448723 -0.00860365 0.415053
0.330207 0.05759 0.301799
0.389899 0.0623324 0.40143
0.210283 0.0413681 0.306751
-0.0549761 0.0332651 0.424829
-0.220771 0.0534233 0.323667
0.0635357 0.0275522 0.409609
-0.326531 0.0522119 0.293342
0.243278 0.0569712 0.374764
0.0100058 -0.00680707 0.473165
0.027534 -0.0135265 0.223138
0.315185 0.0580752 0.311847
0.212945 0.0495785 0.301594
0.0259582 0.0117251 0.291134
-0.0265665 0.0186056 0.40297
-0.0310177 0.0354414 0.289895
-0.0350059 0.0131509 0.319203
-0.245577 0.0567474 0.349249
-0.0967062 0.0281912 0.362608
0.0821465 -0.0147371 0.106022
-0.436345 0.0682218 0.390054
-0.284948 0.0537379 0.40921
0.396951 0.0514295 0.355994
-0.100164 -0.0144329 0.0535928
-0.0167648 -0.00682959 0.0786018
0.443435 0.0681022 0.320501
0.391679 0.0518843 0.328511
0.128597 -0.0131549 0.0462144
-0.0155484 -0.0670338 0.291462
-0.0424943 -0.0164268 0.297678
0.0226337 0.00345896 0.274339
-0.130171 0.0354798 0.30543
0.0434991 -0.0401283 0.351128
-0.0352391 0.0235485 0.392549
-0.178793 0.0493934 0.410057
-0.152546 0.0392413 0.291692
0.411835 0.0680677 0.360042
-0.131679 0.0306499 0.376901
-0.0569724 -0.00935054 0.109933
0.289915 0.0593403 0.331739
-0.0307146 -0.00691659 0.0828623
0.000519395 -0.00829418 0.0593814
0.193721 0.0531798 0.343664
-0.410918 0.0680222 0.372595
0.156895 -0.00965123 0.0565854
-0.114258 0.0478144 0.341193
0.0133405 -0.0542603 0.201088
-0.202262 0.0539132 0.389182
0.0614866 -0.0168849 0.0946861
0.203264 0.0389325 0.406089
0.0278644 -0.063368 0.370087
-0.00781253 -0.0715705 0.311601
0.0894995 0.0279135 0.345766
0.241529 0.0529999 0.31143
-0.168771 0.050468 0.327557
-0.185745 0.0373175 0.321322
-0.0832797 0.0434705 0.412188
0.163699 -0.00848794 0.0789631
-0.475431 0.072009 0.34091
-0.0305067 -0.0614689 0.418429
-0.367859 0.0490094 0.366863
0.0113254 -0.0508134 0.178385
-0.347075 0.0476487 0.379178
0.0313164 -0.00715583 0.104814
-0.00962482 0.0253269 0.413052
-0.0208121 -0.0174328 0.0850867
-0.0206333 -0.0539708 0.215649
-0.160693 0.0491667 0.40599
0.375695 0.0642457 0.392481
-0.16918 0.0436445 0.281898
0.260829 0.0575647 0.33699
-0.146187 0.0321264 0.387895
-0.048775 0.0248082 0.343825
-0.0371027 0.00702621 0.431199
0.182846 0.0347575 0.380117
-0.0169621 -0.0682475 0.353856
0.0745043 -0.0157123 0.0610789
-0.323484 0.061904 0.34546
0.411781 0.0525426 0.357783
-0.090661 -0.00762332 0.0905799
-0.038704 -0.0173106 0.0899808
-0.00923532 0.0343744 0.292663
0.368288 0.0570004 0.282572
-0.421492 0.0672142 0.390817
-0.0107461 -0.00904176 0.477636
0.00352479 0.0318261 0.0432408
0.240754 0.0563972 0.347632
0.353241 0.0639522 0.348714
-0.166846 0.0514502 0.347921
-0.171843 0.0521923 0.378469
-0.405422 0.0577496 0.296382
-0.19072 0.0499277 0.314001
0.0848734 0.0275925 0.396651
0.43465 0.0541526 0.367243
0.18727 0.0355198 0.39267
0.005984 -0.0193507 0.509177
0.00255917 0.0214209 0.289519
0.0532682 0.035354 0.279221
0.0915751 0.0395629 0.421171
0.146677 0.0318315 0.37531
-0.124427 -0.00910865 0.0589058
0.00761903 -0.0121584 0.105374
-0.0127556 0.0396707 0.326362
0.0245218 0.0318946 0.275832
0.466403 0.0600606 0.311855
-0.144957 0.03205 0.353998
0.178847 0.050953 0.402291
0.257738 0.049083 0.279364
0.0455053 -0.00935799 0.353194
-0.0018666 -0.0508923 0.157904
0.151339 -0.0129366 0.0974237
-0.248231 0.0398865 0.379639
0.0491041 -0.0192315 0.407197
-0.405722 0.0523712 0.339801
-0.00510647 -0.0736992 0.327274
-0.258463 0.0407365 0.357487
0.0248244 0.0195603 0.390244
0.0128472 0.0282803 0.424568
0.147294 0.0394407 0.287704
-0.0134883 0.0413748 0.395621
0.207139 0.0367583 0.358978
0.014435 -0.0175027 0.0992334
-0.126259 0.048747 0.348891
-0.0307135 -0.0189876 0.229965
0.22259 0.0552481 0.3517
0.0418701 0.0277358 0.419061
-0.20318 0.0534854 0.332059
0.202222 0.0388959 0.319144
0.265049 0.0460013 0.303603
-0.11205 0.0296904 0.343352
0.0126175 -0.0163491 0.0628285
0.464914 0.0634219 0.288701
-0.0427952 0.0425126 0.405339
-0.029438 -0.0496096 0.244229
-0.0461048 -0.0131397 0.325421
0.00249154 0.0336768 0.0778054
-0.0248882 0.0207386 0.363908
0.16072 0.035784 0.408741
0.110819 -0.0160751 0.0650779
-0.460771 0.0700939 0.387727
-0.332821 0.0465287 0.353598
0.395706 0.0663503 0.330473
-0.107012 0.0335753 0.306396
-0.119374 0.0417742 0.292024
-0.00152389 0.0627865 0.0159133
-0.0280374 -0.0100409 0.0488318
-0.014435 0.020313 0.431591
0.201433 0.044802 0.279386
-0.353229 0.0641022 0.35773
-0.0181425 -0.00730539 0.184588
0.0741276 0.0264289 0.364001
0.173159 0.052053 0.358697
0.0333526 -0.0482218 0.264308
-0.369853 0.0527237 0.311867
0.318613 0.0463725 0.393433
-0.00347504 -0.00879898 0.0471367
0.365812 0.0489192 0.362775
0.00916733 -0.0445105 0.140243
-0.200933 0.0479606 0.29626
-0.450272 0.055856 0.336576
0.016718 -0.056065 0.493617
-0.0554632 0.0394033 0.30521
-0.00663397 0.0295751 0.345407
-0.24836 0.040309 0.336158
-0.0377195 -0.0548847 0.344961
0.448716 0.0571088 0.322572
0.030569 -0.0201077 0.468429
0.29075 0.0564368 0.31201
0.00896818 -0.0721854 0.330294
0.405933 0.0659883 0.392465
0.0119647 0.0385586 0.31931
-0.00850566 -0.00825886 0.411427
-0.0224476 -0.0648146 0.310315
0.0269959 0.041961 0.340785
0.256931 0.0406763 0.353985
0.120873 -0.00954911 0.0558269
-0.0326372 -0.00999929 0.2706
-0.0440445 -0.0383824 0.417802
0.354092 0.0526635 0.403816
-0.103333 -0.0162629 0.0712526
0.0222455 0.00844765 0.44253
0.0923049 0.0467228 0.363919
0.000410146 -0.0714075 0.263343
0.123563 0.0385228 0.281806
-0.0383207 -0.0528179 0.381837
-0.217676 0.0550301 0.358365
-0.0244436 -0.0141459 0.198723
-0.383197 0.0506646 0.338065
0.0312819 -0.0474424 0.249948
-0.0734199 0.0262374 0.372317
0.345531 0.0624496 0.327235
0.278653 0.055733 0.312806
-0.0946856 0.0298294 0.325119
0.0946744 0.0278779 0.372127
-0.459245 0.0711237 0.352819
0.133735 -0.00893911 0.0604082
0.390465 0.0511648 0.382202
0.110614 -0.0163863 0.0836504
0.102635 0.0455911 0.407162
0.46354 0.0715517 0.361212
-0.0295473 0.0196487 0.33166
0.108402 0.0293406 0.393539
-0.4217 0.054868 0.323827
-0.312781 0.0467732 0.322626
-0.0349903 -0.00700736 0.100412
0.0360909 0.0292402 0.299379
0.0200359 -0.0149821 0.163961
0.0956203 0.0309149 0.318358
-0.0642161 0.0287358 0.31698
-0.00577444 -0.00672885 0.145328
0.268172 0.0583255 0.353098
0.301631 0.0469356 0.315898
-0.470128 0.0719971 0.368969
0.277812 0.0590989 0.380256
0.46398 0.0569124 0.33655
0.261774 0.0512725 0.41174
-0.239199 0.0565889 0.365342
-0.233819 0.0397526 0.329433
-0.160013 0.0332971 0.390361
-0.392564 0.0544096 0.31213
0.0310662 -0.00825598 0.264806
0.0387028 -0.0376918 0.271725
-0.133121 0.031009 0.361846
-0.0334527 0.0176968 0.341351
-0.0364931 0.0431064 0.371292
0.356299 0.0632966 0.391651
-0.20974 0.0546583 0.379262
0.0400939 0.00554304 0.332465
0.379814 0.0537934 0.309781
0.0356976 -0.0582788 0.325226
-0.0234419 -0.00262915 0.243614
-0.0705798 -0.00891311 0.058058
0.320096 0.0620725 0.372281
0.392385 0.0620725 0.303471
0.0996336 0.0312495 0.41248
0.047003 -0.01709 0.0956371
-0.0374659 -0.0479107 0.306642
-0.221167 0.037918 0.354174
-0.109579 0.0451434 0.411392
-0.310519 0.0446858 0.376515
-0.00141988 -0.0120957 0.423304
-0.0253347 0.0367177 0.300977
-0.396525 0.0596653 0.285551
0.263676 0.0565038 0.398947
0.0239279 -0.0640335 0.306873
0.185919 0.0350676 0.362376
-0.00768597 -0.0718513 0.379638
-0.340786 0.0474908 0.332389
-0.000495776 0.0198763 0.015585
-0.086337 0.0307632 0.415794
0.359304 0.0504069 0.321965
0.00326742 0.0430114 0.037657
-0.00421339 -0.066105 0.481797
-0.0366693 0.012182 0.399451
0.302362 0.0438923 0.371213
-0.0791707 -0.0159297 0.101481
-0.0493183 0.0326385 0.283429
0.0801116 -0.0141969 0.0512149
-0.238798 0.041939 0.317384
-0.131714 0.0316461 0.33176
-0.301484 0.0606217 0.381448
-0.465826 0.062025 0.298472
-0.131639 0.0494365 0.368607
0.128883 -0.00811385 0.0864682
-0.0279467 0.0278406 0.304583
0.0474161 -0.0300449 0.42877
0.0408515 -0.0466768 0.40427
-0.130397 0.0384027 0.286066
0.00550228 -0.0720712 0.421452
0.193896 0.053707 0.374527
0.123048 0.0475681 0.403158
-0.002362 0.00444614 0.0348426
0.0360444 -0.0277647 0.242502
0.164971 0.0430449 0.419093
-0.257519 0.0468279 0.294282
-0.0403413 -0.015389 0.444139
-0.0256243 -0.0293195 0.489528
-0.153571 -0.0107862 0.0488849
0.423524 0.0633493 0.297857
0.028236 0.0171005 0.41904
-0.133697 0.0337752 0.318576
0.173199 0.0495364 0.31934
-0.040924 -0.0462489 0.364325
-0.0296978 -0.0595867 0.45208
0.378395 0.0572191 0.40637
-0.0719688 0.0264975 0.34974
0.00148515 -0.0144091 0.0310165
0.429764 0.059837 0.401741
-0.00398277 0.0245583 0.298729
0.0479837 -0.0194332 0.322765
0.338042 0.0467685 0.363468
0.0220045 0.0228559 0.403008
0.146691 0.0500161 0.342905
-0.0497556 -0.020945 0.422328
0.00381098 -0.0263922 0.0329774
0.00785983 -0.0443094 0.518267
-0.0692393 0.0448737 0.345723
0.41072 0.0613782 0.290527
-0.0479657 -0.0244346 0.320128
-0.0210214 -0.0598249 0.479414
0.363588 0.0508167 0.396197
0.0120016 0.00318317 0.252551
-0.049949 -0.0168953 0.0999918
-0.146781 0.0500763 0.346153
-0.133826 0.0491851 0.395399
-0.0305821 -0.0615885 0.405868
-0.394012 0.0649684 0.394132
0.0453296 -0.0356782 0.386303
0.291701 0.0602051 0.37122
-0.270728 0.0416448 0.359704
-0.0113653 0.00909323 0.448372
0.00479855 -0.0161589 0.0805223
-0.0140822 0.0298036 0.284481
0.238863 0.049055 0.28635
0.27086 0.0537741 0.303286
-0.226583 0.0537344 0.402115
0.0360734 0.00700513 0.433138
0.0578515 0.0435267 0.404602
0.0204817 -0.0340465 0.151995
0.140837 -0.00838183 0.0697586
0.000199223 -0.0757993 0.352338
0.194488 0.0446072 0.417339
0.0376897 -0.0548037 0.37913
0.0109881 0.00376953 0.454753
0.467862 0.066956 0.301783
-0.036173 0.0138552 0.387154
-0.0235281 -0.0065937 0.214744
0.455315 0.0698037 0.326452
-0.10218 -0.00779544 0.0786885
0.121411 0.0300564 0.364911
-0.218625 0.0514703 0.311624
0.0583682 0.0440443 0.33967
-0.351087 0.0509084 0.314463
-0.0255888 -0.0641853 0.365599
-0.23661 0.0411379 0.402703
0.280464 0.0424318 0.357469
-0.0316251 -0.0302467 0.209517
0.143746 0.046263 0.310884
-0.257548 0.0578898 0.369609
0.0293423 -0.0210921 0.213594
0.00933732 -0.0709496 0.398196
0.438027 0.0625133 0.285707
-0.459444 0.0585732 0.393529
-0.284694 0.0590743 0.332334
0.120206 0.048122 0.335743
-0.334332 0.0468279 0.384643
0.0276633 -0.0627655 0.41846
0.00384422 0.00273351 0.219542
-0.393255 0.0515413 0.386895
-0.0759956 0.0449937 0.402491
-0.0728602 0.0438664 0.327063
-0.288835 0.0430129 0.361329
-0.357178 0.0645626 0.369979
0.0545562 -0.00730825 0.0755553
0.223483 0.0380784 0.355269
0.159855 0.0510828 0.391048
0.0258599 0.0424423 0.374188
-0.118849 0.0297261 0.380237
-0.420985 0.0560145 0.397358
0.0972307 0.0410625 0.297324
-0.0358711 -0.00781434 0.284945
0.37233 0.0498446 0.385409
0.401877 0.0671838 0.38145
-0.0476598 -0.00755845 0.0661747
-0.182281 0.0416761 0.290521
-0.416858 0.0530579 0.376678
0.111869 0.0426366 0.301175
-0.0504044 -0.0219113 0.36975
0.0495613 -0.0195247 0.346567
-0.141785 0.0357134 0.309754
-0.102327 0.0475034 0.370454
0.121651 0.030305 0.350939
-0.0351021 0.0268934 0.418597
-0.46213 0.0689788 0.317863
0.32615 0.0619162 0.335487
0.0203039 0.0212027 0.319285
-0.00867592 -0.0522765 0.180272
-0.459028 0.0562868 0.351402
0.163018 0.0498179 0.325833
0.0997121 0.0468315 0.340693
-0.0187434 -0.0272312 0.124708
0.270657 0.0420262 0.336185
0.14825 0.0323989 0.348219
0.038579 0.0385911 0.307455
-0.0210135 0.0417821 0.354084
-0.11861 -0.00811777 0.0917076
0.0895018 0.0466365 0.384629
0.0340357 0.0408156 0.32434
0.00267285 -0.034473 0.0727503
0.364523 0.0533178 0.305208
0.00119202 0.00523331 0.231492
0.00942763 -0.0119605 0.486783
0.248967 0.0425932 0.40463
0.00300105 -0.0734746 0.305398
-0.109784 0.0294215 0.392702
-0.337824 0.0631727 0.363874
0.0555173 0.0250175 0.388672
-0.34025 0.0534311 0.407171
-0.035749 -0.0246081 0.249848
-0.216601 0.0495565 0.299789
0.436997 0.0565585 0.320306
0.306445 0.0468485 0.401056
-0.370679 0.0497433 0.335448
-0.0289324 -0.017255 0.0995399
0.422369 0.0688025 0.371439
0.368607 0.0653045 0.368016
0.116089 0.0459091 0.321069
-0.197494 0.043753 0.284383
0.109421 0.0480454 0.380551
-0.316627 0.0453591 0.34886
-0.235551 0.0390758 0.38535
0.111381 -0.0135352 0.0480608
-0.295112 0.0436349 0.381475
0.353594 0.0642391 0.373513
-0.161261 0.0333127 0.353591
-0.361449 0.0488153 0.380242
-0.00440229 -0.0107272 0.0977675
0.047213 -0.0141687 0.37792
0.108399 -0.00899179 0.0995704
-0.221801 0.0378233 0.380141
-0.139978 -0.0159508 0.0775765
0.0616691 0.0258953 0.338133
-0.0613266 0.0259136 0.401883
-0.0712019 0.041679 0.313237
-0.00277051 0.0705437 0.0453613
0.339716 0.0592613 0.308624
0.251233 0.0400869 0.378538
0.0176237 0.0231802 0.375445
0.0310724 -0.0106685 0.115998
0.4237 0.0537952 0.382626
-0.201176 0.0509748 0.408593
-0.116902 0.0483168 0.389306
0.0381323 0.00916295 0.37349
0.0193085 -0.0251868 0.127947
-0.0706091 0.0260453 0.383765
-0.321735 0.0476594 0.398506
0.00975218 0.0413441 0.387062
-0.0102499 -0.016033 0.0893686
0.404534 0.0540878 0.394847
0.421029 0.0535627 0.339052
0.0401086 -0.0490518 0.363461
0.201907 0.0366791 0.339295
-0.318114 0.0599833 0.397215
-0.335659 0.0626421 0.340807
0.031936 -0.0106283 0.04507
0.283043 0.0489122 0.293315
-0.0413969 0.0406158 0.31967
0.0171936 -0.00497934 0.201135
0.00723703 -0.00959353 0.125995
0.038036 -0.0401339 0.283121
-0.305777 0.0528002 0.41073
-0.0453428 -0.0350469 0.403658
-0.0761136 0.0327483 0.296264
-0.0118544 -0.065967 0.45581
-0.181991 0.0524971 0.349853
-0.0103762 0.00649781 0.271152
0.0774989 0.0423412 0.314795
0.0664287 0.0421643 0.318636
0.0446526 -0.0372264 0.363014
0.297353 0.0603879 0.359504
-0.0451349 -0.0355631 0.340469
0.435502 0.0544333 0.353917
-0.418044 0.0531262 0.351619
0.0247572 -0.0571636 0.241669
-0.230797 0.0560781 0.377728
0.0887723 0.0294864 0.408368
0.23916 0.0445076 0.30045
0.220288 0.0515013 0.311077
-0.290018 0.0562469 0.311077
0.0357473 0.0165676 0.341545
0.0753887 0.0279513 0.327865
-0.0420006 -0.00226248 0.325771
0.39741 0.0594034 0.283404
0.44585 0.0643878 0.294651
0.00573791 -0.0708371 0.438759
-0.203046 0.0364545 0.35827
0.0959652 -0.00765981 0.0826129
-0.116839 0.0296387 0.368885
0.0377128 -0.0193976 0.452238
-0.414048 0.0679225 0.342493
0.145976 -0.0151779 0.060396
-0.0422561 -0.033631 0.301867
-0.00869579 -0.0653389 0.249498
0.0478039 0.0290138 0.306818
0.00429241 0.00235542 0.0649737
-0.123131 -0.0160477 0.0718618
-0.00623712 -0.0201743 0.0476046
-0.291883 0.0443329 0.328307
-0.345245 0.0490885 0.395492
-0.427288 0.0574885 0.309192
0.0104477 0.0219548 0.403265
0.00942132 -0.0282712 0.522408
-0.215497 0.0382901 0.329903
0.0252746 -0.0446745 0.207036
-0.216371 0.0405105 0.408308
-0.043919 -0.023891 0.291461
-0.0459074 -0.010745 0.403866
-0.17539 0.0393669 0.302421
-0.263211 0.0540007 0.308266
-0.27504 0.0422648 0.38776
0.0235652 -0.0630135 0.285989
-0.461336 0.0709723 0.335391
-0.0319143 -0.0338268 0.47961
0.0862087 0.0407499 0.30024
-0.165123 0.0403896 0.417065
-0.2949 0.0497194 0.293938
-0.0899721 0.031619 0.310807
0.00791325 -0.0065729 0.0879965
0.00691909 -0.0702964 0.281289
-0.0263576 -0.00752665 0.107822
0.416587 0.0546695 0.322561
-0.319423 0.0614546 0.334836
0.0549338 -0.00941107 0.0541101
0.274342 0.0421215 0.347664
-0.0159855 -0.0150952 0.488097
0.0711006 0.044539 0.403355
-0.397503 0.0516014 0.348116
0.33286 0.0627078 0.355965
-0.191928 0.0532688 0.3562
-0.00803206 -0.00456991 0.171903
-0.278518 0.0540125 0.301402
0.329617 0.0619169 0.390874
0.00278778 0.063564 0.0268758
-0.0408383 0.0357227 0.424482
0.415109 0.0655471 0.397297
-0.158217 0.0334051 0.333724
0.143306 -0.0157006 0.0899538
-0.434404 0.0637266 0.295436
0.136706 0.0490351 0.332551
-0.177696 0.0500061 0.32043
0.00340827 0.0441324 0.058504
0.342616 0.0552361 0.281332
0.186957 0.0530602 0.383404
0.0957405 0.0363112 0.282458
-0.030436 0.0421668 0.339309
-0.453447 0.0578709 0.319889
0.263449 0.0422897 0.327527
-0.142943 -0.00849881 0.0641629
-0.334289 0.0626592 0.384694
0.175646 0.0403206 0.296195
-0.145088 0.042739 0.418928
0.123934 0.0339461 0.414565
-0.333151 0.0545521 0.281099
-0.106122 0.0474825 0.35397
0.00306936 0.00896278 0.0922557
0.0316095 -0.0612473 0.406694
-0.0275937 -0.0115913 0.0384718
0.0742875 0.0272776 0.403594
-0.0101375 -0.0700369 0.422112
-0.028806 0.0425757 0.387792
-0.411964 0.0634044 0.303467
0.12403 0.0490764 0.377563
0.317874 0.0488727 0.404298
-0.236386 0.0459795 0.413443
0.244783 0.0399274 0.389087
0.136646 0.0329766 0.325391
-0.302038 0.0606898 0.358786
0.11254 0.0303117 0.330945
-0.0599993 0.0446102 0.388262
-0.03115 -0.0168813 0.463991
-0.348287 0.0534124 0.296358
-0.018392 -0.0133659 0.156863
-0.440984 0.0697232 0.342247
-0.184557 0.0347571 0.374855
0.12659 0.031049 0.399842
-0.0474253 0.0243356 0.366202
0.1512 0.0506153 0.360709
0.292451 0.0549246 0.301161
-0.282981 0.0447505 0.400716
-0.0454986 -0.00939779 0.391797
-0.294011 0.059919 0.344847
0.0244712 -0.0626571 0.270668
-0.00228037 0.0582307 0.0610605
0.0312919 -0.00340839 0.274746
-0.442942 0.0702402 0.365309
-0.0117473 -0.0683456 0.436066
-0.0167823 0.0228787 0.40014
0.317433 0.0512984 0.294824
-0.167533 -0.00879803 0.0872958
0.0176264 -0.0126219 0.153453
-0.081221 0.0273091 0.343736
0.0372535 -0.0259265 0.256867
0.473177 0.0573611 0.37273
-0.0378803 -0.035313 0.259599
0.21165 0.0517574 0.407695
0.26137 0.0560302 0.322626
0.298144 0.0577904 0.402424
-0.0139258 -0.00437488 0.194639
-0.0066571 -0.0363446 0.529
-0.131719 -0.0134614 0.0483828
0.412119 0.0676642 0.334767
-0.020367 -0.0156045 0.0581833
0.200588 0.0502629 0.311759
0.00235737 -0.0145791 0.0658169
-0.0121054 -0.0474982 0.162537
-0.225603 0.0473104 0.280738
-0.0152396 0.0241102 0.321845
-0.0210939 -0.0121922 0.475776
-0.00295784 -0.00680844 0.108361
-0.0326518 -0.0490745 0.461647
0.231716 0.0385939 0.362475
-0.330031 0.0579009 0.303951
-0.155819 0.032636 0.380268
0.0192681 0.0237325 0.346644
-0.155391 0.0507653 0.352872
-0.436315 0.0553853 0.387613
-0.324672 0.0600722 0.320852
0.0496815 0.0245845 0.361642
-0.130253 0.0483081 0.330632
0.135409 0.0469022 0.410032
0.404919 0.0636609 0.308371
0.228964 0.0391527 0.330972
-0.0415369 -0.0370534 0.442308
0.079342 0.029914 0.316787
0.00905305 0.0411236 0.362648
-0.273371 0.0587001 0.354663
-0.141375 0.0501693 0.373419
-0.283245 0.0429273 0.34036
-0.131106 0.032683 0.406049
0.187548 0.0525977 0.333571
0.0252528 -0.0307237 0.172435
-0.167534 0.0516769 0.358746
-0.0103538 0.0261096 0.388684
-0.207596 0.0370804 0.391491
0.0389926 -0.0410491 0.449692
-0.0917375 0.035404 0.286477
-0.181887 0.0527076 0.384195
-0.371189 0.0581906 0.287214
0.385844 0.0503956 0.366832
0.0827049 -0.00758305 0.0781933
0.235593 0.0539284 0.403736
0.0821371 0.027483 0.337461
0.317232 0.0450667 0.36946
0.171552 0.052123 0.380473
0.0371062 -0.016356 0.0638596
-0.0319666 -0.0616162 0.355025
-0.367217 0.0651803 0.366148
-0.00397788 0.0164053 0.0586709
0.144034 0.050377 0.375187
0.179893 0.0361657 0.326034
0.0155139 -0.0677409 0.425973
0.00390617 -0.00648271 0.0504104
0.0392244 0.0428608 0.34561
-0.383397 0.0640936 0.39545
-0.0325195 -0.00711483 0.0721864
0.106192 0.0313471 0.320831
0.0313023 0.0421471 0.403806
-0.219232 0.0548843 0.343381
-0.00314193 0.0569857 0.0498131
0.0107939 0.0238951 0.311387
-0.0584531 0.0439906 0.401986
0.00354476 -0.0414648 0.1117
0.141699 0.0363255 0.415073
-0.0476869 -0.029083 0.384224
0.229931 0.0469426 0.415234
0.334038 0.049783 0.31333
0.123868 -0.00913421 0.0973444
-0.13526 0.0492541 0.343136
-0.446346 0.0554572 0.379019
0.0367868 0.0241018 0.333974
-0.27382 0.0585523 0.388771
-0.0493772 -0.024593 0.350528
-0.00379339 -0.00688382 0.0689202
0.0746172 -0.0113666 0.0418537
0.0557653 -0.0130286 0.0424558
-0.323082 0.0457643 0.379282
0.00223874 0.0302564 0.37143
0.00942446 0.0287781 0.332502
0.46374 0.0713608 0.348992
-0.184644 0.0377482 0.408217
-0.471139 0.0687534 0.312275
-0.0271866 0.00828659 0.286453
-0.0633203 0.0368524 0.284647
0.3115 0.0607049 0.331043
0.462454 0.0710492 0.335513
-0.103204 0.0313873 0.31905
-0.0350917 -0.0463533 0.270135
-0.0747025 0.0281419 0.407731
-0.0307677 -0.0574307 0.272851
-0.152317 0.0506075 0.390598
0.0714043 0.0384909 0.421837
-0.272692 0.0489031 0.288134
-0.0864818 0.04594 0.399181
-0.176825 0.0374786 0.315731
0.016822 -0.0247043 0.503766
-0.0271903 0.0404183 0.411311
-0.104948 0.0459897 0.326659
0.0281619 -0.0247124 0.194077
0.162663 0.0336976 0.396106
-0.325376 0.0468729 0.328338
0.129691 0.0305859 0.380446
-0.0273951 0.0397902 0.320519
-0.15543 0.0326973 0.363681
-0.331416 0.0466077 0.342208
0.0236008 0.0400332 0.323859
-0.21959 0.0552166 0.38277
0.192194 0.0475884 0.297742
-0.0957982 0.0442281 0.412002
-0.111105 -0.0118812 0.0398825
-0.0943773 0.0426945 0.309494
-0.157535 0.0381688 0.301365
-0.0995184 0.0471606 0.389938
0.0251064 -0.0173181 0.0811397
0.432297 0.0690517 0.336895
-0.037898 -0.0253492 0.458466
0.0192846 -0.0557921 0.222323
0.00331392 0.000429101 0.0438964
-0.0380669 -0.0252939 0.264717
0.0293106 -0.0575247 0.263023
-0.0408219 0.0243057 0.337139
-0.0168715 -0.0325781 0.510637
0.354298 0.047978 0.366066
-0.171214 0.033798 0.378752
-0.312004 0.0496398 0.303128
-0.0538099 0.0265934 0.409021
0.0684271 0.0258472 0.372654
-0.0430903 -0.00292462 0.378793
0.0249503 -0.0013377 0.260075
-0.00802117 -0.0430992 0.13022
-0.00378138 -0.0315812 0.0598551
0.0440598 -0.01338 0.313631
-0.449079 0.0554201 0.357508
0.102276 0.0288685 0.347542
-0.417396 0.0618272 0.290492
0.32591 0.046214 0.386109
0.0346231 -0.0331504 0.47288
0.277135 0.0547312 0.407455
0.0688747 0.0290055 0.317542
0.0295692 0.0167941 0.318061
-0.293723 0.0480589 0.304408
-0.238175 0.0560149 0.335074
0.00436893 0.00190174 0.0818657
0.186802 0.0488769 0.411945
0.0444177 0.0369916 0.422822
-0.469489 0.0589856 0.391254
-0.0927921 0.0282709 0.339462
-0.387915 0.0623242 0.307176
0.244955 0.0433051 0.311397
0.0127217 0.0406761 0.405866
0.380218 0.0658601 0.354716
0.0404492 -0.00819474 0.304086
0.0461956 0.040651 0.317728
0.409065 0.0676711 0.34743
-0.365036 0.0540684 0.404042
0.413778 0.0579632 0.299188
-0.120145 0.0327584 0.411156
-0.136599 0.0455865 0.309617
-0.37874 0.0498505 0.366688
0.0393846 0.043062 0.357022
-0.0319644 -0.0619813 0.332518
0.0624698 -0.00832489 0.061656
0.042787 -0.00721628 0.101764
0.0259287 0.0283871 0.299919
-0.0558869 -0.00735362 0.0737359
0.0536006 0.04401 0.395343
-0.00700522 -0.0150278 0.0785887
-0.0216291 -0.0165279 0.10942
-0.0195476 0.032326 0.42773
-0.0445264 -0.017041 0.0777742
-0.353201 0.048395 0.335566
0.0069594 -0.0691105 0.449069
0.301205 0.0517581 0.283544
0.000879733 0.001577 0.199032
-0.0244602 0.0340056 0.2833
-0.450311 0.0693435 0.388468
-0.0340508 0.0162626 0.374344
-0.0879128 -0.00865819 0.0604503
0.00388416 0.0119543 0.0465331
-0.117059 0.0341642 0.307559
-0.371587 0.0494826 0.376269
0.0291966 -0.0422036 0.224482
0.368348 0.063733 0.325439
0.0385867 -0.00878732 0.441135
0.212252 0.0373954 0.389947
0.39642 0.051561 0.345505
0.0281635 -0.016742 0.107121
0.0394055 -0.0266071 0.270308
0.0445633 -0.0169485 0.0722456
0.420089 0.0678885 0.387055
-0.0856808 -0.00767247 0.0748475
-0.039932 -0.0485743 0.423766
0.406565 0.0537827 0.323396
0.0334365 0.0112475 0.305517
0.45609 0.0617615 0.400202
0.174898 0.044679 0.286199
0.351996 0.050893 0.315025
0.00135567 -0.00576447 0.137799
0.231422 0.040896 0.403734
0.0347459 -0.0495644 0.286112
-0.052603 0.0249498 0.353133
0.0642654 -0.0166732 0.0691761
0.145247 -0.0158545 0.0753881
-0.188547 0.0355371 0.346157
-0.0478793 -0.0150096 0.347878
-0.0583791 0.0443766 0.359534
-0.0997789 0.0317966 0.415149
-0.442199 0.0607282 0.400988
-0.15206 0.0473682 0.412487
0.203594 0.053149 0.398438
-0.109116 -0.0160366 0.0952586
0.469499 0.0713818 0.383812
-0.0196491 -0.0458989 0.499393
0.158353 0.0477619 0.412318
0.28241 0.042546 0.378723
-0.0880048 0.0462361 0.352018
0.157279 0.0401904 0.287763
-0.165605 -0.00863098 0.0716535
0.0442666 -0.00740683 0.414219
-0.0577662 0.0297906 0.306685
-0.0252477 8.78739e-05 0.270788
-0.0282683 -0.0611711 0.288174
-0.0641151 -0.0100045 0.0505193
0.356005 0.048517 0.341291
0.192296 0.0358967 0.341854
-0.267032 0.0416127 0.34435
0.00495833 -0.0256649 0.0990191
0.0399453 -0.0494215 0.351633
-0.145613 0.0324131 0.397835
0.00452323 -0.0177458 0.0927442
-0.321712 0.0621405 0.366706
0.248897 0.040147 0.348541
0.000625002 0.0416547 0.0123502
-0.195073 0.0488911 0.305119
0.045202 -0.0323038 0.321374
-0.0577824 0.0377256 0.292978
0.0411005 0.0243108 0.401562
-0.386072 0.056964 0.291819
0.440845 0.0697915 0.379599
0.100294 -0.0148638 0.0564673
0.0899638 -0.0166093 0.0829185
-0.0126544 -0.0516165 0.503444
0.441505 0.0552394 0.383898
-0.276915 0.0586962 0.340212
-0.00684898 -0.0121229 0.0344581
-0.0820962 0.0360365 0.27738
0.233388 0.0547538 0.326811
0.475315 0.0595629 0.319685
0.0828676 0.0460431 0.361079
0.0465543 0.0382622 0.301646
-0.0375624 0.0430366 0.392324
0.312983 0.0484693 0.311425
-0.197524 0.0525724 0.399573
-0.153963 0.0408485 0.281699
0.226353 0.0556685 0.382445
-0.0281666 -0.0285772 0.184623
0.0174014 0.0366509 0.422149
-0.177669 0.0343642 0.366487
-0.399372 0.0671095 0.352672
