-0.0107109 -0.0180555 0.338033
-0.0499283 -0.0588268 0.802331
0.125682 -0.095935 0.5518
0.182479 -0.0906597 0.470551
0.0111761 -0.128913 0.712825
-0.271145 -0.0821571 0.43586
0.0511426 -0.0893059 0.435477
-0.268144 -0.0733461 0.415038
-0.0242764 -0.054548 0.078093
-0.184827 -0.0904325 0.466765
-0.0516976 -0.0745533 0.821687
-0.124752 -0.148199 0.586183
-0.0503168 -0.117188 0.561882
0.000796303 -0.124077 0.815752
-0.00443607 0.0577432 0.0827844
-0.12511 -0.101651 0.551283
0.0072157 -0.122748 0.850171
0.0366968 -0.120666 0.556763
-0.149393 -0.0985662 0.626043
-0.139006 -0.146085 0.556428
0.0239431 -0.125492 0.387198
0.0966499 -0.0844374 0.520393
0.0166447 -0.0220027 0.16789
-0.167194 -0.017856 0.00182665
-0.0238325 -0.0339328 0.0547672
0.00381232 0.0455052 0.0657805
0.0343475 -0.0281716 0.577491
-0.0164643 -0.0195971 0.364993
-0.0575912 -0.0764207 0.479104
-0.0968051 -0.099139 0.552028
0.124877 -0.0828803 0.498351
0.0526121 -0.0586937 0.295846
-0.0445859 -0.0428203 0.256638
0.114166 -0.0958697 0.455507
-0.00314853 0.102573 0.0474341
-0.00374963 -0.0164548 0.091033
-0.0508894 -0.0456611 0.394654
0.0521101 -0.0800549 0.287405
0.00275406 -0.0159231 0.682012
0.0281111 -0.124375 0.507638
-0.0223883 -0.0211844 0.569469
0.220341 -0.0795354 0.404465
-0.179879 -0.0789817 0.494044
-0.138291 -0.0945954 0.47276
0.0445318 -0.0383559 0.647919
-0.327961 -0.069266 0.388475
-0.0568415 -0.0803033 0.59616
0.0178303 -0.12713 0.669938
0.0121994 -0.0217527 0.101271
0.0357269 -0.100028 0.863337
0.0336583 -0.0274824 0.714074
-0.0646753 -0.0940205 0.434114
0.043181 -0.110088 0.501094
0.0271411 -0.0505279 0.860015
-0.0476214 -0.071671 0.238169
0.157285 -0.0235295 0.0245763
-0.0542644 -0.073233 0.28766
-0.163118 -0.127729 0.624962
0.00272876 -0.0139739 0.276446
-0.047715 -0.0459217 0.789421
0.00467172 -0.019687 0.101231
-0.0213462 -0.0209052 0.626764
0.00298658 0.100903 0.0458964
0.0009736 0.0870233 0.0314608
0.00628731 0.0634458 0.119129
0.0567116 -0.0673899 0.405174
0.00276786 0.0200333 0.0628163
-0.268682 -0.0731035 0.436672
-0.0275824 -0.0225762 0.406061
-0.00145949 0.0653712 0.0393914
-0.019045 -0.0202886 0.359724
-0.0402468 -0.11151 0.787698
-0.302419 -0.0791757 0.432292
0.0116939 -0.0413051 0.858601
-0.00375967 -0.124507 0.28942
0.0387155 -0.0368841 0.786628
-0.0516885 -0.0693994 0.264441
-0.0135215 -0.0188086 0.4936
0.114846 -0.120101 0.543014
0.026612 -0.0223161 0.663322
-0.38188 -0.071597 0.378451
0.00416391 0.059223 0.0765531
0.044032 -0.0378561 0.439632
-0.0041681 0.0778804 0.069493
-0.0755364 -0.0249328 0.0693471
-0.0175856 -0.0198975 0.531482
-0.345939 -0.0676964 0.391149
0.305644 -0.0746671 0.384688
0.297095 -0.0796825 0.423433
0.0562187 -0.0655506 0.428099
0.0331117 -0.120158 0.742275
-0.031469 -0.08876 0.880605
-0.0305564 -0.122713 0.519466
0.0283802 -0.029608 0.190813
0.304788 -0.0758993 0.390702
-0.0584181 -0.0722388 0.529225
0.338083 -0.0713935 0.370144
-0.0383596 -0.0365597 0.0992082
0.00250531 0.109723 0.0379962
-0.120214 -0.0840834 0.44357
0.0400675 -0.0338916 0.588761
-0.195463 -0.0826378 0.418165
-0.00529083 -0.13049 0.404869
-0.0539362 -0.0570313 0.726362
-0.0114665 -0.128835 0.433193
-0.154049 -0.119266 0.538732
0.0263885 -0.0222562 0.355995
0.0377696 -0.0315937 0.549713
-0.0583301 -0.088796 0.570528
0.0573638 -0.0698242 0.627698
0.168703 -0.0800339 0.472293
0.0531395 -0.0540587 0.671277
0.0542481 -0.0581962 0.325441
0.0046696 -0.0164364 0.399789
0.0552736 -0.0800009 0.782409
0.0388609 -0.114408 0.442071
-0.0110027 -0.0755432 0.092629
0.00279975 -0.0225379 0.0919169
-0.0809111 -0.08978 0.426443
0.125624 -0.0870664 0.514151
-0.138912 -0.079524 0.572421
0.100612 -0.0842178 0.490198
-0.00265017 -0.131198 0.680072
0.122091 -0.0830343 0.510125
-0.124776 -0.0911271 0.511177
-0.054473 -0.0590347 0.657758
0.0217884 -0.0210236 0.485512
0.171339 -0.0188785 0.00369822
-0.0529831 -0.0534747 0.500551
0.0723418 -0.028349 0.0333433
0.119965 -0.0993941 0.500796
0.251955 -0.0752452 0.399249
-0.0813256 -0.0852829 0.529755
-0.256933 -0.0773006 0.39527
-0.0546308 -0.0874693 0.448949
-0.0335864 -0.0274105 0.76524
0.0346501 -0.0352931 0.200937
0.00304482 0.0327726 0.0633942
-0.18981 -0.0785859 0.486412
-0.152483 -0.0237381 0.0209322
0.0952817 -0.0848806 0.476134
0.00289468 -0.0176427 0.209653
0.0511722 -0.0869457 0.531847
0.109094 -0.115599 0.602284
0.0684736 -0.0859924 0.5428
0.0465428 -0.106727 0.760276
-0.0287886 -0.0228994 0.386368
-0.0578793 -0.115255 0.548595
-0.0349499 -0.028774 0.41467
0.0581913 -0.0741407 0.770265
0.00331075 0.0770549 0.0505294
0.0566289 -0.0810967 0.547074
0.110954 -0.135827 0.594584
-0.00264604 0.00828277 0.0644762
-0.0216481 -0.125542 0.783777
0.0210299 -0.126273 0.688316
-0.0574553 -0.076928 0.637093
-0.0579536 -0.0720237 0.535678
0.0315234 -0.048705 0.107727
0.00599289 -0.0794644 0.925618
0.0874404 -0.0849458 0.530616
0.0230663 -0.125727 0.529205
0.0278916 -0.0556142 0.868103
0.102361 -0.0841213 0.487952
0.0486138 -0.117617 0.494613
0.0581536 -0.0716881 0.732352
-0.0576868 -0.071028 0.442
0.0302007 -0.123069 0.512908
-0.0572429 -0.0777206 0.414622
-0.0430362 -0.0620823 0.188021
0.0554551 -0.0627006 0.47509
-0.016205 -0.127566 0.439874
0.0328139 -0.121655 0.52323
-0.0430737 -0.0368978 0.410903
0.0322306 -0.121039 0.660976
-0.00696363 0.0418446 0.129754
-0.0686578 -0.0859796 0.495098
-0.0123636 -0.096259 0.171895
0.0305071 -0.0884653 0.882944
0.38551 -0.0672574 0.351341
0.0261167 -0.0401114 0.84106
0.0185248 -0.126944 0.600734
0.00253451 0.00367308 0.0639725
-0.109844 -0.0857666 0.421743
-0.0756224 -0.101046 0.562244
-0.377358 -0.0654989 0.390534
-0.161873 -0.126136 0.567389
-0.0567658 -0.0762924 0.312971
-0.0709657 -0.0930949 0.432853
-0.00822439 -0.0967455 0.918637
0.0280863 -0.0829231 0.160489
0.144005 -0.144423 0.554643
-0.204076 -0.0776054 0.458956
0.197659 -0.089192 0.463078
-0.0548803 -0.0605548 0.584835
0.0546731 -0.0883922 0.677338
-0.194232 -0.0785144 0.444729
0.129839 -0.100684 0.549624
-0.195176 -0.0894339 0.48456
-0.0568018 -0.0677253 0.68603
0.0282417 -0.12434 0.54239
0.00467418 0.121324 0.0633834
0.0326259 -0.02645 0.577948
0.00229835 -0.015801 0.668344
0.0231688 -0.0296395 0.0719985
-0.0244189 -0.0802409 0.896115
0.0169025 -0.100713 0.89981
-0.268681 -0.0788162 0.403288
-0.0278902 -0.0257778 0.248644
-0.308853 -0.0706395 0.394424
0.0551015 -0.0867932 0.600417
0.359146 -0.0672552 0.3713
-0.0385621 -0.0284161 0.106926
0.0405701 -0.112048 0.775795
0.267133 -0.0735279 0.412229
-0.24796 -0.0746946 0.415982
-0.293155 -0.0800572 0.413676
0.0880715 -0.0948236 0.558231
0.0403555 -0.0481055 0.193109
-0.0565771 -0.0812898 0.610539
0.0327367 -0.0354604 0.167891
-0.00492402 -0.0052276 0.117063
0.126402 -0.0827964 0.501766
0.0247226 -0.0218098 0.370141
0.00376272 -0.0182439 0.185687
0.143274 -0.0860474 0.453487
0.0531337 -0.0930569 0.672748
-0.0275124 -0.124536 0.763238
-0.0962457 -0.0281131 0.0351096
0.10826 -0.125772 0.590498
0.0555728 -0.0839545 0.416015
-0.277939 -0.0805801 0.412381
-0.130909 -0.100013 0.486586
-0.335053 -0.076063 0.408481
0.00676693 -0.00865526 0.203132
0.0062436 0.0292081 0.131335
-0.0604456 -0.114595 0.493503
0.0592724 -0.0864978 0.511406
-0.0749729 -0.0282487 0.0331563
0.000310941 0.135076 0.016019
0.0273406 -0.0307097 0.158528
-0.159048 -0.1393 0.614538
-0.21919 -0.0838425 0.42551
0.0339211 -0.0409232 0.146733
0.053706 -0.0909213 0.417273
0.159217 -0.112108 0.561956
-0.146539 -0.0972217 0.522447
-0.16344 -0.129797 0.588605
-0.177026 -0.0801015 0.439675
-0.0483242 -0.104945 0.561736
0.0544212 -0.0882523 0.371418
0.369143 -0.0663549 0.371955
-0.154172 -0.140207 0.627075
-0.116221 -0.0850641 0.430052
-0.00359321 0.0277039 0.0708091
-0.37395 -0.0723531 0.380975
0.00181459 -0.0156713 0.412303
0.262629 -0.0772363 0.39523
0.013753 -0.0287891 0.821896
-0.162382 -0.01727 0.0358814
-0.00352749 0.0805618 0.0572955
0.04331 -0.0380866 0.302506
0.10043 -0.103116 0.476567
-0.044497 -0.108772 0.509519
-0.177501 -0.0172842 0.000637287
-0.0542973 -0.0573765 0.521183
0.0339928 -0.0385803 0.155946
0.118065 -0.100849 0.597865
0.0115422 -0.0337172 0.838951
0.0422646 -0.0868074 0.852759
-0.0524113 -0.0513409 0.346093
0.00657536 -0.0179741 0.230065
0.0537554 -0.0341717 0.0597904
0.000844707 0.0889582 0.0297492
-0.266282 -0.0826211 0.440967
0.0407316 -0.0635124 0.177776
0.11711 -0.109165 0.55169
0.0497493 -0.0300881 0.11789
-0.0396967 -0.0362265 0.0786931
0.00660953 0.0069883 0.147463
0.0127819 -0.0188012 0.306576
0.169214 -0.0813728 0.513347
-0.0261357 -0.122202 0.828663
0.0236878 -0.110792 0.868461
0.034365 -0.0308049 0.0405635
0.113139 -0.106449 0.578747
0.0304833 -0.104427 0.247991
-0.123039 -0.10547 0.542649
0.00577401 -0.00435829 0.146268
-0.131748 -0.0800915 0.520679
0.002714 0.0348299 0.0551621
-0.381336 -0.0658851 0.357614
-0.139335 -0.08205 0.48369
0.129013 -0.0818117 0.52341
0.038254 -0.0838117 0.86834
0.025382 -0.0833975 0.1534
0.077204 -0.0862877 0.4701
0.245696 -0.0747128 0.45351
-0.127079 -0.0837457 0.534163
-0.0220394 -0.126002 0.730645
0.0958474 -0.0302415 0.0517832
0.0249553 -0.0408323 0.0760449
-0.258677 -0.0739324 0.412221
0.00364303 -0.00378709 0.0898501
-0.0177082 -0.127163 0.717543
-0.0396666 -0.0879824 0.860823
0.166909 -0.0809363 0.439191
-0.00219823 -0.0157745 0.375927
-0.00495664 0.135325 0.0638988
-0.00739929 -0.0159346 0.277594
-0.105526 -0.103084 0.526999
-0.32935 -0.076607 0.413853
0.0403083 -0.0542965 0.172755
0.0364062 -0.102125 0.857824
-0.151709 -0.142273 0.563806
0.204419 -0.0885378 0.451918
0.0542517 -0.0276793 0.0346065
0.0554017 -0.0625014 0.751264
0.0521559 -0.0306299 0.0419734
0.0541611 -0.0892228 0.532446
0.0560975 -0.0650984 0.348177
-0.0316374 -0.0389234 0.133172
-0.248602 -0.0758002 0.472155
-0.0198969 -0.0941471 0.17154
0.15085 -0.147442 0.584812
-0.0454578 -0.0392819 0.723222
-0.114403 -0.100815 0.499377
0.0520884 -0.096958 0.426444
-0.0300497 -0.0238738 0.604778
0.0321966 -0.0260207 0.743133
0.132841 -0.101488 0.54074
0.0346917 -0.0552951 0.854398
-0.0358772 -0.0369425 0.193626
0.0520727 -0.0628218 0.280576
-0.160926 -0.107504 0.57968
0.0488523 -0.0426764 0.673312
0.0408339 -0.109998 0.468633
-0.0742174 -0.0249563 0.0557612
0.0391688 -0.0354655 0.276188
-0.0408595 -0.0346836 0.661106
0.0467825 -0.0680001 0.227428
-0.150862 -0.0970451 0.609756
0.00586972 -0.0744381 0.922726
0.0373115 -0.0924097 0.227921
-0.069092 -0.0331606 0.0765342
-0.0581244 -0.115189 0.498137
-0.0565205 -0.081501 0.664809
-0.232152 -0.0849037 0.479833
0.0544976 -0.0816019 0.786396
-0.011888 -0.0183709 0.518083
-0.055143 -0.0615351 0.379275
-0.0620577 -0.0302914 0.0415596
0.0325216 -0.120748 0.636988
-0.0465094 -0.0445433 0.786014
-0.0510492 -0.116999 0.543363
-0.0206654 -0.0231588 0.780328
-0.097403 -0.0957567 0.553039
-0.107928 -0.0220504 0.0381133
0.0538921 -0.0902269 0.331741
-0.0280308 -0.0287173 0.200185
0.054201 -0.0586604 0.317067
-0.104613 -0.0881302 0.426077
-0.0366069 -0.0610025 0.148416
-0.100143 -0.0842442 0.508397
0.00196683 -0.0825853 0.109354
0.00290646 0.117524 0.0409196
0.131214 -0.101573 0.572924
0.0220516 -0.0300284 0.0623275
0.0011977 -0.131587 0.505688
-0.143903 -0.0998574 0.540107
0.0445999 -0.108669 0.488467
0.0600617 -0.0890798 0.425338
0.0538986 -0.0270513 0.103997
0.0529599 -0.0889279 0.781508
0.125942 -0.0835655 0.456206
0.0522143 -0.0506059 0.668488
0.0179262 -0.127105 0.460611
0.053081 -0.0932538 0.531795
0.0523204 -0.0510018 0.358962
-0.0534218 -0.0919812 0.588796
0.0340043 -0.0278284 0.657458
-0.13602 -0.0952918 0.481959
0.124276 -0.0982955 0.530885
-0.0194571 -0.0241696 0.139035
0.0259366 -0.0347935 0.0916923
-0.0124801 -0.128564 0.328913
-0.034842 -0.0584908 0.861139
0.126715 -0.0950485 0.489167
0.0140872 -0.0189599 0.330937
-0.0405039 -0.034328 0.351424
-0.0537072 -0.11632 0.542686
-0.00503943 -0.0180805 0.167329
0.0189103 -0.126841 0.44319
0.0049405 0.000149647 0.221632
-0.0567887 -0.0676766 0.656746
-0.00123027 -0.131578 0.646316
0.0601543 -0.104301 0.568977
0.0148714 -0.127923 0.32188
-0.0115668 -0.0217575 0.10434
0.0498456 -0.0978918 0.305032
-0.0218966 -0.118934 0.849638
0.00241961 -0.112262 0.889924
0.0450462 -0.0385854 0.657902
0.00397271 0.0612304 0.0718047
0.00275591 -0.0159236 0.500225
0.0463998 -0.10687 0.527645
0.363013 -0.0670845 0.367275
-0.0517179 -0.0487529 0.428778
-0.043367 -0.116748 0.5694
-0.0209751 -0.126288 0.601626
0.0380925 -0.0402479 0.80483
0.0474515 -0.11792 0.558957
-0.187113 -0.0897539 0.45234
-0.0192241 -0.0232196 0.14944
0.255215 -0.0797916 0.407414
-0.0506009 -0.102509 0.698354
-0.0171406 -0.0219854 0.176456
-0.227513 -0.0858767 0.480918
-0.0891969 -0.0309614 0.0642733
-0.0193251 -0.0203636 0.558541
-0.373247 -0.0657867 0.395581
0.0554859 -0.0842789 0.485736
0.208947 -0.083714 0.424262
-0.00720159 0.0354131 0.148897
0.0517477 -0.0682448 0.807905
-0.0766835 -0.086712 0.451988
-0.0554408 -0.0626465 0.457045
0.101041 -0.0841951 0.51845
0.00206479 0.146017 0.0239454
0.0121584 -0.12865 0.494371
0.0408759 -0.0347 0.49116
-0.191618 -0.0803792 0.406864
0.0425106 -0.0359264 0.0777831
-0.0367754 -0.116494 0.609318
-0.240004 -0.0753249 0.42655
0.11023 -0.133124 0.615595
-0.0489115 -0.0549193 0.268829
0.111243 -0.134679 0.578171
0.180522 -0.0177964 0.00758755
0.377438 -0.0665825 0.348825
0.0260843 -0.0388223 0.0860844
-0.0501175 -0.0274704 0.0558254
0.00294078 -0.13112 0.716069
0.056295 -0.0658354 0.342035
-0.360639 -0.073624 0.407399
-0.182906 -0.0906208 0.497937
-0.00540404 -0.0173486 0.272511
-0.0523002 -0.0548115 0.307283
0.0380667 -0.115203 0.617829
0.05393 -0.057009 0.448586
0.146937 -0.144096 0.557181
0.00267773 0.00523215 0.0663045
0.042808 -0.0388076 0.776726
0.131922 -0.0920512 0.457525
-0.0224994 -0.125879 0.344129
0.057128 -0.079234 0.403185
-0.044214 -0.0598128 0.201227
-0.00748912 -0.0144367 0.254412
0.366188 -0.0665815 0.372715
-0.149996 -0.0821136 0.436234
-0.310878 -0.0706289 0.389899
0.0774036 -0.0993191 0.448668
-0.345597 -0.0750584 0.415157
-0.00950974 -0.124739 0.838582
0.0438965 -0.0531522 0.217736
-0.0380218 -0.11928 0.490932
0.00660873 -0.016956 0.519587
-0.0220949 -0.125987 0.608649
-0.359984 -0.068115 0.35457
-0.0143569 -0.128061 0.641628
0.00417654 0.102707 0.0601581
-0.291361 -0.0776109 0.452453
0.00217909 0.0145134 0.0570926
-0.0441217 -0.109148 0.717188
-0.0518968 -0.0709074 0.268733
0.0179402 -0.127101 0.360187
0.0344886 -0.0293207 0.0447155
0.100216 -0.104437 0.486436
0.0187559 -0.126882 0.737261
0.0523259 -0.0960715 0.661388
-0.0649262 -0.0861877 0.538518
0.0926978 -0.0861483 0.446931
0.000699908 0.0872785 0.0301036
-0.0363432 -0.112853 0.303244
0.00673395 0.00256923 0.15985
-0.0548495 -0.0866531 0.618439
0.056863 -0.0791399 0.434871
-0.317123 -0.0697137 0.427004
-0.0309173 -0.0488392 0.848986
-0.106443 -0.0256234 0.0248904
-0.0857417 -0.0850377 0.493441
-0.0532941 -0.0546353 0.470067
0.162446 -0.0817159 0.425933
-0.021634 -0.0259645 0.144573
0.143425 -0.0823212 0.455105
-0.0555811 -0.0631699 0.38189
-0.162468 -0.0172634 0.0249172
6.41134e-05 0.0147914 0.175105
-0.00515767 0.115323 0.0640165
0.240173 -0.0766736 0.477166
-0.000336537 0.00911214 0.19543
-0.0471942 -0.0765558 0.246382
-0.00524426 0.105047 0.0697444
0.00276709 -0.131167 0.762854
0.281783 -0.0811421 0.424752
-0.152344 -0.0179743 0.0228008
0.0770181 -0.0856122 0.488113
-0.0343558 -0.118914 0.556156
-0.0385148 -0.0323389 0.361253
0.158174 -0.126037 0.630584
0.0035437 0.0455885 0.068868
0.159791 -0.0199457 0.00520879
-0.135203 -0.0929556 0.462964
-0.00573473 -0.130371 0.690511
0.161549 -0.111203 0.625046
-0.0508109 -0.0453683 0.744598
0.128903 -0.0971119 0.509233
-0.00331636 0.0364426 0.0676399
0.00224684 -0.131306 0.406116
0.0218582 -0.0376043 0.0626014
0.0586213 -0.0734337 0.648487
0.115868 -0.0840173 0.463648
-0.00397511 -0.0141424 0.0972442
0.00812197 -0.0856798 0.925917
-0.0270789 -0.0224413 0.558378
-0.0570483 -0.0686454 0.354191
-0.243779 -0.0840142 0.427546
-0.0548434 -0.0877564 0.394626
0.134922 -0.0823267 0.502411
0.0291381 -0.122476 0.78967
0.222617 -0.0798502 0.406118
-0.320095 -0.0746033 0.385102
0.0554158 -0.0683942 0.779182
0.201769 -0.0856307 0.433214
0.00524846 0.0480879 0.103391
-0.0191763 -0.0211614 0.26454
-0.0134867 -0.0187992 0.582678
0.138025 -0.0192354 0.038171
-0.13884 -0.0257047 0.0452975
0.0516402 -0.0704935 0.266156
0.0221513 -0.125972 0.529178
0.00938283 -0.107415 0.21733
0.186121 -0.0903072 0.463929
0.100299 -0.102731 0.545228
-0.154939 -0.133858 0.542828
-0.141053 -0.0803033 0.515558
0.148301 -0.0914389 0.565164
-0.0131899 -0.0764111 0.915128
-0.00361543 -0.0166856 0.284454
-0.0442393 -0.118737 0.516587
0.0598536 -0.114748 0.510554
-0.0578 -0.0756415 0.63185
-0.397336 -0.068204 0.356147
-0.267443 -0.0825096 0.430488
-0.00354282 0.0380559 0.065774
-0.0559572 -0.0825191 0.57017
0.00557939 0.0551091 0.107589
-0.0585055 -0.0730014 0.56328
-0.39766 -0.0664132 0.387476
0.0825627 -0.0308036 0.0467347
-0.28665 -0.0728402 0.384324
-0.34285 -0.0679129 0.40137
-0.0505662 -0.0351508 0.0840046
0.0110329 -0.0215715 0.106768
-0.328949 -0.0697926 0.429666
-0.027449 -0.0877058 0.173669
-0.027326 -0.0872614 0.890816
-0.0570298 -0.0685762 0.711825
0.0123409 -0.0304933 0.829999
-0.017517 -0.127214 0.760019
-0.2378 -0.0752651 0.450128
-0.0350545 -0.0397037 0.816215
0.023931 -0.125496 0.730979
0.00169261 -0.121027 0.817238
0.0584839 -0.0729209 0.372585
-0.0404755 -0.112794 0.67058
-0.0344518 -0.076206 0.161162
0.00253413 0.00177065 0.0646416
-0.0256294 -0.0327421 0.104193
-0.00726409 0.0357759 0.138328
0.0484842 -0.0420242 0.54394
-0.307934 -0.0713564 0.440667
0.37277 -0.0724665 0.392017
0.0545977 -0.0595008 0.396377
0.00624137 0.0189576 0.123856
-0.0255584 -0.0592426 0.087407
-0.0235509 -0.125597 0.474061
-0.0212343 -0.0297728 0.0836884
-0.0480396 -0.068371 0.236936
0.118191 -0.0832495 0.516096
0.123042 -0.14701 0.624205
0.0312575 -0.0647092 0.12495
0.0336631 -0.0731173 0.151835
0.0571124 -0.0688859 0.44617
0.000362914 -0.023044 0.0623501
0.226853 -0.0848947 0.431037
-0.149144 -0.097613 0.62512
-0.136739 -0.151223 0.586648
-0.0309486 -0.122321 0.752645
0.0209125 -0.0209976 0.305425
0.162324 -0.112419 0.578665
0.0460779 -0.0872957 0.496771
0.215145 -0.0875022 0.463459
0.142537 -0.0807472 0.517675
0.327166 -0.0692631 0.381705
-0.00454352 0.0500737 0.0879588
-0.112628 -0.117666 0.558876
-0.0454819 -0.107788 0.530587
0.000673642 0.0802386 0.0317837
0.222987 -0.0820196 0.416764
-0.102711 -0.103801 0.504757
0.0123603 -0.0243238 0.0528256
-0.00202882 -0.0377965 0.0313176
0.158972 -0.0807028 0.503304
0.0408942 -0.112375 0.598062
0.156144 -0.11401 0.542155
0.154596 -0.137948 0.55799
0.310087 -0.0779367 0.438297
0.230985 -0.085988 0.467419
-0.00644144 -0.129312 0.792919
0.0241106 -0.0416897 0.0695732
0.0214581 -0.0383707 0.105527
0.0435562 -0.0280084 0.111157
0.144072 -0.0821189 0.529777
-0.364202 -0.0664198 0.40442
-0.0569199 -0.0800104 0.742474
0.048649 -0.0870829 0.501195
0.36744 -0.0659166 0.397949
-0.203411 -0.0886367 0.46902
0.0474042 -0.0883293 0.467434
0.0580866 -0.0725218 0.726647
0.0578864 -0.0706909 0.585724
-0.0264703 -0.071169 0.117985
-0.221718 -0.0812449 0.412906
0.0443613 -0.0381854 0.446492
-0.00282777 0.121105 0.0391109
0.00514595 -0.00384369 0.121152
-0.0210788 -0.123 0.832526
-0.0461697 -0.0515272 0.248207
-0.18499 -0.090416 0.457735
-0.0553543 -0.0787478 0.307689
0.00729071 0.0204977 0.145091
0.0268489 -0.0271005 0.793021
-0.165993 -0.0922546 0.489582
0.0342578 -0.0369147 0.168859
-0.125204 -0.0941516 0.583208
-0.217227 -0.0776644 0.413761
-0.0298326 -0.123437 0.764256
0.117008 -0.0259859 0.0273745
-0.116531 -0.112442 0.545043
0.0061829 -0.0541585 0.884678
0.0258976 -0.124969 0.60159
0.222983 -0.0763031 0.471373
0.284669 -0.0739414 0.455244
0.159793 -0.135499 0.626257
-0.0200682 -0.08717 0.148502
-0.0447815 -0.108488 0.406769
0.152844 -0.145504 0.598233
-0.00655899 0.0328645 0.136499
-0.0547448 -0.0881244 0.347219
0.0449151 -0.0536782 0.22761
-0.034357 -0.0502349 0.84546
0.332444 -0.068813 0.389955
0.174809 -0.0817342 0.412477
-0.224501 -0.0866045 0.448844
-0.120918 -0.0979965 0.590668
-0.0577578 -0.0757991 0.332805
-0.0338251 -0.0446244 0.139321
0.308804 -0.0702946 0.405442
-0.0609645 -0.0889192 0.428441
-0.376157 -0.0653065 0.392473
0.0878684 -0.105374 0.474626
0.0306605 -0.0244846 0.500462
-0.0206891 -0.0207291 0.575023
-0.0465872 -0.0492302 0.807057
0.176703 -0.0794859 0.498048
0.00454509 -0.0145137 0.133686
0.23382 -0.0755445 0.465957
0.0578408 -0.0705206 0.520148
0.0122315 -0.0679912 0.904019
-0.00156428 0.129478 0.0214572
0.0625517 -0.0863173 0.516957
-0.0293811 -0.0289433 0.21965
0.160304 -0.115976 0.562232
-0.0391383 -0.114131 0.62535
0.127034 -0.083791 0.582719
-0.289877 -0.0756779 0.388886
0.321362 -0.0773673 0.399179
-0.0656781 -0.0861463 0.539781
0.0340363 -0.0346766 0.200985
-0.0170901 -0.0197648 0.634675
-0.111942 -0.021659 0.0637121
-0.0336224 -0.119647 0.345042
0.0540946 -0.0576234 0.355775
-0.33296 -0.0762629 0.413756
0.15693 -0.0228984 0.0466645
0.00780067 -0.0121369 0.258628
-0.00035356 -0.131813 0.438244
0.101532 -0.0226265 0.0788812
0.0374 -0.0565798 0.14616
0.129344 -0.0832594 0.488394
0.00120291 -0.0155074 0.436443
-0.095714 -0.0261077 0.0259715
-0.00317703 -0.101364 0.181939
-0.00729333 -0.00197974 0.199835
0.240251 -0.0804151 0.409742
0.00871605 -0.0205226 0.131148
0.0454055 -0.107733 0.318491
0.00433906 -0.0163478 0.37059
-0.114896 -0.104018 0.591192
0.0521398 -0.096766 0.332756
-0.000370817 -0.0152849 0.566567
0.193648 -0.0792477 0.49964
-0.00239088 0.0388258 0.0537564
-0.104761 -0.100982 0.544859
-0.0338149 -0.0395977 0.151756
0.0437788 -0.118854 0.515778
-0.00671233 -0.0169841 0.444191
-0.016819 -0.0196921 0.388145
-0.126603 -0.0972722 0.51497
0.127499 -0.0833257 0.542605
0.0461484 -0.107121 0.477039
0.00697179 0.0381987 0.13167
0.00336742 -0.0195717 0.290555
-0.108329 -0.0848966 0.452468
-0.145561 -0.0963576 0.577421
-0.0531353 -0.105241 0.572242
0.00329061 -0.0160668 0.449569
0.00519119 0.128086 0.0715536
-0.151664 -0.145862 0.578147
0.397517 -0.0686463 0.386434
-0.0371138 -0.116155 0.623116
-0.268385 -0.0731249 0.450129
0.0517144 -0.0983538 0.735956
0.154009 -0.116758 0.53544
-0.0256119 -0.0823104 0.894881
0.111218 -0.124445 0.563159
-0.00600011 0.0655791 0.112335
0.032698 -0.108902 0.273865
0.0455844 -0.0747421 0.231692
-0.189955 -0.089939 0.490983
-0.0508391 -0.0454737 0.345457
0.0658055 -0.0335176 0.0782751
-0.0199573 -0.0546966 0.876437
0.27463 -0.0815655 0.417047
-0.046041 -0.107228 0.494166
-0.0239588 -0.0297382 0.113821
-0.0197747 -0.0300172 0.0704195
-0.0198417 -0.0205021 0.721055
-0.033578 -0.0349083 0.189038
-0.00716209 0.0035579 0.173756
-0.102732 -0.0841024 0.526454
0.31827 -0.073057 0.377409
0.0536147 -0.0558321 0.742748
0.227601 -0.0770991 0.4048
-0.0416105 -0.0362588 0.304727
0.0196921 -0.0204618 0.458969
-0.0459133 -0.0394527 0.710409
0.0300864 -0.123183 0.575912
-0.039189 -0.11408 0.573169
-0.125648 -0.0890825 0.434361
0.0501711 -0.0602125 0.267048
0.00693295 0.0265522 0.135328
0.0438963 -0.0698587 0.210691
-0.188171 -0.0789557 0.436735
-0.110963 -0.083648 0.514572
-0.053974 -0.0571726 0.321001
0.0532402 -0.0347382 0.0639069
0.144965 -0.0932098 0.525174
0.156543 -0.0812385 0.446864
-0.0023615 0.0293106 0.0557036
0.0325885 -0.031222 0.235729
0.135685 -0.0973708 0.559281
-0.0862837 -0.107998 0.517814
0.0577111 -0.0711202 0.356362
0.0325864 -0.0264105 0.421805
0.0491677 -0.0352635 0.0806133
0.102328 -0.0265698 0.0285212
-0.048413 -0.053739 0.803533
0.0434713 -0.107917 0.576198
-0.00592336 0.0895293 0.101562
0.203553 -0.077996 0.493116
0.013316 -0.0226489 0.0821835
-0.0680954 -0.0947696 0.436415
0.0398479 -0.119861 0.553697
-0.00390461 0.0897959 0.0477051
0.0559425 -0.0645199 0.39603
-0.134933 -0.102569 0.574941
0.138899 -0.148102 0.567418
0.0977714 -0.0850402 0.46771
-0.00618026 -0.114359 0.245481
0.0198763 -0.0265754 0.106734
0.149983 -0.0968095 0.598319
-0.0259293 -0.123462 0.811751
0.050381 -0.0442051 0.604369
0.0447233 -0.0284607 0.0398263
0.0141817 -0.128108 0.36731
-0.00361983 -0.0203359 0.241163
-0.0131747 -0.0828621 0.919853
-0.0374608 -0.0904808 0.221039
-0.0582751 -0.0738685 0.417016
-0.0442061 -0.037744 0.565054
0.00373328 0.0517041 0.0704709
0.00522604 -0.11862 0.264009
-0.0483693 -0.089078 0.278134
-0.18859 -0.0795808 0.426869
-0.277562 -0.0724821 0.436834
-0.12329 -0.0829684 0.514983
0.23683 -0.0753338 0.463298
0.0557501 -0.0737755 0.299093
0.044639 -0.0521934 0.22898
-0.176688 -0.0802642 0.435577
-0.364716 -0.0732351 0.404408
-0.0319413 -0.0861501 0.183004
-0.0559137 -0.0644111 0.425167
-0.0555654 -0.0839811 0.37766
0.0224417 -0.0224263 0.239177
-0.0540918 -0.0595195 0.77084
-0.10962 -0.130848 0.586919
-0.116358 -0.141928 0.598905
0.0735498 -0.0972906 0.564782
0.0433642 -0.109905 0.516366
0.0512424 -0.0469786 0.323353
0.136586 -0.0789009 0.582121
-0.00526229 -0.0480153 0.874924
0.00756518 -0.0172123 0.396359
0.0957487 -0.101071 0.551821
0.0461986 -0.0729127 0.840433
0.0458767 -0.0702796 0.223327
-0.0257188 -0.0254208 0.785372
-0.017204 -0.0197953 0.620664
-0.0920333 -0.0846914 0.508558
-0.150306 -0.113254 0.534682
0.116058 -0.0960458 0.458304
0.0311398 -0.0275747 0.273796
-0.0850675 -0.0244542 0.0403913
-0.021074 -0.126261 0.356313
-0.246435 -0.0756781 0.400133
-0.025494 -0.0318591 0.111107
-0.337753 -0.0758061 0.414035
-0.0507406 -0.101988 0.581771
0.158844 -0.138671 0.5781
0.0544702 -0.0891494 0.445443
-0.138214 -0.0820602 0.465027
0.00598433 -0.0167887 0.514883
-0.0771983 -0.0255206 0.0316168
-0.00585931 0.0793108 0.0923993
0.134297 -0.0794085 0.563443
0.138076 -0.0937443 0.618867
0.0450892 -0.116828 0.486288
-0.0548228 -0.114259 0.563863
0.0525565 -0.0952109 0.685873
-0.00203979 -0.131361 0.668185
0.0569669 -0.0798352 0.530462
0.0091285 -0.0176312 0.667766
0.0324434 -0.0262675 0.404636
0.0464633 -0.106806 0.420849
-0.122197 -0.0830275 0.48063
-0.135231 -0.135644 0.527359
0.158032 -0.119777 0.544047
0.1874 -0.0880575 0.444125
-0.0540342 -0.0896956 0.549346
0.0446349 -0.108635 0.678832
-0.0730371 -0.103581 0.458175
0.170553 -0.0918149 0.501086
-0.00689829 -0.0126004 0.223267
0.0543047 -0.11294 0.56696
-0.109349 -0.102104 0.487844
-0.0716785 -0.028051 0.0320236
0.0408491 -0.105514 0.834534
0.152054 -0.119418 0.533852
-0.00174256 -0.0194464 0.787871
0.225364 -0.0860197 0.436476
0.368789 -0.0728455 0.385929
0.0560035 -0.0823474 0.642546
-0.0568213 -0.0677981 0.7612
-0.0532942 -0.0924573 0.32133
0.261329 -0.0830949 0.461177
0.0292162 -0.124053 0.386743
-0.0753731 -0.0326079 0.0868658
0.0390721 -0.0617571 0.853956
0.00671623 0.0106658 0.148275
0.307974 -0.0703536 0.426004
0.155451 -0.0809442 0.49638
-0.134114 -0.144702 0.548279
-0.0339921 -0.0338401 0.796253
-0.0952681 -0.0274471 0.0316723
-0.320013 -0.0706569 0.36729
-0.211075 -0.0813589 0.412853
0.159681 -0.116498 0.62847
-0.0060467 -0.0201579 0.257472
0.0112626 -0.12889 0.507443
-0.0564168 -0.0808036 0.470807
-0.00446725 0.0937202 0.0696512
0.0774919 -0.0854932 0.511748
0.0850142 -0.0850803 0.542307
-0.0104107 -0.129118 0.496189
-0.00743009 0.018663 0.160069
-0.172284 -0.0794941 0.497396
-0.0333797 -0.070508 0.146162
0.00683951 0.0458877 0.12597
-0.0158338 -0.0194282 0.329372
0.0423498 -0.0876259 0.851683
-0.0453609 -0.0517289 0.82343
0.374414 -0.065705 0.393247
-0.0311721 -0.0696874 0.132152
0.00956626 -0.0177485 0.67745
-0.0581881 -0.0718171 0.324185
0.0344421 -0.0528977 0.850063
0.101456 -0.0863308 0.42216
-0.129187 -0.082643 0.506602
-0.144198 -0.0184404 0.0249564
0.0127125 -0.0242303 0.798119
-0.0462861 -0.106983 0.420468
-0.0520148 -0.0972324 0.348962
0.0769738 -0.105597 0.464524
0.0482089 -0.117721 0.500947
0.0522207 -0.0964644 0.555457
-0.0466405 -0.0401801 0.592438
-0.00563821 -0.105409 0.203407
-0.0570138 -0.07966 0.654388
-0.183222 -0.0793326 0.437754
-0.108613 -0.0225223 0.0273638
0.0575953 -0.0706881 0.421033
0.0105932 -0.0452611 0.0387979
0.342884 -0.0679106 0.402786
-0.104269 -0.0853037 0.448445
0.119328 -0.103915 0.62735
0.0334697 -0.12149 0.550106
-0.0177918 -0.0199528 0.70463
-0.0236806 -0.0215307 0.447746
0.0560586 -0.0821415 0.76652
0.0561273 -0.0818855 0.570546
-0.0401074 -0.0405792 0.797144
0.0294332 -0.0684266 0.879852
-0.00206202 0.00325474 0.05841
0.0472458 -0.106024 0.473129
-0.00426831 0.125236 0.0553804
-0.0511369 -0.0283328 0.114034
-0.0506678 -0.0448342 0.455644
0.216338 -0.0767639 0.455376
-0.0449694 -0.107507 0.31593
-0.047246 -0.0410701 0.537844
-0.125357 -0.0914903 0.445746
0.0580671 -0.0746464 0.349541
-0.0830344 -0.0916294 0.561976
0.00224797 -0.0200606 0.063698
-0.0543811 -0.0894818 0.621319
0.00574898 -0.130368 0.733661
0.381649 -0.0716194 0.384069
-0.0440532 -0.0375924 0.541892
0.054178 -0.0902399 0.710287
-0.0236268 -0.0616354 0.880969
0.0580365 -0.0723348 0.618732
0.00839501 -0.0174346 0.375235
-0.17433 -0.0823271 0.513595
0.0248013 -0.125262 0.328042
-0.0451412 -0.0389653 0.762448
-0.0548168 -0.0867751 0.672894
0.0245705 -0.0258377 0.19013
-0.0567643 -0.0675854 0.735766
-0.132866 -0.144167 0.630513
-0.00525354 -0.00121573 0.122384
-0.0028105 -0.0159386 0.369386
-0.0510943 -0.0961212 0.43708
-0.00685551 -0.130071 0.618126
-0.0351122 -0.118157 0.528957
0.0182926 -0.108841 0.234968
-0.00489601 -0.109502 0.896017
-0.0262268 -0.0495497 0.859886
-0.0565839 -0.0812645 0.47643
0.0118288 -0.0202969 0.19273
0.34267 -0.0679258 0.406736
0.0580585 -0.0713332 0.604071
0.138735 -0.0945637 0.590737
0.000977641 -0.0219725 0.130531
0.0441861 -0.0558299 0.208338
-0.056789 -0.0794148 0.597672
-0.0534869 -0.0277206 0.0357677
0.142204 -0.018848 0.0504524
-0.191143 -0.0797586 0.414841
-0.00440116 0.00219482 0.103337
0.0573754 -0.0698675 0.540962
0.177088 -0.0173708 0.000793391
0.0625613 -0.0863175 0.494287
0.158222 -0.0807532 0.471676
-0.117815 -0.143385 0.60014
-0.0350204 -0.0778854 0.873984
0.0251683 -0.125164 0.693394
-0.0318289 -0.0372014 0.0955274
0.0527125 -0.0620856 0.787201
-0.00462536 -0.0164249 0.371653
-0.0566676 -0.0809522 0.592677
-0.0448817 -0.0384206 0.539636
-0.0658112 -0.0861402 0.560043
0.251157 -0.0743303 0.447301
0.0398206 -0.0467115 0.191292
0.126989 -0.0956821 0.586184
0.00272676 -0.129905 0.313109
-0.23868 -0.0752045 0.466546
0.137218 -0.147785 0.563178
0.0452971 -0.0643278 0.210121
0.0557497 -0.0638001 0.336582
-0.138677 -0.150704 0.615964
-0.152541 -0.081985 0.442578
0.00391371 0.0904832 0.0595276
-0.147455 -0.103001 0.543511
0.00314056 0.0745815 0.0541025
0.0464076 -0.0536517 0.244482
0.0490532 -0.0481406 0.290864
-0.000388147 -0.0209683 0.0564295
0.00027629 -0.0188467 0.0977693
0.0511164 -0.0465085 0.489645
0.271353 -0.0744976 0.461174
0.00573969 0.0676833 0.106109
0.0483563 -0.0421804 0.347712
0.0299705 -0.0237946 0.717606
0.338535 -0.0740528 0.427044
-0.231609 -0.0859285 0.467879
-0.266076 -0.0732865 0.449777
-0.0473603 -0.100178 0.81121
-0.0714156 -0.0323639 0.100979
0.0440457 -0.116149 0.483788
-0.357801 -0.0738946 0.409184
-0.135895 -0.0939416 0.623424
0.224295 -0.0866268 0.480636
0.0508512 -0.101575 0.449088
0.00731409 0.0148509 0.159115
0.0176037 -0.0702166 0.0894542
0.000133232 0.025479 0.164968
0.0339047 -0.100512 0.868058
0.00145544 -0.131518 0.357693
0.171513 -0.0808321 0.511295
-0.080244 -0.024409 0.0526738
0.0521587 -0.0878142 0.472819
-0.048697 -0.0925517 0.286954
-0.00374376 0.0950655 0.0423366
0.0467468 -0.0405709 0.753647
0.228041 -0.0761032 0.433267
-0.00721692 -0.0171193 0.56217
-0.0078582 -0.0172911 0.744903
-0.114412 -0.1138 0.554744
-0.0189268 -0.0699142 0.896913
-0.0312451 -0.0296969 0.124845
-0.161094 -0.137254 0.610648
-0.144955 -0.0819436 0.463129
-0.259623 -0.0832572 0.457373
-0.00405074 0.130973 0.0513861
0.180208 -0.0908782 0.458924
0.0118394 -0.0183576 0.501639
0.0524419 -0.0956387 0.334946
0.394511 -0.0647543 0.374685
-0.0942708 -0.0866044 0.429133
-0.0486424 -0.0700513 0.831469
-0.312882 -0.0774463 0.398715
0.0269423 -0.124689 0.556674
0.0544036 -0.0869606 0.770974
0.000118952 -0.00115233 0.050023
0.0408322 -0.0283908 0.0554117
0.00678127 -0.0164208 0.232727
0.0263418 -0.0343577 0.09527
0.0475854 -0.0414095 0.361347
0.0171998 -0.019794 0.379981
-0.137626 -0.102628 0.529055
0.181233 -0.0805247 0.415827
-0.0288589 -0.0229182 0.56267
-0.0471672 -0.0671952 0.832757
0.0329182 -0.121632 0.560254
0.00173233 0.0493263 0.0448597
-0.0466047 -0.0404288 0.642278
-0.269739 -0.0822908 0.431567
-0.00388353 0.0866957 0.0601934
0.197722 -0.0793873 0.409858
-0.0536761 -0.0910324 0.376485
-0.136515 -0.151283 0.596727
-0.0355202 -0.0293443 0.402191
-0.0318331 -0.0332058 0.801256
-0.204962 -0.0783024 0.424799
0.0247314 -0.125281 0.531473
-0.0521739 -0.061604 0.285383
0.0160598 -0.0224391 0.134095
-0.0556396 -0.0720895 0.787548
-0.150401 -0.0895076 0.448835
-0.0628276 -0.0339048 0.086566
0.251566 -0.0743021 0.454216
-0.0249434 -0.029593 0.0676017
-0.13107 -0.0204205 0.020029
0.0516576 -0.0677143 0.807493
0.0132793 -0.0286401 0.821774
-0.00978599 -0.10369 0.200599
-0.156664 -0.133719 0.549834
-0.147006 -0.0956694 0.516656
0.0526564 -0.094838 0.387467
-0.0207751 -0.045287 0.0561509
0.0409571 -0.0457618 0.206942
0.0216906 -0.126096 0.473802
-0.0551461 -0.0615464 0.518753
-0.0356446 -0.0520397 0.846503
-0.0416973 -0.0355214 0.327689
-0.0118949 -0.0183727 0.541154
-0.250124 -0.0789816 0.403197
0.079954 -0.0245096 0.063815
0.0258704 -0.0570109 0.0863578
-0.113118 -0.124299 0.62952
0.163329 -0.130212 0.603414
-0.0837734 -0.0316991 0.0828005
0.00516215 0.0650909 0.0950813
0.0345679 -0.115496 0.811092
0.0208195 -0.126329 0.723363
-0.0474122 -0.105857 0.495428
-0.0408318 -0.0346559 0.692243
-0.0374273 -0.115842 0.648833
-0.0246182 -0.0273712 0.167461
-0.000766228 -0.0855535 0.119411
-0.0177706 -0.0216014 0.775984
-0.0539611 -0.0899685 0.409402
-0.148773 -0.0220953 0.0137855
-0.207711 -0.0773569 0.473583
-0.0130812 -0.128403 0.509437
-0.0049989 0.0918044 0.0697197
0.0059355 0.0011688 0.135664
0.0517191 -0.0983362 0.522117
0.146829 -0.0880763 0.499413
-0.0418486 -0.109149 0.798189
-0.0160641 -0.0194899 0.690106
-0.00702561 -0.0198493 0.279508
0.154719 -0.0871042 0.524687
0.00380775 0.091184 0.0580881
0.151482 -0.0976187 0.590162
-0.048118 -0.0879642 0.830991
0.0170908 -0.0212476 0.222591
0.00633722 0.0595416 0.121664
0.171827 -0.0854308 0.4304
0.0511077 -0.100618 0.688354
0.155113 -0.13494 0.547911
-0.00495811 -0.0186577 0.180085
-0.139294 -0.0820531 0.489944
0.00340118 0.124237 0.0452275
0.382644 -0.0715081 0.373338
0.0475714 -0.0885693 0.460861
0.141472 -0.0941251 0.470679
0.0504485 -0.102821 0.684652
0.00700731 0.00538373 0.160574
0.0345793 -0.0756642 0.16106
0.380054 -0.0653099 0.38437
-0.0335236 -0.119746 0.740423
0.183578 -0.0790126 0.465672
-0.061803 -0.0863613 0.561256
-0.00423696 0.129205 0.0540454
-0.0272534 -0.0299085 0.0488713
-0.0219962 -0.0280641 0.119363
-0.256705 -0.0790189 0.470786
-0.206594 -0.0839837 0.425439
0.124975 -0.0925367 0.515605
0.0904975 -0.104636 0.473747
0.25094 -0.0743447 0.433949
0.0552288 -0.0671235 0.303117
-0.0947296 -0.0235091 0.038037
0.0408307 -0.112439 0.414755
-0.0202564 -0.0206364 0.317488
-0.396177 -0.0662372 0.346065
-0.0433006 -0.0936609 0.255924
0.141414 -0.0917206 0.459008
0.0392876 -0.120001 0.513838
-0.348471 -0.0731176 0.379225
-0.126775 -0.148626 0.580836
0.125785 -0.0831391 0.469742
0.0546513 -0.0884734 0.672358
-0.0260498 -0.0221655 0.526429
-0.0459883 -0.0429339 0.272075
-0.0160999 -0.0868446 0.139928
0.133904 -0.0958354 0.517807
0.0335091 -0.11976 0.419126
0.0499637 -0.0920878 0.806209
0.00515482 0.0149066 0.114154
-0.0148899 -0.0776899 0.913545
-0.36577 -0.0664028 0.3779
-0.123138 -0.0829758 0.483745
-0.240153 -0.0754513 0.422489
-0.0993895 -0.0902688 0.553512
0.110795 -0.0855831 0.425464
-0.0412635 -0.0350876 0.387755
-0.104624 -0.029378 0.0658478
0.0288539 -0.124099 0.31864
-0.0347686 -0.0285927 0.430748
-0.164778 -0.0859004 0.432236
0.141161 -0.0194522 0.0172015
-0.0831368 -0.108804 0.540652
-0.0579314 -0.0865712 0.502446
-0.0397614 -0.0937039 0.242402
-0.0343742 -0.0281983 0.551235
-0.117564 -0.13643 0.554345
0.0535892 -0.055737 0.351713
-0.00961035 -0.0813507 0.112446
-0.0555893 -0.0632005 0.492244
-0.0471802 -0.106089 0.447321
0.0262615 -0.124871 0.440888
0.0458195 -0.10745 0.499277
-0.335186 -0.069249 0.372053
0.0467806 -0.106489 0.723408
-0.328402 -0.073372 0.379467
-0.00282849 0.0406584 0.0585591
-0.111759 -0.127519 0.56472
0.156338 -0.105051 0.571044
-0.00284373 0.0403788 0.0588094
0.0281136 -0.124375 0.657357
-0.0405484 -0.0375188 0.781158
-0.0494274 -0.0429665 0.539064
0.133099 -0.150436 0.616906
0.0527194 -0.0946031 0.62522
-0.147884 -0.085112 0.427348
-0.170961 -0.0881618 0.443598
-0.222762 -0.0766933 0.483214
0.102627 -0.026088 0.0848233
0.00707964 -0.0157327 0.242421
0.00318313 0.135857 0.0662724
-0.0064002 -0.106662 0.210149
0.144889 -0.0829353 0.558311
-0.15195 -0.109823 0.536541
-0.0521544 -0.0967113 0.76525
-0.252958 -0.0822296 0.419249
0.029433 -0.0376153 0.112985
-0.0395208 -0.0333449 0.472342
-0.0277356 -0.0320683 0.144537
-0.056196 -0.0654645 0.486486
0.0205528 -0.0220633 0.229869
-0.126093 -0.0259647 0.0282516
0.0236773 -0.0229652 0.225669
0.0553641 -0.0298976 0.0387431
-0.0741204 -0.111107 0.545907
0.00758332 -0.022508 0.796186
-0.101348 -0.0852132 0.54691
-0.0516108 -0.0979412 0.317497
0.00391941 0.0542713 0.0733612
-0.0490895 -0.10418 0.340981
-0.305242 -0.0789054 0.417666
-0.00563996 -0.130397 0.695032
0.264521 -0.0733953 0.448805
0.131283 -0.0965052 0.522
0.271964 -0.0820783 0.427203
0.00615535 -0.0200405 0.265345
-0.0626248 -0.0923763 0.572353
-0.20455 -0.0775747 0.489531
0.132618 -0.0813739 0.483924
-0.00368213 0.0307084 0.0774493
-0.157628 -0.0819441 0.43096
-0.0890086 -0.0236649 0.0558586
-0.137274 -0.0973217 0.589847
0.055372 -0.0623907 0.75655
0.0381268 -0.0581758 0.853876
0.0515197 -0.0480134 0.728782
0.0490944 -0.0429185 0.477257
0.0391239 -0.0350009 0.0620388
-0.0344532 -0.0370955 0.113025
-0.0389119 -0.0943226 0.24151
0.0284328 -0.0338005 0.129522
0.0218093 -0.0210292 0.74537
0.0304935 -0.122776 0.356037
0.308057 -0.0786382 0.432172
-0.137179 -0.102747 0.560244
-0.00210208 -0.0197461 0.27673
0.186017 -0.0822357 0.415619
0.0477795 -0.10549 0.457302
-0.0523759 -0.0958848 0.723497
-0.114805 -0.134755 0.558731
0.0498626 -0.117302 0.533873
-0.113656 -0.0283629 0.0564776
0.0450039 -0.0397915 0.302314
-0.0432341 -0.118995 0.542415
-0.152428 -0.117234 0.536151
-0.119451 -0.142704 0.572097
-0.0953399 -0.0865212 0.429435
-0.320008 -0.0695108 0.404942
-0.0058478 -0.0146423 0.187714
0.0695215 -0.0879641 0.564648
0.0938243 -0.106073 0.532735
-0.0396314 -0.0334555 0.535991
0.0541996 -0.0901594 0.663911
0.0482061 -0.105063 0.648976
0.252813 -0.0742152 0.461634
0.202712 -0.0784888 0.424767
0.050553 -0.102688 0.418557
-0.1271 -0.083725 0.556439
0.0533308 -0.0547727 0.380558
-0.0330165 -0.120253 0.57786
-0.223098 -0.0769385 0.420769
-0.0313783 -0.121891 0.585246
-0.115063 -0.0216873 0.0297993
0.0498005 -0.0800458 0.269166
-0.038885 -0.120107 0.555082
-0.196231 -0.0883215 0.445963
0.257815 -0.0814444 0.415637
-0.345945 -0.0684022 0.371019
0.146999 -0.0910594 0.485886
-0.325841 -0.0769425 0.425098
-0.162063 -0.0196064 0.00426686
0.0797524 -0.0853699 0.532669
0.0200003 -0.0352982 0.0551333
-0.12836 -0.101831 0.545477
-0.0379028 -0.120355 0.519329
0.159985 -0.0226623 0.0166935
0.0526629 -0.0948138 0.764264
0.055499 -0.0628646 0.619995
0.139337 -0.150281 0.619933
-0.242862 -0.0848554 0.462946
0.0222782 -0.0301783 0.0563742
0.125877 -0.0966608 0.561299
-0.0488943 -0.0427184 0.670997
0.306486 -0.070932 0.391562
0.0418916 -0.0357157 0.750863
-0.00475007 -0.0192838 0.141224
-0.014422 -0.126311 0.818806
0.00265172 -0.0187268 0.140891
-0.113313 -0.0214429 0.0383846
0.249882 -0.0755165 0.396356
0.0539691 -0.057155 0.507616
-0.194928 -0.0782335 0.46271
-0.185681 -0.0788686 0.475741
0.169616 -0.0218584 0.0305727
0.0573819 -0.071534 0.770277
0.0378814 -0.0317055 0.51515
-0.00537286 -0.0729265 0.920204
0.110327 -0.0966052 0.455134
0.0572217 -0.0788842 0.59475
0.00102201 -0.0154589 0.701967
0.0174665 -0.0764389 0.106117
0.0653195 -0.0334956 0.0706408
-0.108426 -0.126391 0.617295
0.0222331 -0.0859132 0.151387
0.0499467 -0.0870155 0.569279
0.327515 -0.0689862 0.415637
0.0234523 -0.0310105 0.0977354
0.0191639 -0.0227696 0.162657
0.057459 -0.0769155 0.57651
0.139192 -0.102208 0.570248
-0.0255373 -0.0901805 0.893698
-0.0260541 -0.124927 0.420634
0.0220883 -0.0995929 0.196892
-0.0300636 -0.0308518 0.191372
0.000855691 -0.03768 0.856724
-0.0556847 -0.0835361 0.435003
0.0525741 -0.0879055 0.789089
0.0038579 -0.0144539 0.105216
0.00242983 -0.0111082 0.0674046
0.0430453 -0.110224 0.570004
-0.0804009 -0.024542 0.0744042
-0.0108506 -0.0180929 0.323749
0.0567927 -0.0676929 0.517183
-0.0175365 -0.127209 0.64194
-0.0257821 -0.125 0.718891
-0.232357 -0.0756458 0.447337
0.0544202 -0.0588385 0.386247
-0.00454427 0.0252457 0.0974855
-0.000472886 -0.131781 0.477896
-0.0302451 -0.0309265 0.200273
-0.0265842 -0.0309101 0.144635
-0.036916 -0.120383 0.568077
0.356658 -0.0674459 0.37194
0.0933863 -0.030502 0.0610344
-0.375487 -0.0700962 0.365461
0.0409101 -0.112359 0.671861
0.0376836 -0.0537285 0.152525
-0.00505207 0.0771503 0.0881705
-0.0491162 -0.0429403 0.748925
0.0180822 -0.102583 0.205756
0.164159 -0.0858303 0.519701
-0.225967 -0.0766136 0.423275
0.168457 -0.0920167 0.492015
0.0313817 -0.121888 0.525897
0.0535446 -0.107537 0.464677
0.01528 -0.114622 0.872976
-0.0436011 -0.108258 0.786275
0.00715472 0.00309141 0.206938
0.0554794 -0.083193 0.770212
-0.0988998 -0.0229955 0.0390952
-0.211506 -0.0794383 0.403469
0.222058 -0.0778559 0.396316
-0.000169096 -0.104425 0.90892
-0.0469492 -0.0329497 0.0528415
-0.0393049 -0.0909626 0.230035
-0.049972 -0.0306987 0.042036
0.284367 -0.0799268 0.409492
0.0387115 -0.114558 0.439877
0.349371 -0.074697 0.39297
-0.122873 -0.104844 0.545856
0.0569189 -0.0711853 0.7755
-0.211643 -0.0783185 0.407993
-0.0817123 -0.108592 0.483922
0.0631183 -0.0934028 0.571697
0.00349669 -0.0214825 0.166078
0.28982 -0.0770809 0.395779
0.231221 -0.0788688 0.401728
-0.148307 -0.13429 0.536543
0.130775 -0.0825855 0.478584
-0.00671484 -0.0169848 0.467868
-0.0377006 -0.115569 0.72862
0.0480961 -0.0419202 0.717785
-0.0536483 -0.0559568 0.336188
-0.0555548 -0.0840209 0.386239
0.326653 -0.0767525 0.428513
0.0537109 -0.0561913 0.5695
0.313927 -0.0775367 0.436427
-0.0163536 -0.127526 0.38519
0.144794 -0.082841 0.540048
0.00446118 -0.0967839 0.922121
0.0449758 -0.0675307 0.83976
0.252681 -0.0746312 0.415612
0.00489905 0.000767822 0.114246
0.0307876 -0.0452045 0.109604
-0.0384633 -0.0545267 0.155091
0.0559825 -0.0646688 0.47209
-0.23736 -0.0752959 0.45074
-0.0103595 -0.129132 0.544293
-0.0271077 -0.022449 0.520913
-0.0241627 -0.125433 0.545572
-0.0135249 -0.0188095 0.654115
-0.175367 -0.0806072 0.509388
-0.0725816 -0.103848 0.458744
-0.00524449 0.0255647 0.111937
0.0454452 -0.107824 0.586042
0.247288 -0.0755297 0.402415
-0.00166393 -0.131462 0.716885
-0.000774223 -0.00577868 0.0543958
-0.340548 -0.0680744 0.410859
0.00686289 -0.0169302 0.237985
0.0557715 -0.0832131 0.573563
0.0476192 -0.10565 0.521567
0.0232617 -0.0563018 0.874312
0.0987202 -0.0228871 0.0686033
-0.0565629 -0.0668339 0.572138
0.0610839 -0.097354 0.441524
-0.304309 -0.0706099 0.42421
0.171685 -0.0799547 0.457085
0.00496443 0.117364 0.0595508
-0.0634022 -0.0259721 0.0662933
0.286092 -0.0718854 0.442113
-0.124177 -0.0983186 0.505044
-0.0530426 -0.0275406 0.043496
0.183831 -0.0905304 0.486668
0.0527434 -0.0525806 0.388862
-0.190915 -0.0835986 0.422595
0.121152 -0.146722 0.617526
-0.035608 -0.117661 0.485413
0.0289419 -0.0229405 0.350676
0.0309454 -0.120601 0.312334
-0.0332577 -0.0289224 0.113296
0.000447895 0.0604911 0.134202
-0.273391 -0.075734 0.388364
0.00077358 0.0919447 0.0286733
-0.0853345 -0.102333 0.457268
0.0371307 -0.0309548 0.373192
-0.0403407 -0.0610017 0.171636
-0.137033 -0.0982893 0.554116
-0.161754 -0.11687 0.568923
-0.00686915 -0.130067 0.572932
0.0414588 -0.0900628 0.853515
0.0760613 -0.0304481 0.0441337
-0.00734194 0.0223171 0.145082
-0.226212 -0.0777427 0.395957
-0.0505947 -0.102532 0.766219
0.0624109 -0.101618 0.451895
0.0382362 -0.0446365 0.82421
-0.000811303 0.0957614 0.0278521
0.119465 -0.104286 0.561902
0.0232814 -0.0214236 0.610293
-0.0075164 -0.129894 0.731882
0.0222585 -0.125944 0.57258
-0.298151 -0.0787997 0.404632
-0.053825 -0.0813354 0.794943
0.0637468 -0.0862512 0.512503
0.266232 -0.0826246 0.425775
0.106065 -0.0221259 0.0485848
0.136908 -0.0257859 0.028749
0.0243976 -0.0962023 0.192644
-0.168106 -0.0800748 0.473039
-0.0582596 -0.0739265 0.417309
0.179473 -0.0800827 0.434231
0.119856 -0.140157 0.628066
0.0662095 -0.0887331 0.422924
-0.00897325 -0.129503 0.529414
0.109065 -0.102178 0.505237
0.000514461 -0.093878 0.925544
-0.0319277 -0.121342 0.693032
0.325398 -0.0709737 0.367353
0.0511171 -0.0276953 0.0446627
-0.0437845 -0.0654353 0.201601
-0.00055066 0.0467115 0.039795
0.165349 -0.0224363 0.023781
-0.0739557 -0.0275793 0.0302343
-0.036196 -0.0551636 0.137011
0.0433485 -0.109921 0.532845
-0.260558 -0.073672 0.437632
-0.0133915 -0.12832 0.514559
0.0584908 -0.0738014 0.767863
0.145049 -0.145384 0.627812
-0.281191 -0.0722276 0.42656
0.00169202 -0.0221842 0.116787
0.00279086 -0.0188752 0.134554
0.130669 -0.0840795 0.533335
0.0531042 -0.0609537 0.29457
-0.108802 -0.083767 0.513262
-0.054742 -0.0881351 0.704979
0.108091 -0.119341 0.601781
0.0362562 -0.0300803 0.398875
-0.0568009 -0.0793704 0.750106
0.141287 -0.119297 0.5123
-0.013468 -0.025069 0.0564294
0.0543625 -0.0884714 0.386748
-0.158462 -0.106897 0.572169
0.00429217 -0.0163352 0.327934
0.0559136 -0.079429 0.776815
0.00112939 0.133259 0.0701792
0.0464378 -0.0627932 0.217263
0.0370724 -0.0320613 0.298829
0.120687 -0.0276195 0.0379493
0.0787987 -0.109909 0.505795
0.0896951 -0.0848208 0.519011
-0.124744 -0.0893749 0.545927
0.0459938 -0.0296006 0.119431
0.141679 -0.0945842 0.60529
0.15038 -0.082618 0.428097
-0.0320426 -0.0587987 0.12034
-0.0546351 -0.0586288 0.451668
-0.156029 -0.106202 0.565136
0.00133301 0.0231922 0.166287
-0.0543434 -0.0585511 0.51167
0.0404662 -0.0547765 0.175807
0.0571944 -0.0691918 0.410825
0.075148 -0.0856228 0.516786
0.0826313 -0.0316987 0.0702932
0.163812 -0.091231 0.515742
0.0488598 -0.102706 0.786195
0.0602891 -0.0866063 0.490596
-0.044782 -0.0401384 0.775741
-0.197623 -0.080619 0.501418
-0.123432 -0.0966388 0.599329
0.146688 -0.0847352 0.533098
0.155655 -0.115238 0.537629
0.0371743 -0.0309984 0.585133
-0.00554985 -0.0927115 0.151479
0.0420158 -0.0358399 0.330476
0.111514 -0.11885 0.56328
-0.338118 -0.0731131 0.378683
-0.00480481 0.135748 0.0605767
-0.0512182 -0.0468882 0.666263
-0.0348168 -0.0551693 0.13074
-0.0192012 -0.0203305 0.563862
0.0318332 -0.121436 0.721617
0.19206 -0.0786918 0.435016
-0.0314036 -0.116352 0.297672
-0.0327694 -0.0752467 0.150973
0.0571218 -0.0689211 0.677917
0.302131 -0.0708955 0.403012
-0.130067 -0.0827368 0.484958
-0.0389587 -0.0865783 0.864652
0.0977725 -0.100332 0.460327
0.0538649 -0.0582224 0.314606
-0.0152029 -0.10574 0.894533
0.0297682 -0.123501 0.4966
0.0430371 -0.110232 0.482379
-0.12562 -0.0861034 0.528651
0.340655 -0.07553 0.419998
-0.0218679 -0.021045 0.530803
-0.198389 -0.0791736 0.497783
0.32963 -0.0750135 0.387597
0.0344083 -0.0589096 0.862859
0.0233364 -0.0214384 0.697327
-0.0891314 -0.10727 0.504454
-0.0363001 -0.116969 0.453901
0.0298486 -0.0236727 0.632495
0.112415 -0.0284936 0.0542379
-0.0548292 -0.0878094 0.755234
0.0792374 -0.0267092 0.027031
0.148175 -0.0986131 0.568826
0.306474 -0.0704761 0.404534
-0.0347957 -0.0287881 0.0620977
-0.050358 -0.0657497 0.813616
-0.0759165 -0.0248158 0.0569389
-0.0460696 -0.088389 0.258688
-0.375914 -0.0716325 0.373304
-0.139242 -0.0804471 0.499975
0.058544 -0.0731453 0.514475
-0.214651 -0.0875492 0.454961
-0.0319325 -0.104464 0.864171
-0.0464737 -0.0402979 0.585191
-0.0319311 -0.0257552 0.487368
-0.370256 -0.0725513 0.405935
0.0277683 -0.0833526 0.890742
0.12118 -0.0921505 0.444661
-0.0358134 -0.0296375 0.33895
-0.00239147 -0.0158263 0.431356
-0.0437634 -0.077112 0.221354
0.0668557 -0.0334351 0.0810435
0.00285937 0.0233775 0.0631337
-0.0181614 -0.0262609 0.0912021
-0.0163761 -0.12752 0.360054
0.191119 -0.0787519 0.49934
-0.0299548 -0.0237789 0.720129
-0.367377 -0.06916 0.360274
0.00794994 -0.119855 0.862162
-0.0514873 -0.099201 0.752294
0.0574735 -0.0768616 0.504432
0.026102 -0.122036 0.574688
0.129552 -0.0949991 0.605097
0.119673 -0.0837316 0.464578
0.161803 -0.117044 0.568937
0.271738 -0.0821008 0.437552
0.382518 -0.0664629 0.347295
