0.130759 -0.0918226 0.43016
-0.102084 -0.0371305 0.0445665
0.0170513 -0.0387435 0.12863
0.019463 -0.108268 0.543998
-0.00259415 -0.0112085 0.117364
-0.0305382 -0.0561241 0.239652
0.00767044 -0.033088 0.0548351
0.0344408 -0.0800225 0.341734
-0.121336 -0.0310186 0.0638717
-0.412538 -0.063309 0.319366
-0.119717 -0.0976667 0.526048
0.0109877 -0.112321 0.682032
0.0685349 -0.0418899 0.0545464
0.0415156 -0.0463604 0.0660907
-0.0282971 -0.0394469 0.326505
0.0255483 -0.040991 0.807855
-0.0245919 -0.0406098 0.214144
-0.261205 -0.0796943 0.457355
-0.133329 -0.0932024 0.463103
0.0361285 -0.0638394 0.744222
-0.0103243 -0.11186 0.51159
-0.0541746 -0.102946 0.493211
0.0362146 -0.0687187 0.553187
0.0362686 -0.0804391 0.463044
0.0023234 0.0260181 0.112354
0.205111 -0.0864626 0.461016
-0.0960273 -0.0982144 0.489733
0.0475525 -0.08082 0.565312
0.202807 -0.0860115 0.506532
-0.20003 -0.0851901 0.427261
0.0157654 -0.0310954 0.618881
0.0203593 -0.0310808 0.380444
0.228909 -0.0742631 0.411464
-0.0115524 -0.0391195 0.0680018
-0.0233558 -0.056479 0.143658
-0.410578 -0.0578903 0.303413
0.136991 -0.0770143 0.506371
0.0240903 -0.105246 0.799316
-0.0185016 -0.0395343 0.858762
-0.0358048 -0.0740495 0.539305
-0.000193933 -0.00249952 0.0533074
0.279476 -0.0785459 0.418016
-0.0404302 -0.101293 0.429583
0.0379397 -0.0432239 0.062459
-0.365542 -0.0686004 0.352365
0.00269631 0.00859943 0.132797
0.00966784 -0.111024 0.53393
0.135036 -0.0840335 0.438541
-0.0237139 -0.107194 0.397852
7.78148e-05 0.046579 0.133792
-0.205284 -0.0807026 0.394125
-0.0262865 -0.0391089 0.642635
-0.0374696 -0.0834801 0.53701
-0.285341 -0.0756572 0.368825
0.129642 -0.08182 0.465578
-0.0364299 -0.0660646 0.635203
-0.00799573 -0.116039 0.803994
-0.0103473 -0.0864625 0.178828
-0.124259 -0.0769781 0.542453
0.121609 -0.0930619 0.436891
-0.0160232 -0.0412628 0.110157
-0.226518 -0.0780125 0.38538
-0.0384437 -0.0536602 0.126379
-0.289238 -0.0777159 0.416528
0.242119 -0.0795866 0.380304
0.0125094 -0.0435594 0.884911
-0.1457 -0.0950524 0.531824
-0.0397366 -0.0861266 0.631385
0.011749 -0.110429 0.869576
0.0918467 -0.095328 0.423136
0.0126758 -0.0333077 0.82352
0.00815553 -0.0274015 0.483631
0.0191696 -0.0432622 0.139575
0.0179525 -0.103397 0.880907
-0.0675268 -0.105745 0.584047
0.1176 -0.0783057 0.515599
0.00312039 -0.01637 0.148051
-0.366373 -0.0654762 0.304176
-0.00979925 -0.109905 0.336261
-0.315559 -0.0659437 0.412044
-0.00762026 -0.101558 0.249832
0.065495 -0.0834303 0.605943
-0.0856527 -0.101171 0.528705
0.0298621 -0.0452873 0.26536
-0.00258095 -0.114889 0.637479
0.00732193 -0.0995423 0.237356
-0.0317192 -0.0705799 0.262845
-0.0338265 -0.0971159 0.41842
0.199563 -0.0739605 0.499104
-0.00193547 -0.00269712 0.161708
-0.0158714 -0.031396 0.64235
0.0155482 -0.0965281 0.906338
0.0363521 -0.0672584 0.72121
-0.000896525 0.0505697 0.0475333
-0.0461636 -0.0515016 0.128492
0.0304928 -0.0449203 0.693501
-0.031449 -0.0433798 0.373537
-0.0143025 -0.11355 0.814034
-0.0202189 -0.0312569 0.330582
-0.0493436 -0.104572 0.514565
0.0187793 -0.0309817 0.271367
-0.167328 -0.0872862 0.411606
-0.0314627 -0.0460164 0.644458
-0.010577 -0.111 0.410901
0.138235 -0.0797679 0.475184
-0.0786287 -0.0437721 0.070005
-0.227001 -0.0847953 0.461681
-0.0107843 -0.111282 0.55045
0.0308417 -0.0755231 0.259274
0.263928 -0.0698066 0.402687
-0.01123 -0.0560964 0.0825469
0.0228545 -0.10546 0.467544
-0.155823 -0.0923161 0.490185
-0.129043 -0.02921 0.0537577
-0.0204691 -0.0383776 0.172086
0.0169433 -0.0311591 0.208661
0.036139 -0.0708351 0.64411
-0.0182535 -0.0627365 0.139785
0.311716 -0.0711458 0.33242
-0.0439852 -0.105277 0.516078
-0.0026312 -0.0115045 0.114219
-0.134153 -0.0305021 0.0234028
-0.176329 -0.0753685 0.515249
0.0244835 -0.0394977 0.792976
-0.0348515 -0.0889262 0.383748
-0.0609724 -0.10479 0.546588
-0.0364043 -0.0694407 0.804152
-0.0543578 -0.043092 0.0540457
0.191967 -0.0799876 0.518155
0.00395571 -0.0271117 0.504722
0.0119273 -0.113302 0.755079
0.0122218 -0.0285578 0.50154
-0.131042 -0.0868214 0.423563
0.339527 -0.0663422 0.326804
-0.0565676 -0.0808989 0.555848
-0.015267 -0.109999 0.68043
0.337454 -0.0621757 0.383417
-0.0362329 -0.0677682 0.446951
0.0270974 -0.037575 0.430869
-0.00684446 -0.112556 0.510043
0.0115688 -0.0282499 0.491532
0.116795 -0.0983618 0.534324
0.184563 -0.0779887 0.440344
0.0129063 -0.112754 0.749328
-0.097119 -0.0950526 0.42806
-0.0354022 -0.0546815 0.420644
0.16906 -0.0874475 0.418394
-0.198495 -0.0742245 0.456796
-0.0347443 -0.0818803 0.623699
0.0294961 -0.0541537 0.104753
-0.0129596 -0.111542 0.693647
-0.135427 -0.0844448 0.434144
0.00283898 -0.012323 0.133196
0.0265864 -0.106964 0.524272
0.0121243 -0.0680604 0.119658
0.0131159 -0.0294441 0.555079
0.0352498 -0.0540105 0.438161
-0.0359473 -0.0615771 0.698999
0.269845 -0.0797622 0.442373
-0.174871 -0.0894645 0.470685
0.0340888 -0.0507542 0.554459
0.00780438 -0.0297797 0.69256
0.0317572 -0.0671837 0.260136
0.000578813 -0.0884882 0.94676
-0.027349 -0.0381448 0.4584
0.0264992 -0.0960344 0.314989
0.129401 -0.0284835 0.0258423
-0.0288719 -0.104009 0.402747
0.102842 -0.077958 0.541985
-0.0138679 -0.10975 0.636168
0.128224 -0.0289622 0.0488719
0.068126 -0.0904149 0.450147
-0.0152694 -0.0314029 0.666448
0.0342845 -0.0539659 0.759284
0.072748 -0.0391075 0.0989463
0.0145548 -0.0283302 0.423547
0.188397 -0.0758879 0.454323
-0.0163144 -0.0825399 0.182656
0.071424 -0.0412911 0.108687
0.00873647 -0.0682483 0.934938
-0.0269992 -0.0456031 0.0920279
-0.0739755 -0.104596 0.573562
0.0306294 -0.0583374 0.239411
-0.252099 -0.0806943 0.418306
-0.159105 -0.0897267 0.444451
0.0476554 -0.105499 0.529378
0.00292233 0.00257323 0.145887
-0.117827 -0.0306946 0.0553074
-0.0358113 -0.0916533 0.640324
-0.0262922 -0.0413656 0.790019
0.251001 -0.0726447 0.394876
0.0258268 -0.0361447 0.353807
0.0309755 -0.0929456 0.680516
-0.00121295 0.0589262 0.0483495
0.112484 -0.0982861 0.57248
0.144205 -0.0848837 0.423475
-0.0169558 -0.0913712 0.220269
0.0202807 -0.106851 0.858545
-0.0363358 -0.0669636 0.552015
-0.108668 -0.0322394 0.0623606
-0.0249013 -0.0362231 0.525884
0.403864 -0.0645234 0.330324
0.133589 -0.0961126 0.522482
-0.0152119 -0.0467174 0.0602467
-0.0125114 -0.0312096 0.722942
-0.0969809 -0.0955096 0.437012
-0.0978169 -0.0339398 0.0599065
-0.0356575 -0.0613062 0.797043
0.0322283 -0.044827 0.368698
-0.335531 -0.0642134 0.352133
-0.0219074 -0.0487906 0.158074
0.183227 -0.0748173 0.509286
-0.0583202 -0.0801094 0.576705
-0.189773 -0.087126 0.450237
-0.161497 -0.085405 0.40939
-0.000279395 -0.115288 0.648496
-0.0284794 -0.0818698 0.881019
-0.00129127 0.018063 0.148763
-0.257328 -0.0774508 0.361017
-0.11913 -0.0859447 0.437994
0.0158322 -0.109465 0.552548
-0.231302 -0.0700911 0.450881
-0.139768 -0.0760224 0.520768
-0.0866863 -0.100892 0.596166
0.0323309 -0.0508125 0.284895
0.0273135 -0.107744 0.542047
0.166003 -0.0924701 0.514961
0.0043804 -0.0261392 0.318761
-0.0124511 -0.0318223 0.757621
-0.00717325 -0.11221 0.478346
-0.0357095 -0.07829 0.623659
-0.028953 -0.044031 0.77303
0.16538 -0.0877115 0.416365
-0.298899 -0.0750027 0.376916
-0.0141823 -0.0307435 0.640877
-0.274444 -0.0714853 0.371777
0.00966336 -0.0284002 0.119796
-0.120648 -0.0360803 0.0543551
0.0361265 -0.0716713 0.706238
0.00388498 -0.0819446 0.152147
0.0127444 -0.0956658 0.915209
0.0310283 -0.0940169 0.735558
-0.0101664 -0.0269804 0.398897
-0.0354389 -0.0791534 0.731111
-0.18606 -0.0792542 0.426176
-0.00966453 -0.0291638 0.613964
0.015956 -0.0980796 0.901733
-0.0246816 -0.0995952 0.866205
-0.348195 -0.0651051 0.325393
-0.0652421 -0.0385479 0.0411617
-0.0805725 -0.0958388 0.609762
-0.0359061 -0.0607717 0.652838
-0.0314455 -0.0474211 0.752681
-0.120579 -0.0787743 0.506782
-0.108967 -0.0937485 0.425413
-0.0439995 -0.0426804 0.0751375
-0.150774 -0.0831344 0.429533
-0.0818001 -0.041457 0.0586963
0.0859982 -0.0807634 0.58201
-0.0677276 -0.0941987 0.430809
0.06573 -0.0998684 0.458573
-0.00127436 -0.0920365 0.193305
-0.236875 -0.0836367 0.453804
-0.0309325 -0.0864913 0.865108
0.0293139 -0.0439379 0.741432
0.033214 -0.0900738 0.793684
0.0160996 -0.0300894 0.519737
-0.0363473 -0.0781496 0.505646
0.120123 -0.0934316 0.441387
0.0284931 -0.0971743 0.856063
0.134791 -0.0813072 0.464693
-0.244138 -0.0695027 0.457453
-0.0125793 -0.0276867 0.376857
0.0340141 -0.0796086 0.325841
-0.0100044 -0.0294693 0.63537
0.0221213 -0.0463188 0.0876875
-0.00804046 -0.0272064 0.468944
0.0135617 -0.0287209 0.22131
0.0246443 -0.0351349 0.453924
0.0506547 -0.107271 0.613412
-0.00255497 0.0222509 0.12657
0.210565 -0.0763507 0.41832
0.0925679 -0.0786178 0.558758
-0.25157 -0.078974 0.382731
-0.0645016 -0.0430727 0.115305
0.396241 -0.0622104 0.348203
0.0146136 -0.0314628 0.690523
-0.115051 -0.0946955 0.456708
0.0220487 -0.0351825 0.236718
-0.0673918 -0.0895705 0.618897
0.0324873 -0.0998722 0.39866
0.363669 -0.0671722 0.320636
-8.67634e-05 0.0638615 0.12114
0.0493828 -0.101682 0.45637
-0.125692 -0.0977054 0.546213
-0.0359359 -0.073761 0.641452
0.0638114 -0.0392413 0.0571795
0.0362642 -0.0692748 0.703124
-0.0257415 -0.0905451 0.270869
-0.0264196 -0.0607283 0.884819
-0.0332897 -0.107446 0.546572
-0.0716102 -0.103127 0.538276
-0.0389407 -0.109146 0.587191
0.108989 -0.0318164 0.034542
0.276828 -0.0758422 0.359237
0.241613 -0.0798054 0.383928
-0.012672 -0.0699319 0.127628
-0.0364436 -0.0626794 0.390159
-0.166313 -0.0762768 0.478901
-0.00215989 0.0354046 0.0732788
-0.180932 -0.0872908 0.438903
0.343512 -0.0655973 0.327512
0.0167386 -0.0326467 0.713869
0.048902 -0.0900697 0.470427
-0.125507 -0.0829901 0.459282
0.129775 -0.0280284 0.0127883
0.138367 -0.0807733 0.465726
0.00232235 0.0273517 0.112495
-0.0337013 -0.0498183 0.330919
0.36046 -0.06817 0.335745
0.0350605 -0.0843871 0.395093
-0.0196054 -0.0307311 0.33538
-0.0179984 -0.0316204 0.578581
0.270053 -0.0794729 0.445403
-0.000299633 0.0691026 0.0384547
-0.163408 -0.0784828 0.459555
0.0324144 -0.0916809 0.835597
-0.150856 -0.0828344 0.432338
0.00363424 -0.0261062 0.202094
-0.339432 -0.0642961 0.345788
0.0898718 -0.0865643 0.599086
0.117189 -0.0987202 0.554433
0.36896 -0.0596507 0.349178
-0.13892 -0.0266664 0.00395614
0.177806 -0.0883799 0.454722
-0.100035 -0.0962628 0.458333
-0.0046078 -0.10894 0.307793
0.248117 -0.073623 0.389679
-0.11135 -0.0787572 0.560062
-0.0607116 -0.0400909 0.0795518
-0.148758 -0.0266058 0.0229582
0.0135863 -0.102055 0.264819
0.00678368 -0.0278582 0.54226
0.12647 -0.0954291 0.494434
0.0515316 -0.0849437 0.516115
0.332442 -0.0705764 0.340305
-0.035835 -0.0844039 0.472393
-0.0352552 -0.0551529 0.55135
0.0201731 -0.0315466 0.470497
0.176598 -0.0869522 0.423466
-0.0264124 -0.0979554 0.333801
-0.0282448 -0.047217 0.137138
0.234709 -0.0829305 0.436202
0.141154 -0.0760512 0.529258
-0.0246165 -0.0394359 0.786362
0.18882 -0.0890246 0.508453
0.149138 -0.0892743 0.415446
0.0252597 -0.10319 0.768528
0.240599 -0.0705455 0.431082
-0.0299262 -0.0408791 0.417989
-0.0337321 -0.0498058 0.567177
-0.404803 -0.0631656 0.304312
-0.233473 -0.0790075 0.373967
-0.00581094 -0.0262498 0.412318
0.0206226 -0.0319485 0.301989
-0.130199 -0.096793 0.549176
-0.132661 -0.0282008 0.044555
0.169569 -0.0909209 0.489576
0.251479 -0.0794968 0.393207
0.23966 -0.0719709 0.417328
0.0633298 -0.0842011 0.512921
0.00136202 -0.020795 0.194408
0.0870805 -0.0996501 0.500912
-0.00199819 0.0407275 0.0829327
-0.00258721 -0.000692625 0.156578
0.2285 -0.073148 0.422378
0.000935453 -0.0175497 0.0627181
0.00111386 -0.107487 0.289503
-0.0180358 -0.04371 0.126718
0.141486 -0.0899409 0.413605
-0.183207 -0.0897107 0.512239
0.0348807 -0.0920418 0.420958
-0.244757 -0.0823357 0.439916
-0.0226456 -0.107195 0.378373
0.0213308 -0.107461 0.373733
-0.0170711 -0.109978 0.450647
-0.410192 -0.0633566 0.316639
0.0781024 -0.0866993 0.47678
0.00257323 -0.0260866 0.341839
-0.0242539 -0.03717 0.669158
0.0928428 -0.0420366 0.0764968
-0.119368 -0.0306953 0.0596606
-0.0343847 -0.0863523 0.801038
-0.00292739 -0.0758865 0.127584
-0.00943362 -0.0286392 0.104956
0.00213035 0.0552549 0.104894
0.285271 -0.0659253 0.412891
0.0335911 -0.063855 0.287938
-0.0027992 -0.116491 0.755147
-0.0118751 -0.0276974 0.277295
0.238077 -0.0740843 0.399924
-0.0360125 -0.10763 0.553316
0.0305302 -0.046508 0.27172
-0.00803062 -0.0863851 0.941795
-0.00743603 -0.0269648 0.160281
-0.116024 -0.0358974 0.0445194
0.0014831 0.0901093 0.070596
-0.0011724 -0.0298953 0.742235
0.0703626 -0.098663 0.445229
-0.186172 -0.0787234 0.431137
-0.054996 -0.0806187 0.593188
-0.0272609 -0.0421388 0.244194
0.00207034 0.0742524 0.104106
0.0396888 -0.0432765 0.0712808
-0.0323205 -0.0497675 0.78862
0.0628828 -0.102887 0.512792
0.00433315 -0.112119 0.368554
-0.00639149 -0.0973986 0.225091
0.22855 -0.0843897 0.455993
-0.00864797 -0.0668715 0.101837
-0.0357009 -0.0612184 0.778515
0.100359 -0.0958236 0.450173
-0.35267 -0.0618147 0.350859
0.0356663 -0.0596892 0.672104
0.098896 -0.101337 0.558619
0.12324 -0.0957193 0.493836
-0.0360061 -0.0602732 0.548235
-0.0337408 -0.0495745 0.545002
0.0691392 -0.0867409 0.484436
-0.0348159 -0.0547788 0.336834
0.335783 -0.0694702 0.323212
0.0162275 -0.111979 0.794611
-0.00173605 0.0907726 0.0866132
-0.25201 -0.0791738 0.387456
-0.0482489 -0.105311 0.52689
0.142455 -0.0847138 0.425434
-0.0562434 -0.0880545 0.483297
0.0548582 -0.0490115 0.0889883
-0.000593133 0.0536659 0.12616
-0.0683325 -0.10367 0.541466
0.0718267 -0.0810966 0.539034
-0.143911 -0.027961 0.0138974
0.0467047 -0.0823388 0.549209
-0.180573 -0.0865698 0.423626
-0.0120143 -0.0584536 0.0926707
-0.215614 -0.0858528 0.465142
0.0147292 -0.0283218 0.407813
0.0209993 -0.0545955 0.101992
0.0289693 -0.0484268 0.233928
-0.32092 -0.0717858 0.346559
-0.125055 -0.0768257 0.532037
-0.0593984 -0.0948693 0.431474
-0.381858 -0.0629578 0.300336
-0.182415 -0.0745928 0.478046
0.0945236 -0.0808393 0.515482
0.123955 -0.0927038 0.434349
0.224854 -0.0742432 0.417445
0.0147853 -0.112827 0.83741
-0.314356 -0.0646942 0.406325
-0.0718396 -0.0897367 0.453439
-0.191436 -0.073957 0.50135
0.035092 -0.0813227 0.69274
0.270575 -0.0707641 0.450626
0.175581 -0.0789075 0.442288
-0.0656512 -0.0798073 0.569482
0.0206105 -0.032074 0.486567
0.0807976 -0.102906 0.554109
0.0727187 -0.104312 0.593429
0.120814 -0.0314845 0.022141
0.147831 -0.0760838 0.503534
0.0571858 -0.0438236 0.120215
0.044321 -0.0864353 0.508454
0.113873 -0.0948945 0.458436
0.113758 -0.0331356 0.0732497
-0.0304787 -0.102542 0.433337
-0.129046 -0.0819236 0.465289
0.106563 -0.0981213 0.508999
0.116806 -0.081972 0.478216
-0.401351 -0.0634796 0.305225
0.181457 -0.0900993 0.496758
-0.0346546 -0.0924744 0.409344
0.0233773 -0.0997856 0.312677
-0.22634 -0.0808435 0.380829
0.0219967 -0.107144 0.522673
0.0336178 -0.0562854 0.295817
0.0250754 -0.0357045 0.329479
-0.000457309 -0.113711 0.516233
-0.177387 -0.0904298 0.517335
-0.0322217 -0.0931808 0.812842
-0.00186921 0.00731625 0.0651967
-0.255196 -0.0753546 0.369126
-0.0350057 -0.0758139 0.342803
-0.000199965 -0.108033 0.293757
0.00268256 -0.00717499 0.0939525
-0.0119046 -0.0295267 0.593601
0.13686 -0.0936191 0.478654
-0.0341854 -0.0854745 0.695446
0.0158573 -0.0296411 0.490772
-0.040565 -0.10202 0.445069
0.201561 -0.087655 0.496352
0.0313448 -0.0932942 0.731521
0.318355 -0.0684309 0.338223
0.001648 0.0792641 0.061154
-0.0014872 0.107056 0.073775
0.0264838 -0.040081 0.702467
-0.2247 -0.0706391 0.469234
-0.198608 -0.0748212 0.504071
-0.0811064 -0.0877385 0.463448
-0.237853 -0.073107 0.409394
-0.0165745 -0.0358486 0.838619
0.0143057 -0.0281972 0.364806
-0.0350051 -0.0821728 0.72733
0.00248464 0.000710174 0.0944083
-0.00088432 -0.0260387 0.409568
-0.00272237 -0.0271285 0.508551
0.264111 -0.070959 0.391751
-0.0259669 -0.0404752 0.76496
-0.0311618 -0.0790089 0.869954
-0.181729 -0.0897185 0.515587
0.319169 -0.0730708 0.369824
-0.00254216 -0.0296227 0.722977
0.282105 -0.0762552 0.375877
-0.0176977 -0.0474803 0.0600913
0.0893736 -0.0800837 0.576392
-0.229226 -0.0825102 0.419029
-0.0396661 -0.109002 0.612863
0.205534 -0.0874512 0.488174
0.035791 -0.0753326 0.678939
-0.0874611 -0.0818624 0.51272
0.00565456 -0.0263208 0.258543
-0.0129805 -0.110447 0.539636
-0.319791 -0.0721363 0.351863
-0.00893843 -0.0280298 0.526902
0.0210637 -0.0419815 0.161502
0.0915816 -0.0882726 0.446485
-0.104254 -0.0328092 0.0512099
0.152969 -0.0873752 0.406191
-0.283097 -0.0763418 0.379124
0.0324973 -0.0484348 0.683094
0.395898 -0.0590667 0.313526
0.0336672 -0.0521788 0.755771
0.106746 -0.0812496 0.576398
0.0922967 -0.087825 0.450002
-0.395081 -0.0612215 0.348898
-0.0617467 -0.101571 0.483424
-0.0322688 -0.0909863 0.694916
0.0116274 -0.0279012 0.215821
0.0071694 -0.111626 0.399601
-0.132902 -0.0964094 0.52702
-0.0186774 -0.0308526 0.274356
-0.045757 -0.0875761 0.496683
-0.0315808 -0.0492314 0.826825
0.0168162 -0.0318847 0.645599
-0.0198647 -0.0470842 0.141402
-0.0360264 -0.07003 0.384152
0.0222087 -0.0368776 0.76532
-0.0201354 -0.0311953 0.444738
-0.175671 -0.0758607 0.472137
-0.0321203 -0.0885854 0.348203
-0.0942925 -0.0825184 0.497815
-0.0153756 -0.110236 0.582983
0.0182349 -0.107456 0.654592
-0.0354 -0.104049 0.480311
-0.0363042 -0.0776047 0.455555
0.0363589 -0.0795541 0.446731
-0.0562966 -0.0493237 0.121243
0.0605512 -0.04749 0.119466
0.0677177 -0.0427649 0.0590902
-0.00868798 -0.0290905 0.621555
-0.0264914 -0.105437 0.49465
0.320845 -0.0647282 0.368812
-0.00416664 -0.112437 0.444025
-0.0887545 -0.0973528 0.457789
0.0706822 -0.0999418 0.471822
-0.0798204 -0.103971 0.57559
-0.0352488 -0.0793763 0.654185
0.0225695 -0.0357645 0.67205
0.00259705 -0.00196041 0.087974
-0.0359713 -0.0611036 0.642654
0.110016 -0.0858566 0.449079
0.190297 -0.0772894 0.438625
0.0050482 -0.0262588 0.232083
-0.249537 -0.0758427 0.470601
-0.00363466 -0.0921186 0.937707
-0.25794 -0.0717724 0.460926
0.153913 -0.0885597 0.410561
0.0993492 -0.09782 0.488484
0.160704 -0.0890231 0.433507
-0.00245342 -0.028594 0.053506
0.0303546 -0.0963235 0.780607
-0.0711573 -0.0436117 0.0654698
0.0599882 -0.0988675 0.42471
0.298183 -0.0722609 0.340722
0.0334741 -0.0438737 0.062296
0.319859 -0.0646166 0.371617
-0.00547364 -0.0262585 0.295651
0.0696 -0.0386907 0.0808059
-0.115843 -0.0969156 0.503129
-0.0958196 -0.0784334 0.555485
0.0308125 -0.0494273 0.837295
0.0354166 -0.0580801 0.680871
-0.03306 -0.0852395 0.338772
-0.0945844 -0.0346264 0.0741814
-0.0308551 -0.104747 0.489356
-0.0352515 -0.0812101 0.76475
-0.0260231 -0.0367604 0.46535
0.293079 -0.074166 0.434263
0.0343212 -0.0857381 0.771782
-0.111788 -0.0321932 0.0671707
-0.0117081 -0.113675 0.766931
-0.00239181 -0.00158317 0.109124
-0.000956866 0.116715 0.0446635
0.0341451 -0.0641523 0.298861
-0.179779 -0.0738871 0.494531
-0.169574 -0.0856192 0.537328
-0.0333925 -0.085438 0.849417
-0.0543845 -0.0422443 0.0491973
-0.0358539 -0.0622139 0.77585
-0.00375271 -0.0261207 0.327117
0.00326953 -0.116037 0.854998
0.0360361 -0.0641228 0.820019
-0.0825347 -0.102194 0.543119
-0.118949 -0.0963257 0.573196
0.0356983 -0.0605563 0.82612
0.00224293 -0.0960863 0.214686
-0.00729621 -0.116138 0.837312
0.365969 -0.06148 0.333953
-0.384871 -0.0607078 0.314064
-0.148895 -0.0256958 0.0324286
0.0266115 -0.096314 0.318339
0.297057 -0.0741757 0.357378
-0.164446 -0.0817648 0.427379
-0.0229044 -0.104132 0.690381
0.141797 -0.0915396 0.44652
-0.0108709 -0.0298135 0.644228
-0.304784 -0.064504 0.403266
0.116476 -0.0307163 0.0394997
-0.403916 -0.0590117 0.302549
0.0217905 -0.0358763 0.733303
0.0684937 -0.0858751 0.493007
0.207034 -0.0779165 0.505329
0.100188 -0.0886697 0.436033
-0.0340289 -0.109968 0.600536
0.36341 -0.0689194 0.355522
0.0347924 -0.0916234 0.412241
-0.290357 -0.0740296 0.343837
-0.0507985 -0.0479445 0.0795983
0.117951 -0.0305793 0.0471428
0.000843405 -0.114552 0.592626
0.382511 -0.0634589 0.297436
-0.00521928 -0.114309 0.622384
-0.029718 -0.0961118 0.705795
0.0204598 -0.0806441 0.195867
-0.138371 -0.0961122 0.535358
-0.0318494 -0.106666 0.636154
-0.275551 -0.0748014 0.351515
-0.0206606 -0.0315546 0.44058
0.349395 -0.0701351 0.358045
-0.00138723 -0.0892165 0.944432
0.182395 -0.0840451 0.401436
-0.0353366 -0.0542441 0.421781
-0.0455812 -0.0806966 0.594859
0.00182252 0.067879 0.0599903
-0.0357979 -0.0740116 0.476572
0.332727 -0.0707721 0.344705
-0.245129 -0.0695715 0.43477
-0.198558 -0.0733482 0.466456
0.0917667 -0.101185 0.541294
-0.00653399 -0.112573 0.505005
0.0157167 -0.0287324 0.40771
0.408643 -0.0631353 0.309798
0.345826 -0.0708235 0.366338
0.0379178 -0.0876887 0.63421
0.165313 -0.0886897 0.435992
0.0313481 -0.0542001 0.110059
-0.183861 -0.0875282 0.449068
-0.0229314 -0.0477259 0.13772
-0.0294744 -0.0415169 0.526917
0.220224 -0.072025 0.48066
0.129696 -0.0971257 0.544184
-0.166238 -0.075707 0.485337
0.0884818 -0.099469 0.500057
-0.0589923 -0.0836193 0.523231
-0.0142791 -0.030776 0.162587
0.0284751 -0.0786905 0.882384
0.0307174 -0.0453236 0.693145
0.0488921 -0.105066 0.523557
-0.1071 -0.0819944 0.580192
0.102474 -0.0995051 0.528776
0.257697 -0.0704435 0.405694
0.0357885 -0.0728326 0.450951
0.045911 -0.0959786 0.432439
-0.249739 -0.0783412 0.367072
0.02649 -0.0995342 0.683569
0.0651395 -0.0857683 0.496859
-0.0573536 -0.0965512 0.424725
0.0289694 -0.06495 0.227272
0.0353061 -0.0545895 0.454092
0.0159185 -0.109153 0.663282
-0.198069 -0.0832446 0.391542
0.0125744 -0.0314163 0.73603
0.0328009 -0.0894621 0.708647
0.111876 -0.0335499 0.0293236
-0.136845 -0.0849923 0.427966
0.0329693 -0.0888587 0.697546
0.0364169 -0.0615919 0.386872
0.0418151 -0.084774 0.623852
-0.00826649 -0.0312823 0.778832
0.0156107 -0.103705 0.291548
-0.199048 -0.0835192 0.391973
-0.0186609 -0.0599557 0.138483
0.0224572 -0.0516906 0.16249
0.0243772 -0.101506 0.662617
-0.00331384 -0.0228655 0.190673
0.0238625 -0.0778456 0.208891
-0.00235982 -0.0101324 0.073146
0.0352567 -0.0546623 0.488329
0.133446 -0.0948168 0.496019
-0.23936 -0.0719969 0.473647
0.00330172 -0.0165782 0.159159
0.321014 -0.0632747 0.391309
0.0172076 -0.0839465 0.922336
0.213882 -0.0744231 0.431461
0.00220059 0.0444591 0.107584
0.105378 -0.079179 0.520755
0.326292 -0.066331 0.345639
-0.00658202 -0.113365 0.617975
-0.0101426 -0.0789899 0.150165
-0.00472933 -0.0391579 0.874407
0.385221 -0.0619681 0.301548
-0.0861598 -0.0353974 0.0411611
-0.0567786 -0.0819688 0.543729
-0.0357886 -0.0589698 0.565027
0.0318907 -0.109884 0.604617
0.0187126 -0.109001 0.413905
0.0256555 -0.0758128 0.214524
0.0341096 -0.0730448 0.857812
-0.173351 -0.0789591 0.444259
0.0091138 -0.0645926 0.0954859
0.160877 -0.0756406 0.492585
0.369955 -0.0597657 0.358553
-0.108477 -0.077821 0.552856
-0.392577 -0.0642664 0.307325
0.243121 -0.0811881 0.414229
-0.281479 -0.0783874 0.433815
-0.0127381 -0.0646663 0.923195
-0.010544 -0.0560167 0.0783154
0.0223647 -0.0964629 0.277691
0.00219063 0.017509 0.100225
0.111653 -0.0309905 0.0189589
0.041109 -0.0978822 0.425135
-0.0207537 -0.105913 0.641364
0.0603193 -0.0446793 0.0661118
0.000868837 -0.0684658 0.0976356
0.0275044 -0.0414187 0.720352
0.0102845 -0.0304795 0.0878848
-0.00426323 -0.113085 0.569731
-0.115431 -0.0985406 0.563945
0.0234323 -0.107324 0.528294
0.0797687 -0.0796105 0.547132
0.409804 -0.0571938 0.330566
0.0243848 -0.034431 0.394565
-0.0149061 -0.110142 0.41837
0.0146902 -0.0306475 0.618729
-0.193201 -0.0800501 0.409047
-0.157999 -0.0884547 0.41655
-0.205998 -0.0863059 0.459178
-0.0886163 -0.0407163 0.0968599
-0.163034 -0.0904094 0.466096
0.0358458 -0.0725089 0.482754
-0.0186792 -0.0337882 0.736357
-0.0179361 -0.109226 0.474935
0.00766932 -0.11167 0.431178
-0.0245221 -0.0477036 0.138672
0.00124093 -0.117381 0.788676
-0.0358666 -0.0586502 0.489541
0.0450858 -0.0805468 0.580136
0.0354115 -0.0770074 0.559827
0.358369 -0.0690881 0.351003
-0.0905956 -0.0984298 0.483222
-0.28329 -0.0685157 0.43837
-0.092539 -0.0829391 0.495838
0.0941176 -0.0988687 0.499204
0.0527703 -0.104762 0.526643
0.0273472 -0.0409869 0.69833
0.0345201 -0.0829099 0.634945
-0.0201244 -0.0983126 0.271979
0.0964421 -0.0974086 0.474358
0.117451 -0.0300586 0.0130627
0.00156966 0.0823248 0.064996
0.219035 -0.0845437 0.444145
0.00272273 -0.00528258 0.0826977
-0.0428131 -0.0899242 0.477248
0.19848 -0.0883926 0.489575
0.426681 -0.05559 0.307968
-0.00151184 0.0836669 0.0723172
0.00154101 -0.112553 0.427511
-0.0290973 -0.0636839 0.227506
0.0109029 -0.114057 0.769636
0.0238776 -0.10939 0.622216
-0.0209329 -0.0802058 0.197566
-0.0139469 -0.109445 0.522783
0.172253 -0.0771722 0.526996
0.397713 -0.0637342 0.304711
0.0102116 -0.0293306 0.618188
0.0199342 -0.108434 0.403627
0.132479 -0.0825609 0.455611
-0.0242003 -0.0470108 0.132447
0.253868 -0.0686135 0.448932
-0.0161039 -0.032034 0.688119
0.0965273 -0.0997451 0.521728
0.110463 -0.0383461 0.0723904
0.00168474 -0.091721 0.940101
-0.254621 -0.0765959 0.466498
0.0285954 -0.0437333 0.778181
-0.0352038 -0.0697709 0.847172
-0.012419 -0.0584891 0.0951089
0.00331398 -0.0260976 0.0782511
-0.028178 -0.0470066 0.135268
-0.0333018 -0.0469728 0.424881
-0.0841346 -0.035973 0.0494503
0.116514 -0.0981936 0.565174
-0.0995191 -0.0969528 0.592862
0.0226949 -0.106782 0.792897
-0.0151633 -0.0335389 0.799843
0.2922 -0.0763943 0.430979
-0.229585 -0.0838715 0.447086
-0.0237562 -0.0547358 0.104118
-0.0043902 -0.0272286 0.514
0.148725 -0.0893459 0.416067
0.429461 -0.0601114 0.280513
0.261957 -0.0693819 0.451246
0.059066 -0.0409912 0.0444508
0.0740353 -0.0814747 0.532712
0.00147679 0.11271 0.0766347
-0.410926 -0.0634 0.318669
0.147994 -0.093052 0.548397
0.186578 -0.08805 0.463943
-0.0191309 -0.0707953 0.162493
0.0179267 -0.0310852 0.533952
0.00104646 0.116621 0.0556468
-0.0344844 -0.109986 0.599539
-0.0177754 -0.110214 0.848511
-0.295313 -0.0754289 0.379888
-0.281692 -0.0662229 0.417781
0.0690017 -0.104967 0.593936
-0.042006 -0.0887839 0.488637
0.110593 -0.0918463 0.414516
0.335194 -0.0627687 0.367914
0.312 -0.0739512 0.41577
-0.298635 -0.0749421 0.375276
-0.394195 -0.0650989 0.326682
-0.00274786 0.016033 0.137504
0.0104578 -0.0320248 0.0768267
0.0101402 -0.0274382 0.214031
-6.70133e-05 0.0762786 0.0349268
0.0173996 -0.0338841 0.169647
0.0789549 -0.0399323 0.048755
-0.425984 -0.0605489 0.280339
-0.00187535 0.0760194 0.0929352
-0.220149 -0.0735761 0.43036
-0.0397817 -0.0880063 0.497582
0.29549 -0.0718654 0.345186
0.0187747 -0.105822 0.868468
-0.0725934 -0.0817051 0.53155
0.238907 -0.0716346 0.421633
-0.188248 -0.0776665 0.438077
-0.12289 -0.0783783 0.55356
-0.0835389 -0.0383578 0.042115
0.00871774 -0.11223 0.517561
-0.138044 -0.0953787 0.516485
0.0258183 -0.0461402 0.120009
0.0441399 -0.103738 0.485447
0.0277649 -0.0688511 0.887684
0.0583817 -0.046518 0.0753766
0.0354932 -0.0708005 0.84116
0.00692661 -0.027847 0.539266
0.164027 -0.0847816 0.410518
-0.306502 -0.0651975 0.386295
-0.0229359 -0.0340862 0.506511
0.0870342 -0.0350069 0.0291936
0.412236 -0.0584527 0.295858
-0.311578 -0.0642688 0.3886
0.0131188 -0.0692843 0.127699
-0.107242 -0.0356304 0.0387525
-0.340397 -0.0620673 0.381853
0.00348659 -0.107871 0.296044
-0.0351642 -0.0790794 0.394332
0.101386 -0.0399393 0.0655985
-0.188614 -0.0847062 0.399547
0.248025 -0.0732534 0.393383
0.0396932 -0.0468686 0.134254
-0.00406438 -0.0275626 0.54329
0.0177295 -0.0861661 0.201848
0.146252 -0.0950736 0.526825
0.0170234 -0.0298533 0.26717
0.0701357 -0.103979 0.60364
0.113973 -0.0329826 0.0728622
0.0026321 0.00539392 0.128318
-0.114844 -0.0311862 0.0566441
0.348263 -0.0690377 0.334096
-0.0339664 -0.0833803 0.344818
0.352202 -0.0640105 0.330111
-0.0362363 -0.0645874 0.763708
0.111943 -0.0312046 0.0294575
-0.0261969 -0.0380926 0.56362
0.205518 -0.087109 0.494967
0.0169384 -0.076311 0.164873
-0.0353094 -0.0558651 0.581414
-0.00191125 0.0745556 0.094923
-0.0360845 -0.0715304 0.602786
-0.0704849 -0.0817565 0.532993
-0.430797 -0.0605622 0.292267
0.00211101 0.0399246 0.0728617
-0.102886 -0.0326356 0.0324111
-0.118783 -0.096611 0.572036
-0.0553595 -0.107225 0.582437
-0.0353868 -0.0836728 0.398763
-0.00613677 -0.116749 0.801219
0.200626 -0.0724415 0.485509
0.000986257 0.105389 0.0360968
-0.307852 -0.0723474 0.337362
-0.0358241 -0.075128 0.557724
-0.309033 -0.0656078 0.377716
0.230669 -0.0786773 0.37825
-0.00207325 0.0117686 0.149635
-0.264772 -0.0790984 0.405993
-0.0839091 -0.100582 0.513326
0.00495034 -0.028095 0.587236
0.0737638 -0.101257 0.505718
-0.0615068 -0.0413331 0.110128
-0.0943524 -0.0989564 0.594857
0.0357501 -0.0583331 0.511795
-0.375392 -0.0607176 0.327527
0.285351 -0.0659131 0.41228
-0.0465819 -0.0903607 0.469684
0.104429 -0.0991898 0.526315
-0.0260575 -0.0370892 0.314037
-0.33244 -0.0719768 0.368524
0.1204 -0.0804277 0.566248
0.0660106 -0.0395144 0.0396035
-0.178277 -0.0898392 0.521435
-0.0241749 -0.0525117 0.878622
-0.0981898 -0.0863333 0.457799
-0.0350002 -0.0567835 0.796716
0.12966 -0.0295159 0.0154649
-0.156081 -0.0889652 0.423027
-0.00205946 0.0271199 0.0624388
-0.0061959 -0.0990234 0.917477
0.0337618 -0.0647409 0.292021
-0.0178549 -0.0750021 0.166512
-0.0858263 -0.099459 0.494471
0.0189058 -0.0311881 0.504698
-0.0543918 -0.106827 0.609782
0.0110476 -0.0304988 0.101925
-0.00107337 0.0305023 0.140742
-0.0302064 -0.0435509 0.615703
0.304604 -0.074947 0.384824
0.0152459 -0.0353258 0.123135
-0.0406758 -0.0528784 0.112992
-0.0034038 -0.0239218 0.155106
0.347137 -0.0691428 0.33445
-0.298113 -0.0659914 0.390738
0.0177136 -0.0326449 0.191923
0.00284255 -0.0187588 0.123663
0.0340486 -0.100136 0.418545
-0.0849818 -0.0375083 0.0379948
-0.015916 -0.029802 0.503558
0.0169764 -0.0293036 0.373802
0.0348799 -0.0570883 0.326349
-0.0335209 -0.0967125 0.418279
0.0320443 -0.0456009 0.512144
-0.0892654 -0.03489 0.0396884
-0.00385096 -0.0836972 0.159158
-0.00162643 0.0716967 0.0776375
0.245511 -0.0733953 0.395693
-0.118127 -0.0318942 0.0230854
0.12331 -0.029298 0.0109016
0.0259002 -0.0491405 0.194296
-0.0312625 -0.104775 0.490369
-0.0206657 -0.0934513 0.897751
0.0675556 -0.0835733 0.515533
0.18985 -0.0731802 0.486588
0.0504991 -0.105287 0.531847
0.087412 -0.0365502 0.0873568
-0.0689021 -0.102374 0.516638
-0.41487 -0.0567659 0.308591
0.0975659 -0.0786853 0.564398
0.00320869 -0.11248 0.43818
-0.154157 -0.0770436 0.485164
0.0128495 -0.0277714 0.382265
-0.0363679 -0.0663849 0.559155
0.023336 -0.103146 0.360067
0.0298461 -0.0412983 0.339685
0.0015267 0.082784 0.0723516
-0.0207786 -0.0527065 0.0913972
0.056383 -0.0493338 0.120778
0.0337856 -0.086371 0.671759
0.0576517 -0.0899704 0.463673
0.00592485 -0.113952 0.618144
-0.273135 -0.0705367 0.382763
-0.0157919 -0.0813401 0.176511
-0.00199993 0.048451 0.0965717
-0.281518 -0.0771829 0.393628
-0.293673 -0.0670711 0.385744
0.263533 -0.0782631 0.387237
0.0303892 -0.0458981 0.764198
-0.0835748 -0.0975325 0.451059
-0.0547365 -0.107497 0.586458
-0.414233 -0.0573024 0.329473
-0.00592364 -0.111874 0.409622
-0.0160867 -0.10999 0.4281
-0.00273172 -0.0426356 0.889037
-0.136943 -0.079302 0.480974
-0.0363738 -0.0796123 0.46106
-0.320161 -0.0669661 0.410394
-0.00698927 -0.0481281 0.902448
0.000925141 0.0339601 0.138956
-0.016045 -0.0298323 0.501123
0.0523659 -0.0406415 0.0491983
-0.0353527 -0.0799983 0.742125
0.34966 -0.0695921 0.385441
0.383418 -0.0585136 0.33895
0.0334943 -0.0754231 0.302643
0.015612 -0.111603 0.846658
0.133067 -0.0838263 0.442756
-0.117549 -0.0980468 0.529387
0.067407 -0.0868987 0.484453
-0.00971616 -0.0288075 0.582631
-0.000918278 0.113315 0.0339227
-0.00365366 -0.11692 0.780073
0.320948 -0.0648023 0.367825
0.0295915 -0.0406753 0.437455
0.0293991 -0.041934 0.567122
0.259549 -0.0679565 0.439552
-0.0363551 -0.0687174 0.720333
0.23445 -0.0700633 0.446186
0.140591 -0.0289297 0.0177435
-0.0193224 -0.0464181 0.0548462
-0.00618578 -0.0284583 0.602832
-0.0310354 -0.0957857 0.813628
-0.0296553 -0.0964363 0.714346
0.00598688 -0.105278 0.274564
-0.00572178 -0.114747 0.687359
-0.00963381 -0.111191 0.418438
-0.017772 -0.0333356 0.734459
-0.118477 -0.0809094 0.486252
0.00852731 -0.0318746 0.804167
0.0233913 -0.0358726 0.626778
0.0163962 -0.109941 0.430485
-0.0747911 -0.0820777 0.525299
0.0155382 -0.0318093 0.688856
0.314972 -0.0658547 0.366327
-0.0334537 -0.0566348 0.291233
0.0103147 -0.0446305 0.0590642
-0.00148055 0.0987135 0.0720854
-0.00250399 -0.00639515 0.110255
0.0354491 -0.0869602 0.4753
-0.0352494 -0.0893031 0.421723
-0.0362271 -0.0709274 0.690455
0.292801 -0.0760461 0.38847
-0.00754754 -0.0275864 0.0888724
0.366028 -0.0601121 0.348681
0.035544 -0.0864812 0.40273
0.0955925 -0.0785293 0.563338
-0.169784 -0.0758327 0.479619
0.0194146 -0.0683455 0.915482
-0.0204797 -0.0560476 0.149014
0.0363208 -0.0688196 0.753314
0.0317341 -0.0924269 0.726946
0.0275629 -0.107686 0.54109
-0.0329688 -0.109487 0.587439
0.217128 -0.0846732 0.443762
0.0682871 -0.104181 0.551761
0.408402 -0.061876 0.283981
-0.00262858 0.0314687 0.132521
0.03534 -0.0788121 0.673939
0.187051 -0.0734393 0.492911
-0.0461331 -0.0904871 0.468859
0.00143005 0.0273813 0.0569838
0.0117238 -0.0351198 0.077159
0.0328365 -0.0504068 0.297835
0.307564 -0.0671472 0.364944
-0.000137892 -0.0280628 0.593607
0.0108671 -0.110308 0.351006
-0.00141016 -0.00827199 0.171405
-0.34914 -0.0621847 0.352328
-0.0254156 -0.106348 0.382214
0.284357 -0.0773643 0.401821
0.0336707 -0.0845711 0.373299
-0.122262 -0.0972153 0.522019
0.202851 -0.0837108 0.401875
0.119088 -0.0364372 0.0670673
0.0236621 -0.0364386 0.657195
0.0016216 0.0936632 0.0792654
-0.0146254 -0.0301037 0.574765
-0.130814 -0.0808956 0.472876
-0.0357194 -0.059235 0.630376
0.0222278 -0.106901 0.517676
-0.0593724 -0.0809427 0.552678
0.0349829 -0.0833673 0.796703
0.0236527 -0.0983308 0.303737
0.217956 -0.083753 0.426476
-0.0973184 -0.0961583 0.450789
0.00267675 0.018693 0.133143
0.0763085 -0.096855 0.422833
0.407778 -0.0633707 0.313193
0.0718807 -0.0827453 0.520621
0.00316762 -0.0256531 0.135193
-0.388425 -0.0590927 0.324554
-0.0320531 -0.0445004 0.420996
0.005033 -0.115982 0.744818
0.0133348 -0.110373 0.539128
-0.251736 -0.0792475 0.388515
-0.0363969 -0.0637143 0.379486
0.213697 -0.0855442 0.455963
-0.00816432 -0.0921314 0.199623
-0.0323555 -0.0854138 0.321721
0.174635 -0.0803929 0.429155
0.0791294 -0.0792716 0.561868
0.368852 -0.0656376 0.301976
-0.0178949 -0.108984 0.703507
-0.223174 -0.0815885 0.390901
-0.0945623 -0.0924768 0.422505
-0.0150394 -0.0333842 0.795211
-0.141599 -0.0947725 0.547726
0.0273347 -0.0804458 0.88681
0.109171 -0.0842158 0.465787
-0.0284677 -0.0550719 0.144717
-0.00942758 -0.111496 0.447989
-0.0848416 -0.0788751 0.549713
-0.0156527 -0.033316 0.149895
-0.0417467 -0.0879871 0.496221
0.204918 -0.0738125 0.451193
-0.0133486 -0.0994816 0.249179
0.28709 -0.0692893 0.37437
0.108775 -0.0943618 0.437478
-0.27585 -0.0770529 0.382094
0.146348 -0.0274277 0.0425302
0.236787 -0.0718119 0.423015
0.183791 -0.0863029 0.42427
0.29755 -0.0721932 0.430637
-0.0333433 -0.0493997 0.625409
0.0355791 -0.0789948 0.567121
-0.0330759 -0.0463881 0.359892
-0.0954524 -0.0411793 0.0698726
0.0335934 -0.0549364 0.299905
-0.322414 -0.0643929 0.401868
-0.222605 -0.0822273 0.402908
0.355042 -0.0678 0.319752
-0.0360558 -0.0641599 0.802723
-0.0350995 -0.0579059 0.818023
-0.245365 -0.0783366 0.474218
-0.0263236 -0.0396452 0.685303
-0.372965 -0.0666877 0.325402
-0.264348 -0.0721131 0.380496
0.00973268 -0.111925 0.524424
0.00234894 -0.0941783 0.204708
-0.0619043 -0.0397266 0.0665159
-0.0243645 -0.0348309 0.456999
-0.0362971 -0.0775688 0.457123
0.00254046 0.0277286 0.126084
0.00169068 0.0712816 0.0692891
0.0184794 -0.0307813 0.486451
-0.0358385 -0.0658067 0.345018
0.338629 -0.0699023 0.336415
-0.124091 -0.0944801 0.470434
0.0243943 -0.0458794 0.0818451
0.295344 -0.0674805 0.379325
0.0292196 -0.0424022 0.627983
-0.254309 -0.0694432 0.45421
0.340063 -0.0713671 0.389739
0.036428 -0.065678 0.686619
0.41332 -0.0630012 0.330358
-0.0983306 -0.0955354 0.440232
-0.00514697 -0.116456 0.768175
-0.0939126 -0.0856168 0.469529
-0.035361 -0.0572876 0.675716
-0.0373053 -0.106349 0.528873
-0.0280349 -0.0999333 0.774617
0.429637 -0.0593136 0.270929
-0.083455 -0.0985846 0.472068
0.00310441 -0.0261104 0.319859
0.348104 -0.0685378 0.323749
0.0247466 -0.105376 0.449252
0.00181403 0.0899535 0.0906304
-0.0358251 -0.0761397 0.728245
-0.0688173 -0.0938094 0.432095
-0.0173751 -0.0317213 0.611599
0.0974815 -0.0796809 0.570932
0.118086 -0.0772732 0.543574
-0.324916 -0.0732305 0.382018
-0.102289 -0.0781146 0.553619
-0.0536238 -0.0814164 0.598962
0.0264668 -0.0380206 0.528285
-1.66201e-05 -0.116213 0.723254
0.00130765 0.113783 0.066476
0.124273 -0.0948846 0.479039
0.0435862 -0.0886237 0.48881
0.0275438 -0.107971 0.547236
-0.01337 -0.0280458 0.310378
0.12972 -0.0341902 0.0479183
-0.0456242 -0.100882 0.431217
-0.0474303 -0.0836793 0.533615
-0.00107916 0.0659013 0.0456945
-0.0108791 -0.0280119 0.489209
-0.0864146 -0.0354501 0.0437289
0.0364488 -0.0645659 0.622663
-0.0271165 -0.040685 0.699362
-0.0280509 -0.0998327 0.770853
-0.00241938 0.0435727 0.121485
-0.0527556 -0.0858829 0.506393
0.055748 -0.0404402 0.0576156
0.298637 -0.0688659 0.428248
0.100066 -0.0827536 0.489294
-0.00233743 0.0222917 0.0745907
-0.0605346 -0.101707 0.483281
-0.247848 -0.0809079 0.469736
-0.399115 -0.0646454 0.341644
-0.269633 -0.0686007 0.444181
-0.0026582 -0.0997886 0.234547
-0.0911389 -0.0351265 0.0700833
-0.0364802 -0.0645564 0.599337
0.00930697 -0.11215 0.522383
-0.00920397 -0.0272263 0.199553
0.0313879 -0.0581239 0.248779
0.117083 -0.0784203 0.514952
0.0163995 -0.109994 0.48139
-0.0726495 -0.101405 0.505973
-0.0635165 -0.101245 0.48104
-0.222873 -0.0791317 0.383885
0.0157303 -0.0924736 0.221693
-0.233835 -0.0730631 0.415546
0.00934185 -0.0274386 0.176601
0.156468 -0.0829548 0.424851
-0.00494743 -0.0998318 0.916782
-0.306629 -0.0756178 0.411213
-0.00302593 -0.0319189 0.831661
-0.0465413 -0.041723 0.0557143
-0.013657 -0.0355541 0.0999049
0.0303111 -0.0717247 0.876051
-0.0243163 -0.0360347 0.565351
0.0317065 -0.0887487 0.341357
-0.151109 -0.075426 0.514118
0.00218682 0.0504235 0.107651
-0.34689 -0.0708924 0.380787
-0.00243637 -0.00542949 0.11446
-0.0569025 -0.0801108 0.572964
-0.0668902 -0.0852251 0.500416
-0.180049 -0.0864822 0.420807
-0.11497 -0.0336187 0.0735493
-0.0249622 -0.0710941 0.197327
0.020096 -0.033184 0.615594
0.0289763 -0.0835635 0.264389
-0.0268686 -0.0457864 0.104573
-0.24493 -0.0708622 0.420709
0.205064 -0.0857968 0.447492
0.0147371 -0.111105 0.713889
0.0126955 -0.0347545 0.841193
-0.0902951 -0.101922 0.581078
0.0254375 -0.0866687 0.250652
0.0214755 -0.108968 0.444232
0.000386009 -0.0297292 0.735175
-0.0338319 -0.0663264 0.295168
0.0140761 -0.110326 0.539933
-0.0159551 -0.0392054 0.862012
0.015291 -0.110043 0.418177
-0.0129731 -0.0314186 0.130036
-0.0192257 -0.0319127 0.246022
-0.289294 -0.0777004 0.42337
-0.0341246 -0.0492197 0.383324
-0.317614 -0.0675947 0.346132
0.0214418 -0.109086 0.627588
0.0342664 -0.0851811 0.734259
-0.00572582 -0.112711 0.502543
-0.027509 -0.0965564 0.342921
-0.0511431 -0.0498615 0.092798
0.0213504 -0.0318654 0.35982
-0.0107141 -0.0304875 0.70609
0.0933094 -0.0967302 0.599032
-0.11418 -0.098159 0.524917
0.126587 -0.0926342 0.43821
-0.143384 -0.0936306 0.49186
0.0339028 -0.0536009 0.791776
0.0195723 -0.0496748 0.888191
-0.100473 -0.100199 0.538706
-0.0172441 -0.0311613 0.568578
-0.0280341 -0.0437804 0.813248
-0.0488331 -0.104027 0.502354
0.165454 -0.0749759 0.494414
0.30356 -0.0665819 0.375906
0.0878427 -0.0348684 0.0305009
0.0213873 -0.11023 0.610952
-0.0283366 -0.0418519 0.683704
-0.0121824 -0.111345 0.495215
-0.0360573 -0.0756215 0.445365
-0.295867 -0.0744324 0.360632
-0.0364783 -0.0625905 0.466632
-0.0021222 0.0336485 0.102044
-0.044316 -0.0428956 0.0954651
-0.0483936 -0.0413168 0.0431662
-0.0659888 -0.100436 0.47057
0.0149727 -0.08932 0.204182
0.0365328 -0.107047 0.53798
0.027052 -0.0470918 0.135194
-0.0118512 -0.0310189 0.723158
-0.0272214 -0.0418061 0.762304
0.035443 -0.0617499 0.324714
-0.167739 -0.0745992 0.508672
0.0352526 -0.0536344 0.396238
0.0343313 -0.0739953 0.316317
0.0355627 -0.0499516 0.0833099
0.00310451 -0.0219197 0.139541
-0.304652 -0.0738848 0.363382
-0.0363771 -0.0652932 0.488728
-0.259952 -0.0804924 0.426572
0.0328247 -0.0500799 0.299454
-0.0757625 -0.0377191 0.0818566
-0.141525 -0.0799636 0.469787
0.0362989 -0.0678918 0.641083
-0.252124 -0.0710822 0.463922
0.0287179 -0.0495815 0.0778886
0.143319 -0.0782535 0.484867
0.0231592 -0.0356678 0.253983
0.0233316 -0.0341237 0.481276
0.00247755 0.0139548 0.120053
0.0639862 -0.101447 0.48632
0.0140887 -0.110548 0.446855
-0.0310845 -0.0900452 0.343415
0.0356461 -0.0689375 0.346022
0.0289749 -0.0542625 0.223449
0.359931 -0.0628329 0.376513
-0.129679 -0.076694 0.539354
-0.258351 -0.0810606 0.452108
0.117018 -0.080076 0.496594
0.419861 -0.060751 0.277459
0.0684821 -0.0402509 0.105778
-0.417649 -0.0625989 0.325462
-0.0361661 -0.0764755 0.448104
-0.0302216 -0.0445081 0.066827
0.430556 -0.0596652 0.272321
0.126349 -0.0776397 0.512363
0.00520536 -0.0264726 0.143275
-0.0239119 -0.0393738 0.820172
-0.0123547 -0.0888867 0.93041
0.0206844 -0.032302 0.282932
-0.113371 -0.0775747 0.55099
0.200294 -0.0880763 0.491936
0.295324 -0.066555 0.388876
-0.0673951 -0.0840481 0.510889
-0.418784 -0.0610152 0.281668
-0.00920997 -0.0296532 0.66246
-0.0189916 -0.10963 0.455826
0.0262127 -0.0364495 0.374111
0.036312 -0.0687374 0.740037
-0.00540327 -0.111969 0.386587
-0.0340898 -0.0783837 0.854579
0.179779 -0.0906142 0.505638
0.00105061 -0.113188 0.477445
0.283421 -0.0666119 0.407088
-0.333521 -0.0655313 0.342766
-0.127675 -0.0961118 0.510557
-0.00344048 -0.115017 0.656493
-0.0293438 -0.0436195 0.723682
-0.0342957 -0.0531386 0.717403
0.0516023 -0.107143 0.57195
0.364671 -0.0673562 0.325927
-0.00190774 -0.112407 0.403295
0.00107642 0.0814716 0.103674
0.352627 -0.0679534 0.319055
-0.0576944 -0.0427066 0.117884
-0.0153503 -0.0322163 0.158385
-0.055635 -0.0974024 0.630193
0.00336889 -0.0173181 0.162424
0.0612575 -0.0489671 0.106885
-0.0392919 -0.109344 0.59157
-0.0966457 -0.0340941 0.0571979
0.0390027 -0.0482167 0.0753545
-0.0844643 -0.0372519 0.0913104
0.0554426 -0.0999851 0.436487
-0.00801514 -0.0477652 0.900821
0.0124399 -0.0290686 0.539852
-0.248947 -0.0727822 0.468707
0.343231 -0.0634062 0.388766
-0.0246573 -0.0362302 0.289061
0.00459511 -0.0262483 0.429431
-0.37536 -0.0609959 0.324994
0.00998453 -0.0528441 0.0682202
-0.189619 -0.0877134 0.46186
0.0279466 -0.107861 0.545333
0.0196181 -0.0652496 0.91025
0.352303 -0.0617611 0.352048
0.307426 -0.0744628 0.379479
0.00549519 -0.0292493 0.679859
-0.00203181 0.0367392 0.0856479
0.106389 -0.0323488 0.0420284
0.0357253 -0.0568155 0.38035
-0.0129693 -0.100564 0.253888
-0.274832 -0.0697523 0.387603
0.0999992 -0.0951619 0.436087
0.00116993 -0.115799 0.700047
-0.00761069 -0.112859 0.865949
0.419782 -0.0561136 0.308335
-0.189857 -0.0731787 0.486283
0.0718516 -0.100543 0.486738
0.00599388 -0.102788 0.906522
-0.00231592 0.0152146 0.11122
-0.0626148 -0.0947688 0.430495
-0.101706 -0.0330444 0.0391341
0.194581 -0.075123 0.452966
0.407564 -0.064045 0.329534
0.00531104 -0.0265056 0.447171
0.00147206 -0.0406423 0.0498733
-0.0626913 -0.0475937 0.0867468
-0.0105452 -0.0271421 0.339653
0.113223 -0.0307452 0.0155886
0.164237 -0.0922894 0.506553
-0.0576599 -0.0800351 0.568221
0.0194596 -0.0465054 0.880265
-0.0222699 -0.0486098 0.144898
-0.0824045 -0.0360853 0.0450576
0.0173509 -0.0467564 0.0557526
-0.0336572 -0.064056 0.289179
-0.367078 -0.0660714 0.303701
0.0221993 -0.0340099 0.546639
0.0884427 -0.0383162 0.0444357
-0.243712 -0.0791469 0.373872
-0.244085 -0.0822413 0.436953
0.020776 -0.0398439 0.849955
-0.0120577 -0.113255 0.754317
-0.021759 -0.0343545 0.608223
-0.0182367 -0.0319174 0.594813
0.105142 -0.0795413 0.517008
-0.0997281 -0.0336564 0.0616816
-0.0213369 -0.0809645 0.202722
-0.0360641 -0.0602149 0.507949
0.282678 -0.0765136 0.381997
0.0232284 -0.033667 0.449089
0.046559 -0.0826324 0.546077
-0.147239 -0.0927425 0.551003
-0.0359402 -0.0802983 0.604805
-0.261605 -0.0712639 0.39251
0.205615 -0.0875122 0.48301
0.116193 -0.0901299 0.418543
0.00627719 -0.112299 0.469921
0.0386238 -0.0433443 0.0687567
-0.150615 -0.0927887 0.489316
0.0353078 -0.0566869 0.62726
-0.414194 -0.0628936 0.329682
0.0172943 -0.0458233 0.883707
-0.0355547 -0.0867437 0.427094
-0.171316 -0.0887082 0.448301
0.297668 -0.0662352 0.388727
0.269765 -0.0793041 0.418062
0.218553 -0.0785352 0.390877
-0.035767 -0.0590752 0.587413
0.203134 -0.0874403 0.495755
0.0355115 -0.0768522 0.609166
0.197396 -0.0755244 0.508259
0.0644585 -0.105621 0.571755
-0.000986066 0.0307713 0.052636
-0.0310532 -0.0443952 0.313536
0.0146966 -0.0438267 0.0955722
0.0306596 -0.0447156 0.650381
0.0323653 -0.0545985 0.118681
-0.291866 -0.0672189 0.386958
-0.0783113 -0.0378405 0.091981
0.360283 -0.0669415 0.310651
-0.0189205 -0.0378211 0.155657
-0.106415 -0.090522 0.423383
0.131753 -0.0796428 0.483477
0.0268366 -0.100482 0.732416
0.393758 -0.0586652 0.32089
-0.22253 -0.0706956 0.461165
-0.0188485 -0.110465 0.836405
0.0570875 -0.0497352 0.111825
0.206082 -0.0729691 0.458742
0.0364596 -0.0788062 0.471113
-0.253007 -0.0735703 0.383031
0.273698 -0.0763017 0.363597
-0.190189 -0.0741102 0.471223
0.307983 -0.0753943 0.411429
0.355399 -0.0689769 0.344089
0.227537 -0.0774773 0.386813
-0.153851 -0.0792238 0.544239
-0.00542026 -0.113918 0.60033
0.4058 -0.0642594 0.328037
0.0385488 -0.0439092 0.103195
0.00897341 -0.0312685 0.0625638
0.134568 -0.0948713 0.499365
0.303711 -0.0646275 0.40803
0.385521 -0.0601683 0.354692
-0.118402 -0.095959 0.488927
0.049145 -0.100223 0.426328
-0.360124 -0.0677164 0.325993
-0.0451702 -0.0477784 0.132497
-0.0322424 -0.105644 0.508999
0.184908 -0.0852304 0.524612
0.0212043 -0.106332 0.712515
-0.242112 -0.0791774 0.371972
0.0571959 -0.040317 0.0601636
-0.00922926 -0.11189 0.620436
-0.0110149 -0.114277 0.781054
-0.026692 -0.0411121 0.75718
0.0573715 -0.0907259 0.456625
0.0907492 -0.0365115 0.0894242
-0.0323638 -0.069203 0.272066
-0.0462043 -0.0813465 0.560768
-0.0690518 -0.0451716 0.0731045
0.00326891 -0.0444063 0.0498727
-0.0306782 -0.0442751 0.616948
-0.110204 -0.0886573 0.429312
-0.0995152 -0.0405822 0.0819504
0.0347041 -0.0523059 0.541462
0.0116349 -0.112231 0.692723
-0.149441 -0.0283061 0.0297151
-0.0362661 -0.0778971 0.575247
-0.160446 -0.0766489 0.529157
0.0125321 -0.0507412 0.902904
0.0152925 -0.109377 0.657062
0.0237672 -0.0416401 0.844415
-0.271884 -0.0771854 0.378537
-0.229819 -0.0819673 0.408995
-0.263913 -0.0677052 0.42581
-0.119012 -0.0297922 0.0145373
-0.166859 -0.0869215 0.403302
-0.303452 -0.0739702 0.425002
-0.0362613 -0.062851 0.621099
0.0250367 -0.0983247 0.868729
-0.222055 -0.0813244 0.383806
0.120643 -0.085055 0.444865
0.0114621 -0.0671918 0.114134
-0.0848148 -0.0891223 0.445912
-0.00827716 -0.115542 0.786089
0.003462 -0.0629832 0.0767452
-0.208103 -0.0865678 0.467776
-0.314914 -0.0664403 0.36098
-0.0124032 -0.0278611 0.275019
-0.271944 -0.0766578 0.367976
-0.0300283 -0.0548904 0.117364
0.32765 -0.0689559 0.326641
0.0359266 -0.0587561 0.446347
0.1162 -0.0845687 0.454559
0.0599377 -0.100454 0.456647
-0.0363431 -0.0679869 0.643839
-0.0255673 -0.105115 0.484077
0.137528 -0.0761507 0.523183
-0.00219686 0.0283382 0.0806575
0.00621857 -0.113098 0.574576
-0.102789 -0.079181 0.523917
0.161253 -0.0888436 0.430978
-0.0146895 -0.110242 0.543239
-0.0222216 -0.100369 0.874095
-0.300264 -0.0723416 0.428407
0.00829078 -0.0266637 0.380751
-0.00463085 -0.112997 0.510389
0.139821 -0.0268609 0.028203
-0.019658 -0.0468367 0.139801
0.175788 -0.0740845 0.495898
-0.0358671 -0.0588173 0.503966
-0.27584 -0.0784509 0.410314
-0.0364403 -0.0794919 0.529939
-0.243718 -0.0743183 0.389411
0.0691686 -0.087979 0.472749
-0.170008 -0.0910198 0.49237
0.0184131 -0.0439572 0.130175
0.03385 -0.081948 0.333314
-0.0322822 -0.0931783 0.819942
0.0351681 -0.0598468 0.32176
0.0141946 -0.0281914 0.35006
0.152847 -0.0768441 0.48896
0.0361836 -0.0708108 0.689361
0.0362441 -0.069424 0.677734
0.207851 -0.0828131 0.391605
0.0506848 -0.0419657 0.102469
-0.0271942 -0.0990973 0.697603
-0.0374792 -0.0480651 0.137532
0.0349644 -0.108449 0.566504
0.273601 -0.0668622 0.426375
0.00154413 0.0917102 0.0526625
-0.00404812 -0.0266563 0.465525
0.000775832 -0.00962167 0.0596343
0.0413198 -0.0525577 0.131757
0.0318432 -0.0519235 0.840578
-0.204109 -0.0814063 0.39208
-0.0631528 -0.0456035 0.118117
-0.0057463 -0.105275 0.274053
0.0492795 -0.0420945 0.0945092
0.388032 -0.0598368 0.317635
-0.179259 -0.0878309 0.446467
-0.214995 -0.0775193 0.400559
0.217239 -0.0711837 0.473165
-0.184505 -0.0781601 0.438856
0.0396368 -0.103696 0.474342
0.0130839 -0.101849 0.261622
0.221502 -0.0829271 0.415368
-0.101372 -0.032664 0.0234116
-0.0383018 -0.103881 0.480133
0.124779 -0.0961303 0.505217
0.00178655 -0.114593 0.604849
0.0182912 -0.0373525 0.150768
0.239833 -0.0749084 0.389395
