0.0778778 -0.0176995 0.596984
-0.062589 0.112679 0.0965724
-0.385279 -0.0327473 0.341699
-0.0110088 -0.0423496 0.0959712
0.0305645 -0.113085 0.433472
0.0547096 -0.107549 0.544615
0.0350541 -0.0436683 0.416695
-0.0498773 -0.0809853 0.45529
-0.011585 -0.108032 0.362596
-0.0543957 -0.0182326 0.619667
0.0226684 -0.108655 0.787705
-0.0322428 -0.0388356 0.361712
-0.0458719 -0.0511081 0.548307
0.000417318 -0.00943816 0.348208
0.264953 -0.0217717 0.445735
0.161248 -0.0250161 0.485581
-0.126987 0.104857 0.0627229
-0.0324352 -0.0825256 0.262294
-0.093025 -0.0347851 0.53169
0.00231625 0.104116 0.0322318
0.0411066 -0.026345 0.532801
0.00830731 0.0152672 0.133065
0.289464 -0.0599718 0.454545
-0.0125967 -0.112533 0.606048
-0.462408 -0.0231604 0.361121
0.0943296 0.11114 0.0821334
-0.0474557 -0.0820716 0.846928
-0.268008 -0.0257475 0.420464
0.0349532 -0.0338245 0.224095
-0.0895 0.102047 0.00991017
0.139166 -0.0206091 0.574039
-0.071613 -0.0167676 0.585462
-0.154653 -0.0201264 0.518292
-0.0021402 0.114331 0.148706
-0.288948 -0.066563 0.45992
0.0481465 -0.0571548 0.585751
0.0287215 -0.0240197 0.796406
0.102158 -0.038219 0.474405
-0.00986844 0.111623 0.129673
0.0119274 -0.0464408 0.886964
-0.366725 -0.0204877 0.3954
0.0532288 -0.0742363 0.683253
0.0406084 -0.0921909 0.331219
0.180199 -0.0462961 0.517468
-0.0753195 -0.03265 0.576359
0.222313 -0.0238765 0.457554
-0.00322427 -0.0125826 0.457711
-0.245602 -0.0190809 0.472697
-0.0051571 -0.0124232 0.70911
0.00860278 0.0831229 0.0861509
0.32708 -0.0312014 0.408175
0.113026 0.108847 0.0721711
0.0395295 -0.0893028 0.85933
0.0365876 -0.0425709 0.316585
-0.0219141 -0.0475804 0.144033
-0.17284 -0.0289425 0.455734
-0.0434483 -0.0796159 0.326064
0.000465961 0.00869028 0.0821414
0.411595 -0.0323282 0.328031
0.0141909 -0.0701362 0.189694
-0.189981 -0.0524938 0.517916
0.228401 -0.0362125 0.403643
-0.00252246 -0.011683 0.768214
0.383431 -0.0292829 0.393937
0.0490094 -0.080723 0.435722
-0.0480974 -0.0380789 0.55505
0.0540288 -0.0755542 0.735769
0.0386457 -0.113502 0.493356
-0.0528484 -0.109409 0.538582
-0.025155 -0.0217848 0.186096
0.0052146 -0.112668 0.60147
0.0070846 0.0560724 0.130899
-0.0178104 -0.113058 0.753179
0.0180039 -0.11003 0.380476
0.0203762 -0.0275659 0.850357
-0.0702942 -0.0366462 0.484283
-0.00842333 -0.0129734 0.659462
0.0522387 -0.0860482 0.658877
-0.00813566 -0.10236 0.822487
0.0274897 -0.0230355 0.489393
-0.0170738 -0.0145667 0.563745
-0.0308914 -0.028392 0.807916
-0.0288798 -0.113256 0.435203
0.301399 -0.0250004 0.470518
-0.37138 -0.0201428 0.416267
0.46228 -0.0288632 0.340763
-0.311774 -0.0227502 0.413292
-0.433793 -0.0312556 0.327095
0.0046074 -0.0114305 0.381887
-0.0439065 -0.0475481 0.80927
0.129246 0.10415 0.00458473
-0.0406514 0.107712 0.0544457
0.00969658 -0.0920326 0.280267
0.27106 -0.0530441 0.454688
0.318018 -0.0333518 0.35547
0.149954 -0.017667 0.535529
-0.0530493 -0.0839733 0.727472
-0.0490185 -0.0714191 0.499233
0.0857679 -0.0335951 0.554627
0.211967 -0.034226 0.410713
0.0234447 -0.109842 0.650894
-0.0379741 -0.0398321 0.247155
0.196932 -0.0188616 0.501703
0.310161 -0.0233673 0.410543
-0.0344465 -0.0374312 0.325086
0.067829 -0.0381834 0.500762
-0.0518314 -0.0888037 0.652654
0.0488535 -0.067919 0.523528
0.0343445 -0.027944 0.687043
0.0504162 -0.0601824 0.781027
-0.0401042 -0.0410542 0.47052
0.0052327 0.00999764 0.17954
-0.183921 -0.0207271 0.49807
0.0439918 0.107528 0.0519039
0.0515867 -0.0193033 0.581857
-0.103716 -0.0335268 0.54212
0.0475552 -0.0950876 0.796312
-0.00900309 0.0505284 0.107613
-0.237744 -0.0182147 0.487386
-0.0446549 -0.0578321 0.416147
0.0056447 -0.0175724 0.120288
-0.0579646 -0.106339 0.495251
-0.00973885 -0.0796738 0.227746
0.0128365 -0.0127207 0.751965
0.282393 -0.0328169 0.49384
0.016112 -0.0156586 0.424179
-0.0326622 -0.0477689 0.874072
-0.0459059 -0.0814977 0.356721
-0.0316044 -0.0152374 0.604939
-0.0434991 -0.0563432 0.400706
0.0306678 -0.112527 0.569257
0.0349903 -0.0368665 0.191497
-0.0461874 -0.105631 0.633048
0.186399 -0.0348085 0.461085
-0.273708 -0.0259243 0.489649
0.0362618 -0.0334122 0.268562
-0.0147119 -0.110178 0.651373
0.0282619 -0.0250342 0.365277
0.0459282 -0.0938834 0.399024
-0.182113 -0.0249965 0.550545
0.00832837 0.0978177 0.104176
0.425596 -0.0328622 0.309655
-0.0122711 -0.0121141 0.225058
-0.131863 -0.019814 0.533118
0.201368 -0.0218815 0.534924
0.226951 -0.0338896 0.444059
-0.0210506 -0.113017 0.568125
0.0415785 -0.0754804 0.873446
0.0444757 -0.0498671 0.814451
-0.0292023 0.103744 0.0943331
0.0350715 -0.10776 0.740818
-0.215386 -0.0318459 0.482771
-0.0901484 0.104119 0.0493701
-0.0486529 -0.0547637 0.650881
0.00310604 -0.0459379 0.103399
-0.232797 -0.0344699 0.399899
0.115884 -0.0185403 0.579507
0.00794218 -0.0135251 0.157572
-0.11571 -0.0354679 0.504597
-0.0696043 -0.0312659 0.600981
0.046792 -0.0495522 0.626157
-0.338977 -0.033075 0.344849
-0.281405 -0.0193992 0.450426
-0.136306 0.107583 0.0306245
0.0419524 -0.0757492 0.290698
-0.165513 -0.0193044 0.55291
-0.273311 -0.035523 0.380288
-0.0484823 -0.0925313 0.412313
0.0165716 -0.0902408 0.879424
-0.00123032 0.0647684 0.0527119
-0.189045 -0.0409858 0.549035
-0.00450827 -0.114525 0.447532
0.0564276 -0.0924591 0.5636
0.0342492 -0.0975796 0.827042
0.405938 -0.0221922 0.362959
-0.00561084 -0.0668407 0.173613
0.0175286 -0.0119762 0.315943
0.0819857 0.108251 0.0498078
0.246214 -0.0183789 0.477555
0.0462183 -0.112718 0.530876
0.357415 -0.0254272 0.371435
0.276147 -0.0252283 0.418892
-0.00786114 -0.0161198 0.151393
0.141019 -0.0315131 0.543617
-0.042464 -0.0256607 0.645235
-0.159193 -0.0354212 0.472564
-0.0516192 -0.0787861 0.564355
0.0481263 -0.0976629 0.762592
-0.0055412 0.107856 0.0661492
-0.0249852 -0.0162034 0.3199
-0.448005 -0.0222735 0.338547
0.13049 -0.0367672 0.4744
-0.291179 -0.0580412 0.491576
0.172838 -0.0395533 0.547884
-0.0137981 -0.112993 0.399228
-0.401365 -0.0308475 0.314088
-0.0254068 -0.0936736 0.296289
-0.0342713 -0.106848 0.711625
-0.0499527 -0.109652 0.590116
-0.0258362 0.103161 0.0159376
0.0366365 -0.0360804 0.454601
-0.0512179 -0.0644968 0.688948
0.0560646 -0.0186949 0.623717
-0.0407083 -0.0544409 0.276999
-0.000151003 0.0434204 0.164033
0.121978 -0.025151 0.507144
-0.0461444 -0.0492318 0.590521
0.0069388 -0.0128814 0.543712
-0.00481945 -0.00575204 0.10906
-0.0980076 -0.0244158 0.606526
-0.0525134 -0.0644644 0.803605
0.0172209 -0.015093 0.558673
-0.399145 -0.0298365 0.374002
-0.0137108 -0.016035 0.494769
-0.0157246 -0.0969947 0.853952
0.166062 0.103754 0.00801049
0.048179 -0.053625 0.702566
0.00880577 -0.113784 0.515655
0.0164009 -0.0347805 0.0952271
-0.0010317 0.0380089 0.0664075
0.0648173 -0.0351681 0.547299
-0.0096861 -0.0632327 0.905995
-0.0919785 -0.0349952 0.474523
-0.0533251 -0.028383 0.527097
0.0184197 0.105804 0.12282
-0.0945605 0.11164 0.0791266
-0.035848 -0.0699412 0.229969
0.11138 0.107282 0.0336382
-0.0318481 -0.0271976 0.72143
-0.33575 -0.0193629 0.419816
0.0384302 -0.111034 0.601781
-0.0501156 -0.0585472 0.758897
0.0346296 0.100444 0.0194148
-0.0397277 -0.0476907 0.845658
0.224281 -0.0309971 0.488536
0.0266943 -0.071194 0.210397
0.0542423 -0.0861194 0.596438
0.321218 -0.0292611 0.441076
0.045773 -0.101593 0.689279
-0.0433153 -0.0469042 0.497553
-0.364009 -0.0323863 0.363005
-0.34254 -0.0317787 0.388081
-0.0658605 0.104162 0.0672922
0.0466708 -0.0538691 0.551087
-0.0207048 -0.109168 0.78629
0.0488272 -0.0557633 0.64327
0.000813897 -0.0120087 0.620101
0.355108 -0.02113 0.398195
0.177568 -0.0191172 0.511216
0.0166008 -0.0806609 0.899141
-0.159977 0.109861 0.0467303
-0.0197921 -0.0179391 0.698274
-0.19153 -0.0326426 0.423594
0.0196713 -0.0175541 0.506618
0.0543288 -0.108845 0.463083
-0.099518 -0.0170385 0.56797
0.0103633 -0.103957 0.336802
0.297637 -0.0301795 0.445337
0.00542601 -0.110957 0.729349
0.0566419 0.1105 0.0772181
0.258681 -0.0310019 0.394651
0.368993 -0.0226752 0.423307
0.0132336 -0.114309 0.469371
-0.169852 -0.0511179 0.545767
-0.0440308 -0.0652505 0.336407
0.0135379 -0.0139702 0.826958
-0.208005 -0.0244797 0.462137
0.0432663 -0.0448426 0.499122
0.0262142 -0.0559367 0.164265
-0.0228948 -0.0168604 0.364461
0.0338994 -0.0381929 0.333025
-0.252019 -0.0322459 0.449335
0.177168 -0.0256187 0.563901
-0.0361895 -0.0397908 0.443613
-0.0302874 -0.0204119 0.548448
0.089482 -0.0289678 0.503049
-0.00145284 0.10826 0.0817502
0.00817342 0.0401527 0.0935856
-0.143174 -0.0349692 0.491253
-0.0344577 -0.0320457 0.776819
0.015073 -0.113098 0.414727
-0.271052 -0.0544898 0.467669
-0.132894 -0.0310752 0.556158
0.197867 -0.0297438 0.436733
-0.0435393 -0.0948085 0.817812
-0.0695935 -0.0219437 0.555963
0.000777634 -0.0569504 0.137393
-0.0498037 -0.0733502 0.524327
0.261187 -0.0193682 0.485721
0.0454126 -0.0629727 0.408445
-0.00493308 0.0760598 0.129444
-0.0327175 -0.0267024 0.227206
-0.40504 -0.0316054 0.343595
-0.0489344 -0.0555725 0.717412
0.0247275 -0.018578 0.781862
0.0428654 -0.0584799 0.289688
0.0527404 -0.08415 0.626434
0.102295 -0.0288147 0.60479
-0.0011045 -0.0111238 0.799261
-0.0548844 -0.107661 0.571178
0.0088453 -0.0844561 0.2453
0.0483713 -0.0329881 0.602542
0.00658541 -0.110136 0.673303
0.167175 -0.0272806 0.468795
0.0267236 -0.0257706 0.398855
0.0576959 -0.104562 0.497056
0.0701115 -0.0273419 0.523707
-0.111117 0.107079 0.0317752
-0.195285 -0.0304989 0.517673
-0.0289941 -0.0459691 0.168605
-0.0214269 -0.0184002 0.395637
7.46234e-05 -0.000655378 0.202249
-0.0828791 -0.028926 0.507054
-0.240816 -0.034257 0.428239
0.306233 -0.0338224 0.385382
0.0449229 -0.0700811 0.329389
-0.0228542 -0.113886 0.51823
-0.035865 -0.113809 0.46608
0.00869795 0.0677317 0.102376
0.415775 -0.0263984 0.393229
-0.425353 -0.0312053 0.299226
-0.38468 -0.0209403 0.382496
-0.252464 -0.0191244 0.489162
-0.2709 -0.0305194 0.460474
-0.0479909 -0.111344 0.458202
-0.0352511 -0.0334013 0.298038
-0.308804 -0.0190254 0.439728
-0.0360569 -0.0963655 0.336256
-0.393615 -0.0197878 0.39542
0.0434768 -0.0964107 0.379519
0.0396323 -0.0489005 0.850379
0.114638 -0.0315999 0.562195
0.13006 -0.032839 0.532397
-0.181436 -0.0178785 0.525497
0.146821 -0.0322711 0.450836
0.13228 0.107884 0.0344346
-0.433845 -0.0203242 0.363704
-0.0433911 -0.0454405 0.52163
0.0183949 -0.013208 0.236516
0.277496 -0.0694986 0.476602
0.248512 -0.0338004 0.429142
0.0232949 0.103553 0.0780481
0.295619 -0.0295896 0.38198
-0.453938 -0.0312776 0.311613
0.00963586 -0.0150134 0.682587
0.0105253 -0.0158977 0.47249
0.00427104 -0.111877 0.627578
0.438923 -0.0216137 0.347601
-0.0526191 -0.0831654 0.547108
-0.0192435 -0.0122585 0.253588
0.0288575 -0.0866491 0.27235
0.0552221 -0.0932534 0.482899
0.189994 -0.0535229 0.534164
0.437262 -0.0244213 0.331922
-0.028413 -0.110984 0.624781
0.101312 -0.0201625 0.548452
0.141672 0.109781 0.0568357
0.29119 -0.0593091 0.483242
-0.00495524 -0.10984 0.703487
-0.00986084 -0.0963978 0.300044
-0.0204507 0.101735 0.0417054
-0.0397037 -0.0831105 0.873375
-0.0419499 -0.0196163 0.573372
0.00304092 0.10222 0.0137535
-0.292482 -0.033719 0.39726
0.0366116 -0.0474865 0.387954
-0.180762 -0.0605236 0.540813
-0.0354883 -0.106689 0.660019
0.0494271 -0.109708 0.591517
-0.0160814 -0.0141133 0.742494
-0.0521525 -0.0905104 0.684678
0.0948529 0.103046 0.0238037
0.390028 -0.0279163 0.338125
-0.0324851 -0.024327 0.6699
0.0439094 -0.0557686 0.435648
0.0318139 -0.0249869 0.294844
0.029972 -0.102981 0.354946
0.0124233 -0.099292 0.843376
-0.111693 -0.0340655 0.528209
0.0188824 -0.0792006 0.227794
0.0223676 -0.0175213 0.725058
0.154127 -0.0225813 0.504053
0.0552619 0.10404 0.103143
0.0538354 -0.0808438 0.714266
-0.0103018 -0.0129546 0.591919
0.00579199 -0.0126185 0.634165
0.197339 -0.0180983 0.516693
0.0367489 -0.0168517 0.620128
-0.0572388 -0.0964018 0.510592
-0.168133 -0.0329152 0.502628
0.022433 -0.0960763 0.30323
-0.0526091 -0.0766071 0.630614
-0.0512484 -0.0695092 0.825679
-0.00717239 -0.0140158 0.522137
-0.236884 -0.0319749 0.464702
-0.0183768 -0.0283316 0.117337
-0.191825 -0.0235377 0.476927
0.00521103 0.0886861 0.0528661
-0.0373531 -0.106677 0.759971
-0.0314202 -0.112889 0.542424
0.267218 -0.0303281 0.466045
-0.00843975 -0.00532473 0.177009
-0.00616574 -0.0294912 0.857522
0.339008 -0.0323326 0.38259
-0.0282856 -0.0259327 0.480584
0.384874 -0.0316886 0.35753
0.342588 -0.0300363 0.413612
0.0435523 -0.103392 0.645145
-0.117904 0.104637 0.00690758
-0.00938148 0.111741 0.100802
-0.0452437 -0.109485 0.430739
0.191497 -0.0329078 0.485153
-0.0506381 -0.0331922 0.586971
-0.0432724 -0.0453487 0.781494
-0.110005 -0.0303718 0.583707
-0.0470121 -0.0753406 0.388818
-0.36304 -0.0321683 0.331698
0.0140452 -0.113276 0.560282
0.0299729 -0.044086 0.869986
-0.0451779 0.105658 0.0338121
-0.0490646 -0.0735921 0.480567
-0.339445 -0.0281 0.44385
0.00191792 -0.00764197 0.247013
-0.0080983 0.0313606 0.0989313
0.0702322 -0.0206916 0.563018
0.0502789 -0.102048 0.422418
-0.285477 -0.0312854 0.43826
-0.133665 -0.0341532 0.510388
-0.00880984 0.0896101 0.0770423
-0.0178164 -0.0152814 0.642784
0.273606 -0.0493616 0.488219
0.0666634 -0.0325665 0.584106
0.0473807 -0.050833 0.669356
-0.00780166 0.0186068 0.165786
-0.314915 -0.0248308 0.399184
-0.00884955 0.032998 0.131327
0.12777 -0.0171086 0.552027
-0.00018687 -0.00779553 0.303417
-0.201872 -0.017828 0.510058
-0.157894 -0.0375256 0.442645
0.082982 -0.0295147 0.616632
0.217474 -0.0293142 0.518367
-0.0319672 -0.096238 0.844141
0.0099435 -0.0133587 0.578198
0.0373437 -0.0370561 0.776094
0.45353 -0.0246643 0.321219
0.0763285 -0.0387945 0.483549
-0.295031 -0.0338663 0.367878
0.0531808 -0.0973235 0.43976
0.34344 -0.0341775 0.35217
-0.068524 0.102933 0.0406196
0.0440864 -0.0867031 0.354187
0.0230621 -0.0224335 0.170643
0.292652 -0.0333337 0.402778
0.160854 -0.0317777 0.524806
0.241 -0.0319583 0.461841
0.0950589 -0.0311375 0.583718
-0.00162643 -0.0244517 0.0985008
-0.294587 -0.0286848 0.469585
0.0483809 -0.0722071 0.455628
0.176216 -0.0599143 0.54987
-0.353364 -0.0280131 0.434477
-0.00408292 0.0554796 0.148388
0.00848423 0.0301521 0.112138
-0.051872 -0.0881872 0.752437
0.0237639 -0.0156141 0.342201
0.174574 -0.0184952 0.537337
0.0563479 0.102477 0.0337642
-0.0426882 -0.0564645 0.362763
-0.0412534 -0.0762152 0.290672
-0.0854991 -0.0332879 0.559334
0.104717 -0.0365711 0.496673
-0.271051 -0.0575774 0.492179
0.0421003 -0.0444302 0.758812
0.0015009 -0.111382 0.774332
-0.282382 -0.0390035 0.507166
-0.0423157 -0.0974732 0.799536
-0.147705 -0.0270921 0.575214
0.038621 -0.0501918 0.356786
-0.00373462 -0.0122767 0.412015
-0.179106 -0.0343452 0.57242
0.00783228 -0.00637089 0.133996
4.92893e-05 -0.113933 0.49682
-0.0203416 -0.0910753 0.877495
-0.116241 -0.0187943 0.548051
-0.0434015 0.104655 0.109484
0.140558 -0.0350545 0.49197
-0.46665 -0.0245312 0.332656
-0.0595279 -0.0173485 0.606035
-0.0425422 -0.10146 0.734638
-0.019534 -0.014705 0.791225
-0.0299151 -0.0248586 0.343303
-0.0521274 -0.0941723 0.436014
-0.0322095 0.103779 0.0737921
0.0942975 -0.0170372 0.570953
0.128907 -0.0357038 0.453778
-0.362588 -0.0314105 0.378401
0.0238986 0.102065 0.0429445
0.321748 -0.0200432 0.423628
-0.0352748 -0.0312331 0.282606
0.0521113 -0.0696783 0.757689
-0.0750144 -0.0205923 0.617471
0.169644 -0.0325194 0.507301
0.0463826 -0.099358 0.711701
0.0746414 0.11242 0.0912573
0.0801131 -0.0349312 0.539267
-0.353641 -0.0295687 0.412174
0.159515 -0.0193788 0.55756
-0.0128396 -0.0865018 0.255797
0.0393193 -0.0551225 0.23185
-0.128738 0.104732 0.0463977
0.00292194 -0.096798 0.858217
0.0285422 -0.0264671 0.819251
-0.00833919 -0.0720936 0.194265
-0.0633707 -0.0378527 0.508968
0.0229509 -0.0361205 0.126227
0.014755 -0.0156859 0.654351
0.0501499 -0.0348346 0.563233
0.00438308 -0.0124137 0.443732
-0.0599815 -0.103666 0.611171
-0.160767 -0.0308332 0.538738
0.054162 -0.0884648 0.534643
0.305909 -0.0191089 0.451045
0.395485 -0.0313871 0.315062
-0.413254 -0.0212357 0.364478
-0.139897 0.104935 0.00455132
0.0398696 -0.0300589 0.66487
-0.256205 -0.0356693 0.395922
-0.0124033 -0.112723 0.591011
-0.0312066 -0.0391732 0.390725
0.286806 -0.0496322 0.509487
-0.0479138 -0.0736995 0.430746
-0.0447556 -0.0556807 0.453498
-0.0113977 -0.0390965 0.874938
0.281273 -0.0314216 0.439414
-0.199276 -0.0241432 0.538384
-0.225723 -0.030114 0.50042
-0.343055 -0.0332795 0.365657
-0.202164 -0.035368 0.44101
-0.0275019 -0.103664 0.807079
0.0396819 -0.104993 0.66589
-0.028482 -0.0610831 0.891873
-0.082323 0.104349 0.0707314
0.397378 -0.020021 0.381227
0.365819 -0.0329147 0.353869
-0.0230875 -0.0740038 0.210085
-0.0411888 -0.0647747 0.256244
-0.000843034 -0.0324025 0.0781865
-0.00663636 0.0803242 0.108301
-0.11494 -0.0370117 0.482511
0.0438256 -0.0300989 0.512636
0.0490094 -0.0555757 0.727027
-0.00754746 -0.0145422 0.126879
-0.00635332 0.050046 0.080957
0.0298222 -0.020605 0.258373
0.442474 -0.0306655 0.291084
-0.046736 -0.0488001 0.631819
-0.00849792 -0.0106622 0.325963
-0.279266 -0.0189402 0.468058
0.100478 0.108751 0.0501992
-0.00720929 -0.114314 0.469191
-0.0466487 -0.100713 0.701084
-0.197231 -0.0316308 0.49959
0.0040569 -0.113432 0.398057
-0.0276315 -0.0202575 0.529963
0.0416414 -0.0694799 0.268734
0.053883 -0.0813239 0.777219
-0.287245 -0.0488915 0.469902
-0.0353155 -0.108085 0.399826
0.00927792 -0.0135221 0.17888
0.0501742 -0.0715199 0.56218
-0.0376587 -0.111138 0.604056
-0.156 0.107334 0.0235988
0.0375711 -0.0156809 0.599112
0.050342 -0.109786 0.570162
-0.0274838 -0.0217945 0.761308
0.0374991 -0.0387224 0.246705
0.0103349 -0.0607387 0.158471
0.00654222 0.0748841 0.065994
0.0256513 -0.015878 0.284085
0.176435 -0.0372049 0.533012
0.0358918 -0.03895 0.830786
0.0534738 -0.0721251 0.807869
0.0200071 -0.114156 0.450487
0.221421 -0.0297418 0.423331
-0.213426 -0.035792 0.411164
0.453328 -0.0280619 0.359263
0.0064426 -0.113072 0.75167
0.152011 0.103719 0.0258544
-0.205151 -0.0198985 0.490888
-0.383728 -0.0315779 0.360034
0.0287457 -0.0273558 0.437756
-0.272363 -0.0343774 0.402732
0.292547 -0.0324776 0.415426
0.0381225 -0.109468 0.625527
-0.0471424 -0.11298 0.51487
-0.0866096 -0.0227308 0.541614
-0.00821759 0.0180364 0.109947
-0.104444 0.110252 0.0635694
0.38718 -0.0261723 0.41301
-0.0529905 -0.0698793 0.739057
0.118168 -0.0325004 0.546318
0.120765 -0.0230967 0.519999
-0.298905 -0.0315204 0.424706
0.173376 -0.0580954 0.524554
-0.0458733 -0.0499541 0.565218
0.111524 0.10506 0.0124399
0.0369902 -0.0501831 0.209713
-0.0280403 -0.103276 0.350444
0.00929247 -0.112963 0.581335
0.0753115 0.103619 0.0662664
-0.0320705 -0.0271546 0.208867
0.119547 0.109345 0.0513554
0.370848 -0.0217455 0.385587
0.0222102 -0.0260115 0.147418
-0.0158662 -0.113212 0.551572
0.0410095 -0.0404757 0.718909
0.0249415 -0.1137 0.53304
0.0437871 -0.0634366 0.310604
0.213961 -0.0328148 0.469614
-0.0270149 -0.0242897 0.455615
-0.253931 -0.0278916 0.415784
0.0818576 -0.0361397 0.520211
0.0577941 -0.0978219 0.515314
0.0229909 -0.0183441 0.707448
-0.0218359 -0.110266 0.728259
-0.282382 -0.0387416 0.49029
-0.036712 -0.0913901 0.314449
-0.0101794 -0.113526 0.420544
-0.0432139 -0.044121 0.72661
-0.101929 -0.0295572 0.49247
-0.054961 -0.102444 0.448303
-0.0544318 0.110827 0.0808666
-0.0845672 0.105875 0.0265739
0.00400187 -0.111267 0.646108
0.0103393 0.09813 0.0632458
-0.0503549 -0.0704018 0.583899
-0.00764319 -0.0141765 0.687158
-0.142625 -0.0325022 0.527886
0.0216173 -0.109204 0.722331
-0.0245829 -0.0266944 0.158841
-0.0520605 -0.0700054 0.664542
0.259296 -0.0343084 0.413568
0.0122795 -0.0610325 0.904645
0.0472147 -0.0783216 0.850585
0.0295671 -0.0583044 0.888411
0.00346305 -0.0121899 0.732698
-0.0381141 -0.105015 0.782611
-0.349756 -0.0225537 0.392829
0.0468109 -0.0590853 0.497996
-0.0457302 -0.065493 0.853576
0.145196 -0.0324893 0.526141
-0.0125308 0.10424 0.0280181
-0.0299344 -0.0205955 0.262196
-0.185048 -0.0388208 0.531139
-0.0354971 -0.0432969 0.422309
0.00844492 0.0292974 0.147618
0.043968 -0.0532662 0.455611
0.0326901 -0.052159 0.180891
0.42871 -0.0292853 0.359828
0.00222496 -0.110469 0.376491
0.047799 -0.0543536 0.605436
-0.43176 -0.0302868 0.342848
-0.151672 -0.0173554 0.537589
-0.0207821 -0.114259 0.452799
-0.282644 -0.0699146 0.485373
0.00222913 -0.107939 0.791244
0.144594 -0.0291651 0.470496
0.27254 -0.0500582 0.507675
-0.172314 -0.0195263 0.511789
-0.019401 -0.0598301 0.159317
-0.313313 -0.0298495 0.438397
0.0509288 -0.024733 0.55008
0.18078 -0.0246319 0.476733
0.207695 -0.0207248 0.484541
0.169867 -0.0456384 0.566684
0.277838 -0.0186808 0.459952
-0.0456102 -0.0561065 0.484513
-0.0685137 -0.0361849 0.529584
0.0101192 -0.0345015 0.865452
-0.046678 -0.0492291 0.670736
-0.0492361 -0.0613435 0.606804
0.115349 -0.0272681 0.597058
0.128907 -0.0303576 0.569697
-0.46625 -0.0255595 0.3087
0.00696891 0.00453512 0.112768
-0.0400726 -0.0379161 0.705512
-0.00717423 -0.049294 0.893664
-0.382605 -0.0288663 0.400692
0.0276396 -0.111441 0.76817
-0.00491404 -0.0111941 0.369207
0.299763 -0.021222 0.429167
0.282392 -0.040359 0.475085
0.025168 0.107605 0.0570861
-0.0275835 0.10645 0.117914
-0.0425045 -0.057531 0.297908
-0.190799 -0.0348192 0.45762
-0.0239965 -0.031057 0.137441
0.193573 -0.03384 0.421085
0.0445377 -0.0445667 0.682394
0.0472533 -0.0340305 0.631536
-0.0615436 -0.0342848 0.562724
-0.418484 -0.0324181 0.321546
0.248776 -0.0291813 0.496761
-0.174189 -0.0586238 0.522157
-0.00640897 0.0822482 0.0602423
0.0164597 -0.102224 0.819946
-0.00679132 -0.111854 0.736454
-0.058208 -0.0943234 0.584429
0.0268232 -0.112821 0.588797
-0.0471792 -0.0746903 0.408126
0.0116282 -0.0143748 0.525106
0.118497 -0.0291831 0.485251
0.00801636 -0.0111403 0.21434
0.0514124 -0.0684079 0.657877
-0.225227 -0.024056 0.454839
-0.329133 -0.030977 0.409939
0.024843 -0.108998 0.68039
0.417297 -0.0201174 0.37588
0.0273557 -0.113845 0.507928
-0.0641867 -0.0351903 0.547441
0.00895474 0.0606418 0.0839084
0.028434 -0.10306 0.809779
0.00126492 -0.0774218 0.212505
-0.0455552 0.103576 0.0138991
-0.285814 -0.063228 0.509502
-0.240451 -0.0250496 0.440287
-0.0520628 -0.0716755 0.649718
0.0622894 -0.0307284 0.614385
-0.049736 -0.100038 0.66829
0.044333 -0.0377717 0.484058
0.0375847 -0.113718 0.471261
0.0246281 -0.0201826 0.541199
0.157258 -0.0279158 0.5686
-0.18998 -0.0529397 0.57148
-0.00836326 0.00334406 0.152618
-0.0417921 -0.0323618 0.662446
0.0478365 -0.0768517 0.413648
-0.0223816 -0.0811548 0.237865
0.414563 -0.0305376 0.352087
0.189994 -0.0554444 0.55289
0.222398 -0.0187746 0.506547
0.207381 -0.0344311 0.450836
-0.325986 -0.025452 0.389202
0.0197289 -0.0958569 0.859041
0.377034 -0.0313643 0.32504
-0.0292956 -0.0294361 0.827958
-0.239856 -0.0208973 0.506891
-0.0289866 -0.060559 0.182377
-0.0522702 -0.0316776 0.607979
0.301444 -0.0351389 0.369658
0.00988503 0.112853 0.111051
-0.0523208 -0.0689468 0.784911
0.0375255 -0.0880602 0.301412
0.0849985 -0.0323629 0.573298
-0.013061 -0.013529 0.199215
-0.448536 -0.0300038 0.29247
0.0357493 -0.107798 0.399345
-0.0559015 -0.0913207 0.531838
0.205628 -0.0313552 0.497315
-0.0617998 -0.0300491 0.624717
0.0115958 -0.099936 0.318434
-0.186559 -0.0361191 0.441724
-0.045285 -0.0224819 0.560179
-0.0238479 -0.0355643 0.861395
-0.000278094 0.0967869 0.133007
-0.0543787 -0.109126 0.475943
0.0320801 -0.0292714 0.472059
-0.0579875 -0.095403 0.558233
0.1827 -0.0218789 0.491941
0.0414411 -0.0429253 0.798742
0.000470086 -0.0120614 0.50655
0.195242 -0.0246473 0.468406
-0.324934 -0.0345474 0.360678
0.00215429 -0.0857524 0.890831
-0.0147693 -0.0132597 0.60907
-0.0383316 -0.0304139 0.495189
-0.0380022 -0.048402 0.216598
-0.0409753 -0.0645065 0.872525
-0.265921 -0.0324587 0.435749
-0.0133802 -0.0150715 0.538859
0.0475384 -0.0387969 0.54466
0.279232 -0.0700537 0.458351
0.0484518 -0.11242 0.511206
-0.0524949 -0.0823108 0.812042
0.00745272 0.02173 0.165602
-0.180193 -0.0343953 0.471824
-0.0172393 -0.0151417 0.726674
0.0269943 -0.101926 0.339761
0.228995 -0.0193644 0.480467
-0.209491 -0.0291984 0.526077
0.270438 -0.0291168 0.481408
0.0607722 0.103602 0.0507239
-0.00042731 -0.0174378 0.840753
-0.0685935 0.104192 0.0852141
-0.112799 -0.0243551 0.517083
-0.163567 -0.0237735 0.491621
-0.301241 -0.0295975 0.45118
-0.255848 -0.0307847 0.467905
0.338431 -0.0332375 0.36974
0.0520136 -0.090618 0.678063
0.0319619 -0.0282754 0.344159
-0.359618 -0.0336157 0.348258
0.147242 0.10552 0.00837405
0.0066105 -0.11375 0.432812
0.240736 -0.0256266 0.4367
0.0108309 -0.0151277 0.491975
-0.039643 -0.0519855 0.232272
0.0572159 -0.0367061 0.530438
-0.00773323 0.0334562 0.149915
-0.236287 -0.0309898 0.479613
-0.0463486 -0.0728732 0.372533
0.45706 -0.0270163 0.305282
-0.0541371 -0.077674 0.697147
-0.0537281 -0.0889341 0.475424
0.0181934 -0.0176815 0.456742
-0.00448414 -0.100269 0.839973
-0.00455622 -0.0508527 0.118907
0.0453985 0.103581 0.0879924
-0.0916823 -0.0314237 0.58205
0.234977 -0.0311753 0.47787
-0.0341166 -0.113713 0.485757
-0.144887 -0.0285264 0.474113
-0.0444048 -0.0961806 0.391547
0.079542 0.103624 0.0784
0.241241 -0.0352265 0.413676
-0.149909 -0.0334973 0.507796
-0.265265 -0.0206993 0.451918
0.139181 -0.0222215 0.514694
-0.00877217 0.0717099 0.0749999
0.0516578 -0.0707933 0.638841
-0.0358116 -0.0170721 0.630532
-0.0544365 -0.0760271 0.715108
0.113882 -0.0344588 0.463339
0.0299267 -0.0630107 0.191559
0.0544848 -0.104369 0.625948
-0.280734 -0.0401392 0.45456
0.0849232 0.104197 0.0105039
0.0051324 0.0133706 0.100975
0.0517637 -0.075704 0.61015
-0.027121 -0.11218 0.411324
-0.110171 0.109179 0.0519967
0.0409421 -0.0528409 0.337614
0.0477953 -0.0905432 0.836675
0.319494 -0.033895 0.374336
-0.0108439 -0.0902247 0.271523
0.0407408 -0.113415 0.448312
-0.041502 -0.111916 0.557146
-0.0131621 -0.10941 0.682175
0.0913235 -0.0382555 0.482023
0.373639 -0.031302 0.371661
0.0595813 -0.0983783 0.580294
-0.0295112 -0.109527 0.642313
-0.00304439 0.0262231 0.0827837
0.0527317 -0.0879358 0.697853
-0.0438497 0.112318 0.097562
0.167822 0.106896 0.0258029
0.0114251 -0.0123279 0.779525
-0.019724 0.108651 0.0683374
0.354819 -0.0194367 0.415815
-0.207351 -0.0360029 0.427786
-0.0396798 -0.0432891 0.828301
-0.0536295 -0.0746575 0.764747
0.248259 -0.0222902 0.452172
0.0480955 -0.062034 0.538339
-0.0588598 0.103655 0.0522631
-0.159533 -0.0293794 0.561009
0.034174 -0.0168301 0.58146
-0.0155966 -0.0429998 0.110486
0.158563 -0.0303057 0.548142
0.0605987 -0.0346423 0.49186
-0.00752569 0.0969258 0.042653
-0.129476 -0.0278143 0.487105
-0.00766574 0.0578805 0.123376
0.41765 -0.0250025 0.339649
0.0246193 -0.0179077 0.220717
-0.331741 -0.0271576 0.375826
0.0834028 -0.0166423 0.579495
0.05495 -0.0166257 0.601125
-0.0377802 -0.0483947 0.311149
-0.456817 -0.0288118 0.34565
-0.101237 -0.0238902 0.52642
-0.0388887 -0.050132 0.349738
-0.17231 -0.0309485 0.528359
0.0419392 -0.0606588 0.864089
-0.0188952 -0.109027 0.70446
0.185254 -0.0308435 0.520159
-0.272785 -0.0664868 0.458748
-0.0292059 -0.028326 0.376157
0.0491251 -0.0924245 0.813563
-0.253199 -0.0249319 0.433726
0.0378232 -0.0431278 0.299691
0.0531364 -0.0879427 0.46637
0.27525 -0.0345637 0.397815
0.00745178 0.109908 0.135763
0.0343999 -0.103436 0.371794
-0.0745378 0.108906 0.0578123
-0.0558053 -0.0938007 0.626568
0.051185 -0.0598634 0.798813
0.403002 -0.0255185 0.344935
0.128546 -0.0277231 0.488174
-0.027465 -0.111197 0.770452
0.0519799 -0.0919428 0.730364
-0.112655 -0.0381936 0.466877
-0.00156844 -0.00770315 0.0941179
-0.00490207 -0.100053 0.316299
0.0447116 -0.0657995 0.354243
-0.000276959 0.0847038 0.0370845
-0.115667 -0.0320213 0.55523
-0.172081 -0.0400385 0.55877
-0.0381774 -0.0401295 0.267635
0.0188943 -0.0151388 0.387867
0.261131 -0.018517 0.469511
0.00951478 0.099352 0.0804095
0.0446236 -0.0209427 0.568495
-0.144993 0.109065 0.0550848
0.129123 -0.0292887 0.585228
-0.437046 -0.0282011 0.309686
-0.182766 -0.0333041 0.485908
-0.00510395 -0.106456 0.349115
-0.0156767 -0.0119465 0.303516
-0.0865322 -0.0183084 0.597714
0.0873061 -0.0246131 0.530074
-0.17582 -0.0312934 0.440116
-0.112123 -0.0248242 0.597366
0.278362 -0.0402927 0.466048
0.00176536 0.0694274 0.141251
0.016081 -0.114112 0.492238
0.029377 -0.0965624 0.847543
-0.00738946 0.093568 0.0931563
0.0307115 -0.0951949 0.317681
0.0306843 -0.0369866 0.373497
-0.00627423 -0.113007 0.569306
-0.0620597 -0.0201983 0.570588
0.0473355 -0.079031 0.39159
0.0523856 -0.084232 0.512213
-0.0512926 -0.0182157 0.588458
0.328163 -0.0243615 0.394404
-0.0117572 -0.104948 0.800323
-0.00746858 -0.0124337 0.817919
0.0242602 -0.0846219 0.252245
0.0100589 -0.00957644 0.290218
0.186288 -0.0225149 0.545864
-0.299651 -0.0289837 0.383285
0.022408 -0.015183 0.633095
0.279204 -0.0700537 0.492004
0.314838 -0.0267885 0.461991
-0.281726 -0.0326178 0.421521
0.357875 -0.0311605 0.385602
0.185272 -0.0389344 0.55915
0.0399765 -0.0456699 0.279353
0.0127121 0.110845 0.0908873
0.0320061 -0.0255629 0.505287
-0.0491205 -0.0675928 0.542351
0.0405258 0.105557 0.0339482
-0.00813467 0.00835667 0.123196
0.0324828 -0.0273063 0.320287
0.137133 0.106344 0.0186169
0.39936 -0.028525 0.393078
-0.0469692 -0.0563937 0.532598
0.141302 0.104085 0.0429325
0.0764558 -0.0295329 0.507121
-0.0310237 0.101345 0.0338539
0.0195599 -0.0647462 0.175198
-0.00368265 0.0574668 0.0671926
0.0334658 -0.0713154 0.228481
-0.0350129 -0.0645989 0.211696
-0.0211358 -0.0133325 0.335737
0.338288 -0.027938 0.444694
-0.11795 -0.017412 0.565287
0.343144 -0.0236338 0.390182
-0.40689 -0.0324942 0.329153
-0.403512 -0.0284806 0.390622
-0.0151863 -0.0140762 0.380891
0.0281824 -0.112415 0.614506
-0.122152 -0.0326787 0.540699
-0.0197442 -0.0134002 0.348743
-0.0474021 -0.0604718 0.515728
-0.0293891 -0.0202088 0.65572
-0.189857 -0.0559123 0.553616
0.0450945 -0.111833 0.555454
0.0158833 -0.0112216 0.254798
0.0373258 -0.105845 0.779881
0.0251663 -0.019496 0.679607
-0.252448 -0.0286947 0.501148
0.0319156 -0.0392944 0.171059
0.0263889 -0.112773 0.751902
-0.00453011 -0.0936103 0.285228
0.050006 -0.0641092 0.622009
0.0099473 -0.0888243 0.26494
-0.0578257 -0.0391667 0.493351
0.104056 0.103656 0.0576357
0.0814913 0.103112 0.0303361
0.0291316 -0.024758 0.767971
-0.0128083 -0.110708 0.382222
0.0457202 -0.0520288 0.525948
0.272201 -0.032455 0.431068
0.279349 -0.0314857 0.509487
0.0523408 -0.0816368 0.58111
0.183223 -0.0321339 0.430919
-0.0815587 0.105838 0.0890598
-0.00851336 -0.015183 0.472602
0.0938649 -0.0187221 0.597191
-0.444617 -0.0291634 0.349668
-0.0373728 -0.027092 0.520062
-0.21326 -0.0264245 0.447628
0.0719389 -0.0192787 0.616419
0.466655 -0.0225226 0.354359
-0.0148618 -0.0214211 0.137741
-0.236088 -0.0299552 0.413724
-0.0305072 -0.026417 0.79208
0.259168 -0.0325461 0.439539
-0.104561 0.105713 0.0203118
-0.0312093 -0.0784758 0.889314
0.016014 -0.0230786 0.131129
-0.0226384 -0.0977566 0.310962
0.00673232 -0.00999838 0.327569
0.00358072 -0.00893531 0.231251
0.031741 -0.0277675 0.71833
0.271061 -0.0562123 0.474345
-0.0221591 -0.0187409 0.682572
-0.037559 -0.113488 0.447898
-0.0108251 -0.111459 0.624786
0.00757927 0.0631933 0.118204
0.290241 -0.0296606 0.45852
0.00891091 0.0520029 0.10402
-0.378188 -0.0242988 0.366308
-0.289063 -0.0518498 0.45456
0.0332033 -0.0804649 0.885302
0.409745 -0.030063 0.314185
-0.0434155 -0.0690216 0.314397
0.0537089 -0.109447 0.477595
0.0283588 -0.0330746 0.158808
0.442855 -0.0322422 0.305769
0.0314959 -0.0374796 0.844955
-0.0265669 -0.0264547 0.416047
0.0117474 -0.0131342 0.714188
0.0978878 -0.0340516 0.538805
0.0154819 -0.0545997 0.141642
-0.391639 -0.0249008 0.409568
-0.0299933 -0.0227651 0.307356
-0.220508 -0.0183836 0.491114
-0.00870887 0.0362161 0.112944
0.259785 -0.025919 0.424121
-0.0187824 -0.0479251 0.129147
-0.180298 -0.0370675 0.517478
-0.0986015 0.103309 0.0355867
-0.399636 -0.0310058 0.356464
0.0292595 -0.0216634 0.242637
-0.00642702 -0.113699 0.514281
0.0515764 -0.0807344 0.824089
0.0337065 -0.029893 0.753255
-0.0540302 -0.0296634 0.636226
-0.0391299 -0.0986991 0.357862
-0.0480063 -0.0602991 0.83698
0.0017314 -0.0115594 0.426764
-0.134862 -0.0172505 0.551458
-0.0166446 -0.0135581 0.623767
-0.0983389 -0.0321431 0.566481
0.179177 -0.0334983 0.485755
-0.172897 -0.0299005 0.543304
-0.00868385 -0.110123 0.665208
-0.191613 -0.025865 0.463267
-0.0285217 -0.06697 0.198524
-0.0468712 0.109304 0.0681462
-0.00061554 0.0256486 0.17662
0.257436 -0.0299308 0.47924
-0.035214 -0.111652 0.588098
0.0466953 -0.0671917 0.424947
0.0305413 -0.0896508 0.874034
0.115703 -0.0350429 0.510844
-0.0336768 -0.109241 0.743762
-0.451611 -0.0244612 0.32354
-0.00733921 -0.0128777 0.400453
-0.323524 -0.0190638 0.43779
0.0163543 -0.0131942 0.812354
0.0381407 -0.0343483 0.699884
0.442949 -0.0203862 0.360138
0.0146834 -0.104333 0.804295
0.358847 -0.0328672 0.359813
-0.0280549 -0.0878517 0.275393
-0.0337985 -0.0782937 0.248641
0.277005 -0.0195483 0.476527
0.0693159 0.106849 0.039451
0.0618662 -0.0300003 0.512661
0.29119 -0.0593159 0.501086
0.244888 -0.0311417 0.401678
0.157565 -0.0363613 0.459984
0.0421344 -0.102132 0.726542
0.171025 -0.0297994 0.451688
0.0134837 -0.112419 0.616187
-0.0436662 -0.0162754 0.596735
-0.0404012 -0.110527 0.415295
-0.00668015 -0.013767 0.553729
0.0985126 0.103652 0.0382463
0.0562402 -0.0997328 0.45386
0.0253272 -0.0689953 0.900442
-0.116094 -0.0309616 0.570467
-0.00574606 -0.0916259 0.877999
-0.033966 -0.0398662 0.339482
0.369207 -0.0196737 0.401705
-0.0320429 -0.0247409 0.241639
0.283892 -0.035371 0.379457
-0.0450398 -0.0248752 0.545814
0.0119883 0.106022 0.0451223
0.0912026 -0.0264339 0.517073
-0.311515 -0.0329481 0.358535
0.135478 -0.0190813 0.535398
-0.102521 -0.0193077 0.552823
0.0385432 -0.0447159 0.44338
-0.144899 -0.0314119 0.542181
-0.00946437 -0.0585266 0.147544
-0.278367 -0.0290603 0.476278
0.308379 -0.0328563 0.397951
-0.0700551 -0.0247058 0.539345
0.0368776 -0.0473743 0.402819
-0.052981 -0.0820992 0.797605
-0.0525433 0.104009 0.098568
-0.0291013 -0.0207069 0.293065
-0.047132 -0.0366726 0.623945
0.03643 -0.078987 0.257713
0.0122317 -0.0133351 0.192996
0.269035 -0.0342867 0.406558
-0.0365726 -0.113474 0.50506
-0.00846067 0.112926 0.115132
-0.0464648 -0.0917788 0.831582
-0.00063373 -0.0744038 0.905658
-0.028253 0.102627 0.0496685
-0.0228075 -0.0494017 0.887284
0.0600012 -0.101167 0.597304
0.00929309 0.108758 0.0723942
-0.141845 -0.0224595 0.511769
0.28745 -0.0489973 0.492469
-0.035609 -0.03353 0.76049
-0.0445179 -0.0475016 0.794992
0.075506 -0.0314459 0.593905
0.234875 -0.0346225 0.427335
0.0426371 -0.0793624 0.311469
0.0132109 -0.0117821 0.341964
-0.0255655 0.112628 0.104838
-0.00527656 -0.0220944 0.112368
0.0191134 -0.110496 0.637374
-0.0512916 -0.0956537 0.713524
-0.153533 -0.0365953 0.459585
-0.465302 -0.0206302 0.345849
0.0538727 -0.0871586 0.548752
-0.0511516 -0.0808731 0.509567
0.0119788 -0.0157275 0.668828
-0.0142564 0.110507 0.0873061
0.0231448 -0.114206 0.479427
0.0463205 -0.0798967 0.366351
0.0435315 -0.028951 0.651059
-0.1014 -0.0352815 0.518101
0.18797 -0.018926 0.532696
-0.2117 -0.0308439 0.500255
0.065285 -0.0341907 0.561297
0.122672 -0.0176911 0.565093
-0.0466441 -0.112593 0.487295
-0.0202076 -0.113576 0.534029
-0.0422497 -0.0511504 0.438073
0.0533682 0.103592 0.06262
0.137151 -0.0307958 0.557059
-0.156378 -0.0319697 0.525355
0.00647684 0.0463379 0.147594
0.00569428 0.0829373 0.114369
-0.296579 -0.020816 0.433397
0.120156 0.106866 0.0275989
-0.00398917 0.00234665 0.187789
0.0870979 -0.030209 0.603341
-0.0244311 -0.0280035 0.840932
-0.340247 -0.0309661 0.401737
-0.0367992 -0.0315871 0.691769
0.0249738 -0.0914659 0.284819
-0.0721741 0.110819 0.076592
0.160675 -0.0374225 0.442063
-0.0214706 -0.0197321 0.470208
0.046958 0.112189 0.0955945
-0.0886233 -0.026005 0.52108
-0.021819 -0.101588 0.824544
0.0388123 0.110197 0.111841
-0.0155719 -0.0137794 0.57917
0.0535731 -0.0828268 0.753707
0.0448303 -0.0503076 0.511707
0.0272034 -0.0151558 0.60901
-0.00659946 -0.0118287 0.786634
-0.0195179 -0.0121631 0.267363
0.0367239 0.108672 0.0645128
0.0266885 -0.109275 0.664304
0.199794 -0.034038 0.462316
-0.0513233 -0.0627876 0.771926
0.101268 -0.0324965 0.559093
0.034608 -0.0400166 0.429939
0.0499365 -0.0685258 0.577782
0.230032 -0.0297184 0.502982
-0.0462356 -0.0495576 0.769635
-0.0170179 -0.113864 0.439631
0.00824844 0.00864572 0.145059
0.0192593 -0.0308329 0.114164
0.191724 -0.0352961 0.449918
-0.0231767 -0.109308 0.665312
0.0495488 -0.0571429 0.684115
-0.025353 -0.112606 0.598354
0.329833 -0.0297942 0.361284
0.281768 -0.0297711 0.388792
-0.0117754 -0.114172 0.485514
-0.0324935 -0.0910541 0.865007
0.051973 -0.0869918 0.645309
-0.214703 -0.0180415 0.503727
0.218964 -0.0181443 0.493404
-0.0470571 -0.0404898 0.574903
-0.0326423 -0.0299213 0.468268
0.0285647 -0.112027 0.413592
0.0484839 -0.0923657 0.412267
0.157349 -0.03518 0.47749
-0.0439561 -0.0580231 0.376168
-0.0254727 -0.114141 0.474749
-0.0180089 -0.0997133 0.839901
-0.373903 -0.0300997 0.389132
-0.0468615 -0.109479 0.620094
0.0251406 -0.0181299 0.662666
-0.391218 -0.0234579 0.363868
-0.00386178 0.0173163 0.0916938
-0.199199 -0.0269219 0.452689
0.0280845 -0.0226358 0.528382
-0.0623633 0.105354 0.0268621
0.338245 -0.0192262 0.42824
0.00150786 -0.113969 0.413824
-0.117975 0.102511 0.0202135
0.162691 -0.0187155 0.522067
-0.1728 -0.0182503 0.535828
-0.257152 -0.0298074 0.481273
-0.0792442 -0.0344168 0.547467
-0.376461 -0.0271833 0.35021
-0.0105555 -0.0156898 0.164563
0.0526556 -0.0696675 0.721639
0.391482 -0.0301804 0.374701
-0.34286 -0.0196738 0.43121
0.0464756 -0.0997581 0.739798
0.042258 -0.0599028 0.259354
0.0450366 -0.0434474 0.646965
-0.0511266 -0.0911625 0.765475
0.372196 -0.0285885 0.3443
-0.421943 -0.0257775 0.332638
-0.0535488 -0.0790031 0.674311
0.291189 -0.0605798 0.469942
-0.223721 -0.0327943 0.462576
-0.0729378 -0.0316815 0.496398
-0.1344 -0.0364203 0.476551
-0.285957 -0.0481942 0.482549
-0.104486 0.103905 0.00731366
0.0120981 -0.0122215 0.79766
-0.297164 -0.0240728 0.413779
0.0153687 0.10333 0.0186818
0.0316936 -0.0189411 0.56601
0.21689 -0.0277149 0.437913
0.0269446 -0.0265088 0.412134
-0.157569 -0.0223822 0.503274
-0.450307 -0.0204006 0.359486
0.0104291 -0.109334 0.705965
-0.0462796 -0.0493994 0.703206
-0.169852 -0.0451942 0.569526
0.0708434 -0.0238527 0.543951
-0.0322507 -0.0409063 0.403816
0.0501248 -0.0593237 0.767825
0.00894452 0.0492243 0.116948
0.0234402 -0.0131923 0.271335
0.00935664 0.0884961 0.0729063
0.105293 -0.0169266 0.565346
0.0211724 -0.0181438 0.182996
-0.039062 -0.0257836 0.533579
-0.0344926 -0.0464792 0.188221
-0.198951 -0.0187475 0.522885
-0.18998 -0.0427642 0.562066
0.0577416 -0.0336799 0.574473
0.0170775 -0.112351 0.396364
-0.0499035 -0.099018 0.648484
0.187288 -0.0420828 0.57241
0.192512 -0.0319568 0.498352
-0.0455398 -0.0460974 0.603297
0.0687649 -0.0296217 0.62576
0.154017 -0.0344152 0.491226
-0.0545475 -0.108029 0.55717
0.0925167 0.103642 0.0534118
0.0374304 -0.105561 0.679062
-0.0402351 -0.0757673 0.277608
0.271062 -0.0619524 0.498296
-0.275098 -0.0679691 0.499672
-0.169853 -0.0456765 0.533878
0.00716648 -0.114182 0.482674
0.0207408 -0.0143701 0.364481
-0.00579691 0.063631 0.134964
-0.00993087 -0.0125437 0.753705
0.441664 -0.0312205 0.321667
-0.122926 -0.0295939 0.585406
-0.216686 -0.0297699 0.512271
-0.00909817 -0.111906 0.766732
0.175595 -0.0595159 0.568417
-0.052171 -0.0671361 0.705872
-0.00641515 -0.0626602 0.1595
-0.0144722 -0.0273705 0.104824
-0.405183 -0.0200438 0.380071
-0.05875 -0.098634 0.542812
0.176012 -0.0291946 0.551324
-0.136057 -0.0184646 0.564329
0.0135759 -0.0107202 0.303646
-0.134239 -0.0249686 0.501243
0.212892 -0.0257708 0.530481
-0.0379264 -0.0493166 0.386258
0.0426267 -0.0580344 0.276546
0.0828577 -0.0209867 0.554081
-0.253753 -0.0203523 0.460527
0.111608 -0.0303687 0.582553
0.0584057 -0.102199 0.52746
-0.0292003 -0.10479 0.363459
0.399767 -0.0282026 0.330884
-0.358631 -0.0303022 0.39765
-0.0237141 -0.0228592 0.173303
-0.0529407 -0.081805 0.618798
-0.187158 -0.0183441 0.510338
-0.00848256 0.0209923 0.125813
0.027503 -0.0260055 0.459989
-0.282244 -0.0300912 0.49915
0.120617 0.103678 0.0411834
-0.0580513 -0.0240943 0.549801
0.0548691 -0.0328176 0.589296
-0.0368808 -0.0387311 0.225188
-0.039466 -0.0625967 0.239918
0.018044 -0.0155811 0.40071
-0.329277 -0.0220854 0.44896
0.0695702 -0.0369952 0.516896
0.0375664 -0.106811 0.754165
0.315439 -0.0304697 0.427679
-0.175045 -0.0248535 0.47869
-0.0534732 -0.0323854 0.503314
0.0516243 -0.0681035 0.670671
0.425226 -0.0262435 0.327987
-0.0218112 -0.0166453 0.803657
-0.0311791 -0.0383626 0.847485
0.0029892 -0.0807941 0.227582
-0.375683 -0.0305037 0.330991
0.0194386 -0.0523307 0.895429
0.104842 -0.0314821 0.571297
-0.0524375 -0.0820439 0.579137
-0.197867 -0.0327008 0.483403
0.0302252 -0.02053 0.552634
-0.0388905 -0.0527739 0.864157
-0.0180999 -0.0552804 0.900708
0.465047 -0.0300541 0.321195
-0.247282 -0.0355108 0.404965
-0.0962255 -0.0332126 0.552369
0.0420387 -0.0466005 0.475226
-0.0259616 -0.0199117 0.781603
-0.0912557 -0.0369082 0.501852
-0.182069 -0.0600532 0.528131
0.383635 -0.0196723 0.402197
0.00367075 -0.00748337 0.259561
0.00677431 -0.0135011 0.694834
-0.0901662 -0.0316778 0.486611
-0.412205 -0.0304607 0.355009
0.0460041 0.103697 0.0149355
0.00551841 -0.101859 0.826273
-0.0415481 -0.0299589 0.50848
0.0977061 0.102098 0.0115262
-0.00792499 0.00959358 0.174633
4.1198e-05 -0.0871577 0.25394
-0.148909 0.10431 0.0335907
-0.0593562 -0.0296619 0.516091
-0.00303304 -0.0124752 0.579449
-0.112712 -0.0184439 0.580664
0.350262 -0.0346181 0.340567
-0.0186893 -0.110498 0.634582
-0.16356 -0.0177506 0.527288
-0.0161253 -0.103332 0.812806
0.169866 -0.0471739 0.533064
0.135553 -0.0182126 0.561842
-0.00373331 -0.0120709 0.642351
0.080478 -0.0315431 0.492927
-0.0376596 -0.113045 0.531547
-0.0775642 -0.0180466 0.5745
0.00269566 0.106487 0.0570408
-0.16831 -0.0340245 0.486208
-0.0423079 -0.103141 0.686662
-0.00431946 -0.111509 0.63677
-0.354027 -0.0198294 0.425043
-0.185437 -0.0194593 0.540246
0.0479323 -0.052041 0.655559
-0.0236827 -0.111727 0.740518
0.0301128 -0.0287482 0.178779
-0.0394924 -0.0509187 0.337301
0.31953 -0.020552 0.452274
-0.00684413 0.0404158 0.088852
0.329157 -0.0299523 0.424952
0.0382765 -0.0455919 0.221819
-0.0452511 -0.059593 0.429447
0.292861 -0.0314022 0.430979
0.00668587 -0.110591 0.660883
-0.346909 -0.0204048 0.407174
0.0465302 -0.0635378 0.446941
0.403869 -0.0295496 0.374641
0.0432696 -0.110947 0.580822
-0.11314 0.108193 0.0721326
0.00846081 0.044163 0.130909
0.0465047 -0.0515985 0.574826
-0.00805664 0.0812314 0.0936196
0.10237 -0.0177501 0.580172
0.0228269 -0.100665 0.830589
-0.0513487 -0.0655546 0.676646
0.354483 -0.0298867 0.406857
0.0120204 -0.111406 0.739759
-0.315272 -0.019818 0.428663
0.0511497 -0.0878091 0.447326
0.278362 -0.0333701 0.455845
-0.0150842 -0.0676737 0.181427
0.219046 -0.021805 0.471681
-0.0109626 0.100948 0.0512715
-0.0438039 -0.0913755 0.36656
0.00784785 -0.00960474 0.145855
0.183769 -0.0591555 0.518088
0.0142576 -0.109274 0.686621
0.356986 -0.0292056 0.349307
0.0498158 -0.0660396 0.594063
0.290023 -0.0503912 0.462197
0.00267226 -0.0742259 0.199243
0.0356988 -0.0629028 0.211259
0.0213599 -0.0131902 0.327526
0.203772 -0.0323323 0.484365
0.0300986 -0.037116 0.388311
0.042817 -0.0488646 0.826536
-0.371613 -0.0233341 0.375763
-0.00408458 -0.113193 0.554866
0.0178971 -0.0460678 0.121211
-0.0463333 -0.0838479 0.380056
0.189994 -0.046625 0.544416
-0.0877807 -0.0241903 0.613216
0.130761 0.104426 0.0555636
-0.0392755 -0.0508781 0.323015
-0.122401 0.109604 0.0531538
-0.182233 -0.0599653 0.565174
0.00579305 0.0490418 0.0803066
-0.0416625 -0.0802853 0.310043
0.320128 -0.0323517 0.396519
-0.380994 -0.0276404 0.416237
-0.304426 -0.032339 0.408534
-0.0746971 -0.0178177 0.60057
-0.288991 -0.0303148 0.449865
-0.185424 -0.0316724 0.507864
-0.262456 -0.0287159 0.493306
0.366958 -0.0301492 0.393615
0.0292923 -0.114094 0.462384
0.0370968 -0.0535595 0.872666
0.0483904 -0.0687278 0.844331
-0.35234 -0.0263632 0.368801
-0.0370678 -0.0483489 0.369804
-0.241801 -0.0296301 0.495426
0.0540925 -0.0255559 0.636858
-0.0795573 -0.0352849 0.534487
-0.102376 -0.0316594 0.479768
0.0429236 -0.110651 0.426724
-0.0355262 -0.0159873 0.618475
-0.272516 -0.0500669 0.503163
-0.0907938 0.109979 0.0641995
0.0338662 -0.0315709 0.309064
-0.0570924 -0.10662 0.517435
-0.00786736 -0.0106839 0.1406
0.037083 -0.0297228 0.492421
0.0566016 -0.0901563 0.616694
-0.0296941 -0.0323922 0.168181
0.111924 -0.0273804 0.499668
0.0859812 -0.0226326 0.542556
-0.00260683 0.080592 0.0485785
0.104043 -0.0251001 0.517659
0.20877 -0.018485 0.512948
0.448917 -0.0217813 0.340918
0.193895 -0.0309696 0.511805
0.00872923 -0.10975 0.717857
0.149655 -0.0299325 0.560326
-0.0508002 -0.0955867 0.743045
-0.0146468 -0.0137847 0.211106
0.0223964 -0.0169152 0.761902
-0.283127 -0.0347042 0.389834
-0.22589 -0.0358638 0.415879
-0.00520422 -0.113898 0.434793
0.180623 -0.0605236 0.536743
-0.0323947 -0.0298555 0.191186
-0.0656692 -0.0326638 0.583418
0.115071 -0.0313141 0.474583
0.373973 -0.0199982 0.41278
0.0351548 0.103568 0.0766281
0.062778 0.11172 0.0873928
-0.283966 -0.0505495 0.509502
0.0382135 -0.0401137 0.819143
0.0362838 -0.113353 0.52431
-0.053991 -0.0907311 0.460755
-0.0362036 -0.0382018 0.210451
0.242872 -0.0195189 0.500424
-0.0411994 -0.0900333 0.853171
-0.0323512 -0.0882112 0.288326
0.392288 -0.0256811 0.350074
0.0022241 -0.0232492 0.850762
0.0166327 -0.112593 0.604692
-0.0329892 -0.0287599 0.70808
-0.0511743 0.106918 0.0443997
-0.293245 -0.0188417 0.450546
-0.411689 -0.0336213 0.308994
0.0673079 0.110226 0.0720867
-0.0537883 -0.0862632 0.521355
0.0361256 -0.0380085 0.213027
0.192798 -0.0296627 0.531818
-0.122999 -0.0254484 0.504802
0.00117406 -0.0122022 0.721127
0.00405655 -0.0118007 0.393661
-0.419416 -0.0201417 0.374472
0.0581355 0.104494 0.0196587
0.418919 -0.02934 0.366393
-0.0517259 -0.0655591 0.728163
-0.160713 0.104726 0.0361473
-0.268512 -0.0186229 0.463248
0.309264 -0.0214847 0.422201
0.0576997 -0.0204056 0.571848
-0.058699 -0.0965219 0.57147
0.178224 -0.0345566 0.470934
0.0405195 -0.0889126 0.31939
-0.033671 -0.112367 0.424765
0.0533707 -0.0731475 0.705387
-0.0194418 0.113799 0.122148
-0.0450681 -0.0436015 0.650076
-0.0220809 -0.112602 0.421926
0.228366 -0.0357707 0.415375
0.0159118 -0.111688 0.768351
0.0264348 -0.0182489 0.311595
0.0080172 0.00510556 0.124429
0.327428 -0.0194425 0.439539
0.01199 -0.113596 0.533218
-0.0403424 -0.0512241 0.243928
0.0407 -0.10255 0.701988
0.0450641 -0.0534825 0.841091
0.0733276 -0.0329415 0.573585
0.0283626 -0.0230416 0.698193
0.00892487 -0.0644611 0.169456
-0.116717 0.104298 0.043643
-0.0498122 -0.0876404 0.426614
-0.0584107 -0.105536 0.529081
-0.274425 -0.0488212 0.485243
-0.180338 -0.0326453 0.497407
0.20506 -0.036665 0.419784
0.287399 -0.0489699 0.475803
0.00672632 0.0353497 0.157429
0.293723 -0.0193757 0.462711
0.0469568 -0.0740142 0.402083
-0.271052 -0.0653215 0.471905
-0.222202 -0.0339664 0.446511
-0.381246 -0.0309221 0.371532
0.0270935 -0.0260008 0.386773
-0.0481642 -0.0535883 0.731131
-0.0260426 -0.113305 0.557658
-0.0176986 -0.0173993 0.455153
0.378004 -0.0303382 0.382527
-0.00626183 -0.109624 0.691478
0.0190042 -0.113222 0.432929
-0.020464 -0.0134099 0.24214
0.332713 -0.0333026 0.347933
0.00239144 -0.0122147 0.82474
-0.0488138 -0.0735024 0.469006
0.0343912 -0.0263756 0.51944
-0.0460287 -0.038261 0.636474
-0.0400599 -0.0473134 0.258811
0.172342 -0.0398763 0.522936
-0.0287959 -0.0195096 0.273594
-0.0768483 0.107785 0.0465969
-0.0330073 -0.0990622 0.823685
0.0395023 -0.0392067 0.746109
0.0446933 -0.0737149 0.860808
-0.0213542 0.103656 0.0775636
-0.0458404 -0.0372919 0.489866
-0.13157 -0.0332737 0.524877
-0.0254005 -0.112462 0.609835
-0.0051632 0.00493953 0.104891
0.117775 -0.0341701 0.522098
-0.0539458 -0.107234 0.600596
0.0215251 -0.0356817 0.865525
-0.0398023 -0.073874 0.263811
0.38127 -0.0228616 0.373044
0.00842578 0.0242687 0.121964
0.329769 -0.026875 0.378607
0.157447 -0.0334546 0.502749
-0.0492733 -0.0814292 0.43907
0.30088 -0.0254341 0.40359
-0.0456641 -0.0640075 0.385745
0.00647103 0.0972627 0.0403694
-0.3311 -0.0310957 0.352872
0.143121 -0.0269698 0.484335
-0.0267329 -0.034301 0.147847
-0.00403892 -0.0390868 0.0875754
-0.0324582 -0.027922 0.746703
-0.427676 -0.0324034 0.314846
0.0462073 -0.0854174 0.380508
0.0221679 -0.016143 0.209767
0.0451628 -0.0994214 0.774764
-0.171042 -0.0291477 0.555752
-0.390519 -0.0254117 0.352697
-0.14899 -0.025236 0.491261
0.219275 -0.0305077 0.499488
-0.042766 -0.101462 0.723351
0.0353974 0.102773 0.0462535
-0.0468607 -0.0874268 0.398305
-0.231821 -0.0330435 0.452823
0.262917 -0.0287985 0.491741
-0.346244 -0.029178 0.355604
-0.00918707 -0.0232671 0.848571
-0.315503 -0.0309847 0.420082
0.0451514 -0.0801705 0.34504
0.246008 -0.0307671 0.475561
-0.0511937 -0.111002 0.504536
-0.0181985 -0.0162853 0.52202
