-0.0351337 -0.0211692 0.588413
-0.0988785 -0.0210386 0.285797
0.00185954 -0.00351822 0.306207
-0.179947 -0.0649097 0.47937
0.00340228 0.0205158 0.170285
-0.00110232 0.053284 0.15456
-0.116718 0.0749748 0.0312814
-0.0797516 -0.00527252 0.343684
0.0374635 -0.0698755 0.608459
-0.0423974 -0.0431308 0.310749
0.0190057 -0.00785338 0.56997
-0.0432026 -0.0400015 0.707144
-0.0196524 -0.00819908 0.341251
0.135093 -0.0673482 0.459039
-0.0232302 -0.0205215 0.894084
-0.0432905 -0.0408937 0.811618
0.0371096 -0.0239647 0.713598
-0.138265 -0.0680298 0.451841
-0.0254494 -0.077128 0.296202
-0.0686326 -0.00481874 0.343038
0.0147753 -0.00765091 0.181244
0.00247539 -0.0503972 0.952458
-0.130215 -0.0721797 0.519989
-0.0676559 -0.00837055 0.264312
0.00589511 0.0860308 0.095664
0.318608 -0.0650071 0.470711
0.0107447 -0.00483913 0.758283
0.00223112 0.00179404 0.249544
0.0163681 -0.0545374 0.184215
0.00301501 0.0722609 0.0771281
0.0943193 0.0794966 0.0316359
0.0258691 -0.0208352 0.181428
0.0418192 -0.0599497 0.818179
0.18408 -0.0703055 0.5094
0.0392631 -0.0279938 0.486552
-0.0225305 -0.0847647 0.57186
0.00351367 0.0327835 0.12237
-0.261221 -0.0656467 0.460451
0.0248024 -0.0127272 0.264906
0.00410178 0.0121833 0.182112
0.0407022 -0.0636325 0.649257
0.00999543 0.0747777 0.0763866
-0.0666064 0.077646 0.0258535
-0.00285372 0.0541584 0.135776
0.00287799 0.0438141 0.125362
-0.0263838 -0.082137 0.453172
0.0847492 -0.0763494 0.567155
-0.00177193 0.0524779 0.148678
-0.381364 -0.0639319 0.473953
-0.00467523 0.000942142 0.166975
0.0197978 -0.0862253 0.360667
0.0656036 -0.0410281 0.340391
-0.181753 -0.0692672 0.488663
-0.0373672 -0.0244466 0.578126
0.000772578 0.0586402 0.0737715
-0.00258397 0.0478482 0.102905
0.165071 -0.0697613 0.491261
-0.334928 -0.0632891 0.44454
-0.0393006 -0.0664385 0.746045
0.110523 -0.0653662 0.499226
-0.0494016 0.0782492 0.0342308
0.0337952 0.0782302 0.0375018
0.0195725 -0.0082125 0.31995
-0.217204 -0.0678899 0.483955
0.00720446 -0.0557173 0.953269
0.0430234 -0.0548292 0.848254
-0.136247 -0.0720837 0.524059
0.000600829 0.0783445 0.0259403
0.355656 -0.0625659 0.44007
0.0116637 -0.00511966 0.835323
-0.0392299 -0.0279317 0.593827
-0.0435112 -0.0431259 0.796548
-0.00703547 -0.0904745 0.720056
0.18666 -0.0660766 0.457103
-0.126659 -0.0696892 0.475827
-0.0566688 -0.0185279 0.336667
-0.0288464 -0.0801159 0.518825
0.233165 -0.0662417 0.531302
-0.154574 -0.0648526 0.495607
-0.0464084 -0.0226378 0.246526
-0.34476 -0.0626129 0.497226
0.0202649 -0.0859756 0.544287
0.0080945 -0.00470129 0.176105
0.168092 -0.0710665 0.514783
0.0319323 -0.0382839 0.216079
-0.335669 -0.0649424 0.475937
-0.0375765 -0.0696642 0.545609
-0.100303 -0.0210722 0.331545
-0.0118024 -0.037394 0.110762
-0.0300287 -0.0791023 0.845978
0.369934 -0.0616431 0.449365
0.00321546 0.00298213 0.141241
0.235432 -0.0645258 0.464108
-0.00161203 0.0693288 0.0894456
0.037354 -0.0700805 0.665844
0.0780145 -0.0452683 0.302854
0.240322 -0.0679518 0.523241
0.00388057 0.0736294 0.0440681
-0.0379306 -0.0255008 0.359549
-0.030752 0.0766175 0.0252709
0.271931 -0.0658414 0.470192
-0.0433892 -0.0526229 0.839608
-0.0567602 -0.0242417 0.286154
0.386133 -0.0616311 0.442
-0.00173312 0.0755826 0.0127467
-0.0179188 -0.00798878 0.267317
-0.0405747 -0.0622624 0.575541
-0.362275 -0.0622804 0.441448
-0.03184 -0.0171557 0.680566
0.00119635 0.0326301 0.174283
0.00596058 -0.0905803 0.793479
-0.0334513 -0.0753829 0.609094
0.177311 -0.0646173 0.485204
-9.68643e-05 0.0838724 0.107209
0.0122514 -0.0708447 0.238305
0.0197453 -0.0862533 0.545612
0.0051425 -0.00384228 0.844965
-0.0779587 -0.0676118 0.47875
-0.066685 -0.0638447 0.551461
0.0037294 -0.0908 0.430996
0.015789 -0.00636909 0.522646
0.0410042 -0.0731337 0.49458
0.0395651 -0.0353193 0.286859
-0.130013 -0.0653278 0.496123
-0.0621933 -0.0285942 0.244058
-0.0381485 -0.0297452 0.875235
0.0767004 -0.0630066 0.581618
-0.000707032 0.0900983 0.112079
0.0401467 -0.0296471 0.36872
0.0337348 -0.0194647 0.417986
-0.041991 -0.0351177 0.614712
-0.00324638 -0.0908476 0.702487
0.0219045 -0.0625943 0.930756
0.324277 -0.0637204 0.448583
-0.0110716 -0.00493831 0.779712
-0.0523956 -0.0666431 0.504066
-0.0306038 -0.0158285 0.784685
0.0298952 -0.0152469 0.494796
-0.0721376 -0.037402 0.234077
-0.0580752 -0.0288639 0.297313
-0.362821 -0.0628391 0.44797
-0.00437416 0.0137477 0.16648
-1.57262e-05 0.0847274 0.12167
0.00069277 -0.0910991 0.644269
-0.0650843 -0.0671409 0.4939
0.303049 -0.0622202 0.474222
-0.0846893 -0.0115596 0.231045
0.118625 -0.0664874 0.47873
-0.175828 -0.062617 0.520547
0.0377176 -0.0236515 0.217837
-0.0431041 -0.0555003 0.514991
-0.0278156 -0.0135402 0.68634
-0.0421937 -0.0295849 0.276906
-0.0110957 -0.00515564 0.26961
-0.00761517 -0.0836091 0.28634
0.00144054 -0.00347695 0.411148
-0.121154 0.0763638 0.0310185
0.0497368 -0.063644 0.594159
-0.147391 -0.0697855 0.477009
-0.0405235 -0.0613813 0.875835
0.0130386 -0.043 0.132627
-0.000961281 0.0389765 0.169117
0.00129756 0.0804791 0.110501
-0.0615375 -0.0316076 0.255553
-0.0405484 -0.0303987 0.715444
0.00382558 0.0250495 0.150301
0.0169481 -0.0877339 0.831162
-0.0606616 -0.026735 0.284758
-0.0751874 -0.0345879 0.344123
0.0798164 0.0749236 0.0346532
0.000974011 -0.00157742 0.121269
-0.0503944 0.0760983 0.026531
0.0134631 -0.00907259 0.108641
0.087402 -0.0398398 0.351326
0.118118 0.076374 0.0063879
0.0372652 -0.0242583 0.806531
-0.281653 -0.0656534 0.47006
-0.026473 -0.0820638 0.513196
-0.00485989 0.0878002 0.078145
0.0731488 0.0803413 0.0441842
-0.146168 -0.0660662 0.480096
0.0165777 -0.0776995 0.27317
0.0434702 -0.0517803 0.531508
0.0417946 -0.0344715 0.599436
-0.0292931 -0.0162154 0.282223
-0.120259 0.0775265 0.031684
0.0706193 -0.0708385 0.47239
0.0644587 -0.074455 0.591789
-0.0451485 -0.0699975 0.450896
0.0404825 -0.0302753 0.358054
-0.0114377 -0.0894529 0.796985
-0.0384505 -0.0264735 0.572702
0.0946664 -0.0652952 0.579848
0.00297079 0.0403878 0.136978
0.260225 -0.0669514 0.488608
-0.0292854 -0.0708686 0.906719
-0.00194641 0.0786785 0.0358777
-0.0387909 -0.0271104 0.415631
0.0993328 -0.0219629 0.341854
0.033185 -0.0187947 0.770577
-0.0139875 -0.088678 0.813305
-0.0129788 -0.0810243 0.922376
-0.0400453 -0.065045 0.500914
-0.0434194 -0.0522986 0.596632
0.0433295 -0.0412949 0.38722
0.0193449 -0.0864673 0.656982
0.063999 -0.0765024 0.571688
0.0861419 -0.0126621 0.230258
0.024935 -0.0111763 0.597113
-0.0903188 -0.0747319 0.540591
0.0376482 -0.0239002 0.210799
0.0434455 -0.0424712 0.49183
0.239895 -0.0657832 0.452711
0.0878886 -0.0351524 0.235552
-0.19227 -0.0676511 0.466492
-0.0347668 -0.0349264 0.893896
0.0164046 -0.0307096 0.913332
0.0614596 0.078125 0.0733467
-0.0296161 0.0763328 0.0362137
-0.14144 -0.0682651 0.458145
0.0228017 -0.0124197 0.22664
-0.02125 -0.0827382 0.310243
0.03908 -0.0212659 0.285363
-0.000275806 0.0261602 0.0860514
0.0483381 -0.0305929 0.248374
0.0229379 -0.00995539 0.362121
-0.0027936 0.0553921 0.131253
0.0820727 -0.00196963 0.336912
-0.0536036 0.0748092 0.066159
-0.0785182 -0.0708263 0.474822
0.0417968 -0.0344805 0.795618
-0.0928307 -0.0644276 0.579477
0.0072181 0.0783894 0.0663714
-0.0431753 -0.0547777 0.373879
-0.283048 -0.0650731 0.458834
-0.0978566 -0.0272077 0.276184
-0.0408461 -0.0313441 0.427315
-0.231122 -0.0656608 0.446135
-0.0243847 -0.0837633 0.801639
0.0501611 -0.0221892 0.259232
0.031146 -0.0234634 0.223163
-0.0204119 -0.00860506 0.559163
-0.0684151 -0.0738305 0.525029
-0.0235033 -0.0842447 0.69784
-0.0255421 -0.0116746 0.345289
0.0661247 -0.0422179 0.325686
-0.00621204 -0.000290165 0.193685
0.0180796 -0.0871322 0.819996
-0.0582818 -0.0223884 0.270769
-0.00741415 -0.0904372 0.636775
0.0204123 -0.0858899 0.803536
0.00275174 -0.0410874 0.943314
0.00299395 -0.0908725 0.795892
0.109255 -0.0663775 0.483872
0.0038673 0.0260432 0.143201
0.0431443 -0.0394147 0.532553
-0.045314 -0.067596 0.489545
0.164565 -0.0654248 0.478809
-0.0643754 0.0783135 0.0312663
-0.0335116 -0.0191926 0.730573
-0.0272243 -0.0642295 0.917796
-0.0304806 -0.0787747 0.350515
0.221618 -0.0674158 0.476519
0.0620237 -0.0173309 0.353014
0.110133 -0.0630056 0.536664
0.080237 -0.0677909 0.474206
-0.0012315 0.00983039 0.11116
-0.0289214 -0.0144477 0.351898
-0.0297897 -0.0151603 0.607346
-0.189788 -0.0632335 0.507369
0.000136823 0.0680231 0.0549314
0.149109 -0.0704389 0.502703
-0.032701 -0.018205 0.496376
0.0423396 -0.0770374 0.557454
0.0977065 -0.0697156 0.582448
-0.0100515 -0.0898734 0.562024
0.364327 -0.0624349 0.441296
0.000622359 0.0253026 0.0902319
0.178212 -0.0711365 0.519878
0.00483347 -0.0906913 0.510119
0.00568417 -0.0642595 0.204357
-0.0576688 -0.0242134 0.34548
0.040619 -0.0298286 0.270011
-0.049014 -0.0312008 0.231163
-0.0206648 -0.0167884 0.137706
-0.0190105 -0.086646 0.636312
-0.00544858 -0.0906307 0.412884
0.0527509 -0.0652423 0.52919
0.0148618 -0.00670289 0.24458
-0.0280361 -0.080781 0.337118
-0.0618572 -0.0635208 0.561462
0.0227723 -0.0846354 0.668204
-0.0300975 -0.0790891 0.525753
0.22057 -0.0691617 0.511536
-0.0599572 -0.0731438 0.509688
-0.0104293 -0.0532448 0.166474
-0.0031092 0.0404615 0.126162
0.000551866 0.00515467 0.10212
0.0621915 -0.0372866 0.285003
-0.0503408 0.0748808 0.0681272
0.346182 -0.0614049 0.465057
0.0332498 -0.0188737 0.374649
0.387509 -0.0623407 0.44906
0.00395482 0.0773177 0.0977116
0.060236 -0.0340328 0.344961
-0.0351025 -0.0211313 0.491618
-0.035337 -0.0246121 0.876351
0.00418637 -0.00374736 0.334306
-0.00113792 0.0720168 0.0534144
-0.0147742 -0.0231571 0.0947106
-0.0196947 -0.00822167 0.677211
-0.0280721 0.0785027 0.0404013
0.0612702 -0.0259066 0.272024
0.231292 -0.0652263 0.451657
-0.0565485 -0.0747369 0.534473
-0.0238659 -0.0104515 0.667899
0.0253229 -0.0738455 0.912151
0.316444 -0.0626998 0.457389
0.102608 -0.0664897 0.484886
0.0796654 -0.0681694 0.467607
0.0295589 0.0759193 0.0555233
0.0383957 -0.026371 0.363602
-0.0216877 -0.0852111 0.792986
0.00936843 -0.0700725 0.946618
0.0585134 -0.0719089 0.486468
-0.0663564 0.079203 0.03779
0.0344715 -0.0741184 0.842556
0.00297365 0.0449965 0.113296
0.101277 -0.0657678 0.496863
0.0148049 -0.0884314 0.737793
-0.0201494 -0.0860373 0.566791
-0.0385761 -0.0578044 0.292007
-0.0133963 -0.0888587 0.421418
-0.0410087 -0.0299611 0.266259
0.0416033 -0.0338407 0.673327
-0.0120041 -0.0828192 0.917845
-0.137482 -0.0675684 0.45401
-0.0112111 -0.0503269 0.156953
-0.0273274 -0.0813626 0.333307
-0.000857962 0.0888576 0.0766232
0.0520788 0.0816357 0.0599836
-0.130041 -0.0732479 0.538553
0.0151324 -0.088332 0.710214
-0.0169998 -0.00679733 0.323208
0.0297314 -0.0653429 0.912303
0.209136 -0.0644206 0.479062
-0.0205064 -0.00865561 0.603377
0.0290785 0.0754048 0.0772326
0.0098094 -0.00455545 0.628686
0.064217 -0.0391367 0.282851
-0.25366 -0.0669664 0.48484
-0.0094105 0.0749726 0.0575791
0.036339 -0.0718644 0.732521
-0.0437915 -0.0459809 0.778903
0.0110669 -0.0895654 0.813607
0.0434362 -0.0423766 0.688419
0.0172306 -0.00690446 0.755168
0.0437453 -0.0489886 0.334157
-0.0204416 -0.0246527 0.203898
-0.0198646 -0.0128475 0.164643
0.012783 -0.0890448 0.430056
0.00302352 0.0279731 0.113092
-0.146777 -0.0700739 0.460081
-0.00600807 -0.0905757 0.749015
-0.0213369 0.0752555 0.0849004
0.0846442 -0.0731413 0.514507
0.195616 -0.0649138 0.473086
0.0379725 -0.0690504 0.467792
0.00265371 -0.00373666 0.281304
0.0569498 -0.0634518 0.561346
-0.0011617 -0.0910529 0.524486
-0.000285303 0.0810509 0.107487
-0.23117 -0.067704 0.487727
-0.0366754 0.0758822 0.0488753
0.00445997 -0.0907281 0.590965
-0.0154826 -0.0882258 0.491187
-0.367069 -0.0640794 0.484375
0.000203642 0.0780316 0.0727997
-0.0283703 -0.0805066 0.442388
0.189445 -0.0647208 0.478694
0.00115267 0.0751581 0.101379
0.0135713 -0.0888056 0.637881
-0.00336977 0.0881923 0.109355
-0.112339 -0.0717511 0.500553
0.239696 -0.0650172 0.451334
0.189773 -0.0651056 0.472263
-0.263418 -0.0628184 0.485491
-0.0782652 -0.0429116 0.261728
-0.00867979 -0.0902896 0.540021
-0.0429643 -0.056175 0.816213
-0.0181669 -0.0326306 0.119923
-0.0162549 -0.0879914 0.779457
0.05211 0.0779963 0.0315152
0.270973 -0.0645754 0.443639
0.131741 -0.0626433 0.548128
-0.0678378 -0.0716557 0.486393
0.0354039 -0.0214986 0.68222
-0.0337102 -0.0194347 0.511176
-0.0401187 -0.0715565 0.468461
0.0431235 -0.0392036 0.724919
0.0370005 -0.0707418 0.483524
-0.121881 -0.0694138 0.467789
0.0390297 -0.0286088 0.313987
0.0103402 -0.00471646 0.682973
-0.00639156 0.0823031 0.063529
0.00806525 -0.00358981 0.240996
-0.094671 -0.0175209 0.35321
0.0299049 -0.0239954 0.23893
-0.0977172 -0.014304 0.290623
-0.000939742 0.0782091 0.0259595
0.14522 -0.0650808 0.438514
-0.0818589 -0.0647771 0.584674
-0.0366492 -0.0231033 0.405836
0.0527686 -0.0295201 0.278739
0.0700699 -0.0708236 0.471934
-0.109786 -0.0749236 0.55149
0.0437034 -0.0732054 0.497433
-0.000842947 -0.0910843 0.698025
0.217461 -0.0690084 0.50653
0.00952051 -0.00446783 0.493805
-0.0242752 0.079942 0.0526279
-0.155542 -0.0690638 0.478365
0.0271316 -0.0152065 0.257316
-0.00233046 0.0289964 0.104357
-0.0943542 -0.0673707 0.583014
-0.0625374 -0.0640311 0.551782
0.0264823 -0.0820562 0.63688
0.0961438 -0.0288349 0.26413
0.0850554 -0.0627824 0.57776
0.0252054 -0.0831041 0.607604
-0.0499127 -0.0310563 0.235254
0.0338618 -0.0748828 0.406546
-0.193091 -0.0693491 0.498851
-0.0428554 -0.0379669 0.701987
-0.0430941 -0.0556019 0.401847
-0.047634 -0.0291212 0.290027
-0.176879 -0.0687454 0.550281
0.0940614 -0.0702575 0.470246
0.3532 -0.0641166 0.490794
0.0662344 -0.0702541 0.460234
0.0435055 -0.0430797 0.779979
-0.0681322 -0.075347 0.551154
0.022334 -0.00990772 0.300989
0.043608 -0.04412 0.471552
-0.0107522 -0.0074679 0.110379
0.00369568 0.0120785 0.186311
0.0218059 -0.0851519 0.368896
-0.0400754 -0.0649888 0.362472
-0.00234609 0.0426497 0.100633
-0.194721 -0.062908 0.539451
0.0212559 -0.00905626 0.730632
0.000511632 0.00395026 0.101739
0.0720914 -0.0736397 0.589399
0.0329592 -0.0759826 0.608641
0.0320955 -0.0174671 0.761036
-0.257589 -0.0621365 0.504908
-0.00377452 -0.0907956 0.412256
-0.000353976 0.0805682 0.11591
-0.0751423 -0.0111545 0.343295
0.0324871 -0.0765577 0.500631
0.0566252 -0.0310834 0.318401
0.182249 -0.0638812 0.496812
-0.0212364 -0.0531708 0.194086
0.0245084 -0.0108263 0.741067
-0.0126257 -0.0890925 0.712825
-0.0275666 -0.013336 0.694701
0.00448738 0.0875905 0.0883481
-0.0377742 -0.0252081 0.69183
0.0431048 -0.0554879 0.642144
-0.0843221 -0.0634498 0.543014
0.0316968 -0.0775207 0.607966
-0.0928372 -0.0289222 0.241222
0.00968991 -0.0047037 0.852817
0.00389842 0.0784528 0.104914
0.108778 -0.0748304 0.562838
-0.369685 -0.0619754 0.443484
0.103672 0.0761545 0.00838384
0.0338882 -0.0196516 0.515212
0.00910692 -0.00472895 0.232899
-0.0435307 -0.0433336 0.33984
0.0243164 -0.0838102 0.441016
0.00463783 -0.0530966 0.158701
0.0372745 -0.0702291 0.655451
-0.0904076 -0.00634735 0.285633
-0.0187653 0.0768718 0.0278489
-0.0591309 -0.0724729 0.59722
0.0703702 -0.00201507 0.331994
0.0273436 -0.0813493 0.6184
-0.0368576 -0.0710092 0.75714
0.047047 -0.0285711 0.3056
0.144545 -0.0649759 0.502362
0.0468029 0.0766867 0.079991
-0.244379 -0.064727 0.454939
-0.0606002 -0.0225522 0.28589
0.405673 -0.0611009 0.458168
-0.0420862 -0.0590706 0.353535
0.0603742 -0.0339011 0.278355
-0.00122357 0.0845139 0.0608031
0.0432015 -0.0399954 0.734126
-0.188943 -0.0686526 0.482321
0.0364511 -0.0227746 0.459894
0.310569 -0.0642725 0.454215
0.0281688 -0.0751801 0.297596
-0.0233572 -0.0662389 0.926439
0.0385773 -0.0677917 0.697907
-0.270171 -0.0619339 0.50292
-0.065123 -0.0169566 0.234171
-0.0759889 -0.0688823 0.457131
0.000328102 0.0243571 0.0873324
-0.0357353 -0.0703383 0.449033
-0.0998417 -0.0182741 0.303171
-0.157868 -0.0624244 0.537994
0.0703703 -0.075408 0.552225
-0.072837 -0.0647668 0.530186
0.093829 -0.0343272 0.265523
-0.0425808 -0.0370618 0.37023
0.144329 -0.0725423 0.543167
-0.0233585 -0.0843221 0.726147
4.15305e-05 0.0738722 0.0535531
0.0321826 -0.0233197 0.22723
-0.0433241 -0.0532662 0.580486
-0.322112 -0.062099 0.465648
0.00946214 -0.0724928 0.944158
0.276342 -0.0661504 0.515082
0.0949584 -0.00843519 0.331371
-0.0397393 -0.0288848 0.634982
-0.0424584 -0.0488579 0.878306
-0.000397526 0.0153543 0.196602
0.0559244 -0.0222236 0.336711
-0.0433654 -0.0416543 0.510202
0.369782 -0.0612959 0.455709
-0.231956 -0.0654043 0.44783
0.0781023 -0.0451602 0.299796
-0.0414793 -0.0463339 0.298842
-0.0379086 -0.061985 0.591789
-0.0351621 -0.0266477 0.265386
-0.0421371 -0.0589028 0.332402
-1.79438e-05 -0.00246665 0.0993504
0.0679652 -0.00232085 0.325149
-0.278338 -0.0666199 0.490116
0.26724 -0.0621754 0.498392
-0.0589726 -0.0222315 0.258027
-0.177961 -0.0710639 0.518451
-0.0724952 -0.00918229 0.243395
0.000192516 0.0795288 0.131288
-0.0193461 -0.0538242 0.937527
-0.0170524 -0.0358175 0.122848
-0.023392 -0.0286648 0.198265
-0.00397279 0.0230939 0.130574
0.00817756 -0.0867808 0.304444
0.0252029 -0.0474558 0.192979
-0.0395222 -0.0660237 0.543087
-0.0438795 -0.0468755 0.439488
-0.0370535 -0.0238599 0.779038
-0.0547496 -0.0668197 0.50121
-0.208072 -0.0627497 0.512334
-0.0370144 -0.0237865 0.34439
0.0379279 -0.0283227 0.296174
0.0418054 -0.0345069 0.536681
0.0371965 -0.0234153 0.296492
0.000795034 0.0749554 0.123382
-0.00388865 -0.0907844 0.823226
0.0361489 -0.0720961 0.573079
-0.00924926 -0.00438556 0.429571
0.0132411 -0.075188 0.93333
0.185029 -0.0674607 0.459897
-0.00820449 -0.00410983 0.246678
0.0130833 -0.0165841 0.897385
-0.0559551 -0.0187239 0.305646
0.0173894 -0.0875125 0.684676
-0.0864159 -0.0434931 0.29873
-0.348065 -0.0647056 0.475976
-0.0979362 0.0777135 0.0190018
-0.0353772 -0.0730363 0.754474
-0.185957 -0.0709919 0.523589
-0.0901663 -0.00594718 0.287452
0.116592 0.0745105 0.0277466
0.0400315 -0.0464372 0.284182
-0.265738 -0.0636064 0.466984
-0.0182835 -0.00746732 0.735923
-0.0433003 -0.0535081 0.424669
0.0358889 -0.0788375 0.589237
0.104641 -0.0682438 0.45604
0.0876599 -0.0725236 0.504451
0.0272464 -0.0199895 0.205453
0.11719 -0.0716805 0.50136
-0.0328624 0.0755546 0.0838801
-0.043869 -0.0224106 0.252958
0.0392656 0.07953 0.046917
-0.0939063 -0.0660135 0.496075
-0.0313099 -0.0779921 0.750868
0.0918491 -0.018958 0.345183
0.0437219 -0.0452765 0.46775
0.0886572 -0.0275247 0.343873
-0.0136089 -0.0887942 0.462122
0.0774325 -0.0761431 0.564512
0.011724 -0.089366 0.659293
-0.00629798 0.0782596 0.0557387
-0.0247332 -0.0721549 0.271935
0.0319701 -0.0393461 0.217126
-0.0400565 -0.0294782 0.345339
-0.0436801 -0.0448441 0.790541
0.022928 -0.0099501 0.423567
0.0654955 0.0779511 0.0705571
0.334943 -0.0654224 0.48466
-0.00108708 0.0832143 0.119841
0.245285 -0.063672 0.476986
-0.024253 -0.0294695 0.905727
-0.201113 -0.0693208 0.50421
0.0146092 0.0752803 0.0703256
0.0888866 -0.0744253 0.535262
0.000110394 0.0687827 0.0536356
-0.0266954 -0.012621 0.602953
-0.0249337 -0.0111753 0.346272
0.0386584 -0.0676399 0.732749
-0.130203 -0.0733459 0.551387
0.0335448 -0.0749902 0.859999
0.00576226 -0.0484665 0.949381
-0.0372822 -0.0702147 0.807407
0.0042384 -0.00375311 0.817296
-0.209694 -0.0653335 0.460626
0.0261137 -0.0823586 0.500463
-0.128152 -0.0678598 0.453003
0.386234 -0.0635185 0.475621
-0.0424273 -0.0365559 0.603221
0.0607448 -0.0220758 0.325943
0.210359 -0.0696155 0.51467
0.014649 -0.00602332 0.689163
0.00610727 0.0851804 0.0746359
0.336483 -0.0631343 0.442389
0.0245052 -0.0108236 0.70289
0.0625979 -0.0376669 0.282794
0.132457 -0.0668891 0.468822
-0.0424793 -0.057605 0.844792
0.0217985 -0.0093463 0.630522
-0.00518862 0.00199351 0.220577
0.0377829 -0.0273161 0.303556
-0.0435673 -0.043705 0.665973
0.0237174 0.0836114 0.0870533
0.331778 -0.0646407 0.468765
0.000236597 0.0794322 0.0845327
-0.0388008 -0.0271289 0.64528
0.00192109 0.0247645 0.101433
0.0745069 -0.0355884 0.344158
-0.0369545 -0.0236745 0.549051
0.0608623 -0.0366389 0.339629
-0.0157101 -0.00650681 0.290623
-0.00341072 0.0806144 0.0487495
-0.0887709 -0.0419309 0.297774
0.207665 -0.0656667 0.455445
0.087145 0.0747607 0.032875
0.0268491 -0.0127471 0.450338
0.0203931 -0.00859645 0.827294
0.0317352 -0.0170299 0.808975
-0.042178 -0.0370244 0.856697
0.0017075 -0.0909992 0.710411
-0.120571 -0.0626053 0.540419
-0.0297481 -0.0793758 0.6262
-0.0224783 -0.0100435 0.29564
0.0418275 -0.0599222 0.427859
0.0221679 -0.0849585 0.696182
-0.063052 -0.0251719 0.234825
0.0527017 -0.0213902 0.28185
0.0386234 -0.0601276 0.298291
-0.031615 -0.0776204 0.757116
-0.0324697 -0.0179231 0.557067
0.107952 -0.0621699 0.553186
0.315518 -0.0609715 0.498532
-0.0417001 -0.0603432 0.5458
-0.0812173 -0.0441547 0.288958
0.0235436 -0.0244387 0.198242
-0.00244404 0.0615426 0.0998314
0.163215 -0.0703376 0.501317
0.301653 -0.0613849 0.491935
-0.0364507 -0.0741053 0.506243
-0.0135914 -0.00570257 0.691929
-0.0243152 -0.0106916 0.467534
0.139435 -0.0714924 0.45942
-0.340256 -0.0639328 0.458611
-0.0368417 -0.0265775 0.2933
-0.00358353 0.025248 0.120501
-0.00212832 0.0839945 0.0549395
-3.75886e-05 0.0707867 0.053934
0.0526418 -0.0204052 0.309731
-0.0596158 -0.0733918 0.595643
-0.0327239 -0.0216412 0.268587
0.0288882 -0.0515349 0.221458
-0.0223112 -0.0848819 0.454467
-0.0510022 -0.0219631 0.265622
0.021379 -0.08107 0.301812
0.00696516 -0.0544033 0.166486
0.00678638 0.0813311 0.0624559
0.0427194 -0.0375202 0.662697
-0.0305869 -0.0158145 0.75983
0.0431066 -0.042532 0.320263
0.210664 -0.069128 0.505249
-0.0309116 -0.016081 0.742445
0.0830922 0.0747902 0.0526837
-0.00189325 0.07042 0.113698
0.0144891 -0.00926131 0.128291
-0.0241213 -0.010588 0.341314
0.0276612 -0.0147306 0.274342
0.039897 -0.0653225 0.564622
0.0702318 -0.0769947 0.578872
-0.00763253 0.0745397 0.0766589
-0.0904485 -0.0749148 0.543593
-0.0186912 -0.00768526 0.554046
0.0437167 -0.0492786 0.414268
0.0391999 -0.0258925 0.322427
-0.381739 -0.062619 0.451719
-0.0077218 0.0811144 0.0682349
0.0630709 -0.027674 0.23452
0.0541954 -0.0291248 0.289927
0.0307535 -0.0785507 0.470546
0.0345022 -0.0738608 0.857001
0.264632 -0.0626407 0.488948
0.0620279 -0.0204844 0.344511
0.009308 -0.017689 0.901194
-0.0167274 -0.0565017 0.192219
0.0882411 -0.0684078 0.459941
-0.0361389 0.0782353 0.0372104
0.0410231 -0.0319279 0.536554
0.136221 -0.0704439 0.495082
-0.032528 -0.0179941 0.380846
0.186317 -0.0656876 0.464102
-0.0431354 -0.0551828 0.772908
-0.0259116 -0.0560777 0.22117
-0.0422684 -0.036032 0.760992
-0.0657458 -0.0100478 0.351174
0.0179034 -0.00772476 0.286831
-0.00201984 0.0743355 0.0838159
-0.0125336 -0.00538172 0.60217
0.208089 -0.0628624 0.510143
-0.00250534 -0.00358181 0.384395
0.022724 -0.0846612 0.326175
-0.127481 -0.0707759 0.566544
0.00471211 -0.0907033 0.826092
-0.0387049 -0.0675529 0.390302
-0.262136 -0.0620292 0.514528
0.0134315 -0.00882494 0.115862
-0.000419952 0.0164863 0.0973297
-0.00578573 0.079892 0.0575138
0.0351165 -0.0211483 0.609678
0.00305952 0.0312955 0.113134
0.036496 -0.0228292 0.730189
0.265658 -0.0669072 0.490508
-0.00174316 -0.00126072 0.270028
-0.333629 -0.0640853 0.458987
-0.25456 -0.0674549 0.496615
0.0437291 -0.0491525 0.356379
-0.0431247 -0.0392103 0.656463
-0.102809 -0.0698632 0.467238
0.0353407 -0.0417279 0.243862
0.169915 -0.0712651 0.518028
-0.143767 -0.0668897 0.465413
-0.0391574 -0.0277961 0.399323
0.197879 -0.0700565 0.516251
0.0392761 -0.0280182 0.704839
0.248408 -0.0639903 0.468486
0.0216295 -0.0798083 0.295866
0.0293389 -0.0797116 0.425938
-0.0275694 -0.0173462 0.234283
-0.036828 -0.0426859 0.255706
0.0603548 -0.0226653 0.315141
0.00169768 0.039266 0.159488
-0.0417108 -0.0603079 0.350009
-0.00357335 -0.0908154 0.812597
0.0852392 0.0749715 0.030068
0.0276635 0.0790965 0.0455185
-0.301187 -0.0636455 0.446462
0.0992658 -0.0247026 0.288472
0.000399775 0.0685586 0.1445
0.0433726 -0.0527702 0.666099
-0.114399 -0.0657876 0.490947
0.0938867 -0.0720049 0.498222
0.0671743 -0.0428027 0.330404
0.0406573 -0.0637805 0.481049
0.0363692 -0.0710068 0.865833
-0.0260962 -0.082373 0.622429
0.038725 -0.0269871 0.368868
-0.000793883 0.057903 0.152521
-0.0419086 -0.056487 0.877113
-0.0329853 -0.0759507 0.77058
-0.0956022 -0.0370628 0.330118
0.127411 -0.0655303 0.492471
0.0258647 -0.0119393 0.474197
-0.0565583 -0.0310905 0.328746
-0.0979032 0.0750746 0.0184423
-0.0402072 -0.0336704 0.870449
-0.0620494 -0.0720141 0.490998
0.0308448 0.0777317 0.091856
0.0382024 -0.0471984 0.893791
0.0392977 -0.0280587 0.359279
-0.00269907 0.0555956 0.11584
0.140197 -0.0649146 0.482292
-0.00960208 -0.0900098 0.366887
-0.169213 -0.0624669 0.526185
0.145371 -0.0628418 0.54268
-0.0422296 -0.0359044 0.474899
0.0435029 -0.0430544 0.72345
-0.0650904 -0.012405 0.251293
0.0207155 -0.0232067 0.12253
-0.0309266 -0.0783662 0.845638
-0.038036 -0.0204957 0.308845
-0.0553548 0.0760271 0.0250484
-0.205169 -0.0700711 0.532954
-0.108749 0.0800445 0.0274405
-0.0334673 -0.0753634 0.656903
0.0115946 -0.00509692 0.426398
0.0457056 -0.0211195 0.289509
0.0093866 -0.0900752 0.46419
-0.0242997 -0.0838191 0.490698
-0.0359379 -0.0723531 0.70895
-0.277765 -0.0651498 0.457898
-0.041753 -0.0601687 0.370979
0.0634577 -0.0772171 0.582312
0.00366448 0.0294703 0.146697
-0.00402063 0.0229196 0.144147
-0.0451439 -0.0723556 0.483738
0.310099 -0.0623178 0.468394
0.00129648 0.0717368 0.121727
0.0356978 -0.0226437 0.857229
-0.0750668 -0.0655814 0.588527
-0.140857 -0.0725648 0.539594
0.0996796 -0.0747343 0.543611
0.0937238 -0.0727924 0.510684
-0.00485345 0.00295819 0.227905
-0.23458 -0.0647424 0.459945
0.0629062 -0.0280492 0.237877
-0.0836633 -0.030522 0.345769
0.0331891 -0.0757025 0.337206
0.100204 -0.0649908 0.576723
0.0274423 -0.0812683 0.680193
-0.0266665 -0.081905 0.640983
-0.0875623 -0.00214409 0.310852
-0.0431926 -0.0546021 0.620235
0.00757616 -0.00616448 0.109813
-0.401807 -0.0612367 0.445428
-0.0218568 -0.0851248 0.760489
-0.00276881 -0.0675023 0.216316
-0.00911369 -0.0897966 0.881635
0.023885 -0.0209737 0.15916
0.00370949 0.0210051 0.168472
0.0275722 -0.0133405 0.396842
0.0038285 0.0812966 0.112432
0.0951638 0.0771154 0.0165505
0.0170807 -0.0876775 0.532382
0.0316772 -0.0169573 0.43943
0.314074 -0.0648422 0.465886
-0.0211296 -0.0850242 0.87968
0.194054 -0.0646424 0.47815
0.278245 -0.0672364 0.503745
0.0666677 -0.00799063 0.348091
0.0359671 -0.0287828 0.266402
-0.0732185 -0.00274852 0.286691
0.0661509 -0.00549244 0.339897
0.00559854 0.0787275 0.0992473
-0.233027 -0.0647289 0.461079
-0.0258781 -0.0119503 0.416099
-0.0433722 -0.0527786 0.600806
0.188192 -0.0629416 0.512971
0.0979061 -0.0148033 0.289555
-0.00312621 0.0384672 0.113225
-0.0012483 0.0414987 0.162844
-0.0560072 -0.0655296 0.59607
-0.229838 -0.0686695 0.50716
0.00829751 -0.0903502 0.541732
-0.103817 -0.0751153 0.566589
0.0182286 -0.059671 0.207796
-0.000344626 0.0771286 0.0805732
-0.190438 -0.0659174 0.458349
0.152342 -0.0682146 0.560993
0.0438841 -0.0469027 0.817789
0.0424421 -0.057896 0.441463
-0.0316822 0.079457 0.0943812
-0.0338132 -0.0226459 0.87544
-0.0340922 -0.0746021 0.495267
0.010725 -0.066912 0.220782
0.0661047 -0.0413799 0.301634
-0.0435563 -0.0435938 0.694781
0.0792133 -0.0731498 0.51439
0.00243317 0.00265936 0.13528
-0.0409948 -0.0626351 0.843218
0.000280825 -0.0437307 0.118738
0.00115288 0.01713 0.188177
-0.0443296 -0.074405 0.515825
0.0619156 -0.0150564 0.259625
0.100778 -0.0214923 0.323777
0.0349713 -0.0209714 0.469055
-0.399322 -0.0614352 0.439336
0.0412256 -0.0325954 0.472454
0.004128 0.0191704 0.137445
-0.0615999 -0.0747309 0.592739
-0.363136 -0.0645054 0.477493
0.25969 -0.0657241 0.461359
0.0433655 -0.0416593 0.498326
0.391669 -0.0625058 0.477028
0.031374 0.0782193 0.0376421
-0.00764551 0.0825221 0.0767879
0.0388284 -0.0673219 0.761034
-0.00676803 0.0778679 0.0815862
-0.00695062 -0.078921 0.934665
0.0602986 -0.0282151 0.315679
-0.0156961 -0.0878501 0.881014
-0.00440651 -0.00373421 0.153764
-0.114913 -0.066447 0.480364
0.0904354 -0.00760718 0.276712
-0.0567926 -0.0279004 0.225986
-0.0467654 -0.0679243 0.483425
-0.163891 -0.0671654 0.557664
0.00152811 0.0776051 0.0232473
0.27859 -0.0616668 0.50731
0.0710306 0.0810114 0.0634829
-0.0785645 -0.00516105 0.343624
0.0413393 -0.0329705 0.352179
0.0434977 -0.0430017 0.445948
0.0435504 -0.0435354 0.778702
-0.0419509 -0.0349857 0.553788
0.0370686 -0.0706144 0.409385
-0.0273507 -0.0813434 0.664204
0.0683583 -0.0436718 0.324544
0.204572 -0.0638631 0.492214
0.185081 -0.0647963 0.47919
-0.323433 -0.0625298 0.456611
-0.0169209 -0.0111209 0.137395
0.0781841 -0.0633556 0.550077
-0.00123468 -0.036214 0.930639
-0.163887 -0.0684305 0.469197
0.189862 -0.068685 0.483662
0.00294515 0.0433412 0.122813
0.00200043 0.0584953 0.090798
0.0669595 -0.0404364 0.345849
-0.0437725 -0.0457888 0.337468
-0.00144592 0.0600278 0.0824743
0.0386876 -0.0269172 0.327394
-0.0317491 -0.017045 0.541809
-0.204779 -0.064215 0.485103
-0.0304959 -0.0787621 0.428479
0.0102088 -0.00467659 0.700183
-0.00238681 0.0892087 0.0831247
-0.00309822 0.0415901 0.113521
0.0252544 -0.0114384 0.713208
0.00149413 -0.0910202 0.790352
-0.0755768 -0.0745481 0.536865
-0.0189615 -0.0866722 0.627365
0.0354067 -0.0730004 0.657038
-0.191895 -0.0644232 0.482998
0.203874 -0.0649029 0.470204
0.0261015 -0.0121336 0.587779
0.0396831 -0.0657227 0.836741
0.0423707 -0.0363707 0.409005
0.0426515 -0.0572054 0.563102
-0.0422019 -0.0767493 0.597746
-0.0178283 -0.00782785 0.274543
-0.0968412 -0.029525 0.271393
0.0221862 -0.00955356 0.40837
-0.072523 -0.0414579 0.257284
0.043204 -0.0544812 0.404738
0.0340293 -0.0198236 0.73091
-0.253119 -0.0641004 0.46357
0.0395541 -0.0304756 0.308958
-0.043478 -0.0517039 0.506724
0.0973052 -0.0181322 0.274627
-0.196034 -0.064851 0.473947
-0.0205082 -0.0413293 0.154127
0.0010887 0.0735899 0.0948448
-0.266177 -0.063646 0.465902
-0.0427788 -0.0625925 0.570599
0.00503967 -0.00383139 0.47939
0.0902241 -0.0080598 0.345932
0.23587 -0.0681833 0.463012
0.00246875 0.0357851 0.104476
-0.018063 -0.086954 0.870862
0.0120929 -0.0892541 0.644828
-0.137147 -0.0663223 0.470055
-0.158696 -0.0641005 0.506547
0.0780208 -0.0766241 0.571905
-0.397283 -0.0616139 0.440123
0.00853632 -0.0903267 0.436586
-0.0161569 -0.0478532 0.937975
-0.0434945 -0.0515367 0.670495
0.00343071 0.0265107 0.118454
-0.0437319 -0.0453766 0.70577
-0.319957 -0.0608259 0.490651
-0.01158 -0.0894097 0.487079
0.0034913 -0.0431069 0.117548
0.276869 -0.065447 0.463979
0.0330553 -0.0758654 0.544855
-0.00968869 -0.00451885 0.408586
-0.0311357 -0.0782044 0.626707
0.107419 0.0781813 0.0177467
-0.0183514 0.0766611 0.0325052
-0.0895105 -0.0726399 0.506755
-3.7614e-05 0.00611538 0.238643
-0.0397789 -0.0655435 0.612128
-0.29868 -0.066547 0.495747
0.157036 -0.0674831 0.449804
-0.0144995 -0.088524 0.75665
0.0379863 -0.025605 0.411766
-0.0107196 -0.00527615 0.220869
-0.0432115 -0.0544105 0.528466
-0.062122 -0.0626058 0.58445
0.109987 0.0797407 0.0256241
0.0137531 -0.0837753 0.911301
-0.0353526 -0.0730663 0.575579
0.00309519 -0.0908625 0.33375
-0.0321367 -0.0175172 0.337575
-0.0323385 -0.0177632 0.707682
0.0863055 -0.0701864 0.466136
-0.0469716 -0.028786 0.299516
0.0240249 -0.0105364 0.718176
0.0664236 -0.00387139 0.330167
-0.192355 -0.0656987 0.461444
-0.14624 -0.0674939 0.436517
-0.00844038 -0.0585607 0.184782
0.0189995 -0.0167718 0.119558
0.253219 -0.0676006 0.520969
-0.0778274 -0.0622797 0.568255
-0.0845363 -0.0444579 0.332941
0.0208649 -0.0637315 0.229783
-0.0968895 0.0756324 0.0110822
0.0294763 -0.0149031 0.499846
0.0304964 -0.020264 0.879365
-0.322206 -0.0657678 0.486445
-0.306525 -0.0612043 0.501094
0.00959378 -0.00449006 0.344354
0.153582 -0.0636797 0.519249
0.0161311 -0.0792552 0.920071
-0.0398805 -0.0531241 0.291045
-0.0425684 -0.0574811 0.505865
0.0313112 -0.0779906 0.546237
0.125073 -0.0738762 0.544222
0.0202828 -0.085966 0.687168
-0.0745034 -0.044125 0.289467
-0.0973586 -0.0343295 0.317727
0.000372061 0.0799717 0.0954099
0.124447 -0.0624846 0.551153
0.0812319 -0.0622903 0.565151
-0.117991 -0.0736307 0.532662
-0.0238683 0.0765437 0.0319245
-0.12741 -0.0737363 0.545697
0.0272681 -0.0477074 0.915845
-0.00410203 -0.00385949 0.276014
-0.0137459 -0.0717997 0.244025
0.00511963 -0.0906631 0.63938
-0.0312578 -0.0299156 0.896484
0.0656454 0.0755212 0.0323635
0.00298835 0.0397369 0.140707
-0.0895746 -0.0407607 0.286407
-0.0720016 -0.00143209 0.330012
-0.041246 -0.0326623 0.479391
-0.0383391 -0.0262651 0.531143
-0.00755697 -0.00407935 0.278819
8.38609e-05 0.0843884 0.111468
0.0425547 -0.0575248 0.590693
0.0280477 -0.0137308 0.350397
0.173232 -0.0668467 0.450127
-0.0838824 -0.0741647 0.530911
0.325037 -0.06118 0.49815
-0.00485297 -0.00503719 0.108395
-0.0436574 -0.0446204 0.773612
0.147062 -0.0724893 0.545433
-0.0957391 -0.0722284 0.5024
0.159216 -0.0656644 0.478345
-0.0157635 -0.0881405 0.704832
-0.00150031 0.0889806 0.119857
0.0432859 -0.0536501 0.658698
-0.00437943 -0.090736 0.792661
-0.0286861 -0.027483 0.191717
-0.0583682 -0.0116167 0.313333
0.0413253 -0.0329242 0.470475
0.0822757 -0.00738196 0.354124
0.0395375 -0.0659952 0.500856
0.225213 -0.0660503 0.451499
0.00563022 0.0755481 0.0785222
0.0742482 -0.0676048 0.480946
-0.203981 -0.0646147 0.476686
0.134266 -0.067269 0.460838
-0.141427 -0.063775 0.474618
-0.0386414 -0.0676718 0.428292
0.0303865 -0.0263403 0.212724
-0.000524977 0.0322936 0.0840068
0.0623922 -0.0689805 0.46241
-0.0331458 -0.0753699 0.865614
0.097856 -0.0260443 0.274147
0.0419296 -0.0349165 0.462488
0.101993 -0.0703883 0.475329
0.0340444 -0.026601 0.264819
-0.0358728 -0.025499 0.208522
0.0841364 0.0812375 0.0497011
0.0108317 -0.00486551 0.403353
-0.0190718 -0.0866133 0.574103
0.0560801 -0.0206602 0.302512
0.0970086 0.0793579 0.0472153
-0.204221 -0.0690424 0.500368
0.0103472 -0.00471858 0.581929
0.0272629 -0.0416723 0.913144
0.0782185 -0.0721862 0.497124
0.0866657 -0.0104841 0.245098
0.244088 -0.0628204 0.496384
0.00264074 0.0573342 0.13586
0.00404479 0.0143407 0.178518
0.0851564 -0.0684137 0.588644
-0.0251112 -0.0831814 0.621341
-0.000312711 0.0556203 0.157685
0.00174774 0.068139 0.0887142
-0.229342 -0.062368 0.511344
-0.0437326 -0.0453834 0.402262
-0.0866479 -0.00158597 0.310453
-0.00053713 0.0555719 0.156981
-0.224289 -0.0635695 0.489308
0.0387912 -0.0285987 0.304818
-0.175703 -0.0656297 0.469262
0.162415 -0.0639285 0.506491
0.0077361 -0.00423446 0.249248
-0.26017 -0.0618906 0.511776
-0.0199349 -0.00917302 0.260565
0.0700665 -0.00233801 0.295386
-0.0297474 -0.0151256 0.523836
-0.17963 -0.0678645 0.464578
-0.0839518 -0.0721921 0.498379
0.0589772 -0.0650402 0.533998
0.00524087 -0.0906512 0.579757
-0.0983782 -0.0225266 0.276653
-0.187219 -0.0671654 0.455532
-0.0371881 -0.0241116 0.637957
-0.0151101 0.0841742 0.0970833
0.0839733 0.0782436 0.0264673
-0.00227036 0.0293361 0.167578
-0.0019441 0.0340593 0.0971506
0.0407964 -0.0633217 0.464401
-0.0540994 0.07604 0.0254472
0.0131668 -0.00557376 0.541614
0.0141088 -0.0886426 0.389724
0.256898 -0.0639212 0.46528
-0.0151109 -0.0770224 0.266888
-0.107449 -0.0626568 0.543362
-0.0320617 -0.017426 0.7582
-0.0848173 0.074946 0.0523715
0.0250114 -0.0601848 0.23064
-0.0867609 -0.00163044 0.307651
0.0358484 -0.0324376 0.252864
0.000283993 0.000584472 0.271641
0.352867 -0.0605682 0.477392
0.0738975 -0.0744265 0.53478
-0.033989 -0.0591759 0.266684
-0.0132744 -0.0888957 0.782689
-0.0299912 -0.0153256 0.587242
-0.08873 0.0752029 0.0233982
0.00115623 0.0197046 0.18559
-0.0584679 0.0787802 0.0364643
0.10912 -0.0748801 0.561503
0.206977 -0.0676384 0.47415
0.0039112 -0.0522347 0.954027
-0.140661 -0.0663323 0.477263
-0.215374 -0.0698286 0.523065
-0.0114643 -0.0050585 0.816635
-0.04056 -0.0640821 0.73532
0.041528 -0.0335926 0.764874
-0.0272764 -0.0813977 0.789037
-0.388274 -0.0601339 0.46587
0.0814213 0.0786718 0.0299651
0.396452 -0.06065 0.453513
0.23548 -0.0688617 0.514697
-0.039727 -0.0656407 0.567796
-0.0202134 -0.00849899 0.34423
-0.00611449 -0.00457544 0.121931
0.00189688 -0.00352189 0.746837
-0.0286496 -0.0142263 0.829861
-0.00747826 -0.00407187 0.796987
-0.00997342 -0.0046052 0.723512
0.071126 -0.0655815 0.517919
-6.35036e-05 0.0725468 0.0712629
0.164011 -0.0722333 0.539546
0.0110993 -0.0895555 0.725614
-0.0414718 -0.0344082 0.855413
-0.022917 -0.00994485 0.804029
-0.0310145 -0.0251033 0.246957
-0.00606319 -0.0905702 0.341432
0.00753153 -0.004427 0.257928
-0.0435856 -0.0438905 0.344278
0.0265243 -0.074554 0.908099
-0.0228331 -0.084603 0.463921
0.0318672 -0.0171888 0.667959
-0.0398125 -0.0654807 0.792663
-0.11822 -0.0718897 0.505499
0.0375896 -0.0696395 0.783519
-0.000298649 0.0382255 0.0791731
-0.00590594 -0.00238042 0.264164
0.0435432 -0.0434486 0.806486
0.112411 -0.0731486 0.522659
0.0770321 -0.0179639 0.345325
0.0376682 -0.0490679 0.267129
0.0465487 -0.0733585 0.501566
-0.00440204 0.0102031 0.165173
0.0990731 -0.0649808 0.510295
0.000682774 0.0719109 0.0601652
0.137521 -0.06385 0.522396
-0.0091782 -0.00436401 0.514455
-0.00490216 -0.0539563 0.16229
0.0590776 0.0761276 0.0204475
-0.0237135 -0.0120759 0.867423
-0.0431473 -0.0550618 0.373345
-0.0692407 -0.0400649 0.258124
-0.0367655 -0.0711816 0.586172
-0.00977887 -0.00456134 0.320555
-0.24399 -0.0642314 0.46574
0.0295853 -0.0149925 0.685401
0.0051312 -0.00151708 0.171118
-0.192687 -0.0637702 0.54258
-0.00433648 -0.000220921 0.250924
0.0372008 -0.0241353 0.671502
-0.0334561 -0.0191251 0.550515
-0.186959 -0.0712394 0.538127
-0.179619 -0.0629712 0.513728
0.157013 -0.0624636 0.541654
0.0441643 -0.065589 0.520721
0.0413193 -0.0329046 0.657141
-0.00814858 0.0747372 0.0597808
-0.0227897 -0.0336059 0.147283
-0.0208125 -0.0088192 0.645273
-0.0212362 -0.00904569 0.753958
-0.0289953 -0.0145084 0.675523
0.00393734 -0.0568106 0.173473
0.0959775 -0.022561 0.257234
0.00175704 0.0126153 0.114521
0.0566147 -0.0676574 0.487533
0.006651 -0.00433394 0.144147
0.0374559 -0.0246166 0.822487
0.00417556 -0.0103397 0.887103
-0.306754 -0.0654918 0.476299
-0.0417485 -0.0343186 0.669073
0.0522619 -0.0752906 0.539165
0.0379341 -0.0255098 0.811417
0.105924 -0.0670998 0.473741
-0.0779867 -0.0738262 0.52528
0.0438228 -0.0462998 0.728003
0.027606 -0.0480455 0.206161
-0.0433578 -0.0415777 0.519641
0.0922347 0.076114 0.0504635
-0.0164238 -0.010706 0.1346
0.00658497 -0.0905188 0.728039
-0.0620061 -0.00782991 0.335924
-0.0394832 -0.0660967 0.608085
0.125402 -0.0664254 0.478695
0.375118 -0.0633387 0.46172
0.010403 -0.0897668 0.358284
-0.182471 -0.0672005 0.453975
-0.134345 -0.0719441 0.519707
0.128459 -0.067059 0.466695
-0.00374814 0.0741605 0.0753661
0.0391892 -0.0666469 0.82972
-0.0470611 -0.0227908 0.242196
0.0249305 -0.0315609 0.159722
0.0119938 -0.0892842 0.809755
0.00418589 0.00659259 0.159762
-0.0957288 -0.0740523 0.531605
0.00172527 0.0748021 0.086949
-0.0431263 -0.0392266 0.543622
0.00241814 0.0617201 0.130817
-0.0422088 -0.0443464 0.30693
-0.0325836 -0.0180619 0.743545
-0.128512 -0.0628991 0.537643
-0.171422 -0.0627628 0.547342
0.0432264 -0.0402555 0.817414
0.0394048 -0.0662434 0.768451
-0.035376 -0.0328342 0.889502
-0.0263847 -0.0436134 0.188704
0.0344555 -0.0741593 0.47664
-0.0401282 -0.0296124 0.630695
0.00238497 0.0488514 0.145906
-0.0996045 -0.0298084 0.329037
-0.0112422 -0.00499003 0.676579
0.348403 -0.060595 0.479112
-0.0437459 -0.0489834 0.351298
0.0544401 0.0748555 0.062642
-0.0587527 -0.0336645 0.338103
0.0114763 -0.00506255 0.827462
0.0607594 -0.0357563 0.29094
-0.0780248 -0.0740246 0.528466
0.0752597 -0.0448828 0.307632
-0.0206026 -0.0857951 0.63194
0.111854 -0.0715976 0.497976
-0.032517 -0.0179825 0.811192
-0.00568601 0.000654434 0.188081
-0.232349 -0.0690616 0.518816
0.02331 -0.0661394 0.245378
-0.0420439 -0.0352922 0.405894
0.317327 -0.0658265 0.485981
-0.0674942 0.081834 0.064086
0.00170362 -0.0909995 0.823204
0.102373 -0.0628099 0.543258
-0.00278032 -0.000621572 0.269438
0.286634 -0.0658324 0.475828
-0.0653351 -0.040813 0.340881
0.0763408 -0.0452358 0.336592
0.320541 -0.0640828 0.454003
0.0726503 -0.0661219 0.506931
-0.221752 -0.0648799 0.46399
0.0187537 -0.0867833 0.442556
0.375288 -0.0614005 0.451237
0.094046 -0.0720715 0.499352
-0.0153452 -0.0358489 0.920484
-0.0437904 -0.0485316 0.701819
0.404211 -0.0614036 0.46098
-0.00348108 0.0317023 0.118446
-0.163991 -0.0687851 0.475094
0.0168183 -0.00668406 0.383576
0.0153818 -0.010826 0.120483
-0.0979379 -0.0175567 0.283054
-0.00234178 0.0663003 0.101965
0.0340732 -0.0483626 0.905947
-0.0161707 -0.084581 0.305648
0.0592485 -0.0324945 0.281008
-0.0126357 -0.0890894 0.444091
-0.154495 -0.0627959 0.534595
0.0366424 -0.0501126 0.262287
0.299712 -0.0628155 0.509141
-0.181398 -0.0674053 0.457073
0.0657196 -0.0744902 0.535905
0.253983 -0.0677124 0.502163
-0.0165709 -0.0333871 0.113796
0.031893 0.0760997 0.0464212
-0.0360659 0.0757991 0.0525838
-0.00613972 -0.057183 0.176535
0.0135319 -0.0888176 0.709356
-0.235906 -0.0689009 0.51732
-0.0404161 -0.0643512 0.52567
0.290074 -0.0637657 0.450085
0.236091 -0.0616889 0.453534
-0.000843398 0.0720857 0.079884
0.00812452 -0.00297346 0.218556
0.00355072 0.0291256 0.150254
0.0065406 -0.0905232 0.75224
-0.360903 -0.0602184 0.48323
0.206619 -0.0645312 0.477975
-0.000522472 -0.0911158 0.44805
0.325786 -0.0654618 0.497606
-0.0769263 -0.0437048 0.271459
-0.0707754 0.0779983 0.0277177
0.071803 -0.043338 0.284447
-0.00306041 -0.00363648 0.30876
-0.0126378 -0.00541333 0.57852
-0.0535903 -0.0713407 0.472078
0.0420783 -0.0590955 0.66949
-0.350405 -0.0648072 0.478659
0.0400521 -0.0536846 0.886301
-0.0755122 -0.000597028 0.328942
0.00960601 -0.0900086 0.509929
-0.0739572 0.080055 0.0632475
0.0431259 -0.0552737 0.811873
0.0996584 -0.0167666 0.310657
0.0104099 -0.0047376 0.563529
-0.0188197 -0.086748 0.49399
-0.247945 -0.0677032 0.522318
-0.281006 -0.0649681 0.455516
-0.0738203 0.075802 0.061662
-0.261669 -0.0620952 0.515303
-0.036135 0.0804375 0.054989
0.0245171 -0.083669 0.595461
-0.222884 -0.0654035 0.452606
0.0216979 -0.00929253 0.340112
-0.0378341 -0.0691822 0.786218
-0.124814 -0.0638467 0.521077
-0.0378543 -0.0267331 0.210212
-0.19051 -0.0668192 0.450775
0.0952675 -0.00876444 0.33073
0.0262644 -0.082235 0.403185
-0.0169197 -0.0877576 0.799772
0.0376083 -0.0248996 0.80276
0.0437398 -0.0454363 0.846099
0.209023 -0.0671729 0.466047
0.00650353 0.0806901 0.0997628
0.0266801 -0.0818938 0.425444
-0.0957806 -0.0183439 0.261546
0.0322141 -0.0176127 0.799694
-0.00192082 0.0668528 0.0914305
0.0103914 -0.0897703 0.753804
0.0166791 -0.0813586 0.290093
0.0244503 -0.0107786 0.578827
0.0438649 -0.0467275 0.546982
0.015048 -0.00614435 0.382734
0.270894 -0.0621122 0.513317
-0.0726032 -0.0750379 0.545615
0.0045673 0.074825 0.0415161
-0.0386576 -0.0287417 0.862775
-0.0523066 -0.0305685 0.249062
-0.0634502 -0.073478 0.517881
-0.00318236 0.0141985 0.181732
0.00106446 -0.00480682 0.866116
-0.00768731 0.0826985 0.0856945
0.0432328 -0.0403135 0.701631
0.355893 -0.0640521 0.466868
-0.0904445 -0.0639066 0.531266
0.00343868 -0.0691195 0.223129
-0.0319865 -0.0234174 0.245379
-2.88225e-06 0.0365034 0.179057
-0.078644 -0.045778 0.323975
-0.20139 -0.0653928 0.46295
-0.0816456 -0.000936531 0.300093
-0.150375 -0.0668038 0.462924
-0.257329 -0.064229 0.458531
-0.0390169 -0.0669693 0.570946
-0.00764355 -0.052286 0.15889
0.165453 -0.0643366 0.553154
0.00296031 0.0751377 0.0255547
-0.114006 0.0745195 0.0146538
0.0880478 0.0749747 0.0504565
-0.0919598 -0.0754032 0.55213
0.357894 -0.0634672 0.45727
0.0325867 -0.0764364 0.456588
-0.0413091 -0.0328702 0.456272
-0.0258751 -0.0755824 0.290335
-0.0475751 -0.0632814 0.560369
-0.0799644 -0.0437341 0.275298
-0.00280837 0.00582485 0.133281
-0.0920877 -0.0722969 0.502231
0.0279298 -0.0808667 0.780481
-0.0385082 -0.0241481 0.3153
-0.0116688 -0.0893496 0.850671
-0.019204 0.0821101 0.070951
0.390524 -0.0626632 0.455259
-0.0276884 -0.0134359 0.634256
0.0145622 -0.088505 0.432996
0.0358158 -0.0220004 0.70774
-0.0178794 -0.0072513 0.489492
0.22067 -0.0652087 0.457573
-0.0431342 -0.039307 0.651861
-0.0100826 -0.00463833 0.50904
0.0901083 -0.0336259 0.236445
-0.034405 -0.0202813 0.503578
0.0491208 -0.0289876 0.293808
0.0730117 -0.0264582 0.343836
-0.0429889 -0.0560951 0.627854
0.00668114 -0.00399295 0.244228
0.276774 -0.0645553 0.444351
-0.0302097 -0.0336309 0.901885
0.016073 -0.00765872 0.224564
0.202288 -0.0622655 0.53333
0.0603614 -0.0340608 0.280118
0.0726856 -0.0750864 0.58616
0.0357266 -0.0218917 0.560224
0.00020532 0.0815308 0.105942
0.085968 -0.0756351 0.55534
-0.0397755 -0.0655499 0.72097
-0.0432453 -0.0540664 0.750247
0.0272038 -0.0559122 0.225603
0.00767271 -0.0904117 0.777037
0.0338268 -0.043624 0.233945
0.0976367 -0.0283939 0.345382
0.043179 -0.039767 0.516624
-0.248034 -0.0671199 0.484836
-0.357136 -0.0642651 0.471032
-0.0166299 -0.00864427 0.190312
-0.0783556 -0.0661222 0.588011
-0.139771 -0.0706232 0.50193
-0.0384532 -0.0264786 0.682194
-0.00470626 0.0793181 0.0477819
-0.0398807 -0.0385277 0.2852
-0.292809 -0.0665337 0.493904
-0.0429856 -0.038396 0.778167
-0.0345426 -0.0740532 0.536459
-0.0124234 -0.00534829 0.430683
0.0378598 -0.069134 0.832705
-0.000625106 0.0693888 0.0652946
-0.10337 -0.0635961 0.53045
-0.0433564 -0.0317225 0.216395
-0.0409993 -0.023242 0.229426
-0.234079 -0.066085 0.444333
-0.0409571 -0.0627922 0.816436
0.0153869 -0.00624714 0.709502
0.0413478 -0.0615038 0.394547
-0.0484301 -0.0629613 0.566443
0.0662595 0.0795947 0.0701011
-0.0438845 -0.0475765 0.606129
-0.0110358 -0.0895748 0.367071
-0.0222742 -0.0474056 0.179883
0.00184748 0.0827765 0.0550011
0.0412544 -0.028091 0.319192
0.0278165 0.0796459 0.0499609
0.0039795 0.0229074 0.149467
-0.0305368 -0.0157734 0.332089
-0.0322886 -0.0329379 0.219314
0.00922779 -0.00437905 0.62497
0.0060936 -0.00393494 0.217149
-0.0112911 -0.00500487 0.699864
-0.315386 -0.0631157 0.44974
-0.00902852 -0.0819699 0.280285
0.0599337 0.0821708 0.0668465
-0.0185616 -0.086886 0.70931
-0.183063 -0.0623796 0.524087
-0.0434441 -0.0424541 0.53503
-0.0259951 -0.0699899 0.916263
0.00360792 0.0298909 0.143189
-0.101762 0.0737652 0.0354171
-0.00167158 -0.000309183 0.130224
-0.0430763 -0.0557832 0.518001
-0.000357539 0.0408728 0.0781785
-0.164214 -0.0709809 0.513728
0.00488591 -0.00421158 0.115587
-0.0198936 -0.00832801 0.442305
-0.0803901 -0.0735078 0.520248
0.0715318 -0.0116349 0.233213
-0.0432456 -0.0404384 0.344064
-0.0344761 -0.0241241 0.274482
-0.0288722 -0.0144074 0.348536
-0.00448665 0.00793298 0.182731
-0.0281596 0.0754967 0.0838696
0.200718 -0.0696497 0.510388
-0.120565 -0.067419 0.572722
0.0115159 -0.00507305 0.534012
-0.00662139 0.0812364 0.0658695
0.135451 -0.0628392 0.541421
0.00640691 -0.00121316 0.18712
-0.00903393 -0.00466953 0.240637
0.0367014 -0.0232015 0.783782
-0.0590594 -0.0198956 0.324145
0.0375706 -0.0248273 0.704981
0.00264405 0.0580522 0.117921
0.0051869 -0.0906329 0.855209
-0.0972869 -0.0325433 0.290031
0.0434442 0.0802308 0.0512864
0.041289 -0.0616976 0.500833
0.0205336 -0.00867013 0.363637
0.12178 -0.0735091 0.53389
0.0166262 -0.00876254 0.186906
0.0487172 -0.0642703 0.544397
0.296514 -0.0661639 0.487323
0.0835586 -0.0730144 0.512434
0.193921 -0.0666009 0.44839
-0.054603 -0.0655222 0.524531
-0.359862 -0.063894 0.465616
0.0192677 -0.0865085 0.595353
0.0458206 -0.0278358 0.326414
0.251489 -0.061991 0.512298
-0.331085 -0.0623279 0.500214
0.0393011 -0.0664373 0.67378
0.33812 -0.0608987 0.493799
-0.0893222 -0.0629273 0.547603
0.0625783 -0.0396084 0.317898
-0.149838 -0.0683916 0.56174
0.00389504 0.0233524 0.125883
0.0630901 -0.0173773 0.343863
0.00259141 -0.0909121 0.478811
7.13699e-05 0.0239145 0.0834819
0.0206861 -0.0800932 0.909268
-0.0174712 -0.0122126 0.132203
0.0185923 -0.086851 0.846342
0.0252413 -0.0830746 0.775449
0.124953 0.0774192 0.0186661
0.086105 -0.0128094 0.229249
-0.0380905 -0.0258 0.578731
-1.36464e-05 0.0809728 0.04027
0.115289 0.0781082 0.0160481
0.0400356 -0.0650631 0.588686
-0.00970762 -0.0569557 0.95159
0.242214 -0.0682781 0.50707
-0.0434989 -0.0514921 0.436116
-0.00192681 -0.0530604 0.954682
0.021116 -0.0749593 0.271882
0.0247495 -0.0752356 0.910966
-0.0667627 -0.0707652 0.469755
-0.0118059 -0.00623614 0.861796
-0.053263 0.0782548 0.0787087
0.00343578 -0.00367344 0.451049
-0.0037965 -0.00370899 0.280419
0.0235965 -0.0735904 0.273917
0.18363 -0.0680813 0.548267
-0.333519 -0.0646278 0.469181
0.0639422 -0.0642775 0.546162
-0.000363725 0.0724133 0.0197774
0.0472784 -0.0294172 0.218135
-0.0292067 0.0755978 0.0698092
0.043269 -0.0538212 0.728778
0.023011 -0.00999442 0.588783
0.0240101 -0.0837666 0.857848
0.0143578 -0.00754049 0.174153
0.06648 -0.0108876 0.254623
-0.00654512 -0.00397965 0.751012
-0.101009 -0.0678797 0.463295
-0.0824186 -0.0401605 0.244991
0.00280524 0.0264371 0.164818
0.141403 -0.0628925 0.547008
0.000626632 -0.00345593 0.148941
-0.192896 -0.067586 0.465693
0.0940235 -0.0646211 0.518251
0.0604682 -0.0740959 0.527654
0.078836 -1.18545e-05 0.311915
