0.0400971 -0.0295543 0.726202
-0.0801822 -0.00351432 0.276201
-0.0408037 -0.0312045 0.73427
0.041198 -0.0325045 0.349555
-0.0816176 0.0763952 0.0141477
0.037393 -0.0652525 0.886656
0.00768133 -0.0904109 0.652959
-0.0424945 -0.0577232 0.838612
0.068186 -0.0422588 0.290689
-0.182121 -0.0689174 0.482895
-0.0880903 -0.0380078 0.355482
-0.0406266 -0.0306225 0.789238
0.0159523 -0.0497741 0.941599
0.0723955 -0.00439005 0.274807
0.0261356 -0.0823407 0.57548
-0.0374665 -0.0246324 0.393631
-0.0038967 0.0213255 0.127978
-0.00264081 0.0556107 0.111123
0.0425137 -0.0368423 0.780586
-0.376584 -0.0639374 0.479007
-0.010311 -0.0047076 0.578595
-0.0179687 -0.00729902 0.458652
0.0524138 -0.0228059 0.241776
-0.000567861 -0.00339101 0.703709
-0.137705 -0.0718415 0.521267
-0.0969454 -0.0620961 0.557615
0.062633 0.0747259 0.0575643
-0.0360279 -0.0641736 0.294283
-0.0213761 -0.0853817 0.547315
-0.041213 -0.0504824 0.300251
-0.0190745 -0.0106795 0.189497
0.0429212 -0.0381895 0.814972
0.0432597 -0.0405857 0.556945
-0.004042 -0.0673359 0.21615
0.103431 -0.062388 0.549691
-0.315789 -0.0654001 0.477072
-0.0514431 -0.0308796 0.240258
-0.0922403 -0.0657752 0.500579
0.0768581 0.0758716 0.016614
-0.0662559 -0.0420397 0.317148
0.0283451 -0.0805273 0.621202
-0.0727392 -0.073689 0.522902
0.0384228 -0.0680808 0.764168
0.0151213 -0.00708864 0.228577
-0.0438295 -0.0481341 0.520608
0.0213525 -0.0853943 0.680165
0.30708 -0.0655176 0.476916
-0.0430419 -0.0385816 0.342017
0.0194777 -0.00810568 0.398656
-0.0212898 0.0813849 0.0646361
0.0562734 -0.0294052 0.3193
0.0123553 -0.00532764 0.519868
-0.000270893 0.062494 0.0661383
0.0361384 -0.0338917 0.888791
0.12696 -0.06473 0.50731
0.0801103 -0.0662361 0.499667
0.20441 -0.0689264 0.498215
-0.003614 0.022118 0.164665
-0.0411861 -0.0620375 0.721626
0.0273445 -0.0813485 0.728326
0.000717317 -0.0910967 0.803357
0.0595357 -0.070139 0.600451
0.0186361 -0.0289309 0.113615
0.0356023 -0.0217403 0.705383
0.100694 -0.0641358 0.523159
0.262734 -0.0642214 0.5214
-0.0426045 -0.0573621 0.593734
-0.00721627 -0.049528 0.147417
0.0387325 -0.0270011 0.611818
0.384944 -0.060154 0.47669
-0.0248897 -0.0111392 0.379756
-0.0147172 -0.00604434 0.792324
0.00552567 -0.079691 0.933894
-0.0305501 -0.0157843 0.493045
-0.0128405 -0.0080348 0.121035
0.0734442 -0.00780461 0.354034
-0.0340122 -0.0746995 0.382261
0.00898271 -0.00430472 0.43908
8.50463e-05 0.0879814 0.128881
-0.0413329 -0.0615534 0.64604
-0.262243 -0.0665069 0.479671
0.0735122 -0.0104982 0.232835
-0.150795 -0.0659413 0.560011
-0.0533868 -0.0762094 0.55592
0.0543274 -0.0633804 0.561496
-0.0116883 -0.0893769 0.337805
-0.0433547 -0.0415465 0.542126
0.0270148 -0.0128831 0.765578
0.0384215 -0.0264193 0.466831
0.020838 -0.00951728 0.269637
-0.0320002 -0.0771511 0.491273
0.0449008 -0.0201352 0.317369
-0.0138183 -0.00577136 0.633551
-0.090977 -0.00433174 0.324636
-0.0271642 -0.0163785 0.241114
0.0433554 -0.0529446 0.405356
0.0305561 0.0826515 0.0747669
-0.0426135 -0.0492144 0.874921
0.0347139 -0.0206578 0.664595
0.00930349 -0.0901004 0.463745
-0.0628826 -0.069061 0.460665
-0.0237707 -0.0841018 0.752679
0.0229431 -0.0184095 0.157712
-0.0609553 -0.0284732 0.278691
0.115896 -0.0682017 0.452334
0.0389537 -0.0670874 0.674198
-0.0108913 -0.00495638 0.305414
0.0141173 -0.0886365 0.837468
0.0223767 -0.0136552 0.879616
0.258813 -0.0662519 0.472195
0.027403 -0.0132017 0.552751
-0.0315265 -0.0777281 0.517583
-0.0898229 -0.0742364 0.579789
-0.345857 -0.0609541 0.473471
0.00233782 -0.00356532 0.772587
-0.288792 -0.0657103 0.473983
0.00301725 0.0341864 0.112397
-0.0356079 -0.0217471 0.627052
0.0506728 -0.0628368 0.590353
0.0224289 -0.0317325 0.197574
-0.0359569 -0.0510601 0.902517
-0.180464 -0.065451 0.470299
0.0435515 -0.0509817 0.832039
0.0272972 -0.0131166 0.826299
0.189486 -0.0665769 0.447129
0.029642 -0.0150391 0.361725
0.30504 -0.064775 0.507761
0.0196771 -0.0667449 0.236983
0.0146343 -0.0884831 0.344211
-0.0408284 -0.0202518 0.31407
-0.113722 0.0776905 0.0370786
-0.00680753 0.0763634 0.0386109
-0.131017 -0.062835 0.552593
-0.000989387 0.0890088 0.0779558
0.0589677 -0.0737612 0.519831
-0.00692024 -0.00401659 0.357121
0.147317 -0.0663705 0.466239
0.0125115 -0.0891271 0.704582
-0.170732 -0.0621402 0.53039
0.070537 -0.0622741 0.580509
0.0128008 -0.0890393 0.539676
-0.012356 -0.0890947 0.866684
0.0426576 -0.0571853 0.370882
0.0048221 0.00404582 0.200749
0.137808 -0.0684567 0.566455
-0.0169997 -0.00678105 0.503478
0.0984363 -0.0157433 0.292617
0.0575839 -0.0299376 0.266919
-0.0600875 -0.0143335 0.344964
0.00377864 0.00660735 0.149876
0.0108676 -0.0864381 0.906142
0.110189 0.0735446 0.026916
0.00279463 -0.000643403 0.262033
0.00403002 -0.0284583 0.0894295
0.0406346 -0.0435326 0.288424
0.0206203 -0.0857846 0.78176
-0.00286694 -0.0045911 0.861757
-0.0238166 -0.0104251 0.684639
0.0261679 -0.0823142 0.418133
-0.0390922 -0.0668283 0.44375
-0.122725 -0.0672995 0.463894
0.213632 -0.0643374 0.478724
-0.212284 -0.066948 0.463156
0.0864582 -0.0621139 0.563358
-0.0201564 -0.076764 0.277355
-0.000651073 -0.0581199 0.177467
0.0603153 -0.0679535 0.481827
-0.0280025 -0.0808085 0.713723
0.163544 -0.0719539 0.530691
-0.0346468 -0.020576 0.589061
-0.0265705 -0.0337695 0.173387
-0.0417753 -0.0600953 0.788983
0.0435355 -0.051117 0.482928
0.178373 -0.0705527 0.509862
0.0178074 -0.0072128 0.585317
0.0297451 0.0760347 0.0495172
-0.066267 -0.0642596 0.544441
0.0357525 -0.0722613 0.323146
0.330286 -0.0612944 0.476164
-0.00738886 -0.0904397 0.468624
0.0335305 -0.0423109 0.2308
0.0940588 -0.0330011 0.260194
0.018649 -0.0076627 0.615237
-0.00531538 -0.00385924 0.817886
-0.0364578 -0.0781739 0.569906
-0.00873122 -0.090274 0.401139
-0.0634237 -0.0325791 0.247719
-0.00122493 0.00520787 0.111339
0.0891265 -0.0425061 0.331169
0.0433927 -0.0525659 0.735485
0.0595699 -0.0748914 0.540506
-0.0590173 -0.014328 0.284235
0.054815 -0.0214193 0.281026
0.0309021 -0.0784287 0.499664
-0.0934495 -0.0155347 0.255164
-0.0888652 -0.0426923 0.320849
-0.191422 -0.0700861 0.541411
-0.222581 -0.0692256 0.514054
-0.0331154 0.0805269 0.0566507
-0.00917976 -0.0901379 0.775865
0.200901 -0.0645912 0.541157
0.0385611 0.0805849 0.088821
-0.0431514 -0.0550181 0.804653
-0.0540863 -0.0631713 0.565122
0.389405 -0.0617958 0.440145
-0.0371674 -0.07714 0.599335
-0.077779 -0.0674444 0.481636
0.0436908 -0.0495415 0.667933
-0.041515 -0.0609532 0.361769
-0.0267348 -0.0245326 0.896437
0.325901 -0.0624714 0.456306
-0.0311912 -0.0444916 0.218589
-0.310721 -0.0653266 0.504587
0.0189453 0.076642 0.032617
-0.242905 -0.0679665 0.501053
-0.0133093 -0.0109739 0.0967236
0.065439 0.0792368 0.0382746
0.109739 -0.0648687 0.507485
-0.00443408 0.00506253 0.181828
-0.0104705 -0.0886791 0.318664
-0.195507 -0.0633699 0.504356
-0.00822918 -0.0781234 0.262456
-0.0361919 -0.0363749 0.251704
0.0257988 -0.0118852 0.507486
-0.0244028 -0.0608746 0.925114
0.094635 -0.00726226 0.327947
0.00587794 -0.0846102 0.290996
0.235161 -0.0609996 0.453128
-0.000337982 0.0478296 0.165242
-0.00204809 0.0645814 0.0918833
-0.0157858 -0.0881338 0.437433
-0.0424096 -0.0580045 0.477395
-0.0321577 -0.0185663 0.304516
0.0243463 -0.0107082 0.685943
0.0322401 -0.0768587 0.444925
-0.0429393 -0.0382433 0.405265
-0.0112276 -0.0049856 0.743402
-0.0155972 -0.088191 0.64678
0.282047 -0.0652974 0.463264
0.0254602 -0.0120545 0.307074
-0.0614987 0.0751771 0.0466186
0.091652 -0.0398506 0.294907
-0.0292526 -0.0147195 0.701098
0.030121 -0.0787412 0.867853
0.0243092 -0.083814 0.603512
-0.00384161 0.0265423 0.142637
0.0226985 -0.0332628 0.910947
0.046213 -0.0233775 0.225596
-0.0814891 -0.00102937 0.299056
-0.0237189 -0.0103728 0.549508
0.0362755 -0.0719417 0.815635
-0.0302225 -0.0155176 0.847417
-0.00336515 0.0050418 0.221202
0.13979 -0.0634239 0.531595
0.370312 -0.0610664 0.4599
-0.0390853 0.0831855 0.0817878
-0.0435336 -0.0433626 0.765079
-0.0575468 -0.0328133 0.330596
0.042602 -0.0428909 0.313576
-0.0793566 -0.0754354 0.552647
-0.146702 -0.0645582 0.50856
-0.0317068 -0.0773742 0.852879
-0.0218044 -0.0841146 0.885046
0.261692 -0.06238 0.49679
0.0295334 -0.0152829 0.853955
-0.0238466 -0.0104411 0.608281
-0.0192334 -0.0865269 0.357931
0.0848974 -0.0268058 0.345638
0.160398 -0.067383 0.449323
-0.109618 -0.064894 0.507132
0.02869 -0.0142578 0.535155
0.0160145 -0.00643748 0.484847
-0.00588694 -0.0725504 0.238127
0.0865845 -0.00154117 0.317186
-0.0434951 -0.0429722 0.326197
-0.0324181 -0.0766418 0.675315
0.0108068 -0.0437498 0.130888
0.0232984 -0.0101481 0.423011
-0.00791416 -0.0903879 0.670006
-0.0276013 -0.0133645 0.781487
-0.0424496 -0.0366349 0.818669
-0.0490874 -0.0749953 0.531085
-0.099948 -0.0753381 0.568595
-0.00415476 -0.00204885 0.161559
0.00203563 0.068523 0.0996096
0.0490342 -0.070869 0.461507
-0.0344032 -0.0202791 0.420224
-0.138943 -0.0661448 0.481092
0.00853725 -0.00417584 0.644727
0.00929858 -0.0901019 0.62996
0.0286404 -0.080285 0.362418
-0.0241441 -0.0106001 0.48197
-0.0436554 -0.0445994 0.628057
-0.0214929 -0.0305172 0.208613
-0.00179474 0.0677143 0.126286
0.091225 -0.068192 0.462236
0.0338679 -0.0629046 0.276881
0.00860231 -0.00430978 0.292897
-0.0425173 -0.0576495 0.745611
0.0051677 -0.003844 0.736157
0.0436743 -0.0497086 0.535869
0.0180554 -0.0871565 0.5161
0.207096 -0.0698492 0.517485
-0.043559 -0.0436212 0.497454
-0.104667 -0.0708999 0.484548
-0.101151 0.0743508 0.0238036
0.0332939 -0.0189274 0.332541
-0.0108472 -0.0601835 0.194131
-6.65734e-05 0.0716112 0.145343
0.0435419 -0.0434493 0.709778
-0.234231 -0.0682261 0.446605
0.00437527 -0.0907364 0.580701
-0.273294 -0.0670159 0.513498
-0.030919 -0.0187457 0.272853
0.121598 -0.072883 0.562459
-0.263457 -0.0674625 0.501638
-0.00722964 -0.0407083 0.93787
-0.320401 -0.0641843 0.455866
-0.148695 -0.0630477 0.535794
0.00822106 -0.0903577 0.736271
0.0420861 -0.0354325 0.63715
0.247727 -0.0661583 0.525805
-0.0246687 -0.0109578 0.439792
0.168735 -0.070081 0.497064
-0.0549175 -0.0287531 0.300449
0.0432458 -0.0510919 0.855699
0.0818194 0.0758263 0.0565713
-0.254879 -0.0652996 0.44957
0.0422435 0.0753899 0.0592338
-0.016751 -0.00666088 0.330585
-0.0930505 -0.0388191 0.293124
0.00383743 0.0741901 0.0723601
0.0412372 -0.0618684 0.549625
-0.0481532 -0.0299762 0.26583
0.0133575 -0.0888705 0.48664
-0.0709317 -0.00790133 0.255577
0.0424017 -0.0468781 0.877309
0.320664 -0.060729 0.491935
0.0436944 -0.0495047 0.792688
0.0224693 -0.0558926 0.207396
0.0394299 -0.028306 0.411946
-0.010169 -0.00466451 0.526868
0.0221827 -0.0244279 0.134317
0.0244075 -0.0837589 0.660968
-0.0434838 -0.0516447 0.569226
-0.0104291 -0.00474342 0.672112
-0.0393417 -0.0281409 0.676738
-0.0402102 -0.0297658 0.362165
-0.0282059 -0.0138606 0.73337
-0.040869 -0.0630826 0.423574
-0.376696 -0.0611685 0.454985
0.0666063 -0.0419733 0.309032
-0.087189 0.0745386 0.0371551
-0.0975108 -0.0256654 0.347456
0.146105 -0.0695645 0.485451
0.10819 -0.0662326 0.486605
0.026114 -0.0373783 0.175089
0.00319475 0.0388108 0.129364
0.0667316 -0.0366977 0.245814
-0.0174435 -0.0070207 0.831682
0.0691972 -0.0685499 0.466487
0.0406087 -0.0639407 0.389781
-0.0230676 -0.0844776 0.609902
-0.0965795 -0.0130177 0.288068
-0.0124894 -0.0891338 0.416341
0.114637 -0.0733378 0.526335
-0.0426385 -0.0372521 0.649324
-0.122111 -0.0723796 0.516417
-0.00652883 -0.00397805 0.559474
0.0988732 0.0765984 0.0123715
0.354284 -0.0648389 0.480584
-0.00816188 0.0823442 0.0639101
-0.0861084 -0.041125 0.263886
-0.0249544 -0.047195 0.918921
-0.0431226 -0.0410146 0.853925
0.236184 -0.0625109 0.505811
0.0261017 -0.0121338 0.449092
-0.0339373 -0.0614768 0.273101
0.145468 -0.0725182 0.544733
0.0267845 -0.0818082 0.752249
0.00413962 -0.00374315 0.800434
-0.0323789 -0.0178137 0.802585
-0.0766328 -0.0397287 0.240534
-0.0807356 -0.0728927 0.509933
0.00743182 -0.0903854 0.860176
-0.161181 -0.065122 0.485954
0.0150554 -0.00679532 0.245312
0.0419365 -0.0297165 0.273182
-0.0406589 -0.0307273 0.750604
-0.0804701 0.0792474 0.0600144
0.0436758 -0.0496934 0.331436
0.0317404 -0.0170344 0.386472
-0.0401426 -0.0296395 0.715026
0.0433007 -0.0535003 0.689643
0.0067809 -0.0904996 0.412577
0.0891703 -0.0074249 0.27282
0.0216033 -0.0671353 0.930486
-0.0280529 -0.0187142 0.225771
0.184872 -0.0692181 0.490127
0.0411189 -0.0322439 0.366884
0.296306 -0.0618246 0.487401
0.284377 -0.0667772 0.508961
-0.0610289 -0.0367685 0.296848
-0.0974598 -0.0635811 0.533366
-0.0411319 -0.062216 0.403765
-0.100535 -0.0254132 0.323338
0.043835 -0.0480786 0.578032
0.222485 -0.0630221 0.500738
0.0108091 -0.00485867 0.757787
0.0424433 -0.0366102 0.743605
0.0193836 -0.0100437 0.214498
-0.113277 -0.0747399 0.552492
-0.0242164 -0.0106388 0.570657
-0.040125 -0.0296064 0.770665
-0.235293 -0.067368 0.527921
0.0424201 -0.0725711 0.485456
0.018294 -0.0870185 0.816702
0.0843909 -0.0753807 0.551294
-0.0500592 -0.0722334 0.485509
-0.0117713 -0.0793203 0.928468
0.005379 0.000675266 0.176323
-0.0195626 0.0771263 0.0298306
-0.0228578 -0.0600984 0.222727
0.306174 -0.0647918 0.462296
0.0846966 -0.0637979 0.536824
-0.183169 -0.0709546 0.520344
0.0178282 -0.0390724 0.922725
-0.0427628 -0.0568404 0.610646
0.0262887 -0.0766381 0.297178
-0.0547484 -0.0628936 0.588799
0.0349741 -0.0735274 0.637052
0.0678872 -0.00987403 0.255079
0.00087961 0.0899714 0.0892829
0.124582 0.0769162 0.0297945
0.03746 -0.0566233 0.896291
0.0381677 -0.0685579 0.523419
-0.0769603 -0.0676356 0.590779
0.193642 -0.0652657 0.468105
0.0270611 -0.0159599 0.245315
-0.362262 -0.0603342 0.48475
0.071286 -0.0640454 0.543851
0.0244289 -0.0815324 0.892324
0.0985746 -0.0241398 0.277314
0.180753 -0.0620226 0.537801
0.0358848 -0.0220858 0.804938
0.0522345 -0.0288677 0.297202
-0.0345622 -0.0740293 0.829616
-0.0309306 -0.0160965 0.639678
0.0926511 -0.0730595 0.514594
-0.0251023 -0.0831887 0.475538
-0.0478644 -0.0692479 0.461316
0.0417388 -0.0342876 0.330657
-0.0016861 -0.0910013 0.82481
0.0140638 -0.0090757 0.124018
0.0628057 -0.0666513 0.504488
0.116012 -0.0627809 0.537528
-0.329748 -0.0654611 0.483502
0.0428732 -0.0380274 0.652447
0.0792166 -0.0453672 0.313897
0.280829 -0.0643384 0.443165
-0.00161532 0.0313654 0.171879
5.52632e-05 0.0110043 0.0922741
0.0354533 -0.0237316 0.868232
0.0936501 -0.0221552 0.239833
0.0182678 -0.0074589 0.707399
-0.0806757 -0.0440341 0.283927
0.00205714 0.0448041 0.0957443
0.0317061 -0.0775093 0.691623
0.00883823 -0.00426089 0.496632
-0.0269036 -0.0817104 0.771658
0.000361071 -0.00337065 0.405192
-0.000484463 0.0469492 0.0751763
-0.27909 -0.0625172 0.483372
-0.00231344 0.0904448 0.106178
0.0314719 -0.0205718 0.259206
0.0383196 -0.0783494 0.593462
0.0325096 -0.0179717 0.40597
-0.0164809 -0.0399513 0.133046
-0.0639668 -0.0271266 0.229929
0.094392 0.07955 0.0319524
0.00352103 -0.0908206 0.752256
-0.00279978 0.00675899 0.131399
0.0427712 -0.0376912 0.595057
-0.165392 -0.0722205 0.542297
0.0432728 -0.0537828 0.629885
-0.0283153 -0.0254714 0.192867
-0.0199316 -0.0221644 0.114703
-0.0735564 -0.0764166 0.56935
0.0285992 -0.0141833 0.599909
-0.0415146 -0.0335477 0.519471
-0.0316434 -0.0775857 0.65145
0.00291443 0.0460962 0.113516
-0.242904 -0.0672582 0.484796
0.00738235 -0.0904403 0.391937
0.111536 -0.0646442 0.570464
0.00761747 -0.0904172 0.596282
-0.122466 -0.0632753 0.529924
-0.207552 -0.0681244 0.48383
-0.0374038 -0.0699872 0.691202
-0.00523685 -0.0906516 0.446078
-0.0129068 -0.00585342 0.238783
0.0635886 -0.0163098 0.343477
0.0160146 -0.00643753 0.461835
-0.084969 -0.0441776 0.336425
-0.0493178 -0.0775905 0.575199
0.240724 -0.0642375 0.467389
0.150018 -0.071393 0.521204
-0.155005 -0.0713079 0.519747
0.0434394 -0.0520927 0.357366
-0.0153644 -0.0882592 0.816331
-0.0388675 -0.0300938 0.300313
-0.152332 -0.0701121 0.49644
0.0223854 -0.0848422 0.554983
-0.0406031 -0.0606852 0.316239
-0.0202071 -0.0536465 0.935729
-0.00348645 -0.00357181 0.142974
-0.0611258 -0.0659926 0.517544
0.0389009 -0.0671862 0.83669
-0.0227547 -0.00985745 0.349418
-0.0709773 0.0755782 0.0272019
-0.0135841 -0.00570035 0.653627
0.244346 -0.0651706 0.445898
-0.00573642 -0.0906024 0.534109
-0.0268843 -0.0485821 0.204059
0.00290534 0.0334576 0.154357
-0.0435545 -0.0435745 0.454511
-0.0430162 -0.0216301 0.332738
0.0154219 0.0751574 0.0778839
0.0392237 -0.065721 0.86462
0.028907 -0.0196435 0.230711
-0.0418197 -0.0345533 0.578992
0.0887 -0.00881345 0.345002
-0.304385 -0.0626852 0.464643
-0.0312651 -0.0759754 0.315486
0.0113629 -0.00502664 0.359466
0.0417927 -0.0344713 0.826493
0.0203213 -0.0859455 0.447804
0.00400622 0.0736874 0.0460223
-0.000819883 -0.00341583 0.453517
-0.0420576 -0.0353407 0.802545
-0.0764877 -0.0722691 0.498104
0.10064 -0.0231237 0.332218
0.0496977 -0.0731823 0.500958
-0.0405019 -0.0645476 0.538427
0.0561201 -0.0176472 0.309222
0.0428862 -0.0564318 0.77728
-0.0369908 -0.0313329 0.88298
-0.0428866 -0.0564323 0.704042
-0.0219239 -0.0373117 0.150556
-0.38644 -0.0618359 0.439642
-0.0543994 0.0762677 0.0196605
0.201495 -0.0681027 0.480681
-0.0865127 -0.0115624 0.238167
-0.0769355 -0.0168526 0.343496
0.0124198 -0.0891549 0.616386
0.0282216 -0.0138735 0.573131
0.00495439 -0.003823 0.686188
-0.141244 -0.0724422 0.462479
0.0462704 0.0758359 0.0413358
-0.00298499 -0.0908734 0.354826
-0.022874 -0.0113895 0.258122
-0.0184474 -0.00755493 0.396186
0.206127 -0.0621622 0.527901
-0.0212133 -0.0854687 0.562353
0.0577136 -0.0773734 0.582664
0.159921 -0.0654233 0.481836
-0.0552141 -0.0204795 0.307617
-0.0327883 -0.0761907 0.432643
0.00546817 -0.00706704 0.878099
-0.0203411 -0.0132048 0.167814
-0.0267244 0.0754505 0.0788336
0.138713 -0.0710697 0.453864
0.0392376 -0.0665563 0.724863
-0.279541 -0.063271 0.466348
0.0431533 -0.0286119 0.304444
-0.0391932 -0.0656629 0.867548
0.005385 -0.0410128 0.111471
-0.395531 -0.060355 0.459267
0.348587 -0.0641371 0.465606
-0.0314568 -0.0166888 0.511487
-0.182368 -0.0669364 0.449593
0.0265306 -0.0124857 0.471595
0.0984617 -0.0130519 0.309407
-0.0431939 -0.0545885 0.347331
0.0369788 -0.0237201 0.54784
0.0855606 -0.00300648 0.288969
-0.355637 -0.063518 0.457252
-0.223994 -0.0642794 0.475276
-0.00752473 -0.00133757 0.208819
0.00288378 -0.0908833 0.326483
0.049036 -0.0764706 0.554916
0.0498972 -0.0221943 0.259089
-0.00916159 -0.0901434 0.628551
-0.00867273 -0.0727229 0.943696
-0.000813949 0.0779772 0.113498
0.107898 -0.07513 0.558239
-0.208205 -0.0669821 0.539726
-0.0337511 -0.0194846 0.366807
-0.0439081 -0.0471656 0.663093
-0.0381802 -0.0259679 0.548907
-0.0361845 -0.0622797 0.5739
-0.0183053 -0.00776429 0.853709
-0.0904777 -0.00851761 0.27155
-0.0201076 -0.0456525 0.166021
0.0789566 -0.0711292 0.480303
-0.0100889 -0.0880862 0.897511
-0.0363957 -0.066591 0.506244
0.073446 -0.0731294 0.513099
-0.00499482 -0.00382679 0.196644
0.0377304 -0.0251262 0.44993
0.00787671 -0.0627613 0.200794
-0.036876 -0.0771383 0.553774
-0.363735 -0.060834 0.467425
-0.108246 -0.0678884 0.460231
0.0501941 -0.0254722 0.339011
0.00202736 0.0302729 0.0997749
-0.0088562 -0.00426634 0.487523
-0.081816 -0.0645957 0.526188
-0.0411263 -0.0622345 0.821849
-0.0838186 -0.0441837 0.303848
0.260643 -0.0640405 0.460676
-0.14029 -0.070195 0.494044
0.215045 -0.0650437 0.464005
0.364407 -0.0625957 0.444233
0.00320295 -0.00365052 0.423349
0.0757029 -0.0020045 0.339949
-0.0208817 -0.0856459 0.372153
-0.0403703 -0.0229538 0.237582
0.0355419 -0.069837 0.456709
0.0435419 -0.0434493 0.61422
-0.0110128 0.0748663 0.0782793
0.176492 -0.0662674 0.458183
0.170135 -0.0626943 0.521361
0.00271409 0.00250757 0.24108
-0.176252 -0.0627589 0.545593
0.000732245 -0.0821977 0.276615
-0.0269538 -0.0816692 0.343784
0.00486965 -0.00381465 0.311385
0.0385425 -0.0266506 0.838906
-0.00966688 -0.0899901 0.485643
-0.0938417 -0.0313791 0.250069
0.00805069 -0.00412792 0.575264
-0.0121251 -0.0892444 0.794435
0.00425896 0.0138316 0.165648
0.013918 -0.0460351 0.146962
0.0363733 -0.0745357 0.512647
-0.195114 -0.0649073 0.473391
-0.0396688 -0.0657495 0.521532
0.0252962 -0.0830296 0.329867
0.0860408 -0.0660293 0.584837
0.0655325 -0.0305291 0.232288
-0.0929302 -0.0748535 0.543388
0.130056 -0.0722343 0.520715
0.0169782 -0.0718435 0.250684
-0.108405 0.0766999 0.00973323
0.0620681 -0.00880503 0.288924
-0.306358 -0.0611999 0.491645
-0.0671449 -0.0624423 0.574719
-0.0181623 -0.00740363 0.807684
0.0740768 -0.0651014 0.523886
-0.0783251 -0.0704902 0.468614
0.120542 -0.0696444 0.471338
-0.133378 -0.0729576 0.537321
-0.0432179 -0.0543455 0.465103
-0.030874 -0.0737594 0.896942
0.0181508 -0.0870345 0.853524
0.0204539 -0.0858683 0.801099
0.0422412 -0.0359439 0.4799
-0.0303715 -0.0788642 0.534873
0.0226672 -0.0204124 0.894878
-0.167096 -0.0668785 0.452413
-0.0227641 -0.0846398 0.507648
-0.0110436 -0.00492981 0.430387
0.0043927 -0.0037675 0.211737
-0.00118905 -0.0856107 0.917734
-0.0936346 -0.00623513 0.308764
0.192787 -0.0635193 0.50188
-0.209766 -0.0692054 0.506301
-0.0455709 -0.023357 0.226174
0.0322946 -0.0767923 0.431726
-0.13278 -0.0688967 0.567906
0.0307981 -0.0615175 0.257011
0.00563168 -0.0539866 0.163223
0.123607 -0.0710053 0.494612
0.0403626 -0.0644513 0.470744
-0.1313 -0.0646109 0.509444
-0.0138766 -0.00578906 0.693497
0.0300434 -0.0791335 0.403565
-0.0098528 0.0807907 0.0529613
-0.0316708 -0.0775524 0.360015
0.043491 -0.0429332 0.42725
0.0243286 -0.0116583 0.286402
-0.0396062 -0.0511914 0.284484
-0.339425 -0.0619575 0.458353
0.00740123 -0.0904385 0.681931
0.177805 -0.0672658 0.552042
-0.193331 -0.0673076 0.461193
0.0037987 -0.00370918 0.619331
0.0161657 -0.00648337 0.724308
-0.0790045 -4.49385e-05 0.312029
0.0374241 -0.0245532 0.769746
0.0261016 0.0783029 0.0957874
0.00443045 0.00853139 0.188333
-0.0528269 -0.0281337 0.31798
-0.0204443 0.0761471 0.0485304
-0.321543 -0.0606661 0.493942
0.0116271 -0.070433 0.94375
0.0833604 -0.0409592 0.251999
0.070496 -0.0631458 0.560557
-0.0473722 0.0756634 0.0453972
0.00249735 -0.0909214 0.768368
0.295524 -0.0653771 0.469537
0.0271529 -0.0557606 0.224931
-0.049273 0.0753564 0.0751957
-0.0295477 -0.0149617 0.406062
-0.01453 -0.00598723 0.371176
0.0191353 -0.0778097 0.279473
0.00465256 -0.00291917 0.274594
-0.0358703 -0.0724355 0.477002
-0.0558047 -0.0222303 0.258061
-0.0927477 -0.0705506 0.474451
-0.00207796 -0.0909627 0.715095
-0.195749 -0.0621444 0.529825
0.0285892 -0.0461579 0.913246
-0.0578748 -0.0296108 0.343113
-0.269184 -0.0638957 0.458959
-0.00436025 0.0150973 0.155968
-0.0777386 0.0746553 0.0430858
0.0263818 -0.0237905 0.213905
-0.0267985 -0.0817967 0.692542
-0.0383958 -0.0263759 0.835488
0.0257083 -0.0229035 0.172774
0.191589 -0.062884 0.513945
-0.00223773 0.0679433 0.114541
0.00198975 0.0780432 0.0261709
-0.0411848 -0.0324605 0.615521
-0.0343698 -0.0462338 0.241012
0.0414532 -0.0611563 0.747455
0.0410826 -0.0623783 0.572914
0.0808066 -0.0431959 0.347698
-0.0303069 -0.0155847 0.71773
-0.0827526 -0.0691091 0.450837
0.0177255 -0.00716906 0.77417
0.0108923 -0.00583754 0.164764
0.00185649 0.0493376 0.15164
-0.0359895 -0.0722903 0.632374
0.396229 -0.0630146 0.466663
0.0291489 -0.0798676 0.769148
-0.0344121 -0.02029 0.760604
0.046718 0.0754712 0.0778733
-0.0438326 -0.048103 0.780381
0.0254436 -0.0828779 0.828291
-0.0437937 -0.0460042 0.731626
0.00498225 -0.0357477 0.928756
-0.00757456 0.0814105 0.091727
0.0109676 -0.0895955 0.361775
0.0376476 -0.0309682 0.237746
-0.0297873 -0.0151583 0.462358
0.0202664 -0.0855506 0.879194
0.00875903 -0.0902655 0.504294
-0.0817262 -0.0636203 0.542258
0.0351093 -0.0733627 0.652861
0.107572 -0.0695937 0.464729
0.26981 -0.0627965 0.482258
-0.0291195 -0.0313425 0.227151
0.0609375 -0.0238302 0.331352
-0.00128772 -0.0378113 0.100378
0.250585 -0.0631189 0.485962
0.0620447 -0.0257298 0.255858
0.148194 -0.0638456 0.556477
0.0414382 -0.0579462 0.316275
0.00238314 0.0162736 0.115993
-0.0379224 -0.0690169 0.66262
-0.126089 -0.0664713 0.477872
0.0360618 -0.0722022 0.610878
-0.00356977 0.0275554 0.119918
-0.012651 -0.00584686 0.224041
-0.0437085 -0.0451389 0.483138
0.0109236 -0.0896089 0.719395
-0.00252206 -0.0448591 0.123031
0.0830445 0.0806324 0.043271
-0.0815866 -0.0295686 0.345735
0.227765 -0.0671287 0.473943
-0.0632811 -0.0682177 0.475857
0.0663364 -0.0400017 0.274335
-0.0407875 -0.0311512 0.490728
-0.037206 -0.0252382 0.857824
-0.0273172 -0.0141007 0.287005
0.0290732 -0.0771345 0.310823
-0.0240113 -0.0839732 0.389034
-0.0991471 -0.027428 0.294416
0.0285029 -0.0803978 0.348156
-0.0413717 -0.0614258 0.382125
0.0281471 -0.0281398 0.18631
0.0612116 -0.0760061 0.562464
0.00706595 -0.00403178 0.826589
-0.231392 -0.0632786 0.491862
-0.0432738 -0.0407243 0.557264
-0.123749 0.0754986 0.0262548
0.0486043 -0.0750836 0.532146
-0.0371958 -0.024126 0.533809
-0.0154184 -0.0882452 0.709798
-0.0713539 -0.074728 0.540102
-0.25197 -0.0637626 0.471375
-0.035601 -0.0217387 0.68938
-0.0460392 0.0815351 0.0608847
0.0113864 -0.0056261 0.85693
-0.0560357 -0.0190149 0.331398
0.00182531 0.0818042 0.0462637
0.0437986 -0.0291728 0.288564
-0.000150718 0.0701571 0.0590977
0.0211609 -0.00900746 0.843211
0.000981861 -0.00318295 0.12258
0.0224458 -0.0781765 0.910969
0.22605 -0.0650248 0.458556
-0.0421078 -0.0394333 0.311672
-0.0772812 -0.00226976 0.342004
0.0699807 -0.0746468 0.588943
0.0433902 -0.0525914 0.817042
0.322786 -0.0632708 0.442386
0.081609 -0.00751663 0.250895
-0.0273412 -0.013151 0.669893
-0.32938 -0.064578 0.466677
-0.00907265 -0.0132971 0.892371
-0.0628851 -0.00632694 0.330878
0.0294406 -0.0589005 0.243576
0.0230543 -0.0100176 0.341922
-0.00704073 -0.0860578 0.299759
-0.385918 -0.0637129 0.470835
0.0146138 0.0822562 0.0693647
0.033319 0.0776626 0.0326619
0.00406738 0.0209381 0.14591
0.21631 -0.0666706 0.536969
-0.294001 -0.0649332 0.460901
-0.0411182 -0.0322412 0.419072
0.152533 -0.0689789 0.476461
0.000962367 -0.0910725 0.339134
-0.0379523 -0.068961 0.778016
0.0249559 -0.0167023 0.198199
-0.0295742 -0.0676732 0.909879
-0.0116719 -0.00666674 0.134582
-0.251849 -0.0629404 0.489411
-0.0980772 0.0805087 0.0361927
0.0459912 -0.0752894 0.599657
0.0351656 -0.0732941 0.548619
-0.110084 -0.0627922 0.540039
-0.0253926 -0.0202098 0.178636
-0.0244798 -0.0705803 0.264906
-0.0201886 -0.0859358 0.854828
0.0773198 0.0751955 0.0310582
-0.00251473 -0.00358274 0.323857
-0.0233468 -0.0102518 0.318135
-0.00835819 -0.0041582 0.762758
0.0493136 0.0824248 0.0671296
0.0111227 -0.0825992 0.920086
-0.022969 -0.0845303 0.4507
-0.00145729 0.0192257 0.103724
-0.0304651 -0.0787874 0.58381
0.0366374 -0.0620377 0.593068
0.0287302 -0.0314873 0.223054
0.091234 -0.040793 0.310515
0.0202473 -0.00851707 0.370417
-0.0258238 -0.0825642 0.839341
0.0366536 -0.0713909 0.368499
-0.351987 -0.0647779 0.488342
-0.0665482 -0.0387467 0.262277
0.0345213 -0.020423 0.683448
-0.0133951 -0.0888591 0.456687
-0.0664127 0.0747008 0.0598051
-0.028416 -0.080381 0.873031
-0.036827 -0.0710664 0.708198
-0.000479039 0.0799112 0.100236
0.0414396 -0.033301 0.699473
0.38981 -0.0608074 0.454317
0.0438907 -0.0469897 0.46998
-0.0190325 -0.0676115 0.23861
-0.22175 -0.0654413 0.45246
0.0310804 -0.0782717 0.705723
-0.060064 -0.0695378 0.600398
0.0992569 -0.0294252 0.301515
-0.0156677 -0.0881696 0.742146
0.0421056 -0.0354967 0.758291
0.166235 -0.0680692 0.462841
0.160521 -0.0623416 0.542378
0.0703233 0.081237 0.0517182
0.0211643 -0.00900727 0.670687
0.0908692 -0.0396338 0.281656
0.00122319 0.0601774 0.0797512
0.162432 -0.063998 0.505141
0.00247874 0.0600374 0.0987294
-0.000452186 -0.0911115 0.846347
0.0251472 -0.0114411 0.320994
-0.0352764 -0.028188 0.260724
0.0376992 -0.0646469 0.536314
0.331632 -0.0654741 0.494765
0.234255 -0.0655785 0.532102
0.0033854 -0.00407776 0.154846
0.0247617 -0.0834682 0.64723
0.0213387 0.0758377 0.0595483
-0.0377516 -0.0412572 0.892506
0.0983762 -0.074958 0.546874
0.0415219 -0.0609298 0.800176
-0.0991322 -0.0177978 0.336547
-0.0029159 0.0482833 0.12409
0.0276739 -0.013424 0.436014
-0.195979 -0.0702499 0.518279
-0.133484 -0.0682117 0.452864
0.032641 -0.0181318 0.522563
0.0185562 -0.00761309 0.740364
0.135939 -0.0654951 0.492755
-0.00445634 0.0123701 0.170607
0.0418377 -0.0346136 0.495277
0.108043 0.0778104 0.0420282
-0.0137486 -0.00753473 0.155923
-0.296552 -0.0665782 0.504608
0.0355327 -0.0216575 0.819475
-0.00881624 -0.00425422 0.387048
-0.0718194 -0.0441368 0.340184
0.00980412 -0.0899485 0.55336
-0.0414266 -0.0332574 0.664256
0.13996 -0.0689465 0.470506
0.320805 -0.0619873 0.468538
-0.00496838 -0.00382437 0.509131
0.0379092 -0.058907 0.289233
-0.0740325 -0.00839129 0.242603
-0.0483215 -0.022499 0.250455
-0.0368832 -0.0709612 0.811822
-0.0943887 0.076239 0.0108269
0.266647 -0.0676538 0.508909
0.0227284 -0.0846589 0.632801
0.366415 -0.0601573 0.47689
0.130375 -0.0689049 0.463403
0.224067 -0.0636795 0.48721
0.00368794 0.0283065 0.132776
0.0834086 -0.0739244 0.527037
0.27594 -0.0629916 0.515497
0.0263345 -0.0123248 0.658114
-0.240462 -0.0620331 0.516688
0.318447 -0.0654813 0.47961
-0.0435092 -0.0431153 0.366993
0.118764 0.0778294 0.0141459
-0.326002 -0.0633588 0.442497
0.0137617 0.0759302 0.0458523
0.0163902 -0.00655145 0.556651
-0.0432486 -0.0540337 0.505943
-0.038073 -0.0257672 0.461379
-0.020249 -0.00851798 0.726963
-0.228229 -0.0665489 0.4626
-0.0431825 -0.0547045 0.447005
0.00624425 0.0842085 0.106204
0.35955 -0.0639986 0.467315
-0.111948 -0.0700047 0.472923
0.0398037 -0.065497 0.787265
-0.0161818 -0.00648823 0.598062
-0.0182862 -0.0602949 0.210166
0.271218 -0.0632822 0.470759
0.0358068 -0.0725128 0.413615
0.340929 -0.0604745 0.484888
0.00827925 -0.0674548 0.219988
-0.0449587 -0.021206 0.287053
0.0373251 -0.0243678 0.53429
0.0370735 -0.0706051 0.737364
0.0436971 -0.0450242 0.345781
-0.159765 -0.0719044 0.530252
-0.0438575 -0.0466279 0.82733
0.0720235 -0.0261477 0.343825
0.0682092 -0.0767358 0.57454
0.0437347 -0.0490957 0.388475
0.114968 -0.0624285 0.557713
0.0266271 -0.0125649 0.624604
0.0238658 -0.084051 0.480452
0.0603069 -0.0215458 0.291966
-0.100366 -0.0643104 0.520498
0.0985019 -0.0672908 0.473702
0.0737127 -0.00065479 0.319948
-0.00821333 -0.00475034 0.173468
-0.184144 -0.0700361 0.504771
0.0433094 -0.0410905 0.414232
0.0270904 -0.012946 0.808483
0.0711789 -0.0416742 0.262255
0.0371859 -0.070395 0.624506
-0.0211746 -0.0744595 0.92062
-0.0437317 -0.0453746 0.752151
-0.143034 -0.0628026 0.467463
-0.0320584 -0.0174219 0.330098
-0.274794 -0.0620215 0.498141
-0.0210208 -0.0831461 0.311747
-0.0395404 -0.0315752 0.870193
0.153249 -0.0701071 0.49638
0.014972 -0.006122 0.807255
0.0437311 -0.0453699 0.724639
-0.0342592 -0.0201036 0.602051
-0.00282432 -0.00361323 0.539046
0.00582157 -0.0039084 0.596439
0.00280775 -0.077208 0.255708
-0.0257142 -0.0367172 0.911331
0.309403 -0.0661085 0.489637
0.040794 -0.0628204 0.848742
0.338575 -0.0639021 0.457397
0.000720342 -0.0910964 0.642066
-0.0356489 -0.0727053 0.348693
-0.00682886 -0.0904948 0.57425
0.0419098 -0.0249685 0.213518
-0.00692101 -0.0543533 0.166233
0.034453 -0.0203398 0.560852
-0.190245 -0.0691456 0.492883
-0.164239 -0.0708928 0.512093
-0.0046178 -0.0907126 0.431608
0.0526297 -0.0642971 0.5447
0.0438391 -0.0480369 0.749171
-0.0460264 -0.0780843 0.587542
0.0013928 -0.0891436 0.313951
-0.11298 -0.0655805 0.494809
-0.0377914 -0.0252403 0.406381
-0.00608438 -0.00393517 0.837773
0.0568681 -0.0700733 0.452488
-0.0208998 -0.0856341 0.785905
-0.0193988 -0.00806354 0.707002
0.144279 -0.0638389 0.452132
0.0184516 -0.0346957 0.124978
-0.0899888 -0.0713074 0.485558
0.0382973 -0.0683156 0.401865
-0.0162134 -0.00699719 0.272255
-0.00121028 0.0897698 0.114425
0.00570154 -0.00389658 0.717596
0.0881935 -0.0628923 0.548994
-0.0437996 -0.0460639 0.395307
0.000300634 -0.044791 0.947224
-0.00217048 0.0199735 0.180165
0.0348435 -0.0208157 0.480621
0.0121131 -0.00525419 0.69654
0.0229674 -0.00997111 0.495315
-0.0222633 -0.0849075 0.423154
0.0329901 -0.0696819 0.897622
-0.0245941 -0.0108966 0.65028
0.00154153 0.0529964 0.0862567
-0.019352 -0.0864635 0.673571
-0.0322619 -0.0768321 0.447217
-0.0193554 -0.00804033 0.773618
0.0752607 -0.0454286 0.325833
-0.0965233 -0.0354329 0.314204
-0.103238 -0.0641233 0.57321
-0.0425647 -0.0574932 0.691532
0.098398 -0.0312891 0.339665
-0.168697 -0.0655155 0.474654
-0.00781625 -0.0834717 0.28568
0.0431041 -0.0554951 0.713093
0.00538567 0.0818096 0.0614336
0.0433798 -0.0526972 0.590314
-0.000457003 0.0761816 0.132769
0.0137395 -0.0887546 0.642178
0.0416789 -0.0474714 0.30201
0.0136824 -0.0213942 0.0929673
0.0395019 -0.0284406 0.627158
-0.0435499 -0.0509739 0.422367
0.251912 -0.0619843 0.514843
0.244577 -0.0678005 0.498291
0.0929927 -0.0320972 0.247828
0.102483 -0.0719464 0.500266
0.0467288 -0.0208801 0.296286
-0.0555282 0.0758139 0.0320405
-0.0609714 -0.0740579 0.527532
0.0356602 -0.0671946 0.497247
-0.0302096 -0.0366843 0.202254
0.0198636 -0.0861901 0.404293
-0.1428 -0.0724174 0.452087
0.0263257 -0.0123176 0.715432
-0.000676758 0.0752204 0.0842484
0.0406093 -0.0639386 0.35947
-0.0335265 -0.0192108 0.558143
0.0414455 -0.0611816 0.56001
-0.0379735 -0.0255811 0.501382
-0.0544679 -0.0286842 0.224082
0.0740354 0.0783332 0.0658086
-0.0749443 -0.00698385 0.353162
-0.0174196 -0.0874963 0.518384
0.0432462 -0.0404488 0.544622
0.0316811 -0.0341713 0.900228
0.296472 -0.0633554 0.455167
0.00287176 -0.0908845 0.492367
0.00301563 -0.0609134 0.189732
0.0294 -0.047756 0.214102
-0.0312244 -0.0728148 0.301464
0.107453 0.0784714 0.0192785
0.232469 -0.0658611 0.443117
0.0904819 -0.00413918 0.305916
0.191104 -0.0708701 0.537527
0.0169366 -0.00674734 0.413198
-0.018506 -0.0437585 0.928663
0.0105409 -0.0352044 0.101528
0.00175094 -0.0699205 0.950836
-0.307875 -0.0643039 0.453908
0.223963 -0.0690943 0.512201
0.0484879 -0.0740697 0.513504
-0.145829 -0.0714584 0.474948
-0.0272826 -0.0131028 0.428124
-0.0843846 -0.00754091 0.254371
-0.0252467 -0.0830702 0.729352
-0.0885415 -0.0734239 0.519173
-0.122073 -0.0625539 0.54199
0.00257121 0.0404502 0.148686
0.042681 -0.0417781 0.863369
-0.0390554 -0.0648947 0.602448
-0.050718 -0.065507 0.523845
0.016684 -0.00832706 0.202887
0.0304102 -0.0236253 0.886187
-0.0961672 -0.0355538 0.304287
0.00433815 0.0864192 0.068
-0.066408 -0.0674884 0.487444
-0.0697816 -0.0273543 0.345657
0.016632 -0.0241521 0.906054
0.0156892 -0.0881631 0.576141
0.0435419 -0.0510527 0.56643
0.204143 -0.0654659 0.460618
-0.043595 -0.0505163 0.335483
-0.0527036 -0.0208847 0.296147
0.0106924 -0.00482329 0.347544
-0.126055 -0.0736938 0.552298
0.0433639 -0.052859 0.459872
-0.0873969 0.0783782 0.0265658
-0.0891733 -0.0351943 0.239771
-3.06307e-05 0.00143201 0.0969222
0.0333673 -0.0190168 0.757652
0.0207162 -0.00876775 0.634159
0.0175656 -0.0874183 0.528939
0.0021253 -0.090958 0.692528
-0.149815 -0.0627139 0.547574
-0.0757267 -0.0760421 0.580978
-0.317969 -0.0622136 0.465844
-0.0241125 -0.0839191 0.575249
-0.181835 -0.0620395 0.535197
-0.230887 -0.0624473 0.509081
-0.0435324 -0.051151 0.717675
-0.00263836 0.0584324 0.124676
-0.00770897 -0.00415252 0.264577
-0.0215222 -0.0111692 0.23233
-0.018023 -0.0262403 0.103792
-0.084948 -0.0643063 0.58277
0.293621 -0.0616154 0.505475
0.216082 -0.0622856 0.518348
0.0389736 -0.0670501 0.685966
-0.0991866 -0.0139261 0.321178
-0.0174858 -0.0658412 0.940071
0.0141802 -0.0886209 0.747822
-0.0181181 -0.00737893 0.561609
-0.0417621 -0.0601389 0.771278
-0.0234099 -0.0467742 0.182456
0.0366079 -0.0714764 0.579524
-0.0255261 -0.0294304 0.162564
0.0260436 -0.0824162 0.587183
0.0991318 -0.0738495 0.529495
-0.0324923 -0.0765514 0.609998
-0.0371851 -0.070285 0.845639
-0.0352925 -0.0625489 0.900936
-0.0714558 -0.0658751 0.512315
0.0758639 -0.0448534 0.302642
0.0349379 -0.0733175 0.857042
-0.0414404 -0.0611992 0.582846
-0.096478 0.0762986 0.0481261
0.0288603 -0.0801045 0.671039
0.0416729 -0.0604321 0.825419
0.00924844 -0.00438568 0.790044
-0.399628 -0.0615327 0.43954
-0.295046 -0.0617939 0.489179
0.055236 0.0757303 0.0356573
-0.144456 -0.0722929 0.552702
0.0378846 -0.0443056 0.893528
0.0397119 -0.0656689 0.66017
0.0987457 -0.0272822 0.288444
0.00215356 0.00814641 0.123495
0.20837 -0.0684125 0.489954
0.00317861 -0.0908543 0.453979
0.120527 -0.0640976 0.516874
-0.0580474 -0.0332396 0.310265
0.0102109 -0.0721007 0.240844
0.101419 -0.0752673 0.567783
-0.0418359 -0.0217838 0.270699
-0.0913077 -0.0759535 0.560985
-0.03702 0.0790791 0.0439559
-0.000514678 0.0222155 0.0928655
0.00518778 -0.00384598 0.555062
-0.0431149 -0.0553906 0.757769
-0.00336579 0.0274892 0.156005
-0.0644013 -0.0139506 0.248455
-0.214815 -0.0621271 0.524464
0.000255062 -0.0911422 0.726331
-0.042601 -0.0371282 0.703439
-0.0199152 -0.0861625 0.598999
0.0391647 -0.0278098 0.656815
0.0376186 -0.024917 0.637962
-0.0710897 0.0812622 0.0516677
0.0158844 -0.00642861 0.316506
0.00193845 -0.0909764 0.620611
0.0320956 -0.0174711 0.843019
-0.117701 -0.0686509 0.453707
0.0432554 -0.0405627 0.849326
-0.00168145 0.036243 0.163518
0.209133 -0.0629171 0.508625
0.0206238 -0.046949 0.172098
0.18775 -0.0684329 0.477366
0.384744 -0.0602866 0.465271
-0.0896183 -0.0165061 0.343484
-0.00132881 0.0381185 0.0885727
0.059034 -0.0649871 0.534863
-0.00327267 0.035881 0.135323
0.0407631 -0.0301171 0.261845
0.00787602 -0.00132383 0.221925
-0.0435966 -0.0439929 0.842931
0.0172886 0.0837182 0.0823855
-0.0418633 -0.0346968 0.593495
0.0212135 -0.0247504 0.207211
0.156633 -0.0629372 0.530098
0.0290527 -0.0799466 0.717168
0.0527887 -0.0654944 0.52459
-0.000597883 0.077235 0.121728
-0.0296103 -0.027629 0.237249
0.0412855 -0.0617094 0.412247
-0.0213085 -0.0854178 0.465096
-0.0360668 -0.0223063 0.613018
0.362126 -0.0610413 0.487826
0.00871392 -0.00422319 0.674044
-0.0435492 -0.0509814 0.649444
0.314256 -0.0629115 0.45459
0.0881889 -0.0122695 0.240578
0.0806249 -0.0698583 0.458641
-0.0676427 -0.0432681 0.328308
0.142802 -0.0635505 0.477254
-0.0434172 -0.0421804 0.511037
-0.0215573 -0.0849665 0.322856
0.0336493 -0.0197041 0.317813
0.00184512 0.0636785 0.137575
0.0608847 0.0768144 0.0207504
-0.133625 -0.0633146 0.531424
-0.0299895 -0.0571259 0.913786
-0.0346224 -0.0205463 0.774447
0.186943 -0.0621764 0.527863
0.174365 -0.0693017 0.485871
0.0163961 -0.00655324 0.450109
0.0392539 -0.0279771 0.78668
-0.122112 -0.071462 0.501721
0.238388 -0.0621321 0.521024
0.0282774 -0.0394481 0.191871
0.021158 -0.00900391 0.756388
0.00709612 0.0795407 0.083085
-0.0517821 -0.0215202 0.278158
-0.265115 -0.0625107 0.491716
-0.0431886 -0.0496607 0.861059
-0.17774 -0.071795 0.539134
0.113623 -0.0716315 0.499111
-0.0699623 -0.0431027 0.287044
0.0430483 -0.0386046 0.670233
0.000477501 0.0721394 0.0313351
-0.0392704 -0.0280076 0.635572
-0.134878 -0.0691577 0.471305
0.299667 -0.0665922 0.496935
-0.0317923 -0.0170977 0.356069
-0.010294 0.0748644 0.068119
-0.0958909 -0.0726142 0.508587
-0.0889959 -0.0617629 0.572659
0.0436756 -0.0496955 0.448177
0.146885 -0.0720489 0.533703
-0.244953 -0.065224 0.444536
0.125595 -0.0684619 0.571857
-0.158128 -0.0688703 0.475591
0.0328789 -0.0184217 0.650275
0.0141344 -0.0886348 0.475553
-0.200793 -0.0638283 0.494588
-0.0748744 -0.00254971 0.285612
-0.0241443 -0.011226 0.297262
0.0317551 -0.074815 0.886826
-0.0932204 -0.0372035 0.345681
-0.211124 -0.0659725 0.447656
0.0126447 -0.0070823 0.150669
-0.268301 -0.0659029 0.46974
0.040908 -0.0602759 0.873978
-0.00624271 -0.00394987 0.68232
-0.0258313 -0.0119119 0.452387
0.143393 -0.0642936 0.515911
-0.0313308 -0.0679984 0.281634
0.0332961 -0.0491801 0.240017
-0.0426705 -0.0373574 0.445438
0.0416864 -0.0341147 0.531541
-0.149307 -0.0658629 0.4815
-0.00871619 -0.0863848 0.90831
-0.00357511 -0.00368742 0.79257
-0.0336046 -0.0748112 0.865017
-0.0433899 -0.0525984 0.557001
-0.025935 -0.011997 0.74398
0.000968268 0.0595857 0.149393
-0.254498 -0.0642089 0.4605
-0.0805189 -0.0743677 0.534056
-0.00970277 -0.0684061 0.225501
0.0653241 -0.062812 0.570863
-0.0565263 -0.0149079 0.319303
-0.105194 -0.0718695 0.499981
0.000618695 0.0111886 0.207865
-0.0133031 -0.0888849 0.827033
-0.0370537 -0.0691461 0.466664
0.0402498 -0.0646625 0.633494
-0.04273 -0.0375535 0.352872
-0.0310002 -0.0161537 0.54381
0.0905723 0.0753831 0.0193362
0.0275235 0.0754051 0.0823085
-0.0429342 -0.0562754 0.391626
0.0573636 -0.0313254 0.227635
-0.061416 -0.0362842 0.286537
-0.00317533 0.0390323 0.119092
-0.0157946 -0.00637176 0.819277
-0.0184893 -0.0869246 0.686876
-0.0732771 -0.0444522 0.306407
0.275429 -0.0672434 0.502554
-0.0334131 -0.0190726 0.676924
-0.160612 -0.0627 0.54842
-0.0387195 -0.0675256 0.743317
0.0890831 -0.062457 0.575083
0.0178965 -0.0128297 0.133416
-0.0134167 0.0754068 0.0594865
-0.186028 -0.0713111 0.531536
0.0427552 -0.0568635 0.700261
0.0254877 -0.0116299 0.460866
-0.0140082 -0.00582899 0.536899
-0.016523 -0.0089539 0.179149
-0.0380546 -0.0257328 0.724869
-0.0543317 -0.023127 0.232682
0.0435578 -0.0508907 0.65136
0.000378958 -0.00328041 0.286005
-0.00259068 0.0246196 0.109627
-0.0672004 -0.0668188 0.498204
0.0739949 0.0748245 0.0427228
0.270572 -0.0647902 0.446434
-0.341067 -0.065363 0.48568
0.00264606 0.0496356 0.103362
-0.0319865 -0.0771677 0.421645
-0.033839 -0.0530427 0.250441
-0.0283893 -0.080491 0.619104
0.0213588 -0.0138318 0.176521
0.00658335 -0.00253367 0.25032
0.00567403 -0.0906086 0.608182
-0.158763 -0.0642924 0.502735
0.0216475 -0.0111419 0.236042
0.0960958 -0.0139251 0.279377
-0.0942684 -0.0229099 0.243539
-0.0165452 -0.0066 0.843222
0.110492 -0.0701659 0.474962
-0.0362252 -0.062945 0.563266
0.194558 -0.0705122 0.522075
-0.00417703 0.0166226 0.143061
-0.043084 -0.0387967 0.743755
-0.0357495 -0.0219214 0.813011
-0.0329917 -0.0596308 0.262627
0.135776 -0.0729464 0.540292
0.0358024 -0.0539623 0.264103
0.00840305 0.0779233 0.037026
0.0112182 -0.0895195 0.33299
0.0521079 -0.0197677 0.327772
0.0955237 -0.0163086 0.264625
0.0397573 -0.0655838 0.435798
0.0363751 -0.022682 0.422955
0.0180034 -0.00731761 0.434307
-0.0556548 -0.0643811 0.544221
0.0417634 -0.0601335 0.331582
0.0182343 -0.0870609 0.738139
-0.0240374 -0.0493307 0.192737
-0.0344683 -0.0227124 0.287535
-0.0112848 -0.0499866 0.9468
-0.0434211 -0.0522805 0.818377
-0.0337957 0.0758242 0.0864376
-0.0174541 -0.00702398 0.623684
0.317241 -0.0656056 0.500688
0.00328096 0.0351579 0.141181
-0.0951049 -0.0315111 0.26057
0.038899 -0.0275 0.322655
-0.0314502 -0.0170257 0.317787
-0.0706965 -0.0697865 0.453594
0.0731501 -0.00587849 0.26332
-0.0404103 -0.0312071 0.230985
-0.00412638 -0.00374145 0.731161
0.0942856 0.0740883 0.0387343
0.000145694 0.0775883 0.0666253
-0.0188098 -0.0156273 0.889106
-0.0190796 -0.00789289 0.473152
0.33865 -0.0645157 0.469001
-0.0377931 -0.0692589 0.496186
0.0438016 -0.0460704 0.808093
0.00565985 -0.0040623 0.130111
-0.0630827 -0.0763973 0.569905
-0.205484 -0.0648189 0.471833
0.0169167 -0.00673667 0.474403
-0.0355195 -0.0235667 0.220236
-0.100408 -0.0741953 0.535334
0.163939 -0.0722396 0.542295
-0.000869776 -0.0297252 0.918047
-0.102254 -0.0624881 0.548609
-0.000371638 -0.00337169 0.523483
-0.173144 -0.0660748 0.462891
0.0342403 -0.0462147 0.904473
0.0286551 -0.0142292 0.376914
-0.0244267 -0.0158206 0.201358
0.126367 -0.0628031 0.538719
-0.0889617 -0.00591021 0.281526
-0.0187204 0.0826019 0.0746216
0.0563873 0.0807079 0.0517968
0.0320379 0.0814551 0.0645522
-0.0438186 -0.0462569 0.611681
0.0866004 -0.0653022 0.511261
0.0426834 -0.0374017 0.732472
0.070551 -0.0677603 0.480164
-0.0159511 -0.0880836 0.477618
-0.254448 -0.0623406 0.50196
0.0227166 -0.0114154 0.253558
0.000671927 0.00911069 0.103645
-0.0375594 -0.0381163 0.262539
0.183299 -0.0655261 0.467945
0.0173618 -0.0275229 0.102761
0.207301 -0.0648619 0.470563
0.0292061 -0.0798093 0.819163
0.0412447 -0.0618436 0.455217
-0.0105328 -0.00477487 0.549982
-0.0271734 -0.0130142 0.810106
-0.216792 -0.0679816 0.534086
0.0408562 -0.0313822 0.807498
-0.00203218 0.0838966 0.0551445
-0.0004824 -0.00402886 0.111398
-0.0361001 -0.0223468 0.70002
-0.0237605 -0.0103951 0.369541
0.0449174 -0.0225126 0.250078
-0.241458 -0.0638579 0.475098
0.0193718 -0.0864529 0.564694
0.223648 -0.0655899 0.448562
-0.283525 -0.0665932 0.491714
0.00597572 0.0863867 0.0964542
-0.044279 -0.0746295 0.519158
-0.181972 -0.0674671 0.458499
0.272509 -0.0668195 0.49186
0.00252973 0.0412452 0.104108
-0.00432682 -0.0907412 0.745636
0.154827 -0.0637747 0.5163
0.25066 -0.0641026 0.46486
0.035415 -0.0215121 0.597747
-0.046283 -0.0719628 0.604057
-0.330227 -0.0617742 0.49924
-0.00916136 -0.00435981 0.803893
-0.0363768 -0.0718183 0.530525
-0.0942116 -0.0689365 0.449176
0.0363699 -0.0226756 0.570622
-0.0432075 -0.0400515 0.639527
-0.376808 -0.0635705 0.466244
-0.242901 -0.0658036 0.454517
0.0272747 -0.0814058 0.54672
0.25221 -0.064648 0.452365
0.00140374 -0.0910291 0.421222
-0.171323 -0.0646978 0.486343
0.0189619 -0.0590091 0.938548
0.038092 -0.0541341 0.279853
0.129268 -0.0635527 0.525967
0.0409255 -0.0628961 0.815318
0.0315498 -0.0776998 0.482475
-0.00206809 -0.00353875 0.300559
-0.0409077 -0.0315471 0.332066
0.0438256 -0.0463288 0.365719
-0.0431408 -0.055128 0.374359
-0.163437 -0.0629487 0.523376
0.0557353 -0.0285667 0.305726
0.0374335 -0.0699317 0.601096
-0.0408071 -0.0561847 0.882055
-0.0857603 -0.0127696 0.228134
0.0400731 -0.0295094 0.376584
0.0614146 -0.0256632 0.245435
0.0379331 -0.0689968 0.805132
-0.0296454 0.0764527 0.0304557
0.00576723 -0.0905379 0.870153
-0.0879167 -0.00386944 0.291782
0.245785 -0.0682276 0.508319
-0.0316365 -0.0319114 0.211049
-0.0160039 -0.00719984 0.252008
0.0657873 -0.0143123 0.238092
-0.0604642 -0.0265118 0.288869
0.181894 -0.0715488 0.533458
0.0555907 0.0801461 0.0768796
0.0650987 -0.0670959 0.494685
-0.0259181 -0.0119837 0.797504
0.281947 -0.0648393 0.453155
0.0184249 0.0754385 0.0899449
0.0371283 -0.0215749 0.276613
0.0609032 -0.0293286 0.279801
0.189662 -0.0672934 0.459108
0.0419829 -0.0621235 0.584566
0.0041146 0.00409012 0.15957
-0.0430294 -0.0385402 0.724968
0.0436091 -0.044132 0.60422
-0.0423715 -0.04042 0.866426
0.131566 -0.0709166 0.499948
-0.0251518 0.0836233 0.0876971
-0.226643 -0.0663108 0.533452
0.026121 -0.0121498 0.786418
-0.0184773 -0.0139272 0.126832
0.0438561 -0.0466374 0.779022
-0.00772879 0.082115 0.0747232
-0.0397889 0.0751403 0.0720613
-0.00444081 0.0076564 0.199826
-0.0497753 -0.0274369 0.337706
0.00286181 0.0528158 0.130845
0.0357069 -0.0218677 0.365741
0.112521 -0.0634746 0.528211
0.0181382 -0.00954014 0.871584
-0.219001 -0.0679072 0.485311
-0.0412378 -0.0326353 0.509165
-0.0931197 -0.00775731 0.34024
-0.00249694 -0.0908974 0.859509
0.200725 -0.0696209 0.509832
0.0037368 0.017653 0.129081
-0.0782338 -0.0439888 0.273983
0.184971 -0.0697322 0.500055
0.0030728 0.00366861 0.140437
-0.0339649 -0.0282829 0.245821
0.0243124 -0.0838123 0.339821
0.0275115 -0.0145882 0.274967
0.0189697 -0.01158 0.167154
-0.115697 -0.0663624 0.481358
-0.15161 -0.0634827 0.524816
0.0201753 -0.0860235 0.360868
-0.0418554 -0.0598312 0.529809
-0.00639459 0.0839475 0.102013
-0.0578469 -0.0626041 0.578125
-0.0144212 -0.0885478 0.393223
0.0108226 -0.00486277 0.402195
-0.00954779 -0.0638609 0.207195
-0.00389165 0.0722393 0.0733837
0.00404565 0.0142464 0.175489
0.0107514 -0.011959 0.0926793
-0.0031457 0.0741098 0.092718
0.0345263 -0.0740732 0.831114
0.0122952 -0.0891927 0.777672
-0.180262 -0.0623756 0.524282
0.0426511 -0.0572069 0.680514
0.0320423 -0.0629619 0.267191
0.0382896 -0.03002 0.87527
-0.03223 -0.0176315 0.789067
-0.356496 -0.0643902 0.473074
0.0394406 -0.028326 0.391086
0.0194345 -0.00808259 0.350859
0.0291033 -0.0153843 0.29415
-0.0235331 -0.0842288 0.762778
-0.0340949 -0.0199035 0.484862
0.340166 -0.0630756 0.442854
0.168069 -0.0711884 0.516901
-0.0697886 -0.00832011 0.343872
-0.0820023 -0.0666279 0.492278
-0.139649 -0.0708326 0.505911
-0.0123104 -0.0891881 0.766634
0.00974948 -0.0899651 0.799748
-0.32033 -0.0644516 0.503009
-0.0250582 -0.0112804 0.836091
0.0428819 -0.056446 0.660816
0.0298784 -0.0152331 0.590279
0.00165571 -0.071489 0.232008
-0.0610205 -0.0314525 0.258864
0.161361 -0.0646427 0.493684
-0.0212117 -0.00903262 0.420374
-0.00510451 -0.00383778 0.397128
-0.0227875 -0.0846273 0.532801
0.0369492 -0.0234842 0.222576
-0.263505 -0.0646996 0.445113
0.0987174 -0.0173944 0.339831
0.0533078 -0.0303564 0.255068
-0.0662178 -0.0653476 0.525794
0.0683982 -0.0648444 0.532273
-0.00679874 -0.0904978 0.812328
-0.0414016 -0.0331751 0.456051
-0.00944687 -0.0900569 0.734336
0.170102 -0.0668868 0.450899
0.0238431 -0.0466591 0.184276
0.0386775 0.0797647 0.0488658
0.0507143 -0.0663902 0.50801
-0.118115 -0.0738895 0.560842
0.0383955 -0.0681318 0.421854
-0.00145858 -0.0910237 0.559192
0.0243355 -0.0692216 0.921434
-0.0861968 -0.0764001 0.569189
-0.347778 -0.0614535 0.4632
0.00659684 -0.00398542 0.816934
0.00470966 -0.0907035 0.571044
0.0531597 -0.0310042 0.236729
0.0439001 -0.0474178 0.623111
0.400339 -0.0606991 0.456111
-0.00982453 -0.00456004 0.405733
0.00396974 0.0214604 0.158735
