0.139203 -0.020072 0.448437
0.384568 -0.0208905 0.436194
-0.261721 -0.0206095 0.356434
0.439889 -0.0210012 0.422369
-0.0245601 -0.0321082 0.378888
0.179748 -0.0211354 0.353486
0.0112284 -0.0675961 0.518497
-0.0176444 -0.0190929 0.0740687
0.0265449 -0.048009 0.278544
0.0280492 -0.0407017 0.354081
-0.196698 -0.00555644 0.352865
0.106047 -0.0235397 0.411013
-0.348371 -0.0215909 0.39734
0.0566313 -0.023235 0.432344
0.0355905 -0.0193189 0.0938184
-0.0584742 -0.023752 0.415868
-0.0323198 -0.0139598 0.289531
-0.259059 -0.00352562 0.413901
-0.0245931 -0.0550411 0.287455
0.00103638 0.0572379 0.0507738
-0.127359 -0.00368317 0.417752
0.114926 -0.0138979 0.295881
-0.417226 -0.00357511 0.406259
0.0027075 -0.0166471 0.217968
0.264406 -0.00365414 0.400565
0.011134 -0.0184121 0.371048
-0.164266 -0.0262177 0.43838
-0.0155045 -0.0667352 0.284961
-0.0119974 -0.0196881 0.476336
0.264151 -0.0176837 0.335503
-0.0164734 -0.00649107 0.340841
0.444516 -0.00657601 0.352753
0.125466 -0.00355163 0.406731
-0.0141371 -0.00367657 0.414909
0.375188 -0.0196889 0.359122
0.41129 -0.0074754 0.452325
0.0517664 -0.00563814 0.348034
0.17145 -0.0241725 0.0336216
-0.307399 -0.00943915 0.454724
-0.0653261 -0.0203194 0.0615099
0.182642 -0.00565813 0.351719
-0.40822 -0.0195662 0.360954
0.293081 -0.00408668 0.372541
0.0189787 -0.0456767 0.532947
0.438735 -0.0205649 0.374095
-0.102792 -0.00417667 0.366021
0.354547 -0.0214727 0.392624
0.169934 -0.00134424 0.479671
-0.471945 -0.00665825 0.410357
-0.378715 -0.0141685 0.319541
0.0497754 -0.0201585 0.335736
0.0955684 -0.0275883 0.0707369
0.21387 -0.020204 0.445401
-0.270778 -0.00400156 0.377994
0.0893837 -0.00423977 0.361873
-0.140302 -0.0226587 0.0457943
-0.146886 -0.0227566 0.376242
-0.0114028 -0.0687071 0.350689
0.390432 -0.00349314 0.415461
-0.288678 -0.00826618 0.335987
-0.46831 -0.0124453 0.314466
-0.206659 -0.0108932 0.456441
-0.23513 -0.00858648 0.332107
-0.0196416 -0.0583328 0.25806
-0.364005 -0.0206245 0.364959
0.0590692 -0.00387477 0.385487
0.194293 -0.0227653 0.399595
-0.16962 -0.0225595 0.374361
0.209968 -0.00790677 0.336279
0.204251 -0.013205 0.298226
0.329245 -0.00381454 0.390363
-0.353369 -0.0037342 0.395678
0.012135 -0.0541158 0.204555
-0.277119 -0.0217336 0.433308
-0.349143 -0.0133589 0.458209
-0.147284 -0.0103729 0.316634
0.00795513 -0.020669 0.125613
0.0167886 -0.00467843 0.436084
-0.0292961 -0.0192075 0.0823761
-0.0151112 -0.0239378 0.0290633
-0.020376 -0.031842 0.225904
0.00735768 -0.0704081 0.480184
-0.0209835 -0.0642094 0.454539
0.281219 -0.0218315 0.430602
-0.0772987 -0.0129772 0.295777
0.323828 -0.0143893 0.457002
0.155712 -0.0224314 0.435144
0.362612 -0.00908801 0.332215
0.0128633 -0.013495 0.290152
0.148804 -0.00399562 0.377949
0.242678 -0.0175453 0.332736
-0.116518 -0.0271209 0.0673659
0.255708 -0.0220517 0.38274
0.060776 -0.0283025 0.0677026
0.0253908 -0.0337579 0.449233
-0.433407 -0.00431445 0.368761
-0.448158 -0.0035006 0.41709
-0.28856 -0.0221928 0.407704
-0.443927 -0.0211091 0.416495
-0.0073521 -0.0690793 0.517957
0.0235124 -0.00738752 0.334573
0.406425 -0.00390721 0.384613
0.0218225 -0.0326067 0.243807
-0.111225 -0.0214471 0.350099
-0.42831 -0.0199906 0.439892
-0.251219 -0.00411956 0.433566
-0.130462 -0.0231454 0.420886
-0.00950512 -0.0456976 0.150576
0.130517 -0.00850519 0.329632
0.330687 -0.0209367 0.437801
-0.398436 -0.0211652 0.39374
-0.0229954 -0.0203119 0.111006
-0.374704 -0.00362243 0.403027
-0.431262 -0.0164898 0.34063
0.0112993 -0.0687568 0.397634
0.0245599 -0.0551142 0.320401
0.0757147 -0.00999883 0.317241
-0.107017 -0.00391553 0.383007
-0.0434723 -0.0212603 0.343174
0.184415 -0.0224633 0.37522
0.0837027 -0.0242481 0.0303104
0.0118515 -0.0419782 0.146063
0.398844 -0.0175109 0.345338
0.177297 -0.0139248 0.45872
-0.347918 -0.00504157 0.361008
0.442783 -0.00630354 0.448584
0.114056 -0.0229051 0.37011
0.0781699 -0.0232545 0.428839
0.472645 -0.0131806 0.363578
-0.303678 -0.00411704 0.434347
-0.193022 -0.010519 0.316917
0.445498 -0.00382098 0.390365
0.00236746 -0.0243021 0.408613
-0.149349 -0.0123211 0.475119
-0.237315 -0.022549 0.406221
-0.00687217 -0.0707579 0.444232
-0.0632372 -0.0219574 0.349835
-0.188014 -0.00389537 0.384603
0.150206 -0.0220599 0.0604414
0.00132173 0.0426139 0.0215064
0.0412547 -0.0234173 0.368403
0.23398 -0.00366053 0.41918
0.02596 -0.0479065 0.507891
0.121529 -0.00504884 0.354331
-0.0771979 -0.00615025 0.44458
-0.0982175 -0.00366501 0.416307
-0.241499 -0.019196 0.450003
-0.318208 -0.021781 0.39519
0.00157984 -0.0166656 0.190073
-0.104462 -0.00795764 0.332824
0.326123 -0.00460713 0.363508
0.29284 -0.0137342 0.309338
0.179401 -0.00386877 0.426975
-0.0291936 -0.0437719 0.397497
-0.358937 -0.0198124 0.443015
0.375742 -0.00685317 0.450979
0.31339 -0.0216962 0.387364
-0.383801 -0.0197042 0.442828
-0.33939 -0.00403782 0.433198
0.436622 -0.0116562 0.315833
0.0756425 -0.013789 0.45966
-0.00377232 0.00265543 0.059255
0.00101416 -0.023138 0.518134
-0.0206948 -0.0611494 0.506055
0.151435 -0.0251709 0.0970334
0.236229 -0.0118766 0.308377
-0.304285 -0.0127634 0.303964
0.100505 -0.0230623 0.373816
0.389071 -0.0214924 0.410502
-0.166921 -0.0231266 0.409919
-0.242533 -0.0132926 0.302009
0.0286155 -0.0451847 0.384902
-0.179099 -0.00395507 0.479028
0.189567 -0.00996694 0.320803
-0.0213842 -0.0213991 0.44491
-0.366514 -0.00386044 0.387512
0.16279 -0.027389 0.461259
-0.398851 -0.00380057 0.428985
0.0873279 -0.00374252 0.394181
-0.130091 -0.00935894 0.454172
-0.0647234 -0.0282892 0.0728646
0.137696 -0.00530152 0.440508
-0.0548633 -0.00412598 0.369146
-0.296511 -0.00413116 0.369662
-0.0274024 -0.0238411 0.389286
0.229675 -0.0194824 0.448819
0.000573815 -0.0381855 0.0862463
-0.193472 -0.0222779 0.433491
0.0153824 -0.00365252 0.399777
-0.334865 -0.00856917 0.33515
0.175074 -0.00380538 0.390406
0.343319 -0.0178706 0.343367
-0.0392696 -0.00963747 0.318784
0.0238413 -0.0570943 0.461998
0.457832 -0.0195889 0.441151
-0.09441 -0.0103751 0.315071
-0.0362268 -0.00419172 0.431709
0.015761 -0.0189936 0.101909
0.413967 -0.0181225 0.351
-0.0318109 -0.01997 0.0583875
0.0030443 0.0301244 0.0475027
-0.0123693 -0.00694152 0.448305
0.0158073 -0.0132848 0.459201
-0.136018 -0.00375282 0.393684
0.299089 -0.00761174 0.341018
0.205556 -0.00385403 0.426928
0.0244008 -0.024525 0.118786
0.23422 -0.00390331 0.38425
-0.401761 -0.0164074 0.337608
0.00307378 -0.0533732 0.178292
0.227857 -0.0225721 0.416947
-0.161862 -0.00415196 0.367835
0.383197 -0.00402309 0.376991
-0.463608 -0.0204112 0.376065
-0.437885 -0.00509412 0.441992
-0.00418461 -0.00242636 0.0830816
-0.0769893 -0.0141315 0.459186
-0.0927675 -0.0233461 0.423325
0.288668 -0.00384013 0.388551
-0.00193442 -0.0240647 0.391575
0.0100325 -0.064874 0.261086
0.238262 -0.0212392 0.359051
0.026167 -0.0362545 0.308371
-0.00901021 -0.00410565 0.370306
-0.0260445 -0.0353786 0.456208
-0.0235164 -0.0577284 0.313839
-0.31032 -0.00793548 0.339008
0.15678 -0.021038 0.350893
0.216739 -0.0216155 0.359998
0.127658 -0.0231114 0.423184
0.0845286 -0.0136296 0.291442
-0.38277 -0.021489 0.418104
0.0265008 -0.0503753 0.415892
-0.016706 -0.0665114 0.40395
-0.267112 -0.00955053 0.32608
0.448526 -0.00352366 0.418099
-0.00948288 -0.0205148 0.163695
-0.0640894 -0.0242442 0.0294582
0.156298 -0.0091652 0.32562
0.42354 -0.0187798 0.4466
-0.0939644 -0.0207736 0.0680116
-0.195977 -0.0226052 0.390002
-0.289833 -0.00365085 0.400871
-0.237721 -0.0220856 0.3763
0.115936 -0.0133564 0.459549
0.0126283 -0.0681399 0.355375
0.0105818 -0.0247432 0.031445
0.0660018 -0.0237778 0.403731
-0.235398 -0.00374155 0.394773
-0.108849 -0.0234409 0.402429
-0.0104925 -0.057031 0.217597
0.421988 -0.0211205 0.402156
-0.0266366 -0.0409248 0.486087
-0.249743 -0.0222586 0.424066
0.0932316 -0.02084 0.0954195
0.291783 -0.0209832 0.43876
-0.153135 -0.0208029 0.348895
-0.165008 -0.0164804 0.318655
0.270483 -0.00382339 0.427069
-0.372877 -0.00701301 0.347501
-0.423684 -0.0209988 0.395058
0.0388807 -0.0267274 0.0490199
-0.327701 -0.0186238 0.450423
-0.337679 -0.021724 0.42125
-0.0343164 -0.0193416 0.0962105
-0.0150817 -0.0231922 0.354791
0.0828768 -0.0203837 0.340086
0.0208632 -0.0230859 0.343547
-0.0430144 -0.00357257 0.411055
-0.177716 -0.00350044 0.410251
0.00766699 -0.065689 0.546658
-0.413877 -0.00496279 0.363507
-0.255935 -0.0180707 0.337622
0.0532966 -0.0035983 0.412402
-0.216999 -0.00691223 0.343668
-0.273887 -0.0218189 0.376354
-0.366383 -0.0117402 0.457988
0.432539 -0.0085908 0.337852
-0.131333 -0.00947917 0.322622
0.0296787 -0.023831 0.420953
0.351563 -0.00355659 0.407227
0.351776 -0.0111672 0.457176
0.149039 -0.0135938 0.469158
-0.00210301 -0.0139122 0.0465474
-0.0248224 -0.0546355 0.364146
0.00122691 0.00117261 0.102972
-0.289233 -0.0197344 0.352378
0.0327899 -0.017384 0.3143
-0.32568 -0.0156408 0.32581
-0.0175234 -0.0215242 0.292733
-0.313184 -0.00465449 0.362787
0.271299 -0.0212899 0.362136
0.0100539 -0.00544548 0.348205
0.470248 -0.0193933 0.407022
0.159335 -0.00214565 0.458746
-0.145288 -0.0195658 0.450991
0.0126127 -0.0198693 0.266571
-0.12593 -0.0213847 0.0744327
-0.171933 -0.0260128 0.0758521
0.111349 -0.0216656 0.440671
-0.0751555 -0.0239133 0.110092
0.0569461 -0.0123403 0.458026
0.446693 -0.0208442 0.396072
0.165063 -0.0229772 0.399315
0.219011 -0.00425304 0.362931
-0.397648 -0.00383643 0.389187
-0.00955444 -0.0213096 0.127483
0.112522 -0.0211219 0.0872558
0.0627145 -0.0200316 0.0953991
0.166403 -0.00435513 0.360654
-0.00402961 -0.051068 0.450428
-0.456976 -0.00396399 0.381102
-0.189428 -0.0119029 0.447275
0.420343 -0.0151593 0.330122
0.370907 -0.00677111 0.34919
-0.165257 -0.024387 0.0359804
-0.152334 -0.00413486 0.432323
0.132082 -0.0216259 0.064152
-0.165856 -0.00758913 0.337282
-0.231513 -0.0205598 0.353589
0.0108638 -0.046743 0.559763
-0.227899 -0.00531501 0.441364
0.00882264 -0.0696667 0.290033
-0.0589569 -0.0234505 0.37907
-0.0228412 -0.0595933 0.420275
-0.46768 -0.0206488 0.429432
-0.0549345 -0.0114492 0.306158
0.0194668 -0.0293141 0.0757649
-0.15421 -0.00832811 0.409348
0.439022 -0.00403824 0.376206
-0.156072 -0.0262631 0.064117
-0.0252769 -0.0356645 0.276583
-0.00129402 -0.0230623 0.352718
-0.00284145 0.0215423 0.0414887
0.318777 -0.00987664 0.325237
0.0370242 -0.0195355 0.0715018
0.172745 -0.00360739 0.415494
-0.389902 -0.0208929 0.371937
-0.00909203 -0.0286531 0.0595121
0.289979 -0.0217883 0.382099
-0.328396 -0.00351148 0.414855
0.0335347 -0.0139603 0.289634
0.37487 -0.0210686 0.376132
0.280034 -0.00349462 0.411
0.0847273 -0.0206056 0.0664429
0.362608 -0.0125468 0.307235
0.0218675 -0.0618167 0.366986
0.249654 -0.00398195 0.430558
-0.224188 -0.0201597 0.445321
0.0247761 -0.0528505 0.485351
0.260667 -0.0223795 0.415599
-0.0806341 -0.0255444 0.0452643
0.138236 -0.0147482 0.30394
-0.0156057 -0.0245315 0.198852
0.272137 -0.00424639 0.364534
-0.144692 -0.00400448 0.377359
0.180954 -0.0229217 0.0547019
0.392619 -0.0195445 0.359513
0.401018 -0.00387894 0.430734
-0.303061 -0.0210296 0.438157
0.327421 -0.00352908 0.415595
-0.0128125 -0.00907512 0.322072
-0.341636 -0.0211898 0.368032
0.319332 -0.00417321 0.435815
-0.0801448 -0.0203557 0.0894986
-0.00190136 0.0701025 0.0317916
0.0198332 -0.0335035 0.515611
-0.00572534 -0.0710437 0.327129
0.13397 -0.0226333 0.362018
0.103805 -0.00370714 0.418259
0.334149 -0.0218462 0.407095
-0.00552874 -0.0192875 0.498837
-0.0191298 -0.0235181 0.431579
-0.215526 -0.00371763 0.396257
-0.0177698 -0.00368925 0.397398
0.00403873 -0.0167042 0.244434
-0.356596 -0.0125402 0.307107
0.0966416 -0.0166984 0.314603
-0.220726 -0.0155157 0.316271
-0.44515 -0.019192 0.36129
0.452568 -0.00404974 0.375507
0.018458 -0.0303321 0.207446
-0.25874 -0.00449339 0.362358
-0.121105 -0.0268086 0.09491
0.175254 -0.0187499 0.335888
0.145186 -0.0265754 0.0747652
-0.356911 -0.0217095 0.409149
-0.266159 -0.0222635 0.401533
0.458762 -0.0161499 0.340438
-0.180347 -0.00412277 0.432507
-0.0158046 -0.058829 0.240575
-0.087869 -0.00378899 0.391163
-0.284142 -0.0037746 0.425262
0.0597865 -0.022114 0.350682
0.0922476 -0.0234147 0.39275
-0.0159954 -0.0241852 0.409649
0.0534391 -0.00911223 0.322992
0.113485 -0.0263313 0.0547146
0.349148 -0.00560994 0.356939
0.288962 -0.0125831 0.458936
-0.0241349 -0.0383557 0.506014
0.194561 -0.00692976 0.449823
-0.0375494 -0.00618744 0.343651
-0.118693 -0.0251009 0.0464252
0.206597 -0.0224863 0.426946
-0.0745637 -0.0236598 0.400176
-0.178017 -0.0158393 0.393365
-0.315454 -0.0214835 0.374535
0.00238049 -0.0238273 0.427279
-0.0277218 -0.0401083 0.307981
-0.042356 -0.0262464 0.113582
-0.401782 -0.0133377 0.315438
-0.0140169 -0.0504666 0.555976
0.425092 -0.00510234 0.441925
0.145168 -0.00372022 0.395834
0.34473 -0.0212543 0.373711
0.134129 -0.0232306 0.400915
0.434536 -0.0187378 0.357136
-0.273864 -0.0166119 0.454364
0.278724 -0.00836496 0.334982
-0.0828125 -0.0226478 0.356433
-0.133377 -0.0222424 0.357665
0.0387418 -0.0159301 0.457035
-0.445348 -0.0131053 0.317344
0.0428336 -0.00412625 0.369086
0.121485 -0.0231674 0.390729
0.198789 -0.00571704 0.351766
-0.0222572 -0.0267716 0.468371
-0.0379017 -0.023866 0.417006
0.41674 -0.0208379 0.38127
-0.07568 -0.00417622 0.365954
0.307758 -0.00607297 0.352384
-0.17236 -0.0156142 0.456469
0.0234685 -0.0292738 0.377271
-0.292908 -0.0178641 0.452526
-0.0571159 -0.00415464 0.431238
0.182977 -0.00244777 0.467043
0.00138506 -0.0727303 0.501991
-0.0126048 -0.0265126 0.141564
0.379865 -0.00999691 0.326156
0.216673 -0.0225896 0.398935
-0.288439 -0.0148392 0.316957
-0.171599 -0.0234774 0.0932441
-0.447913 -0.0171475 0.346751
0.252018 -0.00648784 0.347757
-0.332186 -0.00406237 0.374258
0.174203 -0.0257632 0.423593
-0.11529 -0.0229163 0.371434
-0.0157203 -0.0669025 0.376068
-0.0612447 -0.0212559 0.444447
0.020664 -0.052858 0.248442
0.141392 -0.00369694 0.418665
0.0696313 -0.00413436 0.368654
0.311448 -0.0038792 0.386092
-0.107191 -0.00521539 0.439777
-0.113881 -0.0228072 0.433416
-0.000293809 0.038723 0.0693204
-0.35556 -0.015769 0.329195
-0.150316 -0.0155219 0.41552
-0.0895959 -0.0192184 0.332223
-0.162489 -0.0129912 0.298169
0.135399 -0.0199578 0.341332
0.373157 -0.00371772 0.396821
-0.199267 -0.00483152 0.438497
-0.3323 -0.00384191 0.388594
-0.336705 -0.0202264 0.441464
0.4003 -0.0213047 0.420911
-0.00258691 -0.0723176 0.305098
-0.125247 -0.0185619 0.330416
0.345728 -0.014539 0.319502
0.108714 -0.00407905 0.372386
-0.00257771 -0.0159994 0.301814
-0.204499 -0.00404053 0.375227
0.12298 -0.00424027 0.434141
-0.0339466 -0.0140288 0.459645
0.233296 -0.00656292 0.346667
0.141098 -0.024298 0.0334711
-0.191166 -0.0221046 0.361426
-0.122602 -0.00409798 0.371205
-0.458545 -0.00411075 0.436678
0.0532148 -0.0238821 0.404363
0.19726 -0.0177376 0.330388
0.162958 -0.00209188 0.43956
-0.231706 -0.00367506 0.419758
0.231102 -0.00492544 0.439282
-0.417766 -0.00390316 0.431526
-0.00290254 -0.0697783 0.272146
0.370312 -0.00382918 0.429167
0.413748 -0.0211771 0.42247
-0.217785 -0.0225291 0.395537
0.00417012 -0.0100942 0.0693752
-0.207202 -0.0186863 0.338057
-0.00228183 -0.0726755 0.421667
-0.0477641 -0.0197906 0.0694422
0.0777456 -0.0265555 0.0522353
0.111355 -0.0106705 0.313433
0.371623 -0.0215979 0.408969
-0.469688 -0.0138898 0.338303
0.160447 -0.0225046 0.366387
-0.124165 -0.0230952 0.387325
-0.275615 -0.00377159 0.392963
-0.38817 -0.0186747 0.352865
0.0438402 -0.0281814 0.105761
0.129805 -0.00402317 0.376092
0.0952331 -0.0178979 0.453951
0.000731255 0.0263105 0.0216581
-0.10089 -0.0258858 0.0500524
-0.27181 -0.0183375 0.340855
0.423269 -0.0037117 0.397395
-0.415124 -0.003957 0.381406
0.358271 -0.0178249 0.344267
-0.109174 -0.00359316 0.40397
0.0679083 -0.00722309 0.33706
-0.142539 -0.013705 0.29676
-0.426522 -0.0206613 0.374494
0.0523124 -0.0205806 0.0547981
-0.00374207 -0.0188685 0.10645
0.0266847 -0.0383625 0.471398
-0.302722 -0.0156416 0.323928
-0.0251791 -0.0407297 0.245361
-0.00140966 -0.0186086 0.083599
-0.0192826 -0.0109763 0.30853
0.263151 -0.0213054 0.437904
0.205279 -0.0221758 0.366568
0.00419279 -0.00681065 0.093178
-0.0111026 -0.0640188 0.548984
0.465362 -0.00403087 0.376781
-0.322136 -0.00505407 0.440769
0.45919 -0.0204958 0.379443
0.203748 -0.00412567 0.369691
-0.387286 -0.00594989 0.446188
-0.349863 -0.0186908 0.34983
0.213784 -0.0102666 0.319348
0.00361399 -0.0343995 0.0727127
-0.293651 -0.0057222 0.354505
0.191486 -0.00361137 0.403083
-0.0276777 -0.0398487 0.353198
0.262349 -0.015524 0.319756
0.461098 -0.0208921 0.420824
0.208232 -0.00357649 0.405413
-0.0309458 -0.0289315 0.0670579
0.293958 -0.0161797 0.327093
0.346688 -0.00553969 0.443613
-0.024515 -0.0197299 0.330562
-0.474241 -0.0107689 0.386335
0.00791679 -0.0491552 0.165968
0.398609 -0.00997987 0.326827
-0.101668 -0.0207773 0.0839788
-0.00778331 -0.0542966 0.19551
0.362511 -0.0051956 0.441887
0.0224211 -0.0277471 0.282415
-0.207093 -0.0213011 0.43967
-0.00262106 0.043743 0.0368231
-0.0176409 -0.0466423 0.20615
-0.0197872 -0.0267762 0.248401
0.189 -0.0107623 0.435169
0.10871 -0.00856936 0.328531
0.019151 -0.021709 0.399419
0.0216389 -0.0250945 0.323386
-0.0783043 -0.00386798 0.424652
-0.053087 -0.0269144 0.0519996
-0.023084 -0.0294354 0.0887411
-0.435666 -0.0037021 0.398064
-0.43635 -0.00671545 0.351507
0.00493312 -0.0642443 0.245183
0.00355541 -0.028868 0.0429749
-0.186586 -0.022708 0.423253
-0.000810086 0.0539491 0.0134097
-0.240526 -0.00392961 0.382563
0.0116215 -0.0235661 0.144979
0.271711 -0.00398801 0.378877
0.392964 -0.0123338 0.458859
0.0872043 -0.0236696 0.410952
-0.189334 -0.0153783 0.470688
0.024391 -0.0358206 0.262546
0.391398 -0.00464672 0.365132
0.32367 -0.00813212 0.337979
0.0732751 -0.0216053 0.442181
0.237674 -0.0157294 0.319209
0.163595 -0.0261675 0.0740284
0.334437 -0.0215559 0.388363
0.0730176 -0.0202716 0.0723221
-0.120056 -0.00670407 0.342334
-0.101545 -0.0128102 0.297693
-0.0465978 -0.00384799 0.387183
0.0164537 -0.041173 0.179082
-0.00411298 -0.0202858 0.332898
0.0173123 -0.00997216 0.315725
-0.0120922 -0.0188971 0.368914
-0.00578583 -0.0443009 0.133449
0.0183173 -0.0654972 0.503193
-0.18624 -0.0187709 0.336944
-0.0770511 -0.0167035 0.313028
0.248716 -0.0194877 0.347262
-0.0437037 -0.0289235 0.0844994
-0.0909052 -0.0236659 0.410017
0.25068 -0.00375044 0.394249
-0.365486 -0.0177898 0.344608
-0.391941 -0.00683519 0.349343
0.00489942 -0.0266004 0.0991967
-0.028477 -0.0455527 0.440357
-0.0751 -0.023222 0.429982
0.00169037 -0.0018242 0.0390636
0.130267 -0.0218235 0.439229
-0.265563 -0.00721984 0.342867
-0.145486 -0.00798969 0.333793
-0.00361262 -0.0148947 0.44167
-0.246463 -0.00650128 0.347498
0.34014 -0.00403202 0.376258
0.25298 -0.0124839 0.304481
-0.246689 -0.00715068 0.451471
-0.0504389 -0.0238275 0.399478
-0.426786 -0.0212641 0.414842
0.123243 -0.0270713 0.076098
0.0950622 -0.0258429 0.0490743
-0.19809 -0.00368092 0.398582
0.341675 -0.00358495 0.418338
-0.0884384 -0.00398897 0.378169
-0.0885112 -0.00473345 0.355643
-0.42877 -0.00953217 0.330943
0.0527735 -0.0235922 0.385305
0.155511 -0.0116979 0.479202
-0.0123829 -0.0469137 0.165788
0.202588 -0.0225054 0.386693
0.303709 -0.0218997 0.395939
0.189733 -0.0142786 0.465868
0.00370031 0.0116163 0.0683251
-0.179669 -0.00475301 0.358169
-0.0147695 -0.0253753 0.180922
0.0573634 -0.0207782 0.105384
-0.0701741 -0.00395194 0.380511
0.151689 -0.0188148 0.451838
0.0212607 -0.0632664 0.336877
0.271608 -0.0196672 0.350442
-0.136847 -0.0266936 0.0678214
0.0209599 -0.0639246 0.291093
-0.390219 -0.00348317 0.412144
-0.420942 -0.0153634 0.45496
-0.338314 -0.0214216 0.381503
0.364857 -0.00458403 0.364808
0.0237115 -0.0573905 0.44877
0.275415 -0.022031 0.390867
0.103075 -0.022245 0.355191
0.0703507 -0.00357348 0.40511
-0.312355 -0.00394668 0.381707
-0.107761 -0.017886 0.324095
-0.377826 -0.00453821 0.365519
0.174678 -0.011475 0.309476
0.0650013 -0.0154715 0.303138
0.362564 -0.0210679 0.370173
0.239941 -0.0218997 0.435033
-0.00187042 -0.0037165 0.395571
0.0314409 -0.0210425 0.340611
0.0370058 -0.00353052 0.409098
-0.218562 -0.00405157 0.374559
-0.0941604 -0.00463462 0.436518
0.173804 -0.0266103 0.437792
0.0207026 -0.0647473 0.381183
0.308664 -0.00699084 0.451143
0.154637 -0.0247804 0.0423747
-0.133286 -0.0046369 0.43687
-0.219478 -0.0222279 0.376777
0.468616 -0.00625492 0.447398
-0.350904 -0.00377465 0.426775
0.0167616 -0.0226102 0.438494
0.270416 -0.00643636 0.348667
0.169085 -0.0090366 0.326923
-0.021816 -0.0619242 0.331696
-0.0546653 -0.0186655 0.325355
-0.344589 -0.00396024 0.380939
0.456351 -0.0209672 0.408711
0.303505 -0.00477814 0.439113
-0.0103531 -0.0334116 0.108587
0.433525 -0.0128302 0.458297
-0.128328 -0.0243228 0.0333899
-0.153157 -0.0251682 0.0490381
0.460233 -0.00385732 0.431208
-0.246151 -0.0221724 0.385991
0.1689 -0.00726332 0.339725
0.118252 -0.0198946 0.339465
-0.289903 -0.021901 0.427697
-0.256681 -0.0202989 0.443557
0.0377159 -0.00389331 0.384206
0.0525746 -0.0197278 0.0800274
0.00076705 -0.0479865 0.570514
0.0792406 -0.0280358 0.0938892
-0.00460422 -0.0342752 0.536316
0.0944995 -0.0040141 0.376557
0.188112 -0.0145811 0.408995
-0.336841 -0.0104392 0.321703
-0.0256088 -0.0525377 0.465389
0.00352008 -0.0152355 0.468391
0.174849 -0.0040807 0.372512
-0.257262 -0.00381585 0.390017
-0.0114231 -0.0656111 0.536153
-0.413713 -0.0209009 0.383906
-0.358222 -0.00490509 0.440276
-0.00583912 -0.0709928 0.485729
0.00468218 -0.0392795 0.547279
0.179068 -0.00205551 0.446972
0.0453582 -0.0232875 0.0349701
-0.00141263 -0.0410329 0.463134
0.026214 -0.0292818 0.0975212
-0.173759 -0.0262969 0.426821
-0.135549 -0.0225549 0.0975665
-0.00335785 0.0240144 0.0642366
0.434427 -0.00359973 0.40472
0.310564 -0.013767 0.311033
0.181309 -0.0251623 0.454446
-0.179528 -0.00199291 0.459093
-0.400321 -0.0189785 0.446245
0.0257086 -0.00506261 0.351428
0.00833906 -0.0293934 0.107516
0.0222673 -0.00370389 0.416276
-0.00448511 -0.0717733 0.466137
0.370243 -0.00346088 0.413522
-0.038724 -0.00424583 0.3613
-0.171687 -0.00386493 0.386524
-0.00301132 -0.0156295 0.27678
0.0909058 -0.0216958 0.441143
-0.0632376 -0.0283057 0.0984745
-0.0115195 -0.0210541 0.0497466
0.160404 -0.011935 0.393213
-0.165817 -0.00378891 0.423204
0.179046 -0.0228987 0.405418
-0.369038 -0.0212625 0.430361
-0.376764 -0.0213635 0.39621
0.196365 -0.00387159 0.386178
0.374746 -0.0165348 0.336305
-0.471361 -0.00717394 0.438746
0.39797 -0.00369143 0.398622
-0.338372 -0.00632638 0.447802
-0.415224 -0.00735832 0.346246
0.0121313 -0.037159 0.133494
-0.134259 -0.0112922 0.309614
-0.463152 -0.00374337 0.395479
0.0182447 -0.0217655 0.302849
0.452473 -0.0139612 0.324113
0.0960991 -0.0232942 0.424587
0.224782 -0.0200799 0.349569
-0.222701 -0.0130784 0.299301
-0.0111184 -0.0182159 0.420889
-0.297771 -0.0217902 0.385967
0.100135 -0.0238422 0.0331549
0.000225631 -0.0129391 0.0299612
-0.00931274 -0.0190244 0.23622
-0.027782 -0.0472899 0.380544
-0.382813 -0.00923434 0.331749
0.286239 -0.00542244 0.356453
0.184473 -0.00790177 0.335569
0.326731 -0.00591796 0.445489
0.0218093 -0.0260564 0.042216
-0.179299 -0.0109523 0.313386
-0.0243821 -0.0504866 0.269798
0.155828 -0.00413384 0.431223
-0.0880592 -0.0217054 0.441179
-0.445695 -0.0153346 0.333474
0.0291832 -0.0287247 0.0623332
0.135628 -0.0222897 0.0506432
0.0190952 -0.0501271 0.227711
0.074829 -0.0234872 0.389085
-0.0347607 -0.0264919 0.0468465
-0.0821532 -0.0208215 0.0583809
0.206144 -0.00606609 0.445244
0.0244982 -0.0316653 0.410571
-0.00377854 0.0107741 0.0730516
-0.145653 -0.0228151 0.428697
0.0829358 -0.0279643 0.0773926
0.0278821 -0.0469723 0.4326
0.289905 -0.00371082 0.422626
-0.310914 -0.00355621 0.416398
-0.0184296 -0.029179 0.0646643
-0.189253 -0.0117297 0.413991
0.0153432 -0.0245102 0.195753
0.0553187 -0.0287278 0.0881343
0.0179429 -0.0578168 0.534643
-0.156162 -0.0127682 0.458854
0.150834 -0.0167161 0.421848
-0.127901 -0.0213771 0.441719
0.440499 -0.020557 0.435413
-0.162517 -0.0263187 0.450083
-0.300922 -0.0179923 0.340758
-0.282054 -0.00488181 0.360235
-0.429598 -0.0188804 0.35776
-0.148019 -0.0218588 0.0782005
0.073824 -0.00637253 0.445755
0.468401 -0.00850486 0.339703
-0.449436 -0.0158213 0.454128
-0.0172316 -0.0303212 0.51909
0.406884 -0.00644988 0.352563
0.010186 -0.00388634 0.384563
0.372574 -0.0214073 0.424662
-0.472617 -0.0106166 0.36992
0.0839998 -0.0229561 0.358981
0.0253873 -0.00751762 0.451417
-0.344926 -0.00349258 0.414409
0.336548 -0.0199552 0.357866
0.436998 -0.00379211 0.429424
0.259221 -0.00850482 0.453338
0.131161 -0.0104926 0.315297
0.4308 -0.0208442 0.388434
-0.0505083 -0.013866 0.29035
-0.273967 -0.0222286 0.418207
0.164542 -0.0278244 0.477621
0.145578 -0.00918129 0.45397
0.282995 -0.021654 0.37001
0.0862634 -0.00859492 0.327689
0.00277274 0.00848424 0.0451128
-0.153206 -0.0229219 0.390024
-0.00661237 -0.0298513 0.0941426
0.00443977 -0.0318328 0.0608641
-0.0981146 -0.0229727 0.36684
0.409153 -0.0211431 0.397454
-0.0108807 -0.0178957 0.460987
-0.0827725 -0.00751775 0.335367
-0.0626702 -0.0149649 0.299288
0.351071 -0.021571 0.423925
0.164469 -0.0146335 0.457856
0.0887658 -0.00359831 0.413204
0.0106371 -0.0607799 0.562225
0.0487081 -0.028543 0.0653959
0.134502 -0.0228809 0.378366
-0.399976 -0.0213766 0.417891
0.299729 -0.00362641 0.402496
0.324023 -0.0218464 0.419982
0.167513 -0.0251119 0.0940677
0.00416065 -0.0123011 0.103683
-0.206812 -0.0168186 0.324536
0.395789 -0.0196453 0.442775
0.00025438 -0.0417094 0.440826
-0.227264 -0.0122715 0.458359
0.224131 -0.00362149 0.402543
0.21834 -0.0223095 0.381535
0.251992 -0.00888325 0.330457
0.010467 -0.0217186 0.501902
0.33672 -0.0154871 0.325609
-0.0948296 -0.0212148 0.347072
0.0354775 -0.0090799 0.3227
-0.00402162 -0.00453206 0.354625
-0.0445893 -0.00636296 0.445449
0.118697 -0.0220138 0.354807
-0.183397 -0.024864 0.458962
-0.000965287 0.0471142 0.0603706
-0.0199497 -0.0475712 0.226735
0.238413 -0.0224761 0.402012
0.00389205 0.00608947 0.0785365
-0.0910116 -0.0278689 0.0825617
-0.412348 -0.00898198 0.334436
-0.279078 -0.0134252 0.305974
-0.0594547 -0.0247691 0.112847
0.0150701 -0.0344268 0.528713
0.258077 -0.0222775 0.398553
-0.302525 -0.022045 0.417725
-0.0186339 -0.0240431 0.490847
0.00174029 0.068871 0.0166479
-0.225411 -0.0185257 0.338396
0.0262777 -0.0509142 0.303491
0.342544 -0.00885022 0.333345
0.301685 -0.0215676 0.373382
-0.140915 -0.0176689 0.325255
-0.253578 -0.0224904 0.410229
0.245872 -0.00353049 0.408543
0.123541 -0.00664969 0.447689
0.0102082 -0.0693358 0.465403
0.00925585 -0.00384447 0.422073
-0.383128 -0.00393495 0.382724
0.0633082 -0.00426483 0.433724
-0.0149028 -0.020008 0.384012
0.156226 -0.00545292 0.352428
-0.405087 -0.00564098 0.444669
-0.184745 -0.00691755 0.342685
0.188416 -0.012055 0.305689
0.337649 -0.0125438 0.459004
0.099552 -0.0212397 0.0568939
0.0324083 -0.00369817 0.39687
0.202168 -0.0163292 0.45528
-0.469539 -0.0197606 0.394839
-0.154176 -0.00510996 0.354845
0.427603 -0.00435345 0.368309
0.207472 -0.0199827 0.347443
-0.116404 -0.0190192 0.452275
0.0113402 -0.0687702 0.413289
-0.457712 -0.018164 0.354899
-0.319257 -0.0133174 0.308501
0.0980989 -0.0123749 0.300736
-0.178539 -0.0259362 0.443932
0.107546 -0.0232097 0.386776
0.00473012 -0.0179803 0.489591
0.00990628 -0.0180829 0.336362
-0.00565339 -0.00461841 0.435662
-0.142646 -0.00374602 0.420821
-0.191927 -0.00381797 0.425055
0.392195 -0.00544405 0.44349
0.163189 -0.0227577 0.384153
0.264147 -0.0218342 0.372662
-0.0249555 -0.0542683 0.343528
0.22131 -0.0221964 0.431271
0.00228971 0.0548562 0.029194
-0.0190589 -0.0655386 0.434114
0.0782133 -0.0039111 0.383194
-0.00331425 0.0197384 0.0515346
-0.05061 -0.024844 0.0367631
-0.00342449 -0.0125627 0.0575644
0.219 -0.0136721 0.302814
-0.234627 -0.0222921 0.427083
0.185557 -0.0238307 0.0404691
-0.11634 -0.0233483 0.416266
-0.00337499 -0.00713642 0.335797
0.0437034 -0.0237117 0.421977
-0.0575631 -0.00367464 0.415806
0.00458752 -0.0594053 0.216569
-0.11217 -0.0114308 0.307966
-0.0284709 -0.021821 0.34599
-0.0831073 -0.0231546 0.371449
0.251117 -0.0218471 0.367241
-0.0623234 -0.00638736 0.445736
0.000914941 -0.0173227 0.138684
-0.0598296 -0.0198542 0.0816221
0.219497 -0.00829406 0.452954
-0.181692 -0.0257414 0.0673087
0.272705 -0.00811837 0.452849
0.00429374 -0.0154671 0.384053
-0.125812 -0.0205168 0.34458
-0.0223922 -0.0527142 0.518469
-0.133281 -0.026015 0.0547002
0.0185783 -0.0655262 0.488946
0.0694379 -0.0182862 0.323832
0.0152091 -0.0212486 0.251792
-0.0270799 -0.0385964 0.29054
-0.0180339 -0.0216301 0.316491
-0.0476832 -0.0233246 0.36547
0.151561 -0.0096591 0.441919
0.0630156 -0.0236538 0.418782
-0.0215898 -0.0624131 0.29989
0.0850874 -0.0153872 0.304182
-0.0197339 -0.0650288 0.489304
-0.33606 -0.00660871 0.349343
0.14804 -0.0132189 0.296102
-0.284938 -0.00392639 0.382929
-0.00762414 -0.0288669 0.0745296
-0.153575 -0.0219056 0.46375
0.0197184 -0.044257 0.213996
-0.397736 -0.0149491 0.326744
0.000151148 0.013914 0.0927871
-0.0303942 -0.00376423 0.419074
0.0169098 -0.0543806 0.548214
-0.122709 -0.0159166 0.311101
-0.143124 -0.0242478 0.0326811
-0.0866822 -0.0242189 0.0299239
-0.00200311 0.0334722 0.0303674
-0.27302 -0.00352566 0.408955
-0.0111973 -0.0201899 0.21597
0.364798 -0.0185692 0.449565
-0.456882 -0.00487298 0.365414
0.0139392 -0.0193857 0.420418
-0.291102 -0.00532087 0.441945
-0.00160635 -0.0144667 0.362909
-0.035621 -0.0219818 0.441312
-0.0509558 -0.0061268 0.344481
-0.380627 -0.0140464 0.457044
0.0286798 -0.0450273 0.454982
0.45001 -0.017704 0.350943
-0.0172327 -0.033674 0.168454
-0.0637608 -0.0232018 0.365218
-0.119798 -0.00570308 0.442527
-0.0232397 -0.0585568 0.388687
-0.232907 -0.00630824 0.348495
0.232608 -0.0220621 0.372311
-0.166416 -0.00363394 0.401524
0.0221107 -0.0612865 0.404011
0.0425368 -0.00427802 0.359221
-0.20038 -0.0193081 0.450674
0.404196 -0.00350628 0.410691
-0.00153407 -0.0729527 0.403065
0.231843 -0.00412962 0.369534
0.316623 -0.0214321 0.434186
0.167223 -0.00372657 0.40215
-0.183353 -0.0225883 0.382835
0.0314729 -0.0116605 0.303945
0.0682828 -0.0255179 0.0436567
-0.219159 -0.00481037 0.35891
0.132151 -0.0117978 0.457479
-0.276206 -0.0205345 0.357084
0.00802849 -0.0360961 0.098717
0.386727 -0.003831 0.429467
0.368808 -0.014593 0.321791
-0.0280935 -0.00833384 0.327872
0.00340293 -0.0180709 0.157554
-0.254776 -0.0147016 0.313193
-0.165392 -0.00453179 0.43658
-0.24921 -0.0197576 0.349252
0.409495 -0.0193005 0.444216
0.457021 -0.00960694 0.455326
-0.25897 -0.0101241 0.45553
0.162584 -0.00393543 0.38191
0.315908 -0.0214794 0.374488
0.152165 -0.0160634 0.314586
0.273054 -0.0223396 0.40979
0.00949132 -0.0694399 0.339868
0.000653392 -0.0188131 0.0692833
0.412741 -0.0109607 0.320157
-0.0112769 -0.0688183 0.391585
-0.0442789 -0.0204598 0.055349
0.473189 -0.00910395 0.387013
0.132565 -0.0134538 0.294125
-0.0274487 -0.0240705 0.404221
-0.0652705 -0.021599 0.0479612
-0.370462 -0.0124168 0.308404
0.0279431 -0.0404854 0.339856
0.282694 -0.0190177 0.346663
-0.215087 -0.00502605 0.439688
-0.0273696 -0.0483193 0.322132
0.408024 -0.00838493 0.338621
0.0291606 -0.0435709 0.324286
0.186869 -0.00362346 0.416509
0.265646 -0.00518134 0.440968
0.00422988 -0.0685959 0.534866
0.0265643 -0.0502007 0.396548
-0.119443 -0.00371939 0.395798
0.0109669 -0.0184352 0.353396
0.41112 -0.0199646 0.36407
-0.349668 -0.0216046 0.422883
0.388084 -0.0164002 0.33643
-0.0726783 -0.0233924 0.381892
0.00501801 -0.0154277 0.452225
0.315893 -0.0040855 0.372697
0.017029 -0.00422283 0.362718
-0.380491 -0.0211446 0.383776
0.461134 -0.0207297 0.395575
0.160884 -0.0261626 0.448154
0.443656 -0.0149091 0.330233
-0.241369 -0.0219256 0.367654
0.0569039 -0.00366333 0.39922
0.464596 -0.00627055 0.355547
-0.325447 -0.00365148 0.400959
-0.442546 -0.00388698 0.386061
-0.0288258 -0.00356098 0.405773
0.0660237 -0.0136503 0.290586
0.251321 -0.0203697 0.44334
0.0234815 -0.019314 0.067593
0.117394 -0.00373201 0.419643
0.0234007 -0.0290351 0.390515
-0.198128 -0.00744571 0.339263
-0.456228 -0.0140345 0.32495
-0.239474 -0.0160409 0.321607
-0.306009 -0.0219046 0.397365
-0.473534 -0.00794459 0.423949
-0.108994 -0.00554334 0.350393
-0.18862 -0.022838 0.401596
0.15892 -0.00151735 0.471826
0.391085 -0.0064434 0.352147
0.164008 -0.025245 0.416313
-0.183642 -0.00366483 0.399577
-0.0030801 -0.0672187 0.257968
-0.110569 -0.0212245 0.0938549
0.359043 -0.0036451 0.42134
0.142046 -0.0227635 0.430333
-0.169959 -0.0230848 0.0482327
0.139152 -0.0231731 0.417117
-0.164481 -0.0280744 0.46748
-0.00957785 -0.0176634 0.401469
-0.0207652 -0.0262488 0.043486
0.272602 -0.0102499 0.32119
-0.0237691 -0.0238785 0.42064
0.0780082 -0.0202373 0.0847738
0.304527 -0.00431027 0.36502
0.348716 -0.0127875 0.307098
-0.195289 -0.0224024 0.376491
0.122775 -0.0154978 0.308082
0.0785072 -0.00488578 0.35425
-0.0535472 -0.0284314 0.0639531
-0.0431207 -0.0113946 0.306206
-0.285048 -0.0218526 0.383909
-0.403596 -0.00347892 0.412468
-0.00287913 0.0392955 0.0496609
0.142952 -0.00418126 0.365864
0.059774 -0.00426647 0.360033
0.02721 -0.0486254 0.364934
-0.1218 -0.00404852 0.429967
0.0257643 -0.0353418 0.295197
0.37025 -0.00390578 0.384576
0.00945855 -0.0192768 0.229234
0.165015 -0.000922463 0.449263
-0.0881037 -0.0151354 0.302612
0.0659474 -0.00371063 0.417555
-0.470431 -0.0193947 0.416452
0.0313743 -0.0291478 0.0817209
0.0174636 -0.0188491 0.0896766
0.00654411 -0.016994 0.309324
-0.140462 -0.0204151 0.345051
0.307852 -0.0221097 0.411574
-0.00537571 -0.0178088 0.315112
-0.16226 -0.0261669 0.0847331
-0.00658661 -0.0135438 0.289616
-0.168925 -0.0228627 0.393729
0.351821 -0.0041341 0.369666
-0.321211 -0.00376735 0.425786
0.453062 -0.00526553 0.362467
-0.224869 -0.00387792 0.385867
0.00478474 -0.0262753 0.0907845
0.0704551 -0.0199828 0.336168
0.391514 -0.0209095 0.373796
0.145421 -0.022641 0.368023
-0.179471 -0.00410263 0.371103
0.00813556 -0.0191946 0.205085
-0.0237945 -0.0572163 0.443443
-0.148642 -0.0225047 0.360816
0.00403082 -0.0221154 0.114947
-0.298055 -0.00349971 0.410734
0.124689 -0.023434 0.409598
0.0165307 -0.0237394 0.218268
-0.17784 -0.024462 0.414756
-0.0130217 -0.0339883 0.131124
0.0219926 -0.0125445 0.297283
0.0331565 -0.0225589 0.0397435
0.00355306 0.0101505 0.0544372
-0.0192863 -0.065361 0.360002
-0.312686 -0.0185938 0.451052
-0.422095 -0.00353631 0.418049
-0.409934 -0.0178185 0.348472
0.0511362 -0.0232211 0.360402
-0.00936504 -0.0229539 0.436863
0.118461 -0.00791257 0.333559
-0.00975675 -0.0180252 0.345169
0.216708 -0.00646001 0.346925
-0.136698 -0.00351465 0.409178
0.0989773 -0.00505381 0.353636
0.259129 -0.0203611 0.354426
-0.118513 -0.0272627 0.0828498
0.382158 -0.00358119 0.405737
-0.337537 -0.0217719 0.403894
-0.106245 -0.0274187 0.0747501
0.146857 -0.0230433 0.394862
0.0239016 -0.0300079 0.461206
0.233203 -0.00792174 0.452484
-0.156801 -0.0155612 0.399637
-0.156341 -0.0152908 0.309349
0.0449034 -0.00367576 0.39837
-0.173545 0.000424741 0.468595
-0.278201 -0.00802079 0.337452
0.00169039 0.015889 0.033339
0.144138 -0.018615 0.332353
-0.368397 -0.0215944 0.417786
0.213867 -0.0227993 0.411215
-0.158334 -0.0229371 0.421674
0.174001 -0.00506651 0.43955
-0.0115263 -0.0686303 0.33801
0.331808 -0.00360769 0.403831
0.254645 -0.0221666 0.426605
0.143173 -0.0217081 0.354613
-0.264668 -0.0218857 0.431796
0.350348 -0.00748204 0.343454
0.108093 -0.026587 0.1002
0.449182 -0.00416825 0.437075
-0.128948 -0.0227833 0.369354
0.407044 -0.0213577 0.410384
-0.273998 -0.0150385 0.317208
-0.138667 -0.0267173 0.0864482
-0.320202 -0.0110218 0.4569
-0.00330618 -0.0258721 0.0325849
0.163323 -0.022912 0.0490286
-0.0374371 -0.023882 0.396768
-0.327343 -0.0214004 0.433338
-0.450439 -0.00630856 0.354858
-0.170867 -0.0185751 0.334265
0.348705 -0.00374245 0.395124
0.0663442 -0.0187446 0.453019
0.00415968 -0.00483412 0.0771846
0.191039 -0.0203033 0.348406
-0.334126 -0.00484454 0.362028
-0.420695 -0.0162511 0.338037
-0.218405 -0.00353266 0.408302
-0.0261039 -0.0359516 0.367227
0.426825 -0.0174966 0.347537
-0.0950406 -0.0234803 0.398357
-0.0655814 -0.0174644 0.317579
0.0573426 -0.0107327 0.311403
-0.232609 -0.0035568 0.406783
0.0393435 -0.00388601 0.424552
-0.00237061 0.0554628 0.0417542
0.0039096 -0.00017353 0.0653199
-0.091449 -0.0263757 0.0525082
0.303666 -0.00378847 0.426305
0.151375 -0.0220131 0.0851294
0.330941 -0.0213492 0.373255
-0.00873321 -0.00391632 0.382609
-0.411442 -0.0211078 0.396258
0.346379 -0.0217749 0.408339
0.304762 -0.0216582 0.430987
-0.278113 -0.0049534 0.439842
-0.092299 -0.0206853 0.0911988
-0.00346472 -0.00354218 0.408845
0.214512 -0.0044226 0.436415
-0.0175696 -0.0218514 0.270758
-0.0149759 -0.0671254 0.309084
-0.0447569 -0.00815726 0.329635
0.16962 -0.020302 0.346634
0.0252153 -0.0474053 0.266373
-0.0192373 -0.0319649 0.207855
0.377802 -0.00459889 0.438787
0.101938 -0.0184571 0.327741
0.0418811 -0.012211 0.300274
-0.0430656 -0.0235708 0.379252
-0.454755 -0.00805427 0.342377
-0.195207 -0.0175388 0.328783
-0.45238 -0.0204214 0.371333
-0.35207 -0.00690152 0.347697
0.0463157 -0.00772953 0.33277
0.0266426 -0.0403057 0.482572
0.0473839 -0.0220083 0.348898
0.463066 -0.00354581 0.419389
-0.286035 -0.00347956 0.412515
0.0969719 -0.0206916 0.0806422
0.418478 -0.00541741 0.360358
0.26177 -0.00505026 0.358425
0.266862 -0.0220887 0.426373
-0.0418711 -0.0287417 0.101719
-0.0708074 -0.00429278 0.434449
-0.0479236 -0.0236408 0.423804
0.19474 -0.0219532 0.360626
-0.365141 -0.00350799 0.410438
-0.0881932 -0.0273721 0.0996471
0.0207987 -0.0232167 0.355438
0.433518 -0.0210905 0.40575
-0.250976 -0.0164168 0.325268
0.0962133 -0.0253177 0.106222
-0.0543657 -0.0287484 0.0895281
-0.086738 -0.00358884 0.412748
0.00275237 -0.0723369 0.36078
-0.365804 -0.00977196 0.327369
-0.0747261 -0.00490444 0.354005
-0.0264285 -0.0364645 0.43279
0.44994 -0.00812153 0.34175
0.110776 -0.00352338 0.408516
0.0216157 -0.0531477 0.523952
0.0706147 -0.00376812 0.392459
-0.243984 -0.0180873 0.336758
-0.460549 -0.0194046 0.442065
0.383245 -0.011657 0.314265
-0.436952 -0.00347441 0.412883
0.0425982 -0.0288252 0.0765563
-0.0760995 -0.0235809 0.418076
0.0165554 -0.063871 0.271046
0.021411 -0.058087 0.512181
-0.00901862 -0.0258355 0.0391543
-0.0633416 -0.0233939 0.427942
-0.345584 -0.0116276 0.313376
0.16954 -0.0224329 0.0643829
0.0859169 -0.00695833 0.339499
-0.365715 -0.00567743 0.356937
-0.0176266 -0.060689 0.527248
0.404817 -0.013063 0.313704
0.41617 -0.0207774 0.43412
-0.0756863 -0.00930607 0.322244
-0.000850761 -0.0726839 0.283809
-0.182081 -0.0172806 0.479913
-0.0281395 -0.0157651 0.302226
-0.224322 -0.0220973 0.432986
-0.390778 -0.0119454 0.312403
-0.0415987 -0.0193935 0.452324
0.0460383 -0.0183862 0.322629
0.00382845 -0.0126182 0.29622
-0.346049 -0.0168474 0.336201
-0.277353 -0.0221205 0.39762
0.0114445 -0.0268915 0.117654
0.376519 -0.00491951 0.362727
0.29536 -0.00693566 0.450729
-0.179681 -0.0246742 0.0415347
0.305754 -0.015303 0.321731
-0.135121 -0.0229456 0.382869
-0.00710666 -0.0400466 0.547148
0.355393 -0.0153533 0.326179
0.319503 -0.00623224 0.351578
0.263117 -0.00348568 0.412262
-0.00287493 -0.0629018 0.232849
-0.357096 -0.00716066 0.451763
0.0158115 -0.029234 0.0645932
0.36302 -0.00359503 0.404767
-0.241052 -0.00383155 0.426756
-0.44129 -0.0208645 0.427881
-0.310995 -0.0194908 0.352409
-0.120454 -0.0215833 0.0578612
-0.395451 -0.00877366 0.454044
0.125925 -0.0228229 0.370473
-0.124763 -0.02327 0.398976
-0.0236887 -0.0548292 0.493337
-0.115556 -0.00848524 0.329338
-0.111609 -0.0233039 0.0375015
0.195934 -0.0223547 0.373699
0.00344963 -0.0722275 0.456406
-0.21096 -0.0038813 0.385598
-0.142616 -0.00417978 0.365959
0.423126 -0.0191373 0.359082
-0.281266 -0.00409805 0.37176
0.428422 -0.021116 0.420778
-0.431419 -0.0208095 0.386478
0.0375338 -0.020013 0.0583059
-0.156324 -0.0211979 0.441807
-0.00196684 -0.0260941 0.0493044
0.0390478 -0.0233447 0.432485
0.224559 -0.0112485 0.312572
-0.248748 -0.00352585 0.408854
-0.0447882 -0.0195583 0.0805214
-0.17582 -0.0227544 0.402691
0.0308199 -0.00554847 0.440917
-0.353008 -0.0201673 0.360752
0.00216123 -0.0143716 0.420807
0.185953 -0.0176102 0.328537
0.420464 -0.0115423 0.457856
-0.02132 -0.0511083 0.248298
0.2719 -0.00381197 0.390323
0.0356957 -0.0224526 0.351145
0.114172 -0.0271817 0.0691159
-0.40477 -0.00668292 0.350818
0.101117 -0.00387107 0.385876
-0.37677 -0.0188966 0.35353
0.113773 -0.00616312 0.346057
-0.000578309 -0.00550394 0.110279
-0.403133 -0.00368349 0.399157
-0.101121 -0.0198446 0.337694
-0.208311 -0.0222772 0.374615
-0.41414 -0.0115651 0.315833
0.474591 -0.00907551 0.405033
-0.269342 -0.00404658 0.432272
-0.320516 -0.0170873 0.335833
0.0160446 -0.0281057 0.184995
-0.225848 -0.00394975 0.429482
-0.30454 -0.00657312 0.348678
0.31723 -0.0170277 0.335132
-0.102921 -0.0210668 0.0610662
0.281642 -0.0181084 0.452279
-0.207911 -0.00403194 0.430977
0.363826 -0.0125748 0.459112
0.287072 -0.00735073 0.342551
0.0268376 -0.0376379 0.367594
-0.0259093 -0.0425038 0.256505
-0.0114138 -0.0543014 0.56733
0.00121839 -0.0477632 0.141613
-0.00151939 -0.0664601 0.554448
0.10799 -0.02338 0.398057
-0.0782515 -0.0207443 0.44669
0.296808 -0.0180216 0.452284
-0.00126003 -0.0157832 0.228718
0.359502 -0.0199028 0.359376
0.0815636 -0.00359256 0.403909
0.434632 -0.00377448 0.393351
-0.12189 -0.00392507 0.382439
0.390096 -0.0212479 0.426396
-0.191657 -0.0205569 0.350288
-0.227858 -0.0166296 0.324904
0.17426 -0.000257295 0.454791
-0.252475 -0.0215887 0.362745
-0.00220877 0.0291964 0.0740125
-0.367118 -0.00403285 0.3763
0.00309827 -0.0203883 0.0568312
-0.104417 -0.0231472 0.427405
0.00484308 -0.0227414 0.438154
0.468618 -0.0200078 0.371494
0.425475 -0.0114696 0.316854
-0.0730707 -0.0283113 0.0860575
0.376276 -0.0214069 0.398796
0.135401 -0.0215837 0.0767181
0.0836607 -0.0235876 0.399859
-0.355381 -0.00400359 0.37816
-0.304631 -0.0215228 0.371884
0.142039 -0.00355572 0.406525
0.051708 -0.0197371 0.0941288
-0.297017 -0.00396017 0.380776
0.0145146 -0.0596509 0.2419
-0.0949861 -0.00365791 0.399707
-0.0240778 -0.0310872 0.339783
0.430462 -0.00706888 0.348782
0.0249903 -0.054063 0.379291
0.0944821 -0.022935 0.362649
0.172223 -0.0164586 0.31909
0.0907397 -0.0187108 0.328651
0.185105 -0.0222567 0.435147
-0.000236778 0.0681741 0.0418305
-0.0219272 -0.0251283 0.455154
0.423647 -0.00373064 0.426513
-0.0113772 -0.0509067 0.184777
0.362701 -0.0212372 0.381238
-0.439165 -0.00858768 0.338068
-0.098369 -0.00592312 0.34734
-0.415699 -0.0207161 0.372854
-0.0201812 -0.0039973 0.377387
0.0227389 -0.0272211 0.428846
-0.0161474 -0.0208916 0.304817
0.337094 -0.00435474 0.365652
-0.362578 -0.00792845 0.340588
-0.339201 -0.0162426 0.454378
0.0908905 -0.0274819 0.0604336
0.31157 -0.0218768 0.398228
0.190478 -0.0226346 0.389268
0.405701 -0.0208402 0.376111
0.374331 -0.0212416 0.387118
0.0133108 -0.0190381 0.0717742
-0.309419 -0.0216694 0.383715
-0.035449 -0.022907 0.354407
-0.432126 -0.00394696 0.432705
0.22873 -0.00789503 0.336913
0.00775487 -0.0542329 0.194507
-0.105008 -0.0218686 0.439769
-0.0140998 -0.0272109 0.116796
-1.09486e-05 0.0399524 0.0110073
0.0193198 -0.0264388 0.506269
-0.0556735 -0.0201482 0.336147
-0.0197924 -0.0389815 0.198646
-0.00219467 -0.0158067 0.479239
0.281458 -0.016472 0.328175
-0.202829 -0.0223922 0.429675
-0.0286194 -0.0420415 0.465215
0.273254 -0.0218595 0.378684
0.471934 -0.0123275 0.350194
-0.0861463 -0.0277959 0.0709631
-0.132642 -0.00403266 0.375485
0.188149 -0.0167843 0.455367
-0.0980904 -0.00647325 0.446512
-0.145781 -0.00905406 0.453798
-0.386042 -0.00555607 0.358408
0.043311 -0.0194458 0.086138
0.373874 -0.0127405 0.308828
0.0287763 -0.0422112 0.443268
-0.226502 -0.0220481 0.368469
-0.397885 -0.0213365 0.404605
-0.0676717 -0.00977154 0.454574
-0.172868 -0.0139792 0.301236
-0.320603 -0.0215927 0.384104
-0.000117391 -0.0283385 0.528403
-0.469562 -0.0173457 0.361969
0.312332 -0.00744061 0.342641
-0.131521 -0.013269 0.295256
-0.250503 -0.0219475 0.373468
-0.183943 -0.00377786 0.442646
-0.381085 -0.0205289 0.365674
-0.331401 -0.0209375 0.364536
-0.063526 -0.00422594 0.36268
0.197957 -0.0159517 0.317547
0.181364 -0.0256306 0.465243
-0.0815104 -0.0234811 0.391902
0.0106029 -0.0377181 0.538398
0.0246157 -0.0346154 0.27326
0.347144 -0.019564 0.355912
0.4292 -0.020289 0.3679
-0.0229811 -0.0285046 0.309858
-0.0233056 -0.0340169 0.493629
-0.173055 -0.00578555 0.443437
-0.07728 -0.00376027 0.392992
0.0822776 -0.0217092 0.104545
0.183815 -0.0228184 0.41504
-0.209613 -0.00421695 0.36378
-0.282181 -0.00635218 0.349619
0.11262 -0.0179911 0.325254
-0.0306475 -0.0291027 0.0777664
0.0257031 -0.0176975 0.454739
0.136974 -0.0267552 0.0866446
-0.0660794 -0.00382012 0.422301
0.388651 -0.0181709 0.450982
-0.020472 -0.0648353 0.342508
0.111631 -0.0248331 0.0415688
0.316618 -0.0188598 0.348314
0.20392 -0.0227655 0.404234
0.408418 -0.00360008 0.420505
-0.00314821 0.0299936 0.0553973
-0.209406 -0.0153212 0.313935
-0.0251126 -0.0278956 0.0558781
0.250628 -0.0149408 0.314579
-0.0209267 -0.0236285 0.372358
-0.00116829 -0.0510884 0.160725
0.177001 -0.0228218 0.394959
0.21065 -0.0147944 0.310233
-0.410217 -0.00381152 0.390853
0.239787 -0.00774583 0.338314
0.105296 -0.0136663 0.459605
-0.0104118 -0.0690205 0.298681
0.17567 -0.0259013 0.0723596
-0.00454387 -0.0717397 0.432016
0.338292 -0.0131909 0.309153
-0.0286535 -0.0451235 0.339565
-0.264506 -0.0224048 0.413365
-0.0344002 -0.0201547 0.334443
0.0668205 -0.0168869 0.31351
-0.43797 -0.0177708 0.350434
-0.109679 -0.0230965 0.380448
0.209257 -0.00478979 0.358769
0.126294 -0.0188543 0.332613
-0.46171 -0.0167732 0.345183
-0.277117 -0.0163944 0.327258
0.0103008 -0.0179585 0.392399
0.0255552 -0.0199036 0.331902
0.00523781 -0.0490131 0.444707
-0.271992 -0.00528598 0.357021
-0.0273488 -0.048364 0.428436
0.336301 -0.00678219 0.450253
-0.00358854 0.0136649 0.0629712
-0.192663 -0.0115649 0.457315
-0.15821 -0.0242528 0.0977447
0.464287 -0.00991976 0.329183
0.110416 -0.00466565 0.436828
0.308302 -0.00918685 0.329912
0.00268914 -0.0057876 0.441968
-0.252935 -0.00766426 0.339288
-0.00569391 -0.0324778 0.45154
-0.0142871 -0.0365106 0.14876
-0.119158 -0.00354302 0.407269
0.00523781 -0.045346 0.456236
0.207138 -0.0167728 0.324233
-0.297526 -0.00909173 0.330284
0.0226414 -0.0598474 0.346709
-0.425587 -0.00374671 0.395125
-0.471074 -0.0133553 0.348687
-0.0343972 -0.00593027 0.443016
0.121819 -0.0230014 0.380101
-0.00860612 -0.0696502 0.501787
0.0280337 -0.0464364 0.466101
-0.0189333 -0.0218926 0.341716
0.138619 -0.023001 0.388154
0.0218337 -0.0472315 0.239716
-0.322724 -0.0039663 0.380469
0.0413558 -0.00548521 0.348834
0.383574 -0.00386273 0.387424
0.0179103 -0.0235089 0.240507
-0.059054 -0.00525883 0.350987
-0.0773338 -0.0204339 0.0676102
-0.0514769 -0.0236173 0.386318
0.399616 -0.017502 0.452223
-0.11677 -0.0227468 0.36113
-0.00287406 0.0341412 0.0408138
0.221678 -0.00936844 0.326066
0.418043 -0.00684108 0.350064
0.0754135 -0.00824005 0.329935
0.0352021 -0.00765321 0.332996
-0.0430547 -0.0286742 0.0671885
-0.392856 -0.0172422 0.342904
0.0215136 -0.0542908 0.259524
-0.45412 -0.0209935 0.418492
-0.00499807 -0.0713286 0.316774
-0.000719303 -0.0028743 0.0309877
-0.190128 -0.0128606 0.42983
-0.211206 -0.022701 0.403551
-0.19564 -0.00356257 0.414069
-0.301433 -0.0113849 0.313836
0.183687 -0.00371583 0.396259
-0.0980488 -0.00392629 0.426941
0.114796 -0.00393271 0.381918
0.0628464 -0.0199609 0.078764
-0.149328 -0.0195256 0.339357
-0.000292444 0.0334025 0.0155638
0.0249642 -0.0541238 0.330684
-0.00776092 -0.0457399 0.562833
0.0265471 -0.00382884 0.388357
0.378321 -0.00366494 0.422637
-0.0335803 -0.0194823 0.0703075
-0.442061 -0.0205038 0.371728
-0.36607 -0.0191972 0.354821
0.404307 -0.0207959 0.435418
-0.412514 -0.00738113 0.452201
-0.156669 -0.0263273 0.0748033
0.394112 -0.00383797 0.389074
0.260392 -0.00380346 0.390835
0.0116894 -0.0454444 0.155752
0.101211 -0.00757396 0.3355
0.171555 -0.0284242 0.454499
-0.0258805 -0.0503714 0.482104
0.0589103 -0.0225779 0.0406369
0.0487407 -0.0261794 0.0461928
-0.289791 -0.0162202 0.327042
-0.0537069 -0.0206744 0.105397
0.19967 -0.00370696 0.396894
-0.0157726 -0.0476806 0.194911
-0.0151892 -0.01965 0.452173
-0.15327 -0.0217491 0.474169
0.00274913 -0.00280038 0.0485553
-0.423751 -0.00661273 0.35188
0.175727 -0.0247785 0.0431862
0.4171 -0.0213131 0.412322
0.057744 -0.00389013 0.425147
-0.100151 -0.0275634 0.0916397
-0.0165419 -0.0556245 0.546862
-0.157608 -0.0175308 0.325631
0.0419865 -0.0166146 0.3095
-0.437952 -0.0193224 0.443213
-0.31118 -0.0163331 0.329618
0.241011 -0.0220892 0.378118
-0.294284 -0.00774497 0.452397
0.0032537 0.00367501 0.0934711
-0.111633 -0.00988883 0.319087
0.0156716 -0.0206356 0.312005
0.228901 -0.0226027 0.405668
-0.112748 -0.00420988 0.363898
-0.11811 -0.00496045 0.35487
-0.0838025 -0.00364056 0.400795
0.00206004 0.0627241 0.0241793
