0.0668578 -0.063226 0.227784
-0.0939711 -0.0556414 0.208351
0.0655385 -0.0195093 0.24107
-0.207814 -0.0779459 0.397947
-0.000305353 0.048853 0.204028
0.034228 -0.018406 0.195065
-0.0361698 -0.0348395 0.102819
0.0241264 -0.0112172 0.299744
0.0172732 -0.0068065 0.649058
-0.237723 -0.0739519 0.469515
-0.0625479 -0.0627115 0.520695
-0.0419652 -0.025113 0.616585
-0.0171206 -0.0419384 0.825762
0.0174489 -0.0938722 0.369434
-0.0433077 -0.074131 0.188085
-0.0790747 -0.0161732 0.299099
0.361204 -0.0711369 0.398969
0.0298465 -0.087367 0.262979
0.19414 -0.0817214 0.449702
-0.388365 -0.071668 0.387567
0.0375409 -0.0191783 0.562543
-0.430242 -0.0756592 0.320928
0.0105943 -0.034979 0.0816184
-0.0363934 -0.0176081 0.526977
0.000541732 0.0839102 0.0574775
-0.00556473 -0.0875915 0.832929
0.00559516 0.0109596 0.303191
-0.0444325 -0.0284939 0.693962
0.222057 -0.0811061 0.422125
0.0315467 -0.0865359 0.199972
0.419236 -0.0750243 0.322078
0.0447249 -0.0709152 0.47214
-0.0359946 -0.054256 0.316385
0.165042 -0.0820855 0.460459
0.0473628 -0.033879 0.533237
-0.0181471 -0.00706268 0.450105
-0.0657839 -0.0456434 0.27584
-0.0379062 -0.0527693 0.221393
-0.120149 -0.0812072 0.522294
-0.300009 -0.0703517 0.390513
-0.0328219 -0.0614908 0.479392
0.0195752 -0.0905115 0.739286
-0.0316394 -0.0148667 0.425519
0.0395001 -0.0219417 0.661603
0.0184499 0.0906112 0.138934
0.108727 0.0902281 0.0279652
0.285405 -0.0805423 0.413561
-0.042411 -0.0730925 0.614572
0.422549 -0.0769506 0.377375
-0.0841916 -0.0564621 0.329945
-0.0440793 -0.0732764 0.127493
-0.0176794 -0.00954466 0.16688
-0.0340692 -0.0823326 0.438926
-0.0287768 -0.0869314 0.563063
-0.0348553 -0.0184051 0.236308
-0.0471946 -0.0340596 0.363697
0.0157851 -0.092495 0.617807
-0.000676928 -0.00566898 0.763545
-0.168612 -0.0789293 0.415714
0.0871598 -0.0645866 0.229347
0.00121597 -0.0596118 0.566039
-0.236757 -0.0811195 0.429497
-0.0697492 -0.016525 0.252604
0.337363 -0.0750536 0.344196
0.00808696 -0.0885499 0.101357
0.128138 -0.0679818 0.444339
-0.0689056 -0.0283734 0.187425
0.0116065 -0.00858421 0.154844
0.0082661 -0.0955845 0.34883
0.0611422 0.0929487 0.102284
-0.000249633 0.0101984 0.106307
-0.0239663 0.0164122 0.288521
-0.0762151 -0.0869597 0.511142
0.00643093 0.0510591 0.16939
0.166617 -0.0754203 0.39091
0.00483559 0.0663103 0.142034
-0.0553865 -0.0876357 0.481903
-0.0261004 -0.0112114 0.668609
-0.0949971 -0.0737805 0.404397
0.0394687 -0.0445182 0.791116
0.0334946 -0.016229 0.379611
0.0947715 -0.0850605 0.521984
0.0430885 -0.0280931 0.303481
0.248114 -0.0776519 0.384861
0.000397101 0.0895876 0.101296
-0.0223259 -0.00867397 0.56098
0.0173398 0.0164672 0.223001
0.270736 -0.0799993 0.443072
-0.0365149 -0.0813645 0.5877
-0.0963946 -0.0648691 0.489865
0.071608 -0.0643054 0.309276
0.194636 -0.0702236 0.482083
-0.373192 -0.075162 0.333642
-0.0397429 -0.0229298 0.381069
-0.132255 -0.0802573 0.432347
-0.272142 -0.0807237 0.419465
-0.00358283 -0.0545381 0.110565
0.130164 -0.0672219 0.467568
0.049224 -0.0423252 0.621814
-0.0421819 -0.0754878 0.232317
0.0466859 -0.0686161 0.39057
0.0997358 0.087603 0.0817716
0.0201658 -0.045927 0.828969
0.00780747 0.0289395 0.341889
0.0228316 0.0102656 0.273375
0.0359923 -0.0225836 0.758324
-0.0249852 -0.075503 0.401681
0.0620764 0.0901955 0.0466421
0.120552 -0.066502 0.497931
0.0946852 -0.0235002 0.269148
0.134765 0.0886975 0.0210877
-0.0420075 -0.0267085 0.303884
-0.0283438 -0.0623826 0.826733
-0.0483586 -0.0529451 0.735986
0.13796 -0.082412 0.448503
-0.0096618 -0.0956027 0.191124
-0.31472 -0.0781296 0.429174
-0.00245583 0.0481591 0.248192
-0.146184 -0.0684539 0.497356
0.0120347 -0.0853502 0.452887
0.0245417 -0.0175742 0.108572
0.0245175 -0.0760901 0.405938
-0.0181376 -0.0669884 0.441655
0.0590426 -0.0671747 0.556618
-0.0507309 -0.0507062 0.423234
0.304777 -0.0800777 0.391978
-0.0238967 0.0922275 0.0797723
0.0441226 -0.0723607 0.323614
-0.00791643 -0.0958048 0.265196
0.0566854 -0.0495719 0.194093
-0.0716771 -0.0663073 0.290486
0.00592225 0.0243354 0.146896
-0.0283188 -0.024674 0.787525
-0.198333 -0.0702488 0.480267
0.0554445 -0.0867686 0.462923
-0.16182 0.0922404 0.0336071
0.0997891 -0.0378715 0.238034
0.0356401 -0.0538095 0.257583
0.0296544 -0.0142034 0.339876
0.0299826 -0.0821019 0.788948
-0.0959027 0.0929278 0.0678612
-0.130278 -0.0670568 0.490909
0.0353999 -0.0828221 0.549817
-6.54125e-05 -0.0969204 0.392372
-0.280021 -0.0746732 0.362583
-0.354311 -0.0710552 0.368525
-0.0442826 -0.0723377 0.294492
-0.0997177 -0.0467637 0.300827
-0.00299996 -0.00806067 0.215643
0.120385 -0.0768595 0.40821
-0.0104755 -0.0929215 0.665895
-0.0438214 -0.0710019 0.645271
0.0220208 -0.00890979 0.442376
-0.0228804 -0.0857334 0.455542
-0.0138475 0.0407791 0.273603
0.025307 -0.0606797 0.497532
0.0788203 -0.0636656 0.510619
0.0756453 -0.0676938 0.43627
-0.0549182 -0.0874294 0.541901
-0.0452196 -0.0602499 0.751727
-0.022775 -0.0885653 0.739815
-0.00903789 -0.00524061 0.623645
-0.0103241 0.0260168 0.342064
0.00508845 -0.00454108 0.480211
0.32761 -0.0708281 0.377373
-0.0790368 -0.069922 0.548068
-0.116614 -0.0672422 0.447452
-0.0135643 -0.0182598 0.10181
-0.473196 -0.0725053 0.347094
-0.047861 -0.0363032 0.508892
0.0385213 -0.077635 0.697458
0.0610998 -0.0280424 0.205204
0.0428862 -0.0265166 0.604715
0.0258853 -0.0896182 0.35102
0.00953033 -0.00784076 0.188581
0.00935856 -0.0907088 0.502683
0.0166714 -0.0621918 0.0781435
-0.0505997 -0.0505725 0.587544
-0.0158516 -0.00693834 0.390603
0.0287547 -0.0693498 0.429254
0.253189 -0.0709546 0.396756
0.111987 -0.0845964 0.497314
0.204511 -0.0791582 0.407602
-0.0707956 -0.0165332 0.22186
-0.427418 -0.0716853 0.359557
-0.0252786 -0.0609297 0.552
-0.0816616 -0.0810042 0.435227
0.0458524 -0.070908 0.123765
0.0488564 -0.0414014 0.415762
0.477249 -0.0726724 0.346055
-0.0182305 -0.0921298 0.609684
0.363548 -0.0709461 0.379679
-0.0195912 -0.0935373 0.311006
-0.0177383 0.0871002 0.135555
-0.0587153 -0.0832465 0.556894
0.0304676 -0.0137705 0.502275
0.0481777 -0.0380392 0.459216
-0.177775 -0.0755673 0.388937
0.0493081 -0.0427958 0.563337
0.0370129 -0.0216159 0.120828
-0.24901 -0.0810955 0.437892
-0.0994615 -0.0357561 0.238909
-0.082241 -0.0830032 0.541627
-0.129799 0.0904821 0.0216032
-0.0471896 -0.0671704 0.377793
-0.00223936 -0.00589492 0.248356
-0.0220857 -0.0118228 0.132266
-0.0384162 -0.05332 0.206012
0.0650159 -0.0472199 0.336447
-0.038443 -0.0520552 0.276024
0.0484558 -0.0414799 0.141689
0.0978006 -0.0477354 0.31082
0.0403632 -0.0766981 0.51049
0.0474216 -0.0500811 0.751071
-0.0584507 -0.0415301 0.240079
0.0235721 -0.0116279 0.230475
-0.0194228 -0.0939785 0.117277
-0.0840273 -0.0656211 0.224759
0.216036 -0.0771791 0.479328
0.0655231 -0.0199048 0.280849
-0.0381283 -0.0199161 0.5672
0.00436972 -0.0120925 0.281623
0.0281038 -0.0605262 0.536949
0.016489 -0.0095931 0.14185
-0.059155 -0.062749 0.4885
-0.0739725 -0.0160641 0.27999
-0.0132235 -0.00731193 0.300337
-0.0473771 -0.0367861 0.129154
0.391826 -0.0721342 0.388267
-0.041821 -0.07102 0.108715
-0.216063 -0.0815469 0.448075
-0.00460676 -0.0594908 0.499542
-0.0474701 -0.0355881 0.331525
0.0162145 -0.00643727 0.580878
0.0160376 0.00578055 0.325359
-0.0235201 -0.00946751 0.59198
-0.0308185 -0.0844594 0.671435
-0.00508437 -0.0947531 0.585128
-0.023992 -0.0101306 0.704005
-0.0066459 0.0513046 0.159624
-0.305338 -0.0701804 0.404002
0.160758 -0.0681967 0.476623
-0.0316535 -0.0866299 0.163663
-0.0880836 -0.0678631 0.437452
0.0636081 -0.0656908 0.448407
0.0406678 -0.077332 0.238158
0.0912743 -0.0857486 0.489055
0.209706 -0.0688037 0.453721
0.0403363 -0.0776511 0.285192
-0.118327 -0.0717486 0.415241
0.0248118 -0.0104152 0.629164
0.0662039 -0.0453712 0.295224
0.0150519 -0.0922749 0.65179
0.177586 -0.0810137 0.428329
-0.20473 -0.0813257 0.428716
0.00311383 -0.0932595 0.797317
-0.000430739 0.0288228 0.215896
0.0391079 -0.0777165 0.610512
-0.0522191 0.0862421 0.0852024
-0.0200987 -0.0436076 0.0818985
0.24538 -0.0693348 0.440875
-0.301215 -0.0701941 0.421992
0.0321097 -0.0153002 0.729567
0.0055078 0.0292975 0.288924
0.0735611 -0.0666778 0.257782
0.162841 0.0906015 0.00816431
0.0320056 -0.0147909 0.686779
-0.0260904 -0.0110955 0.502602
-0.167066 -0.0684394 0.480809
0.0129233 -0.0948264 0.286798
-0.0922778 0.0898514 0.0313847
-0.240065 -0.0752096 0.369608
-0.0395932 -0.0245213 0.1876
-0.0422228 -0.0643122 0.454473
0.0051646 0.0336472 0.12499
0.0108724 -0.0057231 0.453639
-0.259878 -0.0722038 0.456182
-0.0392132 -0.0767466 0.697103
0.0155095 -0.0946549 0.126404
0.123866 0.0868964 0.051109
0.0850609 -0.0170557 0.214108
0.0149629 -0.0918955 0.688279
-0.0194232 -0.00843662 0.748828
0.139757 -0.082834 0.483464
-0.0791469 -0.0865361 0.493511
-0.061507 -0.0554035 0.208923
0.00909055 0.0238222 0.190484
-0.00298165 -0.0266677 0.805314
-0.241438 -0.0709398 0.400068
0.00176414 -0.00412296 0.675207
-0.0523074 -0.0706485 0.421826
-0.0249527 -0.08483 0.808745
0.0224548 0.018771 0.243463
-0.0254233 -0.0105344 0.535414
0.00762989 -0.0356965 0.126625
0.27711 -0.0786781 0.384386
-0.0490365 -0.0412846 0.639835
-0.0490002 -0.0600885 0.154381
0.0453466 -0.0889734 0.52418
0.0853854 -0.059896 0.20045
-0.391769 -0.075116 0.328907
-0.0421769 -0.0267873 0.72799
-0.00244482 -0.049452 0.65037
-0.0385608 -0.0610653 0.513478
0.127929 -0.0748009 0.526156
0.290015 -0.0792299 0.437044
0.0550761 -0.0622811 0.499615
0.0711649 -0.0726467 0.410993
0.308946 -0.0721855 0.372659
0.100207 -0.0389442 0.29054
-0.0685098 -0.0552898 0.195605
-0.0995165 -0.0344444 0.283498
0.243056 -0.0694593 0.423635
-0.0415781 -0.0246616 0.676778
-0.0304737 -0.0870981 0.257493
0.0567098 -0.0496936 0.243865
-0.00700787 -0.00515938 0.425468
-0.366241 -0.0724343 0.403405
0.0160561 -0.0944771 0.171423
0.0466007 -0.0316765 0.505653
-0.124106 -0.0835642 0.501698
0.0458795 -0.0683753 0.632557
0.0381617 -0.0713927 0.780192
-0.00269943 0.0804726 0.122574
0.445271 -0.077617 0.33098
0.028138 -0.0880846 0.392746
0.0231479 -0.0472514 0.0833168
-0.0303569 -0.0873189 0.205141
0.0343324 -0.0642461 0.562109
-0.0497567 -0.0565859 0.180881
-0.000404682 -0.018059 0.170799
0.0662868 -0.0635714 0.286428
-0.0354842 -0.0770693 0.762374
0.00928083 -0.0903101 0.562143
-0.00484141 0.055528 0.122317
-0.446825 -0.0720308 0.345574
-0.0385495 -0.052152 0.254638
0.0489958 -0.0422012 0.38729
0.00773016 -0.0929734 0.76609
-0.0174887 -0.0905668 0.542068
0.197738 -0.0690769 0.428664
0.0455193 -0.0324585 0.175915
0.0377975 -0.0548833 0.334369
-0.107716 -0.0659237 0.51121
-0.0268842 -0.011691 0.4802
-0.379568 -0.0713186 0.362453
-0.0403209 -0.0233595 0.451896
0.0488715 -0.0405457 0.685612
0.0436749 -0.0294413 0.236475
0.0548888 0.0864005 0.0742211
0.356304 -0.0751231 0.338529
-0.0157469 0.0347263 0.227299
-0.0211085 0.0131361 0.315439
0.0397981 -0.0886672 0.488518
0.0485741 -0.0841943 0.560253
-0.0165773 -0.069772 0.427519
0.0150273 -0.094002 0.432681
-0.00302536 0.0710996 0.0889867
-0.0483632 -0.0619841 0.340864
0.0639738 -0.0849979 0.545787
0.116222 -0.0811106 0.438002
-0.18288 -0.081865 0.471285
-0.277794 -0.0794038 0.389443
-0.0626172 -0.0290555 0.317539
-0.0250008 -0.0899003 0.413173
-0.17105 -0.0818638 0.448734
-0.00431345 0.0112096 0.13092
0.0196432 -0.0919843 0.591694
-0.136656 -0.082617 0.456993
-0.153246 -0.0714107 0.420721
-0.00217798 -0.0967827 0.292491
-0.0284431 -0.0400411 0.808114
-0.0457868 -0.0691436 0.536926
0.335018 -0.0707536 0.409724
0.0469426 -0.0341135 0.21483
-0.0347367 -0.0178162 0.289588
0.0115348 -0.00595945 0.735157
0.046535 -0.0325922 0.33007
0.0280275 -0.0123136 0.605045
-0.0505974 -0.0504816 0.609464
-0.0119722 -0.0533494 0.849331
-0.0449186 -0.0310733 0.254038
0.0129619 -0.0763111 0.848999
0.0940238 -0.0235265 0.296687
0.406772 -0.0788609 0.358126
0.142764 -0.0779695 0.415461
0.00831871 0.091542 0.080161
-0.062613 -0.0659658 0.548862
-0.0574901 -0.0836844 0.447331
-0.00730414 -0.0655406 0.0878238
-0.0442015 -0.0288987 0.406827
-0.01267 0.0155436 0.212721
0.0924433 -0.0799647 0.430623
0.035745 -0.0313258 0.782718
0.0454605 -0.0695983 0.53663
-0.413356 -0.0776896 0.380164
0.101595 0.0927484 0.0561622
0.0334755 -0.0154666 0.540709
-0.0209405 -0.0103944 0.201954
-0.182211 -0.0689363 0.431011
-0.0195678 -0.0934112 0.373813
0.0374883 -0.0638038 0.457227
-0.0397552 0.0890209 0.0576658
0.0464008 -0.0698741 0.192137
-0.0927236 -0.0282207 0.317507
-0.0260294 -0.0118158 0.358474
0.0497269 -0.0560037 0.274617
0.0476781 -0.0616009 0.707226
-0.00132644 -0.00750924 0.321479
-0.0582559 0.0904041 0.112836
0.00935419 -0.00513014 0.558639
0.0188937 0.0284483 0.313838
-0.0328158 -0.085486 0.321014
0.0414197 -0.0759586 0.358803
-0.0931137 -0.033063 0.194958
0.349049 -0.0765393 0.414328
-0.0138086 -0.00598052 0.578893
-0.0172549 0.085983 0.0971644
-0.0229015 -0.0896378 0.488919
-0.41805 -0.0782225 0.342758
-0.0398587 -0.0775001 0.486379
-0.047906 -0.0644513 0.274498
0.0260707 -0.0892441 0.414018
0.0652486 -0.0632917 0.531315
-0.456505 -0.0730752 0.32599
-0.0395309 -0.0218217 0.593194
-0.0487795 -0.0606891 0.241526
-0.0656002 0.0867928 0.0659732
-0.000543573 -0.0727471 0.412902
-0.0847926 -0.0662038 0.267771
-0.316621 -0.071226 0.377495
0.00918938 -0.0928285 0.715206
-0.346673 -0.0740436 0.348951
0.0121415 -0.00627807 0.387748
0.223676 -0.0752563 0.374205
-0.00305387 -0.00429113 0.658664
-0.0172282 -0.0615995 0.469158
-0.137477 -0.0829104 0.479055
0.00938728 -0.0955911 0.208572
0.0414509 -0.0251462 0.40503
0.0463073 -0.0628709 0.734182
0.00349762 0.0254064 0.26208
0.0412847 -0.0247304 0.442205
0.0760916 -0.0262315 0.335983
-0.254031 -0.0695376 0.42335
-0.35571 -0.0796594 0.387359
-0.149572 0.090884 0.0513531
0.0481924 -0.0379778 0.482252
0.076642 -0.0842937 0.451674
-0.038496 -0.0798322 0.38817
-0.201925 -0.0752001 0.380078
0.0161448 -0.00883149 0.206387
-0.0563037 -0.0881389 0.507385
-0.015369 -0.00807488 0.265308
0.174584 -0.0787586 0.412857
-0.0433553 -0.0544415 0.777426
0.0214299 -0.0896048 0.483561
-0.00935235 -0.0325211 0.11684
0.0794853 0.086552 0.0876329
0.34277 -0.0787857 0.367304
0.0879565 -0.0646354 0.297685
0.0154127 0.0858281 0.10877
0.0187806 -0.0938693 0.241102
-0.00674509 0.0522934 0.179658
0.0350274 -0.018648 0.220383
0.0481599 -0.0374769 0.646448
-0.0746809 -0.0861067 0.460791
0.00794996 0.0268983 0.174285
0.0340619 -0.0833278 0.584696
-0.0175609 -0.0942305 0.165399
0.00214259 -0.0967337 0.323926
0.117872 -0.0838947 0.470568
0.30431 -0.0702445 0.421041
0.0434818 -0.0281877 0.357931
0.05028 -0.0485588 0.312491
-0.0476851 -0.0635358 0.629853
0.0224283 0.00750901 0.29972
-0.0302714 -0.085156 0.629883
-0.0068669 -0.0932472 0.730915
0.025136 -0.0771765 0.0961941
0.00559084 -0.00789519 0.121146
-0.0627621 -0.0509626 0.323279
-0.00445108 -0.0958078 0.456399
-0.038322 -0.0680562 0.569596
-0.0485556 -0.0392149 0.578667
0.0307263 0.0919174 0.074309
-0.00597466 0.0485614 0.14529
0.000266524 0.0229088 0.232553
-0.0463368 -0.0667012 0.71207
0.431222 -0.0719199 0.345957
0.0364806 -0.0822991 0.449266
0.195364 -0.0816838 0.466534
-0.0122767 0.0938127 0.116731
-0.0101757 -0.0818846 0.435098
-0.0883136 -0.0180306 0.250616
-0.0861089 -0.0643503 0.51467
0.000683429 -0.0337469 0.150278
-0.0457325 -0.070244 0.319202
0.0037498 0.037657 0.326415
0.0308188 -0.0142304 0.709874
-0.0495271 -0.0453086 0.298811
-0.0123807 -0.0948301 0.355699
0.272809 -0.0696719 0.422841
0.167056 0.0873678 0.0313838
-0.00829739 -0.0120402 0.780612
0.39213 -0.0744971 0.333277
-0.00981906 -0.0910481 0.519453
0.0471463 -0.0328573 0.584005
-0.0604476 -0.0276901 0.210129
-0.107855 -0.0801668 0.432529
0.170874 -0.0685386 0.451929
0.000753244 -0.0123247 0.301446
0.0358316 -0.0573424 0.810349
-0.2167 -0.0690798 0.458666
-0.0470875 -0.0331908 0.430111
0.327501 -0.0798904 0.389875
0.136386 -0.0822268 0.504325
0.0204281 -0.0659904 0.446665
0.102371 -0.0664206 0.450632
-0.0349394 -0.0830948 0.549111
-0.0469867 -0.0338263 0.275061
-0.228046 -0.0694327 0.41879
0.0223861 0.0260901 0.293436
-0.106992 -0.0658184 0.469136
-0.0362834 -0.0824535 0.473369
-0.116295 0.0884621 0.0730658
-0.234952 -0.069196 0.445346
0.10143 -0.0653946 0.51101
0.00342032 -0.0345062 0.822204
-0.138706 -0.0761191 0.519607
0.26152 -0.0761414 0.45821
0.0767404 -0.0574032 0.330528
-0.0467626 -0.0693134 0.211297
0.0248521 -0.0876323 0.713834
-0.32855 -0.0799704 0.395533
-0.0495591 -0.0563311 0.365966
0.0393428 -0.022171 0.422935
0.161637 -0.081958 0.486993
-0.0523227 -0.0627521 0.471018
0.0767275 -0.0862475 0.471386
0.0484907 -0.0418197 0.119173
-0.271829 -0.0805809 0.436386
-0.0678765 -0.0870269 0.529418
-0.157771 -0.0818559 0.49203
0.00319941 0.074376 0.16037
0.0274621 -0.0314605 0.0972178
0.0487037 -0.0609419 0.217367
0.220973 -0.0813935 0.453267
0.029395 -0.0410708 0.807861
0.288555 -0.0701545 0.398327
-0.327767 -0.0706719 0.413231
-0.0487937 -0.0431322 0.718293
0.133114 -0.0701125 0.429915
0.0200592 -0.00859108 0.318387
-0.022964 0.0226835 0.266854
-0.0781002 0.086413 0.0779685
0.0117733 -0.044176 0.107207
-0.0348752 -0.0195622 0.118591
0.00336969 -0.00412427 0.501426
-0.0494346 -0.0438673 0.448967
0.0822116 0.0889438 0.0406664
0.26955 -0.0748224 0.364362
0.00630236 -0.0940541 0.631343
-0.102201 -0.0852935 0.498918
0.0276212 0.0932437 0.123527
-0.060571 -0.0581645 0.260983
-0.0474449 -0.0659013 0.400426
0.028136 -0.0130539 0.362704
-0.0376422 -0.0770852 0.739261
-0.0498164 -0.0537611 0.65764
0.0161637 0.0351107 0.231123
0.257119 -0.080843 0.420563
0.00378087 0.0681853 0.109969
0.00681637 -0.0590951 0.544525
0.0257387 -0.0855342 0.767272
-0.193682 -0.0697827 0.421448
0.00600248 0.00970552 0.162491
0.0207789 -0.0849175 0.576625
-0.128038 -0.0671151 0.466282
0.180198 -0.0808255 0.486471
0.0598085 -0.0255403 0.260292
-0.0156517 -0.0946223 0.135067
-0.0277821 -0.0150249 0.151361
0.0222648 -0.0651005 0.839089
0.0661924 -0.0632362 0.484008
0.067365 -0.0416478 0.193199
-0.154346 -0.0810365 0.434816
-0.0191998 0.034889 0.248675
-0.0507192 -0.0493144 0.529804
-0.00997652 -0.00562796 0.692796
0.00223888 -0.0389487 0.668479
0.0486753 -0.0414508 0.269963
0.227769 -0.0705269 0.406778
-0.0411375 -0.0240464 0.655609
0.109845 -0.0658369 0.478989
-0.0462688 -0.0680836 0.593786
0.060094 -0.0308459 0.31298
0.0205957 -0.0113526 0.766728
-0.00971647 0.014226 0.327736
0.00228915 0.0298139 0.102323
-0.284142 -0.0700472 0.403378
0.048761 -0.0584306 0.67962
-0.182224 -0.0684203 0.464605
-0.0246277 -0.0124246 0.22255
0.0519212 -0.0728376 0.410679
-0.369442 -0.0709802 0.38004
-0.0429832 -0.0377286 0.764432
-0.113697 -0.0750557 0.397255
0.0642169 -0.0468016 0.255627
-0.00451549 0.0139506 0.274766
0.191381 -0.0773849 0.398365
-0.0211257 -0.00998582 0.250355
-0.0284434 -0.0860636 0.650256
-0.0455531 -0.0300918 0.541287
0.0243731 -0.0905803 0.32969
0.00429949 -0.0118131 0.233588
0.000163954 0.00745466 0.199801
-0.0720695 -0.0633435 0.312177
-0.00799966 0.0211723 0.305425
-0.0632596 -0.0598894 0.221287
-0.0323023 -0.015393 0.401137
0.0251897 -0.0131719 0.17648
0.00783831 -0.0232486 0.0944522
0.0385109 -0.0800887 0.306238
-0.0393831 -0.053737 0.100072
0.3172 -0.0755373 0.350795
-0.140172 -0.0684731 0.443119
-0.135487 -0.0774532 0.411981
-0.0190512 -0.0790439 0.0940652
0.114755 -0.0761842 0.533148
-0.0323862 -0.0855679 0.376555
-0.0145749 -0.0772337 0.588266
0.461216 -0.0723176 0.333218
0.0495126 0.0863449 0.108616
0.0209261 0.0305069 0.271605
-0.113937 -0.0659871 0.485068
0.0140472 -0.0597693 0.510725
0.059482 -0.052383 0.212545
-0.14739 0.0895264 0.00996945
-0.00571045 -0.00516142 0.377143
-0.103543 0.0927279 0.0550509
0.0895205 -0.0644057 0.493398
0.319664 -0.0703722 0.397798
0.0504146 -0.0484159 0.441352
-0.0388185 -0.0787758 0.517538
-0.0025354 0.0933457 0.0749865
0.008146 -0.0689841 0.431824
-0.222446 -0.0759353 0.379443
-0.301105 -0.0744529 0.358424
-0.182474 -0.0773988 0.49565
-0.0945107 0.0879126 0.0867504
0.0267417 -0.087123 0.109659
0.0363581 -0.0175873 0.583151
-0.112056 0.0909734 0.033073
0.0973754 -0.0477011 0.208106
-0.188418 -0.0779228 0.403056
-0.263367 -0.069826 0.408673
-0.0377785 0.0934451 0.0944906
0.057379 -0.0875564 0.48347
0.0474954 -0.0367238 0.198028
-0.348686 -0.0739872 0.414631
-0.0352728 -0.0895503 0.530691
0.0763038 -0.0242454 0.188987
-0.077647 -0.0176448 0.202569
-0.013083 -0.0949011 0.245287
0.0437253 -0.0558759 0.769543
-0.334496 -0.0796632 0.378213
0.103693 -0.0699943 0.42508
-0.165687 -0.0821945 0.474389
-0.0133835 -0.0885269 0.102839
-0.00315475 -0.00221609 0.146351
-0.0851665 -0.0645074 0.473841
-0.00287323 -0.00390689 0.546536
0.0992244 -0.0328552 0.25356
0.0391568 -0.0217135 0.462996
-0.0534698 -0.0464046 0.197374
0.244602 -0.075146 0.36883
-0.0887618 -0.0626391 0.307353
0.100876 -0.0765767 0.406835
0.0421664 -0.0255325 0.628772
0.0269809 -0.0881228 0.529941
-0.136072 0.0924342 0.0397698
0.0439076 -0.0728733 0.264635
0.208048 -0.0815034 0.441709
-0.0249823 -0.0904682 0.235073
-0.0235523 -0.00960729 0.636835
0.229654 -0.072441 0.392441
0.0507366 -0.0826526 0.441634
0.0965677 -0.055378 0.254062
0.289426 -0.0724573 0.37602
0.0362474 -0.083434 0.219343
0.00174404 -0.0428851 0.841282
-0.291804 -0.080158 0.430971
-0.0934166 -0.0599645 0.241659
-0.010552 -0.0924836 0.759651
-0.0140292 0.0389985 0.297724
-0.0238053 -0.0599763 0.52708
-0.0865533 -0.0469838 0.19237
-0.0190112 -0.0934571 0.396109
-0.0502898 -0.0480642 0.401928
-0.0240853 -0.0142382 0.768818
-0.0901343 -0.0855706 0.476942
-0.0356855 -0.0718772 0.416132
-0.0212389 -0.00973687 0.279863
-0.0337759 -0.0158372 0.687661
-0.0394527 -0.0224337 0.713314
0.0265569 -0.089948 0.512695
0.182476 -0.0684585 0.466135
-0.163118 -0.0686178 0.44337
-0.159406 -0.0757812 0.395478
-0.00601546 0.0333447 0.144095
0.255596 -0.0809655 0.436869
-0.00129928 0.0967942 0.136627
0.0342951 -0.084415 0.373926
-0.093173 -0.0607031 0.284854
0.0152685 0.0897801 0.0620635
-0.201966 -0.0816468 0.461482
0.361564 -0.078062 0.356964
0.157358 -0.0737163 0.40295
-0.0229135 -0.0914892 0.336947
-0.028738 -0.0126599 0.620608
-0.22011 -0.0771482 0.477352
-0.0079155 -0.0336605 0.0913246
0.0401764 -0.0777101 0.341171
-0.0281598 -0.0130202 0.731847
-0.219842 -0.0710226 0.40536
-0.050477 -0.0506813 0.125201
-0.208182 -0.0689544 0.441219
0.000499173 -0.0220576 0.118603
0.375942 -0.0792619 0.38896
-0.0941686 -0.0243671 0.219001
-0.0263412 -0.0124372 0.318489
0.00667666 -0.00504866 0.435732
-0.0970189 -0.0275035 0.260883
0.226298 -0.0712291 0.470805
0.416602 -0.0718082 0.346814
-0.294018 -0.0804496 0.41135
0.0429638 -0.0614207 0.508349
0.152902 0.08735 0.0246307
0.0840839 -0.0166584 0.281402
-0.0632036 -0.0802589 0.430235
0.0479165 -0.0641568 0.303534
-0.262558 -0.0749671 0.365224
-0.00468219 0.0468654 0.217852
0.0425156 -0.0260341 0.698001
0.0166438 -0.0944095 0.151184
-0.0448187 -0.0617559 0.497677
0.0125153 -0.0877922 0.826164
-0.0222527 -0.0278799 0.0962371
-0.0224275 -0.0893459 0.684165
0.193167 -0.080134 0.417737
-0.0405785 -0.077875 0.149995
0.00633357 0.050632 0.187573
0.0107354 -0.0928453 0.670007
-0.0621498 -0.0233213 0.303269
0.136693 -0.0748255 0.39764
0.0126048 -0.0908937 0.519646
-0.0401079 -0.088976 0.503491
0.0164954 0.0188531 0.331377
0.0258737 0.0935408 0.0989827
0.0805598 -0.0666119 0.538753
0.0174057 0.00336179 0.230879
0.0549396 -0.0494585 0.178148
0.0484742 -0.0400639 0.343521
0.0846673 -0.0162311 0.254912
0.0930235 -0.0283682 0.316333
-0.0275231 -0.0887851 0.29786
0.0457045 -0.0708707 0.176538
-0.0190663 0.029193 0.310416
0.0317517 -0.0614241 0.479738
0.0984407 -0.0497953 0.223871
0.0109965 -0.0771126 0.0852969
-0.00731967 -0.0950858 0.497164
0.144539 -0.0682237 0.45806
-0.0301676 -0.0874703 0.187622
-0.00458193 -0.0048517 0.398398
-0.0153869 -0.0937475 0.471118
-0.039488 -0.0219992 0.495587
-0.0563195 -0.0539216 0.289887
0.45496 -0.0721096 0.344011
0.0204547 -0.00928469 0.750889
0.0502944 -0.0528038 0.40138
-0.43265 -0.0782399 0.338913
0.00447719 0.00686388 0.141621
0.0451276 -0.0717879 0.143031
0.0192742 -0.00721596 0.669558
0.401566 -0.0714755 0.376637
-0.0354135 -0.0844695 0.121326
0.017094 -0.00333568 0.252276
0.0409169 -0.0258271 0.739255
0.000220338 0.0385306 0.231302
-0.0184108 -0.0938628 0.283877
-0.0115479 -0.0937642 0.568107
-0.0128054 -0.00580856 0.507658
-0.386364 -0.0778496 0.348684
-0.0495666 -0.0442304 0.492183
0.0734219 -0.0168426 0.297784
-0.365767 -0.0792883 0.367716
-0.0903153 -0.0852686 0.525077
0.0964815 -0.0667367 0.527435
-0.412665 -0.0789096 0.363901
0.0183906 -0.0375334 0.816677
-0.00520249 -0.00464656 0.462991
0.0125134 0.0307987 0.213731
0.308081 -0.080316 0.408905
0.138824 -0.0680105 0.500116
-0.0272652 0.0858338 0.111092
0.0631547 -0.087583 0.524301
0.0102069 -0.00605895 0.363489
0.0327961 -0.0848557 0.471781
0.149202 -0.0823127 0.468199
-0.323541 -0.0705199 0.389879
-0.232528 -0.0805937 0.410351
-0.00209964 -0.0922735 0.815477
0.0371121 -0.0802175 0.628628
0.124333 0.0921821 0.0635007
0.0207274 -0.0876965 0.465411
-0.0188384 -0.0695218 0.844749
0.0739487 -0.0179251 0.203896
-0.458277 -0.077981 0.354835
-0.0510594 -0.067335 0.43876
0.0193271 0.0930138 0.088445
0.0495328 -0.0562293 0.419165
0.0199175 -0.0622822 0.564454
0.170741 -0.077392 0.501469
0.00558192 -0.0714931 0.862257
-0.0486791 -0.0422712 0.183286
0.0225591 -0.00902961 0.484611
0.0119272 -0.0780972 0.415901
-0.00377367 -0.0937171 0.779689
-0.0046144 0.0105276 0.290123
0.0752633 -0.0866294 0.487647
0.000404784 -0.0944063 0.744787
-0.0225069 -0.0605481 0.496465
0.0103966 0.00941861 0.208367
-0.251066 -0.0803339 0.403432
-0.0868659 0.0921033 0.0524392
-0.0246479 -0.064476 0.569775
0.130666 0.0870985 0.0382351
0.0120341 -0.00836711 0.265997
0.0315378 -0.0173678 0.137471
0.0705377 -0.0790465 0.424527
-0.00238742 -0.0941677 0.684084
-0.0111906 -0.0953032 0.211217
-0.0410156 -0.0249011 0.350157
0.00941576 -0.0956185 0.190546
-0.430369 -0.0775941 0.371686
0.0157281 -0.00664259 0.690439
-0.058472 -0.0279998 0.255741
-0.107218 -0.0845966 0.510311
-0.0405261 -0.0776063 0.265473
0.0478819 -0.0428645 0.734972
-0.0703401 -0.0630919 0.504596
-0.0462875 -0.0865007 0.460966
-0.0757512 -0.065196 0.208944
-0.0412564 -0.0270824 0.145158
-0.00217779 -0.0970228 0.124813
-0.0996942 -0.0786351 0.421745
0.379687 -0.071156 0.373092
-0.0488902 0.0921097 0.0685939
0.0197735 -0.0902693 0.545719
-0.131204 0.0908546 0.0636357
-0.0468866 -0.0675187 0.55542
-0.00350424 -0.00431279 0.640439
-0.00330485 -0.0652807 0.450869
-0.00632574 -0.00726538 0.191929
0.0597208 -0.0632809 0.465531
0.0473258 -0.0346167 0.371023
-0.361648 -0.0728353 0.353592
0.000175863 0.0353501 0.270175
-0.040762 -0.0773443 0.250222
0.0183498 -0.089143 0.800453
-0.079391 -0.0780151 0.417962
-0.00137131 -0.0596903 0.482178
0.0239821 -0.0620525 0.467019
-0.0922982 -0.0687674 0.539372
0.186038 -0.0688307 0.43956
0.0565786 -0.0501894 0.30321
0.00603699 -0.00509109 0.403489
0.0489022 -0.0584735 0.570451
-0.413842 -0.0749122 0.324358
-0.0486531 -0.0395731 0.623363
-0.0097018 -0.0307419 0.671376
0.0456657 -0.032832 0.154654
-0.0994149 -0.049522 0.273762
-0.0609345 -0.0424955 0.336874
0.0350956 -0.0846418 0.124307
0.0333999 -0.0846886 0.430222
0.00647953 0.0456381 0.154744
0.00559114 -0.0934829 0.699762
0.00491372 -0.0053832 0.336928
0.238548 -0.0811835 0.434442
0.0574346 0.0862214 0.0880252
-0.0400503 -0.0228556 0.478306
0.0504784 -0.0504557 0.155805
0.013108 -0.0918299 0.782733
-0.0246535 -0.0906889 0.221105
0.0376161 -0.0193867 0.644647
-0.0497566 -0.0459279 0.352237
0.00480961 -0.0913418 0.548638
-0.00406804 0.00800987 0.342444
-0.188214 -0.0815638 0.436857
0.000197825 0.0672146 0.178132
0.0262054 -0.0117031 0.394446
-0.00297644 0.0868377 0.144121
-0.326499 -0.077827 0.364805
-0.059759 -0.0264022 0.230568
-0.0419632 -0.0733359 0.666892
-0.00411423 -0.00791109 0.112598
-0.222227 -0.0812837 0.433722
0.0967413 -0.0851584 0.474583
-0.00196408 -0.0171441 0.151918
0.0318978 -0.0145604 0.518975
0.087096 -0.0649604 0.458223
-0.0857758 -0.0165152 0.234346
0.243304 -0.0803094 0.405366
-0.0907603 -0.0653344 0.456231
-0.0421265 -0.0519949 0.332123
0.0879456 -0.0609874 0.312919
-0.0349429 -0.0690342 0.810654
-0.036192 -0.0174103 0.511643
-0.0296846 -0.0142242 0.342175
0.0407007 -0.0507404 0.277609
0.0508028 -0.049625 0.595803
-0.0152724 9.61227e-05 0.227216
0.05682 -0.0330838 0.231093
-0.0161918 0.0890347 0.0675815
0.451985 -0.0744843 0.317046
-0.00338135 -0.00461099 0.745178
-0.0796464 -0.0638503 0.491285
0.00268902 -0.096759 0.236903
-0.0434758 -0.054612 0.139402
-0.0383072 -0.0336394 0.780466
0.125393 -0.0789668 0.42326
-0.293167 -0.0776343 0.372479
0.292118 -0.0802919 0.400278
-0.0489329 -0.0408055 0.6706
-0.000445947 -0.00293994 0.17608
0.0636185 -0.0464194 0.32057
0.0219139 -0.0100615 0.284311
0.012408 -0.0590404 0.0909284
-0.338785 -0.0723109 0.363615
0.0778781 0.0930783 0.0758823
0.0190976 -0.00714669 0.468136
0.0501671 -0.0485695 0.228262
0.056482 -0.0621274 0.513679
0.0151039 -0.00633448 0.616268
0.0367757 -0.0192943 0.326976
-0.0363093 -0.0174621 0.547022
-0.0223175 -0.0114424 0.182759
0.343251 -0.0707831 0.381388
-0.0447591 -0.0713916 0.360767
0.04252 -0.0728221 0.64821
0.0111036 -0.0952023 0.255783
0.0391614 -0.0788626 0.401013
-0.00693865 0.0345355 0.158984
-0.459642 -0.0750409 0.310937
0.00951347 0.0428134 0.295215
-0.0562176 -0.0408747 0.218649
0.357674 -0.0796468 0.387411
0.0252482 -0.0903235 0.185151
0.0500963 -0.0552794 0.126954
-0.149457 -0.0680582 0.473807
-0.0126191 -0.0423968 0.104488
-0.00964691 -0.0594019 0.547086
0.062316 -0.0228493 0.293921
-0.146627 0.0872406 0.0309804
-0.0487877 -0.0608693 0.192662
-0.000878672 -0.096853 0.376022
-0.0640414 -0.0773687 0.413819
0.111409 -0.083191 0.51933
0.117217 -0.0666367 0.45749
-0.402158 -0.078 0.345474
-0.0460068 -0.0705138 0.173835
-0.025514 -0.0787368 0.823721
0.0427458 -0.0447756 0.105748
0.0561044 -0.0355269 0.247171
-0.297332 -0.0755009 0.441344
-0.0154739 0.0285878 0.326174
-0.00319761 -0.00381861 0.160634
-0.0478846 -0.0376342 0.314211
0.0244341 -0.0100113 0.564703
0.0974806 -0.085533 0.503861
0.211702 -0.0692202 0.425457
0.324493 -0.073072 0.362017
-0.309122 -0.0796672 0.382824
-0.0046583 -0.0367908 0.0772931
0.0011384 -0.0971284 0.175818
-0.469133 -0.0780536 0.333307
0.145006 0.0897128 0.00959176
0.00692283 0.00662115 0.179625
-0.0097018 -0.0490393 0.663283
-0.207089 -0.080567 0.473652
0.049326 -0.0580148 0.240059
0.0884841 0.0928914 0.064028
0.0417361 -0.025089 0.492917
-0.0700418 -0.0867599 0.479955
-0.0170552 -0.00676429 0.651664
0.0442554 -0.0282724 0.679275
-0.0468283 -0.0318206 0.55698
0.0219048 0.0293573 0.255482
0.0555839 -0.054537 0.263613
-0.24489 -0.0730978 0.383542
-0.379883 -0.0776961 0.397493
0.0485858 -0.0608159 0.363282
-0.045418 -0.0318597 0.239149
0.434698 -0.0748744 0.318943
0.0283043 -0.030236 0.79666
0.100674 -0.0405508 0.274931
0.0493442 -0.0568522 0.477316
0.0765686 -0.0149572 0.230923
-0.231255 -0.0779895 0.391886
-0.0676467 0.0862987 0.0844057
-0.00849601 0.0359882 0.202333
-0.0257149 -0.0901856 0.150062
0.0242445 -0.090184 0.449982
0.304875 -0.0759675 0.357255
-0.0151668 -0.0336007 0.812803
0.0503837 -0.0507746 0.696446
-0.0406768 -0.0258352 0.203484
0.0986216 -0.0333575 0.223261
-0.159241 0.0915454 0.0165662
-0.39658 -0.0713244 0.3751
-0.00882345 -0.00496356 0.532296
0.0139955 -0.0604642 0.478712
-0.0492617 -0.0458716 0.267828
0.0376515 -0.0194005 0.6177
-0.022468 -0.00950126 0.377966
0.178047 -0.0820571 0.467868
0.138037 -0.0719424 0.516625
-0.000412099 -0.00532695 0.269518
0.0395154 -0.0615855 0.492033
0.0728969 -0.0548045 0.190055
0.304368 -0.0787616 0.43199
-0.0609584 -0.0239515 0.278252
0.0500963 -0.0542465 0.291237
0.0649113 -0.0620472 0.243411
0.26381 -0.0720712 0.385795
0.0494068 -0.0562193 0.556677
-0.00721263 -0.00481832 0.59265
0.05356 0.0882947 0.0580816
-0.0515523 -0.0488984 0.170061
-0.041238 -0.0255075 0.319099
-0.03213 -0.0149637 0.466227
-0.076326 0.0893067 0.040437
0.0502068 -0.0529541 0.461607
-0.0507952 -0.0508951 0.317593
-0.186986 -0.0818455 0.454589
0.0403935 -0.0754305 0.673766
-0.0122932 -0.00658375 0.238806
0.0866609 -0.0484656 0.19056
0.166128 -0.0700094 0.427327
-0.0501477 -0.0530297 0.50807
0.0465413 -0.0731696 0.569777
0.0488893 -0.0594883 0.348108
0.00403798 0.0909705 0.113316
-0.0564639 -0.0462668 0.227858
-0.0454933 -0.08904 0.520495
0.0551379 -0.0403166 0.282708
-0.446111 -0.0747152 0.31698
-0.0313016 -0.0626322 0.464248
-0.1246 -0.0830775 0.448571
-0.28794 -0.0700076 0.427254
0.014832 -0.0942464 0.390153
0.0972246 -0.0546012 0.285172
0.0287341 -0.087972 0.298807
0.0805557 -0.0654381 0.213329
0.0636161 -0.0217646 0.218309
0.239313 -0.0809918 0.451221
-0.0439804 -0.0725212 0.346302
0.0293922 -0.0603808 0.522399
-0.0744681 -0.068552 0.431754
-0.0607673 0.0862894 0.0965066
-0.0888701 -0.0292008 0.331479
-0.00477297 0.0924098 0.0891242
0.47411 -0.0724713 0.328861
0.0656561 -0.0631624 0.272003
0.00848368 0.0149251 0.316214
-0.336144 -0.070632 0.388107
0.15452 -0.0719284 0.416635
-0.0983286 -0.0308866 0.297696
-0.138607 -0.0824291 0.500026
0.0456861 -0.0695315 0.486715
-0.0196476 -0.00734292 0.466051
-0.00294417 0.00236203 0.120995
-0.0309681 -0.0167171 0.172187
0.209933 -0.0812978 0.46604
-0.00482279 -0.0936296 0.714509
-0.155335 -0.0773491 0.407911
-0.0437422 -0.0721001 0.505459
0.00327204 -0.0833516 0.442132
-0.460893 -0.0721309 0.345226
-0.171592 -0.0730937 0.403563
0.392099 -0.0716565 0.353802
-0.00702299 -0.0958935 0.306161
-0.0466901 -0.0632504 0.726715
0.00400995 0.0115121 0.120017
-0.200986 -0.0815826 0.443724
0.00585745 0.0400087 0.137988
0.0103446 0.0935971 0.0995121
0.0913735 -0.0206195 0.226619
0.124192 -0.0832619 0.452839
0.0152223 -0.0538166 0.844757
0.0217425 -0.079037 0.833026
0.0442096 -0.0289986 0.389667
-0.0382846 -0.0815015 0.570904
0.0249786 -0.0903988 0.225015
0.0353544 -0.0610094 0.0972091
-0.01271 -0.00625403 0.413627
-0.0589181 -0.053476 0.307294
0.00851862 -0.0842068 0.584993
-0.00877764 -0.0697458 0.860082
-0.0309395 -0.0139871 0.606479
-0.0314883 0.0869054 0.124723
0.0762271 -0.0798522 0.551226
0.0502713 -0.0483992 0.331447
-0.00421405 -0.00454203 0.44773
-0.0362494 -0.0178579 0.438778
-0.0401513 -0.0465241 0.790062
-0.0163459 -0.00652814 0.611378
-0.0191818 -0.0901878 0.504438
-0.240977 -0.0809499 0.450913
-0.0236885 -0.0784157 0.582031
0.00223888 -0.0353908 0.650579
-0.00453835 0.0473692 0.11056
-0.0322401 -0.0170925 0.211365
0.137815 -0.0802214 0.431897
0.00111132 -0.0955489 0.110238
-0.272963 -0.0728461 0.377703
-0.0725778 -0.0664689 0.258205
-0.0048763 0.0235627 0.12388
0.00523895 0.0557509 0.13242
0.0480253 -0.048277 0.211575
-0.0857705 -0.0164671 0.26454
-0.00511488 -0.0961734 0.343498
-0.045028 -0.0301021 0.392646
0.00651664 -0.096223 0.139876
0.0373395 -0.0891503 0.504261
0.0500821 -0.0527705 0.631465
-0.156098 -0.0791122 0.506391
-0.0170514 -0.090023 0.555591
-0.0187649 -0.0611095 0.0780602
-0.04852 -0.0601544 0.567482
-0.0359288 -0.0834604 0.362838
-0.00868856 -0.00500678 0.562672
0.193227 -0.0814532 0.431898
-0.168039 -0.068325 0.464589
0.0277961 -0.0201387 0.779165
-0.0139134 -0.00628569 0.68011
-0.157156 -0.0819997 0.451404
-0.121176 -0.0683029 0.516622
-0.0124057 -0.0930299 0.622527
0.144938 -0.0680527 0.472183
-0.0720464 -0.0834704 0.44718
-0.175539 -0.0685931 0.450423
0.262813 -0.0695526 0.432788
0.0389889 -0.0797809 0.185031
0.118875 -0.0840809 0.484624
0.430639 -0.0772377 0.332221
-0.0393559 -0.0658309 0.791039
-0.0569923 -0.0651198 0.451252
-0.0158716 -0.009446 0.14635
-0.125452 -0.0834609 0.470396
-0.0632098 -0.0408915 0.190391
0.0257412 -0.0887448 0.558253
0.0500601 -0.0539712 0.379669
-0.053515 0.0907427 0.0548644
0.00725559 -0.0960558 0.160083
0.0150692 -0.0593828 0.531866
-0.00267945 -0.079886 0.086628
-0.0236058 -0.0873857 0.759546
0.0476523 0.0932791 0.0840433
0.0483312 -0.0396949 0.297645
0.0501928 -0.0465112 0.672411
0.0495571 -0.0455849 0.25704
0.00562606 0.0604172 0.159029
-0.00327139 -0.00734592 0.134306
0.0906111 0.0897507 0.0921419
0.0997206 -0.06552 0.464319
-0.0385467 -0.0213936 0.363449
0.00626504 0.0293409 0.307961
0.347467 -0.0796561 0.400842
0.00745468 0.0106193 0.334411
0.0359829 -0.0728236 0.797411
0.0124288 -0.0064674 0.306248
0.0182379 -0.00672917 0.521221
0.0374171 -0.0216481 0.172848
-0.049843 -0.0558889 0.228761
-0.211622 -0.0691834 0.427817
0.0476468 -0.06494 0.408587
0.000819979 -0.0799498 0.424629
0.0483079 -0.0607226 0.643817
-0.0505254 -0.0503393 0.214039
-0.0216128 -0.0905896 0.52922
0.036385 -0.0800881 0.712864
-0.0499928 -0.0540406 0.436613
0.0237293 -0.0886483 0.678128
-0.0402152 -0.0758995 0.632904
-0.0293023 -0.0494286 0.817068
-0.0072262 0.0242182 0.167717
-0.0189211 -0.0524882 0.837487
-0.0484646 -0.053209 0.110393
-0.0051878 -0.0401197 0.128927
-0.0207751 -0.0930703 0.179289
0.0958149 0.0880265 0.0424107
-0.01028 -0.0917468 0.804443
0.0405332 -0.0614053 0.789327
-0.0562594 -0.0350568 0.299221
-0.0419495 -0.0658271 0.766897
-0.0105013 -0.0551791 0.098722
-0.25989 -0.0697505 0.442675
0.0052163 0.0202152 0.133822
-0.0336215 -0.0832724 0.617255
0.00162875 -0.0964453 0.431183
-0.0328824 -0.0859512 0.134697
0.0147226 -0.0916771 0.754408
0.075894 -0.06731 0.277517
0.178646 -0.0731792 0.401022
-0.0342773 -0.0232929 0.769665
-0.047908 -0.0628654 0.581273
0.0401182 0.0868601 0.118505
0.0200733 -0.0813266 0.432893
-0.0163433 0.000909049 0.318539
0.0480856 -0.0632286 0.337568
0.333752 -0.0733851 0.35723
0.0134099 -0.00816523 0.222085
0.0276149 -0.0570333 0.826384
0.0806098 -0.0706971 0.420608
-0.00768079 0.0408096 0.172401
0.00354218 -0.00663442 0.201734
-0.0483901 -0.0465406 0.24539
0.211529 -0.0733098 0.39111
-0.0356514 -0.0169104 0.645425
-0.0217737 -0.0131967 0.111385
0.0216085 0.0139055 0.312894
0.0669855 0.0932627 0.0867697
-0.184834 -0.069076 0.481045
-0.0097018 -0.0361085 0.657298
-0.049202 -0.0447603 0.159521
-0.386923 -0.0791897 0.370691
0.405623 -0.0738313 0.334405
-0.00521924 -0.0957347 0.442858
0.0698247 -0.0164893 0.261461
-0.0197176 0.0173098 0.229617
0.231498 -0.0692739 0.430636
0.245743 -0.0705538 0.456874
0.0259479 -0.0141996 0.122969
0.000818316 0.00724272 0.259622
0.10302 0.0928408 0.0695732
-0.00664598 -0.00476406 0.492422
0.12355 -0.0824441 0.513543
0.159641 -0.0683488 0.459359
0.0237789 -0.0883777 0.70045
-0.0021217 0.0194282 0.249537
0.0156404 -0.00724786 0.344807
-0.0482485 -0.037774 0.592022
0.257715 -0.0761722 0.371561
0.0666586 -0.0267253 0.32394
0.155846 0.0923107 0.0368655
0.0440471 0.0914972 0.0652522
0.0251765 -0.0662636 0.0876873
0.0305942 -0.0140779 0.456061
0.0839637 -0.0645021 0.523226
0.191449 -0.0686888 0.451169
0.321337 -0.0786708 0.372303
0.327171 -0.0800531 0.404148
-0.0251379 -0.0900762 0.355933
-0.240499 -0.069433 0.424232
-0.0488502 -0.0593941 0.411999
-0.056554 -0.0415387 0.284569
0.0422796 -0.0443361 0.778077
0.122853 -0.0675105 0.511028
0.0479499 -0.0633767 0.448967
0.0408641 -0.0318809 0.766529
0.128863 -0.0834198 0.493445
0.0453319 -0.0371661 0.748786
0.0458204 -0.0689763 0.555798
0.0416794 -0.0253815 0.713536
0.071786 0.0869424 0.0970952
-0.0665875 -0.0873432 0.497739
-0.0186616 -0.0641289 0.456215
-0.00390066 0.076049 0.144196
-0.0178762 -0.0228333 0.795485
0.18171 -0.0701672 0.421937
-0.00574009 -0.00489768 0.705326
-0.105823 -0.0660401 0.455947
0.0712658 -0.0676482 0.549979
0.0258288 -0.0108275 0.551581
-0.027086 -0.0883081 0.46894
-0.0617204 -0.0595091 0.244779
0.00926271 0.0937336 0.129821
0.0452452 -0.0881175 0.47653
-0.0722596 -0.0638486 0.471307
-0.0486869 -0.0607604 0.298947
0.0113732 -0.0756196 0.40299
-0.0300737 0.0909696 0.0663578
0.0464397 -0.0316358 0.470549
-0.308124 -0.0800851 0.393939
0.00106614 -0.0803838 0.852228
0.269868 -0.0808131 0.429073
-0.0214116 -0.0924315 0.323972
0.0367297 -0.0190152 0.349785
-0.0355431 -0.0840524 0.239664
-0.0975588 -0.0523886 0.225733
0.0295986 -0.0875888 0.236919
-0.00646959 -0.0881491 0.466798
-0.0500589 -0.0535427 0.483047
-0.000465956 0.0350808 0.243873
-0.139835 -0.0705545 0.428023
-0.00389521 -0.0168832 0.791879
-0.0379761 -0.0775113 0.72542
-0.0428309 -0.0279815 0.288838
-0.246893 -0.069667 0.411797
0.0603843 -0.0746274 0.401265
0.371762 -0.076316 0.341579
0.00993716 -0.0278355 0.805226
-0.106696 -0.0683272 0.437699
0.271668 -0.0804691 0.402735
-0.0685876 0.0913658 0.0541404
-0.0185184 -0.0726945 0.412554
-0.0483315 -0.0626045 0.261684
0.0071515 0.031345 0.162148
0.018552 0.00278567 0.312409
-0.043705 -0.0887328 0.535576
-0.017753 -0.0924828 0.583884
0.122859 0.0912734 0.030609
-0.00147181 0.0074231 0.320481
-0.227829 -0.0691888 0.434574
-0.048745 -0.0573235 0.703526
0.00436868 0.0691128 0.0964335
0.0125471 -0.0388573 0.0935912
-0.22429 -0.0803756 0.465593
0.167283 -0.0821334 0.475412
0.0500444 -0.0461232 0.583428
0.00386147 0.0830569 0.0908386
0.0438945 -0.0730944 0.218749
0.110638 -0.0781632 0.417961
0.00585943 -0.0515157 0.853282
-0.0380965 -0.0229927 0.130546
-0.0881586 -0.0861718 0.506476
0.312596 -0.070466 0.388596
0.0128986 -0.0136271 0.781959
0.0676437 -0.0826465 0.442695
0.0503384 -0.0541104 0.140585
0.0495534 -0.0441025 0.504603
-0.272223 -0.0702727 0.396489
-0.0419509 0.0930872 0.0793076
0.00938252 -0.0323312 0.111423
0.0266161 -0.0112802 0.530161
-0.0238264 -0.0803015 0.427909
-0.181331 -0.0795715 0.416893
0.060878 -0.0586051 0.296891
0.0495012 -0.0618313 0.525244
0.00336704 -0.0966593 0.220421
-0.0397669 -0.0788024 0.203779
0.0476623 -0.0365428 0.31188
0.0184945 -0.0917766 0.639539
-0.0481167 -0.0613263 0.669882
0.00512114 0.018677 0.281586
0.0491336 -0.0575589 0.538419
0.0437035 -0.0286106 0.343237
0.0617283 -0.0493164 0.283032
-0.0293898 -0.0657844 0.447407
0.00683166 0.0900045 0.147636
0.225985 -0.0813798 0.441623
0.0951692 -0.0248982 0.237931
0.144315 -0.0707467 0.427501
-0.095105 -0.0388191 0.324031
-0.0137843 -0.00935352 0.120658
-0.08104 -0.0292817 0.194586
0.0924977 -0.0594796 0.218306
0.0506185 -0.0526933 0.166634
-0.0836426 0.0865738 0.066778
-0.104229 -0.0683621 0.529027
-0.0713562 -0.0205968 0.3141
-0.0650873 -0.0876566 0.517093
-0.0305006 -0.0342101 0.798261
-0.022841 -0.0888963 0.712
0.0175181 0.0346201 0.301369
0.176714 -0.0704529 0.492793
-0.0049278 0.0630366 0.134024
0.0562907 -0.041488 0.218983
0.00748061 0.0435876 0.218251
-0.000828086 0.0358487 0.256518
-0.0995295 -0.0819522 0.533742
-0.305981 -0.0802913 0.415216
0.0406116 -0.0234275 0.517119
-0.0976312 -0.045112 0.313111
0.0964157 -0.0684032 0.435163
-0.0330205 -0.0846082 0.494331
-0.351116 -0.0707254 0.394845
0.0334334 -0.0829852 0.572204
-0.159278 -0.0696883 0.431514
0.255243 -0.0696697 0.415284
0.0638341 -0.0350103 0.33405
0.0385224 -0.0205022 0.530444
0.00149371 -0.0960466 0.517169
0.00033702 0.0191802 0.207989
-0.0321925 -0.0767796 0.103241
0.0162244 -0.00749099 0.332097
0.00812028 0.0360206 0.182794
0.047896 -0.0645803 0.229265
-0.119177 -0.0663688 0.496541
-0.0136649 -0.0915743 0.786986
0.00240992 -0.00427302 0.687647
-0.0368037 -0.0613123 0.540464
0.136202 -0.0827016 0.460804
0.204038 -0.0689272 0.464781
0.00038802 0.0105853 0.235245
0.0349691 -0.0543563 0.305618
0.356112 -0.0793591 0.368033
-0.0721192 -0.0566123 0.330153
-0.00260841 -0.0123318 0.25765
0.0644305 -0.0421929 0.208195
0.0362736 -0.019508 0.236265
-0.107104 -0.073112 0.407389
-0.293974 -0.0793277 0.384492
0.0850691 -0.0863346 0.499734
-0.0305785 -0.0844128 0.692697
-0.044435 -0.0713048 0.473173
-0.0217944 -0.00870538 0.691073
0.0982453 -0.0650831 0.483107
-0.0254209 -0.0120075 0.306206
0.466918 -0.0781745 0.340189
0.108784 0.091741 0.0401791
0.456423 -0.0730918 0.359327
0.0491649 -0.0576239 0.489573
0.234983 -0.0763272 0.378864
0.371214 -0.0780968 0.400243
-0.0695715 -0.0421633 0.264733
0.105236 -0.0653814 0.499377
-0.017195 -0.0920515 0.634884
-0.0792736 -0.0758964 0.402662
0.213901 -0.0690503 0.437478
0.347131 -0.0728331 0.357567
-0.00438845 0.0573965 0.103151
0.333487 -0.070468 0.397619
-0.048839 -0.0582218 0.640778
-0.00167923 -0.0970031 0.20024
0.0358421 -0.0728748 0.411041
0.0232207 0.0138645 0.261743
-0.0060802 0.0594681 0.168645
0.0118063 -0.0943576 0.479516
-0.08196 0.0929052 0.0875213
-0.0473108 -0.0408277 0.736521
0.0141427 -0.00882149 0.173826
0.108016 -0.0845862 0.479065
-0.0159543 -0.059561 0.536727
0.0365759 -0.0817668 0.533571
-0.0999677 0.0912804 0.040647
-0.0959496 -0.0260092 0.24563
-0.0529725 -0.0733042 0.408265
-0.061202 -0.0325748 0.199069
-0.0113034 -0.0944178 0.485745
0.0496321 -0.0569852 0.186005
-0.0461471 -0.0312728 0.708461
-0.00610528 -0.096274 0.162105
-0.0551958 -0.0418425 0.25172
-5.19779e-05 -0.0972219 0.248668
-0.368018 -0.0793135 0.393627
0.299196 -0.0701782 0.401454
-0.0321768 -0.0171723 0.199287
0.0283132 -0.0126241 0.698178
-0.10233 -0.0850716 0.48687
0.0143602 0.040417 0.269596
-0.0450334 -0.0883587 0.488035
0.147352 -0.0821717 0.49279
0.0137145 -0.0650003 0.853058
-0.0486818 -0.0590457 0.617704
-0.0126661 -0.0921387 0.745274
0.0109196 -0.0946936 0.443967
-0.0233435 0.020027 0.255131
-0.0959033 -0.0649116 0.507714
0.295306 -0.0705449 0.430643
-0.0482742 -0.0610232 0.603299
-0.248422 -0.0693111 0.435634
-0.0613636 -0.0472157 0.217708
-0.0405982 -0.0770203 0.37464
-0.0600724 -0.0255298 0.244106
0.0421537 -0.0287625 0.112674
0.0478176 -0.0850806 0.453824
0.0322285 -0.0151394 0.443245
0.0233641 0.0200214 0.283146
0.418142 -0.0716511 0.367586
0.109212 -0.0748577 0.398418
0.0101187 -0.040057 0.831777
0.0979271 -0.035247 0.211477
-0.041825 -0.0268393 0.264778
0.398614 -0.0790508 0.366849
0.00786331 -0.0956785 0.334358
0.315791 -0.0702309 0.408924
-0.00418507 0.0195794 0.112646
0.0828474 -0.0663938 0.250284
0.00544641 -0.00447573 0.576121
0.0498073 -0.0456919 0.429753
0.112577 0.0927944 0.0608207
-0.262097 -0.0808913 0.425896
-0.000534365 0.0962566 0.150597
-0.213737 -0.0737555 0.38729
0.0407013 -0.076852 0.380533
-0.0874124 -0.0855467 0.465349
-0.133433 -0.067599 0.455689
-0.00893671 -0.00758277 0.205352
-0.0113937 -0.0795215 0.423129
0.0330325 -0.0156931 0.430631
-0.113544 -0.0845218 0.495495
0.231492 -0.0807228 0.411565
-0.0115886 0.037686 0.313974
-0.0286845 -0.0877521 0.392305
0.0339589 0.0935574 0.110907
0.238577 -0.0696148 0.411554
0.0440976 -0.0293591 0.728398
-0.0404455 -0.0236512 0.428003
-0.0910394 -0.0695391 0.426154
-0.00461741 0.0357329 0.1125
0.0411425 -0.0759678 0.440099
-0.0344318 -0.0801789 0.751056
-0.0561379 -0.0873997 0.470159
0.171016 -0.0685968 0.482372
0.143407 -0.0683359 0.446367
0.00481334 0.0454926 0.117415
-0.0565777 -0.070403 0.561387
-0.402537 -0.0779074 0.384706
0.216128 -0.0711486 0.405463
-0.140638 0.0908134 0.0194635
0.0456385 -0.0704379 0.293907
-0.0911092 -0.047875 0.3339
0.00959559 -0.0875826 0.464112
-0.418874 -0.0718154 0.371687
-0.264901 -0.0695449 0.427641
0.278522 -0.0721999 0.446946
-0.0366634 -0.0828751 0.225148
0.311207 -0.0798297 0.42259
-0.0908781 -0.0652747 0.525283
0.0478835 -0.0621207 0.695372
0.117138 -0.0692436 0.524082
-0.0426937 -0.0261089 0.644082
0.0097304 -0.0950532 0.414776
-0.259716 -0.0734588 0.376891
-0.130913 -0.0750296 0.396798
0.0131422 -0.060015 0.555264
-0.0170742 0.0383628 0.262683
-0.0288328 -0.0214232 0.107147
-0.000100476 -5.34225e-05 0.189308
-0.0481478 -0.0639916 0.134352
-0.00643257 0.0858283 0.133154
-0.0477834 -0.0360853 0.484083
-0.193412 -0.0687974 0.469841
0.0233984 -0.0111152 0.26846
0.0373368 -0.0705168 0.103553
0.0607205 -0.0500921 0.272749
-0.0507249 -0.0509705 0.255603
-0.0673372 -0.0179834 0.263849
-0.0998973 -0.0358364 0.271996
0.0407338 -0.0547953 0.159937
-0.0432147 -0.0612979 0.52409
-0.0176413 -0.00674498 0.495974
-0.0469665 -0.0325266 0.449498
-0.0112141 0.0264349 0.209092
0.00239497 0.0804446 0.111807
-0.0121891 -0.00725228 0.288821
-0.0350795 -0.0818274 0.681857
-0.0023294 -0.0958432 0.527621
0.462567 -0.0768868 0.321002
-0.204136 -0.0714256 0.406733
-0.0391231 -0.0516543 0.287539
-0.0426795 -0.0291677 0.12187
-0.0111077 0.0013978 0.216544
-0.00620721 0.00992572 0.310272
0.0286732 -0.084195 0.754494
-0.0366233 -0.0805676 0.659684
-0.010992 0.0422009 0.287093
-0.0312955 -0.0161838 0.247014
-0.0369786 -0.018793 0.702693
-0.0359298 -0.0832189 0.4143
0.0882125 -0.0723059 0.412146
-0.00536852 0.0346698 0.332722
0.0599703 -0.025361 0.271768
0.0995624 -0.0486045 0.262824
0.4342 -0.0785883 0.359557
0.0395689 -0.0789359 0.203022
0.134314 0.0919593 0.0578728
-0.00472829 -0.0323295 0.13842
0.000261471 0.00284391 0.214391
-0.272099 -0.0697698 0.416157
0.116729 -0.067717 0.444046
-0.0470541 -0.0351489 0.150771
0.0326407 0.0860627 0.0945707
0.0211296 -0.0923266 0.400667
-0.0518719 -0.0515776 0.339119
-0.0164407 -0.00638602 0.551504
0.0705953 -0.0639615 0.462246
-0.0877279 -0.0648027 0.29624
0.0360746 -0.0195353 0.206221
