-0.0366735 -0.0126066 0.699107
-0.114536 -0.0697393 0.457847
0.0222891 -0.0292346 0.2552
-0.0444944 -0.0211984 0.455302
0.033122 -0.0592896 0.330354
0.0562189 -0.0907461 0.528693
0.0160136 -0.125712 0.59074
0.0514541 -0.102085 0.57643
-0.0636148 -0.057099 0.567365
-0.0591714 -0.0574298 0.664614
-0.0288601 -0.106179 0.693307
0.00524556 -0.0540467 0.350697
-0.00537133 -0.0031353 0.299989
-0.025121 -0.0543118 0.282237
-0.0131167 -0.0349023 0.66555
0.204112 -0.0667973 0.43099
0.309133 -0.061974 0.428643
-0.047842 -0.0383369 0.299611
0.024787 -0.120682 0.521277
-0.0105287 -0.0128395 0.243797
-0.0594176 -0.039941 0.552514
-0.0316852 -0.006644 0.632013
0.00351221 0.011348 0.0434539
0.066449 -0.0363747 0.0319304
0.119539 -0.0698305 0.544663
0.00366296 -0.0458756 0.0830625
-0.0876261 -0.044255 0.0554649
-0.0524921 -0.0405508 0.35654
-0.000678498 -0.110926 0.745785
-0.037122 -0.081469 0.19221
0.0121223 -0.0943768 0.106336
0.0882008 -0.0597968 0.442312
0.0149658 -0.0489159 0.838409
-0.108497 -0.0585488 0.539261
-0.100909 -0.064619 0.579333
0.0629603 -0.0613593 0.682041
-0.0268741 -0.00522114 0.555569
0.0148227 -0.121519 0.420593
-0.0147053 -0.0412222 0.821088
-0.462553 -0.0663093 0.50216
0.159262 -0.0695285 0.484985
-0.0230071 -0.0373782 0.132519
0.0450857 -0.0685106 0.745205
-0.0160159 -0.0198445 0.205209
0.112334 -0.0627093 0.402196
0.00228342 -0.0177531 0.0935913
0.0187347 -0.0181622 0.515728
0.417858 -0.0667759 0.507877
-0.28759 -0.0617845 0.429647
-0.0575866 -0.0686027 0.371034
0.0370129 -0.0812785 0.77257
-0.0266552 -0.00708103 0.482548
0.023119 -0.0172615 0.803013
-0.0635243 -0.0720432 0.63927
0.0267687 -0.0171136 0.295175
-0.0258019 -0.0584946 0.0986813
0.236206 -0.0606796 0.551303
-0.0261634 -0.0059267 0.515904
0.0252905 -0.0345921 0.0431291
0.0149142 -0.00120343 0.540978
-0.0578021 -0.0582635 0.496703
-0.332449 -0.0619717 0.430552
-0.000507385 -0.00194854 0.017415
0.0834821 -0.0425629 0.0937986
-0.0153573 -0.0198472 0.547171
0.395814 -0.06283 0.423255
0.0110819 -0.119054 0.338199
-0.152604 -0.0591771 0.547013
0.061576 -0.0785428 0.658963
0.0146701 -0.00455494 0.734472
-0.0746114 -0.0432048 0.0927767
-0.022301 -0.021728 0.336301
0.0514261 -0.0565076 0.407994
0.102402 -0.0346557 0.0553714
-0.054025 -0.0258701 0.611413
-0.16913 -0.035772 0.0446228
0.233541 -0.0590995 0.485561
0.368621 -0.0649906 0.53886
-0.0692436 -0.0398347 0.0140666
-0.120181 -0.0360548 0.0831732
-0.0268716 -0.0369024 0.248558
0.0614738 -0.0436661 0.566946
0.0160123 -0.0376832 0.873851
0.0335628 -0.0117656 0.442651
-0.0253468 -0.0928415 0.162352
-0.19937 -0.0691097 0.531257
-0.0202543 -0.0155784 0.275172
0.045641 -0.0470902 0.248873
-0.00688368 -0.0444389 0.556653
-0.319754 -0.0594497 0.487903
-0.276313 -0.0668274 0.546076
0.130608 -0.0601426 0.44073
-0.0398381 -0.102429 0.316952
-0.000445596 0.00370526 0.401114
0.00802758 -0.12444 0.491527
-0.0131943 -0.0103555 0.424947
0.00339101 0.0953551 0.0556693
0.0101175 -0.0499172 0.234821
-0.0126157 -0.000507652 0.646754
0.0152779 -0.0742295 0.0390262
-0.0451089 -0.0690279 0.455066
-0.031027 -0.117729 0.654158
0.00435042 -0.0358973 0.109728
-0.0199464 -0.0331584 0.0763384
0.034327 -0.0787918 0.16567
-0.00308176 0.0441475 0.0397194
0.24751 -0.0592397 0.47509
0.0138921 -0.0369449 0.577995
0.0114369 -0.00884285 0.459856
-0.292405 -0.0681909 0.497861
0.0495955 -0.0706556 0.542228
0.464733 -0.0661655 0.510416
-0.00296013 0.112336 0.0439733
0.0539207 -0.0521915 0.309311
0.0358689 -0.00895179 0.587842
0.0422446 -0.01883 0.645928
-0.0289432 -0.0567378 0.827701
0.186254 -0.059436 0.544997
-0.0418825 -0.0387695 0.107183
0.0249539 -0.030738 0.276952
0.0358197 -0.0356685 0.436023
-0.045072 -0.106618 0.528754
-0.430312 -0.0653106 0.449023
-0.0255 -0.0263442 0.829599
0.0371768 -0.111062 0.43498
-0.0307932 -0.0416667 0.160049
-0.0279098 -0.0568073 0.8683
-0.13189 -0.0699093 0.496102
0.00752267 -0.00747252 0.777031
-0.0636756 -0.0495258 0.621636
0.0186137 -0.0593977 0.0543005
-0.169458 -0.0694445 0.533235
0.0203613 -0.11141 0.270721
0.0470239 -0.0451079 0.0733192
-0.0376734 -0.0187534 0.758056
0.00199523 -0.0053098 0.197673
0.453007 -0.0612256 0.451014
0.0508723 -0.0742112 0.70673
-0.241078 -0.0618414 0.425085
-0.0354935 -0.045185 0.0676309
-0.0373476 -0.116513 0.598905
0.0200358 -0.0511629 0.883804
0.00876216 -0.126177 0.563996
-0.0320422 -0.0311373 0.463135
-0.0346126 -0.114949 0.498301
-0.00286607 -0.0514216 0.500823
-0.0525173 -0.0540514 0.77395
0.000296163 -0.0155019 0.821647
0.0469792 -0.0579348 0.5837
-0.216046 -0.0588342 0.510426
0.0105243 -0.0441139 0.184779
-0.0253773 -0.1023 0.78944
0.115067 -0.0433055 0.0410043
0.220827 -0.0656243 0.416963
0.0112317 -0.110086 0.779152
0.413071 -0.0620867 0.533432
-0.0166477 -0.122527 0.471253
0.0231218 -0.0613612 0.445539
-0.151602 -0.0601485 0.442334
-0.365417 -0.0660655 0.448594
0.0482546 -0.0263134 0.680282
0.266705 -0.0599574 0.454347
-0.0229098 -0.0905319 0.834252
0.0171443 -0.0280646 0.152663
-0.104325 -0.0585319 0.487637
-0.0495377 -0.098178 0.435216
-0.0750565 -0.0671858 0.414058
0.196154 -0.0592966 0.458215
-0.145361 -0.069527 0.465295
-0.00358114 0.00485525 0.687373
0.0381373 -0.100043 0.67495
0.162555 -0.0696521 0.522377
-0.131048 -0.0393266 0.0132408
0.0325268 -0.0157775 0.35379
0.11184 -0.0699439 0.47246
0.00546025 -0.0248569 0.0619577
-0.0191347 -0.00513935 0.776834
0.0466854 -0.0700668 0.242686
-0.261732 -0.0592411 0.482804
0.315136 -0.0679872 0.503275
0.00822296 -0.121621 0.391565
0.169033 -0.0356442 0.0528465
0.2123 -0.0689421 0.53128
-0.00227982 -0.00824278 0.175972
0.0303926 -0.0924692 0.80981
0.396046 -0.060025 0.463768
0.0627525 -0.077974 0.58838
0.0384725 -0.0385072 0.510513
0.00286928 -0.0359221 0.691049
0.109543 -0.0697622 0.457305
0.136592 -0.0586867 0.485424
0.00488196 -0.0898933 0.0511346
-0.0486841 -0.0497346 0.532782
0.0581634 -0.0618627 0.369821
0.350503 -0.0595521 0.491722
0.0734856 -0.0703027 0.465306
0.0831654 -0.0624571 0.403491
0.0615095 -0.0628841 0.632009
0.0415022 -0.0220819 0.379426
-0.0337057 -0.0334481 0.423598
0.281235 -0.0682005 0.483447
-0.149031 -0.0656015 0.404091
0.0471621 -0.0416687 0.79275
0.0834701 -0.0442076 0.0485228
0.0522269 -0.0949277 0.697182
-0.410356 -0.060847 0.528186
0.442977 -0.0599332 0.493604
-0.0119124 -0.0471809 0.0372649
0.000211581 0.00247009 0.246962
-0.00511984 0.00906245 0.0903735
-0.333396 -0.0644067 0.545634
-0.0562239 -0.0713386 0.348112
-0.0191886 -0.0786115 0.866563
0.00257837 -0.054565 0.922147
-0.0758461 -0.0703195 0.547913
-0.0104665 0.000402382 0.578499
-0.261586 -0.0685328 0.499087
-0.0392592 -0.0436781 0.562734
0.00385187 0.0547639 0.0865139
-0.0294768 -0.0635421 0.44656
0.154876 -0.0589488 0.461495
-0.0917201 -0.0582639 0.522772
-0.016669 -0.117912 0.331526
0.0367785 -0.0607932 0.843473
0.278214 -0.0683251 0.517887
0.247628 -0.0640347 0.398675
-0.201526 -0.0680801 0.449071
0.0829243 -0.0582756 0.527901
-0.122108 -0.0701186 0.509592
0.0198818 -0.115027 0.301469
-0.165336 -0.038671 0.0193728
0.0342186 -0.0645713 0.396988
-0.0220191 -0.00128038 0.68363
0.00686757 -0.125637 0.531137
-0.00478811 0.0275567 0.0771722
0.0220774 -0.12292 0.645346
-0.0453757 -0.0898723 0.689476
0.0626312 -0.0430504 0.0969411
0.000880619 -0.0398813 0.142099
-0.0418982 -0.0196969 0.424633
0.032827 -0.0374448 0.559486
0.0419349 -0.0381012 0.805674
-0.134181 -0.0435175 0.0506565
0.134762 -0.0623178 0.409653
-0.0470595 -0.0501724 0.408123
-0.0540368 -0.0725263 0.487577
-0.246178 -0.0591016 0.523037
0.0958185 -0.0702418 0.488719
-0.0205291 -0.0191474 0.382038
0.0507834 -0.0915923 0.379538
0.243351 -0.0687559 0.502505
0.0314319 -0.0509821 0.812926
-0.0664517 -0.0447838 0.0702423
0.0463386 -0.0403865 0.601552
-0.0148145 -0.0210592 0.186629
-0.0386696 -0.0855266 0.75639
-0.0360203 -0.0185159 0.355229
0.0515711 -0.06303 0.274465
-0.0218516 -0.0474055 0.22035
0.0200516 -0.03134 0.207749
0.346056 -0.0612017 0.53973
0.00686628 -0.0736123 0.866434
0.1401 -0.0685724 0.556295
0.226402 -0.0689691 0.506451
0.0261661 -0.117711 0.689957
-0.261644 -0.0617385 0.428225
-0.33984 -0.067672 0.496945
-0.0705657 -0.0706478 0.506077
0.0387195 -0.0298026 0.773212
0.0239642 -0.00593045 0.700262
-0.423059 -0.0667394 0.505674
-0.0217768 -0.0602083 0.391428
-0.275815 -0.0597341 0.458302
0.0496269 -0.0504604 0.505205
0.0420705 -0.078095 0.216521
-0.0542291 -0.098692 0.595668
-0.101642 -0.0442361 0.0706344
-0.044598 -0.0663841 0.223043
-0.00966239 -0.115286 0.691395
-0.0548953 -0.0339768 0.50245
-0.1861 -0.0691214 0.469716
0.0158375 -0.106766 0.207449
0.158111 -0.069706 0.506446
0.0343543 -0.0988651 0.250161
0.137765 -0.040447 0.0212807
-0.106604 -0.0637524 0.386672
0.0536235 -0.040219 0.692781
-0.0283488 -0.00482563 0.728521
-0.0494149 -0.0504804 0.479965
0.0345435 -0.0346243 0.405393
-0.00871323 -0.0628416 0.680528
0.059814 -0.0556215 0.441537
0.192727 -0.0691612 0.484175
0.130891 -0.0390932 0.0866174
0.0185212 -0.108907 0.731249
0.217901 -0.0685585 0.458844
0.0563301 -0.0538758 0.35672
-0.445802 -0.0600289 0.482649
0.0617599 -0.0489169 0.547951
-0.000572416 -0.0275491 0.017983
-0.0389037 -0.0512444 0.187661
-0.0402289 -0.0203474 0.385629
-0.000559654 -0.0940096 0.0757727
-0.0558973 -0.0326073 0.65666
0.183264 -0.0649233 0.566368
0.0406528 -0.0405659 0.486975
0.0319863 -0.00855575 0.530255
-0.03855 -0.108888 0.414841
0.0402565 -0.0673992 0.460595
-0.0898469 -0.0700869 0.46021
0.372712 -0.0633456 0.413951
-0.00934383 -0.00740057 0.490082
0.0529195 -0.0401275 0.367465
-0.0124406 -0.0239853 0.159634
-0.0521576 -0.03443 0.0453955
-0.00463682 -0.007219 0.0532062
0.177712 -0.0618012 0.420568
-0.0587486 -0.0477653 0.447002
-0.0492909 -0.0869458 0.300391
0.0328011 -0.00665511 0.61455
-0.132972 -0.0647137 0.57435
0.206116 -0.0588568 0.501898
-0.0351736 -0.0976318 0.717569
0.0119614 -0.0809124 0.849963
0.0355755 -0.117774 0.620748
0.0200149 -0.0580475 0.311439
-0.00445876 -0.123457 0.431358
0.0453248 -0.104559 0.480069
-0.0528168 -0.0806096 0.667827
0.000564938 -0.12162 0.60505
-0.0448512 -0.0201197 0.494385
0.0532107 -0.0357293 0.638549
-0.123212 -0.0659395 0.404464
0.40976 -0.0668939 0.493873
-0.0552266 -0.0886804 0.464906
0.00401719 0.0637428 0.0637242
0.00196964 -0.00378621 0.792692
-0.00344225 0.00110919 0.561323
0.153977 -0.0681686 0.442044
0.0148037 -0.123234 0.668895
-0.0194956 -0.0450566 0.198527
0.0250961 -0.00641713 0.767758
0.0617589 -0.0683265 0.500123
0.0165881 -0.0142873 0.415086
0.025783 -0.00970406 0.638353
0.0617242 -0.0804544 0.566044
0.0566422 -0.0457256 0.392263
-0.0178959 -0.0335661 0.575201
-0.00184953 0.00138399 0.343288
0.0392018 -0.108348 0.417741
-0.438139 -0.0663706 0.465798
-0.00478644 0.0171016 0.0635549
-0.0426708 -0.0846138 0.733949
-0.0415748 -0.0722601 0.819229
0.152752 -0.0354765 0.0486624
-0.00729329 -0.0266302 0.0820486
0.0216808 -0.0532589 0.0797085
0.0509112 -0.0403795 0.0172553
0.335871 -0.0676861 0.513696
-0.299432 -0.0594151 0.481108
-0.0224663 -0.0884455 0.1276
-0.440106 -0.0599765 0.508008
-0.12128 -0.0700734 0.528504
-0.0509275 -0.0251211 0.677287
-0.0436334 -0.0259771 0.633982
-0.0344506 -0.0372579 0.350233
0.254918 -0.0647953 0.556151
0.0141115 -0.0127037 0.321088
-0.0754319 -0.0658778 0.579679
-0.221805 -0.062205 0.558569
-0.0341034 -0.051975 0.262276
-0.0483134 -0.0308321 0.708688
-0.225753 -0.0688689 0.524959
-0.0446861 -0.0590055 0.815883
-0.00918717 -0.0547116 0.297712
0.00814472 -0.0340981 0.0459987
0.419679 -0.0630099 0.422577
-0.246051 -0.0633532 0.403653
-0.386095 -0.0619781 0.434774
-0.0491454 -0.0926918 0.647856
-0.0827382 -0.0584575 0.485322
-0.0442288 -0.0446879 0.753033
0.227718 -0.059255 0.462119
-0.0343372 -0.0401715 0.317667
0.354303 -0.0647405 0.427508
0.398706 -0.0650645 0.439946
-0.00679814 -0.11929 0.729521
0.172109 -0.0689009 0.54589
0.0375307 -0.0921842 0.738274
0.0574421 -0.0740315 0.729171
-0.121017 -0.0365451 0.0329232
0.131439 -0.0585446 0.528501
0.0382302 -0.0161178 0.743172
-0.0264743 -0.0296885 0.805877
0.0117783 0.000834174 0.605645
0.0343252 -0.0357134 0.364994
-0.309913 -0.0618066 0.431124
0.312917 -0.0608301 0.445463
0.0601473 -0.0535051 0.465141
0.0395659 -0.0551008 0.7854
-0.000165488 -0.11855 0.676536
-0.00675877 -0.0384503 0.11504
-0.0408107 -0.104312 0.369581
0.0323799 -0.0688078 0.14019
-0.0156903 -0.0498851 0.238008
0.327906 -0.0675609 0.465849
0.0319752 -0.0374875 0.0224891
-0.0355918 -0.0358876 0.398907
0.0199629 -0.0524797 0.263152
0.0267806 -0.0781124 0.117564
0.13753 -0.0350296 0.0636206
0.0404593 -0.0325945 0.26566
-0.00526619 -0.000422668 0.508759
0.150405 -0.0585237 0.514315
-0.048128 -0.0668489 0.796376
0.0372177 -0.100061 0.762229
0.0936524 -0.067365 0.419896
-0.0481384 -0.0681819 0.731377
-0.0178118 -0.119319 0.712965
-0.219562 -0.0689259 0.491231
-0.140325 -0.0689348 0.552319
0.0266847 -0.0253676 0.477114
-0.0089863 -0.106904 0.795482
0.0548438 -0.0354321 0.478097
-0.324424 -0.0596445 0.527009
0.0144654 -0.0503785 0.551257
0.00536039 -0.119051 0.659525
-0.0586979 -0.0572508 0.397989
-0.178078 -0.0694961 0.507172
0.0523976 -0.0835752 0.74692
-0.0533907 -0.0467495 0.316716
0.0498541 -0.0510613 0.537206
-0.288707 -0.0637946 0.402382
-0.185432 -0.0676943 0.440686
-0.402392 -0.0668703 0.480523
0.0406677 -0.018412 0.426152
0.0144305 -0.0579134 0.459736
0.0911943 -0.044385 0.0733097
0.0402345 -0.0284801 0.292599
0.0379281 -0.115485 0.573968
0.0334974 -0.022917 0.618773
0.0627808 -0.0429424 0.617403
0.28549 -0.0596039 0.460959
-0.408405 -0.0653023 0.445076
-0.00552979 -0.0543884 0.369769
0.0950267 -0.0367248 0.030566
0.0327377 -0.064672 0.498058
0.301821 -0.0641609 0.409965
0.0263614 -0.119014 0.491275
0.192061 -0.0693427 0.506847
-0.0614432 -0.0674419 0.415381
-0.021154 -0.0571343 0.531572
0.0370618 -0.0123577 0.689317
-0.0191762 -0.0373505 0.866737
0.0465427 -0.0668638 0.563522
0.0650932 -0.0341753 0.0520188
0.000930495 0.00266039 0.441868
0.0549882 -0.0942589 0.546775
-0.0877331 -0.0703664 0.537773
0.307857 -0.0594247 0.484535
-0.0620938 -0.0610784 0.700563
-0.0397588 -0.0582392 0.322905
-0.0410983 -0.0670417 0.769241
0.106962 -0.0583465 0.513209
0.4622 -0.0641434 0.437727
0.0274495 -0.0345423 0.167462
0.118418 -0.0587613 0.465635
-0.322462 -0.0670063 0.454683
-0.0128815 -0.0114099 0.314019
-0.3942 -0.0669752 0.514787
-0.415338 -0.066628 0.467256
0.0792131 -0.0589888 0.555477
-0.0236894 -0.0230131 0.510703
-0.366318 -0.0598051 0.467535
0.0598205 -0.0425432 0.52292
-0.0604677 -0.0711462 0.470887
-0.0475356 -0.106014 0.57706
0.0538492 -0.0618431 0.293901
0.0335206 -0.114505 0.463679
-0.021697 -0.0768329 0.0860939
0.0517176 -0.0244976 0.564616
0.0260468 -0.0259542 0.340852
-0.0442419 -0.0495463 0.370709
-0.0109251 -0.0101537 0.62751
-0.0376869 -0.0899304 0.79646
-0.0298863 -0.0194465 0.28655
0.302492 -0.0594358 0.523982
-0.00134389 -0.0529622 0.438579
0.0244495 -0.0240864 0.825209
-0.200761 -0.062669 0.40989
0.0550839 -0.0801225 0.354356
0.0338479 -0.110953 0.366935
-0.0297452 -0.00925486 0.461604
-0.00269205 -0.0162681 0.208961
0.0438998 -0.101672 0.622046
0.00144931 0.0900068 0.0255617
-0.100159 -0.0348901 0.0440289
-0.0331587 -0.0606403 0.853375
-0.0309086 -0.00781612 0.535531
0.369825 -0.0597041 0.482628
-0.335034 -0.0631786 0.413332
-0.0461047 -0.0374629 0.608798
0.214006 -0.060496 0.442335
-0.0835857 -0.0415671 0.0271653
-0.0620145 -0.0769153 0.556953
0.00112163 -0.0479712 0.85642
0.0478195 -0.0494292 0.428093
0.0496861 -0.0229816 0.660911
0.432597 -0.0647128 0.440784
-0.00452178 -0.00163454 0.108324
0.0619111 -0.0814928 0.6418
0.176133 -0.0593644 0.455627
0.0173316 -0.0369086 0.123985
0.228465 -0.0642778 0.398841
0.00133768 -0.0885961 0.0347846
0.0176158 -0.0586536 0.489048
0.116417 -0.0597382 0.558251
-0.0267732 -0.0965481 0.77455
-0.037215 -0.0239179 0.784474
-0.0565249 -0.052216 0.68334
0.0255904 -0.0247326 0.390795
-0.464156 -0.0652627 0.522861
-0.0200388 -0.104806 0.213062
-0.0096549 -0.0626218 0.901908
0.000851185 -0.0103171 0.283879
0.0265925 -0.113705 0.344967
0.0555429 -0.0441806 0.742889
-0.047636 -0.0804662 0.708574
-0.146881 -0.0586671 0.493675
-0.37893 -0.0672332 0.494729
0.0594944 -0.0753867 0.459573
-0.0529968 -0.0541382 0.515739
0.00526064 -0.107492 0.186751
-0.0298073 -0.0811233 0.145634
2.41833e-05 0.0519435 0.0132179
0.0193908 -0.109958 0.710983
-0.150211 -0.0616353 0.420752
-0.002024 -0.0233718 0.0415136
-0.327558 -0.0676363 0.475123
0.00843791 -0.0317296 0.0757932
-0.0306732 -0.0319815 0.19923
0.00254596 0.0628877 0.0350705
0.0136642 -0.0332675 0.0944899
-0.0956805 -0.0690401 0.560725
-0.0269392 -0.0209252 0.255725
0.0240898 -0.0995289 0.769718
-0.292956 -0.0594963 0.529276
0.0402371 -0.106038 0.714148
0.0170057 -0.00398753 0.715856
0.436536 -0.0600301 0.477309
0.10209 -0.0587073 0.547903
0.00631785 -0.1166 0.28469
0.265305 -0.0658836 0.428478
-0.224434 -0.0664428 0.429417
0.00014962 -0.0483228 0.8858
-0.0181147 -0.00396778 0.711936
0.0345123 -0.0341967 0.213483
-0.102479 -0.0595758 0.446651
0.0115814 -0.0974955 0.124818
0.023508 -0.121942 0.542344
-0.0161982 -0.0176357 0.230291
-0.0454972 -0.0818552 0.254725
-0.157604 -0.036309 0.036121
-0.0374621 -0.10022 0.280844
-0.0394425 -0.0163488 0.715394
-0.134953 -0.0688503 0.44857
0.0463959 -0.0337832 0.0884325
-0.0270847 -0.00527057 0.653129
-0.00493539 -0.00413393 0.38586
-0.0434241 -0.0436481 0.243383
0.0308749 -0.00685052 0.571716
0.0135541 -0.0565991 0.328736
0.0886852 -0.0683872 0.569296
0.0222986 -0.0212982 0.369626
-0.117756 -0.069954 0.482077
0.164017 -0.065629 0.407106
-0.0437515 -0.108913 0.55409
0.245392 -0.0682223 0.537572
0.0927766 -0.0704265 0.508464
0.0288303 -0.114458 0.601724
0.0215287 -0.0605228 0.422547
-0.0359697 -0.0200517 0.335412
0.0529031 -0.0753957 0.686287
0.0628479 -0.0811824 0.609595
0.0732251 -0.0693149 0.444499
-0.0522186 -0.05496 0.289402
-0.00439521 0.00186014 0.599468
-0.0336137 -0.0428893 0.842745
-0.0423423 -0.0428289 0.451268
-0.0232417 -0.0360127 0.0327854
-0.0616418 -0.0737271 0.673684
-0.0747992 -0.0582707 0.531285
-0.153714 -0.0354153 0.0535348
0.183994 -0.0589891 0.472413
0.362439 -0.059765 0.521681
-0.0675362 -0.0683886 0.430122
-0.16637 -0.0680293 0.556562
-0.00983245 -0.119694 0.348917
-0.0256035 -0.121306 0.642583
-0.0539783 -0.0923989 0.613092
-0.247521 -0.0671481 0.443641
0.423573 -0.0603467 0.461336
0.0424454 -0.0492249 0.346011
0.0520815 -0.0239509 0.589538
-0.0321818 -0.0528131 0.143322
0.0260797 -0.0245594 0.451395
0.0547308 -0.0903443 0.474651
-0.0133752 -0.10099 0.814505
0.0184697 -0.0239672 0.555767
-0.0602495 -0.0546274 0.462131
-0.0128538 -0.0570758 0.0197467
0.0474341 -0.104726 0.654845
-0.0212478 -0.0581688 0.0706329
-0.0272137 -0.0453947 0.0853613
0.0352982 -0.0336768 0.0568234
0.0199462 -0.108359 0.240997
-0.0362296 -0.11645 0.634829
-0.0260156 -0.0768614 0.111773
0.0435379 -0.0465885 0.758223
-0.0451205 -0.0367268 0.0285186
0.00785287 0.00278088 0.651229
-0.41134 -0.0597859 0.495177
0.0267465 -0.0233382 0.2315
0.0121071 -0.0141657 0.252903
-0.206052 -0.0675589 0.553174
0.0551131 -0.0974968 0.604176
0.0387537 -0.0462005 0.323058
-0.0321097 -0.0396498 0.293115
-0.184625 -0.0692736 0.487425
-0.0500314 -0.0233683 0.548721
0.0548038 -0.0528425 0.326568
0.283658 -0.0595165 0.531934
0.124595 -0.0614194 0.421809
-0.0285411 -0.118555 0.51576
0.00844454 -0.0214339 0.168535
0.342564 -0.0598404 0.462133
-0.0181699 -0.0684327 0.882944
-0.0318783 -0.11582 0.480533
-0.046778 -0.06168 0.580618
-0.0478611 -0.0678761 0.561158
-0.0207162 -0.0197602 0.350651
0.332252 -0.0649611 0.426844
0.0244494 -0.0558645 0.295277
0.0218696 -0.004804 0.477053
0.262214 -0.0685377 0.500601
0.378439 -0.0596444 0.50814
0.0163288 -0.0688376 0.885638
0.224216 -0.0687426 0.473938
-0.0153802 -0.0171681 0.528994
-0.167394 -0.0641774 0.570728
0.0366431 -0.038466 0.826216
0.0513636 -0.0787057 0.764211
0.000883649 -0.0174474 0.077971
0.057914 -0.0618997 0.743703
0.0295859 -0.0288036 0.4956
-0.109531 -0.0583294 0.516873
-0.357479 -0.0618551 0.434248
0.0636514 -0.060943 0.66434
-0.0567675 -0.0780839 0.387264
-0.33925 -0.0594763 0.511924
0.000653564 -0.025751 0.577169
-0.183466 -0.0594862 0.545938
0.292651 -0.0622733 0.422996
-0.183098 -0.0658911 0.414227
0.0488488 -0.0244683 0.701335
-0.0116188 -0.0539204 0.517069
-0.0733167 -0.0598072 0.440965
0.016257 -0.0289884 0.851703
-0.342321 -0.0595932 0.481758
-0.0180563 -0.0567459 0.0520168
-0.0657082 -0.0584799 0.548126
-0.049422 -0.0324313 0.374919
-0.177151 -0.0369103 0.0325743
-0.0210578 -0.123438 0.551216
-0.0145688 -0.0436096 0.0636235
0.251842 -0.0606381 0.443326
0.447199 -0.0600644 0.511169
0.000504202 -0.0435075 0.539774
-0.310312 -0.0677682 0.4681
0.00849863 -0.115538 0.690572
0.384167 -0.066996 0.471329
-0.114957 -0.0665883 0.571927
-0.0578289 -0.0349718 0.583546
0.351436 -0.0637392 0.412539
-0.0035731 -0.0411038 0.0205572
-0.0433901 -0.0435571 0.495172
-0.0115888 -0.116155 0.289196
-0.0305223 -0.107293 0.675528
-0.0653302 -0.0655669 0.622686
-0.0569157 -0.0453806 0.729818
-0.0219447 -0.0507878 0.566027
0.0458804 -0.0950194 0.306576
0.053436 -0.0722928 0.485578
-0.00845222 -0.00747824 0.265004
-0.0402773 -0.067609 0.47639
0.00588088 -0.0211894 0.110765
-0.0169934 0.00183155 0.701088
-0.00325464 -0.0306627 0.127872
0.0687086 -0.0635829 0.386072
0.0467226 -0.0775151 0.789818
0.0137406 -0.123952 0.508207
0.0672485 -0.070504 0.544729
0.195084 -0.065815 0.415221
-0.0646633 -0.0340915 0.0570825
-0.16347 -0.069049 0.456422
-0.168064 -0.0586468 0.520204
0.0905742 -0.0586823 0.460446
0.0114723 -0.122647 0.443443
-0.00900182 -0.0543616 0.273162
-0.0231926 -0.117472 0.390665
-0.224641 -0.0686951 0.46838
0.013418 -0.0107048 0.447251
0.0386924 -0.065377 0.17706
0.00372278 0.080612 0.0625266
-0.0027416 -0.0529963 0.335392
0.0147017 0.00262883 0.687927
-0.00237403 -0.124465 0.457701
0.0531193 -0.0300042 0.511753
-0.00989097 -0.0283964 0.100646
0.0576533 -0.0859313 0.497079
-0.00182271 0.0252808 0.0288105
-0.0418376 -0.0644961 0.19946
0.00334818 0.0825446 0.0420196
0.0252091 -0.0451141 0.0952829
0.0228026 -0.0600636 0.352073
-0.0263938 -0.0316017 0.559371
0.393787 -0.0618636 0.53533
-0.447831 -0.0645633 0.441285
-0.0600361 -0.0421626 0.67291
0.187127 -0.0651873 0.404761
0.049327 -0.0592058 0.72826
0.0386136 -0.113188 0.529677
0.00518854 -0.0171959 0.136339
0.0346729 -0.0108089 0.498063
-0.0531545 -0.0886861 0.635574
-0.0462369 -0.0212891 0.650807
-0.0310696 -0.0941929 0.203421
0.0130563 -0.00156503 0.513446
0.200037 -0.0684385 0.544927
0.388245 -0.0606653 0.453897
-0.0837107 -0.042928 0.0369994
0.0481807 -0.0957933 0.637158
0.172062 -0.0586493 0.518547
-0.00414261 0.0517504 0.0580402
-0.00575229 -0.0028103 0.411499
-0.00123642 -0.043566 0.83455
-0.236851 -0.0669395 0.438763
0.259914 -0.0646895 0.410283
-0.077695 -0.0341685 0.0641645
0.225536 -0.066602 0.43191
-0.0289215 -0.052174 0.123595
-0.0614503 -0.0420298 0.0296049
-0.193318 -0.0425037 0.0395376
-0.0625614 -0.0791702 0.588518
-0.032809 -0.0865357 0.177885
-0.038522 -0.107977 0.394822
-0.0139787 -0.0341489 0.685147
-0.068606 -0.0655256 0.388945
-0.00643275 -0.0440365 0.181564
-0.165795 -0.0355424 0.0614554
-0.052247 -0.0466095 0.712251
-0.00158259 -0.0154317 0.614154
0.055476 -0.068104 0.423904
0.0131299 -0.00458272 0.399231
0.149508 -0.0422393 0.0347073
-0.216608 -0.0681004 0.451999
0.0128453 -0.0152178 0.53149
0.0133399 -0.0362956 0.0303385
-0.00512644 -0.0979141 0.112833
-0.388792 -0.0598684 0.471779
0.0286971 -0.0781842 0.848598
0.0452644 -0.0479477 0.554417
-0.252707 -0.0684652 0.529339
-0.0178846 -0.0350367 0.147429
0.0232538 -0.122936 0.572286
0.0153932 -0.0971004 0.799135
0.410736 -0.0666998 0.470112
-0.22272 -0.0606871 0.440276
0.170766 -0.0429486 0.0655686
-0.0352127 -0.0350218 0.509847
0.05161 -0.0529107 0.483435
-0.0324613 -0.00924123 0.745132
0.0296351 -0.0497862 0.244285
-0.158837 -0.0588565 0.475686
0.0152834 -0.11772 0.321131
-0.00387929 -0.105662 0.169795
0.0287967 -0.0599505 0.116806
-0.0246099 -0.0597789 0.329302
0.0419717 -0.0604519 0.202051
-0.0171098 -0.0591901 0.436159
0.0273444 -0.00423259 0.654671
-0.234746 -0.0688922 0.513659
0.0412707 -0.0179482 0.456085
0.356889 -0.0612111 0.443498
-0.0626463 -0.081827 0.624993
0.437538 -0.0657493 0.456625
-0.0371228 -0.0335552 0.0876075
-0.00850981 -0.00650265 0.767175
0.0248603 -0.113951 0.631612
-0.258055 -0.0593698 0.464033
-0.0832844 -0.0662957 0.402636
0.0156442 -0.00752578 0.359661
0.0304179 -0.0337753 0.186429
-0.11873 -0.0587492 0.467375
0.024719 -0.00971758 0.383779
-0.0337087 -0.117888 0.582607
0.0182979 -0.115106 0.748619
0.0129338 -0.00143713 0.673588
-0.139051 -0.0699681 0.513785
0.0122216 -0.0408788 0.0639834
-0.0225194 -0.0348243 0.209764
-0.0410182 -0.0946429 0.768169
-0.00260304 -0.00851161 0.548008
0.0490043 -0.0612875 0.25642
-0.385604 -0.0635266 0.415434
-0.00265945 0.0691158 0.0876051
-0.0166916 -0.0166498 0.294897
0.0176237 -0.0756789 0.0559922
0.00497326 0.0159668 0.0766566
0.0547219 -0.0608714 0.698425
-0.0575894 -0.0379224 0.525779
-0.00092829 -0.120235 0.327154
-0.0584208 -0.0436386 0.0949176
-0.279077 -0.0626123 0.417008
0.0556716 -0.0928635 0.656742
-0.0129263 -0.00455306 0.39923
-0.0530266 -0.0852098 0.356056
-0.294437 -0.064714 0.550545
-0.0410471 -0.111182 0.653
0.00581206 -0.038511 0.564886
-0.0281871 -0.00929117 0.43112
0.0266944 -0.101654 0.218403
-0.0610657 -0.0397184 0.610888
-0.423275 -0.0601869 0.519205
0.0528446 -0.0605205 0.386776
0.0105339 -0.0799406 0.0246066
-0.0396959 -0.0468175 0.782724
-0.057617 -0.0865176 0.506201
0.144542 -0.0676435 0.432809
-0.117596 -0.0585174 0.496886
-0.162652 -0.0623561 0.411343
-0.0259271 -0.036332 0.107648
0.0637732 -0.0665374 0.40272
-0.0271408 -0.0297411 0.542337
0.0498742 -0.0311799 0.393868
-0.0177896 -0.121842 0.451702
-0.311928 -0.0679691 0.49641
0.0388127 -0.0857823 0.755277
-0.0339178 -0.0751548 0.799002
-0.0364205 -0.0540718 0.168595
-0.107098 -0.0400609 0.0916155
0.00581415 -0.0297304 0.864348
-0.0674176 -0.0666062 0.40435
0.0633384 -0.0532107 0.579686
0.0230093 -0.0462418 0.210984
-0.101045 -0.0586384 0.471972
-0.234336 -0.0674201 0.548629
0.0195081 -0.0548656 0.852549
0.0263333 -0.0250858 0.428505
-0.0596993 -0.0544756 0.635106
0.0244247 -0.117212 0.399658
0.0212561 -0.0602075 0.40522
0.0693504 -0.0446381 0.0814036
-0.0510421 -0.0327141 0.401199
-0.019279 -0.00282578 0.501905
-0.113477 -0.0593399 0.554369
0.229494 -0.0686366 0.534899
0.459336 -0.0663469 0.492327
0.0978446 -0.0658549 0.398811
0.178143 -0.0694297 0.525547
-0.37361 -0.0597105 0.516093
-0.24718 -0.0686022 0.487887
0.0782278 -0.0706418 0.516049
0.015372 0.000687437 0.758516
0.449081 -0.0601674 0.466363
0.0273318 -0.0314711 0.805983
-0.0494075 -0.0608123 0.338423
0.0425857 -0.0139094 0.604446
0.0599603 -0.067013 0.715219
0.00392584 0.0310692 0.0470352
0.00350879 -0.0181469 0.186841
-0.0112694 -0.00930466 0.336693
-0.0316324 -0.111333 0.724592
0.00155816 0.12022 0.0264999
-0.0876344 -0.0678758 0.426224
0.0504516 -0.0487345 0.283384
0.0746705 -0.0672125 0.414377
-0.00306891 -0.10374 0.781222
-0.256294 -0.0686322 0.513925
-0.00757748 -0.0331607 0.0647042
0.0502067 -0.0386924 0.331698
0.00446674 -0.103822 0.156242
-0.179356 -0.0428818 0.0511914
0.0577341 -0.0580773 0.520876
-0.0372154 -0.0256046 0.619664
-0.0318114 -0.0511807 0.813064
-0.0211296 -0.0747452 0.850846
-0.0391764 -0.0651117 0.179912
0.0648914 -0.0696307 0.618336
-0.0321106 -0.0636524 0.380258
0.0606708 -0.0462466 0.678957
-0.192609 -0.042664 0.0594264
-0.0430744 -0.0566915 0.301886
0.0639295 -0.0608654 0.557757
-0.0356503 -0.105508 0.302282
0.0361322 -0.0181907 0.76499
-0.0165263 -0.0984088 0.150858
-0.00683275 0.00187233 0.616317
-0.0271443 -0.0335959 0.0545266
-0.0480525 -0.0705863 0.501734
0.0486327 -0.086071 0.291923
-0.338349 -0.0608128 0.447758
-0.341706 -0.0674171 0.524975
-0.0110155 -0.086325 0.0543115
-0.16762 -0.0675705 0.435786
0.0325906 -0.0188125 0.309383
0.00474988 -0.127193 0.578872
0.00182762 -0.114991 0.762671
-0.0414355 -0.0416246 0.46943
-0.0200046 -0.033371 0.0933963
0.0606995 -0.0786952 0.520233
-0.0522346 -0.0995595 0.545293
0.1458 -0.0631114 0.399081
0.0444277 -0.0229267 0.406576
-0.0356799 -0.10734 0.330891
0.14711 -0.0697431 0.495843
-0.0241088 -0.0985403 0.181869
0.123616 -0.034959 0.0730096
0.216347 -0.0589102 0.520416
-0.0258323 -0.0934722 0.819326
-0.0246272 -0.0233102 0.417207
0.277674 -0.0653103 0.422356
0.0272347 -0.0619702 0.383646
-0.00323836 0.09733 0.0692775
-0.0517515 -0.0594756 0.380949
0.136653 -0.0362213 0.0359
0.127902 -0.0635774 0.390912
-0.0216631 -0.0601418 0.49732
0.0549488 -0.031761 0.543346
0.336154 -0.0594206 0.500898
-0.00998122 -0.0232395 0.567283
0.0506314 -0.0469496 0.778841
-0.0502066 -0.087919 0.746753
0.087844 -0.0343797 0.0598349
-0.0616609 -0.0463452 0.656638
0.0307223 -0.0416641 0.257547
0.425465 -0.0602238 0.519289
0.0529232 -0.0448088 0.0593149
-0.281836 -0.0592594 0.491582
0.0161416 -0.0450868 0.0498378
-0.00203314 -0.0163698 0.80666
0.0256128 -0.110648 0.288103
0.000568522 -0.0345733 0.879362
-0.0330329 -0.00793999 0.571132
0.00451755 0.0374118 0.0839628
0.00434913 -0.0196893 0.0507128
0.0413218 -0.0920393 0.704946
-0.00486361 -0.049442 0.227437
0.00797218 -0.124023 0.475009
0.0435017 -0.0158375 0.576751
0.0115263 -0.0555066 0.502991
-0.0174823 -0.122783 0.486336
-0.0143458 -0.0517199 0.666952
0.00884661 -0.113795 0.259024
0.0255203 -0.0358075 0.240409
0.0174946 -0.111978 0.764347
0.271471 -0.0682173 0.47196
0.315824 -0.0597452 0.461358
0.112472 -0.0701926 0.505694
0.104575 -0.0690173 0.559071
0.0317789 -0.110421 0.731376
-0.0568584 -0.086461 0.48117
0.0154991 -0.0158102 0.285284
-0.0542144 -0.0353866 0.456754
0.0298987 -0.0434303 0.577807
-0.197235 -0.0691827 0.493297
0.00860253 -0.00813235 0.332743
0.017886 -0.0161709 0.485056
-0.189784 -0.0644958 0.395234
0.38078 -0.0643536 0.426543
-0.0573988 -0.0723067 0.656738
0.0188714 -0.0588669 0.364123
0.0472425 -0.100712 0.431036
0.00494834 0.00590335 0.0617201
-0.0253249 -0.108441 0.268691
0.0043186 0.0506015 0.0702807
-0.281773 -0.0607118 0.444668
-0.0383217 -0.0567265 0.839844
0.00258793 -0.0209501 0.840053
-0.0991739 -0.034545 0.059582
-0.0545244 -0.0844959 0.724951
0.211281 -0.0629598 0.406537
0.0312547 -0.0799217 0.149967
-0.0150395 -0.110281 0.236149
-0.00305845 -0.123219 0.413282
-0.0459965 -0.0627974 0.364303
-0.320505 -0.0593191 0.505423
0.0406279 -0.0559576 0.297069
-0.0968887 -0.065786 0.397648
-0.00907982 -0.0501466 0.871563
0.0369607 -0.0659693 0.436768
-0.0550557 -0.0549331 0.758668
-0.0470455 -0.0294056 0.753955
-0.038902 -0.015995 0.442667
-0.027621 -0.0124863 0.365768
-0.460836 -0.0601278 0.478123
0.0458483 -0.017493 0.63168
0.246579 -0.0650632 0.413354
-0.38262 -0.0658812 0.448937
-0.0394146 -0.0330012 0.255252
-0.160813 -0.0586426 0.504594
-0.0370865 -0.113856 0.666094
0.025132 -0.118127 0.439645
-0.0175406 -0.0259382 0.841971
0.0552639 -0.0818827 0.369431
0.0290966 -0.00515641 0.600403
0.060765 -0.0696496 0.472639
0.00228762 -0.0475763 0.69998
0.0531905 -0.0947311 0.682527
0.0337952 -0.0566677 0.150372
0.0466377 -0.034269 0.308552
0.0419405 -0.0209629 0.729851
-0.0582922 -0.0495704 0.420943
0.0357069 -0.0570649 0.312681
0.0123105 0.00337797 0.70231
0.0388496 -0.107696 0.609741
-0.13409 -0.06646 0.413884
-0.0109387 -0.0249472 0.144214
0.054474 -0.0876138 0.711498
-0.0116883 -0.0872506 0.857051
-0.0493319 -0.0449173 0.0630486
-0.15768 -0.0696838 0.524659
-0.0743312 -0.0703966 0.478708
-0.0103758 -0.00929345 0.78896
0.0192243 -0.0319911 0.137479
-0.0510865 -0.0671174 0.780198
-0.00911174 -0.00179583 0.476659
-0.0419338 -0.0202682 0.410112
0.00967095 -0.0895967 0.0655658
0.0359668 -0.0204767 0.329532
0.105953 -0.0688289 0.443195
-0.187827 -0.068678 0.455317
0.120465 -0.0689716 0.447792
0.39993 -0.0598078 0.485913
-0.0390903 -0.0517532 0.279328
-0.257922 -0.0612656 0.551338
0.082672 -0.041535 0.0268962
0.00286928 -0.0393009 0.668854
0.0451539 -0.10862 0.63468
0.0469313 -0.0241256 0.443802
-0.0420712 -0.105274 0.707406
-0.097355 -0.070269 0.494412
-0.0466417 -0.03302 0.320217
-0.0428182 -0.0437618 0.41925
0.00305641 0.11487 0.0568517
0.033958 -0.0451734 0.0654536
-0.0444185 -0.0735464 0.747054
0.120162 -0.0699655 0.486956
-0.13786 -0.0588078 0.542354
0.163983 -0.0586873 0.500551
-0.0245582 -0.106903 0.710103
0.0817023 -0.0679966 0.426934
-0.461821 -0.0618123 0.443254
0.0322118 -0.0322455 0.521843
0.00559319 -0.0536831 0.313112
0.0241612 -0.0229255 0.406275
0.298694 -0.0679661 0.477483
-0.0326969 -0.0643962 0.427511
-0.0795218 -0.0600779 0.567213
-0.0368968 -0.114926 0.537112
0.0861147 -0.0584722 0.542138
0.152183 -0.0696461 0.533607
-0.141107 -0.0635624 0.39219
-0.000134787 -0.0458912 0.525665
-0.0400289 -0.0435903 0.0400026
0.0153269 -0.0348877 0.108036
0.146036 -0.0695977 0.475427
-0.0619611 -0.063975 0.584103
-0.0523433 -0.0548416 0.557372
0.303803 -0.0680801 0.512682
0.394122 -0.0670686 0.50704
-0.11076 -0.0610519 0.426002
0.0541887 -0.0385085 0.405332
-0.0540272 -0.0331168 0.488099
-0.0301125 -0.0324633 0.334123
0.15109 -0.0587181 0.489387
-0.040437 -0.0473537 0.335034
-0.00239689 0.0042987 0.736871
0.22394 -0.0669745 0.554815
0.0552496 -0.0521676 0.754653
-0.130578 -0.0433005 0.0767297
0.0314733 -0.0679886 0.827762
0.00347492 0.00167164 0.585576
0.100257 -0.058414 0.500705
0.327373 -0.0609034 0.445566
-0.00717691 -0.0336648 0.0490894
0.0349979 -0.114191 0.478855
-0.000450508 0.0177269 0.0169187
0.00286928 -0.0596992 0.688032
0.103915 -0.0584579 0.533871
0.319734 -0.0639775 0.410444
0.176294 -0.0428006 0.0430713
0.054153 -0.080268 0.332329
-0.0119045 0.00292149 0.674748
-0.0451639 -0.0783491 0.241083
0.0479825 -0.0699447 0.445151
-0.00942054 -0.125536 0.543573
-0.0171348 -0.117127 0.654864
-0.020257 -0.0602029 0.46474
-0.0767379 -0.0582924 0.50346
-0.0529416 -0.0992442 0.563096
0.0648124 -0.0384924 0.0165682
0.301979 -0.0680573 0.493926
0.0400492 -0.108826 0.452196
0.28945 -0.0592887 0.492019
0.0195464 -0.0182751 0.49879
0.0513856 -0.0336511 0.734681
0.042886 -0.0622388 0.761075
0.00363632 0.000874065 0.766096
0.0563145 -0.0322987 0.579169
-0.350807 -0.0595447 0.492851
0.0624668 -0.045995 0.636585
-0.011308 -0.0896966 0.826533
-0.0030965 -0.0537344 0.383495
0.0448652 -0.0267482 0.363336
-0.376974 -0.0602787 0.458572
0.171935 -0.0588837 0.536209
-0.0498842 -0.0312327 0.689399
0.039191 -0.0695256 0.779697
0.251151 -0.0593636 0.461669
-0.397974 -0.0617369 0.534443
0.0285772 -0.0395018 0.0100051
0.139126 -0.0698862 0.52629
-0.352005 -0.0668397 0.457437
0.00331069 -0.109324 0.202088
-0.000675865 -0.123514 0.698
0.0162812 -0.0153644 0.304053
0.052236 -0.0564062 0.570574
0.221874 -0.0589536 0.498058
-0.0456645 -0.0971945 0.328336
-0.111381 -0.0346156 0.0687593
0.00637751 -0.126818 0.634787
0.431987 -0.0666897 0.498507
0.314679 -0.0677816 0.475929
0.13483 -0.059259 0.453829
-0.023851 -0.116313 0.608543
0.263268 -0.0683767 0.527273
0.359527 -0.06731 0.477546
0.0570484 -0.0666075 0.350398
0.0186275 -0.0252162 0.838674
0.00490879 -5.49085e-06 0.524436
0.0363299 -0.0332022 0.792593
0.0347275 -0.0383576 0.342663
0.165435 -0.0682592 0.445355
0.0367615 -0.0451453 0.087849
-0.040097 -0.0788971 0.205365
-0.0400003 -0.109521 0.68601
0.0592778 -0.0339108 0.0836914
-0.119579 -0.0594131 0.450377
0.0273336 -0.0327246 0.290793
-0.0302025 -0.0501348 0.247335
-0.145678 -0.0432394 0.0432228
-0.170459 -0.0589618 0.468458
-0.0411811 -0.106741 0.428584
-0.144259 -0.0697723 0.530857
0.0886655 -0.0701978 0.472964
0.101419 -0.0432626 0.0401382
0.292091 -0.068111 0.522101
-0.0615204 -0.0508296 0.528232
-0.183831 -0.0691929 0.536331
0.0149792 -0.0541807 0.871482
0.000475422 -0.000577796 0.699226
-0.025736 -0.05814 0.315798
-0.212769 -0.068874 0.474959
0.0464904 -0.0966535 0.339557
0.0288879 -0.11569 0.422757
0.00462255 -0.0517331 0.247143
0.0478105 -0.0771016 0.260183
-0.0265651 -0.112783 0.32242
0.00982655 -0.054923 0.297197
0.00166386 -0.0887098 0.85899
-0.124186 -0.0350995 0.0466904
0.116151 -0.0438337 0.0545053
-0.199205 -0.0692989 0.511172
0.192289 -0.0614252 0.427169
0.137581 -0.0589846 0.547082
-0.151479 -0.038928 0.0169516
0.0473419 -0.0523081 0.801074
0.0228148 -0.0123268 0.331399
0.0608351 -0.0813832 0.539964
-0.0591013 -0.0541972 0.609831
-0.220366 -0.0590701 0.482073
0.0948603 -0.0597111 0.561043
0.0781234 -0.0620383 0.57676
0.0211973 -0.0334699 0.0572095
-0.000387628 0.00281622 0.485816
-0.177259 -0.0588098 0.530025
0.0314407 -0.119136 0.585167
0.0264996 -0.0618153 0.509618
-0.0190225 -0.125433 0.59865
-0.026952 -0.00554868 0.759157
0.0820919 -0.0342405 0.0780676
0.00465103 0.0123914 0.100978
-0.290202 -0.0600372 0.455083
0.101281 -0.0591725 0.452379
-0.00828776 -0.024934 0.109729
0.23373 -0.0624194 0.416147
-0.0620171 -0.0445128 0.0484863
-0.150129 -0.0696401 0.486687
0.0419636 -0.107677 0.685272
-0.0167904 -0.0299941 0.176851
0.0101284 -0.014742 0.80503
-0.0277858 -0.0165028 0.7904
-0.0609386 -0.056405 0.476651
0.288604 -0.0641884 0.408054
0.00115373 0.00110322 0.260213
-0.404727 -0.0623182 0.431361
-0.00465963 -0.0708969 0.872595
0.186392 -0.0681431 0.447338
-0.00284799 0.0466727 0.0967916
0.0242635 -0.0180042 0.273083
0.0717809 -0.035098 0.0914159
-0.0100178 -0.058365 0.69998
-0.0430683 -0.0176594 0.512569
0.0840166 -0.0704231 0.536697
-0.0457773 -0.0468392 0.439063
-0.0301179 -0.0122115 0.38848
-0.0432847 -0.0459304 0.394862
-0.449271 -0.0660066 0.517979
0.0011491 0.0410127 0.0229683
0.0440089 -0.0445065 0.470291
-0.24503 -0.0589627 0.509827
-0.0021422 0.00137408 0.368231
0.019143 -0.0988727 0.81265
0.0418016 -0.0850143 0.237176
0.0178482 -0.0158652 0.470972
-0.0724544 -0.0703136 0.465277
-0.0461305 -0.0392277 0.791433
0.00455867 0.0274876 0.0926987
-0.0545018 -0.047261 0.339573
0.012428 -0.0482632 0.221923
-0.408174 -0.0604898 0.458032
0.0296578 -0.00567412 0.719189
0.0581929 -0.0645668 0.585772
0.0324891 -0.0532573 0.854254
-0.326653 -0.067814 0.496909
-0.274171 -0.0615233 0.43234
0.16925 -0.0637945 0.569694
0.00748176 -0.00553215 0.298321
0.0545322 -0.0899171 0.46149
-0.266668 -0.0682896 0.474613
-0.0151916 -0.0708196 0.0336148
-0.213599 -0.068955 0.530002
-0.0229864 -0.116774 0.371923
-0.247814 -0.0686963 0.50102
0.0249419 -0.0432165 0.179112
0.165551 -0.069208 0.459082
0.0827299 -0.0703745 0.48761
0.277433 -0.0674485 0.453207
-0.0627097 -0.0704593 0.545527
0.0231331 -0.0201016 0.245801
-0.134477 -0.0586473 0.489375
-0.404876 -0.0598331 0.512078
-0.17806 -0.0391812 0.0162058
0.113304 -0.0346641 0.0649408
-0.0130864 -0.0906492 0.0892209
0.0264365 -0.0463064 0.124291
0.219837 -0.0591766 0.535637
-0.0518104 -0.0785468 0.683482
-0.0714698 -0.0693329 0.562729
0.172782 -0.0695862 0.511459
-0.0958213 -0.0687389 0.440125
-0.0555721 -0.0408359 0.411354
0.0367126 -0.0649656 0.164179
0.00348892 -0.0487666 0.908111
0.0105582 -0.0871922 0.836227
0.340335 -0.0676185 0.490685
-0.278909 -0.0683561 0.500414
0.139906 -0.0585376 0.506649
-0.0370464 -0.0272285 0.798751
0.00230414 -0.000861692 0.470544
-0.128181 -0.0696685 0.459612
0.0142802 -0.115478 0.678954
0.0472071 -0.0988862 0.389657
0.0264845 -0.0626943 0.460041
0.0233883 -0.00476721 0.681279
0.411082 -0.066661 0.518937
-0.0217636 -0.119865 0.690619
0.0393054 -0.111896 0.665777
-0.142214 -0.0680227 0.437881
0.0516251 -0.0671231 0.777033
0.0104055 -0.0402074 0.150848
0.00518566 0.00303492 0.0765368
0.270107 -0.0591242 0.513791
-0.18268 -0.0588116 0.494763
-0.111972 -0.0665147 0.410812
0.317311 -0.0595755 0.525953
-0.0322174 -0.0315528 0.493227
0.453152 -0.0608973 0.522605
-0.064589 -0.0342322 0.0885827
0.0585855 -0.0898872 0.591092
0.342514 -0.067455 0.472552
0.037955 -0.0660405 0.411085
0.242706 -0.0686717 0.524536
-0.00180316 0.102088 0.0286271
0.0606814 -0.0657846 0.448633
0.366207 -0.0649365 0.432419
0.00354605 -0.127751 0.593234
-0.000724713 -0.00558121 0.15982
-0.286912 -0.0672901 0.538794
-0.0428534 -0.0450473 0.0867805
0.0217652 -0.108831 0.253722
-0.0559788 -0.091937 0.658715
-0.0542024 -0.0909191 0.698752
-0.0362471 -0.0949017 0.784703
0.00395129 0.0642041 0.07775
-0.122138 -0.0679789 0.433741
-0.122148 -0.0584329 0.523164
-0.16569 -0.0648279 0.395824
-0.30141 -0.0609289 0.443112
0.0375819 -0.0514588 0.26219
-0.00589988 -0.0387328 0.0783648
-0.210151 -0.0672521 0.438616
-0.0381396 -0.0111392 0.557149
-0.0486661 -0.0436071 0.284631
0.205039 -0.069222 0.509359
0.0956474 -0.0606475 0.430626
0.0216833 -0.123235 0.554946
9.72085e-05 0.0949712 0.0138435
0.12844 -0.0602961 0.562575
-0.0151449 -0.0149067 0.515679
-0.0222073 -0.0601185 0.372985
-0.0273966 -0.0437194 0.859302
0.00111794 -0.0384346 0.823085
0.0396085 -0.0415395 0.54492
-0.0230519 -0.0280079 0.27579
0.0508876 -0.0965087 0.451206
-0.0337118 -0.0210172 0.29881
-0.0286922 -0.0285864 0.362557
0.413317 -0.0621149 0.434987
0.0486834 -0.0339067 0.0542817
0.0170639 -0.0015712 0.661533
0.00574419 -0.00261357 0.419805
-0.0306436 -0.0334493 0.0673204
-0.00455364 0.0405482 0.0756452
-0.0573241 -0.0919793 0.58534
0.346408 -0.0595011 0.510725
-0.000502807 -0.0146461 0.0173775
-0.0404086 -0.0504926 0.200443
-0.22317 -0.0682969 0.541515
0.0150935 -0.11858 0.723814
-0.121366 -0.0438101 0.057808
-0.0592639 -0.0784216 0.703982
-0.424392 -0.0648896 0.530912
0.00713856 -0.101533 0.788388
0.125646 -0.0586889 0.479062
0.032359 -0.0325279 0.377087
0.0418281 -0.0427656 0.0341196
0.0228003 -0.0249191 0.535737
0.0201805 -0.0408188 0.159232
0.0164925 -0.0830364 0.861578
-0.120898 -0.0698601 0.542622
-0.0595916 -0.0428532 0.510123
0.00546948 -0.054288 0.363557
0.198081 -0.0605573 0.440169
0.131469 -0.0697334 0.47264
-0.0186474 -0.00546172 0.736579
-0.0128331 -0.0288269 0.132519
-0.0456387 -0.0214919 0.478813
-0.142995 -0.066885 0.56699
-0.385505 -0.0597472 0.485771
-0.45093 -0.066242 0.467017
-0.317761 -0.0646272 0.419487
-0.0496027 -0.0346285 0.0950276
-0.0300136 -0.0746794 0.823636
-0.102026 -0.0604028 0.567512
-0.312016 -0.059493 0.47797
0.0741218 -0.0705576 0.49934
-0.0279768 -0.112801 0.339198
-0.276055 -0.0593861 0.471898
0.144422 -0.0689241 0.45129
0.00966879 -0.0922239 0.0828553
-0.000194813 -0.0214231 0.158452
-0.0465946 -0.0939692 0.310578
-0.23055 -0.0627551 0.411043
-0.0286122 -0.0174996 0.626527
-0.0458417 -0.01703 0.607927
-0.010505 -0.110251 0.738032
-0.0604559 -0.0764039 0.499364
-0.098717 -0.0583662 0.506066
-0.0549374 -0.0809014 0.736949
0.089689 -0.0350141 0.042706
-0.230385 -0.0589182 0.507459
0.0326982 -0.0292043 0.817061
-0.0300628 -0.0463056 0.208714
0.024558 -0.0657428 0.0885327
-0.0381117 -0.0110012 0.652935
0.177958 -0.0643326 0.390811
-0.0564823 -0.0514442 0.368988
-0.0540607 -0.0301872 0.539091
0.000872952 -0.0434225 0.0114639
-0.0555339 -0.0298158 0.594648
-0.0501648 -0.0996915 0.683497
-0.0433078 -0.0465336 0.814218
0.0674037 -0.0587003 0.456474
0.0374365 -0.00937126 0.627431
-0.0403332 -0.0928304 0.707321
0.00286928 -0.0624562 0.673551
0.0576561 -0.0493126 0.728673
0.00785554 -0.100617 0.13626
0.160914 -0.0415012 0.0298398
0.0290447 -0.0429202 0.0347148
-0.0381876 -0.00985609 0.597861
-0.00144834 -0.123018 0.399225
0.0326911 -0.117703 0.557577
0.349879 -0.0596463 0.479048
-0.0004493 0.000590827 0.119823
0.0214114 -0.0194483 0.438392
0.111494 -0.0586403 0.477525
-0.0323495 -0.100572 0.251489
-0.0143458 -0.0436308 0.677195
-0.0274766 -0.115881 0.405189
0.0224867 -0.120653 0.479648
0.377564 -0.0672766 0.498461
0.00342824 -0.00300305 0.236369
-0.212447 -0.0589539 0.492793
-0.0111874 -0.0168193 0.217903
0.27108 -0.0665803 0.439552
0.0161907 -0.0244324 0.217223
-0.0747298 -0.070587 0.532085
0.187629 -0.0677378 0.555175
0.00530925 -0.0103565 0.068894
-0.0282662 -0.0647392 0.111418
0.0202622 -0.0567822 0.0662313
-0.0124451 -0.118674 0.643575
-0.0771224 -0.0445972 0.0763904
-0.0420956 -0.080085 0.223973
-0.167783 -0.0594552 0.547846
-0.0270995 -0.0139152 0.773555
0.461967 -0.0602503 0.465814
0.036611 -0.0111213 0.674815
0.382236 -0.0642978 0.538729
-0.28256 -0.0591731 0.512194
-0.0226785 -0.114982 0.732162
-0.0550995 -0.0381428 0.44031
-0.0161133 -0.0971117 0.797464
-0.112261 -0.0655835 0.397407
-0.0212637 -0.0350168 0.191706
-0.0214787 -0.0665294 0.859939
0.213606 -0.0639918 0.392113
-0.00851002 -0.0316965 0.868868
0.0631001 -0.0707128 0.533198
0.036048 -0.0361635 0.417455
0.00482977 0.00129954 0.639449
-0.123585 -0.0348828 0.0696965
0.0531846 -0.0847873 0.734763
-0.0666923 -0.0694061 0.444676
-0.0457878 -0.0785052 0.791938
0.224101 -0.0676589 0.44693
0.046308 -0.0613217 0.347914
-0.0376024 -0.0339584 0.0482088
-0.0564946 -0.0948212 0.624792
0.0489599 -0.0249849 0.475807
-0.0238765 -0.0610784 0.403421
-0.0102396 -0.056387 0.44989
0.0401437 -0.030544 0.27768
0.356414 -0.0670238 0.460867
0.0343238 -0.0115545 0.464447
-0.0001073 -0.0127427 0.250086
0.010149 -0.0310416 0.812661
-0.0642529 -0.0590263 0.451512
0.0110393 -0.00199667 0.48184
0.0648741 -0.0707548 0.512013
0.0143035 -0.0120419 0.38961
-0.194278 -0.059095 0.464353
0.0435322 -0.0874488 0.78076
-0.269575 -0.0599534 0.538668
0.0231468 -0.110905 0.679478
-0.11147 -0.0701885 0.503744
-0.13185 -0.0350196 0.0590041
-0.322455 -0.0596174 0.467584
-0.0903049 -0.0584433 0.538979
0.103503 -0.0620873 0.410467
0.000180489 -0.0327966 0.0869524
-0.442588 -0.0599121 0.496155
-0.314182 -0.0664971 0.44588
0.109791 -0.0377206 0.0239745
-0.150997 -0.0698189 0.511149
-0.020623 -0.0551293 0.543471
0.0569806 -0.0522349 0.377014
0.0220489 -0.0212511 0.351358
0.0663923 -0.0581789 0.512472
0.143932 -0.069868 0.50762
0.00198657 -0.0163176 0.0302366
-0.374451 -0.0595693 0.502885
0.0734806 -0.0444536 0.0552626
0.0298691 -0.0730099 0.128036
-0.0156135 -0.000953105 0.555769
0.0235596 -0.0602158 0.340756
0.0244019 -0.0525363 0.83186
-0.0990193 -0.070048 0.468009
0.0554383 -0.0290963 0.626978
0.0228761 -0.119729 0.454501
0.209268 -0.0689167 0.475598
-0.251171 -0.0612154 0.434936
-0.0437352 -0.109477 0.641055
-0.369082 -0.0621272 0.431253
0.0303238 -0.102572 0.722437
-0.00368215 -0.000834031 0.33119
-0.00333638 0.0914627 0.0463913
0.180503 -0.0359916 0.0656647
-0.0846586 -0.0702388 0.472669
-0.0345668 -0.0129479 0.418013
-0.106956 -0.0693192 0.55529
0.00556379 -0.0958535 0.0964499
-0.0144787 -0.1028 0.7778
-0.00452476 -0.0024813 0.276652
0.0013412 -0.0457289 0.0713536
0.0551395 -0.0368336 0.0281555
-0.04279 -0.0185797 0.683059
0.413472 -0.066171 0.458513
0.286385 -0.0594229 0.472845
0.0308852 -0.00694171 0.740084
-0.00243499 -0.0522179 0.28287
0.259999 -0.0684214 0.482365
-0.105335 -0.0703555 0.516859
-0.0490177 -0.074519 0.718789
-0.00840141 -0.0512065 0.905026
0.171582 -0.0600593 0.553832
0.0437056 -0.0690696 0.499431
0.102643 -0.0366033 0.0899113
0.251831 -0.0677634 0.453283
-0.017862 -0.0450722 0.0498022
0.0648206 -0.0705744 0.488478
-0.273651 -0.0684584 0.511056
0.0525387 -0.0996899 0.557042
-0.000870618 -0.0236244 0.144422
-0.0203051 -0.113269 0.674688
-0.0102162 -0.0770853 0.881052
0.214626 -0.0591745 0.465311
0.00838134 0.000310976 0.561095
-0.0874534 -0.0618367 0.412795
-0.0911407 -0.0387016 0.0161295
0.203543 -0.0690815 0.488993
0.0421332 -0.0585029 0.32272
0.0175016 -0.00550758 0.783081
-0.00294578 -0.0369557 0.0385548
0.266771 -0.0606639 0.546757
0.130749 -0.043678 0.0694534
0.0406971 -0.043 0.773822
0.0197255 -0.0411682 0.0216812
0.0502579 -0.0337823 0.377062
-0.0512384 -0.0399018 0.761241
0.0296058 -0.114421 0.707094
-0.145872 -0.035166 0.0625189
-0.00759344 -0.00691528 0.3494
0.0356765 -0.0984421 0.773809
0.0537607 -0.0368972 0.676999
0.00301967 -0.121308 0.362654
-0.211217 -0.0687956 0.462636
-0.0304696 -0.120283 0.622003
-0.107897 -0.0350264 0.0810095
-0.0786691 -0.0605605 0.430517
0.0157189 -0.0287311 0.569782
0.120015 -0.0663813 0.410288
-0.0304012 -0.00816497 0.679125
-0.0141333 -0.0575185 0.881382
0.0138068 -0.0425899 0.173612
-0.00613595 -0.0543145 0.34789
-0.0247332 -0.0976103 0.807121
0.092319 -0.0435183 0.0861661
-0.00507704 0.00846381 0.0750759
0.232617 -0.0589641 0.502688
-0.0466651 -0.0203057 0.667517
-0.0433261 -0.105086 0.442315
0.170564 -0.0384126 0.0763333
0.0966684 -0.0442417 0.0629903
-0.149763 -0.0400724 0.0815319
-0.0530091 -0.0545213 0.54252
-0.0389057 -0.034845 0.780715
-0.0451763 -0.0230157 0.700599
-0.018669 -0.0227971 0.263745
0.184625 -0.0589012 0.533454
-0.0471688 -0.0982774 0.377283
0.419628 -0.0597945 0.498696
0.0241557 -0.116086 0.370906
-0.0610257 -0.0447548 0.0836098
-0.0500411 -0.034078 0.628594
-0.310917 -0.0673026 0.533525
0.00516199 -0.00427931 0.505311
-0.0366944 -0.0137858 0.726409
0.0264987 -0.0418523 0.20079
-0.0277968 -0.00625134 0.666322
0.0402371 -0.034665 0.254218
-0.0784886 -0.0704353 0.489568
