-0.360104 -0.0256909 0.458585 -0.142738 0.71561 0.68376
-0.0518387 -0.035443 0.766545 -0.88954 0.456857 0
-0.0152981 -0.136314 0.354461 -0.375041 -0.927005 -0.00232344
-0.355001 -0.0502845 0.393141 -0.636855 0.758888 -0.136033
-0.0432031 -0.120912 0.419379 -0.685271 -0.728286 -0.00182752
0.116465 -0.0904807 0.450788 0.857969 -0.495366 -0.136018
-0.161698 -0.0267853 0.445099 0.00666648 0.999468 -0.0319362
-0.0185592 0.000524886 0.340332 -0.378685 0.925522 -0.00255287
-0.0460946 -0.0557417 0.869163 -0.936636 0.146915 0.318008
0.00959739 0.102456 0.0957723 0.999883 0.0136414 -0.00692126
0.294914 -0.0533728 0.372723 0 0 -1
-0.0451337 -0.0230748 0.325434 -0.889542 0.456848 -0.00236884
-0.272528 -0.0744955 0.432734 0.975654 0.172032 -0.136032
-0.0399091 -0.103283 0.591234 -0.686145 -0.727465 0
-0.0611046 -0.055541 0.491915 0.864696 0.499224 0.0554691
-0.0539499 -0.045938 0.57922 -0.987922 0.154954 0
-0.116368 -0.0565602 0.494143 -0.864688 0.499236 0.0554799
0.0543065 -0.0689178 0.854843 0.943365 -0.147967 0.29693
-0.00115276 0.108752 0.0494107 0 -0.239101 -0.970995
0.0333338 -0.00525032 0.357512 0.686172 0.727436 -0.0024613
0.0329596 -0.00455763 0.696077 0.686172 0.727439 0
0.0480291 -0.0975539 0.716413 0.889527 -0.456882 0
-0.113086 -0.0258882 0.483322 0.00666648 0.999468 -0.0319362
0.0528489 -0.0350033 0.189001 0.888919 0.456537 -0.0373666
-0.00649453 0.0725536 0.13167 -0.999903 0.0121014 -0.00685812
-0.00384286 -0.0561998 0.933117 -0.250165 0.611438 0.750707
-0.3836 -0.0934115 0.471533 -0.975652 -0.172058 -0.136011
-0.33443 -0.0526265 0.586131 0.340075 -0.934325 0.106705
0.335679 -0.087868 0.534681 -0.218016 0.0384366 0.975188
0.275809 -0.0485259 0.478726 -0.636765 0.758965 -0.136024
0.0758279 -0.0283759 0.405404 0.000937179 0.99949 -0.0319244
0.0420809 -0.103043 0.203885 0.698381 -0.714518 -0.0415561
-0.115507 -0.0938003 0.478859 -0.857977 -0.495353 -0.136019
0.0612848 -0.0972538 0.100707 -0.0121308 -0.999526 -0.0282858
0.0196266 -0.136389 0.480385 0.377697 -0.925929 -0.000573198
-0.00743582 0.0156314 0.168467 -0.999903 0.0121014 -0.00685812
0.287233 -0.130686 0.445295 -0.636819 -0.758918 -0.13603
0.400863 -0.0276978 0.380855 -0.00552339 0.999202 -0.0395627
-0.0072327 0.0425128 0.186285 -0.999903 0.0121014 -0.00685812
-0.308465 -0.0292816 0.49309 0.341514 0.938238 0.0554721
-0.0352186 -0.0103387 0.607042 -0.686178 0.727434 -5.80749e-07
0.123686 -0.072508 0.47522 0.97566 0.172005 -0.136023
0.0264482 -0.000795159 0.53317 0.378687 0.925525 0
0.393302 -0.0261361 0.421353 -0.00552339 0.999202 -0.0395627
-0.0395079 -0.0144555 0.437005 -0.686174 0.727433 -0.00246161
-0.114887 -0.0954342 0.0493437 -0.640126 -0.612168 0.464208
0.342165 -0.0252539 0.455354 -0.00666651 0.999468 -0.0319363
0.296181 -0.0734344 0.53846 0.191736 -0.110696 0.975184
0.0657055 -0.0801704 0.0855522 0.0813254 0.996621 0.0114886
-0.380709 -0.0272826 0.394154 0.00552336 0.999202 -0.0395627
0.0852096 -0.0944196 0.541345 0.339991 0.934355 0.10671
0.00846262 0.0478246 0.0644137 0 -0.239101 -0.970995
0.0404643 -0.126737 0.318977 0.68527 -0.728285 -0.00257173
0.337023 -0.133013 0.387845 0.338849 -0.930955 -0.136028
-0.397034 -0.0373119 0.358742 -0.00552367 -0.999202 0.0395627
0.0193195 -0.120167 0.600176 0.378703 -0.925518 0
0.326164 -0.034675 0.428818 0 0.990706 -0.136023
-0.325765 -0.0581107 0.372723 0 0 -1
-0.0860272 -0.105992 0.462374 0 -0.990707 -0.136015
-0.0138511 -0.120821 0.658484 -0.378705 -0.925517 0
0.0544339 -0.0329613 0.736767 0.889538 0.456861 0
-0.0628064 -0.0865967 0.341053 -0.456932 0.889501 -7.11585e-05
0.0295168 -0.131845 0.245603 0.375042 -0.927006 -0.00202844
0.27878 -0.0494025 0.549578 -0.641781 0.764879 0.0554683
0.320788 -0.0360216 0.594195 0 0.976476 0.215625
-0.0275441 -0.114945 0.715398 -0.686145 -0.727465 0
0.313863 -0.148633 0.488014 0 -0.998461 0.0554655
-0.313487 -0.0575278 0.547815 -0.340082 -0.934323 0.1067
-0.0163982 -0.017367 0.879306 -0.279379 0.682808 0.675071
-0.373996 -0.0568339 0.465691 -0.858 0.495309 -0.136033
0.100704 -0.036081 0.43783 -0.000937179 -0.99949 0.0319244
-0.106685 -0.103136 0.517924 -0.641861 -0.764813 0.0554578
0.0557661 -0.0653066 0.167244 0.987264 -0.154849 -0.036495
-0.0621656 -0.0959632 0.444632 -0.885444 -0.46474 -0.00236772
0.0722933 -0.0256471 0.52482 0.239044 0.708011 0.664513
-0.00541952 0.131686 0.0828862 -0.999848 0.00714199 -0.0159057
-0.324662 -0.0312488 0.564785 0 0.99846 0.0554735
0.0164086 -0.0319223 0.00208696 0.590659 0.626178 -0.508944
0.0106957 0.036943 0.126196 0.999883 0.0136363 -0.0068893
0.340839 -0.0283534 0.372676 -0.00552339 0.999202 -0.0395627
-0.348952 -0.0348498 0.42764 -0.00552367 -0.999202 0.0395627
-0.0552932 -0.0635433 0.730194 -0.987921 -0.154957 0
-0.267787 -0.0874059 0.573111 0.983304 0.173319 0.0554483
-0.316076 -0.125243 0.372723 0 0 -1
-0.279672 -0.128176 0.505492 0.641782 -0.764878 0.0554632
0.318106 -0.126291 0.605576 0 0.99429 0.106713
-0.0527004 -0.0471572 0.837461 -0.979123 0.153573 0.133169
-0.279399 -0.116307 0.586605 0.845678 -0.488206 0.215599
-0.321818 -0.0767923 0.551407 0.342017 0.939694 0
0.0214863 0.00123505 0.658718 0.378687 0.925525 0
-0.291944 -0.137059 0.46987 0.63682 -0.758921 -0.13601
0.325705 -0.0986326 0.56834 0.341857 -0.939752 0
0.0582589 -0.0684829 0.402685 0.987918 -0.154961 -0.00231303
-0.243915 -0.0338476 0.479738 -0.00666679 -0.999468 0.0319362
-0.0553699 -0.0552555 0.44024 -0.987919 0.154954 -0.00231297
0.0160222 -0.108267 0.47363 -0.982863 0.173319 0.0627749
-0.0923717 -0.0709471 0.540102 -0.643032 0.765839 0
0.0588604 -0.109439 0.415434 0.885445 -0.464736 -0.00287767
-0.039191 -0.10396 0.820943 -0.686145 -0.727465 0
-0.269706 -0.110311 0.523379 0.864712 -0.499195 0.0554777
-0.0442408 -0.0215111 0.2917 -0.889542 0.456848 -0.00236884
0.0261308 -0.133761 0.565861 0.374663 -0.927161 6.7296e-06
0.0315549 -0.110178 0.152156 0.693509 -0.719132 -0.0435252
0.347601 -0.141535 0.518451 0.341493 -0.938246 0.0554774
-0.0538723 -0.0977432 0.130091 -0.456249 -0.829014 0.323377
0.0173821 -0.00289167 0.118336 0.378379 0.924774 -0.0402724
0.0232159 0.000326903 0.385274 0.37869 0.92552 -0.00255286
0.0562446 -0.0795665 0.284911 0.987918 -0.154961 -0.00231303
0.099417 -0.0960667 0.0424029 -0.0121308 -0.999526 -0.0282858
0.220789 -0.0273752 0.414305 -0.00666651 0.999468 -0.0319363
-0.0454443 -0.0286304 0.182773 -0.888919 0.456537 -0.0373666
-0.031088 -0.0962013 0.467327 0 0.981098 -0.193511
-0.302347 -0.0361702 0.400798 -0.00552367 -0.999202 0.0395627
0.0425608 -0.104431 0.666781 0.686177 -0.727435 0
-0.122547 -0.0355294 0.45244 -0.00666679 -0.999468 0.0319362
0.0204944 -0.112939 0.090642 0.378244 -0.924598 -0.0452699
0.260223 -0.0257522 0.456865 -0.00666651 0.999468 -0.0319363
0.0448311 -0.0157558 0.462626 0.686178 0.727434 0
0.0575214 -0.044893 0.400549 0.987918 0.154963 -0.00231338
0.0573818 -0.0748988 0.514546 0.987921 -0.154957 0
-0.185918 -0.0326101 0.38538 0.138319 0 -0.990388
-0.0535453 -0.0721277 0.286491 -0.987918 -0.154963 -0.00231393
-0.00249644 -0.00233645 0.0694946 0 0.999164 -0.0408901
-0.0309893 -0.127476 0.21601 0.00119411 0.00295102 -0.999995
-0.270815 -0.0594989 0.488399 0.864658 0.499288 0.0554811
0.336881 -0.120606 0.580603 -0.340074 0.934325 0.106706
0.0557266 -0.0355434 0.445403 0.889539 0.456854 -0.00236865
0.0448165 -0.015742 0.492408 0.686172 0.727439 -1.25586e-06
-0.221906 -0.0261682 0.451844 0.00666648 0.999468 -0.0319362
0.269699 -0.110791 0.55583 -0.864691 -0.499232 0.0554678
-0.382125 -0.100389 0.525245 -0.983304 -0.173318 0.0554487
-0.251227 -0.0358727 0.415448 -0.00552367 -0.999202 0.0395627
0.1283 -0.0343067 0.489504 0.00666683 -0.999468 0.0319362
-0.0567502 -0.0888363 0.491877 0.864699 -0.499217 0.0554798
0.00906532 0.00511828 0.637557 0 1 0
-0.375975 -0.0855594 0.412592 -0.975656 0.172033 -0.136012
0.327842 -0.030415 0.549776 0 0.99846 0.0554735
0.122209 -0.0279346 0.417375 -0.00666651 0.999468 -0.0319363
0.0558868 -0.0384131 0.832401 0.979121 0.153582 0.133169
-0.0854428 -0.0258219 0.490121 0.00943296 0.999612 -0.0262228
0.0199423 -0.000675839 0.839214 0.371985 0.909157 0.187247
0.264561 -0.106879 0.480195 -0.975667 -0.17197 -0.136013
0.359954 -0.0353591 0.413239 0.00552371 -0.999202 0.0395627
0.0511602 -0.0273918 0.302727 0.88954 0.456852 -0.00236845
0.0547274 -0.113277 0.261249 0.679965 -0.733243 -0.00180175
0.424405 -0.0275443 0.381444 -0.00552339 0.999202 -0.0395627
-0.0555438 -0.0610606 0.398651 -0.987919 -0.154952 -0.00231291
0.0495142 -0.0233823 0.610096 0.889538 0.456861 0
0.0843532 -0.101768 0.439333 -0.338829 -0.930964 -0.136015
-0.323036 -0.0346089 0.439395 -0.00666679 -0.999468 0.0319362
0.29983 -0.14046 0.553873 -0.341493 -0.938246 0.0554687
-0.0245388 -0.00182587 0.37508 -0.378685 0.925522 -0.00255287
-0.298157 -0.0346111 0.471986 0.338862 0.930952 -0.136017
-0.0449168 -0.0219655 0.741413 -0.88954 0.456857 0
-0.0339623 -0.128962 0.48363 -0.374665 -0.92716 -0.000584288
0.0497905 -0.0239201 0.802619 0.889538 0.456861 0
-0.1393 -0.0344639 0.482289 -0.00666679 -0.999468 0.0319362
0.0703128 -0.0271614 0.4445 -0.00943302 0.999612 -0.0262228
0.315055 -0.0791083 0.55342 -0.642732 0.766091 0
-0.0990986 -0.0692487 0.51962 0.191729 -0.110687 0.975186
-0.0390036 -0.0148325 0.234366 -0.685657 0.726889 -0.0388333
0.265637 -0.036458 0.398654 0.00552371 -0.999202 0.0395627
0.353269 -0.0360619 0.511212 0.641781 0.764878 0.055486
-0.0669794 -0.0345558 0.496135 -0.00943296 -0.999612 0.0262228
-0.0591719 -0.10072 0.277318 -0.883254 -0.468886 -0.00286493
-0.271107 -0.0347096 0.447084 -0.00666679 -0.999468 0.0319362
0.180127 -0.0250832 0.494521 -0.00666651 0.999468 -0.0319363
-0.0314825 -0.0428376 0.889903 -0.746929 0.38361 0.543084
0.368371 -0.122242 0.45772 0.857975 -0.495355 -0.136022
-0.0180034 -0.135458 0.545135 -0.377698 -0.925929 6.71829e-06
-0.044179 -0.028693 0.151909 -0.88892 0.456536 -0.0373657
0.269633 -0.112731 0.537342 -0.864691 -0.499232 0.0554678
-0.278212 -0.0802114 0.384741 0.975654 0.172032 -0.136032
-0.0547067 -0.0653663 0.329553 -0.987919 -0.154952 -0.00231291
0.206018 -0.0368451 0.397201 0.00552371 -0.999202 0.0395627
-0.335994 -0.144166 0.559963 -0.341493 -0.938247 0.0554611
0.0606995 -0.0964473 0.0724592 -0.0121308 -0.999526 -0.0282858
0.0438451 -0.026976 0.0728832 0.888916 0.456544 -0.0373655
0.306292 -0.0253659 0.459339 -0.00666651 0.999468 -0.0319363
0.11261 -0.0837914 0.067651 0.0813254 0.996621 0.0114886
-0.265535 -0.0931971 0.472874 0.975665 -0.17197 -0.136029
-0.00989527 0.00439429 0.778178 -0.378686 0.925525 0
0.0583635 -0.109717 0.309272 0.794925 -0.606703 -0.00238275
0.277971 -0.0806591 0.603269 -0.454117 0.0800658 0.887337
-0.0532012 -0.0768805 0.531491 -0.987921 -0.154957 0
0.373991 -0.0658613 0.576358 0.845648 0.48824 0.215642
0.253121 -0.0371892 0.381934 0.00552371 -0.999202 0.0395627
0.0594905 -0.0614553 0.473657 0.987921 -0.154957 0
-0.325099 -0.0873312 0.372723 0 0 -1
0.360113 -0.0432633 0.467315 0.636853 0.758891 -0.136021
0.0113365 0.0271238 0.198537 0.999883 0.0136414 -0.00692126
0.0485019 -0.0214111 0.699351 0.889538 0.456861 0
-0.0930142 -0.0354703 0.456723 0.000937173 -0.99949 0.0319244
-0.0907133 -0.0276752 0.427778 -0.000937173 0.99949 -0.0319244
-0.015692 0.00142766 0.242308 -0.378685 0.925522 -0.00255287
-0.355226 -0.131473 0.428446 -0.63687 -0.758876 -0.136025
0.0653336 -0.106329 0.559786 0.549763 -0.835307 -0.0047019
0.0389251 -0.128429 0.460732 0.538221 -0.842804 5.1957e-05
-0.138107 -0.0276951 0.42155 0.00666648 0.999468 -0.0319362
0.0772585 -0.0665605 0.52082 0.861097 -0.497116 0.106711
-0.0842952 -0.0916294 0.0963261 -0.672931 -0.54762 0.497268
-0.0511992 -0.0352793 0.249345 -0.889538 0.456856 -0.00236801
0.274958 -0.0586414 0.576946 -0.845638 0.488233 0.215697
0.00405345 0.0047784 0.326828 0 0.999997 -0.00259222
0.112024 -0.0520179 0.541085 0.62766 0.748019 0.215663
-0.326258 -0.148544 0.489621 0 -0.998461 0.0554655
0.0592422 -0.0609443 0.317658 0.987918 -0.154958 -0.00231338
0.118674 -0.0747155 0.555945 0.454134 0.0800953 0.887326
-0.268572 -0.0723546 0.463815 0.975666 0.171973 -0.136022
-0.303055 -0.0467832 0.376476 0.338794 0.930975 -0.136029
-0.368705 -0.0477421 0.521026 -0.641831 0.764836 0.0554834
0.119573 -0.0959507 0.0322267 0.00361984 -0.99982 -0.0186308
0.0475873 -0.120177 0.359309 0.68527 -0.728285 -0.00257173
-0.045601 -0.118742 0.559652 -0.678899 -0.734231 -0.000945595
0.0205987 -0.00698989 0.0544549 0.378378 0.924775 -0.0402742
0.120806 -0.0927539 0.502813 0.864692 -0.499229 0.0554696
-0.00881055 -0.0671358 0.0034874 -0.365776 -0.560758 -0.742805
-0.00616217 0.00511828 0.472068 0 1 0
-0.0214636 -0.133959 0.418566 -0.377687 -0.925931 -0.00203393
0.291939 -0.0383256 0.549098 -0.641815 0.76485 0.0554785
-0.0548636 -0.0517632 0.659302 -0.987922 0.154954 0
0.26815 -0.0703094 0.452467 -0.975666 0.171972 -0.136022
0.0308764 -0.131648 0.40307 0.377688 -0.92593 -0.00232188
0.056812 -0.0785314 0.784913 0.98792 -0.154962 0
-0.356449 -0.1402 0.492894 -0.641832 -0.764836 0.0554763
-0.314492 -0.0297544 0.537886 0 0.99846 0.0554735
-0.338649 -0.028628 0.366047 0.00552336 0.999202 -0.0395627
0.290412 -0.138246 0.518283 -0.641781 -0.764879 0.0554772
-0.380015 -0.0892647 0.440564 -0.975652 -0.172058 -0.136011
-0.345943 -0.0498451 0.372723 0 0 -1
0.274594 -0.0803136 0.393591 -0.975656 0.172035 -0.136012
-0.0686516 -0.0675873 0.55731 -0.861086 -0.497136 0.106707
0.29284 -0.0277669 0.394191 -0.00552339 0.999202 -0.0395627
0.000919057 -0.123164 0.695969 0 -1 0
-0.0338836 -0.106694 0.844647 -0.683226 -0.724322 0.0925187
0.0678351 -0.0961028 0.475623 0.884225 -0.463796 -0.0551251
0.0431417 -0.0648417 0.0314406 0.764633 -0.119932 -0.633209
-0.296203 -0.0445666 0.41641 0.636857 0.75889 -0.13601
0.010885 0.0360771 0.150963 0.999883 0.0136414 -0.00692126
-0.369115 -0.0563526 0.583222 -0.845612 0.488318 0.215603
-0.295012 -0.0595477 0.605448 0.296382 0.353254 0.887339
0.203613 -0.0301817 0.492049 0.204399 0 0.978888
-0.276066 -0.0599619 0.574421 0.864712 0.499197 0.0554569
0.0169975 -0.0925821 0.918224 0.60856 -0.645097 0.462065
-0.426898 -0.0325144 0.384056 -0.999965 0 -0.00840352
0.0701802 -0.0261624 0.48263 -0.00943302 0.999612 -0.0262228
0.0266951 -0.00102487 0.411305 0.37869 0.92552 -0.00255286
0.0159131 -0.0806269 0.0153403 0.249914 -0.610805 -0.751306
0.355116 -0.0953492 0.560187 -0.979187 0.17265 0.106702
0.097878 -0.0355508 0.454346 -0.000937179 -0.99949 0.0319244
-0.357393 -0.0759807 0.566332 0.979198 -0.172583 0.106703
-0.314861 -0.111666 0.537543 -0.0757185 0.20803 0.975187
0.0197621 0.00194053 0.56662 0.378687 0.925525 0
-0.00112755 -0.138274 0.595178 0 -1 0
-0.368186 -0.125767 0.556087 -0.641803 -0.764859 0.0554848
-0.0541038 -0.0580474 0.204436 -0.987262 0.154858 -0.0364937
-0.363845 -0.112068 0.377205 -0.857913 -0.495457 -0.13604
0.0331559 -0.130589 0.344685 0.375042 -0.927006 -0.00202844
-0.0633574 -0.0926175 0.241609 -0.883254 -0.468886 -0.00286493
-0.316834 -0.0960167 0.561985 0.642486 -0.766297 0
0.0203665 -0.002332 0.159227 0.378379 0.924774 -0.0402745
-0.330731 -0.0275925 0.393305 0.00552336 0.999202 -0.0395627
-0.0403453 -0.123446 0.368945 -0.680155 -0.733064 -0.00256465
-0.28671 -0.0940831 0.605586 -0.979187 0.17265 0.106702
-0.0621838 -0.0367225 0.416615 0.000937173 -0.99949 0.0319244
0.283598 -0.122998 0.419421 -0.636819 -0.758918 -0.13603
0.0263131 -0.108752 0.0537494 0.378244 -0.924598 -0.0452699
-0.24524 -0.0345397 0.457801 -0.00666679 -0.999468 0.0319362
0.0146219 -0.138207 0.541353 0.191923 -0.98141 -1.38979e-07
-0.0350395 -0.0775728 0.0310862 -0.651098 -0.334399 -0.681358
0.308744 -0.100377 0.372723 0 0 -1
-0.0410127 -0.102242 0.734594 -0.686145 -0.727465 0
0.361608 -0.0726479 0.372723 0 0 -1
0.0549408 -0.0339481 0.506147 0.889538 0.456861 0
0.0733062 -0.0604213 0.557253 -0.399393 0.23058 0.887309
0.0956882 -0.0726228 0.541686 0.399492 0.475817 0.783584
0.0920976 -0.02563 0.495042 -0.00943302 0.999612 -0.0262228
-0.403677 -0.0258887 0.426153 0.00552336 0.999202 -0.0395627
0.355793 -0.0409462 0.549342 0.641781 0.764878 0.055486
-0.0262009 -0.132095 0.449534 -0.377687 -0.925931 -0.00203393
0.0376591 -0.055715 0.895826 0.746929 0.38361 0.543084
0.284156 -0.122169 0.598437 -0.627734 -0.747975 0.215602
0.36764 -0.0608763 0.425796 0.857964 0.495377 -0.136016
0.202818 -0.0352002 0.445986 0.00666683 -0.999468 0.0319362
0.380212 -0.0827681 0.540795 0.983286 0.173409 0.0554804
-0.373498 -0.0936713 0.601095 -0.454124 -0.0800413 0.887336
-0.306942 -0.119494 0.580975 -0.340075 0.934326 0.106696
-0.350708 -0.132034 0.59953 -0.627645 -0.748034 0.215654
0.0440406 -0.0153946 0.344246 0.686169 0.727438 -0.00246164
-0.0458764 -0.0415749 0.0517611 -0.987263 0.154855 -0.0364935
0.307461 -0.118792 0.565631 0.340127 0.934306 0.106702
0.0512653 -0.0715654 0.072044 0.987264 -0.154849 -0.0364937
-0.0927984 -0.0427925 0.505957 0 0.99846 0.0554729
0.301609 -0.0400787 0.420076 -0.338893 0.930939 -0.136033
-0.10862 -0.0800077 0.428135 0 0 -1
0.0557891 -0.0355999 0.715073 0.889538 0.456861 0
0.0419549 -0.0130426 0.665955 0.686172 0.727439 0
-0.0424295 -0.0173273 0.490977 -0.799397 0.600804 0
-0.0912353 -0.0937756 0.524059 0 0.994292 0.106695
-0.0808018 -0.0819214 0.0756041 -0.0906533 0.99582 0.0111534
-0.215309 -0.0357956 0.424743 -0.00666679 -0.999468 0.0319362
0.0641605 -0.0853026 0.424848 0.456935 0.8895 -0.000207462
0.0415272 -0.126228 0.489348 0.679358 -0.733807 0.000661745
0.149401 -0.0265964 0.45358 -0.00666651 0.999468 -0.0319363
0.0300229 -0.122288 0.216031 -0.00120478 0.00294455 -0.999995
0.012051 0.00497218 0.720148 0.192972 0.981204 0
-0.0190087 -0.00190803 0.192563 -0.378378 0.924775 -0.0402732
0.0419063 -0.105048 0.769424 0.686177 -0.727435 0
-0.0545014 -0.0968788 0.0902147 0.00943395 -0.999553 -0.0283682
0.36483 -0.0370798 0.3691 0.00552371 -0.999202 0.0395627
-0.0514945 -0.034773 0.605596 -0.88954 0.456857 0
-0.298763 -0.0368664 0.561647 0.341514 0.938238 0.0554721
-0.0038511 0.00511828 0.523815 0 1 0
0.166278 -0.0343438 0.480414 0.00666683 -0.999468 0.0319362
-0.00706131 0.00511828 0.574303 0 1 0
-0.0402614 -0.10295 0.696666 -0.686145 -0.727465 0
0.314396 -0.0273482 0.401757 -0.00552339 0.999202 -0.0395627
-0.189747 -0.0251241 0.491232 0.00666648 0.999468 -0.0319362
-0.163622 -0.0260214 0.468604 0.00666648 0.999468 -0.0319362
0.107886 -0.0263004 0.471323 0.000937179 0.99949 -0.0319244
0.318878 -0.0632458 0.537267 0 -0.221394 0.975185
0.051957 -0.0876932 0.22018 0.898869 -0.436618 -0.0374042
-0.0422861 -0.097777 0.199688 -0.895191 -0.443899 -0.0398368
0.0402236 -0.0157154 0.171057 0.68566 0.726885 -0.0388324
0.0629374 -0.0748382 0.453539 -0.975657 0.172018 -0.136024
0.0548055 -0.0336846 0.5521 0.889538 0.456861 0
0.224465 -0.0265672 0.438822 -0.00666651 0.999468 -0.0319363
-0.0220823 -0.00108361 0.279794 -0.378685 0.925522 -0.00255287
-0.0501815 -0.0289412 0.533619 -0.338496 0 0.940968
0.000785623 0.0049485 0.392447 0 0.999997 -0.00259222
-0.38019 -0.0708218 0.545788 -0.983288 0.173407 0.0554514
-0.296336 -0.135409 0.440101 0.63682 -0.758921 -0.13601
0.382992 -0.0827844 0.483392 0.975649 0.172062 -0.136028
-0.0296249 -0.104385 0.0853042 -0.685173 -0.727071 -0.0436594
-0.0551738 -0.0565044 0.272808 -0.987919 0.154954 -0.00231291
0.0472398 -0.0189538 0.752614 0.889538 0.456861 0
-0.192028 -0.0362569 0.415166 -0.00666679 -0.999468 0.0319362
-0.0262642 -0.0312776 0.0210172 -0.747516 0.383918 -0.542058
-0.0517619 -0.0800109 0.226002 -0.987263 -0.154854 -0.0364932
0.115848 -0.0973907 0.531528 0.64186 -0.764812 0.055477
-0.0649893 -0.097636 0.113409 0.00943395 -0.999553 -0.0283682
-0.0493503 -0.043622 0.137055 -0.987262 0.154861 -0.0364944
0.00914119 0.119669 0.0643246 0.999883 0.0136363 -0.0068893
0.180183 -0.0277247 0.411841 -0.00666651 0.999468 -0.0319363
0.082315 -0.0340164 0.511179 0.00943302 -0.999612 0.0262228
0.0336245 -0.130718 0.544162 0.377697 -0.925929 -0.000573198
-0.0558957 -0.0584147 0.468159 -1 0 0
-0.366698 -0.0680239 0.378906 -0.857923 0.495449 -0.136007
0.121978 -0.0359242 0.440203 0.00666683 -0.999468 0.0319362
0.0471059 -0.0923914 0.161024 0.895195 -0.443891 -0.0398355
-0.108318 -0.0521182 0.469347 -0.636794 0.758942 -0.13602
-0.0393084 -0.0811293 0.881784 -0.837506 -0.430112 0.337027
0.0450613 -0.0159728 0.567877 0.686172 0.727439 -1.25586e-06
-0.00589247 0.1076 0.105731 -0.999903 0.0121014 -0.00685812
-0.20745 -0.0343683 0.471055 -0.00666679 -0.999468 0.0319362
0.0536369 -0.0406091 0.161113 0.987263 0.154855 -0.0364952
0.0576488 -0.0481254 0.2384 0.987919 0.154954 -0.00231253
0.00994326 0.0692424 0.080921 0.999883 0.0136363 -0.0068893
-0.0737197 -0.0960125 0.0533009 0.00943395 -0.999553 -0.0283682
-0.365626 -0.0258242 0.433093 0.00552336 0.999202 -0.0395627
-0.0413386 -0.0161116 0.639904 -0.686178 0.727434 -5.80749e-07
0.0101503 -0.0185427 0.0159082 0.330455 0.807625 -0.488407
-0.267162 -0.0362279 0.404252 -0.00552367 -0.999202 0.0395627
0.282983 -0.111602 0.376567 -0.857942 -0.495411 -0.136031
0.0115223 -0.120331 0.853369 0.18421 -0.942866 0.277615
0.19154 -0.0342952 0.476662 0.00666683 -0.999468 0.0319362
-0.0525046 -0.0379847 0.373414 -0.987919 0.154954 -0.00231297
0.372089 -0.06289 0.446524 0.857964 0.495377 -0.136016
0.000265133 0.0253966 0.0699364 0 -0.239101 -0.970995
-0.416806 -0.0348982 0.416944 -0.00552367 -0.999202 0.0395627
0.374957 -0.0863348 0.592785 0.961635 0.169557 0.215659
-0.0742448 -0.0265789 0.46529 0.00943296 0.999612 -0.0262228
0.137123 -0.0278301 0.417533 -0.00666651 0.999468 -0.0319363
0.263347 -0.0884448 0.465594 -0.975667 -0.17197 -0.136013
0.00216648 -0.138055 0.364729 0 -0.999997 -0.00236135
0.256907 -0.0338139 0.47808 0.00666683 -0.999468 0.0319362
-0.286863 -0.130516 0.556428 0.641782 -0.764878 0.0554632
-0.224499 -0.0372996 0.383141 -0.00552367 -0.999202 0.0395627
0.118444 -0.0842681 0.0114532 0.0764259 0.996861 -0.0206647
-0.034616 -0.0124134 0.20218 -0.685657 0.726889 -0.0388333
0.0584024 -0.0671711 0.37609 0.987918 -0.154958 -0.00231338
0.0110262 0.0389299 0.176984 0.999883 0.0136414 -0.00692126
-0.0471886 -0.0263889 0.552092 -0.88954 0.456857 0
-0.0186745 -0.118847 0.634998 -0.378705 -0.925517 0
0.330606 -0.0314432 0.568283 0 0.99846 0.0554735
-0.0285314 -0.0122383 0.098023 -0.685659 0.726886 -0.038832
0.30712 -0.0581572 0.555059 0.340053 -0.934333 0.106706
-0.00785353 -0.120898 0.182424 -0.191789 -0.980335 -0.0464795
0.0274835 -0.104801 0.878296 0.65078 -0.689957 0.316929
-0.00609946 0.0885105 0.106241 -0.999848 0.00714199 -0.0159057
0.0113001 0.0141703 0.167742 0.999883 0.0136414 -0.00692126
-0.096237 -0.0831309 0.0581342 -0.0906533 0.99582 0.0111534
-0.0320869 -0.129385 0.308774 -0.377687 -0.925931 -0.00203393
-0.348894 -0.114462 0.582281 0.639085 0.761699 0.106703
0.335631 -0.147468 0.48331 0.338807 -0.930972 -0.13602
-0.0280609 -0.0107945 0.853726 -0.636799 0.675096 0.372468
-0.0618023 -0.0880294 0.511157 -0.844122 0.532231 0.0647163
0.0291528 -0.00190175 0.503726 0.378687 0.925525 0
-0.22565 -0.0254804 0.472589 0.00666648 0.999468 -0.0319362
-0.0591044 -0.108055 0.581311 -0.590763 -0.806836 -0.00389821
0.0451421 -0.0251506 0.126043 0.888916 0.456544 -0.0373655
0.08468 -0.0964745 0.0631336 -0.0121308 -0.999526 -0.0282858
-0.0524531 -0.051865 0.186014 -0.987262 0.154858 -0.0364937
-0.392273 -0.036607 0.377211 -0.00552367 -0.999202 0.0395627
0.0334422 -0.00577976 0.237543 0.686027 0.727283 -0.020646
0.359891 -0.0253305 0.449258 -0.00666651 0.999468 -0.0319363
-0.28741 -0.0261429 0.438962 0.00666648 0.999468 -0.0319362
0.348171 -0.0657784 0.559117 -0.639122 -0.761666 0.106713
0.263687 -0.0972345 0.514129 -0.983304 -0.173316 0.0554591
-0.170944 -0.0359967 0.427712 -0.00666679 -0.999468 0.0319362
-0.363881 -0.0364559 0.38499 -0.00552367 -0.999202 0.0395627
-0.00596846 0.056695 0.0734667 -0.999822 0.0174968 -0.00704805
0.0623258 -0.0843811 0.33112 0.455039 0.890471 -6.5922e-05
0.0578032 -0.0653193 0.222405 0.987263 -0.154856 -0.0364933
0.0390775 -0.010953 0.273359 0.686172 0.727436 -0.0024613
-0.0175909 -0.11929 0.780568 -0.378705 -0.925517 0
-0.378841 -0.109713 0.541443 -0.864732 -0.499163 0.0554493
-0.024133 -0.00213339 0.830278 -0.371984 0.909156 0.187252
0.141362 -0.0893478 0.0260498 0.686348 -0.609937 0.39611
0.00424945 -0.0249347 0.891645 0 0.721649 0.69226
0.0515063 -0.0851552 0.179723 0.898869 -0.436618 -0.0374042
-0.0493316 -0.0874835 0.759848 -0.889527 -0.456882 0
0.0994679 -0.0530869 0.428135 0 0 -1
0.111941 -0.0515328 0.473225 0.636834 0.758908 -0.136021
0.0346007 -0.111939 0.602422 0.686177 -0.727435 0
-0.0499671 -0.0862463 0.799861 -0.889527 -0.456882 0
-0.0122671 -0.121469 0.598612 -0.378705 -0.925517 0
-0.022517 -0.113992 0.161401 -0.378346 -0.924557 -0.0452635
-0.103304 -0.047619 0.532538 -0.341498 0.938244 0.0554721
0.0592618 -0.0568016 0.346072 0.987918 0.154963 -0.00231338
-0.0988014 -0.0251724 0.510071 0.00943296 0.999612 -0.0262228
-0.037907 -0.125945 0.509662 -0.685289 -0.728271 0.0006901
-0.00332882 0.0752501 0.158851 0 0.745381 0.666639
0.0573232 -0.0729532 0.302529 0.987918 -0.154958 -0.00231338
-0.0762603 -0.0463273 0.526313 0.341483 0.938249 0.0554735
0.0514727 -0.0274334 0.412066 0.889539 0.456854 -0.00236865
-0.0420315 -0.0171177 0.379468 -0.799351 0.60086 -0.00245014
-0.0693071 -0.0333152 0.395246 -0.0293067 0 -0.99957
0.0463571 -0.10064 0.691854 0.79954 -0.600614 0
-0.354133 -0.135968 0.448408 -0.63687 -0.758876 -0.136025
0.369602 -0.109262 0.418214 0.857944 -0.495412 -0.136011
0.321484 -0.0276092 0.480281 0 0.990706 -0.136023
-0.0328506 -0.00854673 0.3274 -0.686174 0.727433 -0.00246161
-0.116894 -0.0898758 0.535257 -0.864647 -0.499305 0.0554877
0.0437151 -0.022755 0.854289 0.835078 0.428883 0.344534
0.0438678 -0.0968903 0.0953308 -0.0121308 -0.999526 -0.0282858
-0.0535128 -0.0726709 0.309019 -0.987918 -0.154963 -0.00231393
0.0186281 0.00234172 0.435189 0.37869 0.92552 -0.00255286
0.0100423 0.0923178 0.130421 0.999877 0.00248965 -0.0154633
0.336442 -0.116136 0.54006 -0.340074 0.934325 0.106706
-0.269496 -0.0651579 0.518776 0.864658 0.499288 0.0554811
-0.333392 -0.0389675 0.601209 -0.157727 0.433328 0.887327
0.406893 -0.0356588 0.399117 0.00552371 -0.999202 0.0395627
0.299364 -0.116699 0.590693 0.63912 0.761669 0.106704
0.0564177 -0.0766933 0.832634 0.981228 -0.153907 0.116209
-0.00901525 0.00475436 0.657754 -0.378686 0.925525 0
0.0317465 -0.00344929 0.447311 0.686172 0.727436 -0.0024613
-0.0313167 -0.111387 0.786849 -0.686145 -0.727465 0
0.010731 -0.123164 0.773931 0 -1 0
0.348797 -0.0260814 0.428947 -0.00552339 0.999202 -0.0395627
-0.00308665 -0.110492 0.0377141 0 -0.64824 -0.761436
0.0587742 -0.0825713 0.263644 0.455039 0.890471 -6.5922e-05
-0.0171505 0.00142576 0.548086 -0.378686 0.925525 0
0.141996 -0.0256812 0.483767 -0.00666651 0.999468 -0.0319363
0.0308101 -0.115337 0.642558 0.541484 -0.840711 0
-0.0546046 -0.0679334 0.573165 -0.987921 -0.154957 0
-0.38147 -0.0845729 0.566068 -0.983301 0.173328 0.0554698
-0.00719521 0.0133554 0.1399 -0.999822 0.0174968 -0.00704805
-0.00720634 0.00400452 0.118267 -0.999822 0.0174968 -0.00704805
0.0306193 -0.00258457 0.750458 0.54158 0.840649 0
0.0522256 -0.050748 0.0799138 0.987263 0.154855 -0.0364947
-0.0455642 -0.0234208 0.420356 -0.889542 0.456848 -0.00236884
0.0644627 -0.09384 0.535727 0.84588 0.533372 -0.000493898
0.0188133 -0.115864 0.495386 -0.410684 -0.0724226 0.908897
0.0580337 -0.0707429 0.753904 0.98792 -0.154962 0
-0.373249 -0.107758 0.420825 -0.858017 -0.495287 -0.136007
-0.321416 -0.0254435 0.453751 0.00666648 0.999468 -0.0319362
0.169633 -0.0358819 0.431578 0.00666683 -0.999468 0.0319362
0.0175579 0.00284241 0.817026 0.378687 0.925525 0
-0.0508234 -0.034023 0.350526 -0.889538 0.456856 -0.00236801
0.376256 -0.0625577 0.514747 0.864678 0.499254 0.055472
0.0581813 -0.069802 0.568976 0.987921 -0.154957 0
-0.268309 -0.0889634 0.447625 0.975658 -0.17202 -0.136021
0.302241 -0.0331521 0.534795 -0.341498 0.938244 0.0554758
-0.0118117 -0.0175632 0.0212702 -0.330446 0.807629 -0.488407
0.306102 -0.0547597 0.588053 0.340053 -0.934333 0.106706
0.0586761 -0.0666473 0.495009 0.987921 -0.154957 0
0.36926 -0.126488 0.478792 0.857975 -0.495355 -0.136022
0.056937 -0.077735 0.595696 0.987921 -0.154957 -3.96635e-07
-0.106617 -0.0874229 0.557536 0.861061 0.49718 0.106704
0.332379 -0.147856 0.502009 0 -0.998461 0.0554655
-0.330084 -0.0274106 0.4957 0 0.99846 0.0554735
-0.375906 -0.027201 0.456073 -0.204399 0 0.978888
-0.0169551 -0.135599 0.336968 -0.375041 -0.927005 -0.00232344
-0.335039 -0.0565186 0.553995 0.340054 -0.934333 0.106701
0.047381 -0.120622 0.430317 0.68527 -0.728285 -0.00257173
-0.0726015 -0.101249 0.548349 0.627734 -0.747972 0.215611
0.150677 -0.0283541 0.399207 -0.00552339 0.999202 -0.0395627
0.0108859 0.0118732 0.104175 0.999883 0.0136363 -0.0068893
-0.336091 -0.087267 0.553631 -0.984801 0.173688 0
-0.298557 -0.034101 0.513605 0.341514 0.938238 0.0554721
-0.11361 -0.0844463 0.0343776 -0.0906533 0.99582 0.0111534
0.186561 -0.0355463 0.438548 0.00666683 -0.999468 0.0319362
0.00229031 0.0799179 0.0565109 0 -0.239101 -0.970995
-0.390575 -0.0256991 0.432771 0.00552336 0.999202 -0.0395627
-0.272837 -0.0634536 0.555503 0.864712 0.499197 0.0554569
-0.0534184 -0.0425495 0.4837 -0.987922 0.154954 0
0.00531869 -0.137762 0.240671 0 -0.999997 -0.00236135
0.0597656 -0.0595422 0.714676 1 0 -4.01706e-07
-0.0575654 -0.104644 0.428176 -0.885444 -0.46474 -0.00236772
0.029928 -0.0874776 0.905542 0.779402 -0.400293 0.481973
0.407588 -0.0282034 0.449457 0.204399 0 0.978888
-0.0554233 -0.107639 0.254018 -0.883254 -0.468886 -0.00286493
-0.244275 -0.0367017 0.395482 -0.00552367 -0.999202 0.0395627
0.408164 -0.0346736 0.423821 0.00552371 -0.999202 0.0395627
-0.0433162 -0.0188491 0.771742 -0.88954 0.456857 0
-0.0713977 -0.0953435 0.0273091 0.00727034 -0.999825 -0.0172139
0.0883155 -0.0276122 0.429679 0.000937179 0.99949 -0.0319244
0.0503575 -0.0369228 0.10628 0.888921 0.456534 -0.0373674
-0.0509833 -0.0721331 0.171511 -0.987263 -0.154854 -0.0364932
0.271776 -0.103412 0.424057 -0.975657 -0.172022 -0.136022
-0.306007 -0.136325 0.420393 0.33875 -0.930993 -0.136013
-0.0113917 0.00378202 0.749356 -0.378686 0.925525 0
0.265014 -0.0722868 0.518597 -0.983302 0.173318 0.0554724
0.29456 -0.0360519 0.465194 -0.338893 0.930939 -0.136033
0.0176167 -0.136786 0.295527 0.377688 -0.92593 -0.00232188
0.273509 -0.0558502 0.53444 -0.864677 0.499256 0.0554667
-0.0287298 -0.00421791 0.736497 -0.686172 0.727439 0
0.041162 -0.102724 0.182962 0.698381 -0.714518 -0.0415561
-0.0554301 -0.0553753 0.710826 -0.987922 0.154954 0
-0.356006 -0.098597 0.551916 0.979166 0.172766 0.106704
-0.00370265 -0.0942578 0.924274 -0.337831 -0.825845 0.451498
-0.0480418 -0.0714514 0.0890415 -0.987261 -0.154866 -0.036492
-0.321744 -0.147365 0.510856 0 -0.998461 0.0554655
0.0296481 -0.13234 0.588508 0.374663 -0.927161 6.7296e-06
-0.0676726 -0.10114 0.481697 0.63679 -0.758945 -0.136019
0.343028 -0.026678 0.414684 -0.00552339 0.999202 -0.0395627
0.00355069 0.00819852 0.233822 0 0.745381 0.666639
-0.0287111 -0.00420024 0.659841 -0.686172 0.727439 0
-0.354993 -0.0366724 0.527039 -0.641814 0.764851 0.0554783
-0.330616 -0.119975 0.547574 0.340046 0.934335 0.106712
-0.255267 -0.0266853 0.428698 0.00666648 0.999468 -0.0319362
0.0443774 -0.102717 0.797367 0.686177 -0.727435 0
-0.052387 -0.0813183 0.692599 -0.950818 -0.309749 0
0.00645645 -0.138274 0.505537 0 -1 0
0.355158 -0.102617 0.581023 -0.861027 0.49724 0.106702
-0.0437072 -0.0984339 0.63693 -0.889527 -0.456882 0
-0.377153 -0.114176 0.468829 -0.858017 -0.495287 -0.136007
0.0557606 -0.036075 0.355634 0.889539 0.456854 -0.00236865
-0.31628 -0.145859 0.537949 0 -0.998461 0.0554655
-0.0472271 -0.0915809 0.671137 -0.889527 -0.456882 0
0.0576762 -0.0455828 0.420432 0.987918 0.154963 -0.00231338
-0.361019 -0.0266961 0.411716 0.00552336 0.999202 -0.0395627
0.118201 -0.0767134 0.432469 0.975661 -0.171999 -0.136023
0.377331 -0.0279138 0.378685 -0.00552339 0.999202 -0.0395627
0.323339 -0.0500424 0.59891 0 -0.994291 0.106706
0.07854 -0.0474881 0.538481 -0.341483 0.93825 0.0554706
-0.282631 -0.113978 0.402356 0.857995 -0.495318 -0.136029
-0.332532 -0.134145 0.379314 0 -0.990706 -0.136024
0.380037 -0.106269 0.501953 0.983287 -0.173406 0.0554715
0.0543087 -0.0348523 0.48939 0.00943302 -0.999612 0.0262228
-0.362483 -0.0428197 0.469812 -0.63683 0.75891 -0.136027
0.0531013 -0.0705405 0.117364 0.987263 -0.154856 -0.0364948
0.0655837 -0.0963053 0.360512 0.88314 -0.469103 -0.00236766
0.2802 -0.0688577 0.376485 -0.857949 0.495401 -0.136023
-0.0761094 -0.0610748 0.53856 -0.639123 -0.761667 0.106705
0.0781874 -0.0877924 0.0271152 -0.385646 0.196985 -0.901373
-0.0370257 -0.102891 0.181352 -0.698386 -0.714514 -0.0415542
-0.0550598 -0.108756 0.324765 -0.883254 -0.468886 -0.00286493
-0.0592746 -0.0881825 0.472569 0.857969 -0.495366 -0.13602
-0.0533715 -0.0441403 0.331309 -0.987919 0.154954 -0.00231297
-0.311891 -0.0357825 0.429756 0.338794 0.930975 -0.136029
0.358906 -0.07419 0.605721 -0.861091 -0.497128 0.106701
0.0105191 0.0564194 0.138191 0.999883 0.0136414 -0.00692126
0.0491471 -0.118629 0.333582 0.679965 -0.733243 -0.00180175
-0.0554633 -0.0612521 0.377116 -0.987919 -0.154952 -0.00231291
0.0454873 -0.122498 0.559669 0.679358 -0.733807 0.000661745
0.0472954 -0.019062 0.720589 0.889538 0.456861 0
-0.0196328 0.000332136 0.429704 -0.378688 0.925521 -0.00255316
0.0151408 -0.0795682 0.934334 0.707677 -0.363437 0.605893
-0.33662 -0.0309992 0.548461 -0.341469 0.938255 0.0554688
-0.351964 -0.0629265 0.588031 0.639108 -0.76168 0.106694
-0.0494357 -0.0787513 0.0475016 -0.0906533 0.99582 0.0111534
-0.0108387 -0.121724 0.830384 -0.377276 -0.922055 0.0864692
0.0467028 -0.121415 0.50521 0.685283 -0.728276 -0.000891989
-0.332279 -0.0263665 0.424052 0.00552336 0.999202 -0.0395627
-0.380332 -0.0624913 0.485057 -0.858 0.495309 -0.136033
0.0569691 -0.0405149 0.79428 0.987921 0.154959 -3.96628e-07
-0.00910521 0.0005788 0.156621 -0.378377 0.924774 -0.0402847
0.0281095 -0.115987 0.833089 0.377276 -0.922054 0.0864799
-0.270201 -0.113946 0.498394 0.864672 -0.499266 0.0554587
0.37338 -0.106738 0.585585 0.845646 -0.488232 0.215667
-0.314815 -0.0792345 0.534621 -0.142314 -0.169607 0.975182
0.0073182 0.127874 0.0447021 0 -0.239101 -0.970995
-0.113223 -0.0910185 0.454322 -0.857969 -0.495366 -0.136021
0.09424 -0.0823845 0.0756358 0.0813254 0.996621 0.0114886
-0.273228 -0.0989242 0.424936 0.975665 -0.17197 -0.136029
0.0445193 -0.106227 0.222687 0.245406 0.30708 -0.919498
-0.0547801 -0.0512307 0.513006 -0.987922 0.154954 0
-0.0452275 -0.119092 0.473047 -0.685289 -0.728271 0.0006901
0.388167 -0.0267573 0.406381 -0.00552339 0.999202 -0.0395627
0.372178 -0.0600839 0.556063 0.86469 0.499234 0.0554668
0.0192832 -0.135945 0.22757 0.375042 -0.927006 -0.00202844
-0.380133 -0.0652928 0.515787 -0.864647 0.49931 0.0554527
-0.00522323 0.0949592 0.0627415 -0.999822 0.0174968 -0.00704805
-0.00317179 0.00511828 0.727593 0 1 0
0.244482 -0.0344643 0.460317 0.00666683 -0.999468 0.0319362
0.057969 -0.0563008 0.837722 0.979122 0.153573 0.133177
-0.366983 -0.0589476 0.413759 -0.858 0.495309 -0.136033
-0.273069 -0.098009 0.590523 0.961628 -0.169601 0.215657
-0.194663 -0.0281091 0.399254 0.00552336 0.999202 -0.0395627
-0.289424 -0.0798013 0.583486 -0.979183 -0.172673 0.106697
0.0333366 -0.00547167 0.292871 0.686172 0.727436 -0.0024613
0.266474 -0.0646254 0.478469 -0.857961 0.495378 -0.136027
-0.285688 -0.0254836 0.459954 0.00666648 0.999468 -0.0319362
0.0578853 -0.0463565 0.459289 0.987922 0.154954 0
0.0564971 -0.0492241 0.201932 0.987263 0.154854 -0.036495
-0.353508 -0.138379 0.550021 -0.341444 -0.938264 0.055473
0.0523981 -0.0890476 0.64023 0.889527 -0.456882 0
-0.0482708 -0.089549 0.61102 -0.889527 -0.456882 0
0.0533748 -0.030899 0.682022 0.889538 0.456861 0
-0.00368919 -0.138274 0.530483 0 -1 0
0.0890531 -0.0840632 0.103209 0.634041 -0.611974 0.472736
0.309646 -0.0319233 0.559598 -0.341499 0.938244 0.0554761
0.0561724 -0.0815777 0.722653 0.95084 -0.309682 0
-0.346118 -0.0417094 0.410738 -0.338794 0.930976 -0.136024
0.354071 -0.0852461 0.542549 -0.979193 -0.172615 0.1067
-0.11649 -0.0942929 0.501813 -0.864693 -0.49923 0.0554674
-0.306726 -0.136743 0.592669 0.333964 -0.91759 0.21563
-0.025793 -0.0512421 0.0125884 -0.764631 -0.119936 -0.63321
0.125622 -0.0296446 0.508334 0.204399 0 0.978888
-0.0170494 -0.114306 0.122107 -0.378244 -0.924599 -0.0452641
0.0475616 -0.0984642 0.595164 0.889527 -0.456882 0
0.013807 0.00396603 0.308919 0.378687 0.925521 -0.00255315
0.0597655 -0.0590751 0.643935 1 0 -4.01706e-07
-0.0650847 -0.0896136 0.289953 -0.885444 -0.46474 -0.00236772
-0.0429172 -0.0180722 0.523788 -0.88954 0.456857 0
-0.318601 -0.0526581 0.574536 0 -0.994291 0.106706
-0.0355644 -0.101689 0.449483 -0.630532 0.751651 -0.193522
-0.0295678 -0.130785 0.558999 -0.374665 -0.92716 -0.000584288
0.0387162 -0.00998762 0.796094 0.686172 0.727439 0
0.00930434 -0.138249 0.447038 0 -0.999997 -0.00236135
0.0556539 -0.112966 0.483579 0.685283 -0.728276 -0.000891989
-0.0509895 -0.0842557 0.734633 -0.889527 -0.456882 0
-0.0480909 -0.0275101 0.448281 0.718278 0.69573 -0.00602838
0.107905 -0.102348 0.465297 0.636814 -0.758924 -0.136023
0.113581 -0.0323943 0.395482 -0.13832 0 -0.990388
-0.309327 -0.100565 0.372723 0 0 -1
-0.00677006 0.0579857 0.146135 -0.999903 0.0121014 -0.00685812
0.0440927 -0.102986 0.819831 0.686177 -0.727435 0
0.0616847 -0.0840424 0.375141 0.456935 0.8895 -0.000207462
0.343992 -0.058244 0.587865 -0.639122 -0.761666 0.106713
0.302025 -0.134296 0.410538 -0.338821 -0.930965 -0.13603
0.33557 -0.0865249 0.372723 0 0 -1
0.275407 -0.034364 0.457002 0.00666683 -0.999468 0.0319362
-0.0496186 -0.0840101 0.151643 -0.672931 -0.54762 0.497268
-0.0385203 -0.0958176 0.862446 -0.853226 -0.438203 0.282814
-0.00650023 0.0331135 0.0903618 -0.999822 0.0174968 -0.00704805
-0.339119 -0.0340611 0.453181 -0.00666679 -0.999468 0.0319362
-0.000346284 -0.123164 0.643658 0 -1 0
0.279829 -0.128243 0.533754 -0.641805 -0.764859 0.0554703
0.0490484 -0.0958811 0.0574466 -0.0121308 -0.999526 -0.0282858
-0.0857569 -0.108644 0.514578 0 -0.998462 0.0554489
-0.0534203 -0.0425615 0.79314 -0.987922 0.154954 0
0.0105345 0.0386032 0.106081 0.999883 0.0136363 -0.0068893
0.294158 -0.101309 0.538759 0.191724 0.110699 0.975186
-0.00699765 -0.123164 0.739504 0 -1 0
0.0539881 -0.0787752 0.0474725 0.0813254 0.996621 0.0114886
-0.308548 -0.143057 0.460141 0.338836 -0.93096 -0.136028
0.297413 -0.0382051 0.443353 -0.338893 0.930939 -0.136033
0.00992325 -0.1382 0.426331 0 -0.999997 -0.00236135
0.014208 -0.117972 0.140908 0.378244 -0.924598 -0.0452699
0.0507136 -0.0292043 0.209055 0.888919 0.456537 -0.0373666
0.162156 -0.0350623 0.388698 -0.13832 0 -0.990388
0.301476 -0.0445726 0.389654 -0.338893 0.930939 -0.136033
-0.00328833 0.0204744 0.220096 0 0.745381 0.666639
-0.0147532 -0.075469 0.931401 -0.768191 -0.120519 0.628775
-0.312131 -0.119011 0.56021 -0.340075 0.934326 0.106696
0.0320396 -0.013735 0.0636206 0.685653 0.726892 -0.0388317
0.00452981 -0.112607 0.880781 0 -0.953288 0.302062
0.0570864 -0.0412628 0.61187 0.987922 0.154954 0
-0.0209876 -0.000165572 0.45022 -0.378688 0.925521 -0.00255316
0.0146581 -0.0137875 0.878007 0.279376 0.682809 0.675071
-0.412073 -0.0363095 0.381958 -0.00552367 -0.999202 0.0395627
-0.374899 -0.0713004 0.591772 -0.961645 0.169511 0.21565
0.0708186 -0.0873509 0.55721 -0.399394 -0.230591 0.887306
0.0248031 -0.112102 0.109545 0.378244 -0.924598 -0.0452699
0.284246 -0.130074 0.559606 -0.641781 -0.764879 0.0554772
0.351066 -0.12413 0.379083 0.63681 -0.758928 -0.136025
0.0538213 -0.0317685 0.587796 0.889538 0.456861 0
-0.00718255 0.0281932 0.153706 -0.999903 0.0121014 -0.00685812
-0.175943 -0.0349515 0.459378 -0.00666679 -0.999468 0.0319362
0.0107294 0.0098996 0.0775631 0.999883 0.0136363 -0.0068893
-0.296904 -0.104107 0.547084 -0.861065 0.497173 0.106703
0.340002 -0.141064 0.573201 0.341493 -0.938246 0.0554774
-0.26069 -0.028046 0.39163 0.00552336 0.999202 -0.0395627
0.0750775 -0.095823 0.0442295 -0.0121308 -0.999526 -0.0282858
0.0553725 -0.0325507 0.531572 0.239051 -0.707985 0.664538
-0.323162 -0.0358281 0.406531 -0.00552367 -0.999202 0.0395627
0.0630974 -0.107995 0.582064 0.387262 -0.892884 -0.229751
-0.368952 -0.12316 0.574562 -0.864646 -0.499307 0.0554879
0.0588024 -0.0848985 0.497702 0.84588 0.533372 -0.000493898
0.29662 -0.0297455 0.370223 -0.0962968 0.717859 -0.689497
-0.025741 -0.106916 0.0665026 -0.685173 -0.727071 -0.0436594
0.170717 -0.036716 0.405389 0.00552371 -0.999202 0.0395627
0.00943924 0.101312 0.0712464 0.999883 0.0136363 -0.0068893
-0.0437493 -0.120351 0.400563 -0.685271 -0.728286 -0.00182752
-0.0323215 -0.00760584 0.810832 -0.686172 0.727439 0
0.0217474 0.000783788 0.333092 0.378687 0.925521 -0.00255315
0.0751183 -0.099799 0.455705 -0.63682 -0.75892 -0.13602
-0.103857 -0.037164 0.404016 0.000937173 -0.99949 0.0319244
0.10965 -0.103819 0.514614 0.641799 -0.764865 0.0554586
0.00828616 0.00463604 0.271907 0 0.999997 -0.00259222
-0.265059 -0.0849759 0.51713 0.983304 0.173319 0.0554483
-0.0239541 -0.133031 0.497544 -0.377698 -0.925929 6.71829e-06
0.0327409 -0.0323412 0.884364 0.536002 0.568229 0.624354
0.239973 -0.0337983 0.482102 0.00666683 -0.999468 0.0319362
0.292674 -0.106969 0.57547 0.861067 0.497171 0.106698
0.102175 -0.0906587 0.52387 -0.639153 0.761642 0.106702
-0.351318 -0.0256368 0.44146 0.00666648 0.999468 -0.0319362
-0.000601954 0.00511828 0.70531 0 1 0
-0.142845 -0.0369263 0.404486 -0.00666679 -0.999468 0.0319362
-0.292441 -0.132454 0.579996 0.627651 -0.748036 0.21563
0.272823 -0.114172 0.574108 -0.864692 -0.499231 0.0554675
-0.0443935 -0.0209466 0.725409 -0.88954 0.456857 0
0.267621 -0.0700728 0.557904 -0.983302 0.173318 0.0554724
0.312524 -0.081223 0.534363 0.191747 -0.110638 0.975188
-0.0629102 -0.0723735 0.431801 0.975655 0.17203 -0.136022
-0.0505393 -0.113825 0.345954 -0.685271 -0.728286 -0.00182752
-0.0540209 -0.0716548 0.484552 -0.987921 -0.154957 0
0.0508108 -0.0260011 0.439747 0.889539 0.456854 -0.00236865
-0.0237782 -0.0944856 0.900414 -0.65076 -0.689979 0.316924
0.00896024 0.136196 0.0675171 0.999877 0.00248965 -0.0154633
0.0282125 -0.116528 0.762554 0.378703 -0.925518 0
-0.0232518 -0.00107064 0.795772 -0.378686 0.925525 0
-0.121193 -0.0755813 0.4785 -0.975663 0.171986 -0.136023
-0.287234 -0.0898165 0.372723 0 0 -1
-0.028962 -0.00580065 0.226128 -0.685657 0.726889 -0.0388333
-0.201476 -0.0373449 0.385213 -0.00552367 -0.999202 0.0395627
-0.230381 -0.0353668 0.435018 -0.00666679 -0.999468 0.0319362
-0.316414 -0.0285864 0.516864 0 0.99846 0.0554735
0.125088 -0.0748829 0.513128 0.983296 0.173351 0.0554741
-0.0382403 -0.0245448 0.0613142 -0.888919 0.456539 -0.0373662
-0.0284211 -0.00392673 0.522591 -0.686178 0.727434 0
-0.0129659 -0.00122638 0.848059 -0.371989 0.909155 0.187248
-0.210308 -0.0351144 0.447106 -0.00666679 -0.999468 0.0319362
-0.0414141 -0.0161828 0.680952 -0.686178 0.727434 -5.80749e-07
0.0470991 -0.0186799 0.513347 0.889538 0.456861 0
-0.019104 -0.134592 0.281927 -0.375041 -0.927005 -0.00232344
0.0321032 -0.115101 0.480266 0.341678 -0.939817 0
-0.0352348 -0.107691 0.769156 -0.686145 -0.727465 0
0.322843 -0.0405237 0.38622 0 0.990706 -0.136023
0.039385 -0.0215049 0.0478731 0.685653 0.726892 -0.0388317
0.335987 -0.0386235 0.598237 0.333991 0.917586 0.215606
0.235573 -0.0261425 0.449796 -0.00666651 0.999468 -0.0319363
-0.0321552 -0.110596 0.805215 -0.686145 -0.727465 0
0.252293 -0.0349274 0.444195 0.00666683 -0.999468 0.0319362
-0.0305278 -0.122291 0.596856 -0.204029 0.12264 0.971253
-0.0544114 -0.0691652 0.813412 -0.987921 -0.154957 0
0.292432 -0.072827 0.557948 0.861087 -0.497136 0.106699
0.0103817 -0.120057 0.160928 0 -0.998944 -0.0459378
-0.0742593 -0.106452 0.499367 0.34147 -0.938255 0.055451
-0.0143077 -0.119966 0.214813 -0.378346 -0.924557 -0.0452635
0.110116 -0.0328864 0.421457 -1 0 0
0.0933773 -0.0820479 0.052542 0.0813254 0.996621 0.0114886
-0.049397 -0.0873562 0.650236 -0.889527 -0.456882 0
-0.0822947 -0.0878506 0.428135 0 0 -1
0.0522894 -0.0287858 0.663331 0.889538 0.456861 0
-0.33641 -0.137941 0.41416 -0.338749 -0.930991 -0.136031
-0.128689 -0.0879537 0.0401754 -0.640126 -0.612168 0.464208
-0.0191523 -0.00808902 0.0519834 -0.378389 0.92477 -0.0402723
0.0341925 -0.0995207 0.0400766 0.474113 -0.502624 -0.722901
-0.316897 -0.0809542 0.575229 0.399007 0.475898 0.783783
-0.054244 -0.0478132 0.816514 -0.987922 0.154954 0
-0.0624421 -0.0357622 0.451782 -0.00943296 -0.999612 0.0262228
0.356137 -0.138624 0.490868 0.641827 -0.76484 0.0554836
-0.152203 -0.0254091 0.490152 0.00666648 0.999468 -0.0319362
-0.0478741 -0.0298028 0.22625 -0.888919 0.456537 -0.0373665
-0.0791012 -0.028134 0.413073 -0.000937173 0.99949 -0.0319244
-0.0545079 -0.0494952 0.530753 -0.987922 0.154954 0
0.0481218 -0.0376684 0.0439867 0.888921 0.456534 -0.0373674
0.00504314 -0.123164 0.752988 0 -1 0
0.321003 -0.0751936 0.372723 0 0 -1
0.0021201 0.00511828 0.762002 0 1 0
0.0616627 -0.0977944 0.12439 0.456743 -0.828803 0.323221
-0.0341017 -0.108201 0.480482 0.170173 -0.0982454 0.980504
-0.0185972 -0.114566 0.140344 -0.378244 -0.924599 -0.0452641
-0.154034 -0.0363094 0.421455 -0.00666679 -0.999468 0.0319362
-0.0696072 -0.0486459 0.507582 0.641801 0.764863 0.0554711
-0.0906696 -0.0967226 0.0726822 0.00943395 -0.999553 -0.0283682
-0.0245953 -0.132573 0.36897 -0.377687 -0.925931 -0.00203393
-0.315989 -0.0953081 0.542674 0.642486 -0.766297 0
-0.356749 -0.0462431 0.591171 -0.627696 0.747992 0.215649
-0.0378835 -0.0353442 0.0341605 -0.747516 0.383918 -0.542058
0.0537841 -0.0492366 0.128486 0.987263 0.154853 -0.0364952
0.296135 -0.139154 0.458454 -0.338821 -0.930965 -0.13603
0.209197 -0.0258455 0.464596 -0.00666651 0.999468 -0.0319363
0.0528095 -0.0364846 0.427708 0.00943302 -0.999612 0.0262228
-0.029954 -0.0053727 0.558714 -0.686178 0.727434 0
-0.00770964 -0.115716 0.072866 -0.378244 -0.924599 -0.0452641
-0.0533462 -0.0744254 0.355388 -0.987918 -0.154963 -0.00231393
-0.0553174 -0.0546567 0.596182 -0.987922 0.154954 0
0.337269 -0.0257834 0.439806 -0.00666651 0.999468 -0.0319363
0.0383772 -0.00966789 0.607111 0.686172 0.727439 0
-0.055028 -0.0652339 0.544748 -0.987921 -0.154957 0
-0.26132 -0.034188 0.465452 -0.00666679 -0.999468 0.0319362
0.271902 -0.0911169 0.407609 -0.975667 -0.17197 -0.136013
-0.40898 -0.0253323 0.439465 0.00552336 0.999202 -0.0395627
-0.0647106 -0.0875705 0.395372 -0.456932 0.889501 -7.11585e-05
-0.0456566 -0.0886841 0.174107 -0.895191 -0.443899 -0.0398368
-0.0790736 -0.0436188 0.488468 0.33884 0.930959 -0.136024
-0.317416 -0.0336366 0.583394 0 0.976476 0.215625
-0.292219 -0.0366672 0.389658 -0.00552367 -0.999202 0.0395627
0.380542 -0.0864828 0.461141 0.975649 0.172062 -0.136028
0.265272 -0.0937749 0.55305 -0.983294 -0.173367 0.0554711
0.374531 -0.0863362 0.418214 0.975649 0.172062 -0.136028
-0.0956083 -0.107175 0.53123 -0.341498 -0.938245 0.0554507
-0.385529 -0.0819396 0.485702 -0.975652 0.17206 -0.136007
-0.332467 -0.0407232 0.384767 0 0.990706 -0.136023
-0.0558118 -0.0592905 0.422109 -0.999997 0 -0.00234119
-0.100814 -0.0592844 0.550715 0.639103 -0.761683 0.106707
0.0516578 -0.090489 0.672884 0.889527 -0.456882 0
-0.0351547 -0.128072 0.352647 -0.538413 -0.842678 -0.00234141
0.0824932 -0.0881845 0.428135 0 0 -1
0.327872 -0.0356791 0.409636 0.00552371 -0.999202 0.0395627
-0.282182 -0.0361174 0.404947 -0.00552367 -0.999202 0.0395627
-0.0310684 -0.0130649 0.127343 -0.685652 0.726893 -0.0388336
-0.103204 -0.0508523 0.452471 -0.636794 0.758942 -0.13602
0.0098229 0.0946188 0.112904 0.999883 0.0136414 -0.00692126
-0.0234509 -0.00860926 0.0814955 -0.541186 0.83994 -0.0402304
0.328903 -0.0548294 0.556768 -0.340081 -0.934323 0.106705
-0.148132 -0.035811 0.438286 -0.00666679 -0.999468 0.0319362
-0.0504364 -0.0328367 0.434009 -0.889542 0.456848 -0.00236884
0.016536 -0.113717 0.073459 0.378278 -0.924585 -0.0452636
0.0421201 -0.099459 0.14328 0.693687 -0.719077 -0.0415464
0.112377 -0.0342097 0.495909 0.0117199 -0.999427 0.0317653
0.061472 -0.0880154 0.518429 -0.864703 -0.499211 0.055471
-0.048987 -0.0698473 0.858986 -0.943364 -0.147972 0.296931
-0.0650239 -0.0341172 0.51356 -0.00943296 -0.999612 0.0262228
-0.374496 -0.107078 0.589718 -0.845602 -0.48831 0.215665
-0.0551021 -0.0532838 0.692939 -0.987922 0.154954 0
0.0413389 -0.0937155 0.868875 0.85322 -0.438217 0.282811
0.402544 -0.0286088 0.35761 -0.00552339 0.999202 -0.0395627
-0.358301 -0.0411348 0.550297 -0.641814 0.764851 0.0554783
