0.277207 -0.0495678 0.533659 -0.641781 0.764879 0.0554683
-0.00546109 0.00511828 0.685209 0 1 0
-0.0623039 -0.0973052 0.459269 -0.882069 -0.467816 -0.0557019
-0.0323763 -0.129195 0.27577 -0.377687 -0.925931 -0.00203393
-0.190903 -0.0273476 0.494703 -0.204399 0 0.978888
0.0997106 -0.0964932 0.0574806 0.00361984 -0.99982 -0.0186308
0.0478173 -0.036672 0.420951 -0.707665 -0.705877 0.0307849
-0.320242 -0.0317006 0.572917 0 0.99846 0.0554735
0.0326101 -0.130977 0.417666 0.377688 -0.92593 -0.00232188
-0.287727 -0.0434488 0.462333 0.636831 0.758911 -0.136015
-0.177316 -0.0346554 0.468359 -0.00666679 -0.999468 0.0319362
-0.263777 -0.0840024 0.491365 0.983304 0.173319 0.0554483
0.0109073 -0.000184566 0.0834126 0.999883 0.0136363 -0.0068893
-0.0231337 -0.133366 0.499303 -0.377698 -0.925929 6.71829e-06
-0.351589 -0.0354698 0.46707 -0.338817 0.930967 -0.136028
0.0583509 -0.0574432 0.217205 0.987263 0.154854 -0.036495
0.334938 -0.0419467 0.387153 0.338894 0.930941 -0.136017
-0.355017 -0.0667899 0.589734 0.861064 -0.497178 0.106691
-0.33181 -0.0966171 0.565103 -0.642732 -0.766091 0
-0.0876665 -0.103599 0.444943 0 -0.990707 -0.136015
0.0252983 -0.11772 0.809622 0.378703 -0.925518 0
0.0958195 -0.047839 0.44842 0 0.990706 -0.136024
-0.173731 -0.0357977 0.433357 -0.00666679 -0.999468 0.0319362
0.0854254 -0.0281034 0.414215 0.000937179 0.99949 -0.0319244
-0.0335521 -0.109279 0.806809 -0.686145 -0.727465 0
-0.327291 -0.0294863 0.533061 0 0.99846 0.0554735
-0.281433 -0.0473183 0.524167 0.641815 0.764851 0.0554619
0.28863 -0.137752 0.478181 -0.636819 -0.758918 -0.13603
-0.359984 -0.0726406 0.372723 0 0 -1
-0.0548479 -0.0632032 0.244991 -0.987918 -0.154963 -0.00231393
0.279171 -0.122877 0.441666 -0.857942 -0.495411 -0.136031
0.000293972 0.00473776 0.311148 0 0.999997 -0.00259222
0.0589176 -0.0529378 0.464273 0.987922 0.154954 0
0.242111 -0.0268165 0.427339 -0.00666651 0.999468 -0.0319363
0.0450096 -0.102121 0.731954 0.686177 -0.727435 0
0.383146 -0.0346846 0.427036 0.00552371 -0.999202 0.0395627
0.0182877 -0.120589 0.681438 0.378703 -0.925518 0
-0.00564737 0.112953 0.0887976 -0.999848 0.00714199 -0.0159057
-0.287734 -0.0345795 0.447685 -0.00666679 -0.999468 0.0319362
-0.0916381 -0.0815438 0.531338 -0.341847 -0.939756 0
0.0510092 -0.03998 0.0926962 0.987263 0.154853 -0.0364952
0.0103238 -0.0793648 0.940082 0.707677 -0.363437 0.605893
0.332724 -0.0281604 0.465089 0.204399 0 0.978888
-0.307004 -0.120852 0.59267 -0.340075 0.934326 0.106696
-0.291029 -0.129512 0.432048 0.63682 -0.758921 -0.13601
0.267956 -0.0955551 0.580195 -0.961636 -0.169549 0.215659
0.0770109 -0.0902989 0.112301 0.676515 -0.54752 0.492493
-0.35736 -0.0383139 0.522285 -0.641814 0.764851 0.0554783
-0.0167385 0.00115875 0.300052 -0.378685 0.925522 -0.00255287
-0.00711231 0.048604 0.179481 -0.999903 0.0121014 -0.00685812
0.37998 -0.0687222 0.479577 0.975649 0.172062 -0.136028
0.0656711 -0.0798054 0.0541379 0.0813254 0.996621 0.0114886
-0.050941 -0.053037 0.140134 -0.987262 0.154861 -0.0364944
-0.0573925 -0.0813554 0.534387 0.98329 -0.173389 0.0554699
-0.332611 -0.1481 0.497613 0 -0.998461 0.0554655
0.033056 -0.00515027 0.309656 0.686172 0.727436 -0.0024613
-0.000546332 -0.138131 0.396935 0 -0.999997 -0.00236135
0.313101 -0.123985 0.593123 0.340127 0.934306 0.106702
-0.00358766 -0.123164 0.689513 0 -1 0
0.0554599 -0.0414075 0.838993 0.979121 0.153582 0.133169
-0.296068 -0.0342037 0.457706 -0.00666679 -0.999468 0.0319362
0.381205 -0.0828914 0.470438 0.975649 0.172062 -0.136028
0.380947 -0.0339068 0.449278 0.00666683 -0.999468 0.0319362
-0.319718 -0.0775568 0.548096 0.342017 0.939694 0
-0.0161037 -0.136233 0.528855 -0.377698 -0.925929 6.71829e-06
0.346662 -0.115985 0.593951 -0.639083 0.761699 0.106713
-0.305138 -0.0351948 0.572613 0.341481 0.93825 0.0554801
-0.0341649 -0.121163 0.447525 0 0 -1
-0.274234 -0.117981 0.469899 0.857957 -0.495389 -0.136015
0.056567 -0.037066 0.405695 -0.000937179 -0.99949 0.0319244
0.385153 -0.0280529 0.374078 -0.00552339 0.999202 -0.0395627
0.0391874 -0.0169434 0.129771 0.685655 0.726891 -0.0388321
0.0202176 -0.118958 0.211271 0.378347 -0.924557 -0.0452597
0.0479755 -0.0203863 0.536085 0.889538 0.456861 0
0.050716 -0.0923227 0.620975 0.889527 -0.456882 0
-0.305551 -0.0257347 0.447951 0.00666648 0.999468 -0.0319362
0.261462 -0.0890913 0.500122 -0.983304 -0.173316 0.0554591
0.360004 -0.0441799 0.545211 0.641781 0.764878 0.055486
0.295654 -0.0366338 0.553133 -0.341498 0.938244 0.0554758
0.0581274 -0.110959 0.563519 0.366091 -0.930574 -0.00308664
-0.213072 -0.0353722 0.438462 -0.00666679 -0.999468 0.0319362
0.0362469 -0.103897 0.122021 0.693687 -0.719077 -0.0415464
-0.322966 -0.147465 0.476329 0 -0.990706 -0.136024
0.0579019 -0.0710973 0.425392 0.987918 -0.154961 -0.00231303
0.20813 -0.0356914 0.429504 0.00666683 -0.999468 0.0319362
0.0190893 -0.120261 0.611485 0.378703 -0.925518 0
-0.338762 -0.13297 0.386 -0.338749 -0.930991 -0.136031
0.0184683 -0.0600217 0.00293938 0.651085 -0.33442 -0.68136
0.0875355 -0.069531 0.518548 0.142315 -0.1696 0.975183
0.0424477 -0.08424 0.879629 0.8375 -0.430129 0.337021
0.0662102 -0.0959086 0.05106 -0.0121308 -0.999526 -0.0282858
0.0475104 -0.0826868 0.867345 0.853226 -0.438209 0.282805
-0.0233197 -0.119721 0.488611 -0.638211 0.760351 0.120635
0.0483143 -0.0724484 0.872121 0.943363 -0.147974 0.296934
0.11298 -0.0989865 0.470303 0.636814 -0.758924 -0.136023
0.105639 -0.0349726 0.472675 -0.000937179 -0.99949 0.0319244
0.304868 -0.115483 0.549037 0.639129 0.761662 0.106702
0.0164757 0.0011486 0.202595 0.378379 0.924774 -0.0402745
0.271078 -0.11339 0.458164 -0.857976 -0.495355 -0.13602
0.035723 -0.0997817 0.0436108 0.685167 -0.727077 -0.0436608
-0.418307 -0.0352366 0.408187 -0.00552367 -0.999202 0.0395627
0.0382584 -0.00955576 0.685771 0.686172 0.727439 0
0.423457 -0.0350408 0.412411 0.00552371 -0.999202 0.0395627
-0.383959 -0.0862395 0.527155 -0.983301 0.173328 0.0554698
0.064299 -0.0709615 0.448675 -0.975657 0.172018 -0.136024
-0.0557066 -0.0609074 0.60589 -0.987921 -0.154957 0
0.0246862 -0.000481483 0.310312 0.37869 0.92552 -0.00255286
-0.105996 -0.0870132 0.550615 0.861061 0.49718 0.106704
0.233975 -0.035278 0.437047 0.00666683 -0.999468 0.0319362
0.056858 -0.0398065 0.8197 0.987921 0.154959 -3.96628e-07
-0.387403 -0.0337698 0.452217 -0.00666679 -0.999468 0.0319362
0.00962488 0.105693 0.105583 0.999877 0.00248965 -0.0154633
0.0245732 -2.79606e-05 0.526892 0.378687 0.925525 0
0.057172 -0.0418084 0.71728 0.987922 0.154954 0
-0.00668554 0.0646068 0.170218 -0.667708 0.560446 0.489966
0.0468804 -0.0190439 0.305566 0.88954 0.456852 -0.00236845
0.0113062 0.0321911 0.202467 0.999877 0.00248965 -0.0154633
0.270204 -0.0743376 0.585721 -0.961636 0.169559 0.215651
-0.054233 -0.0477431 0.748563 -0.987922 0.154954 0
-0.0367042 -0.127099 0.486446 -0.685289 -0.728271 0.0006901
-0.30573 -0.138978 0.581616 0.333958 -0.917593 0.215625
0.338051 -0.0251109 0.460689 -0.00666651 0.999468 -0.0319363
0.371768 -0.105852 0.419457 0.857944 -0.495412 -0.136011
0.212745 -0.0271318 0.4236 -0.00666651 0.999468 -0.0319363
0.0406606 -0.106223 0.726522 0.686177 -0.727435 0
-0.00233153 -0.123164 0.682676 0 -1 0
0.31498 -0.146335 0.52939 0 -0.998461 0.0554655
-0.0469088 -0.0922006 0.629228 -0.889527 -0.456882 0
-0.062116 -0.0957671 0.387588 -0.885444 -0.46474 -0.00236772
0.294978 -0.133385 0.4241 -0.636778 -0.758951 -0.136039
-0.00220342 0.00466936 0.284762 0 0.999997 -0.00259222
-0.364533 -0.0435035 0.510856 -0.641814 0.764851 0.0554783
0.122334 -0.0686668 0.47038 0.97566 0.172005 -0.136023
0.291399 -0.122909 0.382408 -0.636778 -0.758951 -0.136039
0.277501 -0.124086 0.456609 -0.857942 -0.495411 -0.136031
0.316037 -0.0782847 0.570835 -0.642732 0.766091 0
0.0102279 0.0871425 0.141588 0.999877 0.00248965 -0.0154633
-0.0470554 -0.0278017 0.831819 -0.879148 0.451492 0.15249
0.0898412 -0.0804358 0.541665 -0.212391 -0.583875 0.783568
0.365847 -0.0347387 0.428087 0.00552371 -0.999202 0.0395627
-0.0518861 -0.11267 0.390478 -0.685271 -0.728286 -0.00182752
0.35826 -0.0756456 0.596526 -0.979193 -0.172615 0.1067
0.0571455 -0.0764055 0.638057 0.98792 -0.154962 0
-0.333707 -0.0317764 0.57428 0 0.99846 0.0554735
0.167146 -0.0350195 0.459088 0.00666683 -0.999468 0.0319362
-0.268981 -0.103267 0.460888 0.975665 -0.17197 -0.136029
0.327538 -0.0310259 0.560773 0 0.99846 0.0554735
-0.38237 -0.101875 0.516238 -0.983304 -0.173318 0.0554487
0.345837 -0.0263858 0.421672 -0.00552339 0.999202 -0.0395627
-0.24477 -0.0284494 0.383665 0.00552336 0.999202 -0.0395627
0.118536 -0.0719523 0.438981 0.975663 0.171986 -0.13602
-0.104118 -0.0370729 0.406874 0.000937173 -0.99949 0.0319244
-0.0530295 -0.0779751 0.541546 -0.987921 -0.154957 0
0.310458 -0.10734 0.536818 0.142292 0.169602 0.975186
0.0517189 -0.0297265 0.22659 0.888919 0.456537 -0.0373666
0.0374635 -0.12866 0.259625 0.375042 -0.927006 -0.00202844
-0.051493 -0.03477 0.617388 -0.88954 0.456857 0
0.255351 -0.03429 0.463502 0.00666683 -0.999468 0.0319362
0.0303483 -0.0658624 0.913639 0.82536 0.12945 0.549567
0.0110945 0.00511828 0.772973 0 1 0
-0.0214764 -0.00034422 0.632397 -0.378686 0.925525 0
-0.0260625 -0.116184 0.597247 -0.267943 -0.654763 0.706747
-0.00791417 -0.138211 0.431112 0 -0.999997 -0.00236135
-0.159888 -0.0339674 0.493528 -0.00666679 -0.999468 0.0319362
0.275479 -0.0786255 0.389381 -0.975656 0.172035 -0.136012
0.0635295 -0.0804375 0.124135 0.0813254 0.996621 0.0114886
0.00433001 0.00459761 0.257083 0 0.999997 -0.00259222
0.367468 -0.0747047 0.382258 0.975667 0.171974 -0.136014
0.374941 -0.0596198 0.508813 0.864678 0.499254 0.055472
-0.359089 -0.070508 0.605277 0.861064 -0.497178 0.106691
0.0867429 -0.065108 0.519501 0.0756868 -0.208069 0.975181
0.00653664 -0.138274 0.557754 0 -1 0
0.204307 -0.0349759 0.452695 0.00666683 -0.999468 0.0319362
0.369707 -0.0567606 0.564671 0.86469 0.499234 0.0554668
0.0335275 -0.0906856 0.89357 0.837515 -0.430108 0.337011
-0.0714769 -0.0814548 0.109734 -0.0906533 0.99582 0.0111534
-0.13318 -0.0250535 0.505251 0.00666648 0.999468 -0.0319362
-0.386127 -0.0870576 0.491271 -0.983301 0.173328 0.0554698
-0.0522773 -0.0575308 0.157216 -0.987262 0.154858 -0.0364937
-0.130824 -0.0952633 0.00494974 -0.420039 -0.904717 -0.0710871
0.113653 -0.0331282 0.452178 0 0.621185 0.783664
0.219995 -0.0347763 0.455666 0.00666683 -0.999468 0.0319362
-0.136661 -0.0266711 0.453901 0.00666648 0.999468 -0.0319362
0.0493579 -0.0372803 0.0781342 0.888921 0.456534 -0.0373674
-0.0518417 -0.0772791 0.216569 -0.987263 -0.154854 -0.0364932
-0.315675 -0.0273492 0.494597 0 0.99846 0.0554735
0.148391 -0.0277451 0.41784 -0.00666651 0.999468 -0.0319363
-0.13514 -0.0912957 0.015895 -0.858151 -0.502831 -0.103627
-0.24387 -0.0285298 0.381759 0.00552336 0.999202 -0.0395627
0.0219087 -0.0683617 0.926902 0.82536 0.12945 0.549567
-0.286327 -0.036461 0.395688 -0.00552367 -0.999202 0.0395627
-0.115907 -0.0366712 0.418092 -0.00666679 -0.999468 0.0319362
-0.299558 -0.133747 0.594317 0.333964 -0.91759 0.21563
0.0106564 0.036033 0.118685 0.999883 0.0136363 -0.0068893
-0.093242 -0.036341 0.429469 0.000937173 -0.99949 0.0319244
-0.378598 -0.0655566 0.542106 -0.864647 0.49931 0.0554527
0.0257222 -0.00558674 0.134809 0.378378 0.924775 -0.0402742
0.426841 -0.0295039 0.37733 0.999965 0 -0.00840352
0.0599953 -0.0281271 0.412728 0.000937179 0.99949 -0.0319244
0.268319 -0.0800646 0.438922 -0.975666 0.171972 -0.136022
0.0327629 -0.0476024 0.0171151 0.801284 0.125686 -0.584933
0.0407009 -0.061973 0.89401 0.904378 0.141852 0.402466
0.305722 -0.135611 0.410329 -0.338849 -0.930956 -0.136025
0.10705 -0.063337 0.538231 -0.861098 -0.497116 0.106705
-0.0556523 -0.0567918 0.484644 -0.987922 0.154954 0
0.281217 -0.055122 0.420093 -0.857961 0.495378 -0.136027
0.309943 -0.141599 0.440794 -0.338849 -0.930956 -0.136025
-0.357214 -0.0388105 0.467512 -0.63683 0.75891 -0.136027
0.0572117 -0.0759834 0.490745 0.987921 -0.154957 0
-0.339271 -0.0311306 0.466086 -0.338817 0.930967 -0.136028
-0.0311776 -0.10617 0.141344 -0.693687 -0.719077 -0.0415464
0.291768 -0.0500663 0.601379 -0.296443 0.353223 0.887331
0.0850522 -0.081417 0.0567485 0.0813254 0.996621 0.0114886
-0.276792 -0.0521698 0.515595 0.864712 0.499197 0.0554569
0.265267 -0.0998312 0.466219 -0.975667 -0.17197 -0.136013
-0.0491997 -0.0877404 0.684343 -0.889527 -0.456882 0
-0.420278 -0.0371987 0.358355 -0.00552367 -0.999202 0.0395627
-0.354667 -0.113008 0.60648 0.639085 0.761699 0.106703
0.0300708 -0.108338 0.0974035 0.685167 -0.727077 -0.0436608
0.130236 -0.0371854 0.399186 0.00552371 -0.999202 0.0395627
-0.0433282 -0.103838 0.587429 -0.276991 0.341546 0.898122
-0.0354557 -0.0963191 0.0424847 -0.685173 -0.727071 -0.0436594
0.0111631 0.00511828 0.508644 0 1 0
-0.321684 -0.0271799 0.404989 0.00552336 0.999202 -0.0395627
-0.104104 -0.0933092 0.557591 -0.296429 -0.353247 0.887325
-0.05264 -0.0804582 0.537423 -0.987921 -0.154957 0
0.275354 -0.0931357 0.385401 -0.975657 -0.172022 -0.136022
-0.307891 -0.14433 0.523479 0.341489 -0.938247 0.0554726
-0.353943 -0.0266892 0.412879 0.00552336 0.999202 -0.0395627
0.300698 -0.0556791 0.605822 0.639159 -0.761636 0.106706
-0.0634338 -0.0931413 0.365008 -0.885444 -0.46474 -0.00236772
-0.0315683 -0.00689543 0.64974 -0.686172 0.727439 0
0.0593567 -0.0593087 0.283325 0.999997 0 -0.00234167
0.269206 -0.0372922 0.377086 0.00552371 -0.999202 0.0395627
-0.266883 -0.0765569 0.470619 0.975666 0.171973 -0.136022
-0.0314878 -0.00681952 0.614024 -0.686178 0.727434 -5.80749e-07
-0.357758 -0.0339472 0.452853 -0.00666679 -0.999468 0.0319362
-0.331737 -0.147218 0.513501 0 -0.998461 0.0554655
-0.33988 -0.0589892 0.372723 0 0 -1
0.053603 -0.0426844 0.15139 0.987263 0.154853 -0.0364952
-0.353672 -0.107544 0.572902 0.861105 0.497105 0.106696
-0.0525783 -0.0807311 0.661786 -0.950818 -0.309749 0
0.0476562 -0.0206982 0.277828 0.88954 0.456852 -0.00236845
0.0338631 -0.00540986 0.719 0.686172 0.727439 0
0.366344 -0.125445 0.554482 0.641782 -0.764878 0.0554702
0.369714 -0.0528704 0.529542 0.86469 0.499234 0.0554668
-0.0523902 -0.0813086 0.787884 -0.950818 -0.309749 0
-0.0304494 -0.112205 0.73577 -0.686145 -0.727465 0
0.0346772 -0.00634943 0.407185 0.686169 0.727438 -0.00246164
-0.0137581 0.00281379 0.65284 -0.378686 0.925525 0
-0.375743 -0.0578504 0.517241 -0.864717 0.499186 0.0554855
0.00982563 0.0540166 0.0636835 0.998175 0.0042964 -0.0602278
-0.117384 -0.0930656 0.498915 -0.864693 -0.49923 0.0554674
-0.0387697 -0.0136885 0.576752 -0.686178 0.727434 -5.80749e-07
-0.0132354 -0.0853671 0.927876 -0.701717 -0.528868 0.477381
0.0831394 -0.107902 0.508012 -0.341484 -0.938251 0.0554509
-0.00516822 -0.138274 0.544261 0 -1 0
-0.0518322 -0.0417954 0.211943 -0.987263 0.154852 -0.0364952
0.305047 -0.139697 0.439973 -0.338821 -0.930965 -0.13603
-0.0538893 -0.0820203 0.388371 -0.455036 0.890473 -0.000202622
-0.0532065 -0.0411984 0.701963 -0.987922 0.154954 0
-0.29556 -0.103409 0.372723 0 0 -1
0.325157 -0.147226 0.513348 0 -0.998461 0.0554655
-0.10651 -0.0759552 0.523177 0.979195 -0.172605 0.1067
0.0591408 -0.0636852 0.755696 0.987921 -0.154957 -3.96635e-07
0.0170985 -0.118935 0.849689 0.377293 -0.922049 0.0864665
0.0327808 -0.04905 0.0168286 0.801284 0.125686 -0.584933
-0.101469 -0.0347635 0.4791 0.000937173 -0.99949 0.0319244
-0.00661582 0.0398896 0.122782 -0.999338 -0.00712209 -0.0356869
0.321701 -0.0991389 0.560885 0 -1 0
0.0667473 -0.0866442 0.281969 0.455039 0.890471 -6.5922e-05
0.0467934 -0.0186657 0.345831 0.88954 0.456852 -0.00236845
-0.0440505 -0.0224593 0.225012 -0.888919 0.456537 -0.0373665
0.35426 -0.0781714 0.555733 -0.979193 -0.172615 0.1067
0.0159409 0.003504 0.817955 0.378687 0.925525 0
0.0383882 -0.00967828 0.522519 0.686172 0.727439 -1.25586e-06
0.209827 -0.0367356 0.399434 0.00552371 -0.999202 0.0395627
-0.30837 -0.14171 0.570731 0.341477 -0.938252 0.0554696
0.0482092 -0.0208413 0.64531 0.889538 0.456861 0
-0.0528702 -0.0279231 0.421739 0.00943296 0.999612 -0.0262228
-0.0358232 -0.107136 0.631555 -0.686145 -0.727465 0
-0.0356361 -0.127657 0.323747 -0.680155 -0.733064 -0.00256465
0.348813 -0.139148 0.459204 0.338849 -0.930955 -0.136028
-0.379546 -0.0997888 0.572843 -0.983304 -0.173318 0.0554487
0.103852 -0.0933753 0.553312 -0.639143 0.76165 0.1067
0.315197 -0.0404926 0.386446 0 0.990706 -0.136023
0.38307 -0.0365102 0.38094 0.00552371 -0.999202 0.0395627
0.265476 -0.0979321 0.543667 -0.983294 -0.173367 0.0554711
0.376648 -0.0345499 0.431345 0.00552371 -0.999202 0.0395627
0.254094 -0.0283077 0.385941 -0.00552339 0.999202 -0.0395627
0.00688017 0.00511828 0.793925 0 1 0
0.0346552 -0.0595392 0.903687 -0.100514 0.055518 -0.993385
0.000279706 0.00462746 0.2686 0 0.999997 -0.00259222
-0.370193 -0.0629855 0.594018 -0.845632 0.488267 0.215642
-0.0537987 -0.0449737 0.705293 -0.987922 0.154954 0
-0.293428 -0.10051 0.558371 -0.861065 0.497173 0.106703
0.0133666 -0.0088288 0.869278 0.347926 0.850331 0.394821
-0.00199575 0.00511828 0.51601 0 1 0
0.341856 -0.0492851 0.372723 0 0 -1
-0.0607477 -0.100263 0.459467 -0.882069 -0.467816 -0.0557019
0.0063675 -0.0247683 0.891472 0 0.721649 0.69226
-0.0405385 -0.0264816 0.0923219 -0.888919 0.456539 -0.0373662
0.320689 -0.126855 0.606317 0 -0.461144 0.887325
-0.336965 -0.142588 0.447351 -0.338749 -0.930991 -0.136031
-0.0947931 -0.0960888 0.0489802 0.00943395 -0.999553 -0.0283682
-0.0362301 -0.106753 0.79597 -0.686145 -0.727465 0
-0.341083 -0.0351837 0.420305 -0.00552367 -0.999202 0.0395627
-0.381153 -0.0910256 0.450958 -0.975652 -0.172058 -0.136011
-0.0897604 -0.109253 0.503613 0 -0.998461 0.0554489
-0.0557171 -0.057205 0.527763 -0.987922 0.154954 0
-0.314624 -0.11918 0.372723 0 0 -1
-0.277813 -0.0620524 0.431243 0.857942 0.49541 -0.136029
-0.0556473 -0.0567601 0.787142 -0.987922 0.154954 0
-0.326229 -0.0343226 0.44769 -0.00666679 -0.999468 0.0319362
0.0433015 -0.0143129 0.522511 0.686172 0.727439 -1.25586e-06
-0.0269478 -0.126535 0.459358 0 -0.981105 -0.193475
-0.327234 -0.0513172 0.372723 0 0 -1
-0.0405879 -0.0161239 0.245003 -0.686172 0.727436 -0.00246133
-0.22021 -0.0370448 0.390176 -0.00552367 -0.999202 0.0395627
0.0566722 -0.038622 0.669349 0.987922 0.154954 0
0.0634715 -0.0922519 0.553099 0.84588 0.533372 -0.000493898
-0.365589 -0.0618022 0.394573 -0.857923 0.495449 -0.136007
-0.314635 -0.147056 0.516409 0 -0.998461 0.0554655
0.380282 -0.099921 0.517467 0.983287 -0.173406 0.0554715
-0.268765 -0.0713934 0.463652 0.975666 0.171973 -0.136022
0.041294 -0.105626 0.824909 0.686177 -0.727435 0
0.344075 -0.0425179 0.406009 0.338832 0.930962 -0.136028
0.043362 -0.0585227 0.0305098 0.764633 -0.119932 -0.633209
-0.0759854 -0.0981432 0.556645 0.157689 -0.433355 0.88732
-0.326546 -0.0523318 0.577577 0 -0.994291 0.106706
0.369731 -0.0369262 0.372295 0.00552371 -0.999202 0.0395627
0.345836 -0.0340608 0.451787 0.00666683 -0.999468 0.0319362
-0.197681 -0.0346558 0.464096 -0.00666679 -0.999468 0.0319362
0.0344896 -0.00600083 0.783234 0.686172 0.727439 0
-0.325169 -0.0288794 0.522138 0 0.99846 0.0554735
-0.0903239 -0.0853674 0.0950639 -0.672931 -0.54762 0.497268
-0.0103121 -0.114033 0.0602334 -0.378244 -0.924599 -0.0452641
0.361057 -0.0633591 0.37523 0.857949 0.495401 -0.13602
0.030357 -0.00241558 0.471065 0.54158 0.840649 0
0.401324 -0.036536 0.37774 0.00552371 -0.999202 0.0395627
0.353531 -0.0927866 0.541503 -0.979196 0.172591 0.106712
0.0407797 -0.100335 0.858024 0.659608 -0.699325 0.27543
-0.0250584 -0.00237427 0.253331 -0.378685 0.925522 -0.00255287
0.0748572 -0.0804764 0.0331625 0.0764259 0.996861 -0.0206647
0.236825 -0.0368916 0.379211 -0.0962671 -0.717861 -0.689499
-0.0504149 -0.033161 0.363366 -0.889538 0.456856 -0.00236801
-0.289268 -0.0356887 0.414784 -0.00552367 -0.999202 0.0395627
-0.115042 -0.0927028 0.538678 -0.864647 -0.499305 0.0554877
-0.357948 -0.0365662 0.48347 -0.63683 0.75891 -0.136027
0.0702605 -0.10317 0.574682 0.549763 -0.835307 -0.0047019
-0.0721779 -0.0470077 0.482452 0.33884 0.930959 -0.136024
-0.0600645 -0.0851892 0.329849 -0.455036 0.890473 -0.000202622
-0.0532516 -0.0765589 0.662766 -0.987921 -0.154957 0
-0.0141893 -0.136753 0.350888 -0.375041 -0.927005 -0.00232344
0.327932 -0.0271722 0.404311 -0.00552339 0.999202 -0.0395627
-0.368433 -0.0372486 0.364333 -0.00552367 -0.999202 0.0395627
-0.0462741 -0.0568977 0.0389277 -0.801284 0.125682 -0.584934
0.123528 -0.064959 0.509782 0.983302 0.173321 0.0554669
-0.0200578 -0.134496 0.401571 -0.377687 -0.925931 -0.00203393
0.0673111 -0.0925978 0.270267 0.88314 -0.469103 -0.00236766
0.379811 -0.0682974 0.502687 0.983292 0.173376 0.0554727
-0.181154 -0.0275525 0.41703 0.00666648 0.999468 -0.0319362
-0.0512883 -0.0800225 0.145939 -0.0906533 0.99582 0.0111534
-0.105674 -0.103412 0.477141 -0.636814 -0.758926 -0.136013
0.0597655 -0.0591377 0.531799 1 0 0
0.0624811 -0.0902679 0.513889 -0.864703 -0.499211 0.055471
-0.0225414 -0.113377 0.149044 -0.37836 -0.924551 -0.0452595
-0.0479637 -0.0882723 0.223969 -0.898867 -0.436622 -0.0374042
0.281132 -0.0489712 0.570844 -0.641781 0.764879 0.0554683
-0.219193 -0.0350167 0.448309 -0.00666679 -0.999468 0.0319362
0.18348 -0.0360925 0.422095 0.00666683 -0.999468 0.0319362
0.366476 -0.0550072 0.43983 0.857949 0.495401 -0.13602
-0.279619 -0.125581 0.540489 0.864672 -0.499266 0.0554587
0.418724 -0.0305582 0.352865 -0.13832 0 -0.990388
-0.031769 -0.00708477 0.562975 -0.686178 0.727434 0
-0.00662314 -0.138274 0.552044 0 -1 0
0.0140629 -0.00316693 0.0808307 0.378407 0.924763 -0.0402788
-0.38294 -0.0918839 0.53737 -0.983287 -0.173404 0.055469
0.266066 -0.110445 0.502305 -0.864691 -0.499232 0.0554678
0.315395 -0.0788231 0.569876 -0.642732 0.766091 0
0.130975 -0.0274639 0.507216 0.204399 0 0.978888
0.0584071 -0.0795547 0.0838112 0.0813254 0.996621 0.0114886
0.0468492 -0.0290765 0.442303 -0.99985 0 0.017321
0.311384 -0.0305851 0.4607 -0.338846 0.930957 -0.136024
0.162652 -0.0335176 0.499402 0.141888 -0.719646 0.679689
-0.0285504 -0.00404868 0.561774 -0.686178 0.727434 0
0.052102 -0.0284208 0.708005 0.889538 0.456861 0
-0.358879 -0.129832 0.583388 -0.627703 -0.747999 0.215607
0.0546336 -0.0469423 0.161203 0.987263 0.154855 -0.0364952
-0.0522094 -0.036864 0.828312 -0.940803 0.306541 0.144649
-0.0446829 -0.0965343 0.804871 -0.889527 -0.456882 0
0.296219 -0.132995 0.416115 -0.636778 -0.758951 -0.136039
0.112166 -0.10284 0.499003 0.641799 -0.764865 0.0554586
0.0174806 0.00242639 0.295676 0.378687 0.925521 -0.00255315
0.0491919 -0.0974401 0.112475 -0.0121308 -0.999526 -0.0282858
0.0593513 -0.0557027 0.642372 0.987921 0.154959 -3.96628e-07
0.0132134 -0.0263542 0.891316 0.279376 0.682809 0.675071
0.120691 -0.0848155 0.460574 0.975658 -0.172019 -0.13602
-0.0282814 -0.131266 0.461738 -0.377698 -0.925929 6.71829e-06
0.0193354 -0.118533 0.195229 0.378347 -0.924557 -0.0452597
0.00373459 0.00511828 0.611408 0 1 0
0.371743 -0.0570421 0.465638 0.857964 0.495377 -0.136016
-0.0530648 -0.0777503 0.631672 -0.987921 -0.154957 0
0.0597655 -0.0594416 0.658878 1 0 -4.01706e-07
0.193263 -0.034789 0.460848 0.00666683 -0.999468 0.0319362
-0.196453 -0.0356897 0.431994 -0.00666679 -0.999468 0.0319362
-0.0540104 -0.0482724 0.32738 -0.987919 0.154954 -0.00231291
0.051005 -0.0268888 0.341465 0.88954 0.456852 -0.00236845
0.0917912 -0.0348715 0.475435 -0.000937179 -0.99949 0.0319244
-0.0405789 -0.123233 0.370121 -0.680155 -0.733064 -0.00256465
-0.283716 -0.12964 0.532097 0.641782 -0.764878 0.0554632
-0.274567 -0.0587789 0.463637 0.857942 0.49541 -0.136029
-0.325899 -0.130781 0.604277 0 -0.461144 0.887325
0.0394545 -0.104888 0.846225 0.683228 -0.724319 0.0925327
-0.00946552 -0.122615 0.713561 -0.378705 -0.925517 0
0.0753735 -0.0812897 0.11422 0.0813254 0.996621 0.0114886
0.173367 -0.0371528 0.393989 0.00552371 -0.999202 0.0395627
-0.000129302 -0.00343993 0.0425309 0 0.999164 -0.0408901
0.296509 -0.0638191 0.572809 0.639108 -0.76168 0.106694
-0.0470086 -0.0354482 0.852728 -0.835077 0.428882 0.344538
-0.0512027 -0.0838406 0.586522 -0.889527 -0.456882 0
-0.0243348 -0.132876 0.515957 -0.377698 -0.925929 6.71829e-06
-0.274537 -0.117254 0.536211 0.864712 -0.499195 0.0554777
0.0894415 -0.0822444 0.097453 0.0813254 0.996621 0.0114886
-0.0504884 -0.0374467 0.19747 -0.950125 0.309617 -0.0374045
0.0407622 -0.106127 0.72188 0.686177 -0.727435 0
-0.0635071 -0.0274029 0.437744 0.00943296 0.999612 -0.0262228
-0.0663483 -0.0530189 0.530175 0.641801 0.764863 0.0554711
-0.0329986 -0.00860626 0.351064 -0.686174 0.727433 -0.00246161
-0.28716 -0.0849729 0.59589 -0.979183 -0.172673 0.106697
0.194281 -0.034463 0.470838 0.00666683 -0.999468 0.0319362
-0.0282496 -0.109509 0.150098 -0.693504 -0.719137 -0.0435273
0.0355115 -0.12949 0.278005 0.375042 -0.927006 -0.00202844
-0.183053 -0.0276943 0.412194 0.00666648 0.999468 -0.0319362
-0.351586 -0.0668831 0.561609 0.861064 -0.497178 0.106691
0.363954 -0.051212 0.580553 0.627647 0.748033 0.215652
0.0526032 -0.0254529 0.515997 -0.00943302 0.999612 -0.0262228
0.0751443 -0.0806971 0.0304567 -0.20464 0.77164 -0.60224
-0.281917 -0.0272357 0.409131 0.00552336 0.999202 -0.0395627
0.0388462 -0.107935 0.667909 0.686177 -0.727435 0
0.0540992 -0.0960313 0.0605875 -0.0121308 -0.999526 -0.0282858
-0.020639 -0.100242 0.4915 0.623557 0.743186 0.242592
0.0579419 -0.0690934 0.308197 0.987918 -0.154958 -0.00231338
0.063527 -0.0923245 0.569844 0.84588 0.533372 -0.000493898
-0.365643 -0.0502097 0.443376 -0.636855 0.758888 -0.136033
0.0109645 -0.123164 0.753531 0 -1 0
-0.336142 -0.104988 0.536351 0.142288 0.169597 0.975188
-0.0526328 -0.080504 0.499674 -0.987921 -0.154957 0
-0.0760869 -0.081354 0.063267 -0.0906533 0.99582 0.0111534
-0.0793243 -0.0355422 0.454095 -0.00943296 -0.999612 0.0262228
-0.348256 -0.045933 0.387156 -0.338794 0.930976 -0.136024
0.0351999 -0.129962 0.43423 0.377688 -0.92593 -0.00232188
-0.147084 -0.0363172 0.422664 -0.00666679 -0.999468 0.0319362
0.0585185 -0.0503934 0.659838 0.987922 0.154954 0
-0.317554 -0.0312839 0.453517 0 0.990706 -0.136023
-0.0549378 -0.0522365 0.658648 -0.987922 0.154954 0
0.317415 -0.136584 0.397076 0 -0.990706 -0.136024
0.0249548 -0.000184088 0.527869 0.378687 0.925525 0
-0.0615364 -0.0281205 0.41298 -0.000937173 0.99949 -0.0319244
0.0302148 -0.127258 0.46302 0 -0.981105 -0.193475
-0.0789104 -0.0741524 0.428135 0 0 -1
0.00502078 0.00479104 0.331703 0 0.999997 -0.00259222
0.157796 -0.0372199 0.394467 0.00552371 -0.999202 0.0395627
-0.341497 -0.0321161 0.537327 -0.341469 0.938255 0.0554688
0.0275074 -0.00122852 0.49173 0.378687 0.925525 0
-0.0131714 -0.0877043 0.0214693 -0.249922 -0.610802 -0.751306
0.00586111 -0.138274 0.592236 0 -1 0
0.106297 -0.103294 0.466317 0.338829 -0.930964 -0.136019
0.0541749 -0.0589491 0.100417 0.999317 0 -0.0369404
0.0350065 -0.0127229 0.134952 0.685655 0.726891 -0.0388321
0.304763 -0.0398778 0.413595 -0.338893 0.930939 -0.136033
-0.0295693 -0.0552184 0.904051 0.100516 0.0555167 -0.993385
-0.298118 -0.0646332 0.571525 -0.639087 -0.761697 0.106703
-0.022386 -0.000716397 0.590981 -0.378686 0.925525 0
-0.00269452 0.00511828 0.770069 0 1 0
-0.326161 -0.0250653 0.464598 0.00666648 0.999468 -0.0319362
0.0358658 -0.00772509 0.331972 0.686172 0.727436 -0.0024613
-0.00830157 0.00494851 0.558198 -0.192979 0.981203 0
-0.112775 -0.0593296 0.457204 -0.857973 0.49536 -0.13602
0.30231 -0.144763 0.49636 -0.341474 -0.938253 0.0554734
-0.270405 -0.101694 0.44869 0.975665 -0.17197 -0.136029
0.0203022 0.00167299 0.441081 0.37869 0.92552 -0.00255286
0.0575123 -0.0645106 0.211103 0.987264 -0.154849 -0.036495
0.206967 -0.0264947 0.444743 -0.00666651 0.999468 -0.0319363
-0.295103 -0.0354048 0.421138 -0.00552367 -0.999202 0.0395627
0.0725138 -0.0779979 0.540202 0.979186 0.172654 0.106707
0.0705851 -0.0287914 0.396527 0.0207821 0.70598 -0.707927
0.0473445 -0.0198944 0.315806 0.88954 0.456852 -0.00236845
0.353166 -0.0262427 0.460612 0.141918 0.719669 0.679659
0.369838 -0.0872914 0.383347 0.975649 0.172062 -0.136028
0.0119106 0.00465551 0.329104 0.192972 0.981201 -0.00262197
-0.381058 -0.100066 0.545165 -0.983304 -0.173318 0.0554487
0.290315 -0.0370825 0.379436 0.00552371 -0.999202 0.0395627
-0.31444 -0.1211 0.372723 0 0 -1
0.0665225 -0.0865149 0.429626 0.456935 0.8895 -0.000207462
-0.0355173 -0.0170303 0.13167 -0.685652 0.726893 -0.0388336
0.41871 -0.0257618 0.427258 -0.00552339 0.999202 -0.0395627
0.298996 -0.143627 0.49517 -0.341474 -0.938253 0.0554734
-0.0142613 0.00260788 0.708872 -0.378686 0.925525 0
0.201714 -0.0266286 0.441651 -0.00666651 0.999468 -0.0319363
0.00857447 -0.123164 0.721901 0 -1 0
-0.323221 -0.112189 0.537226 0 0.221385 0.975186
-0.062225 -0.10397 0.513993 -0.882069 -0.467816 -0.0557019
-0.381575 -0.0786794 0.545798 -0.983301 0.173328 0.0554698
-0.0400721 -0.0149792 0.43954 -0.686174 0.727433 -0.00246161
0.300461 -0.0635867 0.550796 0.639108 -0.76168 0.106694
0.417189 -0.034594 0.424572 0.00552371 -0.999202 0.0395627
0.096284 -0.0824577 0.067515 0.0813254 0.996621 0.0114886
0.0115403 -0.120035 0.163442 0.192511 -0.980194 -0.0464782
-0.0306093 -0.0501522 0.0189182 -0.801286 0.125696 -0.584929
-0.320195 -0.0402632 0.388117 0 0.990706 -0.136023
-0.304171 -0.0386462 0.587741 0.333962 0.917592 0.215627
0.0366506 -0.0178475 0.0680541 0.685653 0.726892 -0.0388317
-0.120907 -0.0708156 0.482471 -0.97566 0.172005 -0.13602
-0.102374 -0.0579135 0.557893 -0.296442 0.3533 0.8873
0.116093 -0.0919207 0.056812 0.676515 -0.54752 0.492493
0.0430453 -0.0142184 0.414394 0.686169 0.727438 -0.00246164
-0.00547838 0.0809614 0.0641864 -0.999822 0.0174968 -0.00704805
0.0847848 -0.0447379 0.475282 -0.338842 0.930958 -0.136023
-0.0383491 -0.104754 0.794441 -0.686145 -0.727465 0
-0.297894 -0.142372 0.495047 0.341489 -0.938247 0.0554726
0.377081 -0.027131 0.398491 -0.00552339 0.999202 -0.0395627
-0.342478 -0.144327 0.517317 -0.341444 -0.938264 0.055473
-0.32273 -0.129808 0.372723 0 0 -1
-0.378447 -0.0661845 0.550117 -0.864647 0.49931 0.0554527
-0.0325783 -0.0240121 0.86996 -0.636799 0.675096 0.372468
-0.316745 -0.0302883 0.460768 0 0.990706 -0.136023
-0.311556 -0.147366 0.494692 0.341489 -0.938247 0.0554726
-0.0492333 -0.0310946 0.318203 -0.889538 0.456856 -0.00236801
0.0555528 -0.113086 0.503946 0.685283 -0.728276 -0.000891989
0.0568619 -0.0398313 0.529949 0.987922 0.154954 0
0.028811 -0.0125066 0.862163 0.636803 0.67509 0.372471
-0.044077 -0.0351847 0.0701654 -0.88892 0.456536 -0.0373657
-0.394421 -0.0340923 0.44066 -0.00666679 -0.999468 0.0319362
0.316259 -0.0297513 0.464679 0 0.990706 -0.136023
-0.0923289 -0.0279392 0.419559 -0.000937173 0.99949 -0.0319244
0.0497819 -0.0250291 0.24082 0.88954 0.456852 -0.00236845
-0.0440382 -0.0977894 0.811225 -0.889527 -0.456882 0
0.376814 -0.0935339 0.581161 0.961637 -0.169547 0.215659
0.311735 -0.0508035 0.60474 0.340075 -0.934324 0.10671
0.0546458 -0.0336368 0.407234 0.889539 0.456854 -0.00236865
-0.0639939 -0.0872109 0.288848 -0.456932 0.889501 -7.11585e-05
-0.287339 -0.0274869 0.402029 0.00552336 0.999202 -0.0395627
0.071677 -0.0351492 0.471826 0.00943302 -0.999612 0.0262228
0.0148022 0.00347021 0.27679 0.378687 0.925521 -0.00255315
0.0196596 0.00198249 0.658895 0.378687 0.925525 0
-0.0102316 -0.00281543 0.0892635 -0.378389 0.92477 -0.0402723
-0.223736 -0.0269504 0.426981 0.00666648 0.999468 -0.0319362
0.376975 -0.113762 0.497214 0.864691 -0.499232 0.0554678
0.0196916 -0.126735 0.216031 -0.00120054 0.00296687 -0.999995
0.023688 0.000334212 0.523893 0.378687 0.925525 0
-0.374232 -0.109548 0.433546 -0.858017 -0.495287 -0.136007
-0.334457 -0.0355156 0.412847 -0.00552367 -0.999202 0.0395627
0.0135936 -0.137914 0.305307 0 -0.999997 -0.00236135
0.371765 -0.0594551 0.556844 0.86469 0.499234 0.0554668
0.268987 -0.116831 0.483888 -0.857976 -0.495355 -0.13602
0.0482998 -0.119556 0.373197 0.68527 -0.728285 -0.00257173
-0.00572824 -0.0785745 0.941404 -0.707623 -0.363584 0.605869
0.212018 -0.0363772 0.382144 -0.096767 -0.714547 -0.692863
0.355238 -0.0842832 0.554821 -0.979193 -0.172615 0.1067
-0.106737 -0.0867485 0.071332 -0.672931 -0.54762 0.497268
-0.00867659 -0.12292 0.75706 -0.193444 -0.981111 0
-0.00603094 0.0632605 0.0986289 -0.999822 0.0174968 -0.00704805
0.277881 -0.113166 0.597036 -0.845617 -0.488269 0.215698
0.345422 -0.117273 0.595716 -0.639083 0.761699 0.106713
0.0444382 -0.123471 0.557815 0.679358 -0.733807 0.000661745
-0.299423 -0.0358398 0.548349 0.341514 0.938238 0.0554721
0.0101393 0.0714685 0.112989 0.999883 0.0136414 -0.00692126
-0.287265 -0.118314 0.388913 0.857957 -0.495389 -0.136015
-0.0536719 -0.0441655 0.666263 -0.987922 0.154954 0
-0.00666918 0.0185167 0.0780927 -0.999822 0.0174968 -0.00704805
-0.0613586 -0.0928789 0.527327 0.864676 -0.499259 0.0554687
0.0715649 -0.0284092 0.404235 0.000937179 0.99949 -0.0319244
0.0666055 -0.09607 0.0565914 -0.0121308 -0.999526 -0.0282858
0.0588548 -0.0525371 0.548726 0.987922 0.154954 0
-0.0612502 -0.0976426 0.431943 -0.885444 -0.46474 -0.00236772
-0.0559363 -0.08322 0.464211 -0.430841 0.902428 -0.000427654
-0.31588 -0.134632 0.384222 0.338836 -0.93096 -0.136028
0.0595303 -0.0612014 0.626208 0.987921 -0.154957 -3.96635e-07
0.136227 -0.0356373 0.446206 0.00666683 -0.999468 0.0319362
-0.11865 -0.0699866 0.467334 -0.97566 0.172005 -0.13602
-0.311014 -0.14313 0.562999 0.341477 -0.938252 0.0554696
0.0197704 -0.119982 0.642763 0.378703 -0.925518 0
-0.00947828 0.00450147 0.43495 -0.378688 0.925521 -0.00255316
-0.0260335 -0.0656752 0.0166411 -0.651098 -0.334399 -0.681358
-0.315298 -0.145629 0.542105 0 -0.998461 0.0554655
0.271933 -0.114529 0.456918 -0.857976 -0.495355 -0.13602
-0.0377862 -0.101389 0.168303 -0.698386 -0.714514 -0.0415542
0.319158 -0.0362209 0.397168 0.00552371 -0.999202 0.0395627
-0.00917821 -0.122733 0.789056 -0.378705 -0.925517 0
0.059084 -0.0619598 0.318113 0.987918 -0.154958 -0.00231338
0.00248855 -0.105654 0.902723 0 -0.953288 0.302062
-0.271321 -0.0836043 0.42988 0.975666 0.171973 -0.136022
0.2126 -0.0320875 0.381653 -0.13832 0 -0.990388
0.369253 -0.0581362 0.577447 0.845648 0.48824 0.215642
-0.055126 -0.0646092 0.482808 -0.987921 -0.154957 0
0.164474 -0.0361655 0.423779 0.00666683 -0.999468 0.0319362
0.00911802 0.140186 0.078362 0.999877 0.00248965 -0.0154633
-0.0055339 -0.122791 0.831252 0 -0.996425 0.0844772
0.271057 -0.102842 0.588295 -0.961636 -0.169548 0.215659
-0.354135 -0.0338332 0.457178 -0.00666679 -0.999468 0.0319362
-0.0536365 -0.110855 0.323905 -0.685271 -0.728286 -0.00182752
-0.0801475 -0.102283 0.444636 0.338818 -0.930968 -0.136016
-0.0572504 -0.109072 0.510867 -0.590763 -0.806836 -0.00389821
-0.0218595 -0.0952536 0.0315591 -0.474118 -0.502621 -0.7229
0.377038 -0.0271238 0.398677 -0.00552339 0.999202 -0.0395627
0.309957 -0.123007 0.594587 0.340127 0.934306 0.106702
0.116316 -0.0743586 0.428135 0 0 -1
0.0469084 -0.0183085 0.472947 0.889538 0.456861 0
-0.0166194 -0.117323 0.495391 0.361126 -0.208536 0.908901
-0.0482257 -0.0333109 0.50723 0.710596 -0.702925 0.030818
-0.029788 -0.110505 0.191063 -0.693504 -0.719137 -0.0435273
-0.378672 -0.060883 0.480443 -0.858 0.495309 -0.136033
-0.0693497 -0.0822594 0.544085 -0.979184 0.172667 0.106701
-0.0338876 -0.0322004 0.0308765 -0.747516 0.383918 -0.542058
-0.382693 -0.0831892 0.540056 -0.983301 0.173328 0.0554698
0.072927 -0.0965928 0.0723563 -0.0121308 -0.999526 -0.0282858
-0.268449 -0.103591 0.536741 0.983302 -0.173316 0.0554814
-0.103231 -0.091561 0.557554 0.639143 0.761651 0.106702
-0.0435071 -0.0192208 0.738328 -0.88954 0.456857 0
-0.193383 -0.0253335 0.483922 0.00666648 0.999468 -0.0319362
-0.141185 -0.0344597 0.482027 -0.00666679 -0.999468 0.0319362
-0.0387304 -0.0246379 0.0718358 -0.888919 0.456539 -0.0373662
-0.277576 -0.056315 0.453633 0.857942 0.49541 -0.136029
-0.283955 -0.12906 0.54286 0.641782 -0.764878 0.0554632
-0.204427 -0.0268443 0.434334 0.00666648 0.999468 -0.0319362
-0.0722458 -0.0470049 0.513059 0.341492 0.938246 0.0554714
-0.0508606 -0.0357062 0.458081 -0.00943296 -0.999612 0.0262228
0.29563 -0.0688505 0.550672 0.861087 -0.497136 0.106699
0.0565728 -0.081175 0.346229 0.890986 0.454028 -0.00155297
0.0619326 -0.0796602 0.464012 -0.975653 -0.172043 -0.136024
-0.192639 -0.0359572 0.424421 -0.00666679 -0.999468 0.0319362
-0.338649 -0.029936 0.364155 0.0962958 0.717861 -0.689494
0.0527588 -0.0589006 0.0621096 0.999317 0 -0.0369404
0.00172519 -0.13795 0.320583 0 -0.999997 -0.00236135
0.327638 -0.104237 0.372723 0 0 -1
-0.378578 -0.111355 0.467537 -0.858017 -0.495287 -0.136007
-0.0487359 -0.115684 0.410752 -0.685271 -0.728286 -0.00182752
-0.388725 -0.0285267 0.361614 0.00552336 0.999202 -0.0395627
-0.0369616 -0.0119938 0.454709 -0.686174 0.727433 -0.00246161
0.41801 -0.035721 0.395993 0.00552371 -0.999202 0.0395627
-0.286981 -0.131833 0.539646 0.641782 -0.764878 0.0554632
-0.178105 -0.0346299 0.468993 -0.00666679 -0.999468 0.0319362
-0.354858 -0.0385057 0.553882 -0.641814 0.764851 0.0554783
0.294828 -0.0347135 0.442011 0.00666683 -0.999468 0.0319362
0.0321436 -0.00384685 0.440509 0.686172 0.727436 -0.0024613
0.0249304 -0.134246 0.582636 0.374663 -0.927161 6.7296e-06
-0.341859 -0.133208 0.395342 -0.338749 -0.930991 -0.136031
0.262086 -0.0933819 0.497791 -0.983304 -0.173316 0.0554591
0.373027 -0.0749123 0.421872 0.975667 0.171974 -0.136014
-0.092239 -0.0955808 0.0319323 0.00943395 -0.999553 -0.0283682
0.0990711 -0.0365259 0.423854 -0.000937179 -0.99949 0.0319244
-0.0324887 -0.103553 0.117943 -0.693687 -0.719077 -0.0415464
0.366921 -0.0367892 0.376148 0.00552371 -0.999202 0.0395627
-0.052845 -0.0388937 0.607813 -0.987922 0.154954 0
0.287446 -0.0518486 0.405712 -0.636765 0.758965 -0.136024
-0.284869 -0.124343 0.586092 0.627626 -0.748065 0.215603
0.204476 -0.0340571 0.481413 0.00666683 -0.999468 0.0319362
-0.0050006 -0.125498 0.596892 0 0 1
-0.344578 -0.0402595 0.416826 -0.338794 0.930976 -0.136024
0.0109197 0.0425581 0.168743 0.999883 0.0136414 -0.00692126
-0.036083 -0.098821 0.485964 -0.341328 0.937846 0.0627673
0.0587609 -0.0265856 0.470606 -0.00943302 0.999612 -0.0262228
0.0532189 -0.114835 0.326212 0.679965 -0.733243 -0.00180175
-0.336449 -0.0422879 0.382696 -0.338794 0.930976 -0.136024
0.0665496 -0.0940107 0.52107 0.428313 0.897071 0.108684
-0.223635 -0.0360416 0.415307 -0.00666679 -0.999468 0.0319362
-0.292608 -0.0890998 0.543398 -0.979182 0.172678 0.106696
-0.0828194 -0.0787308 0.518678 0.866109 -0.499855 0
-0.0188143 -0.134763 0.303294 -0.375041 -0.927005 -0.00232344
-0.252771 -0.0259917 0.450925 0.00666648 0.999468 -0.0319362
-0.0187847 -0.0827381 0.0208407 -0.474118 -0.502621 -0.7229
0.283036 -0.0503508 0.434714 -0.636765 0.758965 -0.136024
-0.0380098 -0.012986 0.453683 -0.686174 0.727433 -0.00246161
-0.0863368 -0.107456 0.535966 0 -0.998462 0.0554489
-0.00803331 0.00500127 0.570174 -0.192979 0.981203 0
0.059155 -0.0544515 0.542884 0.987922 0.154954 0
0.266791 -0.066616 0.469225 -0.857949 0.495401 -0.136023
-0.304975 -0.0397823 0.41961 0.338862 0.930952 -0.136017
0.0335555 -0.127114 0.487499 0 -0.998027 0.0627873
-0.0557537 -0.0257645 0.502988 0.00943296 0.999612 -0.0262228
-0.00643769 -0.121926 0.201579 0 -0.998944 -0.0459378
-0.274422 -0.101925 0.593478 0.961627 -0.169644 0.215627
0.114709 -0.101217 0.491959 0.641799 -0.764865 0.0554586
-0.000612767 -0.120696 0.174838 0 -0.998944 -0.0459378
0.311248 -0.0853251 0.574078 -0.984799 0.173696 0
-0.0399219 -0.101228 0.201431 -0.698386 -0.714514 -0.0415542
0.0470429 -0.0888164 0.859257 0.853226 -0.438209 0.282805
0.0109865 0.00134295 0.0979344 0.999883 0.0136363 -0.0068893
0.0446414 -0.10419 0.58825 0.385628 0.224191 0.895002
-0.364901 -0.126338 0.577973 -0.627703 -0.747999 0.215607
-0.0465568 -0.0252575 0.43888 -0.889542 0.456848 -0.00236884
-0.363737 -0.035493 0.409329 -0.00552367 -0.999202 0.0395627
0.0938557 -0.0431071 0.482884 0 0.990706 -0.136024
-0.0547905 -0.0666034 0.448257 -0.987919 -0.154952 -0.00231291
0.290923 -0.0364905 0.394302 0.00552371 -0.999202 0.0395627
-0.324302 -0.144755 0.557836 0 -0.998461 0.0554655
-0.0603683 -0.0853411 0.380484 -0.456932 0.889501 -7.11585e-05
0.0996772 -0.0271311 0.445076 0.000937179 0.99949 -0.0319244
-0.410041 -0.0257339 0.429174 0.00552336 0.999202 -0.0395627
-0.204882 -0.0357448 0.42851 -0.00666679 -0.999468 0.0319362
-0.047223 -0.0264948 0.450426 -0.889542 0.456848 -0.00236884
-0.286828 -0.0351855 0.428908 -0.00666679 -0.999468 0.0319362
0.300238 -0.118361 0.59732 0.63912 0.761669 0.106704
0.0234134 -0.134375 0.27368 0.375042 -0.927006 -0.00202844
-0.310366 -0.0317405 0.546375 0.341481 0.93825 0.0554801
-0.00595258 -0.118343 0.123686 0.000124217 -0.998945 -0.045934
0.0569544 -0.0707814 0.222621 0.987263 -0.154856 -0.0364933
-0.359848 -0.055391 0.387342 -0.636855 0.758888 -0.136033
0.0823188 -0.0573965 0.428135 0 0 -1
0.107508 -0.0365021 0.396887 0.0207644 -0.706583 -0.707325
-0.0846358 -0.0465406 0.457877 0 0.990706 -0.136024
-0.259511 -0.0251954 0.474438 0.00666648 0.999468 -0.0319362
-0.274081 -0.117131 0.467766 0.857957 -0.495389 -0.136015
-0.0120199 0.00331404 0.381484 -0.378688 0.925521 -0.00255316
0.291787 -0.0662609 0.593749 0.861065 -0.497176 0.106691
-0.182387 -0.0285486 0.389869 0.00552336 0.999202 -0.0395627
-0.052871 -0.0770292 0.326877 -0.987918 -0.154963 -0.00231393
-0.27676 -0.0525982 0.518954 0.864712 0.499197 0.0554569
-0.118637 -0.0724107 0.545273 -0.961644 0.169503 0.215663
-0.021017 -0.0196762 0.0269934 -0.590661 0.626175 -0.508945
-0.0894068 -0.0696396 0.538774 0 1 0
0.172587 -0.036434 0.413685 0.00666683 -0.999468 0.0319362
-0.328339 -0.138872 0.597476 0 -0.976478 0.215618
-0.335982 -0.0291848 0.521698 -0.341469 0.938255 0.0554688
-0.135422 -0.0857442 0.0227884 -0.0419671 0.998986 -0.016298
0.034115 -0.0151989 0.0728634 0.685653 0.726892 -0.0388317
0.270003 -0.0268052 0.421867 -0.00666651 0.999468 -0.0319363
0.0168015 -0.121197 0.798096 0.378703 -0.925518 0
0.0574201 -0.0734363 0.376301 0.987918 -0.154961 -0.00231303
0.0497128 -0.0349812 0.48613 0.00943302 -0.999612 0.0262228
0.381785 -0.0959369 0.478662 0.975651 -0.172059 -0.136014
0.0562654 -0.051798 0.184743 0.987263 0.154854 -0.036495
0.26194 -0.0835522 0.499307 -0.983302 0.173318 0.0554724
0.115409 -0.0836884 0.0388951 0.0813254 0.996621 0.0114886
0.0460714 -0.0981413 0.201847 0.895195 -0.443891 -0.0398355
0.321026 -0.030158 0.545151 0 0.99846 0.0554735
-0.0544257 -0.0489716 0.727494 -0.987922 0.154954 0
0.0551542 -0.0836817 0.585343 0.889527 -0.456882 0
-0.224937 -0.0354432 0.433764 -0.00666679 -0.999468 0.0319362
-0.285235 -0.132302 0.51297 0.641804 -0.76486 0.0554697
0.249745 -0.034784 0.449213 0.00666683 -0.999468 0.0319362
0.0581869 -0.0487397 0.427072 0.987918 0.154963 -0.00231338
-0.00562262 0.126197 0.0992028 -0.999903 0.0121014 -0.00685812
-0.00892858 -0.000319793 0.134328 -0.378389 0.92477 -0.0402723
-0.226141 -0.0366963 0.398151 -0.00552367 -0.999202 0.0395627
-0.011353 0.00325197 0.260072 -0.378685 0.925522 -0.00255287
0.0466336 -0.0778741 0.874757 0.943363 -0.147974 0.296934
0.315293 -0.143653 0.448563 0 -0.990706 -0.136024
0.335051 -0.0267367 0.414315 -0.00552339 0.999202 -0.0395627
-0.110238 -0.0975935 0.466043 -0.636774 -0.758958 -0.136021
-0.00717303 -0.137995 0.339389 0 -0.999997 -0.00236135
-0.27048 -0.0603128 0.490514 0.864658 0.499288 0.0554811
0.0277125 -0.116732 0.680232 0.378703 -0.925518 0
0.289109 -0.0835426 0.558615 0.97918 -0.172704 0.106681
0.318949 -0.148237 0.495146 0 -0.998461 0.0554655
-0.123897 -0.0339409 0.501871 -0.00666679 -0.999468 0.0319362
-0.132995 -0.0349424 0.468631 -0.00666679 -0.999468 0.0319362
-0.3266 -0.144776 0.55746 0 -0.998461 0.0554655
-0.0554866 -0.0590797 0.283215 -0.999997 0 -0.00234119
0.0135011 -0.117175 0.118726 0.378278 -0.924585 -0.0452636
-0.0477356 -0.0905909 0.820421 -0.889527 -0.456882 0
0.320531 -0.0303581 0.548752 0 0.99846 0.0554735
-0.293491 -0.0251599 0.468458 0.00666648 0.999468 -0.0319362
0.105364 -0.0282725 0.409508 0.000937179 0.99949 -0.0319244
0.0665404 -0.0950379 0.452805 0.885445 -0.464736 -0.00287767
-0.0176427 -0.119269 0.62422 -0.378705 -0.925517 0
-0.290983 -0.0984562 0.573446 -0.979187 0.17265 0.106702
0.0308753 -0.0471042 0.0146365 0.801284 0.125686 -0.584933
-0.00415605 0.00511828 0.614808 0 1 0
-0.0613324 -0.0266911 0.465658 0.00943296 0.999612 -0.0262228
-0.0678616 -0.0519226 0.474407 0.63681 0.758928 -0.136023
0.111018 -0.049165 0.482112 0.636834 0.758908 -0.136021
0.0574887 -0.110573 0.2356 0.794925 -0.606703 -0.00238275
0.426841 -0.0259077 0.443115 0.708512 0.704885 -0.0338858
-0.00482462 -0.123164 0.768017 0 -1 0
-0.336971 -0.138882 0.59234 -0.334 -0.917579 0.215624
0.27423 -0.0531791 0.471238 -0.857961 0.495378 -0.136027
0.263849 -0.0879642 0.545971 -0.983304 -0.173316 0.0554591
0.00928975 0.117781 0.0815328 0.999883 0.0136414 -0.00692126
0.317698 -0.0988363 0.534402 0.0756984 0.208037 0.975187
-0.398208 -0.0362268 0.385983 -0.00552367 -0.999202 0.0395627
-0.00274172 0.144724 0.0811706 0 0.745381 0.666639
-0.133658 -0.0274651 0.429678 0.00666648 0.999468 -0.0319362
0.00245467 -0.11546 0.061018 0.000124217 -0.998945 -0.045934
-0.136785 -0.0339646 0.498438 -0.00666679 -0.999468 0.0319362
0.413988 -0.0358675 0.392856 0.00552371 -0.999202 0.0395627
0.0671957 -0.0799015 0.0516812 0.0813254 0.996621 0.0114886
0.0744669 -0.100107 0.460476 -0.63682 -0.75892 -0.13602
-0.232995 -0.0370888 0.387281 -0.00552367 -0.999202 0.0395627
0.354058 -0.124146 0.601539 0.29643 -0.353236 0.887329
0.0179645 -0.00226491 0.138201 0.378379 0.924774 -0.0402724
0.0323183 -0.00395271 0.618725 0.686172 0.727439 0
-0.0417195 -0.0167498 0.375509 -0.686172 0.727436 -0.00246133
-0.0131006 -0.137038 0.288868 -0.375041 -0.927005 -0.00232344
-0.313435 -0.0892846 0.550497 0.984854 -0.173386 0
0.00651724 -0.138153 0.406428 0 -0.999997 -0.00236135
0.0315081 -0.114856 0.816461 0.686177 -0.727435 0
0.175733 -0.0276097 0.49787 0.204399 0 0.978888
-0.272708 -0.0353796 0.42578 -0.00666679 -0.999468 0.0319362
-0.328373 -0.144023 0.571012 0 -0.998461 0.0554655
-0.374511 -0.0528965 0.491869 -0.864717 0.499186 0.0554855
0.0284458 -0.114985 0.842301 0.377276 -0.922054 0.0864799
-0.343881 -0.139892 0.446123 -0.338792 -0.930977 -0.136023
-0.385481 -0.0892188 0.479718 -0.975652 -0.172058 -0.136011
-0.011893 0.00357691 0.490738 -0.378686 0.925525 0
0.109419 -0.0273249 0.439293 0.000937179 0.99949 -0.0319244
-0.118426 -0.0259565 0.480071 0.00666648 0.999468 -0.0319362
0.0500614 -0.0248124 0.387583 0.889539 0.456854 -0.00236865
-0.0573783 -0.108829 0.479827 -0.590763 -0.806836 -0.00389821
-0.0467991 -0.0443871 0.0647903 -0.987263 0.154855 -0.0364935
-0.0220424 -0.000575815 0.8208 -0.378686 0.925525 0
0.266053 -0.0665612 0.514602 -0.86469 0.499233 0.0554728
0.0938768 -0.0264773 0.465375 0.000937179 0.99949 -0.0319244
-0.00573326 0.072786 0.0800481 -0.999822 0.0174968 -0.00704805
-0.306704 -0.034244 0.454223 -0.00666679 -0.999468 0.0319362
-0.0854332 -0.0818922 0.0353525 -0.0906533 0.99582 0.0111534
0.0318052 -0.00346868 0.668185 0.686172 0.727439 0
0.0368202 -0.010162 0.214915 0.685657 0.726888 -0.0388336
-0.0645933 -0.103893 0.551686 -0.590763 -0.806836 -0.00389821
0.112131 -0.0928994 0.0611669 0.676515 -0.54752 0.492493
-0.212947 -0.0285576 0.385375 0.00552336 0.999202 -0.0395627
0.0585429 -0.0527641 0.30954 0.987918 0.154963 -0.00231338
-0.0123004 -0.0877954 0.925996 -0.608558 -0.645105 0.462057
0.0579889 -0.0691985 0.335338 0.987918 -0.154958 -0.00231338
-0.321056 -0.027518 0.396537 0.00552336 0.999202 -0.0395627
-0.359576 -0.0800184 0.579828 0.979198 -0.172583 0.106703
0.0107183 0.0314005 0.118501 0.999883 0.0136363 -0.0068893
-0.0168255 -0.135733 0.369311 -0.375041 -0.927005 -0.00232344
-0.294718 -0.110919 0.596454 -0.861082 0.497142 0.10671
0.103679 -0.0263697 0.469031 0.000937179 0.99949 -0.0319244
0.361122 -0.133162 0.476548 0.636841 -0.7589 -0.136032
-0.0429073 -0.0999913 0.735308 -0.889527 -0.456882 0
0.322633 -0.0743213 0.534753 0 -0.221394 0.975185
-0.347435 -0.0654003 0.543239 0.639108 -0.76168 0.106694
0.300054 -0.0368051 0.385081 0.00552371 -0.999202 0.0395627
0.355763 -0.135689 0.535657 0.641827 -0.76484 0.0554836
-0.0822977 -0.0967368 0.428135 0 0 -1
0.0114227 0.0104091 0.178046 0.999883 0.0136414 -0.00692126
0.0230943 0.00057713 0.585509 0.378687 0.925525 0
-0.00467989 0.122363 0.0521114 -0.999338 -0.00712209 -0.0356869
0.0167454 -0.137555 0.466048 0.374663 -0.927161 6.7296e-06
-0.321233 -0.0875515 0.372723 0 0 -1
-0.0272332 -0.00345793 0.27276 -0.54155 0.840665 -0.00255035
0.112834 -0.0591246 0.436299 0.857978 0.495351 -0.136019
-0.0724916 -0.0652445 0.537237 -0.861091 -0.497128 0.106705
-0.0622907 -0.02715 0.447821 0.00943296 0.999612 -0.0262228
