0.0325326 -0.137386 0.256891 0.375049 -0.927004 -0.00144849
-0.203314 -0.0910096 0.385896 0.694695 -0.69707 -0.177463
0.221238 -0.10499 0.506374 0.103133 -0.993993 0.0366233
-0.193782 -0.0441338 0.505842 0.00666696 0.999468 -0.0319364
-0.0779587 -0.0520123 0.528431 -0.00943158 -0.999612 0.02622
0.0933746 -0.053231 0.486914 -0.000937219 -0.99949 0.0319208
0.187084 -0.0320009 0.570561 0.451789 0.406895 -0.793929
-0.0489037 -0.0841546 0.499887 -0.987921 -0.15496 0
-0.0443514 -0.0482221 0.796922 -0.889543 0.456851 0
-0.0438288 -0.0472045 0.634089 -0.889543 0.456851 0
0.0438117 -0.0516488 0.534781 -0.710642 -0.702879 0.0308178
-0.23293 -0.0875111 0.415215 -0.895787 -0.435231 -0.0902212
-0.0468576 -0.0541992 0.456248 -0.00943158 -0.999612 0.02622
0.0101965 -0.00747047 0.207634 0.724201 0.394005 0.565944
0.0352381 -0.0302228 0.801454 0.686171 0.72744 0
-0.0750375 -0.0523248 0.517571 -0.00943158 -0.999612 0.02622
0.320277 -0.0486291 0.412223 -0.138322 0 -0.990387
-0.0327308 0.023779 0.0793096 -0.655211 0.694605 0.297022
0.127437 -0.0455919 0.474059 -0.00666699 0.999468 -0.0319364
0.00338238 -0.0162862 0.664628 0 1 0
0.0525783 -0.0829668 0.635335 0.987922 -0.154955 -4.40024e-07
0.287525 -0.0443903 0.478247 -0.00666699 0.999468 -0.0319364
-0.208668 -0.100658 0.416679 0.395083 -0.913109 -0.100706
-0.0263063 -0.025088 0.603497 -0.686177 0.727435 0
-0.202558 -0.102336 0.543218 0.697728 -0.700002 0.15223
0.0494656 -0.0968179 0.691287 0.889544 -0.45685 0
-0.0482801 -0.060075 0.718487 -0.987921 0.154961 0
0.0434666 -0.0397075 0.670905 0.889539 0.456859 0
-0.0336627 -0.1205 0.199112 -0.341505 0.204128 -0.917445
-0.0554692 -0.0444047 0.526983 0.00943275 0.999612 -0.0262233
0.0368614 -0.031754 0.829183 0.686171 0.72744 0
0.161347 -0.00256566 0.57828 -0.521623 -0.321011 0.790482
0.241797 -0.0819889 0.509189 0.997411 0.0591314 0.0409332
-0.0424536 -0.0144564 0.0608323 -0.981885 -0.154009 -0.11038
0.0846905 -0.0516084 0.541408 0.00943155 -0.999612 0.02622
-0.364306 -0.0521271 0.469396 -0.00552304 -0.999202 0.0395589
0.0345565 -0.116372 0.195372 0.741877 -0.583664 -0.330083
0.162219 -0.0532637 0.472616 0.00666616 -0.999468 0.0319324
0.331347 -0.0464239 0.419582 -0.00552374 0.999202 -0.0395638
0.195249 -0.0926433 0.424365 -0.715526 -0.692738 -0.0901975
0.00620399 -0.0221804 0.857047 0 0.914939 0.403593
0.000600868 -0.0162862 0.6256 0 1 0
0.209487 -0.0535589 0.49102 -0.102917 0.994016 0.0366108
-0.0341046 -0.0951819 0.164728 -0.74188 -0.583662 -0.330081
-0.0843107 -0.0518298 0.533107 -0.00943158 -0.999612 0.02622
-0.266674 -0.0440786 0.492355 0.00666696 0.999468 -0.0319364
0.0547673 -0.0536393 0.474745 0.00943155 -0.999612 0.02622
0.214996 -0.106338 0.487384 0.103164 -0.99399 0.0366287
-0.335069 -0.053865 0.41071 0.0962369 -0.718056 -0.689299
-0.192692 -0.0793511 0.436763 0.985375 -0.146368 -0.0872533
0.18676 -0.0873986 0.466548 -0.902886 -0.41918 -0.095318
-0.0172493 -0.130374 0.49513 0.630545 -0.751632 -0.19355
-0.04895 -0.0837305 0.486771 -0.98792 -0.15496 -0.00160989
-0.173552 -0.0536464 0.458271 -0.00666614 -0.999468 0.0319324
0.00762017 0.153538 0.0461642 0.697056 -0.159755 -0.698993
0.0306604 -0.1223 0.757716 0.686191 -0.727421 0
-0.0529765 -0.0544563 0.447363 0.000937219 -0.99949 0.0319208
0.0524904 -0.0835274 0.696437 0.987922 -0.154955 -4.40024e-07
0.121944 -0.0520269 0.519736 0.00666616 -0.999468 0.0319324
-0.339594 -0.0439555 0.480984 0.00666696 0.999468 -0.0319364
-0.00167244 -0.127076 0.864021 0 -0.962158 0.272493
0.0272785 -0.0667766 0.899766 0.746915 0.383634 0.543087
-0.317269 -0.0459158 0.43438 0.00552372 0.999202 -0.0395638
-0.326147 -0.0540783 0.425438 -0.00552304 -0.999202 0.0395589
-0.26172 -0.141404 0.578185 0.543297 -0.347686 0.764162
0.00615228 -0.0802188 0.962481 0.364024 0.55947 0.744634
-0.085793 -0.0456579 0.477783 -0.000937337 0.99949 -0.0319247
0.0120332 0.0482468 0.0856246 0.324986 0.794271 0.51334
0.0195555 -0.0978901 0.934266 0.863768 -0.443687 0.238845
0.245037 -0.0452264 0.461876 -0.00552374 0.999202 -0.0395638
-0.256893 -0.0517357 0.500678 -0.00666614 -0.999468 0.0319324
-0.209489 -0.0515539 0.516263 -0.00666614 -0.999468 0.0319324
-0.22167 -0.106838 0.47712 -0.394972 -0.913158 -0.100701
0.194418 -0.0951688 0.450352 -0.715526 -0.692738 -0.0901975
-0.1971 -0.052943 0.475373 -0.00666614 -0.999468 0.0319324
0.0514542 -0.0587911 0.832335 0.97912 0.153581 0.133178
-0.0558019 -0.109307 0.500316 -0.882072 -0.46781 -0.0557043
0.0535584 -0.0728286 0.370049 0.987918 0.154966 -0.00160988
-0.0513374 -0.115679 0.319719 -0.883046 -0.469281 -0.00202591
-0.042855 -0.0709041 0.128869 -0.736508 -0.542377 0.404206
-0.048259 -0.0616636 0.333341 -0.987919 0.154961 -0.00160971
0.0533379 -0.0700814 0.798643 0.987921 0.154961 -4.40026e-07
-0.020286 0.0176981 0.118387 -0.351005 0.85787 0.375306
0.216002 -0.102619 0.440777 0.102813 -0.9906 -0.0902229
-0.00891161 0.0377646 0.0971356 -0.85757 0.433975 0.276115
0.0445363 -0.0820791 0.165831 0.90098 -0.372177 -0.222978
0.248627 -0.140105 0.570966 -0.451789 -0.406873 0.79394
-0.0264649 -0.0252376 0.72083 -0.686171 0.72744 0
-0.0476667 -0.0751709 0.193986 -0.982163 -0.154053 -0.107808
0.180137 -0.0228556 0.582169 -0.378128 -0.355467 0.854788
-0.034618 -0.0329316 0.497798 -0.686178 0.727432 -0.0017133
0.197194 -0.093314 0.41409 -0.715526 -0.692738 -0.0901975
0.141802 0.0155056 0.569035 0.453019 0.414966 -0.789036
0.0212361 -0.126907 0.83947 0.377241 -0.922065 0.0865211
0.0100582 0.0307988 0.123963 0.999872 0.0155157 0.0038749
0.0530799 -0.0524874 0.519267 0.00943155 -0.999612 0.02622
0.0519345 -0.0611342 0.625222 0.987921 0.154956 0
0.207266 -0.0782464 0.514773 0.270727 -0.0987588 0.957577
-0.00551627 0.121816 0.0970164 -0.999862 0.00527473 -0.0157271
-0.00291976 -0.145394 0.412568 0 -0.999999 -0.00168984
0.0341341 -0.137139 0.528254 0.377701 -0.925927 -0.000577378
-0.0194815 -0.109375 0.516722 0.341316 0.937852 0.0627496
-0.0490642 -0.0650742 0.746545 -0.987921 0.154961 0
-0.0390192 -0.110366 0.792546 -0.889543 -0.456851 0
-0.0340915 -0.0324315 0.785777 -0.686171 0.72744 0
0.154964 -0.0444738 0.503307 -0.00666699 0.999468 -0.0319364
0.0601335 -0.106002 0.430786 0.885438 -0.464754 -0.00203573
-0.112523 -0.0438201 0.532624 0.00666696 0.999468 -0.0319364
-0.0440754 -0.0476846 0.679161 -0.889543 0.456851 0
-0.341799 -0.0450246 0.453463 0.00552372 0.999202 -0.0395638
-0.0284805 -0.0274148 0.382041 -0.686178 0.727432 -0.0017133
-0.0372072 -0.0353707 0.591306 -0.686177 0.727435 0
0.110395 -0.0466259 0.445329 -0.00552374 0.999202 -0.0395638
0.283869 -0.0545411 0.419651 0.00552306 -0.999202 0.0395589
0.267038 -0.0522798 0.481529 0.00666616 -0.999468 0.0319324
-0.304592 -0.0452008 0.454206 0.00552372 0.999202 -0.0395638
0.252462 -0.142365 0.571991 -0.451789 -0.406873 0.79394
0.199568 -0.0960626 0.421674 -0.474351 -0.876001 -0.0872525
0.0265675 -0.0738639 0.919573 0.94768 0.148638 0.282507
-0.270018 -0.0465102 0.425965 0.00552372 0.999202 -0.0395638
-0.21623 -0.0947773 0.557489 -0.00700769 -0.0189896 -0.999795
-0.043971 -0.124705 0.219457 -0.67999 -0.733219 -0.00183464
0.0387827 -0.0307227 0.20501 0.65746 0.69699 0.286271
-0.023326 -0.0202312 0.0281197 -0.474112 -0.50262 -0.722904
0.0433507 -0.129146 0.589726 0.679355 -0.733809 0.000659094
-0.196856 -0.0585283 0.536259 0.705402 0.707746 0.0387641
-0.00628264 0.0580887 0.128854 -0.99994 0.0108599 -0.00174132
-0.183247 -0.0528534 0.48107 -0.00666614 -0.999468 0.0319324
-0.0325053 -0.136025 0.511133 -0.685293 -0.728267 0.000687049
0.0451819 -0.105159 0.793586 0.889543 -0.45685 0
0.0137513 -0.0808952 0.107576 0.332305 -0.812149 -0.47957
0.243879 -0.14438 0.56001 -0.827322 -0.458808 -0.324089
-0.0893309 -0.0551889 0.0604024 0.28661 -0.844536 -0.452342
-0.0366788 -0.0348722 0.544284 -0.686177 0.727435 0
-0.190262 -0.0806041 0.522363 0.988551 -0.146668 0.0354262
-0.0243936 0.0178399 0.11159 -0.65521 0.694606 0.297022
0.00908632 0.11256 0.119732 0.99988 0.00157729 -0.0153758
0.00918343 -0.0420174 0.888059 0.279385 0.682826 0.67505
-0.0453353 -0.020223 0.0945127 -0.981885 -0.154009 -0.11038
0.167353 -0.0424701 0.565864 -0.587226 -0.28133 0.758959
0.0791075 -0.0391538 0.0727749 0.332181 0.849119 0.410673
0.0848843 -0.022044 0.0327256 0.332181 0.849119 0.410673
-0.0172364 -0.0203959 0.471022 -0.378686 0.925523 -0.001777
0.0455561 -0.12661 0.308642 0.679847 -0.733353 -0.0012742
0.0460689 -0.0934309 0.860674 0.908776 -0.296844 0.293274
0.0512787 -0.0569535 0.61546 0.987921 0.154956 0
0.0146938 -0.0728014 0.950828 0.771783 0.585991 0.246912
0.0457089 -0.0440733 0.69501 0.889539 0.456859 0
0.256865 -0.0467127 0.422687 -0.00552374 0.999202 -0.0395638
0.0427155 -0.129401 0.376623 0.685298 -0.728261 -0.00184013
-0.0557829 -0.0985262 0.452778 -0.457042 0.889445 -4.31226e-05
0.187402 -0.0835983 0.443755 -0.902886 -0.41918 -0.095318
0.0376327 -0.0208541 0.183624 0.65746 0.69699 0.286271
0.0836552 -0.0460806 0.464485 0.000937336 0.99949 -0.0319247
0.342425 -0.0435351 0.493548 -0.00666699 0.999468 -0.0319364
0.00301827 -0.0482422 0.894969 0 0.72165 0.692258
-0.0443729 -0.124866 0.498127 -0.685296 -0.728263 -0.00129321
-0.364423 -0.0514272 0.487886 -0.00666614 -0.999468 0.0319324
0.367686 -0.0532014 0.441789 0.00552306 -0.999202 0.0395589
-0.219263 -0.0479912 0.498203 -0.396585 0.917086 0.0409212
-0.0137981 -0.102639 0.9291 -0.668225 -0.708551 0.226783
0.0423019 -0.0513385 0.48902 -0.99985 0 0.017321
0.207235 -0.0801359 0.522232 -0.998263 -0.0589211 0
-0.0302076 -0.0290134 0.395003 -0.686178 0.727432 -0.0017133
-0.0310219 -0.0284702 0.0422738 -0.628407 -0.666812 -0.400583
-0.250036 -0.121246 0.569047 -0.536875 0.285364 -0.793935
0.337436 -0.0459868 0.497564 0.204398 0 0.978888
-0.0473614 -0.0566731 0.262868 -0.987919 0.154961 -0.00160971
-0.234661 -0.0757318 0.416818 -0.985357 0.146489 -0.0872517
0.0185224 -0.0725413 0.940882 0.84508 0.434017 0.312199
0.0516074 -0.0891564 0.814373 0.987921 -0.15496 0
0.0842788 -0.0519709 0.527736 0.00943155 -0.999612 0.02622
0.221207 -0.0536321 0.451359 0.00552306 -0.999202 0.0395589
-0.0021277 -0.0631333 0.936794 -0.186423 0.952523 0.24072
-0.0475536 -0.0911708 0.34606 -0.987918 -0.154968 -0.00161047
0.0789031 -0.0390271 0.0726783 0.332181 0.849119 0.410673
-0.0386451 -0.0265615 0.0390694 0.28661 -0.844536 -0.452342
0.0107957 -0.0164047 0.578406 0.193 0.981199 0
0.12437 -0.0514889 0.536067 0.00666616 -0.999468 0.0319324
0.0392697 -0.13083 0.505001 0.849644 -0.490556 -0.193545
0.206509 -0.0506058 0.428113 -0.138322 0 -0.990387
-0.0333346 0.0285021 0.0286918 -0.747508 0.383911 -0.542074
-0.148262 0.02294 0.570235 -0.469875 0.39441 -0.78972
0.06942 -0.0531026 0.490232 -0.000937219 -0.99949 0.0319208
0.197788 -0.0531595 0.468451 0.00666616 -0.999468 0.0319324
0.21026 -0.0533998 0.427658 -0.0967921 -0.71438 -0.693032
0.0654991 -0.0373599 0.0373812 -0.384541 -0.815093 -0.433303
0.0331793 -0.117577 0.194409 0.741877 -0.583664 -0.330083
-0.0482757 -0.0881581 0.675443 -0.987921 -0.15496 0
0.193461 -0.0961839 0.465739 -0.71542 -0.692846 -0.0902135
-0.0328444 -0.0522361 0.876982 -0.817381 0.419783 0.394551
0.0197173 0.000721485 0.163184 0.352894 0.862481 0.362756
-0.265686 -0.167727 0.562673 -0.535879 0.298395 -0.789806
-0.0455591 -0.0531408 0.497063 -0.00943158 -0.999612 0.02622
0.0867918 -0.0529406 0.495814 -0.000937219 -0.99949 0.0319208
0.016212 -0.12971 0.735621 0.378679 -0.925528 0
-0.00767772 -0.00859695 0.193675 -0.772626 0.586421 0.243227
-0.00212747 -0.015988 0.213676 0 0.563377 0.8262
-0.0460291 -0.0420531 0.183977 -0.987303 0.15486 0.0353828
0.0309046 -0.0261351 0.712885 0.686171 0.72744 0
-0.0480014 -0.089907 0.682093 -0.987921 -0.15496 0
-0.0442964 -0.100091 0.779219 -0.889543 -0.456851 0
-0.0325204 -0.0312129 0.387469 -0.686178 0.727432 -0.0017133
-0.0132957 -0.143886 0.320096 -0.375049 -0.927004 -0.00166242
-0.0108338 -0.144681 0.208176 -0.375049 -0.927004 -0.00166242
0.191895 -0.0618402 0.540718 -0.726058 0.686417 0.0408843
-0.0219437 -0.037222 0.87339 -0.636795 0.675098 0.372471
0.145491 0.0172317 0.575589 -0.53135 -0.306634 0.789711
-0.199899 -0.0453608 0.571155 0.274664 0.182995 -0.943966
0.0541264 -0.0958987 0.383157 0.456913 0.889511 -0.000144457
0.0318905 -0.135056 0.194712 -0.00121473 0.00296935 -0.999995
0.0547356 -0.116298 0.433416 0.885438 -0.464754 -0.00203573
-0.145172 0.0298699 0.57119 -0.467431 0.299672 -0.831688
0.0466269 -0.125557 0.273634 0.679847 -0.733353 -0.0012742
-0.030811 -0.128017 0.522098 0.638173 0.760391 0.120587
-0.171833 -0.00999398 0.569434 -0.465196 0.455585 -0.758969
0.0105699 -0.0163603 0.662801 0.193 0.981199 0
-0.0478733 -0.0589158 0.361154 -0.987919 0.154961 -0.00160971
-0.238206 -0.076697 0.455227 -0.985357 0.146489 -0.0872517
-0.230627 -0.0779668 0.555051 0.986893 0.146222 0.0682743
0.00959433 -0.0166715 0.285661 0 0.999998 -0.0018042
0.0958348 -0.0462184 0.460529 0.000937336 0.99949 -0.0319247
-0.266312 -0.0443453 0.484082 0.00666696 0.999468 -0.0319364
0.0553238 -0.0481703 0.0667469 -0.384541 -0.815093 -0.433303
-0.0482117 -0.0885296 0.495682 -0.98792 -0.15496 -0.00160989
0.291901 -0.186846 0.572738 -0.452066 -0.309836 0.836443
-0.138076 0.0210408 0.563226 -0.469875 0.39441 -0.78972
-0.0235194 -0.0407838 0.0510016 -0.628407 -0.666812 -0.400583
0.0286969 0.0156593 0.114891 0.655212 0.694605 0.297022
-0.384014 -0.0519779 0.466591 -0.717946 -0.695765 0.0215751
0.315668 -0.0438869 0.488126 -0.00666699 0.999468 -0.0319364
-0.0194714 -0.0889898 0.127663 -0.33227 -0.81216 -0.479576
-0.00874657 0.00670726 0.156232 -0.352895 0.862481 0.362756
0.036222 0.0134582 0.0234362 0.801285 0.125683 -0.584933
-0.0258077 -0.0252319 0.238399 -0.686173 0.727436 -0.00171289
0.194026 -0.0925868 0.5574 -0.710906 -0.688364 0.144108
0.103511 -0.0516784 0.0416375 0.28809 -0.95603 -0.0548676
0.0206469 -0.078014 0.941617 0.94768 0.148638 0.282507
0.249247 -0.044622 0.478985 -0.00666699 0.999468 -0.0319364
0.0537098 -0.0733098 0.416641 0.987918 0.154966 -0.00160988
-0.0137445 0.027493 0.000962983 -0.74751 0.383903 -0.542076
0.00375286 -0.0162862 0.554673 0 1 0
-0.0307158 -0.0292473 0.817958 -0.686171 0.72744 0
0.320749 -0.0524611 0.412157 -0.138322 0 -0.990387
-0.00634241 0.0523395 0.127318 -0.99994 0.0108599 -0.00174132
-0.0172376 -0.0203422 0.550469 -0.378686 0.925525 0
0.321177 -0.0455022 0.44428 -0.00552374 0.999202 -0.0395638
0.0465383 -0.0457761 0.474871 0.889542 0.45685 -0.00164795
0.00881628 -0.128532 0.858879 0 -0.962158 0.272493
0.0029598 0.115764 0.123836 0 0.563377 0.8262
0.0311002 -0.0263196 0.708077 0.686171 0.72744 0
-0.0261308 -0.0829064 0.913061 -0.954604 -0.149771 0.25749
-0.204606 -0.104169 0.464446 0.394895 -0.913192 -0.100687
0.343249 -0.0543476 0.416249 0.00552306 -0.999202 0.0395589
0.149099 -0.053163 0.478508 0.00666616 -0.999468 0.0319324
0.0479885 -0.124247 0.246625 0.679847 -0.733353 -0.0012742
-0.0232781 -0.0786453 0.921422 -0.947678 0.148646 0.282509
-0.0977251 -0.0394872 0.0114983 0.226968 -0.97383 0.0118334
-0.016405 -0.109825 0.163 -0.334723 -0.818028 -0.467751
0.0189866 -0.128574 0.767264 0.378679 -0.925528 0
-0.22574 -0.0535592 0.45257 -0.00552304 -0.999202 0.0395589
0.0166054 -0.0339212 0.0332683 0.249914 -0.610804 -0.751306
0.215664 -0.0759055 0.522066 0.475999 0.879446 0
0.0794881 -0.051536 0.546039 0.00943155 -0.999612 0.02622
-0.0185435 -0.14202 0.476191 -0.377727 -0.925916 -0.0014526
-0.0471159 -0.0536812 0.626169 -0.950786 0.309848 0
-0.0383203 -0.0370271 0.354978 -0.799438 0.600746 -0.0017056
-0.0481695 -0.0862857 0.253804 -0.987918 -0.154968 -0.00161047
-0.10276 -0.0294493 0.0106345 -0.442761 0.808901 0.386835
0.263676 -0.143742 0.570375 0.512505 0.391652 -0.764165
-0.0485838 -0.0291639 0.037631 0.28661 -0.844536 -0.452342
-0.101245 -0.0544738 0.447469 -0.00666614 -0.999468 0.0319324
0.243012 -0.0853571 0.484452 0.997411 0.0591314 0.0409332
0.0432865 -0.108849 0.641951 0.889544 -0.45685 0
-0.20116 -0.0996423 0.446828 0.702947 -0.704819 -0.0953707
0.0189702 0.0340331 0.00818312 0.67662 0.509851 -0.53126
-0.0104211 -0.0177914 0.37515 -0.378686 0.925523 -0.001777
0.00933467 -0.0370205 0.0334283 0.124336 -0.634872 -0.762547
-0.00551662 -0.14554 0.582493 0 -1 0
-0.00527206 0.113146 0.0611559 -0.999749 0.0211124 0.00755721
0.205102 -0.104195 0.496035 -0.200422 -0.97907 0.0354027
-0.014761 0.0543047 0.035835 -0.33045 0.807635 -0.488394
0.0516695 -0.059839 0.461289 0.987918 0.154966 -0.00160988
-0.0495895 -0.0797824 0.781156 -0.987921 -0.15496 0
0.162448 0.0162024 0.582888 0.583187 0.699132 0.413652
0.226792 -0.058282 0.479167 0.47435 0.876001 -0.0872588
0.308455 -0.054386 0.420136 0.00552306 -0.999202 0.0395589
-0.0106579 -0.0176501 0.565657 -0.378686 0.925525 0
0.216161 -0.0559232 0.53346 0.200241 0.979107 0.0354086
-0.0480299 -0.0584798 0.666024 -0.987921 0.154961 0
0.0530392 -0.0693965 0.381794 0.987918 0.154966 -0.00160988
-0.0354289 -0.0336931 0.732281 -0.686177 0.727435 -6.38945e-07
-0.0323887 -0.0911283 0.153704 -0.74188 -0.583662 -0.330081
-0.00685734 0.0144597 0.186771 -0.99994 0.0108599 -0.00174132
0.17459 -0.0458073 0.457478 -0.00666699 0.999468 -0.0319364
-0.208746 -0.095344 0.555509 -0.395902 0.914898 0.0788898
0.0148479 0.0389846 0.00935057 0.590657 0.626156 -0.508972
-0.230258 -0.0756783 0.565744 -0.967007 0.174438 0.185659
-0.104887 -0.0439758 0.529344 0.00666696 0.999468 -0.0319364
-0.0571699 -0.104956 0.40187 -0.885436 -0.464758 -0.00164823
0.0218234 -0.117473 0.522853 0.859714 -0.496326 0.120634
-0.307719 -0.0538352 0.414498 0.0962369 -0.718056 -0.689299
-0.319696 -0.046209 0.426636 0.00552372 0.999202 -0.0395638
-0.05152 -0.100003 0.212587 -0.198017 0.405626 -0.892332
0.201781 -0.0969975 0.419027 -0.474414 -0.875968 -0.087244
-0.00470237 0.142816 0.0536324 -0.999749 0.0211124 0.00755721
-0.119905 -0.0439051 0.528422 0.00666696 0.999468 -0.0319364
-0.234105 -0.0688658 0.42389 -0.895755 0.435297 -0.0902205
-0.010977 0.0461128 0.0775996 -0.85757 0.433975 0.276115
0.0241637 -0.108155 0.50765 -0.335536 0.921929 -0.193555
-0.237948 -0.085456 0.530436 -0.988566 -0.146569 0.0354204
-0.12498 -0.0357601 0.0249964 0.25546 0.966571 0.0219219
-0.17457 -0.0451422 0.478295 0.00666696 0.999468 -0.0319364
-0.0590361 -0.0383403 0.0481409 0.28661 -0.844536 -0.452342
-0.204776 -0.0509251 0.513759 0.396506 0.917119 0.040936
0.0500214 -0.0873085 0.847347 0.981228 -0.153913 0.1162
0.0551234 -0.115709 0.467641 0.885438 -0.464754 -0.00203573
-0.0645021 -0.0181513 0.0307986 -0.442761 0.808901 0.386835
-0.0497173 -0.118508 0.26893 -0.883046 -0.469281 -0.00202591
0.0470551 -0.0466945 0.809343 0.889538 0.456861 -2.04396e-07
0.0530084 -0.0532069 0.491866 0.00943155 -0.999612 0.02622
0.228228 -0.0466675 0.427826 -0.00552374 0.999202 -0.0395638
0.0437152 -0.0406518 0.37161 0.889539 0.456856 -0.00164832
-0.00385156 0.0273832 0.184102 0 0.563377 0.8262
-0.000972208 -0.016494 0.384074 0 0.999998 -0.0018042
0.0429918 -0.109423 0.690245 0.889543 -0.45685 0
0.0257479 -0.117005 0.179747 0.334731 -0.818019 -0.467761
0.047027 -0.0541305 0.458803 0.00943155 -0.999612 0.02622
0.0110508 -0.13175 0.789235 0.194005 -0.981001 0
-0.0439449 -0.0516739 0.537268 0.710584 -0.702937 0.0308183
0.0256937 -0.118174 0.489566 0 0 -1
0.0529361 -0.0675202 0.560956 0.987921 0.154956 0
0.04817 -0.0488653 0.721597 0.889538 0.456861 -2.04396e-07
-0.0551722 -0.10822 0.26344 -0.883046 -0.469281 -0.00202591
-0.114844 -0.0403953 0.0386358 -0.736508 -0.542377 0.404206
-0.0289834 -0.0276308 0.491768 -0.686178 0.727432 -0.0017133
0.232961 -0.0519092 0.500244 0.00666616 -0.999468 0.0319324
0.0487865 -0.0527642 0.510259 0.00943155 -0.999612 0.02622
-0.0049926 0.154448 0.0746684 -0.999862 0.00527473 -0.0157271
-0.0262985 -0.123125 0.678826 -0.686129 -0.72748 0
-0.0270889 -0.138364 0.367872 -0.377727 -0.925916 -0.0014526
-0.205801 -0.0961913 0.396679 0.390088 -0.901564 -0.187119
-0.280963 -0.0445991 0.473082 0.00666696 0.999468 -0.0319364
-0.0487759 -0.0653179 0.833907 -0.97912 0.153575 0.133187
0.0251464 -0.12243 0.51871 0.193651 0.0341406 0.980476
-0.0459983 -0.0967772 0.733532 -0.889543 -0.456851 0
-0.000590864 -0.0166674 0.287912 0 0.999998 -0.0018042
0.00579176 -0.145516 0.484892 0 -0.999999 -0.00168984
0.085359 -0.0443786 0.517822 0.000937336 0.99949 -0.0319247
-0.0458094 -0.0438216 0.105872 -0.442761 0.808901 0.386835
0.0555639 -0.118649 0.539798 0.54974 -0.835322 -0.00469878
0.193492 -0.0905802 0.422454 -0.71542 -0.692846 -0.0902135
-0.193728 -0.0767685 0.42445 0.985419 0.146065 -0.0872572
-0.200301 -0.0802172 0.535164 -0.986837 0.146582 0.0683141
-0.244507 -0.0532505 0.457745 -0.00552304 -0.999202 0.0395589
0.0424408 -0.127874 0.198522 0.280011 0.166871 -0.945382
0.0444337 -0.0831417 0.16719 0.90098 -0.372177 -0.222978
-0.0819754 -0.0468555 0.0708217 -0.442761 0.808901 0.386835
-0.0477628 -0.0567774 0.643591 -0.987921 0.154961 0
0.045613 -0.104319 0.720594 0.889543 -0.45685 0
-0.0950761 -0.033949 0.0288386 -0.442761 0.808901 0.386835
-0.20057 -0.0537875 0.450316 -0.00552304 -0.999202 0.0395589
0.187833 -0.083065 0.555097 -0.896403 -0.416263 0.152272
0.0473978 -0.0599668 0.0959716 -0.384541 -0.815093 -0.433303
0.11007 -0.0470161 0.54504 0.204398 0 0.978888
0.0446947 -0.127912 0.578171 0.679355 -0.733809 0.000659094
-0.0122368 -0.0437283 0.887082 -0.279389 0.682828 0.675046
-0.0503843 -0.0739125 0.824822 -1 0 0
-0.049176 -0.0683501 0.25245 -0.98792 0.154958 -0.00160989
0.275881 -0.0456032 0.448054 -0.00552374 0.999202 -0.0395638
0.144387 -0.053576 0.466563 0.00666616 -0.999468 0.0319324
-0.0485716 -0.0862721 0.733576 -0.987921 -0.15496 0
0.199796 -0.0444178 0.495701 -0.00666699 0.999468 -0.0319364
0.00239142 -0.0167607 0.236206 0 0.999998 -0.0018042
-0.0548523 -0.0980509 0.393699 -0.457042 0.889445 -4.31226e-05
-0.0452159 -0.0505755 0.313457 -0.889537 0.45686 -0.00164826
-0.110181 -0.0525421 0.506067 -0.00666614 -0.999468 0.0319324
0.296872 -0.0456055 0.445063 -0.00552374 0.999202 -0.0395638
-0.0273492 -0.138179 0.317535 -0.377727 -0.925916 -0.0014526
-0.0476881 -0.0590927 0.23042 -0.98792 0.154958 -0.00160989
0.341321 -0.0434918 0.495134 -0.00666699 0.999468 -0.0319364
0.00828182 0.160857 0.0615739 0.999872 0.0155157 0.0038749
0.0398697 0.0186718 0.0295533 0.801285 0.125683 -0.584933
0.234062 -0.084474 0.400734 0.922269 -0.335825 -0.191422
-0.0282196 -0.0273189 0.318296 -0.686178 0.727432 -0.0017133
-0.0489362 -0.119979 0.288259 -0.794146 -0.607724 -0.00168267
-0.070156 -0.0415956 0.0471729 0.28661 -0.844536 -0.452342
-0.0483135 -0.071283 0.194323 -0.982163 -0.154053 -0.107808
-0.228547 -0.0991214 0.549355 -0.697817 -0.699905 0.152264
-0.0376508 -0.0330617 0.204858 -0.777285 0.584198 0.23354
0.0363516 -0.116932 0.814714 0.686191 -0.727421 0
-0.20293 -0.0906428 0.5543 -0.703732 0.706533 0.0746474
0.117267 -0.0516657 0.532017 0.00666616 -0.999468 0.0319324
-0.0416778 0.0123712 0.0671538 -0.944909 0.307959 0.11094
0.105097 -0.0481301 0.442276 -0.138322 0 -0.990387
-0.007808 -0.0166253 0.43354 -0.192994 0.981198 -0.0018249
0.0563122 -0.11275 0.307836 0.882961 -0.469443 -0.00164821
-0.107915 -0.0528671 0.496366 -0.00666614 -0.999468 0.0319324
-0.0569614 -0.0157137 0.0343323 -0.442761 0.808901 0.386835
-0.0254309 -0.0242623 0.604714 -0.686177 0.727435 0
-0.221032 -0.049918 0.524243 -0.396585 0.917086 0.0409212
-0.00283062 -0.13192 0.741094 0 -1 0
0.0324647 0.00177107 0.0208729 0.764633 -0.119933 -0.633208
0.00376173 -0.0162862 0.715903 0 1 0
-0.0639084 -0.0591427 0.0838923 0.28661 -0.844536 -0.452342
0.157806 -0.0505043 0.534636 0.141928 -0.719468 0.679869
0.198872 -0.0552885 0.576004 -0.350073 -0.391592 0.850943
-0.00641564 0.0359311 0.125584 -0.999749 0.0211124 0.00755721
-0.162137 -0.0222043 0.565245 0.753994 -0.498739 0.427495
-0.0501762 -0.118289 0.418085 -0.883046 -0.469281 -0.00202591
-0.0491103 -0.0677584 0.269059 -0.98792 0.154958 -0.00160989
-0.243141 -0.053223 0.458632 -0.00552304 -0.999202 0.0395589
-0.0355048 -0.133138 0.57984 -0.685293 -0.728267 0.000687049
0.216667 -0.0548862 0.50192 0.200307 0.979094 0.0353969
0.0194595 -0.0198241 0.778008 0.378687 0.925525 0
-0.199628 -0.0540863 0.505593 0.705402 0.707746 0.0387641
-0.0328734 -0.0753127 0.89225 -0.904389 0.141857 0.402438
0.0500128 -0.0524534 0.632967 0.889538 0.456861 -2.04396e-07
-0.0503255 -0.0731148 0.669701 -0.987921 0.154961 0
-0.0387071 -0.037232 0.803248 -0.889543 0.456851 0
0.0257819 -0.140219 0.322011 0.375049 -0.927004 -0.00144849
0.0493625 -0.0511871 0.649986 0.889538 0.456861 -2.04396e-07
0.00846795 0.147507 0.0739807 0.999914 0.0131173 -0.000781369
0.0163033 -0.0995523 0.94164 0.668334 -0.708445 0.226794
-0.216002 -0.0998042 0.402509 0 -0.981501 -0.191455
0.0527083 -0.0821379 0.810073 0.987921 -0.15496 0
0.058428 -0.116566 0.547336 0.88423 -0.463787 -0.0551262
0.376249 -0.0528912 0.448427 0.00552306 -0.999202 0.0395589
0.222547 -0.0618506 0.420258 0.474466 0.87594 -0.0872432
-0.0475943 -0.0906987 0.325652 -0.987918 -0.154968 -0.00161047
0.0517142 -0.12115 0.451804 0.679847 -0.733353 -0.0012742
-0.0237608 -0.0756 0.109335 -0.628407 -0.666812 -0.400583
-0.249831 -0.155902 0.563136 0.543297 -0.347686 0.764162
0.037969 -0.133681 0.303035 0.685298 -0.728261 -0.00184013
0.0815073 -0.060174 0.0741346 0.28809 -0.95603 -0.0548676
-0.320754 -0.0462139 0.426365 0.00552372 0.999202 -0.0395638
0.291101 -0.0464523 0.507239 0.204398 0 0.978888
-0.0184647 -0.0159591 0.200669 -0.352895 0.862481 0.362756
-0.200824 -0.0329243 0.578319 -0.935568 0.353027 0.00921087
-0.246754 -0.14215 0.568295 0.465235 -0.455566 0.758957
-0.0304681 -0.134238 0.50082 -0.335521 -0.92193 -0.193574
0.0466988 -0.0460008 0.752622 0.889538 0.456861 -2.04396e-07
0.342027 -0.0436534 0.489929 -0.00666699 0.999468 -0.0319364
-0.23022 -0.100641 0.512887 -0.705536 -0.707616 0.0387191
0.196878 -0.0351827 0.581561 0.927649 0.365969 0.0743906
-0.349135 -0.0441633 0.47419 0.00552372 0.999202 -0.0395638
0.0208656 -0.0203994 0.769784 0.378687 0.925525 0
0.113061 -0.0523773 0.510621 0.00666616 -0.999468 0.0319324
-0.260568 -0.14128 0.568969 -0.536875 0.285364 -0.793935
-0.138789 -0.0531629 0.480664 -0.00666614 -0.999468 0.0319324
-0.183872 -0.044566 0.494385 0.00666696 0.999468 -0.0319364
-0.0490468 -0.083242 0.670566 -0.987921 -0.15496 0
-0.0968145 -0.049349 0.443449 -0.0293257 0 -0.99957
-0.00260216 -0.0167782 0.226546 0 0.999998 -0.0018042
0.279589 -0.177512 0.569541 -0.452066 -0.309836 0.836443
0.0460382 -0.0450651 0.402069 0.889542 0.45685 -0.00164795
-0.00372246 -0.0164334 0.41763 0 0.999998 -0.0018042
-0.0464305 -0.0525834 0.412438 -0.889537 0.45686 -0.00164826
0.036798 -0.0938816 0.160643 0.741877 -0.583664 -0.330083
0.0349343 -0.136758 0.587952 0.538681 -0.84251 4.37792e-05
0.160621 -0.0516369 0.523869 0.00666616 -0.999468 0.0319324
0.165164 -0.0524969 0.496001 0.00666616 -0.999468 0.0319324
-0.0339736 0.0283082 0.0653059 -0.875106 0.449444 0.179413
0.177426 -0.0225082 0.569931 0.451789 0.406895 -0.793929
-0.037768 -0.131025 0.466271 -0.685296 -0.728263 -0.00129321
-0.04318 -0.0464078 0.369927 -0.889537 0.45686 -0.00164826
0.0394908 -0.132235 0.297361 0.685298 -0.728261 -0.00184013
0.230844 -0.0948455 0.418386 0.72306 -0.683405 -0.100707
0.0470114 -0.0466434 0.489805 0.889542 0.45685 -0.00164795
0.0797504 -0.0521302 0.523294 0.00943155 -0.999612 0.02622
-0.120726 -0.0545566 0.442037 -0.00552304 -0.999202 0.0395589
0.339502 -0.0454794 0.442296 -0.00552374 0.999202 -0.0395638
-0.0184496 -0.141951 0.40773 -0.377727 -0.925916 -0.0014526
-0.0297897 -0.0285916 0.406721 -0.686178 0.727432 -0.0017133
0.0536784 -0.0746775 0.380053 0.999999 0 -0.00162956
-0.0182038 -0.0207376 0.511121 -0.378686 0.925525 0
0.0434957 -0.0397642 0.595758 0.889539 0.456859 4.41996e-07
-0.100876 -0.0383387 0.0313796 -0.442761 0.808901 0.386835
-0.0496026 -0.120402 0.521264 -0.366896 -0.930257 -0.00308768
0.0197043 -0.0202768 0.3156 0.378687 0.925523 -0.00177697
0.345044 -0.0519134 0.477483 0.00552306 -0.999202 0.0395589
0.385023 -0.0461114 0.458302 0.999965 0 -0.00840665
-0.0501712 -0.0721316 0.58495 -0.987921 0.154961 0
-0.156712 -0.0459614 0.456387 0.00666696 0.999468 -0.0319364
-0.00983415 -0.017313 0.537959 -0.378686 0.925525 0
-0.0422958 -0.0622062 0.103306 0.28661 -0.844536 -0.452342
-0.209331 -0.0923842 0.51824 -0.395697 0.914989 0.0788654
-0.340754 -0.0521962 0.470938 -0.00552304 -0.999202 0.0395589
-0.27027 -0.0516805 0.499615 -0.00666614 -0.999468 0.0319324
-0.210426 -0.082224 0.515012 -0.218674 0.218879 0.950933
-0.0431055 -0.0991671 0.204961 -0.918945 -0.342131 -0.19618
-0.0398585 -0.0372625 0.205041 -0.876274 0.450046 0.172054
0.0246766 -0.121582 0.86187 0.519876 -0.807565 0.27851
-0.0819987 -0.0458839 0.470596 -0.000937337 0.99949 -0.0319247
-0.367813 -0.0536281 0.405892 0.0962369 -0.718056 -0.689299
-0.35689 -0.0453266 0.493502 -0.204398 0 0.978888
0.0386562 -0.129746 0.621169 0.228282 0.283145 0.931513
-0.324144 -0.0545547 0.413684 -0.00552304 -0.999202 0.0395589
0.151588 0.0132606 0.57815 -0.53135 -0.306634 0.789711
-0.0143645 -0.0192198 0.471566 -0.378686 0.925523 -0.001777
-0.197126 -0.0726453 0.557661 0.979568 0.175039 0.0990372
-0.30064 -0.0450142 0.459471 0.00552372 0.999202 -0.0395638
0.0532525 -0.0722045 0.242411 0.987918 0.154966 -0.00160988
-0.0476624 -0.056137 0.624632 -0.987921 0.154961 0
-0.353232 -0.0453355 0.494266 -0.204398 0 0.978888
-0.0161855 0.0458406 0.0233853 -0.590646 0.626167 -0.508972
-0.0272655 -0.0576726 0.0849914 -0.628407 -0.666812 -0.400583
-0.0208439 -0.141125 0.572455 -0.37464 -0.92717 -0.000588558
0.0484148 -0.0493419 0.786178 0.889538 0.456861 -2.04396e-07
-0.376649 -0.0456509 0.43278 0.00552372 0.999202 -0.0395638
-0.311103 -0.043998 0.485601 0.00666696 0.999468 -0.0319364
0.0355614 -0.0305277 0.715396 0.686171 0.72744 0
0.00203992 -0.0162862 0.760536 0 1 0
-0.00503355 0.125828 0.0572794 -0.999749 0.0211124 0.00755721
-0.0425498 -0.0449095 0.445038 -0.88954 0.456855 -0.00164864
0.0367666 -0.0316646 0.624845 0.686171 0.72744 0
-0.0232515 -0.125402 0.656424 -0.37868 -0.925528 0
0.0159964 -0.0184072 0.574222 0.378687 0.925525 0
-0.00470947 -0.108446 0.153822 0 -0.86919 -0.494479
-0.0137252 -0.143612 0.264219 -0.375049 -0.927004 -0.00166242
-0.0482213 -0.0885052 0.749073 -0.987921 -0.15496 0
-0.202544 -0.103681 0.517907 0.396605 -0.917077 0.040927
-0.0464716 -0.0526378 0.419512 -0.889537 0.45686 -0.00164826
-0.0485447 -0.064509 0.234788 -0.98792 0.154958 -0.00160989
0.248053 -0.151791 0.562215 -0.726415 -0.537867 0.427808
0.0949241 -0.0536867 0.472691 -0.000937219 -0.99949 0.0319208
0.0177066 -0.143835 0.592651 0.374642 -0.92717 7.46548e-06
-0.238107 -0.0701268 0.525296 -0.988545 0.146713 0.0354218
-0.049759 -0.0717712 0.209966 -0.987303 0.154859 0.0353824
-0.10041 -0.046292 0.457848 0.00730943 0.999467 -0.0318217
0.0606412 -0.0992448 0.244238 0.455008 0.890487 -4.5468e-05
-0.028566 -0.0272195 0.771314 -0.686171 0.72744 0
-0.0379729 0.00299049 0.109221 -0.875107 0.449442 0.179413
-0.00114161 -0.0162862 0.605998 0 1 0
-0.0306714 -0.137089 0.48641 -0.377727 -0.925916 -0.0014526
-0.250755 -0.160948 0.561496 0.543297 -0.347686 0.764162
0.00225491 -0.145372 0.399774 0 -0.999999 -0.00168984
-0.0315483 -0.118173 0.689995 -0.686129 -0.72748 0
-0.00460825 0.146272 0.0564293 -0.999749 0.0211124 0.00755721
-0.0441811 -0.124666 0.283963 -0.685296 -0.728263 -0.00129321
0.0521581 -0.0625599 0.565936 0.987921 0.154956 0
0.185561 -0.0802126 0.455583 -0.9932 -0.0584961 -0.100654
-0.0262553 -0.0255894 0.265898 -0.686178 0.727432 -0.0017133
0.00898849 0.113303 0.0696401 0.999872 0.0155157 0.0038749
-0.0481356 -0.088156 0.412983 -0.987918 -0.154968 -0.00161047
0.0899397 -0.0520575 0.523558 -0.000937219 -0.99949 0.0319208
-0.0243851 -0.0237997 0.312519 -0.541545 0.84067 -0.00177509
0.0472986 -0.0456661 0.481839 -0.00943272 0.999612 -0.0262233
-0.0490678 -0.066996 0.3164 -0.98792 0.154958 -0.00160989
0.186917 -0.0445029 0.576049 -0.350073 -0.391592 0.850943
-0.0882872 -0.0309436 0.0303245 -0.442761 0.808901 0.386835
-0.205785 -0.0625943 0.551213 -0.704013 -0.706254 0.0746475
-0.214478 -0.0514277 0.519174 -0.00666614 -0.999468 0.0319324
0.230308 -0.100763 0.53223 0.423661 -0.904993 0.0387228
0.0123689 -0.0819531 0.958429 0.696171 0.224519 0.681863
0.212796 -0.0445937 0.487482 -0.00666699 0.999468 -0.0319364
0.0197863 0.0302292 0.0934735 0.351004 0.85787 0.375306
0.113337 -0.0517567 0.52999 0.00666616 -0.999468 0.0319324
0.0490028 -0.0504867 0.812528 0.889538 0.456861 -2.04396e-07
0.0533945 -0.0716868 0.379355 0.987918 0.154966 -0.00160988
-0.222225 -0.0842761 0.573924 0.240592 0.970626 -0.000515919
0.236812 -0.0967875 0.574679 0.647615 0.751283 -0.127158
0.240503 -0.0769741 0.533509 0.997419 0.0590092 0.0409154
0.0528591 -0.0972072 0.523808 0.84589 0.533357 -0.00049399
0.0614695 -0.05181 0.542077 0.00943155 -0.999612 0.02622
0.262156 -0.0527419 0.468128 0.00552306 -0.999202 0.0395589
-2.64386e-05 0.178717 0.0398735 0 -0.239101 -0.970995
-0.163563 0.0038157 0.57001 -0.480051 0.380364 -0.79049
0.181894 -0.00829699 0.583395 0.827374 0.458876 0.32386
-0.0410786 -0.0151238 0.139451 -0.875107 0.449442 0.179413
-0.191892 -0.0820588 0.547015 0.979498 -0.145325 0.139513
0.0501789 -0.0401528 0.134376 0.981886 -0.154003 -0.110377
0.373974 -0.052249 0.464967 0.00552306 -0.999202 0.0395589
0.225883 -0.0445613 0.485763 -0.00666699 0.999468 -0.0319364
0.0109817 -0.131764 0.796195 0.194005 -0.981001 0
0.0559575 -0.0273922 0.0293351 -0.337992 0.242386 -0.909401
0.0297151 -0.123192 0.697922 0.686191 -0.727421 0
0.208759 -0.0662572 0.519912 0.103042 -0.992168 0.0706109
-0.0684227 -0.0453536 0.4868 -0.000937337 0.99949 -0.0319247
-0.116465 -0.0463824 0.451613 0.00666696 0.999468 -0.0319364
-0.0460949 -0.0380552 0.164642 -0.987303 0.15486 0.0353828
0.115783 -0.0459967 0.463826 -0.00666699 0.999468 -0.0319364
0.283738 -0.154106 0.578519 0.512505 0.391652 -0.764165
-0.0491601 -0.0656851 0.740958 -0.987921 0.154961 0
0.0263017 -0.125581 0.672573 0.378679 -0.925528 0
-0.0769907 -0.0435229 0.554459 -0.239167 0.707616 0.66489
-0.233246 -0.123506 0.560386 -0.383258 0.342107 -0.857949
0.00987025 -0.14553 0.49277 0 -0.999999 -0.00168984
0.0516141 -0.0590914 0.638842 0.987921 0.154956 0
0.224682 -0.083218 0.556932 -0.0153081 0.0129704 -0.999799
0.0524588 -0.0657802 0.205746 0.987301 0.15487 0.0353861
0.0512547 -0.0914052 0.550042 0.987922 -0.154955 0
0.00352705 -0.0164157 0.427428 0 0.999998 -0.0018042
0.059961 -0.107402 0.570497 0.428303 0.897074 0.108693
0.267932 -0.1733 0.560165 0.531309 0.306621 -0.789743
0.0346325 -0.136918 0.500756 0.377701 -0.925927 -0.000577378
-0.208259 -0.10733 0.491515 0.396579 -0.917088 0.0409229
-0.0183498 -0.0209628 0.413019 -0.378686 0.925523 -0.001777
-0.0503843 -0.0738214 0.518592 -1 0 0
0.121414 -0.0464431 0.448678 -0.00666699 0.999468 -0.0319364
0.0508213 -0.093993 0.244278 0.891296 0.45342 -0.00107948
-0.00847881 -0.0571076 0.904362 -0.367967 0.899205 0.236708
-0.214567 -0.105992 0.542177 0 -0.986395 0.16439
-0.06452 -0.0437857 0.547326 0.00943275 0.999612 -0.0262233
-0.0458785 -0.0511955 0.499604 -0.889543 0.456851 0
-0.030581 -0.0291202 0.697467 -0.686177 0.727435 -6.38945e-07
-0.0477619 -0.0567712 0.737128 -0.987921 0.154961 0
-0.0489294 -0.0642147 0.729527 -0.987921 0.154961 0
0.368893 -0.0521305 0.46867 0.00552306 -0.999202 0.0395589
0.00988363 -0.145504 0.477532 0 -0.999999 -0.00168984
-0.0396582 -0.0390838 0.57967 -0.889543 0.456851 0
0.18558 -0.0677269 0.504625 -0.93884 0.341801 0.0418608
-0.36158 -0.0443015 0.468964 0.00552372 0.999202 -0.0395638
-0.0465962 -0.0470233 0.189906 -0.987303 0.15486 0.0353828
-0.148204 -0.0527217 0.492506 -0.00666614 -0.999468 0.0319324
0.0295666 -0.0254975 0.234035 0.686176 0.727434 -0.00171306
0.34133 -0.0540676 0.423589 0.00552306 -0.999202 0.0395589
-0.215197 -0.0458205 0.451036 0.00552372 0.999202 -0.0395638
-0.231289 -0.0580674 0.543377 -0.697811 0.699913 0.152256
-0.0175913 -0.12096 0.52651 -0.977624 -0.172359 0.120602
-0.0583911 -0.102436 0.347337 -0.885436 -0.464758 -0.00164823
-0.325232 -0.0519998 0.478144 -0.00666614 -0.999468 0.0319324
-0.0145651 -0.143434 0.354719 -0.375049 -0.927004 -0.00166242
0.239279 -0.0746415 0.536999 0.906215 0.421039 0.0387472
-0.360685 -0.053828 0.426938 -0.00552304 -0.999202 0.0395589
-0.189795 -0.0104948 0.580517 -0.733749 0.508945 -0.450098
0.26566 -0.0519633 0.491724 0.00666616 -0.999468 0.0319324
0.0189277 -0.131011 0.529016 -0.623616 -0.743221 0.242334
-0.248282 -0.141795 0.560476 -0.536875 0.285364 -0.793935
-0.196041 -0.089346 0.42652 0.895836 -0.435127 -0.0902405
-0.194012 -0.0621955 0.46701 0.895677 0.435456 -0.0902315
0.0248753 -0.0220401 0.532062 0.378687 0.925525 0
0.182544 -0.0747888 0.482172 -0.993173 -0.0588967 -0.100693
-0.238819 -0.0808746 0.525071 -0.988546 -0.146696 0.0354428
0.0104116 -0.145261 0.333775 0 -0.999999 -0.00168984
-0.0464957 -0.0842912 0.196351 -0.982164 -0.154052 -0.107807
-0.111187 -0.0424971 0.0220048 0.226968 -0.97383 0.0118334
-0.227355 -0.0679799 0.546475 0.897134 -0.436077 0.0706228
0.230226 -0.0598557 0.483488 0.475868 0.878804 0.0354086
-0.0481952 -0.0886718 0.701824 -0.987921 -0.15496 0
-0.0212157 -0.0220645 0.449959 -0.378686 0.925523 -0.00177699
-0.052127 -0.114147 0.3091 -0.883046 -0.469281 -0.00202591
-0.00659677 -0.14545 0.445884 0 -0.999999 -0.00168984
-0.00563041 -0.0162862 0.806588 0 1 0
0.0100285 0.0326971 0.143639 0.999914 0.0131173 -0.000781369
0.0435821 -0.0622504 0.103654 -0.384541 -0.815093 -0.433303
-0.276144 -0.0447053 0.470764 0.00666696 0.999468 -0.0319364
-0.208823 -0.0608162 0.550429 -0.395704 -0.914985 0.0788675
0.233635 -0.0636714 0.476177 0.71542 0.692846 -0.0902127
-0.271717 -0.0443616 0.482445 0.00666696 0.999468 -0.0319364
0.0188387 -0.0862008 0.951111 0.954608 -0.149736 0.257493
-0.153545 -0.0434878 0.534458 0.00666696 0.999468 -0.0319364
0.00269493 -0.127278 0.186925 0 -0.86919 -0.494479
0.179875 -0.0534851 0.462002 0.00666616 -0.999468 0.0319324
-0.216137 -0.0449478 0.475701 0.00666696 0.999468 -0.0319364
0.0163909 -0.115916 0.889805 0.360639 -0.881218 0.305607
-0.0482742 -0.0600375 0.826517 -0.987921 0.154961 0
-0.196851 -0.0917781 0.4302 0.895654 -0.43551 -0.0901954
-0.0118412 -0.0182654 0.430917 -0.378686 0.925523 -0.001777
-0.016742 -0.142792 0.564314 -0.377699 -0.925928 7.45626e-06
-0.101924 -0.0446364 0.509291 0.00666696 0.999468 -0.0319364
-0.0559136 -0.107241 0.371197 -0.885436 -0.464758 -0.00164823
-0.0267056 -0.122741 0.778993 -0.686129 -0.72748 0
-0.194671 -0.0960661 0.472558 0.895654 -0.43551 -0.0901954
-0.0341911 -0.0328025 0.381658 -0.686173 0.727436 -0.00171289
0.195534 -0.0515047 0.520718 0.00666616 -0.999468 0.0319324
-0.215829 -0.051786 0.507676 -0.00666614 -0.999468 0.0319324
0.051047 -0.0571077 0.342215 0.987918 0.154968 -0.00161007
0.0472039 -0.0943964 0.1995 0.918945 -0.342131 -0.19618
-0.272404 -0.0523216 0.479103 -0.00666614 -0.999468 0.0319324
-0.030769 -0.137138 0.609543 -0.37464 -0.92717 -0.000588558
0.127227 -0.036236 0.0276792 0.757463 0.278132 0.59067
0.0086879 -0.122965 0.878082 0.182927 -0.933261 0.309129
-0.123801 -0.0460361 0.460918 0.00666696 0.999468 -0.0319364
0.053418 -0.0705921 0.772347 0.987921 0.154961 -4.40026e-07
-0.228971 -0.0871482 0.559927 -0.860094 -0.49478 0.124221
0.0650552 -0.0541329 0.457845 -0.000937219 -0.99949 0.0319208
0.050404 -0.0707342 0.113559 -0.384541 -0.815093 -0.433303
-0.0629668 -0.0518534 0.539883 -0.00943158 -0.999612 0.02622
0.0522124 -0.0629062 0.569421 0.987921 0.154956 0
-0.239397 -0.0973214 0.572308 -0.663504 0.746427 -0.0510775
0.158035 -0.00442474 0.57534 -0.521623 -0.321011 0.790482
-0.213736 -0.0920627 0.55742 -0.00698238 -0.018846 -0.999798
0.00190121 -0.0164022 0.434954 0 0.999998 -0.0018042
0.0238007 -0.080493 0.932342 0.947679 0.148642 0.282507
0.0197215 -0.0202575 0.329304 0.378687 0.925523 -0.00177697
0.223441 -0.10513 0.476826 0.102813 -0.9906 -0.0902229
-0.00345715 -0.14554 0.541537 0 -1 0
0.0524113 -0.0668086 0.245617 0.987918 0.154968 -0.00161007
0.0543594 -0.0960295 0.314366 0.456913 0.889511 -0.000144457
-0.00784083 -0.145421 0.428505 0 -0.999999 -0.00168984
0.196996 -0.0975665 0.450758 -0.474351 -0.876001 -0.0872525
-0.301654 -0.0451776 0.505036 -0.204398 0 0.978888
0.0264417 -0.104228 0.157995 0.550122 -0.722645 -0.41851
0.00876735 0.125853 0.0936176 0.999914 0.0131173 -0.000781369
0.0856473 -0.0483169 0.0401117 -0.384541 -0.815093 -0.433303
0.0486376 -0.123923 0.406262 0.679847 -0.733353 -0.0012742
0.296715 -0.0515445 0.498349 0.00666616 -0.999468 0.0319324
-0.221947 -0.0681121 0.372491 0 0 -1
0.00924528 0.0901992 0.10667 0.999914 0.0131173 -0.000781369
0.183742 -0.0806242 0.473767 -0.993173 -0.0588967 -0.100693
0.237012 -0.0539535 0.441036 0.00552306 -0.999202 0.0395589
-0.366251 -0.0518877 0.47517 -0.00552304 -0.999202 0.0395589
0.352653 -0.0436279 0.488509 -0.00666699 0.999468 -0.0319364
0.0552232 -0.0609024 0.0907869 -0.384541 -0.815093 -0.433303
-0.273571 -0.165964 0.57427 0.46988 -0.394406 0.789719
-0.046807 -0.050034 0.197199 -0.987303 0.15486 0.0353828
-0.0477188 -0.0917087 0.573459 -0.987921 -0.15496 0
0.0505181 -0.0537808 0.431021 0.950817 0.30975 -0.00164959
-0.0168142 -0.0201892 0.488675 -0.378686 0.925523 -0.001777
0.267536 -0.0456333 0.448459 -0.00552374 0.999202 -0.0395638
-0.0332543 -0.124444 0.521358 0.977631 0.172326 0.120584
0.0344916 -0.0933447 0.89276 0.888388 -0.290555 0.35545
0.232107 -0.0635451 0.465033 0.71542 0.692846 -0.0902127
-0.0242697 -0.0705344 0.912863 -0.237902 0.938432 0.250496
-0.00441051 -0.13192 0.665229 0 -1 0
0.00963976 0.0613696 0.127508 0.999914 0.0131173 -0.000781369
0.0180253 -0.0192373 0.773541 0.378687 0.925525 0
0.0329622 -0.035599 0.857574 0.636801 0.675093 0.37247
0.0115889 -0.145061 0.21521 0 -0.999999 -0.00168984
-0.0134922 -0.144092 0.483267 -0.377727 -0.925916 -0.0014526
0.371962 -0.0442856 0.489886 0.142683 0.715886 0.683483
0.0466847 -0.102233 0.726111 0.889544 -0.45685 0
0.0155123 -0.129996 0.767646 0.378679 -0.925528 0
-0.0455081 -0.0342785 0.164488 -0.987303 0.15486 0.0353828
-0.279174 -0.0544803 0.419155 0.0962369 -0.718056 -0.689299
-0.21925 -0.0513075 0.445958 -0.394899 0.913188 -0.100706
-0.0185242 -0.0740576 0.10172 -0.332301 -0.812148 -0.479575
-0.00537654 0.126901 0.0898386 -0.999862 0.00527473 -0.0157271
0.173667 -0.00801356 0.584154 -0.512521 -0.391623 0.764169
-0.107153 -0.0526732 0.502595 -0.00666614 -0.999468 0.0319324
-0.0409013 -0.0673207 0.113739 0.28661 -0.844536 -0.452342
0.0212802 -0.127636 0.661555 0.378679 -0.925528 0
-0.0665907 -0.0523869 0.518242 -0.00943158 -0.999612 0.02622
0.0431802 -0.109056 0.709757 0.889543 -0.45685 0
0.0494371 -0.0517489 0.383808 0.889542 0.45685 -0.00164795
-0.00599408 0.0846827 0.129002 -0.99994 0.0108599 -0.00174132
0.0552995 -0.0964868 0.472279 0.456913 0.889511 -0.000144457
0.000645797 -0.0162862 0.731059 0 1 0
0.0516419 -0.0525243 0.518381 0.00943155 -0.999612 0.02622
-0.0494309 -0.0676614 0.475162 -0.987919 0.154961 -0.00160971
0.220381 -0.0674308 0.557203 -0.0152644 0.0131624 -0.999797
-0.218204 -0.0608353 0.379692 -0.389795 0.90169 -0.187121
0.0356713 -0.117573 0.642551 0.686191 -0.727421 0
-0.0959417 -0.0535865 0.47586 0.000937219 -0.99949 0.0319208
0.378615 -0.0447255 0.455876 -0.00552374 0.999202 -0.0395638
-0.00270289 -0.14521 0.30342 0 -0.999999 -0.00168984
-0.00506489 0.129005 0.0759673 -0.999271 -0.00620143 -0.0376675
0.222153 -0.0835716 0.516083 -0.27076 0.0984291 0.957602
0.210025 -0.0938056 0.531603 0.200083 0.977396 0.0682867
-0.0373687 -0.0610542 0.876811 -0.878963 0.284011 0.383095
-0.034133 -0.134473 0.481975 -0.685296 -0.728263 -0.00129321
0.00983446 -0.145039 0.202147 0 -0.999999 -0.00168984
0.00934825 0.0838122 0.131219 0.999914 0.0131173 -0.000781369
0.130244 0.0199109 0.567746 -0.441439 -0.336756 0.831702
0.00608948 0.169644 0.087096 0 0.563377 0.8262
-0.00858936 -0.0168037 0.771191 -0.378686 0.925525 0
0.340628 -0.0527327 0.457405 0.00552306 -0.999202 0.0395589
0.0526946 -0.0659801 0.544904 0.987921 0.154956 0
0.307368 -0.05178 0.488754 0.00666616 -0.999468 0.0319324
-0.0496143 -0.077146 0.26066 -0.98792 -0.15496 -0.00160989
0.00906808 0.112737 0.118564 0.99988 0.00157729 -0.0153758
0.213781 -0.089179 0.372491 0 0 -1
0.0440154 -0.10743 0.718836 0.889543 -0.45685 0
-0.047307 -0.0647606 0.129001 -0.736508 -0.542377 0.404206
0.333312 -0.0531204 0.448633 0.00552306 -0.999202 0.0395589
-0.0111274 0.05742 0.0573645 -0.37838 0.924774 -0.0402746
0.0261089 -0.0225448 0.714456 0.378687 0.925525 0
0.239031 -0.0917747 0.527494 0.938803 -0.341895 0.0419083
0.0196658 -0.142683 0.310195 0.377729 -0.925915 -0.00166116
0.0499233 -0.0361334 0.0901362 0.332181 0.849119 0.410673
-0.318811 -0.0442732 0.475649 0.00552372 0.999202 -0.0395638
0.00962818 -0.0163017 0.49061 0 0.999998 -0.0018042
0.0459119 -0.0444686 0.736897 0.889538 0.456861 -2.04396e-07
-0.0128459 -0.0185453 0.728269 -0.378686 0.925525 0
-0.198543 -0.078346 0.556553 -0.986837 0.146582 0.0683141
0.0336088 -0.0289068 0.405438 0.686172 0.727437 -0.00171339
0.0224985 -0.119177 0.519362 0.170308 -0.0983255 0.980473
0.0526286 -0.0655597 0.539869 0.987921 0.154956 0
0.305214 -0.052523 0.467646 0.00552306 -0.999202 0.0395589
-0.156338 -0.0544377 0.440069 -0.00552304 -0.999202 0.0395589
0.122181 -0.0434961 0.540747 -0.00666699 0.999468 -0.0319364
0.275098 -0.0452491 0.457105 -0.00552374 0.999202 -0.0395638
0.214763 -0.0625353 0.56215 0.126611 0.618769 0.775303
-0.0263387 -0.0251705 0.477154 -0.686178 0.727432 -0.0017133
0.0435918 -0.0881054 0.871219 0.943365 -0.147972 0.29693
0.00641528 -0.145369 0.397872 0 -0.999999 -0.00168984
-0.310565 -0.0545368 0.416034 -0.00552304 -0.999202 0.0395589
-0.0397762 -0.0401399 0.270262 -0.88954 0.456855 -0.00164864
-0.206146 -0.0800976 0.557141 -0.00695183 -0.0188203 -0.999799
0.380712 -0.0521885 0.465553 0.00552306 -0.999202 0.0395589
0.018299 -0.130775 0.501251 -0.630592 -0.751591 -0.193555
-0.296322 -0.181113 0.580242 0.46988 -0.394406 0.789719
0.198938 -0.0418446 0.572486 -0.262932 0.184359 -0.947037
-0.190636 -0.046536 0.436397 0.00552372 0.999202 -0.0395638
0.0497035 -0.0435927 0.560012 -0.00943272 0.999612 -0.0262233
0.00869342 0.131341 0.0911297 0.999914 0.0131173 -0.000781369
0.325995 -0.0538987 0.429996 0.00552306 -0.999202 0.0395589
0.216751 -0.0535074 0.455132 0.00552306 -0.999202 0.0395589
0.0528767 -0.0677743 0.438244 0.987918 0.154966 -0.00160988
0.0565004 -0.112067 0.214234 0.882961 -0.469443 -0.00164821
-0.10804 -0.0363801 0.00613017 0.329574 0.237117 -0.913869
0.106874 -0.0320642 0.00906383 -0.350952 0.179146 -0.919097
-0.0195721 -0.126908 0.668465 -0.37868 -0.925528 0
0.0358004 -0.117451 0.793327 0.686191 -0.727421 0
0.20488 -0.10204 0.453361 -0.199783 -0.975948 -0.0872485
0.033969 -0.0254545 0.203239 0.65746 0.69699 0.286271
0.150435 -0.0534839 0.468183 0.00666616 -0.999468 0.0319324
0.0594569 -0.0136594 0.0330201 0.295332 0.954186 -0.0480352
-0.0194135 -0.0216392 0.287422 -0.378686 0.925523 -0.00177699
0.0527504 -0.0818693 0.536247 0.987922 -0.154955 0
-0.233091 -0.0936794 0.446577 -0.895787 -0.435231 -0.0902212
-0.00202047 -0.0165937 0.328795 0 0.999998 -0.0018042
0.0532531 -0.0786642 0.500171 0.987922 -0.154955 0
0.0606404 -0.0992453 0.226216 0.455008 0.890487 -4.5468e-05
0.0678902 -0.0444655 0.520196 -0.00943272 0.999612 -0.0262233
0.016295 -0.104791 0.9253 0.668334 -0.708445 0.226794
0.257629 -0.143741 0.574226 -0.451789 -0.406873 0.79394
-0.202606 -0.0682177 0.573463 0.618206 0.739305 0.266926
0.141984 -0.00681528 0.55751 0.463657 0.401519 -0.789813
-0.303544 -0.0440478 0.48562 0.00666696 0.999468 -0.0319364
-0.163324 -0.0147265 0.569488 0.536866 -0.285365 0.793941
0.0483085 -0.0491349 0.574276 0.889539 0.456859 4.41996e-07
-0.195287 -0.0535127 0.457996 -0.00552304 -0.999202 0.0395589
0.0545773 -0.048219 0.11136 0.332181 0.849119 0.410673
-0.0196887 -0.0804595 0.934417 -0.947678 0.148646 0.282509
0.00988211 0.0442733 0.150634 0.999914 0.0131173 -0.000781369
-0.291748 -0.0440773 0.487161 0.00666696 0.999468 -0.0319364
0.00179234 -0.0167922 0.218794 0 0.999998 -0.0018042
0.28258 -0.186713 0.56775 -0.452066 -0.309836 0.836443
-0.0499277 -0.0735569 0.218982 -0.999999 0 -0.00162958
0.0102565 0.0166915 0.166769 0.999914 0.0131173 -0.000781369
-0.0429517 -0.102709 0.820624 -0.889543 -0.456851 0
0.204826 -0.0467183 0.429812 -0.00552374 0.999202 -0.0395638
0.0176445 -0.143317 0.197488 0.375049 -0.927004 -0.00144849
0.114689 -0.0450919 0.49237 -0.00666699 0.999468 -0.0319364
