0.0817684 -0.0372259 0.0226906 -0.384541 -0.815093 -0.433303
-0.222649 -0.0608235 0.389009 -0.389871 0.901661 -0.187106
-0.0485718 -0.0622585 0.468058 -0.987919 0.154961 -0.00160971
-0.00671963 0.0253502 0.175614 -0.99994 0.0108599 -0.00174132
0.0169884 -0.143935 0.399143 0.377729 -0.925915 -0.00166116
0.012143 -0.0506003 0.895516 0.279377 0.682831 0.675049
0.225552 -0.0923208 0.383841 0.714002 -0.674675 -0.187121
-0.0170313 -0.142383 0.325238 -0.375049 -0.927004 -0.00166242
0.264319 -0.145572 0.569869 0.512505 0.391652 -0.764165
0.00511088 0.127476 0.11585 0 0.563377 0.8262
-0.0258675 -0.0172271 0.193803 -0.657463 0.696987 0.28627
-0.30383 -0.0445104 0.471749 0.00552372 0.999202 -0.0395638
-0.218173 -0.0739961 0.534763 -0.705875 0.708336 0
-0.265755 -0.0435014 0.510608 0.00666696 0.999468 -0.0319364
-0.0307638 -0.10509 0.878493 -0.837509 -0.430118 0.337012
0.037262 -0.0321319 0.730645 0.686171 0.72744 0
-0.121406 -0.0448063 0.499906 0.00666696 0.999468 -0.0319364
-0.00603486 0.0794636 0.119873 -0.99994 0.0108599 -0.00174132
0.0466952 -0.062434 0.101236 -0.384541 -0.815093 -0.433303
-0.238261 -0.0678152 0.470734 -0.98539 0.146245 -0.0872808
-0.077084 -0.0458472 0.555713 -0.338507 6.3487e-06 0.940964
-0.027485 -0.122005 0.774957 -0.686129 -0.72748 0
0.136124 -0.0456102 0.471675 -0.00666699 0.999468 -0.0319364
-0.239661 -0.0980361 0.579697 -0.130967 0.478545 0.868241
0.0414035 -0.112126 0.703684 0.798916 -0.601443 0
0.347865 -0.0529894 0.449911 0.00552306 -0.999202 0.0395589
0.0511568 -0.0895787 0.263356 0.987918 -0.154968 -0.00160988
-0.00353778 0.0263309 0 0 0 -1
0.0429499 -0.0396218 0.213233 0.876274 0.450046 0.172054
-0.0497321 -0.0768262 0.30214 -0.98792 -0.15496 -0.00160989
-0.0158144 -0.0197599 0.715733 -0.378686 0.925525 0
0.0499843 -0.0622597 0.164872 0.982162 -0.154057 -0.107811
0.0341965 -0.0292403 0.644814 0.686171 0.72744 0
-0.0324201 -0.0747203 0.124494 -0.705687 -0.613028 -0.355251
-0.0159686 -0.0719399 0.933405 -0.861788 0.442579 0.247884
0.0467923 -0.046467 0.451492 -0.00943272 0.999612 -0.0262233
-0.0311833 -0.136404 0.233923 -0.539027 -0.842287 -0.00166975
-0.0490446 -0.0952304 0.561031 -0.430832 0.902432 -0.000428573
0.0314846 -0.0266823 0.817213 0.686171 0.72744 0
-0.0445251 -0.0218661 0.135431 -0.987207 0.154848 0.037994
0.0408342 0.00248855 0.0308437 0.764633 -0.119933 -0.633208
-0.367752 -0.0450558 0.449052 0.00552372 0.999202 -0.0395638
-0.169006 -0.0539535 0.450531 -0.00552304 -0.999202 0.0395589
-0.048131 -0.121212 0.431901 -0.685296 -0.728263 -0.00129321
0.0694458 -0.0529943 0.494055 0.00943155 -0.999612 0.02622
-0.0479981 -0.0876183 0.276885 -0.987918 -0.154968 -0.00161047
-0.213677 -0.0727305 0.589358 0.0052079 0.67624 0.736663
-0.111252 -0.0437644 0.0401059 -0.708292 -0.609129 0.356771
0.0535449 -0.098263 0.558114 0.84589 0.533357 -0.00049399
-0.0421291 -0.0438951 0.772636 -0.889543 0.456851 0
0.0581541 -0.112732 0.510685 0.88423 -0.463787 -0.0551262
-0.028673 -0.0278505 0.274151 -0.686173 0.727436 -0.00171289
0.0691305 -0.0441677 0.0912119 0.332181 0.849119 0.410673
-0.193561 -0.0448492 0.483501 0.00666696 0.999468 -0.0319364
-0.0452221 -0.0982884 0.737043 -0.889543 -0.456851 0
0.00181989 -0.0784322 0.100842 0 -0.862191 -0.506582
0.0518933 -0.0618551 0.404557 0.987918 0.154966 -0.00160988
-0.0760768 -0.0501156 0.0880796 0.25546 0.966571 0.0219219
-0.0450717 -0.0588934 0.147085 -0.982164 -0.154052 -0.107807
-0.0494831 -0.119297 0.349559 -0.883046 -0.469281 -0.00202591
0.0429002 -0.0386046 0.603677 0.889539 0.456859 4.41996e-07
0.100956 -0.0523876 0.51284 0.00733152 -0.999463 0.0319242
0.0364373 -0.13558 0.551979 0.679355 -0.733809 0.000659094
0.0270513 -0.108119 0.165514 0.542253 -0.727265 -0.420769
-0.0285663 -0.120986 0.664924 -0.686129 -0.72748 0
0.203516 -0.0513246 0.578204 0.927649 0.365969 0.0743906
0.198647 -0.0437118 0.518033 -0.00666699 0.999468 -0.0319364
0.226124 -0.0531132 0.463987 0.00666616 -0.999468 0.0319324
-0.193594 -0.0862469 0.438132 0.985419 -0.146047 -0.0872917
0.00784806 0.162769 0.0444195 0.998175 0.0042961 -0.0602281
-0.10886 -0.0458562 0.469668 0.00666696 0.999468 -0.0319364
0.21775 -0.0575241 0.548748 0.198407 0.970137 0.139531
0.044686 -0.0420817 0.811198 0.889538 0.456861 -2.04396e-07
-0.220448 -0.0985534 0.401872 -0.390034 -0.901582 -0.187146
0.06194 -0.0999091 0.23039 0.455008 0.890487 -4.5468e-05
0.0264311 -0.0228664 0.400365 0.378689 0.925522 -0.00177685
-0.0133546 -0.0192008 0.266225 -0.378686 0.925523 -0.00177699
-0.252764 -0.11006 0.582382 -0.751191 0.655858 0.0745809
0.145006 -0.00208606 0.561688 0.463657 0.401519 -0.789813
0.0130699 -0.0173127 0.445598 0.378687 0.925523 -0.00177697
0.0303682 0.0419003 0.0309485 0.590648 0.626163 -0.508973
0.0426245 -0.0386971 0.060197 -0.384541 -0.815093 -0.433303
-0.045864 -0.0970385 0.635687 -0.889543 -0.456851 0
0.0551935 -0.115189 0.379428 0.885438 -0.464754 -0.00203573
0.0102577 0.0162543 0.16087 0.999914 0.0131173 -0.000781369
-0.248498 -0.0537477 0.444631 -0.00552304 -0.999202 0.0395589
0.283305 -0.0530426 0.457581 0.00552306 -0.999202 0.0395589
0.0528078 -0.0797221 0.327707 0.987918 -0.154968 -0.00160988
0.0185462 0.0310615 0.0967117 0.965565 0.259618 -0.0168239
-0.00627938 0.0605879 0.142567 -0.99994 0.0108599 -0.00174132
-0.0313538 0.00841408 0.118279 -0.655211 0.694605 0.297022
0.0444418 -0.127654 0.315075 0.679847 -0.733353 -0.0012742
0.0545271 -0.0961003 0.408988 0.456913 0.889511 -0.000144457
0.00204964 0.0593802 0.0563672 -6.51136e-06 0.999164 -0.0408876
-0.0596634 -0.0392087 0.0493647 0.28661 -0.844536 -0.452342
0.053162 -0.0792457 0.774464 0.987922 -0.154955 -4.40024e-07
-0.0292193 0.0437833 0.0359796 -0.590646 0.626167 -0.508972
0.0217759 -0.0324283 0.0337744 0.249914 -0.610804 -0.751306
0.0456059 -0.0438728 0.518552 0.889538 0.456861 0
0.187956 -0.0450918 0.477077 -0.00666699 0.999468 -0.0319364
0.265163 -0.0435182 0.510207 -0.00666699 0.999468 -0.0319364
-0.216182 -0.045562 0.457428 0.00552372 0.999202 -0.0395638
-0.0357351 -0.033982 0.647124 -0.686177 0.727435 -6.38945e-07
0.005078 -0.0164213 0.424318 0 0.999998 -0.0018042
0.194496 -0.098315 0.503605 -0.717864 -0.69522 0.0366232
0.24272 -0.0845292 0.479253 0.993172 0.0588802 -0.100705
-0.260336 -0.170412 0.558029 -0.535879 0.298395 -0.789806
0.000737428 -0.0167786 0.226315 0 0.999998 -0.0018042
0.0199335 -0.12807 0.832764 0.377241 -0.922065 0.0865211
-0.0245222 -0.136878 0.194711 0.00116373 0.00300031 -0.999995
-0.0194931 0.040079 0.0679708 -0.351005 0.85787 0.375306
0.211483 -0.105066 0.472091 -0.199783 -0.975948 -0.0872485
-0.229905 -0.0814558 0.5673 -0.966934 -0.167451 0.192352
-0.00598861 0.0710758 0.0838933 -0.999749 0.0211124 0.00755721
-0.215219 -0.107849 0.476037 0 -0.994675 -0.10306
0.0231774 -0.141625 0.578174 0.374642 -0.92717 7.46548e-06
-0.282354 -0.0533526 0.449882 -0.00552304 -0.999202 0.0395589
0.160059 -0.0438011 0.523293 -0.00666699 0.999468 -0.0319364
0.126618 -0.0443039 0.514539 -0.00666699 0.999468 -0.0319364
-0.0356958 -0.132731 0.360071 -0.67999 -0.733219 -0.00183464
0.0457746 -0.0450174 0.272992 0.889539 0.456856 -0.00164832
0.323252 -0.0518678 0.48269 0.00666616 -0.999468 0.0319324
0.0102343 -0.0162943 0.569244 0.193 0.981199 0
0.0497846 -0.052009 0.676469 0.889538 0.456861 -2.04396e-07
-0.150071 -0.0514703 0.531286 -0.00666614 -0.999468 0.0319324
-0.0198381 -0.0103475 0.0189602 -0.474112 -0.50262 -0.722904
0.0374165 -0.0323748 0.457981 0.686172 0.727437 -0.00171339
0.0143764 -0.145063 0.43405 0.377729 -0.925915 -0.00166116
0.0609011 -0.0993638 0.474437 0.456913 0.889511 -0.000144457
0.203867 -0.0972381 0.410099 -0.474414 -0.875968 -0.087244
0.378444 -0.0543245 0.411919 0.00552306 -0.999202 0.0395589
-0.198319 -0.0707726 0.39425 0.886632 0.430861 -0.168055
0.027351 -0.0234251 0.330611 0.541545 0.84067 -0.00177489
-0.0241782 -0.0598719 0.0838093 -0.628407 -0.666812 -0.400583
0.377692 -0.051701 0.478288 0.00552306 -0.999202 0.0395589
-0.0182672 -0.0361267 0.876707 -0.337185 0.824081 0.455189
-0.0458174 -0.0883287 0.852039 -0.981227 -0.153918 0.116197
-0.0878299 -0.0370376 0.0232947 0.226968 -0.97383 0.0118334
0.0690305 -0.0456858 0.0499091 -0.384541 -0.815093 -0.433303
0.0324457 -0.137592 0.365712 0.375049 -0.927004 -0.00144849
-0.0462134 -0.122739 0.275753 -0.685296 -0.728263 -0.00129321
0.0502985 -0.0848122 0.848314 0.981228 -0.153913 0.1162
-0.089464 -0.0525649 0.507656 0.000937219 -0.99949 0.0319208
0.0514435 -0.0580036 0.602835 0.987921 0.154956 0
-0.239136 -0.0733032 0.509723 -0.988545 0.146713 0.0354218
-0.0475753 -0.0926235 0.803743 -0.987921 -0.15496 0
0.0482933 -0.0650715 0.133052 0.739751 -0.541889 0.398906
-0.209317 -0.0500186 0.537447 0.396595 0.917081 0.0409212
0.0422616 -0.0373612 0.575765 0.889538 0.456861 0
0.0510922 -0.0587796 0.214403 0.987733 0.154939 -0.0194469
0.0335109 -0.137449 0.621661 0.374642 -0.92717 7.46548e-06
-0.0276888 -0.0263921 0.744711 -0.686171 0.72744 0
0.0960064 -0.0468559 0.0281701 -0.384541 -0.815093 -0.433303
0.0256376 -0.14014 0.233807 0.375049 -0.927004 -0.00144849
-0.0245666 -0.13944 0.397886 -0.377727 -0.925916 -0.0014526
-0.360025 -0.0459347 0.427932 0.00552372 0.999202 -0.0395638
0.0475137 -0.0475875 0.760257 0.889538 0.456861 -2.04396e-07
0.0191337 -0.0196908 0.766281 0.378687 0.925525 0
-0.048925 -0.0827664 0.378665 -0.98792 -0.15496 -0.00160989
0.0394524 -0.114006 0.77094 0.686191 -0.727421 0
0.00985301 0.0453077 0.130759 0.999914 0.0131173 -0.000781369
-0.0274764 -0.0261917 0.80108 -0.686171 0.72744 0
0.0476596 -0.00131195 0.0608535 0.987208 0.154844 0.0379929
0.0131576 -0.0172456 0.666344 0.378687 0.925525 0
-0.00879301 -0.127233 0.860103 -0.364326 -0.890376 0.272942
0.0125152 -0.131222 0.769329 0.378679 -0.925528 0
-0.0433788 -0.125333 0.250845 -0.67999 -0.733219 -0.00183464
0.158668 0.00697431 0.580387 -0.521623 -0.321011 0.790482
0.0517222 -0.0597805 0.711125 0.987921 0.154956 0
0.0408941 -0.131296 0.448402 0.685298 -0.728261 -0.00184013
-0.0155521 -0.143259 0.48794 -0.377727 -0.925916 -0.0014526
0.210041 -0.0961506 0.56948 -0.167914 -0.970637 0.172247
0.0379483 -0.0746428 0.888448 0.904388 0.141856 0.402441
-0.00580965 0.0996869 0.116674 -0.99994 0.0108599 -0.00174132
0.052259 -0.0632029 0.550153 0.987921 0.154956 0
-0.0057466 -0.0940275 0.127385 0 -0.862191 -0.506582
0.00836527 0.155342 0.0741243 0.999914 0.0131173 -0.000781369
0.0336413 -0.13426 0.502174 0.335538 -0.921938 -0.193508
0.186202 -0.0672402 0.514617 -0.93884 0.341801 0.0418608
-0.215469 -0.0542474 0.436621 -0.00552304 -0.999202 0.0395589
0.0343515 -0.114309 0.533625 0.268295 0.319696 0.908742
-0.307002 -0.0466778 0.416569 0.00552372 0.999202 -0.0395638
0.0502705 -0.0952508 0.716656 0.889544 -0.45685 0
-0.0284333 -0.138035 0.534704 -0.37464 -0.92717 -0.000588558
-0.00573487 0.0874355 0.0717571 -0.999749 0.0211124 0.00755721
-0.0473683 -0.094117 0.221292 -0.891298 0.453418 -0.00108235
-0.0480029 -0.0583081 0.743938 -0.987921 0.154961 0
-0.00570091 -0.13192 0.807251 0 -1 0
-0.383161 -0.0446603 0.456887 0.00552372 0.999202 -0.0395638
-0.0370324 -0.035286 0.465144 -0.686173 0.727436 -0.00171289
-0.208966 -0.102961 0.555675 0.39171 -0.905959 0.160626
-0.044204 -0.0146841 0.0467812 -0.442761 0.808901 0.386835
-0.00303056 -0.0162862 0.700975 0 1 0
-0.0225158 -0.140389 0.468936 -0.377727 -0.925916 -0.0014526
-0.13272 -0.0455456 0.474406 0.00666696 0.999468 -0.0319364
0.0535375 -0.0715863 0.476788 0.987918 0.154966 -0.00160988
0.00461175 -0.0166249 0.311481 0 0.999998 -0.0018042
-0.19779 -0.0917804 0.420895 0.895836 -0.435127 -0.0902405
0.210427 -0.08402 0.539145 -0.476377 -0.879241 0
0.0544734 -0.116149 0.2854 0.885438 -0.464754 -0.00203573
0.222967 -0.101518 0.436945 0.422116 -0.901514 -0.0953457
-0.00641909 0.0382636 0.118612 -0.999749 0.0211124 0.00755721
-0.16865 -0.031781 0.56129 0.751207 -0.655826 -0.0746985
0.205876 -0.0523634 0.491683 0.00666616 -0.999468 0.0319324
-0.00166547 -0.13192 0.687104 0 -1 0
-0.226483 -0.0888537 0.542046 0.897212 0.435916 0.0706185
-0.00704141 -0.0029382 0.183968 -0.99994 0.0108599 -0.00174132
0.111202 -0.0535826 0.473284 0.00666616 -0.999468 0.0319324
0.195427 -0.0545612 0.431491 0.00552306 -0.999202 0.0395589
0.0505727 -0.0951121 0.213797 0.223862 0.455864 -0.861437
0.0215699 -0.127517 0.644795 0.378679 -0.925528 0
0.220504 -0.0496925 0.426158 -0.138322 0 -0.990387
-0.0905354 -0.0440674 0.527718 -0.000937337 0.99949 -0.0319247
-0.282432 -0.150006 0.583896 -0.771643 0.473516 0.424677
0.0167656 -0.0651336 0.922672 0.666176 0.706169 0.239865
-0.0561213 -0.098706 0.33154 -0.457042 0.889445 -4.31226e-05
0.228326 -0.0602604 0.519062 0.475868 0.878804 0.0354086
-0.0333771 0.0193088 0.0883378 -0.655211 0.694605 0.297022
0.0651274 -0.0185914 0.0415678 0.332181 0.849119 0.410673
0.189722 -0.0920516 0.528919 -0.717867 -0.695216 0.0366223
-0.0420025 -0.0847563 0.174663 -0.918945 -0.342131 -0.19618
0.103138 -0.0438293 0.545531 0.14196 0.719464 0.679866
-0.0156349 -0.100467 0.930331 -0.774903 -0.586416 0.235887
-0.281817 -0.0442192 0.484791 0.00666696 0.999468 -0.0319364
0.056759 -0.112456 0.436384 0.885438 -0.464754 -0.00203573
0.00260725 0.0418875 0.00666128 0 0.876453 -0.481487
-0.0508846 -0.0438032 0.551562 0.00943275 0.999612 -0.0262233
-0.0484783 -0.0854596 0.83337 -0.981228 -0.153915 0.1162
-0.0433587 -0.0395619 0.103913 -0.981885 -0.154009 -0.11038
0.284723 -0.150953 0.583817 0.788545 0.474821 0.390823
-0.0366095 -0.0307532 0.202064 -0.657461 0.696989 0.286271
0.00412917 -0.0162862 0.806406 0 1 0
0.0588669 -0.106677 0.587166 0.84589 0.533357 -0.00049399
0.0258192 -0.0250977 0.844477 0.371985 0.909153 0.187263
-0.193173 -0.029528 0.581092 0.383292 -0.342088 0.857941
-0.200507 -0.0531815 0.505074 0.705402 0.707746 0.0387641
-0.192631 -0.0895296 0.534825 0.898852 -0.436717 0.036654
0.00867663 0.151889 0.0971246 0.99988 0.00157729 -0.0153758
0.0303296 -0.0255928 0.512114 0.686177 0.727435 0
0.0381199 -0.115264 0.633777 0.686191 -0.727421 0
-0.0499184 -0.0705195 0.658582 -0.987921 0.154961 0
-0.0444985 -0.0466829 0.444479 -0.000937337 0.99949 -0.0319247
0.0139278 -0.145333 0.602973 0.191541 -0.981485 7.90042e-06
0.320464 -0.046176 0.427362 -0.00552374 0.999202 -0.0395638
-0.01131 -0.0179169 0.5801 -0.378686 0.925525 0
0.041321 -0.112236 0.817205 0.798916 -0.601443 0
0.0438834 -0.0409147 0.389534 0.889539 0.456856 -0.00164832
0.0511031 -0.0923719 0.635774 0.987921 -0.15496 0
-0.0237186 -0.112794 0.533802 0.142665 0.392111 0.908788
-0.034578 -0.134004 0.586453 -0.685293 -0.728267 0.000687049
0.0291557 -0.138885 0.341643 0.375049 -0.927004 -0.00144849
0.0535576 -0.0746624 0.305898 0.999999 0 -0.00162956
0.0100476 -0.130613 0.846485 0.193259 -0.977282 0.0870118
-0.00605004 -0.13192 0.747841 0 -1 0
-0.0503139 -0.0730412 0.702074 -0.987921 0.154961 0
-0.0243124 -0.0233586 0.684349 -0.541621 0.840623 0
-0.173437 -0.0443127 0.50449 0.00666696 0.999468 -0.0319364
-0.231171 -0.100768 0.478087 -0.702795 -0.704972 -0.0953621
-0.360747 -0.0440653 0.475044 0.00552372 0.999202 -0.0395638
0.170129 -0.0533675 0.467715 0.00666616 -0.999468 0.0319324
-0.0419388 -0.0444093 0.253998 -0.889537 0.45686 -0.00164826
0.0311349 -0.0658299 0.0996696 0.705687 -0.613028 -0.355251
-0.195899 -0.0459274 0.451031 0.00552372 0.999202 -0.0395638
0.0262445 -0.0226003 0.616773 0.378687 0.925525 0
0.0621756 -0.102373 0.490538 0.885438 -0.464754 -0.00203573
0.00187318 -0.115681 0.901036 0 -0.92623 0.376959
-0.0534504 -0.111918 0.369504 -0.883046 -0.469281 -0.00202591
-0.223065 -0.0469838 0.521446 -0.204398 0 0.978888
0.269365 -0.177463 0.56403 -0.457376 -0.318991 0.830091
-0.0164264 -0.0475002 0.0552918 -0.332301 -0.812148 -0.479575
0.0514264 -0.0903104 0.529571 0.987922 -0.154955 0
-0.233096 -0.0744778 0.404026 -0.975953 0.145091 -0.162677
0.300042 -0.0520536 0.481721 0.00666616 -0.999468 0.0319324
0.222625 -0.104082 0.527106 0.103133 -0.993993 0.0366233
-0.0253017 -0.138841 0.215834 -0.375049 -0.927004 -0.00166242
-0.026915 -0.122543 0.72676 -0.686129 -0.72748 0
0.040001 -0.00488162 0.136064 0.875105 0.449447 0.179414
0.00757148 -0.103397 0.950581 0.369207 -0.902786 0.220598
0.0485619 -0.123693 0.233612 0.679847 -0.733353 -0.0012742
-0.0292638 -0.0278778 0.599666 -0.686177 0.727435 0
-0.0288389 -0.137547 0.302163 -0.377727 -0.925916 -0.0014526
-0.0573885 -0.104162 0.295274 -0.885436 -0.464758 -0.00164823
0.000744016 -0.017628 0.838319 0 0.981155 0.193224
-0.0485312 -0.0855503 0.404943 -0.98792 -0.15496 -0.00160989
0.326133 -0.0450435 0.455172 -0.00552374 0.999202 -0.0395638
-0.0475739 -0.0574875 0.314854 -0.987919 0.154961 -0.00160971
0.0048375 -0.0162862 0.508182 0 1 0
0.0786773 -0.0447681 0.505433 0.000937336 0.99949 -0.0319247
-0.0252752 -0.112706 0.176404 -0.704949 -0.611657 -0.359057
0.100335 -0.0503567 0.0565323 0.739751 -0.541889 0.398906
-0.200058 -0.0767091 0.577329 0.945949 0.171723 0.27512
-0.247926 -0.146111 0.566636 0.465235 -0.455566 0.758957
-0.210319 -0.0846551 0.515597 -0.218401 0.219271 0.950905
0.159234 -0.0142668 0.563802 0.451789 0.406895 -0.793929
-0.116035 -0.0439787 0.526928 0.00666696 0.999468 -0.0319364
0.0541285 -0.095907 0.338749 0.456913 0.889511 -0.000144457
-0.331488 -0.0444795 0.468669 0.00552372 0.999202 -0.0395638
-0.0601638 -0.053893 0.0764636 0.28661 -0.844536 -0.452342
-0.175936 -0.0504627 0.432383 0.138322 0 -0.990387
-0.0222623 -0.0226507 0.367651 -0.378686 0.925523 -0.00177699
0.00346965 -0.145118 0.249391 0 -0.999999 -0.00168984
0.228749 -0.078448 0.556932 -0.0149957 0.0130156 -0.999803
0.00271469 -0.0164497 0.408579 0 0.999998 -0.0018042
-0.0327369 -0.135807 0.511221 -0.685293 -0.728267 0.000687049
-0.0203447 0.0319935 0.0132519 -0.747508 0.383911 -0.542074
0.19016 -0.0763227 0.407943 -0.9932 -0.0584961 -0.100654
0.239568 -0.088721 0.540384 0.938807 -0.341884 0.0419099
-0.0843574 -0.053683 0.472499 0.000937219 -0.99949 0.0319208
0.00863185 0.134751 0.0554107 0.998175 0.0042961 -0.0602281
0.358903 -0.0460151 0.426058 -0.00552374 0.999202 -0.0395638
0.0837341 -0.0527743 0.443065 0.0293256 0 -0.99957
0.267048 -0.0521806 0.484634 0.00666616 -0.999468 0.0319324
0.0343187 -0.136675 0.263887 0.375049 -0.927004 -0.00144849
0.206 -0.0740658 0.567972 0.190727 -0.979754 0.0608657
0.0536109 -0.0763831 0.664648 0.987922 -0.154955 -4.40024e-07
-0.00937221 -0.017124 0.555419 -0.378686 0.925525 0
0.188987 -0.0656797 0.453708 -0.72299 0.683483 -0.100682
0.046074 -0.0310499 0.0837576 0.790375 0.559461 0.24962
-0.16577 -0.0454356 0.470949 0.00666696 0.999468 -0.0319364
0.147669 -0.0543375 0.44381 0.00552306 -0.999202 0.0395589
0.0387301 -0.114341 0.499645 0.849685 0.490496 -0.193517
-0.0439528 -0.124721 0.218929 -0.67999 -0.733219 -0.00183464
0.0267581 0.00238133 0.151908 0.511142 0.793498 0.330296
0.0361626 0.00925832 0.113392 0.655206 0.694609 0.297024
0.174913 -0.0458742 0.455316 -0.00666699 0.999468 -0.0319364
0.225688 -0.106548 0.574267 -0.928353 -0.368186 0.050979
0.0236276 -0.0215295 0.703523 0.378687 0.925525 0
-0.0415198 -0.0427086 0.526683 -0.889543 0.456851 0
0.00779141 -0.145177 0.28397 0 -0.999999 -0.00168984
0.27826 -0.0460964 0.435265 -0.00552374 0.999202 -0.0395638
0.0497702 -0.0437447 0.184322 0.987302 0.154865 0.0353851
-0.0578387 -0.0995838 0.42916 -0.457042 0.889445 -4.31226e-05
0.0350792 -0.0465155 0.873061 0.835086 0.428884 0.344514
0.0145971 -0.0182761 0.269269 0.378687 0.925523 -0.00177697
0.0328873 -0.10593 0.880812 0.837524 -0.430095 0.337005
0.0355165 -0.136164 0.385051 0.539067 -0.842261 -0.00167617
0.049625 -0.0965076 0.737756 0.889544 -0.45685 0
-0.170933 0.01575 0.58393 -0.715908 0.578666 0.390669
0.038093 -0.107885 0.188314 0.741877 -0.583664 -0.330083
-0.0309222 -0.136886 0.422346 -0.377727 -0.925916 -0.0014526
-0.0576033 -0.0447288 0.513863 0.00943275 0.999612 -0.0262233
-0.304509 -0.0454474 0.44799 0.00552372 0.999202 -0.0395638
0.187151 -0.0440651 0.566954 0.478208 0.204233 -0.85417
0.0094052 0.0843233 0.0781506 0.999872 0.0155157 0.0038749
-0.0191502 -0.14181 0.557574 -0.377699 -0.925928 7.45626e-06
-0.0318038 -0.117932 0.809262 -0.686129 -0.72748 0
0.258315 -0.0452052 0.460556 -0.00552374 0.999202 -0.0395638
0.0496911 -0.0524353 0.33063 0.889542 0.45685 -0.00164795
0.00877411 0.124819 0.0848983 0.999914 0.0131173 -0.000781369
-0.0597865 -0.106021 0.546454 -0.461071 0.881086 0.105366
0.126106 -0.0349846 0.0261387 0.332181 0.849119 0.410673
-0.234023 -0.0447002 0.479716 0.00666696 0.999468 -0.0319364
0.0176582 -0.129118 0.697186 0.378679 -0.925528 0
-0.201216 -0.102716 0.515377 0.705635 -0.707515 0.0387526
0.0203696 -0.0201965 0.64364 0.378687 0.925525 0
0.195123 -0.0974643 0.462388 -0.715526 -0.692738 -0.0901975
-0.0489014 -0.0841693 0.612477 -0.987921 -0.15496 0
-0.0151028 -0.0622407 0.909085 -0.666175 0.706168 0.239872
0.327603 -0.045261 0.499618 0.204398 0 0.978888
0.0264522 -0.0232228 0.219252 0.378687 0.925523 -0.00177697
0.174259 -0.052069 0.507496 0.00666616 -0.999468 0.0319324
0.229398 -0.0951981 0.410397 0.72306 -0.683405 -0.100707
0.0671977 -0.0574548 0.108341 0.739751 -0.541889 0.398906
-0.0300715 -0.132083 0.489866 -0.335841 -0.92183 -0.193497
0.0524576 -0.0667925 0.275541 0.987918 0.154968 -0.00161007
-0.0461971 -0.0532805 0.49151 -0.00943158 -0.999612 0.02622
0.206679 -0.0656203 0.376651 -0.101814 0.980508 -0.16804
-0.0711433 -0.0363301 0.0367165 0.28661 -0.844536 -0.452342
-0.23596 -0.0645526 0.53027 -0.898838 0.436748 0.036624
0.0457014 0.0129964 0.0534187 0.987208 0.154844 0.0379929
-0.0407818 -0.0849891 0.870617 -0.943365 -0.147972 0.29693
0.0387614 0.0205593 0.0783787 0.875105 0.449447 0.179414
0.0251517 -0.126052 0.814065 0.378679 -0.925528 0
0.342577 -0.044358 0.470189 -0.00552374 0.999202 -0.0395638
0.0520578 -0.120807 0.614761 0.537822 -0.526006 0.658836
-0.0146598 -0.0192875 0.506114 -0.378686 0.925525 0
0.00789697 -0.145211 0.30411 0 -0.999999 -0.00168984
-0.237226 -0.0466163 0.427862 0.00552372 0.999202 -0.0395638
-0.0988481 -0.0453601 0.487477 0.00730943 0.999467 -0.0318217
-0.0132508 -0.144221 0.615941 -0.37464 -0.92717 -0.000588558
-0.150257 -0.053479 0.468376 -0.00666614 -0.999468 0.0319324
-0.136942 -0.0524165 0.50441 -0.00666614 -0.999468 0.0319324
0.0551461 -0.0537496 0.0773999 -0.384541 -0.815093 -0.433303
-0.0483776 -0.0606969 0.570091 -0.987921 0.154961 0
0.0289146 -0.123947 0.720153 0.686191 -0.727421 0
0.00722293 -0.0162862 0.777755 0 1 0
-0.0408219 -0.0413497 0.607265 -0.889543 0.456851 0
-0.0343548 -0.0330869 0.326442 -0.686173 0.727436 -0.00171289
0.0207968 -0.0825953 0.943525 0.947679 0.148642 0.282507
-0.0315554 -0.0126688 0.169641 -0.657461 0.696989 0.286271
-0.0546262 -0.0645195 0.0998124 0.28661 -0.844536 -0.452342
-0.116841 -0.0466478 0.443874 0.00552372 0.999202 -0.0395638
0.263037 -0.126004 0.584805 -0.452565 -0.243168 0.857936
-0.0327159 -0.0361789 0.852531 -0.675955 0.716601 0.171953
0.0845775 -0.0409336 0.0720305 0.332181 0.849119 0.410673
-0.0478961 -0.0605169 0.220973 -0.98792 0.154958 -0.00160989
0.109845 -0.0300532 0.0171703 0.295332 0.954186 -0.0480352
-0.195732 -0.0616865 0.545742 0.890089 0.432394 0.14414
0.146401 -0.0528808 0.487904 0.00666616 -0.999468 0.0319324
0.24122 -0.0886912 0.503619 0.938803 -0.341895 0.0419083
-0.313458 -0.0439765 0.485784 0.00666696 0.999468 -0.0319364
-0.0487598 -0.0645083 0.366862 -0.987919 0.154961 -0.00160971
-0.0345838 -0.0329297 0.484918 -0.686178 0.727432 -0.0017133
0.30582 -0.0538111 0.435025 0.00552306 -0.999202 0.0395589
-0.0441881 -0.0486998 0.278666 -0.889537 0.45686 -0.00164826
-0.00459012 0.149057 0.0510462 -0.999749 0.0211124 0.00755721
0.206528 -0.0453235 0.465951 -0.00666699 0.999468 -0.0319364
-0.00708424 -0.145393 0.412052 0 -0.999999 -0.00168984
-0.329438 -0.0504483 0.498859 -0.142714 -0.715886 0.683476
-0.278485 -0.19003 0.566705 0.451583 -0.272433 0.84962
-0.0450896 -0.0985464 0.780065 -0.889543 -0.456851 0
-0.0587745 -0.102211 0.48978 -0.885436 -0.464758 -0.00164823
0.00194956 -0.145454 0.447832 0 -0.999999 -0.00168984
-0.0536656 -0.102022 0.58815 -0.844137 0.532207 0.0647181
-0.019531 -0.126924 0.640199 -0.37868 -0.925528 0
-0.00538059 0.0980347 0.0894412 -0.999271 -0.00620143 -0.0376675
0.247991 -0.144612 0.559117 0.378121 0.355465 -0.854792
0.0276353 -0.0232522 0.58174 0.541584 0.840647 0
0.0624841 -0.100821 0.250394 0.953792 0.300465 -0.00120544
0.00837985 0.176281 0.0803273 0.99988 0.00157729 -0.0153758
0.0650406 -0.0460155 0.465978 0.000937336 0.99949 -0.0319247
0.0511225 -0.0559575 0.500305 0.987921 0.154956 0
0.000748174 -0.104314 0.146558 0 -0.86919 -0.494479
0.0531273 -0.0794667 0.621681 0.987922 -0.154955 -4.40024e-07
0.0127505 -0.0427595 0.0422995 0.332305 -0.812149 -0.47957
0.00943019 0.0765951 0.114924 0.999914 0.0131173 -0.000781369
-0.204077 -0.0575796 0.414489 0.702769 0.704995 -0.0953806
0.237806 -0.045739 0.449939 -0.00552374 0.999202 -0.0395638
0.0404827 -0.0830267 0.151033 0.90098 -0.372177 -0.222978
-0.195154 -0.0634351 0.449693 0.895677 0.435456 -0.0902315
0.0223494 -0.121553 0.865196 0.364331 -0.890385 0.272907
-0.0482284 -0.0573725 0.189656 -0.987303 0.154859 0.0353824
-0.240076 -0.0816803 0.486691 -0.988546 -0.146696 0.0354428
0.0359971 -0.135532 0.301017 0.685298 -0.728261 -0.00184013
-0.0376141 -0.131136 0.447395 -0.685296 -0.728263 -0.00129321
0.0227504 0.0455498 0.0556818 0.351004 0.85787 0.375306
-0.0345134 -0.0328295 0.815993 -0.686171 0.72744 0
0.00520564 0.0641628 0.159022 0 0.563377 0.8262
-0.236638 -0.0850294 0.447535 -0.985354 -0.146488 -0.0872891
-0.194538 -0.0978409 0.482467 0.898717 -0.436999 0.0366034
0.011353 -0.0165144 0.542845 0.193 0.981199 0
0.0503988 -0.0534607 0.428398 0.889542 0.45685 -0.00164795
-0.00601014 -0.130313 0.192259 0 -0.86919 -0.494479
0.0103315 0.012371 0.190186 0.999914 0.0131173 -0.000781369
0.0513062 -0.0571284 0.782236 0.987921 0.154956 0
-0.0412132 -0.0421116 0.73735 -0.889543 0.456851 0
0.0605283 -0.04363 0.554695 -0.00943272 0.999612 -0.0262233
-0.218568 -0.0633876 0.51763 0.11685 -0.270197 0.955688
0.0503131 -0.0491013 0.149064 0.982162 -0.154057 -0.107811
0.0437914 -0.0958079 0.864498 0.853233 -0.438204 0.282792
0.193202 -0.0979607 0.484955 -0.717867 -0.695216 0.0366223
-0.0982148 -0.0456209 0.0619233 -0.736508 -0.542377 0.404206
0.0112336 -0.145299 0.356029 0 -0.999999 -0.00168984
0.225943 -0.0719457 0.377658 0.707724 0.68623 -0.167977
-0.0169309 -0.142715 0.539645 -0.377699 -0.925928 7.45626e-06
-0.0595943 -0.0336743 0.0688756 -0.442761 0.808901 0.386835
0.234253 -0.0639535 0.491203 0.717867 0.695216 0.0366302
0.0908665 -0.0533185 0.484102 -0.000937219 -0.99949 0.0319208
-0.000928567 -0.0164928 0.384737 0 0.999998 -0.0018042
0.00807163 0.180805 0.0607481 0.99988 0.00157729 -0.0153758
-0.0249185 -0.0241918 0.323912 -0.686178 0.727432 -0.0017133
-0.204869 -0.0457543 0.570625 -0.787375 0.405564 -0.464283
-0.204403 -0.0757635 0.557048 -0.00688881 -0.0188203 -0.999799
-0.366351 -0.0500297 0.405789 0.138322 0 -0.990387
-0.0389577 -0.0650764 0.874461 -0.936641 0.146907 0.317998
-0.0499364 -0.0775708 0.544597 -0.987921 -0.15496 0
-0.0426499 -0.101575 0.207026 -0.918945 -0.342131 -0.19618
0.363938 -0.0486429 0.406125 -0.138322 0 -0.990387
-0.0333708 -0.00227395 0.138824 -0.655211 0.694605 0.297022
-0.016844 -0.0203319 0.420713 -0.378686 0.925523 -0.001777
-0.319596 -0.0539929 0.428509 -0.00552304 -0.999202 0.0395589
-0.00632298 0.0593052 0.0725424 -0.999749 0.0211124 0.00755721
-0.0228027 -0.125586 0.704408 -0.37868 -0.925528 0
-0.0378255 -0.0252207 0.036668 0.226968 -0.97383 0.0118334
0.0519561 -0.0842285 0.238866 0.987918 -0.154968 -0.00160988
0.0195058 0.0348666 0.00968981 0.590648 0.626163 -0.508973
-0.00686916 -0.0163185 0.639124 -0.192996 0.9812 0
-0.0490557 -0.0667303 0.33456 -0.98792 0.154958 -0.00160989
0.156968 0.0176644 0.578718 0.452078 0.309949 -0.836395
-0.0461161 -0.0965478 0.761805 -0.889543 -0.456851 0
-0.228513 -0.0759568 0.375212 -0.975975 0.144973 -0.162653
-0.0429325 0.00425451 0.0703577 -0.987209 0.154838 0.0379909
-0.0485323 -0.0621431 0.831952 -0.985718 0.15461 0.0667478
-0.0533339 -0.0972883 0.256535 -0.455008 0.890487 -0.000141254
-0.0530799 -0.0458834 0.471476 0.00943275 0.999612 -0.0262233
0.0433459 -0.0537994 0.472751 0.00943155 -0.999612 0.02622
0.102706 -0.046443 0.452589 -0.00666699 0.999468 -0.0319364
0.196653 -0.0521153 0.501373 0.00666616 -0.999468 0.0319324
0.0474285 -0.013292 0.115684 0.987208 0.154843 0.0379921
0.0519034 -0.0624568 0.352845 0.987918 0.154968 -0.00161007
-0.0495983 -0.0690099 0.448092 -0.987919 0.154961 -0.00160971
0.195012 -0.0734833 0.38686 -0.922317 0.335698 -0.191413
0.227301 -0.0622296 0.442302 0.47435 0.876001 -0.0872588
-0.22708 -0.0456776 0.452986 0.00552372 0.999202 -0.0395638
0.22271 -0.0447192 0.481483 -0.00666699 0.999468 -0.0319364
-0.22157 -0.106816 0.571445 0.927401 -0.351685 0.127454
0.20234 -0.0660433 0.549303 0.422752 -0.903166 0.0746495
0.0575139 -0.0976407 0.36305 0.455008 0.890487 -4.5468e-05
-0.15374 -0.0466545 0.438555 0.00552372 0.999202 -0.0395638
0.0365774 -0.0314861 0.777762 0.686171 0.72744 0
-0.336321 -0.0539384 0.427553 -0.00552304 -0.999202 0.0395589
0.0512292 -0.0579174 0.376081 0.987918 0.154968 -0.00161007
0.363886 -0.0445089 0.463402 -0.00552374 0.999202 -0.0395638
-0.00335424 0.178136 0.0400166 0 -0.239101 -0.970995
-0.262665 -0.0540934 0.433919 -0.00552304 -0.999202 0.0395589
0.185779 -0.0653505 0.4897 -0.93884 0.341801 0.0418608
-0.119756 -0.0444426 0.0219227 -0.528238 -0.834117 0.15879
-0.167097 -0.000504065 0.570426 -0.543285 0.347665 -0.76418
0.0237916 -0.12475 0.191891 0.33472 -0.818023 -0.467761
-0.0333128 -0.0326822 0.0531376 -0.230501 -0.851599 -0.470795
0.199227 -0.0901658 0.562672 0.716527 0.693976 0.0706191
-0.192229 -0.0879474 0.457618 0.895836 -0.435127 -0.0902405
-0.287223 -0.0434823 0.506725 0.00666696 0.999468 -0.0319364
-0.251507 -0.0441373 0.493683 0.00666696 0.999468 -0.0319364
0.0143019 -0.0355177 0.879366 0.279385 0.682826 0.67505
0.0392584 -0.13299 0.528402 0.679355 -0.733809 0.000659094
-0.0483162 -0.0603051 0.516351 -0.987921 0.154961 0
-0.0446083 -0.0173198 0.114741 -0.987207 0.154848 0.037994
0.0520543 -0.0644284 0.255671 0.987918 0.154968 -0.00161007
-0.0503623 -0.0737001 0.485679 -0.999999 0 -0.00162958
-0.00603203 0.0593155 0.111004 -0.999749 0.0211124 0.00755721
-0.210468 -0.052634 0.482253 -0.00666614 -0.999468 0.0319324
0.207562 -0.0657651 0.528573 0.103042 -0.992168 0.0706109
-0.0379243 -0.0364537 0.371359 -0.799359 0.600851 -0.00170506
-0.0451215 -0.116634 0.614496 -0.405796 0.497999 0.766372
0.010623 -0.0168376 0.248239 0.192983 0.9812 -0.00182489
0.0192112 -0.0197225 0.730222 0.378687 0.925525 0
-0.00699016 -0.016432 0.451016 -0.192995 0.981198 -0.0018249
0.184778 -0.0763038 0.535416 -0.997419 -0.0590189 0.0408985
-0.00605717 0.0810194 0.142383 -0.99994 0.0108599 -0.00174132
0.0280481 -0.023832 0.350541 0.541544 0.84067 -0.0017749
-0.00536897 0.13825 0.104118 -0.99994 0.0108599 -0.00174132
-0.0462265 -0.0426407 0.133718 -0.981885 -0.154009 -0.11038
0.012105 0.00454662 0.00124527 0.474116 -0.502617 -0.722905
-0.0365243 0.0278746 0.0539506 -0.875106 0.449444 0.179413
-0.0131013 -0.0186498 0.751566 -0.378686 0.925525 0
-0.0498938 -0.120217 0.500088 -0.366896 -0.930257 -0.00308768
0.0420746 -0.0374525 0.372978 0.889539 0.456856 -0.00164832
-0.0403822 -0.128305 0.328153 -0.67999 -0.733219 -0.00183464
-0.103772 -0.0329043 0.016701 -0.442761 0.808901 0.386835
0.0526527 -0.0816932 0.422305 0.987919 -0.154965 -0.00161012
-0.168998 -0.0527419 0.487534 -0.00666614 -0.999468 0.0319324
-0.281413 -0.168429 0.573223 -0.544929 0.283715 -0.789024
-0.00519495 0.152023 0.0900827 -0.99994 0.0108599 -0.00174132
0.0346866 -0.136778 0.427606 0.537656 -0.843163 -0.00166768
-0.0980933 -0.0449207 0.548155 -0.338507 6.3487e-06 0.940964
-0.0372161 -0.112827 0.683296 -0.686129 -0.72748 0
0.018207 0.0361675 0.081377 0.351004 0.85787 0.375306
0.0603739 -0.115308 0.567965 0.88423 -0.463787 -0.0551262
-0.135733 -0.0538003 0.461349 -0.00666614 -0.999468 0.0319324
0.00059972 -0.0162862 0.680734 0 1 0
0.035347 -0.0303255 0.669823 0.686171 0.72744 0
-0.00932324 -0.101227 0.946696 -0.668225 -0.708551 0.226783
0.341032 -0.0458077 0.433791 -0.00552374 0.999202 -0.0395638
-0.232536 -0.0621591 0.553033 -0.890051 0.432478 0.144122
-0.210313 -0.0657898 0.372491 0 0 -1
0.0256279 -0.140275 0.317532 0.375049 -0.927004 -0.00144849
-0.034888 -0.133535 0.381857 -0.67999 -0.733219 -0.00183464
-0.226337 -0.0587751 0.41447 -0.702836 0.704929 -0.0953751
-0.0489082 -0.0841261 0.725365 -0.987921 -0.15496 0
0.045897 -0.0444397 0.696437 0.889539 0.456859 0
-0.0373268 -0.105879 0.857873 -0.853229 -0.438202 0.282807
0.013569 -0.145404 0.504577 0.191541 -0.981485 7.90042e-06
0.05124 -0.0567067 0.533713 0.987921 0.154956 0
0.00994816 0.0392955 0.151593 0.999914 0.0131173 -0.000781369
-0.191383 -0.067856 0.523459 0.988547 0.146687 0.0354544
-0.144516 0.015297 0.564189 -0.469875 0.39441 -0.78972
0.180824 -0.0516166 0.520285 0.00666616 -0.999468 0.0319324
0.0268737 -0.0824999 0.922928 0.962075 -0.00575324 0.272725
0.284762 -0.0440726 0.488764 -0.00666699 0.999468 -0.0319364
-0.222928 -0.0652701 0.569709 -0.630841 0.756501 0.172466
-0.0080764 -0.121014 0.880799 -0.360637 -0.881206 0.305641
0.00112939 -0.0586346 0.918912 0 0.971737 0.236067
0.0266584 -0.0586634 0.0802161 0.628407 -0.666812 -0.400583
0.1746 -0.0526779 0.488368 0.00666616 -0.999468 0.0319324
-0.0323693 -0.0308071 0.705986 -0.686177 0.727435 -6.38945e-07
-0.0622822 -0.0455067 0.482526 0.00943275 0.999612 -0.0262233
0.0528671 -0.0952514 0.385762 0.456913 0.889511 -0.000144457
-0.0338723 -0.0610442 0.103778 -0.705687 -0.613028 -0.355251
0.0121055 -0.0884913 0.119299 0.332305 -0.812149 -0.47957
-0.384812 -0.0478065 0.433135 -0.999965 0 -0.00840665
0.0537568 -0.117218 0.211638 0.882961 -0.469443 -0.00164821
-0.009095 -0.0170106 0.601352 -0.378686 0.925525 0
0.00719288 -0.145512 0.482157 0 -0.999999 -0.00168984
0.0531884 -0.0780411 0.399456 0.987918 -0.154968 -0.00160988
0.248998 -0.0517212 0.502779 0.00666616 -0.999468 0.0319324
-0.290897 -0.0543915 0.422449 -0.00552304 -0.999202 0.0395589
0.0438641 -0.0414059 0.24297 0.889539 0.456856 -0.00164832
0.0531489 -0.0688765 0.691623 0.987921 0.154961 -4.40026e-07
0.0546382 -0.0961755 0.282293 0.455008 0.890487 -4.5468e-05
-0.0409632 -0.0418717 0.430838 -0.88954 0.456855 -0.00164864
-0.0111362 -0.0163055 0.208622 -0.352895 0.862481 0.362756
-0.0098117 0.0177384 0.128091 -0.351005 0.85787 0.375306
-0.0112783 -0.130301 0.76925 -0.37868 -0.925528 0
-0.242506 -0.0516138 0.507497 -0.00666614 -0.999468 0.0319324
-0.268225 -0.128316 0.584221 -0.714098 0.620531 0.324045
-0.0271035 -0.119841 0.851262 -0.683218 -0.724328 0.0925355
-0.0489924 -0.0835894 0.78587 -0.987921 -0.15496 0
0.0500275 -0.0524819 0.740016 0.889538 0.456861 -2.04396e-07
0.0895711 -0.0330075 0.051603 0.332181 0.849119 0.410673
0.145413 -0.0522188 0.508831 0.00666616 -0.999468 0.0319324
-0.0572794 -0.0460933 0.562838 -0.338507 0 0.940964
-0.0484546 -0.0865856 0.457618 -0.98792 -0.15496 -0.00160989
0.212308 -0.0443542 0.495079 -0.00666699 0.999468 -0.0319364
0.0643656 -0.0525125 0.514252 0.00943155 -0.999612 0.02622
-0.0284619 -0.137634 0.25943 -0.377727 -0.925916 -0.0014526
0.256698 -0.161678 0.564463 -0.726415 -0.537867 0.427808
-0.0291969 -0.099538 0.161672 -0.704949 -0.611657 -0.359057
0.222357 -0.0776562 0.516171 -0.28058 -0.130397 0.950932
0.054147 -0.117106 0.361859 0.885438 -0.464754 -0.00203573
-0.0218629 0.0106696 0.0105976 -0.764625 -0.119952 -0.633214
-0.0875465 -0.0498069 0.0757453 -0.736508 -0.542377 0.404206
0.0488483 -0.0980199 0.780199 0.889544 -0.45685 0
0.239105 -0.0920359 0.523718 0.938803 -0.341895 0.0419083
0.0161533 -0.128658 0.51957 -0.864294 -0.499052 0.0627975
-0.182421 -0.0260869 0.567202 -0.463337 0.233713 -0.854808
-0.0459503 -0.0968706 0.654764 -0.889543 -0.456851 0
0.0494164 -0.0969138 0.758131 0.889544 -0.45685 0
0.0330895 -0.120009 0.673573 0.686191 -0.727421 0
-0.186645 -0.05312 0.472017 -0.00666614 -0.999468 0.0319324
-0.000905273 -0.13192 0.646662 0 -1 0
-0.346395 -0.0449543 0.454597 0.00552372 0.999202 -0.0395638
0.0221168 -0.0148774 0.0213165 0.474114 -0.502618 -0.722905
0.11433 -0.0531408 0.486462 0.00666616 -0.999468 0.0319324
0.0297379 -0.0349642 0.861936 0.636801 0.675093 0.37247
-0.0406669 -0.0198601 0.155404 -0.876277 0.450041 0.172051
-0.0491984 -0.0794864 0.230745 -0.987918 -0.154968 -0.00161047
-0.020279 -0.141371 0.599464 -0.37464 -0.92717 -0.000588558
-0.00577091 0.0789408 0.102939 -0.999271 -0.00620143 -0.0376675
-0.0156242 0.0518155 0.0542033 -0.85757 0.433975 0.276115
0.0444843 -0.0416889 0.537894 0.889538 0.456861 0
0.246663 -0.132641 0.573674 -0.451789 -0.406873 0.79394
0.0721649 -0.0638685 0.0894549 0.28809 -0.95603 -0.0548676
-0.104305 -0.0444018 0.516135 0.00666696 0.999468 -0.0319364
-0.0587573 -0.100057 0.403915 -0.457042 0.889445 -4.31226e-05
-0.0670105 -0.0543413 0.10708 -0.736508 -0.542377 0.404206
-0.0158943 -0.113622 0.892467 -0.513558 -0.797701 0.31612
0.183699 -0.0830841 0.496992 -0.906336 -0.420781 0.0387136
-0.00545513 0.118186 0.0919121 -0.999862 0.00527473 -0.0157271
0.0457243 -0.0441033 0.620323 0.889539 0.456859 0
-0.226432 -0.0995045 0.557285 -0.697817 -0.699905 0.152264
0.0209665 -0.0205958 0.418434 0.378689 0.925522 -0.00177685
-0.161811 -0.0519431 0.514036 -0.00666614 -0.999468 0.0319324
-0.0566325 -0.105514 0.27308 -0.883046 -0.469281 -0.00202591
0.0435825 -0.108273 0.723437 0.889543 -0.45685 0
0.23833 -0.0935347 0.463671 0.934624 -0.340373 -0.103074
0.150281 -0.0514291 0.532531 0.00666616 -0.999468 0.0319324
-0.0427475 -0.0460971 0.222621 -0.889537 0.45686 -0.00164826
0.205003 -0.103095 0.525913 -0.200422 -0.97907 0.0354027
-0.0452465 -0.0499649 0.64855 -0.889543 0.456851 0
-0.0122125 -0.0264864 0.861407 -0.347914 0.850332 0.394832
-0.074832 -0.0340145 0.0521465 -0.442761 0.808901 0.386835
-0.0475759 -0.121487 0.292572 -0.685296 -0.728263 -0.00129321
0.223682 -0.0689666 0.540655 -0.716504 -0.693999 0.0706232
0.356987 -0.0519033 0.47607 0.00552306 -0.999202 0.0395589
0.0505613 -0.0535498 0.825537 0.950794 0.309824 0
-0.0130327 -0.143964 0.304282 -0.375049 -0.927004 -0.00166242
0.0104619 0.00159363 0.176083 0.999914 0.0131173 -0.000781369
0.384643 -0.0469641 0.426862 0.708519 0.704877 -0.0338884
-0.00635626 -0.0684876 0.0840939 -0.16708 -0.849545 -0.500358
0.0534564 -0.0708368 0.757316 0.987921 0.154961 -4.40026e-07
0.0398985 0.0243937 0.0308222 0.801285 0.125683 -0.584933
0.184928 -0.0614692 0.567239 -0.647626 -0.751284 0.127093
0.0517172 -0.0884404 0.497683 0.987919 -0.154965 -0.00161012
-0.0476061 -0.0943528 0.311295 -0.455008 0.890487 -0.000141254
0.27402 -0.16362 0.573494 -0.463691 -0.401482 0.789812
0.0528491 -0.0797041 0.35132 0.987918 -0.154968 -0.00160988
-0.25777 -0.123618 0.573425 -0.536875 0.285364 -0.793935
0.0097324 0.0644775 0.0731866 0.999872 0.0155157 0.0038749
-0.0205527 -0.0892973 0.129804 -0.378262 -0.924578 -0.0455309
0.236506 -0.0525721 0.478754 0.00666616 -0.999468 0.0319324
0.28553 -0.0445883 0.472466 -0.00666699 0.999468 -0.0319364
0.0253928 -0.0222518 0.747876 0.378687 0.925525 0
-0.0506307 -0.0960012 0.532203 -0.430832 0.902432 -0.000428573
0.00401923 -0.0162862 0.754412 0 1 0
0.144302 -0.0438714 0.524384 -0.00666699 0.999468 -0.0319364
-0.263168 -0.0531174 0.458502 -0.00552304 -0.999202 0.0395589
-0.0207629 -0.140941 0.365346 -0.377727 -0.925916 -0.0014526
-0.000223125 -0.13192 0.826434 0 -1 0
0.0411885 -0.0358357 0.556196 0.686171 0.72744 -1.3817e-06
-0.221447 -0.100675 0.420349 -0.395031 -0.913133 -0.100693
0.0180672 0.0546349 0.0392952 0.351004 0.85787 0.375306
-0.0485054 -0.0637081 0.287706 -0.98792 0.154958 -0.00160989
-0.0228144 -0.125581 0.685835 -0.37868 -0.925528 0
0.0554649 -0.0965959 0.321201 0.455008 0.890487 -4.5468e-05
-0.0278762 -0.0265688 0.663381 -0.686171 0.72744 0
0.0274601 -0.0232773 0.433915 0.541545 0.84067 -0.00177489
-0.00908061 -0.145039 0.202346 0 -0.999999 -0.00168984
-0.0972649 -0.0402478 0.0395048 -0.442761 0.808901 0.386835
0.105342 -0.0449786 0.497867 -0.00666699 0.999468 -0.0319364
0.00847912 -0.125012 0.182941 0 -0.86919 -0.494479
0.0169025 -0.0187779 0.827297 0.378687 0.925525 0
0.023497 -0.121855 0.489566 0 0 -1
-0.0121934 -0.0182784 0.816078 -0.378686 0.925525 0
0.0738659 -0.0455593 0.48052 0.000937336 0.99949 -0.0319247
-0.203251 -0.0464768 0.436131 0.00552372 0.999202 -0.0395638
0.0113617 -0.14554 0.566162 0 -1 0
-0.0480129 -0.0898339 0.698626 -0.987921 -0.15496 0
0.0303016 -0.122639 0.795722 0.686191 -0.727421 0
0.280167 -0.0496945 0.509522 0.204398 0 0.978888
0.0543464 -0.116887 0.398635 0.885438 -0.464754 -0.00203573
0.0461663 -0.0452944 0.407612 0.889542 0.45685 -0.00164795
0.20704 -0.0826004 0.589061 -0.610584 -0.236319 0.755871
-0.35804 -0.0531865 0.443512 -0.00552304 -0.999202 0.0395589
0.221126 -0.0435806 0.520636 0.142683 0.715886 0.683483
0.0405133 -0.0363043 0.836114 0.675949 0.716608 0.17195
-0.0154944 0.0229975 0.110755 -0.351005 0.85787 0.375306
-0.0267571 -0.0260989 0.25053 -0.686173 0.727436 -0.00171289
-0.00875309 -0.145275 0.3423 0 -0.999999 -0.00168984
0.0346467 -0.0302142 0.266048 0.686176 0.727434 -0.00171306
0.0149795 -0.144517 0.267244 0.377729 -0.925915 -0.00166116
0.0842384 -0.0499018 0.0443433 -0.384541 -0.815093 -0.433303
0.0308074 -0.0759619 0.116503 0.705687 -0.613028 -0.355251
0.0534458 -0.0774359 0.593891 0.987922 -0.154955 0
-0.265403 -0.157683 0.573298 0.480023 -0.380405 0.790487
0.296271 -0.0456595 0.443784 -0.00552374 0.999202 -0.0395638
-0.0386429 -0.0993399 0.184922 -0.900976 -0.372184 -0.222984
-0.0462147 -0.0636798 0.164337 -0.982164 -0.154052 -0.107807
0.136378 0.0128233 0.568131 -0.441439 -0.336756 0.831702
-0.264131 -0.0522165 0.484117 -0.00666614 -0.999468 0.0319324
0.0301029 -0.138787 0.534866 0.377701 -0.925927 -0.000577378
0.000583021 0.103581 0.132144 0 0.563377 0.8262
0.378335 -0.0524887 0.458303 0.00552306 -0.999202 0.0395589
-0.00493905 -0.0166764 0.282957 0 0.999998 -0.0018042
-0.237489 -0.0787716 0.549292 -0.979515 -0.145227 0.139497
-0.038648 -0.121929 0.530375 -0.955409 0.168435 0.242533
0.0100956 0.0290082 0.121487 0.999872 0.0155157 0.0038749
0.0346614 -0.118503 0.831247 0.685472 -0.726659 0.0457662
0.051265 -0.0913394 0.662677 0.987921 -0.15496 0
0.311024 -0.0545613 0.415349 0.00552306 -0.999202 0.0395589
0.0618776 -0.103863 0.533735 0.428303 0.897074 0.108693
0.0899185 -0.0516773 0.536901 0.00943155 -0.999612 0.02622
0.186785 -0.0443488 0.500576 -0.00666699 0.999468 -0.0319364
-0.204215 -0.0531965 0.465952 -0.00666614 -0.999468 0.0319324
0.0516248 -0.0591599 0.807958 0.987921 0.154961 -4.40026e-07
-0.289041 -0.0526171 0.467526 -0.00552304 -0.999202 0.0395589
-0.20341 -0.0514958 0.519352 -0.00666614 -0.999468 0.0319324
-0.22483 -0.105429 0.496607 -0.396657 -0.917055 0.0409072
-0.0310191 -0.117985 0.519366 0.170305 -0.0983237 0.980474
0.0146091 -0.0702345 0.090116 0.332305 -0.812149 -0.47957
0.0516574 -0.088838 0.822127 0.987921 -0.15496 0
-0.0482065 -0.0596056 0.762778 -0.987921 0.154961 0
-0.279913 -0.0460787 0.435481 0.00552372 0.999202 -0.0395638
0.0266922 -0.0228263 0.476935 0.378689 0.925522 -0.00177685
0.158743 -0.0530332 0.480558 0.00666616 -0.999468 0.0319324
0.0165166 -0.129585 0.626934 0.378679 -0.925528 0
0.133397 -0.0540535 0.453911 0.00666616 -0.999468 0.0319324
-0.00628821 0.05368 0.0928578 -0.999749 0.0211124 0.00755721
-0.234241 -0.0864641 0.423179 -0.895764 -0.435277 -0.090228
0.025233 -0.140671 0.454737 0.377729 -0.925915 -0.00166116
0.218038 -0.0976283 0.39714 0.101487 -0.980534 -0.16809
-0.226339 -0.0529205 0.540106 -0.396553 0.917099 0.0409162
-0.0500431 -0.0713145 0.501825 -0.987921 0.154961 0
-0.240768 -0.0529739 0.465291 -0.00666614 -0.999468 0.0319324
0.0604017 -0.0345265 0.0783381 0.332181 0.849119 0.410673
-0.139365 -0.0528527 0.490252 -0.00666614 -0.999468 0.0319324
0.210229 -0.105177 0.497914 -0.200422 -0.97907 0.0354027
0.23817 -0.0717124 0.462764 0.902821 0.419312 -0.0953562
0.0451721 -0.0183681 0.0594424 0.981885 -0.154008 -0.11038
0.362692 -0.0454427 0.439987 -0.00552374 0.999202 -0.0395638
-0.0468467 -0.0705729 0.853618 -0.962233 0.150928 0.226556
-0.221828 -0.104645 0.45785 -0.394972 -0.913158 -0.100701
0.00916827 0.10151 0.0704691 0.999872 0.0155157 0.0038749
-0.133977 0.0271453 0.564498 0.443876 0.156015 -0.882402
0.0193579 -0.0200014 0.385242 0.378689 0.925522 -0.00177685
0.0420354 -0.030588 0.194261 0.876274 0.450046 0.172054
0.204184 -0.0539269 0.480978 -0.102567 0.990629 -0.0901874
-0.00687969 0.0125764 0.18786 -0.99994 0.0108599 -0.00174132
0.193177 -0.0536303 0.45532 0.00552306 -0.999202 0.0395589
-0.0391883 -0.110037 0.728009 -0.889543 -0.456851 0
0.0256345 -0.0979344 0.146315 0.334731 -0.818019 -0.467761
-0.296451 -0.0461677 0.430925 0.00552372 0.999202 -0.0395638
0.0361913 0.0156987 0.0982671 0.655206 0.694609 0.297024
-0.0337072 -0.0322372 0.427836 -0.686178 0.727432 -0.0017133
-0.0832727 -0.0278889 0.0296763 -0.442761 0.808901 0.386835
-0.0249682 0.0310929 0.0793295 -0.65521 0.694606 0.297022
-0.0227314 -0.02259 0.646057 -0.378686 0.925525 0
0.00985735 0.0495226 0.100827 0.999872 0.0155157 0.0038749
-0.044065 -0.0476644 0.822439 -0.889543 0.456851 0
-0.0481803 -0.0885208 0.475517 -0.98792 -0.15496 -0.00160989
0.0512757 -0.0590244 0.298019 0.987918 0.154968 -0.00161007
-0.220944 -0.0859532 0.583548 -0.549716 -0.649913 0.524809
-0.0503463 -0.0749575 0.752087 -0.987921 -0.15496 0
0.0594478 -0.0297986 0.0285277 -0.384541 -0.815093 -0.433303
0.267202 -0.0534426 0.449724 0.00552306 -0.999202 0.0395589
0.213829 -0.0566951 0.447852 0.199667 0.975972 -0.0872471
-0.187103 -0.0517403 0.515102 -0.00666614 -0.999468 0.0319324
0.227345 -0.0636092 0.428694 0.47435 0.876001 -0.0872588
-0.0469138 -0.0532114 0.585504 -0.889543 0.456851 0
0.051325 -0.0517632 0.121319 0.332181 0.849119 0.410673
0.0219571 -0.0209213 0.46003 0.378689 0.925522 -0.00177685
-0.0482828 -0.0881133 0.579978 -0.987921 -0.15496 0
0.0449828 -0.0434053 0.292495 0.889539 0.456856 -0.00164832
-0.0461936 -0.0518091 0.500903 -0.889543 0.456851 0
0.193019 -0.0598627 0.527485 -0.726215 0.686248 0.0409197
0.0521405 -0.06432 0.31898 0.987918 0.154968 -0.00161007
0.00214274 0.192481 0.0457248 0 0.413473 -0.910516
0.175863 -0.0299106 0.565247 0.451789 0.406895 -0.793929
-0.132672 -0.0516168 0.530333 -0.00666614 -0.999468 0.0319324
-0.0488101 -0.0634538 0.781177 -0.987921 0.154961 0
-0.0213578 -0.0495794 0.886907 -0.535988 0.568215 0.624379
-0.245603 -0.155195 0.555376 0.759346 -0.62512 -0.180608
0.0409228 -0.0359971 0.324248 0.686172 0.727437 -0.00171339
0.00962482 0.0335168 0.17983 0.716679 0.398372 0.572426
0.0331098 -0.137605 0.606377 0.377701 -0.925927 -0.000577378
0.0306052 -0.0258528 0.529291 0.686177 0.727435 0
0.237582 -0.0474935 0.424275 -0.096281 0.717981 -0.689372
0.094294 -0.0306309 0.014147 -0.350952 0.179146 -0.919097
-0.318168 -0.0532065 0.448574 -0.00552304 -0.999202 0.0395589
0.062151 -0.100015 0.269438 0.455008 0.890487 -4.5468e-05
0.207479 -0.0588267 0.423417 -0.102861 0.990595 -0.0902268
0.0285479 -0.114891 0.519494 0 -0.196623 0.980479
0.0178409 -0.143619 0.416859 0.377729 -0.925915 -0.00166116
0.193339 -0.0318894 0.574178 0.451789 0.406895 -0.793929
-0.00644916 0.0475357 0.158657 -0.99994 0.0108599 -0.00174132
0.115372 -0.0540508 0.45776 0.00666616 -0.999468 0.0319324
-0.0953896 -0.054143 0.458417 0.000937219 -0.99949 0.0319208
-0.169708 -0.0477465 0.532587 -0.204398 0 0.978888
-0.0394448 -0.0812219 0.157921 -0.900976 -0.372184 -0.222984
-0.0548213 -0.109578 0.44336 -0.885436 -0.464758 -0.00164823
-0.234682 -0.0587609 0.492565 -0.898855 0.436713 0.0366302
0.0451428 -0.00828026 0.0451072 0.981885 -0.154008 -0.11038
-0.0247139 -0.0236174 0.7638 -0.541621 0.840623 0
-0.0566084 -0.098955 0.35828 -0.457042 0.889445 -4.31226e-05
0.052283 -0.077797 0.208016 0.982161 -0.154063 -0.107812
0.0391223 -0.0464684 0.0779238 -0.384541 -0.815093 -0.433303
-0.0347174 -0.033022 0.553524 -0.686177 0.727435 0
-0.373036 -0.0521531 0.467521 -0.00552304 -0.999202 0.0395589
0.228383 -0.103039 0.475302 0.422116 -0.901514 -0.0953457
-0.0492188 -0.0660598 0.612791 -0.987921 0.154961 0
0.0428459 -0.129211 0.350083 0.685298 -0.728261 -0.00184013
-0.0102688 -0.144948 0.258339 -0.19234 -0.981327 -0.00170579
0.051496 -0.0894744 0.461465 0.987919 -0.154965 -0.00161012
0.211413 -0.0539479 0.505695 0.200241 0.979107 0.0354086
