0.0291075 -0.0912331 0.642147 0.374722 -0.927137 0
-0.232892 -0.0696387 0.453016 0.707104 -0.70711 0
-0.010669 -0.0159638 0.98162 -0.364166 0.559412 0.744608
-0.0522468 -0.0174867 0.142114 -0.987265 0.154844 -0.0364946
-0.0560395 -0.00495704 0.334282 -0.987919 0.154953 -0.00231331
0.0431995 -0.05706 0.142954 -0.00268444 -0.999588 -0.0285711
-0.169669 -0.0574696 0.578317 -0.223975 0.815685 0.533379
0.304886 -0.0509857 0.448755 -0.231245 0 -0.972895
0.0367608 0.021177 0.200849 0.685643 0.726901 -0.0388355
0.0457791 -0.078694 0.457282 0.685254 -0.7283 -0.00257315
0.0345188 0.0290806 0.848497 0.686168 0.727443 0
0.0477874 0.0103921 0.346331 0.88955 0.456832 -0.00236625
-0.0572503 -0.0100027 0.628701 -0.987923 0.154945 0
-0.342519 -0.0472688 0.485509 -0.0058334 0.992904 0.118779
-0.0691313 -0.0563234 0.117315 0.000381048 -0.99959 -0.0286409
0.0457775 0.0151732 0.606927 0.889534 0.456869 0
-0.0378616 0.0282569 0.398952 -0.686191 0.727417 -0.00245756
-0.00786874 -0.0401652 0.992942 -0.707615 -0.363436 0.605966
-0.0558143 -0.000846669 0.841519 -0.987923 0.154945 0
0.167583 -0.0871604 0.597156 0.630582 0.751607 -0.193529
0.0680233 -0.0573019 0.149087 -0.00268444 -0.999588 -0.0285711
-0.0368597 -0.088918 0.393976 -0.377693 -0.925929 -0.00203935
0.00893965 -0.0831888 0.765798 0.191625 -0.981468 -1.73022e-08
0.0243907 -0.0931051 0.533221 0.377706 -0.925925 -0.000570578
-0.172611 -0.0670516 0.46433 0 0.621318 -0.783559
0.244087 -0.0643544 0.547994 0.0578237 -0.997284 0.045621
0.043689 0.0192395 0.699379 0.889534 0.456869 0
0.00539703 0.0334858 0.0938718 0 0.976851 -0.213922
0.053677 -0.00558493 0.600286 0.987921 0.154959 0
-0.0464386 -0.0531469 0.22802 -0.895209 -0.443862 -0.0398301
0.0478122 0.0111264 0.497343 0.889538 0.456855 -0.00236868
0.289404 -0.111209 0.520478 0 0 -1
-0.280597 -0.107734 0.520478 0 0 -1
-0.0136135 0.038891 0.221776 -0.378392 0.924769 -0.0402687
-0.0581065 -0.0243389 0.756644 -0.98792 -0.154963 0
0.0898445 -0.0566855 0.572724 0.0251855 0.992606 0.11874
-0.0376455 -0.0431654 0.0812522 -0.833914 -0.428251 -0.348121
0.0476188 -0.0195298 0.917503 0.936631 0.146899 0.318031
-0.093555 -0.0696325 0.583607 -0.0341705 -0.999405 -0.00472523
0.235778 -0.0565981 0.465181 -0.231245 0 -0.972895
0.065132 -0.0487206 0.335489 0.953501 0.301386 -0.00173433
0.385708 -0.0596165 0.472065 0.0578237 -0.997284 0.045621
0.0331811 -0.0660047 0.220014 0.693461 -0.719178 -0.0435299
-0.0567873 -0.00705062 0.689884 -0.987923 0.154945 0
-0.354895 -0.056176 0.437159 0.231246 0 -0.972895
0.0386036 -0.029124 0.0764348 0.939191 -0.147298 -0.310199
0.0544992 -0.0108268 0.772038 0.987921 0.154959 0
0.0182993 0.0393577 0.423949 0.378721 0.925508 -0.00255634
-0.0265828 -0.0929099 0.313594 -0.375043 -0.927004 -0.00232934
-0.0401846 -0.0537913 0.921843 -0.853205 -0.438235 0.282826
0.00798854 0.0548682 0.288453 0.99936 0.0349087 -0.00778809
-0.240439 -0.0643496 0.528441 -0.0341705 -0.999405 -0.00472523
-0.0208323 0.0397467 0.577489 -0.378602 0.92556 0
0.086326 -0.0604314 0.494397 0.0155916 -0.980334 0.196729
-0.00917838 0.0690828 0.186745 -0.438489 0.763297 -0.474452
0.0129052 0.0317871 0.913769 0.34797 0.850289 0.394875
-0.0107089 0.0436051 0.635116 0 1 0
-0.0101726 0.0436051 0.782185 0 1 0
-0.0246373 -0.0779892 0.696003 -0.378719 -0.925512 0
0.0555975 -0.0204703 0.419779 0.999997 0 -0.00234115
-0.144561 -0.0698681 0.636134 0 0.621202 0.78365
-0.121981 -0.0683512 0.502656 -0.0392768 -0.998758 0.0306672
-0.10199 -0.0557323 0.191702 -0.241562 -0.512914 0.823751
0.0441484 -0.0581433 0.706373 0.889534 -0.45687 0
-0.296647 -0.0748557 0.462614 -1 0 0
0.308066 -0.0858172 0.520597 0.630808 0.751431 -0.193476
0.052487 -0.00739456 0.269354 0.987265 0.154842 -0.0364927
-0.0576684 -0.0126682 0.558341 -0.987923 0.154945 0
-0.0502709 -0.0518313 0.79341 -0.889536 -0.456866 0
0.140185 -0.127126 0.62151 -0.341385 -0.937825 0.062774
-0.0595367 -0.0659567 0.374701 -0.883243 -0.468907 -0.00286367
-0.0424363 -0.0846613 0.63204 -0.678893 -0.734236 -0.000947781
-0.0577917 -0.0251878 0.435825 -0.987917 -0.154967 -0.00231331
0.0507269 -0.0453349 0.857348 0.889534 -0.45687 0
-0.409208 -0.0576865 0.472271 -0.414615 0.217179 0.883701
0.0863281 -0.0583332 0.184012 0.00252711 -0.999826 -0.018488
-0.0198433 0.0397717 0.375935 -0.378705 0.925514 -0.00255633
0.149745 -0.0769338 0.538999 0 -1 0
0.00893977 -0.0761698 0.918551 0.364334 -0.89039 0.272886
0.0317802 -0.0901046 0.555649 0.377706 -0.925925 -0.000570578
0.118725 -0.0424393 0.123066 0.051543 0.998518 -0.0174951
-0.0216118 -0.0954019 0.583159 -0.377699 -0.925928 0
0.0323124 -0.0895825 0.390353 0.375041 -0.927006 -0.00203371
0.0491709 -0.0416876 0.534517 -0.0325507 0.992376 -0.118875
0.0525765 -0.0532599 0.634082 0.294279 0.364577 0.88345
-0.0119268 0.0243351 0.059745 -0.369636 0.9033 -0.217756
-0.139038 -0.043736 0.126654 -0.230645 0.666252 -0.709162
-0.28595 -0.0673307 0.569011 0 0.621202 0.78365
-0.0559233 -0.00187943 0.490788 -0.98792 0.154949 -0.00231366
-0.0369237 0.0188256 0.108875 -0.685676 0.72687 -0.038835
-0.162812 -0.111594 0.585617 -0.849614 -0.490629 -0.193491
-0.0149354 -0.055825 0.0664351 -0.34475 -0.842616 -0.413697
-0.0337133 -0.0904054 0.486584 -0.377693 -0.925929 -0.00203935
-0.0461368 0.0165135 0.265637 -0.888922 0.456532 -0.037371
-0.026216 -0.0935348 0.600617 -0.374718 -0.927139 -0.000580932
0.132099 -0.0682442 0.554412 0.0320137 -0.999476 -0.00473375
-0.309024 -0.0581841 0.519297 -0.326983 0.58889 0.739115
-0.0204242 -0.0957535 0.45366 -0.375043 -0.927004 -0.00232934
-0.31615 -0.102824 0.549178 -0.966217 0.170152 -0.193581
-0.066481 -0.0406203 0.164132 -0.0430392 0.998991 0.0128522
-0.0459203 0.0111728 0.904352 -0.835074 0.428912 0.344508
-0.0237808 -0.0714376 0.145293 -0.378307 -0.924573 -0.0452564
-0.217918 -0.0505984 0.469717 0.231246 0 -0.972895
-0.0533488 0.00604018 0.71076 -0.889536 0.456865 0
-0.0679911 -0.0488804 0.295932 -0.953533 0.301285 -0.00172907
0.281197 -0.0593229 0.4377 0 0 -1
-0.0507682 0.00265115 0.206447 -0.888911 0.456553 -0.0373687
0.0408455 0.0231129 0.535838 0.686168 0.727443 0
-0.187979 -0.0506331 0.521222 -0.0058334 0.992904 0.118779
0.043403 -0.0595946 0.797757 0.889534 -0.45687 0
0.458274 -0.0462108 0.420876 0.649548 0.713592 -0.262439
-0.0501746 -0.0561611 0.529692 -0.0209336 -0.996854 0.0764496
0.154799 -0.080253 0.660823 0 0.970147 0.242517
-0.0484008 -0.0554724 0.854617 -0.889536 -0.456866 0
0.0438023 0.00440355 0.130667 0.888926 0.456524 -0.0373688
0.021922 -0.0406759 0.969811 0.779375 -0.400376 0.481947
0.334774 -0.0538775 0.497299 0.0251855 0.992606 0.11874
0.0528801 -0.00216164 0.402433 0.987919 0.154953 -0.00231366
0.0528663 -0.0393822 0.652533 0.987918 -0.154977 0
0.204142 -0.0533401 0.520514 0.0251855 0.992606 0.11874
-0.0305002 0.0353982 0.462439 -0.540911 0.841076 -0.00254416
-0.00834521 0.0436051 0.685073 0 1 0
-0.0306727 0.00260308 0.0469176 -0.861536 0.442397 -0.249079
0.320694 -0.115026 0.550049 0.849641 -0.490559 -0.19355
0.0280537 0.035179 0.764155 0.686168 0.727443 0
-0.0508539 -0.076806 0.53688 -0.685278 -0.728281 0.000686474
-0.105137 -0.056817 0.134061 0.000381048 -0.99959 -0.0286409
0.290141 -0.0788545 0.573544 -0.341384 0.937825 0.0627736
-0.268677 -0.0894447 0.572352 0.864301 0.499049 0.0627174
0.00681057 0.0757619 0.231738 0.999362 0.0348663 -0.00775536
-0.130857 -0.0917599 0.585589 0 0 -1
0.411806 -0.0455563 0.42799 -0.0820099 0.935005 -0.345021
0.0282203 -0.0714869 0.903512 0.67438 -0.714907 0.184716
-0.0242281 0.0383576 0.867904 -0.378602 0.92556 0
-0.123641 -0.0544357 0.556169 -0.0058334 0.992904 0.118779
0.194426 -0.058674 0.567164 0.0251855 0.992606 0.11874
-0.169829 -0.0968344 0.632886 -0.982885 0.173207 0.0627462
-0.00739066 -0.0834035 0.785873 0 -1 0
0.115865 -0.062115 0.606664 0.405103 0.223335 0.886574
0.00845175 -0.0832841 0.714783 0.191625 -0.981468 -1.73022e-08
0.177015 -0.0976515 0.61345 0.966192 0.170356 -0.193524
0.012998 0.0413367 0.355145 0.378701 0.925516 -0.00255819
0.00277904 -0.0825479 0.267624 0 -0.998943 -0.0459592
0.0292206 -0.00293675 0.0450334 0.949444 0.148943 -0.276356
-0.331615 -0.0453118 0.469686 -0.0058334 0.992904 0.118779
-0.261346 -0.043778 0.490514 -0.270022 0 0.962854
0.0308161 -0.090106 0.353032 0.375041 -0.927006 -0.00203371
-0.0795116 -0.0608989 0.612363 -0.0058334 0.992904 0.118779
0.0537374 -0.0332794 0.47662 0.987918 -0.154963 -0.00231364
0.17448 -0.0669886 0.575934 0.0320137 -0.999476 -0.00473375
0.126 -0.0683055 0.526114 0.0320137 -0.999476 -0.00473375
0.281729 -0.123307 0.569985 -0.641506 -0.764546 0.0627732
0.366332 -0.054769 0.43415 -0.231245 0 -0.972895
-0.037254 0.0292178 0.542529 -0.686166 0.727445 0
0.273326 -0.0513175 0.488932 0.0251855 0.992606 0.11874
-0.051862 0.00893503 0.787575 -0.889536 0.456865 0
-0.0105993 -0.079132 0.195674 -0.19307 -0.980084 -0.0464722
-0.0104381 0.0659508 0.274017 -0.99946 0.0319419 -0.00766795
0.0616218 -0.0566198 0.395395 0.883129 -0.469124 -0.00236667
0.0508605 -0.0193204 0.175147 0.999318 0 -0.0369375
-0.0563516 -0.0252717 0.265708 -0.987262 -0.154861 -0.0364926
-0.0261958 0.0315308 0.17099 -0.378365 0.92478 -0.0402792
0.0314273 0.0318426 0.468129 0.686176 0.727431 -0.00245786
-0.0562502 -0.0342615 0.385349 -0.987916 -0.154971 -0.00231365
0.00815578 0.0364762 0.142097 0.378362 0.924782 -0.0402602
0.0518541 -0.0253905 0.222467 0.987262 -0.15486 -0.0364926
0.0541202 -0.0442866 0.611243 0.845879 0.533375 -0.00049041
0.0319349 0.00236191 0.93634 0.7469 0.383655 0.543093
-0.0435274 -0.0630986 0.745691 -0.686166 -0.727445 0
-0.034784 -0.0189546 0.954951 -0.867913 0.136125 0.4777
0.0528968 -0.039396 0.108706 0.0355988 0.99928 0.0131146
0.0534108 -0.0329036 0.311977 0.987916 -0.154971 -0.00231286
0.0356697 0.027995 0.638641 0.686168 0.727443 0
0.020757 0.0385992 0.577038 0.378601 0.92556 0
-0.0457933 0.020751 0.645609 -0.889536 0.456865 0
-0.0568234 -0.0325186 0.56654 -0.98792 -0.154963 0
0.0522138 -0.0423702 0.752823 0.950897 -0.309506 0
0.0925841 -0.0407627 0.53035 -0.0325507 0.992376 -0.118875
0.00463192 -0.0752393 0.108759 0 -0.998944 -0.0459452
-0.197975 -0.0525184 0.536491 -0.0058334 0.992904 0.118779
-0.10286 -0.0444866 0.53466 -0.264114 0 0.964492
-0.0260054 0.0370935 0.319196 -0.378705 0.925514 -0.00255633
0.124982 -0.0428437 0.175737 0.0355988 0.99928 0.0131146
0.200262 -0.0506851 0.473623 -0.231245 0 -0.972895
0.0161487 0.0377061 0.245445 0.378391 0.924769 -0.0402833
0.147886 -0.0575734 0.151334 0.00252711 -0.999826 -0.018488
-0.456969 -0.0495504 0.41367 -0.619396 0 -0.785079
-0.40077 -0.0536368 0.426255 0.231246 0 -0.972895
-0.056164 -0.0239348 0.895673 -0.98123 -0.1539 0.116202
0.0543134 -0.00964222 0.727623 0.987921 0.154959 0
0.0704908 -0.0701063 0.530933 0.0320137 -0.999476 -0.00473375
-0.153493 -0.0673521 0.534742 -0.0341705 -0.999405 -0.00472523
-0.00315818 -0.0981223 0.410483 0 -0.999997 -0.00235352
0.0264575 -0.0760657 0.845475 0.378714 -0.925514 0
-0.0287387 0.0365126 0.751244 -0.378602 0.92556 0
0.0393312 0.0245413 0.807979 0.686168 0.727443 0
-0.0631681 -0.0579434 0.173932 0.000381048 -0.99959 -0.0286409
0.26985 -0.0541615 0.513444 0.0251855 0.992606 0.11874
-0.13192 -0.0896172 0.665957 0.268106 0.319629 0.908822
-0.0324507 -0.0727695 0.884828 -0.683289 -0.724252 0.0925991
0.0530915 -0.0379462 0.875526 0.987918 -0.154977 0
-0.0267134 0.037341 0.82842 -0.378602 0.92556 0
0.133499 -0.0846804 0.627278 -0.641519 0.764535 0.0627761
-0.123333 -0.068721 0.60618 -0.0341705 -0.999405 -0.00472523
0.0558033 -0.0191408 0.553319 0.987921 0.154959 0
-0.143304 -0.0580471 0.176486 0.000381048 -0.99959 -0.0286409
0.0544441 -0.029324 0.520316 0.987918 -0.154977 0
0.0470732 0.00975166 0.887315 0.879132 0.451519 0.152505
-0.0140969 -0.0823023 0.658303 -0.378719 -0.925512 0
-0.285691 -0.129293 0.56446 0 -0.998027 0.062788
-0.065523 -0.0471874 0.456669 -0.456821 0.889559 -7.62145e-05
0.180367 -0.0665724 0.527863 0.0320137 -0.999476 -0.00473375
-0.371285 -0.0478224 0.478902 -0.223975 0.815685 0.533379
-0.138132 -0.0434295 0.496631 0.00983922 0.992215 -0.124149
0.00129029 0.0138608 0.942859 0 0.721655 0.692253
-0.0208562 -0.0953503 0.362786 -0.375043 -0.927004 -0.00232934
0.0549343 -0.0143516 0.463202 0.98792 0.154945 -0.00231287
0.34832 -0.0700743 0.464536 0.707861 -0.706352 0
-0.05363 -0.0452909 0.658864 -0.889536 -0.456866 0
-0.0401319 0.0265031 0.596778 -0.686166 0.727445 0
0.132281 -0.0587526 0.48688 -0.0558474 -0.707233 -0.704771
-0.119975 -0.112592 0.617002 0.849647 -0.490562 -0.193517
-0.00791732 -0.0665017 0.951911 -0.183553 -0.933164 0.309051
0.00655382 0.094418 0.277801 0.999354 0.0309873 -0.0181792
-0.0509054 -0.0268303 0.124991 -0.98726 -0.154872 -0.0364944
0.0422101 -0.0581181 0.253119 0.895209 -0.443863 -0.0398276
0.426731 -0.0512952 0.458126 0.0737937 0.894827 0.440271
0.0357939 0.0271653 0.302814 0.686194 0.727415 -0.00245571
0.168809 -0.0524808 0.520825 0.0251855 0.992606 0.11874
-0.0534701 0.00531184 0.418853 -0.88955 0.456832 -0.00236827
0.294788 -0.0797248 0.593598 0 0.970141 0.24254
-0.0247377 0.0378979 0.422628 -0.378705 0.925514 -0.00255633
0.00513778 0.0163122 0.0198283 0.369463 0.90337 -0.217762
0.0400547 -0.08399 0.431788 0.685254 -0.7283 -0.00257315
-0.0121269 -0.0983654 0.553777 0 -1 0
0.0560419 -0.0708152 0.58288 0.0320137 -0.999476 -0.00473375
0.0199745 -0.0949244 0.596364 0.374722 -0.927137 0
0.3 -0.0769338 0.484103 0 -1 0
0.0538728 -0.00683344 0.832521 0.987921 0.154959 0
0.0581382 -0.0615956 0.288006 0.776257 -0.0537177 -0.628124
0.156789 -0.122958 0.586762 0.335444 -0.92198 -0.193471
-0.233739 -0.054602 0.496139 -0.190858 -0.707389 0.680569
-0.0460695 -0.0811221 0.431363 -0.685261 -0.728295 -0.0018332
0.0513161 -0.0736129 0.493713 0.685254 -0.7283 -0.00257315
0.011975 -0.0382018 0.0305619 0.49616 -0.767848 -0.40526
0.275737 -0.111428 0.594631 -0.840011 -0.48528 0.242663
-0.0414914 -0.0637367 0.271391 -0.698384 -0.714517 -0.0415406
-0.0507564 -0.0508859 0.712625 -0.889536 -0.456866 0
-0.0943328 -0.0471768 0.489931 0.078994 0 -0.996875
0.0528713 -0.000448557 0.633767 0.987921 0.154959 0
-0.0418224 0.0235028 0.884591 -0.67598 0.716587 0.171915
0.150987 -0.12831 0.645193 0 -0.998027 0.0627861
-0.0533429 0.00500617 0.312104 -0.88955 0.456832 -0.00236827
-0.0556144 -0.0719058 0.337847 -0.685261 -0.728295 -0.0018332
-0.283741 -0.0739611 0.505489 1 0 0
0.0376614 0.00472441 0.0848222 0.861517 0.442438 -0.249075
0.249424 -0.0429394 0.491603 0.270021 0 0.962855
-0.0547556 -0.0430993 0.818216 -0.889536 -0.456866 0
-0.112257 -0.0426297 0.167028 -0.0430392 0.998991 0.0128522
0.0899993 -0.0409974 0.130011 0.0355988 0.99928 0.0131146
0.0532116 -0.00261776 0.671574 0.987921 0.154959 0
0.0342757 0.026642 0.259277 0.685662 0.726884 -0.0388185
-0.0840735 -0.0696244 0.513345 -0.0341705 -0.999405 -0.00472523
-0.0512976 0.00932327 0.376624 -0.88955 0.456832 -0.00236827
0.0225321 0.0378731 0.722579 0.378601 0.92556 0
0.00761959 0.0475276 0.209054 0.999362 0.0348663 -0.00775536
0.00189958 -0.0982798 0.477422 0 -0.999997 -0.00235352
-0.152708 -0.0879512 0.666659 -0.142659 0.392029 0.908824
-0.0330897 0.0325461 0.336124 -0.686191 0.727417 -0.00245756
-0.313071 -0.0933935 0.587236 -0.864517 0.498675 0.0627134
-0.0565062 -0.00525784 0.5921 -0.987923 0.154945 0
0.0309754 -0.0903848 0.504756 0.377693 -0.925928 -0.00232777
-0.19699 -0.0656904 0.497835 -0.0341705 -0.999405 -0.00472523
0.0315026 -0.0651839 0.178521 0.693659 -0.719103 -0.0415581
0.0465666 -0.0391211 0.12648 0.783612 0.620978 -0.0183902
0.0390614 0.0247957 0.575685 0.686168 0.727443 0
0.0349349 -0.0684865 0.673433 0.686168 -0.727443 0
0.0552163 -0.0223104 0.373386 0.987916 -0.154971 -0.00231286
-0.0290724 0.0283017 0.147613 -0.685676 0.72687 -0.038835
-0.053608 -0.00437175 0.23459 -0.987265 0.154842 -0.0364996
-0.217647 -0.0579372 0.558885 -0.223975 0.815685 0.533379
0.0219802 0.0321466 0.172582 0.378414 0.92476 -0.0402797
-0.00798398 -0.0983654 0.633151 0 -1 0
0.274365 -0.0974034 0.541835 -0.96618 0.17046 -0.193494
-0.0342453 -0.0659223 0.188998 -0.693651 -0.719111 -0.0415581
-0.0640948 -0.0410414 0.204849 -0.0430392 0.998991 0.0128522
0.304186 -0.0618033 0.542252 1 0 0
-0.263172 -0.0514978 0.45896 0.231246 0 -0.972895
-0.0488427 -0.0786663 0.576664 -0.678893 -0.734236 -0.000947781
0.0831223 -0.0613572 0.613202 0.0251855 0.992606 0.11874
0.107424 -0.057424 0.149655 -0.00268444 -0.999588 -0.0285711
0.0312135 0.0321984 0.673566 0.686168 0.727443 0
-0.305496 -0.0471707 0.4489 0.231246 0 -0.972895
-0.100838 -0.0416215 0.126901 -0.0430392 0.998991 0.0128522
-0.182286 -0.0441983 0.481529 0.0507285 0.975642 -0.213423
0.00300414 0.0436051 0.843018 0 1 0
-0.0141186 0.0281602 0.0793329 -0.369636 0.9033 -0.217756
0.0484085 0.00967632 0.441603 0.889538 0.456855 -0.00236868
-0.109655 -0.0689027 0.545691 -0.0341705 -0.999405 -0.00472523
0.304605 -0.0416866 0.475017 0.190857 0.707389 0.680569
0.00677246 -0.0978552 0.296981 0 -0.999997 -0.00235352
0.130231 -0.100672 0.59677 -0.966217 0.170208 -0.19353
-0.0124216 -0.0983654 0.514873 0 -1 0
0.0635682 -0.0531533 0.434551 0.883129 -0.469124 -0.00236667
-0.118866 -0.103158 0.639957 0.982864 0.173318 0.0627699
-0.0289667 -0.0762176 0.815098 -0.378719 -0.925512 0
0.111745 -0.0501636 0.513558 0.0251855 0.992606 0.11874
-0.136285 -0.0433618 0.143463 -0.0430392 0.998991 0.0128522
-0.0540104 -0.0737425 0.467974 -0.685261 -0.728295 -0.0018332
0.158591 -0.0645229 0.622775 1 0 0
-0.0242157 -0.025076 0.0268283 -0.833914 -0.428251 -0.348121
-0.0581866 -0.0159725 0.667487 -0.987923 0.154945 0
-0.0648705 -0.0560991 0.413887 -0.885434 -0.464759 -0.00236632
-0.299718 -0.0474441 0.489077 -0.0058334 0.992904 0.118779
-0.0584567 -0.0221037 0.513812 -0.987919 -0.154968 -0.00101527
-0.00927853 0.0716169 0.207587 -0.998881 0.0465731 -0.00823138
0.0409757 0.00785168 0.105553 0.888926 0.456524 -0.0373688
-0.283562 -0.0808997 0.537569 0.335662 0.921897 -0.193486
0.0161352 0.0404898 0.610753 0.378601 0.92556 0
0.03808 0.0253168 0.394053 0.686176 0.727431 -0.00245786
0.0191464 -0.0587228 0.0782469 0.344691 -0.84264 -0.413698
0.0438096 0.0190047 0.747305 0.889534 0.456869 0
0.0751654 -0.0414564 0.205255 0.0355988 0.99928 0.0131146
0.0465499 -0.0600478 0.495788 -0.701255 -0.707846 0.084829
0.0956162 -0.0693836 0.548267 0.0320137 -0.999476 -0.00473375
0.233132 -0.053704 0.517407 0.0251855 0.992606 0.11874
0.0579803 -0.0504475 0.568636 0.845879 0.533375 -0.00049041
0.230194 -0.0648373 0.498488 0.0320137 -0.999476 -0.00473375
0.111672 -0.0584689 0.583001 0.0251855 0.992606 0.11874
-0.030718 0.0312492 0.231841 -0.685662 0.726884 -0.0388275
-0.00905299 0.0971593 0.245467 -0.999198 0.0378325 -0.0131454
0.0384376 -0.0651825 0.779455 0.686168 -0.727443 0
-0.0405645 2.41068e-05 0.0765516 -0.861536 0.442397 -0.249079
-0.151052 -0.0660318 0.596542 -1 0 0
0.0326981 -0.0497514 0.939577 0.837505 -0.430127 0.337011
-0.0215141 -0.0765638 0.231047 -0.378277 -0.924585 -0.0452719
0.0138661 -0.0745088 0.149236 0.378311 -0.924572 -0.0452552
-0.334425 -0.0665926 0.421914 0 0.62132 -0.783557
0.053613 -0.0346219 0.826182 0.987918 -0.154977 0
-0.155298 -0.0672066 0.517015 -0.0341705 -0.999405 -0.00472523
0.0654608 -0.0490793 0.454126 0.953811 0.300403 -0.00173145
0.304524 -0.0973413 0.574452 -0.126483 -0.150669 0.98046
-0.0584626 -0.0220684 0.775951 -0.98792 -0.154963 0
0.306549 -0.0541904 0.505902 0.0251855 0.992606 0.11874
-0.155377 -0.0559233 0.567045 -0.0058334 0.992904 0.118779
-0.0569715 -0.0442355 0.628809 -0.719226 0.453243 0.526577
0.00714671 0.070528 0.250622 0.99936 0.0349087 -0.00778809
0.00285635 0.0434971 0.471979 0 0.999997 -0.00258665
-0.0381778 0.0283258 0.507674 -0.686179 0.727429 -0.00245604
-0.273235 -0.0509046 0.519305 -0.0058334 0.992904 0.118779
-0.265382 -0.105287 0.545746 0.966123 -0.170768 -0.193505
0.0277917 0.0329739 0.888956 0.675979 0.716587 0.171917
-0.0397652 0.0268491 0.679835 -0.686166 0.727445 0
0.00224927 0.0434433 0.451147 0 0.999997 -0.00258665
-0.170191 -0.057248 0.138009 0.00577398 -0.999832 -0.017408
-0.0823931 -0.0576085 0.161988 0.000381048 -0.99959 -0.0286409
-0.0104386 0.0599108 0.248918 -0.99946 0.0319419 -0.00766795
-0.0748416 -0.0702724 0.583627 -0.0341705 -0.999405 -0.00472523
0.0112933 -0.00724424 0.966174 0.331804 0.81083 0.482141
-0.0239697 0.037652 0.290631 -0.378447 0.924746 -0.0402822
-0.267105 -0.112711 0.58463 0.864313 -0.499031 0.0626946
0.177007 -0.104943 0.651376 0.982864 -0.173317 0.0627701
0.180915 -0.0664118 0.497667 0.0320137 -0.999476 -0.00473375
-0.432876 -0.0444644 0.420926 0.163531 0.707041 -0.688005
0.0156419 -0.0961945 0.327778 0.377693 -0.925928 -0.00232777
-0.166122 -0.0514625 0.529228 -0.0058334 0.992904 0.118779
-0.159466 -0.125268 0.624497 -0.641453 -0.76459 0.0627789
0.0538486 -0.0066792 0.526429 0.987921 0.154959 0
-0.0578891 -0.0140753 0.722454 -0.987923 0.154945 0
0.0562803 -0.0665622 0.364358 0.885427 -0.464769 -0.00287523
0.0315137 -0.0717135 0.738884 0.686168 -0.727443 0
0.148335 -0.055563 0.536064 0 1 0
-0.057746 -0.0266373 0.849655 -0.98792 -0.154963 0
-0.0563851 -0.00448578 0.872996 -0.987923 0.154945 0
-0.0545971 0.00328217 0.450629 -0.88955 0.456832 -0.00236827
0.345004 -0.0703593 0.434327 0 -1 0
-0.32276 -0.061361 0.491646 -0.0341705 -0.999405 -0.00472523
-0.0571096 -0.0429008 0.327081 -0.455034 0.890474 -0.000200114
-0.0721803 -0.0406704 0.537994 0.0209204 0.996858 -0.0764016
0.0125633 0.0419509 0.755733 0.378601 0.92556 0
0.0482085 -0.0766989 0.617064 0.679354 -0.73381 0.000659119
0.0105708 0.0424339 0.392778 0.378701 0.925516 -0.00255819
0.34608 -0.0426744 0.451423 -0.0820099 0.935005 -0.345021
-0.0194958 -0.0686798 0.096418 -0.34475 -0.842616 -0.413697
-0.0551938 0.0022663 0.819904 -0.950875 0.309575 0
0.0555339 -0.0174234 0.804315 0.987921 0.154959 0
0.145687 -0.061987 0.587719 -1 0 0
-0.0558143 -0.0030161 0.368112 -0.98792 0.154949 -0.00231366
0.0140117 -0.0811585 0.86842 0.378714 -0.925514 -3.40798e-08
-0.0528016 -0.0233863 0.161674 -0.98726 -0.154872 -0.0364944
-0.00117852 -0.0834035 0.686051 0 -1 0
0.0249645 0.0368782 0.519403 0.378601 0.92556 0
0.0541549 -0.0311675 0.688553 0.987918 -0.154977 0
0.391154 -0.0424195 0.4414 -0.0820099 0.935005 -0.345021
-0.0418805 -0.0288565 0.940002 -0.919402 -0.144222 0.365924
-0.0733773 -0.0406002 0.139472 -0.0430392 0.998991 0.0128522
-0.130781 -0.118979 0.591289 0.630767 -0.751466 -0.193474
-0.285789 -0.083492 0.60018 0.14266 0.392006 0.908834
0.281227 -0.0435877 0.465059 -0.0561955 0.978104 -0.200385
-0.0230365 -0.0698913 0.924062 -0.364331 -0.890381 0.272919
0.00260202 0.0522673 0.159677 0 0.845208 -0.534437
0.310916 -0.124798 0.582341 0.641454 -0.764591 0.0627436
-0.374062 -0.0586656 0.435611 -0.050759 -0.975612 0.213552
-0.132501 -0.0513241 0.529723 -0.0058334 0.992904 0.118779
0.0552857 -0.0184437 0.339128 0.98792 0.154945 -0.00231287
-0.0238164 -0.0464121 0.966641 -0.779377 -0.400369 0.48195
-0.0461404 0.0200751 0.746891 -0.889536 0.456865 0
0.0709924 -0.056404 0.117393 -0.00268444 -0.999588 -0.0285711
-0.0242782 -0.0781361 0.762698 -0.378719 -0.925512 0
0.0636723 -0.0406157 0.172392 0.0355988 0.99928 0.0131146
0.0185223 -0.0793128 0.813688 0.378714 -0.925514 -3.40798e-08
-0.0905259 -0.0540561 0.554622 -0.0058334 0.992904 0.118779
-0.363739 -0.0421064 0.461124 -0.190858 0.707389 0.680569
-0.109413 -0.0690545 0.576041 -0.0341705 -0.999405 -0.00472523
0.129391 -0.105758 0.66096 -0.955416 -0.168477 0.24248
-0.0413609 -0.0174329 0.0705106 -0.939191 -0.147298 -0.3102
0.14742 -0.0405603 0.517025 -0.0325507 0.992376 -0.118875
-0.396496 -0.0451593 0.452612 -0.270022 0 0.962854
-0.0579926 -0.024559 0.479502 -0.987917 -0.154967 -0.00231331
-0.265322 -0.0616571 0.540755 -0.414615 0.217179 0.883701
-0.157051 -0.0809642 0.612186 -0.33563 0.921913 -0.193468
0.352009 -0.0514797 0.473599 0.0251855 0.992606 0.11874
0.00014293 0.0436051 0.655615 0 1 0
-0.0557973 -0.0390602 0.597206 -0.98792 -0.154963 0
0.000815334 0.0430877 0.313666 0 0.999997 -0.00258665
-0.0821742 -0.0420437 0.51734 0.0209204 0.996858 -0.0764016
0.00544248 -0.0806284 0.225902 0 -0.998943 -0.0459592
0.039975 0.0192972 0.224992 0.79935 0.599622 -0.0386405
-0.157169 -0.124929 0.609884 -0.335443 -0.92198 -0.193471
-0.0283308 0.00898043 0.936518 -0.536029 0.568203 0.624354
0.0692671 -0.0700566 0.512163 0.0320137 -0.999476 -0.00473375
-0.0274393 -0.0399662 0.0538272 -0.633193 -0.671285 -0.385283
-0.301032 -0.0849228 0.525726 -0.630805 0.751429 -0.193494
-0.0456973 -0.0814068 0.410123 -0.680175 -0.733046 -0.00256612
0.158591 -0.0649081 0.565308 1 0 0
-0.0105153 -0.0780212 0.171898 -0.19307 -0.980084 -0.0464722
0.0171491 0.0196227 0.05575 0.667819 0.708082 -0.229429
0.0605054 -0.0705627 0.559758 0.0320137 -0.999476 -0.00473375
0.0275211 -0.0311838 0.0491597 0.833912 -0.428256 -0.348119
-0.0554808 -0.0410782 0.686111 -0.98792 -0.154963 0
0.214989 -0.0563497 0.543372 0.0251855 0.992606 0.11874
0.0142666 -0.0968698 0.373225 0.377693 -0.925928 -0.00232777
0.0927184 -0.0415833 0.167275 0.0355988 0.99928 0.0131146
0.135889 -0.0435386 0.126723 0.240003 0.61599 -0.750304
-0.0551982 -0.0727121 0.502592 -0.685261 -0.728295 -0.0018332
-0.0353074 0.0310538 0.71769 -0.686166 0.727445 0
-0.0224952 0.0273903 0.917325 -0.347972 0.850304 0.394841
0.0519151 -0.0375281 0.275623 0.987262 -0.15486 -0.0364925
0.318477 -0.109927 0.528714 0.966179 -0.170464 -0.193494
-0.162365 -0.117656 0.662498 -0.840113 -0.485228 0.242414
-0.0516146 0.00941658 0.520452 -0.889536 0.456865 0
-0.0331225 0.0270128 0.194995 -0.685649 0.726896 -0.038841
-0.0335304 -0.0725283 0.726345 -0.686166 -0.727445 0
-0.0307392 0.0353629 0.80566 -0.686166 0.727445 0
-0.151995 -0.0576355 0.162004 0.000381048 -0.99959 -0.0286409
-0.218959 -0.0511323 0.523873 -0.0058334 0.992904 0.118779
-0.0218739 -0.0947367 0.282414 -0.375043 -0.927004 -0.00232934
-0.262271 -0.0634702 0.500322 -0.0341705 -0.999405 -0.00472523
-0.42091 -0.0582384 0.449155 -0.0392768 -0.998758 0.0306672
0.0315921 -0.086896 0.273937 -0.00121728 0.00297505 -0.999995
0.109447 -0.0581248 0.175903 0.00252711 -0.999826 -0.018488
0.171737 -0.107482 0.585963 0.966192 -0.170357 -0.193524
-0.0503404 -0.0570959 0.144526 0.000381048 -0.99959 -0.0286409
-0.142739 -0.056073 0.605207 0 0.965784 0.259348
-0.0615529 -0.0709269 0.625972 -0.0341705 -0.999405 -0.00472523
0.0448736 -0.0567313 0.834943 0.889534 -0.45687 0
0.224556 -0.0428516 0.484545 -0.0561955 0.978104 -0.200385
0.0133857 -0.0814146 0.786099 0.378714 -0.925514 -3.40798e-08
0.324918 -0.0616352 0.463001 0.0320137 -0.999476 -0.00473375
0.366222 -0.0414406 0.457482 0.190865 0.70736 0.680597
0.148491 -0.106557 0.639604 -0.642653 -0.766157 0
0.252785 -0.064015 0.477652 0.0320137 -0.999476 -0.00473375
0.0202028 -0.0740941 0.193734 0.378305 -0.924574 -0.0452563
0.0126086 -0.0979014 0.617937 0.374722 -0.927137 0
-0.00987695 0.0357294 0.118603 -0.192404 0.980444 -0.0413517
-0.0580099 -0.0226023 0.355826 -0.987917 -0.154967 -0.00231331
0.0353822 0.0194516 0.144224 0.68567 0.726876 -0.0388411
-0.0304161 0.0356079 0.654161 -0.5423 0.840185 0
0.065816 -0.0581246 0.178076 -0.00268444 -0.999588 -0.0285711
-0.0499462 -0.0771217 0.31222 -0.680175 -0.733046 -0.00256612
0.00016288 -0.0834035 0.814588 0 -1 0
0.0431695 0.020251 0.784714 0.889534 0.456869 0
-0.0149733 0.0421433 0.600354 -0.378602 0.92556 0
0.320202 -0.0897426 0.563854 0.864294 0.499045 0.06285
-0.165772 -0.0480376 0.500616 -0.0058334 0.992904 0.118779
-0.0225094 0.00390775 0.0209989 -0.861536 0.442397 -0.249079
-0.00921257 0.107374 0.286829 -0.99946 0.0319419 -0.00766795
0.00333911 -0.0983228 0.495671 0 -0.999997 -0.00235352
0.00692399 0.0436051 0.873059 0 1 0
-0.00958064 0.0114707 0.00239457 -0.369465 0.903376 -0.217733
-0.086538 -0.0696991 0.546964 -0.0341705 -0.999405 -0.00472523
0.0479043 0.0105592 0.422546 0.889538 0.456855 -0.00236868
-0.052342 0.00580024 0.282361 -0.888922 0.456532 -0.037371
0.203213 -0.0405245 0.501889 -0.0561955 0.978104 -0.200385
0.0422595 -0.056294 0.116244 -0.00268444 -0.999588 -0.0285711
0.0601027 -0.0590575 0.311712 0.883129 -0.469124 -0.00236667
0.0250625 -0.0925644 0.412364 0.377693 -0.925928 -0.00232777
0.438736 -0.0440647 0.441419 0.0737937 0.894827 0.440271
0.026078 0.0270667 0.122485 0.685643 0.726901 -0.0388355
-0.0258195 0.0354866 0.25829 -0.378392 0.924769 -0.0402687
0.00152623 -0.0983654 0.569617 0 -1 0
0.0064415 0.078497 0.196475 0.999362 0.0348663 -0.00775536
0.0302314 0.0325223 0.335313 0.686194 0.727415 -0.00245571
-0.0427991 -0.0561679 0.112237 0.000381048 -0.99959 -0.0286409
0.00731418 0.0499066 0.180394 0.999362 0.0348663 -0.00775536
0.0472854 -0.0446856 0.217495 0.895209 -0.443863 -0.0398276
0.29346 -0.0714881 0.45728 0 0 -1
0.053705 -0.0340353 0.782099 0.987918 -0.154977 0
-0.304084 -0.124508 0.578623 -0.6414 -0.764635 0.0627631
0.0965952 -0.0692195 0.520226 0.0320137 -0.999476 -0.00473375
-0.0490021 -0.0511467 0.89272 -0.884858 -0.454448 0.10249
-0.151049 -0.0863616 0.585589 0 0 -1
0.0132057 -0.0974966 0.450438 0.377693 -0.925928 -0.00232777
0.0656714 -0.0445128 0.506414 -0.0325507 0.992376 -0.118875
-0.456258 -0.0566052 0.433727 0.201529 -0.00874224 -0.979444
0.0756972 -0.0533369 0.547731 0.0251855 0.992606 0.11874
-0.0511378 -0.00251925 0.175619 -0.987264 0.154851 -0.0364958
0.0529743 -0.00403217 0.317369 0.987919 0.154953 -0.00231366
-0.183122 -0.0664444 0.557024 -0.0341705 -0.999405 -0.00472523
0.0425352 -0.0813324 0.329388 0.679985 -0.733224 -0.00180851
-0.125592 -0.0846521 0.619029 0.630589 0.751615 -0.193473
0.155589 -0.0672914 0.512109 0.0320137 -0.999476 -0.00473375
-0.14151 -0.0932454 0.639892 -0.0672784 -0.184724 0.980485
0.322604 -0.0405181 0.468439 -0.0561955 0.978104 -0.200385
-0.124304 -0.110246 0.66473 0.410861 -0.0723983 0.908819
-0.212601 -0.0653289 0.534257 -0.0341705 -0.999405 -0.00472523
-0.299185 -0.123233 0.530486 -0.335622 -0.921911 -0.193491
-0.0495207 -0.0138094 0.099021 -0.949445 0.148934 -0.276355
0.287864 -0.124675 0.539161 -0.335597 -0.921926 -0.193462
0.0535357 -0.00468404 0.865743 0.987921 0.154959 0
0.278815 -0.0703593 0.50162 0 -1 0
-0.00222386 -0.0834035 0.740719 0 -1 0
0.00259404 -0.0543078 0.977136 0.171359 -0.872902 0.456814
0.370274 -0.0534732 0.486389 0.0251855 0.992606 0.11874
-0.122806 -0.0558057 0.514438 -0.0209336 -0.996854 0.0764496
-0.00967979 0.0433154 0.401716 0 0.999997 -0.00258665
0.278976 -0.0703593 0.47837 0 -1 0
0.0555653 -0.0179084 0.494431 0.98792 0.154945 -0.00231287
0.047614 -0.000435916 0.167485 0.950037 0.309889 -0.0374072
-0.00919407 0.0393808 0.900184 0 0.981154 0.193227
-0.0100031 0.0489349 0.167185 -0.998881 0.0465731 -0.00823138
0.0312612 -0.01764 0.951396 0.746926 0.383601 0.543095
-0.176439 -0.0690595 0.511415 -1 0 0
-0.0537764 -0.0397775 0.141163 -0.0430392 0.998991 0.0128522
0.145687 -0.0678785 0.605687 -1 0 0
0.00431607 -0.0822119 0.892798 0 -0.996421 0.0845264
-0.0555757 0.00067495 0.762595 -0.987923 0.154945 0
0.0464285 -0.0224309 0.0969481 0.939191 -0.147298 -0.310199
-0.334975 -0.0703593 0.459971 0 -1 0
0.179279 -0.058909 0.464758 0 0 -1
0.163716 -0.0444844 0.138894 0.051543 0.998518 -0.0174951
-0.201885 -0.0407669 0.50244 0.0354784 0.991331 -0.126511
0.0498104 -0.00285496 0.216213 0.987262 0.15486 -0.0364973
0.014118 -0.0657128 0.94372 0.360443 -0.881275 0.30567
0.0511124 0.004786 0.806773 0.889534 0.456869 0
-0.00650906 -0.0834035 0.877065 0 -1 0
-0.0523968 -0.0422343 0.241812 -0.898874 -0.436608 -0.0374051
-0.0502012 0.0121687 0.556703 -0.889536 0.456865 0
0.291283 -0.0672518 0.526266 -1 0 0
0.00495046 -0.0528778 0.0546667 0.175052 -0.887763 -0.425715
-0.288609 -0.0769338 0.489265 0 -1 0
0.31278 -0.0850817 0.538821 0.630581 0.751605 -0.193542
-0.250386 -0.0502558 0.515003 -0.0058334 0.992904 0.118779
0.14127 -0.0435343 0.50252 -0.015585 0.980351 -0.196646
-0.0565135 -0.00530455 0.533312 -0.987923 0.154945 0
-0.0443008 0.0109963 0.154557 -0.888926 0.456524 -0.0373632
-0.027235 -0.0683193 0.117381 -0.685196 -0.72705 -0.0436565
0.159165 -0.0441192 0.180136 0.0355988 0.99928 0.0131146
-0.0110304 0.0502907 0.285979 -0.99946 0.0319419 -0.00766795
-0.0594633 -0.0396143 0.109437 -0.0430392 0.998991 0.0128522
0.0056694 0.1142 0.256806 0.99936 0.0349087 -0.00778809
-0.00829951 -0.0814035 0.24275 0 -0.998943 -0.0459592
0.0529092 -0.0131217 0.89307 0.97912 0.153588 0.133175
-0.0481178 -0.00634078 0.918425 -0.936631 0.146899 0.318029
0.0396845 0.010895 0.912831 0.835071 0.42891 0.344518
0.106466 -0.0473172 0.194168 0.235706 -0.510538 0.826918
-0.100257 -0.0597162 0.601458 -0.0058334 0.992904 0.118779
0.0551788 -0.0246408 0.574891 0.987918 -0.154977 0
-0.0572587 -0.0117258 0.401579 -0.987919 0.154953 -0.00231331
0.00752533 0.0436051 0.534388 0 1 0
0.00470135 0.0436051 0.561234 0 1 0
0.16963 -0.0850462 0.645128 0.641373 0.764658 0.0627595
0.0994021 -0.056701 0.125115 -0.00268444 -0.999588 -0.0285711
0.00569558 0.101492 0.229366 -0.99755 0.047491 -0.0513616
-0.0370364 -0.0692213 0.847043 -0.686166 -0.727445 0
0.0146467 -0.0808986 0.667918 0.378714 -0.925514 0
-0.29269 -0.0577683 0.546409 0 0.965784 0.259348
0.0220107 -0.0701546 0.128363 0.378305 -0.924574 -0.0452563
-0.150413 -0.0508888 0.485448 0.157864 0 -0.987461
0.0385922 0.0247192 0.360151 0.686176 0.727431 -0.00245786
-0.0330308 0.0332013 0.623323 -0.686166 0.727445 0
0.089835 -0.0697482 0.586141 0.0320137 -0.999476 -0.00473375
0.053641 -0.0344436 0.70778 0.987918 -0.154977 0
-0.125769 -0.0430156 0.188665 -0.0272871 0.999524 -0.0144188
-0.272898 -0.0485714 0.499817 -0.0058334 0.992904 0.118779
0.0431055 0.0203757 0.723272 0.889534 0.456869 0
0.194226 -0.066214 0.54592 0.0320137 -0.999476 -0.00473375
-0.0561357 -0.0319473 0.288197 -0.987262 -0.154861 -0.0364926
0.0535215 -0.0333988 0.392422 0.987918 -0.154963 -0.00231364
0.0230452 0.0376632 0.825023 0.378601 0.92556 0
-0.036071 0.0303336 0.776523 -0.686166 0.727445 0
-0.0542507 -0.0180069 0.194116 -0.987265 0.154844 -0.0364946
-0.0319879 -0.0911693 0.544501 -0.377699 -0.925928 0
-0.00963224 -0.0979627 0.342683 0 -0.999997 -0.00235352
0.119668 -0.0546724 0.549569 0.0251855 0.992606 0.11874
0.0541276 -0.00845805 0.702204 0.987921 0.154959 0
-0.0100917 0.0518694 0.194534 -0.998881 0.0465731 -0.00823138
0.400279 -0.0545971 0.447186 0.190857 -0.70739 0.680568
-0.0580629 -0.0151834 0.801075 -0.987923 0.154945 0
0.00754668 0.0560208 0.236919 0.99936 0.0349087 -0.00778809
-0.31186 -0.062091 0.46335 -0.0392768 -0.998758 0.0306672
-0.0162891 -0.0973803 0.435326 -0.375043 -0.927004 -0.00232934
-0.0548576 -0.0226436 0.214141 -0.987262 -0.154863 -0.0364959
-0.0532685 0.00619655 0.607759 -0.889536 0.456865 0
0.055689 -0.0680281 0.419206 0.885427 -0.464769 -0.00287523
0.348705 -0.0691613 0.492351 0.622419 0.476271 0.621097
-0.0413737 -0.0852652 0.366323 -0.680175 -0.733046 -0.00256612
0.165716 -0.0805605 0.616706 0.630809 0.751433 -0.193464
-0.0457408 -0.0606515 0.776303 -0.889536 -0.456866 0
-0.139855 -0.0680234 0.578092 -0.0341705 -0.999405 -0.00472523
-0.0901998 -0.0418403 0.179528 -0.0430392 0.998991 0.0128522
-0.292532 -0.0483158 0.467341 0.201529 -0.00874224 -0.979444
-0.241522 -0.0461486 0.481105 -0.0058334 0.992904 0.118779
-0.0389937 -0.067375 0.679448 -0.686166 -0.727445 0
-0.0289513 -0.0762239 0.78343 -0.378719 -0.925512 0
0.0430174 0.0205352 0.511392 0.889538 0.456855 -0.00236868
-0.0889662 -0.0418627 0.198935 -0.0272871 0.999524 -0.0144188
0.172833 -0.12052 0.622776 0.641541 -0.764515 0.0627906
-0.055784 -0.0716298 0.291612 -0.685261 -0.728295 -0.0018332
-0.288638 -0.107894 0.582567 0.342712 -0.939441 0
0.147043 -0.0767549 0.579291 -0.707153 -0.70706 0
0.00797053 0.049847 0.263635 0.99936 0.0349087 -0.00778809
-0.0566344 -0.0321455 0.407676 -0.987916 -0.154971 -0.00231365
0.0327858 0.0307153 0.553344 0.686168 0.727443 0
0.115214 -0.0669868 0.501344 -0.194999 -0.0095056 -0.980757
0.179032 -0.0418306 0.502295 -0.0561955 0.978104 -0.200385
-0.0558865 -0.0384916 0.739077 -0.98792 -0.154963 0
-0.0433342 -0.0632808 0.657968 -0.686166 -0.727445 0
0.0505884 0.00511007 0.379531 0.889538 0.456855 -0.00236868
0.145687 -0.0588052 0.54675 -1 0 0
-0.0375666 0.0284246 0.366234 -0.686191 0.727417 -0.00245756
0.0544046 -0.0139302 0.293502 0.987265 0.154842 -0.0364927
0.0184315 -0.0779053 0.256755 0.378276 -0.924585 -0.0452677
0.170696 -0.0669667 0.54572 0.0320137 -0.999476 -0.00473375
0.0229641 0.0376964 0.697743 0.378601 0.92556 0
0.0231825 0.0376071 0.655231 0.378601 0.92556 0
-0.303709 -0.0814665 0.577038 -0.641259 0.764753 0.062763
0.12723 -0.0425989 0.15098 0.0355988 0.99928 0.0131146
-0.0568693 -0.0322264 0.541527 -0.98792 -0.154963 0
0.128419 -0.0942707 0.645505 -0.864363 0.498934 0.0627747
0.0471362 -0.077631 0.527055 0.68528 -0.72828 -0.000894659
0.0447419 0.0157283 0.291381 0.888924 0.456528 -0.0373618
0.0619362 -0.0564787 0.476143 0.885427 -0.464769 -0.00287523
0.125901 -0.0456047 0.493417 -0.015585 0.980351 -0.196646
0.046415 -0.0537302 0.732385 0.889534 -0.45687 0
-0.157363 -0.0439767 0.18183 -0.0272871 0.999524 -0.0144188
0.0494732 -0.0186981 0.139864 0.987264 0.154851 -0.0364919
0.291283 -0.0618442 0.55557 -1 0 0
0.0514054 -0.00451888 0.252298 0.987262 0.15486 -0.0364973
-0.335113 -0.0546135 0.504477 -0.223975 0.815685 0.533379
0.403522 -0.0590072 0.462805 0.0578237 -0.997284 0.045621
0.0690028 -0.0602254 0.606736 0.0251855 0.992606 0.11874
0.259039 -0.0640821 0.534117 0.0320137 -0.999476 -0.00473375
0.0215689 0.0370742 0.281836 0.378335 0.924791 -0.0402974
0.104883 -0.0553929 0.558728 0.0251855 0.992606 0.11874
-0.118561 -0.044169 0.492272 0.00983922 0.992215 -0.124149
0.0545128 -0.0288863 0.741879 0.987918 -0.154977 0
0.269569 -0.0607738 0.459569 0.0820413 -0.934954 0.345153
0.393523 -0.0587275 0.427915 -0.163461 -0.707341 -0.687713
-0.0126388 0.0430983 0.555148 -0.378602 0.92556 0
-0.126637 -0.0573939 0.153909 0.000381048 -0.99959 -0.0286409
-0.0524218 0.00784499 0.665045 -0.889536 0.456865 0
0.0189614 0.0393337 0.806767 0.378601 0.92556 0
-0.0641306 -0.0464704 0.479629 -0.456821 0.889559 -7.62145e-05
-0.125351 -0.0581614 0.587229 -0.0058334 0.992904 0.118779
0.121588 -0.0412666 0.52573 0.186555 0.707834 0.681299
-0.0673379 -0.0510352 0.342573 -0.885434 -0.464759 -0.00236632
-0.0779035 -0.040426 0.110778 -0.0430392 0.998991 0.0128522
-0.284142 -0.1277 0.546946 0.335665 -0.921904 -0.193446
0.307613 -0.125547 0.543051 0.335595 -0.92192 -0.193494
-0.0855254 -0.0566471 0.128392 0.000381048 -0.99959 -0.0286409
-0.110454 -0.0687793 0.525374 -0.0341705 -0.999405 -0.00472523
0.0362796 -0.0672181 0.865499 0.686168 -0.727443 0
-0.125404 -0.0577657 0.18357 -0.126798 -0.899472 0.418177
0.049656 -0.0401919 0.903604 0.943358 -0.14797 0.296954
-0.0127042 -0.0980575 0.382954 0 -0.999997 -0.00235352
0.209816 -0.065501 0.500812 0.0320137 -0.999476 -0.00473375
-0.138148 -0.0741706 0.544858 1 0 0
-0.033539 -0.0680712 0.21397 -0.693469 -0.719171 -0.0435268
0.0367578 -0.0873333 0.579886 0.679354 -0.73381 0.000659119
0.00369081 -0.0341805 0.0153802 0.34475 -0.842615 -0.4137
0.0501287 0.0064859 0.472245 0.889538 0.456855 -0.00236868
0.321165 -0.0618418 0.481258 0.0320137 -0.999476 -0.00473375
-0.0578457 -0.0169619 0.301507 -0.987919 0.154953 -0.00231331
-0.173748 -0.0703593 0.49357 0 -1 0
0.0396062 0.0157742 0.169774 0.888907 0.456562 -0.0373621
-0.0716846 -0.0558445 0.570497 -0.0058334 0.992904 0.118779
-0.387152 -0.0590852 0.475969 -0.0341705 -0.999405 -0.00472523
-0.0558861 -0.0384945 0.875726 -0.98792 -0.154963 0
0.0452877 -0.0546892 0.884215 0.884868 -0.45443 0.10248
-0.0313311 0.0347144 0.487004 -0.686179 0.727429 -0.00245604
-0.195777 -0.0658477 0.522328 -0.0341705 -0.999405 -0.00472523
-0.0541556 -0.00269735 0.256507 -0.987265 0.154842 -0.0364996
0.034082 -0.0890547 0.476091 0.375041 -0.927006 -0.00203371
-0.240942 -0.064445 0.552275 -0.0341705 -0.999405 -0.00472523
0.219449 -0.0577389 0.480628 -0.201783 0.110727 -0.973151
0.0485339 -0.0756841 0.294865 0.679985 -0.733224 -0.00180851
-0.355353 -0.0602046 0.482769 -0.0341705 -0.999405 -0.00472523
0.150729 -0.067375 0.496888 0.0320137 -0.999476 -0.00473375
0.0521834 0.00266538 0.562542 0.950898 0.309504 0
-0.0473699 0.0168534 0.353884 -0.889538 0.456855 -0.00236585
-0.121051 -0.0567405 0.125156 0.00577398 -0.999832 -0.017408
-0.306327 -0.0820125 0.556929 -0.641415 0.764626 0.0627106
0.0530424 -0.0358213 0.3501 0.987916 -0.154971 -0.00231286
-0.0431533 0.0236532 0.806575 -0.686166 0.727445 0
0.053779 -0.0325022 0.44232 0.987918 -0.154963 -0.00231364
0.0237195 0.0231609 0.0857955 0.667871 0.708034 -0.229425
0.0505852 -0.0380095 0.241688 0.987262 -0.15486 -0.0364925
0.0210229 -0.0538472 0.958233 0.608536 -0.645178 0.461984
0.299119 -0.0769338 0.500382 0 -1 0
-0.251743 -0.0614256 0.474836 0.198227 0.108862 -0.974092
-0.0820457 -0.0583417 0.187581 0.000381048 -0.99959 -0.0286409
-0.214771 -0.0555672 0.495628 -0.0355004 -0.99132 0.126589
0.0716878 -0.0658257 0.629068 0.331203 0.584752 0.74052
0.150293 -0.0687689 0.635263 0 0.621202 0.78365
-0.0544143 -0.0585502 0.195228 0.000381048 -0.99959 -0.0286409
-0.00310176 0.0436051 0.804928 0 1 0
0.0545544 -0.0286212 0.673176 0.987918 -0.154977 0
-0.101266 -0.0564329 0.512158 -0.0209336 -0.996854 0.0764496
0.298911 -0.129292 0.564477 0 -0.998027 0.0627879
-0.0435729 0.0145971 0.181238 -0.888926 0.456524 -0.0373632
0.165079 -0.0648039 0.491409 -0.194999 -0.0095056 -0.980757
0.0126315 -0.0761532 0.17251 0.378311 -0.924572 -0.0452552
0.054817 -0.0562783 0.531315 0.0325648 -0.992369 0.118927
-0.113955 -0.0415353 0.515272 0.0209204 0.996858 -0.0764016
-0.0638183 -0.0549265 0.542055 -0.0209336 -0.996854 0.0764496
-0.151654 -0.0405948 0.517882 0.0358178 0.991319 -0.126509
-0.278882 -0.0630009 0.475954 -0.0392768 -0.998758 0.0306672
-0.159608 -0.0442422 0.133794 -0.0430392 0.998991 0.0128522
0.0451908 -0.0585541 0.195039 -0.00268444 -0.999588 -0.0285711
0.0437929 -0.0588356 0.757898 0.889534 -0.45687 0
0.0511853 -0.0403832 0.18857 0.0355988 0.99928 0.0131146
-0.0265405 -0.0934326 0.646855 -0.374718 -0.927139 -0.000580932
0.0414066 -0.0623819 0.653291 0.686168 -0.727443 0
0.0938013 -0.0426481 0.514278 -0.0325507 0.992376 -0.118875
-0.0459954 0.0144448 0.237001 -0.888922 0.456532 -0.037371
-0.0607579 -0.044824 0.515846 -0.43095 0.902376 -0.00042492
0.304186 -0.0610204 0.47336 1 0 0
0.0325434 -0.0707423 0.711468 0.686168 -0.727443 0
-0.0493608 -0.0277487 0.919892 -0.943357 -0.147983 0.296948
-0.0970845 -0.0652395 0.61868 -0.326983 0.58889 0.739115
-0.00978058 0.0860772 0.27215 -0.99946 0.0319419 -0.00766795
0.140116 -0.121994 0.597147 -0.630765 -0.751463 -0.193492
0.066802 -0.0401741 0.130251 0.0355988 0.99928 0.0131146
-0.197937 -0.060994 0.570681 -0.326983 0.58889 0.739115
-0.0195112 -0.0788492 0.260985 -0.378277 -0.924585 -0.0452719
-0.0669411 -0.0479175 0.435111 -0.456821 0.889559 -7.62145e-05
0.0214878 0.00594723 0.0310515 0.861545 0.442384 -0.249073
0.127606 -0.0578473 0.574426 0.0251855 0.992606 0.11874
0.0484912 -0.0180346 0.116111 0.987264 0.154851 -0.0364919
0.286351 -0.0794841 0.552558 -0.335595 0.921921 -0.193489
0.0488813 -0.0756211 0.399936 0.679985 -0.733224 -0.00180851
-0.0479384 0.0164556 0.49083 -0.889538 0.456855 -0.00236585
0.132047 -0.119668 0.635686 -0.864282 -0.499074 0.0627815
0.0391829 -0.0520217 0.918917 0.853213 -0.43822 0.282825
0.255474 -0.0455122 0.465269 -0.0820099 0.935005 -0.345021
-0.0212729 0.0391299 0.355373 -0.378705 0.925514 -0.00255633
0.0633745 -0.047576 0.359068 0.455043 0.890469 -7.21341e-05
0.082655 -0.0698719 0.563708 0.0320137 -0.999476 -0.00473375
0.249601 -0.0642768 0.511402 0.0320137 -0.999476 -0.00473375
-0.26754 -0.116383 0.561404 0.864313 -0.499031 0.0626946
0.0184467 0.0395443 0.782891 0.378601 0.92556 0
-0.268001 -0.0954992 0.594447 0.9554 0.168136 0.242777
-0.0161278 0.001696 0.951958 -0.279319 0.682819 0.675085
0.0367665 0.026717 0.441737 0.686176 0.727431 -0.00245786
-0.142218 -0.0769338 0.603253 0 -1 0
-0.089484 -0.0415407 0.15864 -0.0430392 0.998991 0.0128522
0.152605 -0.094688 0.585589 0 0 -1
-0.0518651 -0.0340917 0.181769 -0.987262 -0.154863 -0.0364959
-0.156901 -0.109743 0.641706 0.859732 0.49629 0.120654
-0.0571425 -0.010649 0.424054 -0.98792 0.154949 -0.00231366
0.00625775 0.0436051 0.590472 0 1 0
-0.0397765 -0.0595307 0.170721 -0.693651 -0.719111 -0.0415581
0.0354457 -0.0502134 0.0915531 0.833912 -0.428256 -0.348119
-0.0455762 -0.0817175 0.600615 -0.678893 -0.734236 -0.000947781
-0.0630152 -0.0590443 0.315728 -0.883243 -0.468907 -0.00286367
0.046721 0.0133361 0.829707 0.889534 0.456869 0
-0.0554419 -0.0413026 0.765373 -0.950875 -0.309576 0
0.00408078 -0.0983654 0.541713 0 -1 0
-0.0368555 -0.0670846 0.251036 -0.698384 -0.714517 -0.0415406
-0.0593828 -0.0440544 0.362698 -0.455034 0.890474 -0.000200114
0.031442 -0.0717811 0.825917 0.686168 -0.727443 0
-0.170281 -0.10165 0.613949 -0.966175 0.170457 -0.193521
-0.0577079 -0.0240294 0.32244 -0.987916 -0.154971 -0.00231365
0.297155 -0.119567 0.597232 0 0.992701 0.120602
0.0554416 -0.0229652 0.856559 0.987918 -0.154977 0
-0.0688694 -0.0703367 0.554033 -0.0341705 -0.999405 -0.00472523
0.333979 -0.0614064 0.475976 0.0320137 -0.999476 -0.00473375
0.0129335 0.0417994 0.673165 0.378601 0.92556 0
-0.335899 -0.0575669 0.442281 0 0.991511 -0.130022
-0.00902364 0.107616 0.266629 -0.998972 0.0410898 -0.0191363
0.0334247 -0.0688067 0.271402 0.698389 -0.714512 -0.0415387
-0.00440858 0.0433874 0.429536 0 0.999997 -0.00258665
0.0299486 -0.0731898 0.760674 0.686168 -0.727443 0
0.0557233 -0.0468493 0.589095 0.845879 0.533375 -0.00049041
0.0554579 -0.0228615 0.639544 0.987918 -0.154977 0
0.0555355 -0.0223671 0.613693 0.987918 -0.154977 0
-0.0293965 -0.092263 0.622449 -0.374718 -0.927139 -0.000580932
-0.147048 -0.0676902 0.559636 -0.0341705 -0.999405 -0.00472523
-0.268438 -0.0879673 0.554164 0.849651 0.49059 -0.19343
0.0175148 -0.0217715 0.0136111 0.833926 -0.428229 -0.348119
-0.0471453 0.0171773 0.331971 -0.88955 0.456832 -0.00236827
-0.0585415 -0.0182353 0.822982 -0.987923 0.154945 0
0.225002 -0.0651509 0.529588 0.0320137 -0.999476 -0.00473375
0.122777 -0.0570477 0.135048 -0.00268444 -0.999588 -0.0285711
0.0541143 -0.00956994 0.433276 0.98792 0.154945 -0.00231287
0.0475741 -0.0514734 0.678457 0.889534 -0.45687 0
-0.168131 -0.0990545 0.657385 -0.955433 0.168369 0.242486
0.0467804 -0.0578387 0.169863 -0.00268444 -0.999588 -0.0285711
0.295798 -0.10379 0.590661 0 0 1
-0.00215401 -0.0765709 0.137709 0 -0.998944 -0.0459452
-0.0419286 0.0244974 0.421737 -0.686191 0.727417 -0.00245756
-0.00435023 -0.0979077 0.319305 0 -0.999997 -0.00235352
0.0531367 -0.042322 0.421948 0.456812 0.889563 -0.000204211
-0.0566074 -0.0336341 0.495862 -0.987917 -0.154967 -0.00231331
0.0552615 -0.0683764 0.343875 0.885427 -0.464769 -0.00287523
-0.0117795 0.0208729 0.93436 -0.279319 0.682819 0.675085
0.030667 0.0327139 0.597195 0.686168 0.727443 0
-0.00869642 -0.0802628 0.217957 0 -0.998943 -0.0459592
-0.273557 -0.0895053 0.527776 0.849651 0.49059 -0.19343
-0.0435692 0.0230467 0.450444 -0.686191 0.727417 -0.00245756
-0.0579236 -0.0255052 0.620526 -0.98792 -0.154963 0
0.324835 -0.0453836 0.449131 -0.0820099 0.935005 -0.345021
-0.0675772 -0.0570766 0.596159 -0.844125 0.532228 0.0647081
0.0480863 0.00133741 0.195114 0.888926 0.456524 -0.0373688
-0.0597561 -0.0659266 0.437464 -0.883243 -0.468907 -0.00286367
0.0368056 0.0269236 0.867434 0.686168 0.727443 0
0.174158 -0.0568626 0.55632 0.0251855 0.992606 0.11874
-0.0511332 0.010354 0.859227 -0.889536 0.456865 0
0.177549 -0.107545 0.635705 0.982866 -0.173304 0.0627735
0.193123 -0.0573364 0.492911 0.056219 -0.978086 0.200469
-0.261345 -0.0421648 0.47481 0.0354784 0.991331 -0.126511
0.0247929 -0.0150642 0.0279438 0.939191 -0.147299 -0.310199
-0.154085 -0.0802331 0.64984 -0.341345 0.937838 0.0627918
0.273127 -0.108431 0.578212 -0.982907 -0.173094 0.0627165
0.0368915 -0.0097773 0.067701 0.949447 0.148923 -0.276356
0.0522851 -0.0445359 0.294098 0.223771 0.455873 -0.861456
0.0896983 -0.0448437 0.50008 -0.015585 0.980351 -0.196646
-0.284779 -0.0465476 0.453986 0.163538 0.70701 -0.688035
0.283035 -0.0878338 0.527525 -0.630805 0.751428 -0.193498
0.000619166 -0.0696037 0.0899349 0 -0.905408 -0.424543
-0.0176066 0.0408811 0.446202 -0.378727 0.925505 -0.00255837
-0.181815 -0.0451073 0.149733 -0.0272871 0.999524 -0.0144188
0.0273773 -0.0755636 0.651506 0.491443 -0.517346 0.700598
0.0749418 -0.0578499 0.585618 0.0251855 0.992606 0.11874
-0.375517 -0.0596862 0.46014 -0.0392768 -0.998758 0.0306672
