-0.0520669 -0.0512238 0.172456 0.474844 -0.181537 -0.861143
-0.00973526 -0.0830687 0.687054 0 -1 0
0.0932257 -0.0489972 0.117237 0.0740441 0.975257 0.208306
0.30289 -0.0780738 0.57299 0.388523 0.148409 0.909409
0.0435243 -0.0739343 0.207635 -0.707094 0.707119 -5.8565e-05
0.0246422 -0.0394347 0.18064 0.706943 0.706908 -0.0226322
0.0432003 -0.0830687 0.674458 0 -1 0
0.10561 -0.0678572 0.628699 0 1 0
0.0394264 -0.105428 0.514932 0.707105 -0.707108 0.000501276
0.0567793 -0.0759476 0.111292 0.946383 0.253271 -0.20053
0.0340338 -0.046246 0.334438 0.707125 0.707056 -0.00679623
-0.299987 -0.0678572 0.55932 0 -1 0
-0.115231 -0.0678572 0.653541 0 -1 0
0.0474367 -0.0743301 0.485071 0.965927 0.258809 -0.00136366
-0.0123711 -0.0760675 0.640528 -0.201359 0.976899 0.0715728
-0.00552404 -0.0534254 0.100046 -0.0740456 -0.975257 -0.208307
0.0434254 -0.0592671 0.564132 0.965927 0.258813 0.000363063
0.0444443 -0.0930209 0.378368 0.965928 -0.258809 -0.000363414
0.00138378 0.0501085 0.173577 0.907665 0.252623 0.335151
0.212675 -0.0830687 0.577237 0 -1 0
0.0569754 -0.0463015 0.0965535 0.100518 0.81236 -0.574427
0.284068 -0.106949 0.583657 0.258744 -0.965931 0.00533712
-0.0389708 -0.047498 0.624292 -0.707085 0.707128 -0.000503916
0.0404761 -0.06148 0.121405 -0.0740487 -0.975253 -0.208323
-0.0461713 -0.0963545 0.64925 -0.965924 -0.25882 0.00136298
0.330676 -0.0830687 0.554503 0 -1 0
-0.0356695 -0.107275 0.334637 -0.704864 -0.70506 -0.0778223
-0.0345454 -0.0442529 0.308152 -0.707097 0.707084 -0.00679719
0.162383 -0.0829709 0.570265 -0.0128333 -0.999324 -0.0344601
-0.110805 -0.0499831 0.121351 0.0740496 0.97526 0.208291
-0.0675735 -0.0678572 0.65494 0 -1 0
-0.128775 -0.0830687 0.622401 0 1 0
-0.107479 -0.0678572 0.640238 0 -1 0
0.00241019 0.00621497 0.15418 0.9971 -0.0694093 -0.0311921
-0.0696509 -0.0678572 0.659895 0 -1 0
0.165409 -0.0599297 0.0957339 0.651035 0.757442 -0.0493439
0.0562566 -0.0453947 0.113512 0.0740526 0.97526 0.208291
0.0358843 -0.108882 0.543187 0.707105 -0.707105 0.00223048
0.0398032 -0.0909672 0.221371 -0.707144 -0.70707 0.000604876
0.0167668 -0.0334088 0.405961 0.258838 0.965917 -0.00272946
0.0446841 -0.091962 0.583245 0.965927 -0.25881 0.00136389
0.0373159 -0.0733235 0.177977 -0.0740531 -0.975256 -0.208309
-0.0215916 -0.0331326 0.236898 -0.258806 0.965909 0.00624513
0.0422772 -0.100578 0.728346 0.965925 -0.258824 -7.62316e-06
-0.216795 -0.0678572 0.602278 0 -1 0
0.0165618 -0.122564 0.807721 0.258813 -0.965926 0.00135551
0.0643744 -0.0843125 0.168235 0.96593 0.258797 -0.00179587
0.318145 -0.0689612 0.54103 -0.230506 0.629462 -0.742055
0.0318458 -0.113074 0.422167 0.707094 -0.70712 0.000504429
-0.0294199 -0.0802487 0.940706 -0.92724 0.249007 0.279681
0.00449749 -0.0292371 0.0851738 0.258753 0.965927 -0.00572818
0.000688577 0.0752403 0.141826 -0.9971 0.0694233 0.031191
0.17481 -0.0814317 0.633413 0.429057 0.199306 0.881015
0.00535959 -0.0294949 0.232654 0.258815 0.965907 0.0062439
-0.0312407 -0.116049 0.617298 -0.707103 -0.707107 0.00222844
-0.0107388 -0.0830687 0.685008 0 1 0
0.311277 -0.0778119 0.536001 -0.273784 0.426799 -0.861908
0.0147156 -0.123153 0.740835 0.258786 -0.965934 0.00136017
0.0294655 -0.0597701 0.123976 0.949797 -0.254828 -0.181519
0.042886 -0.0809035 0.86286 0.962053 -0.25761 0.0899511
-0.0386289 -0.0753187 0.600252 -0.158689 -0.718355 0.677336
0.0151709 -0.115413 0.886709 0.257647 -0.961246 0.0981036
0.0391631 -0.0537751 0.291758 0.965525 0.258649 -0.0293763
-0.0344661 -0.0886154 0.913902 -0.937179 -0.250659 0.242621
0.0233972 -0.0618492 0.129204 -0.0740416 -0.975253 -0.208326
0.00497205 -0.0541527 0.929489 -0.893032 0.441598 0.0865185
0.136924 -0.104556 0.669688 0.241775 -0.901232 0.35962
0.158558 -0.0650439 0.0961192 -0.0740286 -0.975261 -0.208294
-0.0112429 -0.0134619 0.111329 -0.996695 0.0751732 0.0308045
-0.0069806 -0.0295068 0.141362 0.996695 -0.0751712 -0.0308007
0.134899 -0.106531 0.657143 0.258746 -0.965945 -8.57452e-05
0.0368995 -0.090671 0.235426 0.964418 -0.258517 -0.0553868
0.0309356 -0.0579862 0.135642 0.960292 0.257089 -0.108374
0.00636286 0.110962 0.127023 0.956745 0.0951845 0.274915
0.0437728 -0.0882498 0.832337 0.962053 -0.25761 0.0899511
-0.021998 -0.0621591 0.146789 0.0740382 0.975255 0.208315
-0.0062288 -0.0968348 0.152663 -0.253693 -0.947112 -0.196514
-0.384573 -0.076696 0.52389 0.178408 -0.98172 0.0663004
-0.0446532 -0.102606 0.431396 -0.965925 -0.25882 -0.000360068
-0.0267251 -0.0349743 0.750457 -0.707087 0.707125 -0.00187336
-0.0733144 -0.0426067 0.146514 -0.0740338 -0.975257 -0.208309
-0.328798 -0.0678572 0.550458 0 -1 0
0.0142479 -0.0315713 0.173048 0.258805 0.965917 0.00488029
0.0372467 -0.0481998 0.770451 0.707107 0.707104 -0.00187334
-0.0174105 -0.123388 0.619689 -0.258791 -0.96593 0.0027307
0.0211368 -0.0729373 0.181919 -0.0740287 -0.97526 -0.208299
-0.0151259 -0.0963697 0.961566 -0.671379 -0.670761 0.315167
0.00762166 -0.0701386 0.965618 0.617021 0.617865 0.487368
-0.0814555 -0.0830687 0.658974 0 1 0
-0.0565436 -0.0676255 0.101446 -0.375067 -0.376392 -0.847145
0.0463222 -0.0678572 0.645107 0 1 0
-0.00167971 -0.0283994 0.48655 -0.258851 0.965913 -0.00273007
0.0199125 -0.0335474 0.755517 0.258841 0.965917 -0.00237339
0.00598235 -0.0396058 0.0104466 0.740813 -0.199958 -0.641259
0.0203927 -0.0803288 0.654562 -0.320611 -0.939696 -0.119078
0.194076 -0.0751749 0.622305 0.414789 0.320252 0.851698
0.0465184 -0.0708269 0.575723 0.965928 0.258811 0.000363393
0.0416769 -0.0530389 0.515389 0.707107 0.707103 -0.00223151
-0.0463835 -0.0962309 0.490579 -0.965922 -0.258833 -0.000362657
-0.00933157 -0.125551 0.620241 -0.258791 -0.96593 0.0027307
0.0234448 -0.0348575 0.54553 0.258801 0.96593 -0.00100707
0.0193144 -0.0386398 0.0927587 0.706479 0.706396 -0.0434976
-0.0183441 -0.0357715 0.0800154 -0.705842 0.705708 -0.0613468
0.0450726 -0.095312 0.161147 -0.256287 -0.956723 -0.137836
-0.00842364 -0.12614 0.46781 -0.258827 -0.965923 0.00100236
0.0194635 -0.0333991 0.766884 0.258841 0.965917 -0.00237339
-0.0206811 -0.0343445 0.139935 -0.70648 0.706395 -0.0434916
0.023644 -0.120858 0.627245 0.707113 -0.707097 0.00222842
-0.116499 -0.0453947 0.101893 0.0740231 0.975247 0.208358
0.086163 -0.0515249 0.131581 0.074077 0.97524 0.208374
-0.0199205 -0.0507031 0.0526984 -0.943248 -0.253175 -0.214909
0.00462096 0.0524863 0.121876 0.997095 -0.0694495 -0.0312737
0.00646835 0.0844242 0.109858 0.997098 -0.0694284 -0.0312242
-0.0277429 -0.118382 0.819397 -0.703999 -0.703801 0.0951271
-0.0478875 -0.0657317 0.636919 -0.965925 0.258822 0.000360256
0.0648394 -0.0678572 0.654396 0 1 0
0.0190737 -0.0336308 0.187987 0.70693 0.706922 -0.022628
0.0473992 -0.0740832 0.505436 0.965927 0.258809 -0.00136366
-0.00437372 -0.0283414 0.203691 -0.258808 0.965916 0.00488375
0.00661044 -0.0304281 0.497655 0.258826 0.96592 -0.00273009
0.212873 -0.0830687 0.601179 0 -1 0
-0.00316776 -0.127348 0.56901 -0.258806 -0.965926 0.00273356
0.0361565 -0.048806 0.28895 0.707097 0.707084 -0.00679712
0.386975 -0.0778082 0.522395 0.289199 0.951726 -0.102863
0.359776 -0.0830687 0.545391 0 -1 0
0.0408651 -0.0924961 0.851275 0.962054 -0.257605 0.0899497
-0.0480395 -0.0897181 0.585537 -0.965924 -0.25882 0.00136298
0.0896888 -0.0830687 0.65726 0 -1 0
-0.0016638 -0.0551399 0.129043 -0.581571 0.719402 0.379783
0.0479073 -0.0760519 0.670729 0.965924 0.258823 -0.00101064
0.0133539 -0.0914955 0.966996 0.731894 -0.194892 0.652954
0.0588901 -0.094703 0.200894 0.7071 -0.707109 0.002677
0.0842482 -0.0830687 0.642119 0 -1 0
0.203214 -0.0741936 0.56793 -0.159205 0.701778 -0.694378
-0.00196321 0.00189888 0.224004 0.99635 -0.079948 -0.0299138
0.230396 -0.0830687 0.601365 0 -1 0
-0.0142366 -0.120887 0.337646 -0.257716 -0.961953 -0.0907145
-0.00625767 -0.0415161 0.179628 -0.997099 0.069432 0.0311998
0.0774334 -0.0662147 0.130433 -0.0740355 -0.975258 -0.208303
-0.0195437 -0.12256 0.768247 -0.258819 -0.965925 0.00136015
-0.142496 -0.0293677 0.109122 -0.0739734 -0.97522 -0.208505
-0.0190914 -0.0325711 0.762624 -0.25884 0.965917 -0.00237339
-0.0040299 -0.0232739 0.21023 -0.997098 0.0694342 0.0312194
0.0460835 -0.0689761 0.739734 0.965924 0.258823 -0.00101064
0.0263591 -0.0375169 0.693201 0.707124 0.707088 -0.00187552
-0.049323 -0.0846934 0.630108 -0.965924 -0.25882 0.00136298
-0.000828833 0.0397452 0.172315 -0.997101 0.0694051 0.0311791
0.00530406 -0.0298698 0.29295 0.258815 0.965907 0.0062439
-0.0383918 -0.0476416 0.355778 -0.707097 0.707084 -0.00679719
-0.0100797 -0.030179 0.257132 -0.258806 0.965909 0.00624514
-0.345846 -0.0798346 0.550206 0.40132 -0.148472 -0.903824
0.0315738 -0.0542626 0.15013 0.960292 0.257089 -0.108374
0.121573 -0.100765 0.632088 -0.674436 -0.675056 -0.299058
-0.00186915 -0.0889987 0.121946 -0.248567 -0.928309 -0.276507
-0.0105309 -0.0157507 0.139965 -0.996695 0.0751701 0.0307856
-0.00639898 -0.0383366 0.216448 -0.980287 -0.18203 0.0768293
0.0361997 -0.108084 0.764466 0.707115 -0.707098 0.000859818
-0.210293 -0.0830687 0.585589 0 1 0
-0.175998 -0.040238 0.102799 0.541888 -0.840343 0.0134318
0.0351376 -0.0745073 0.697912 0.398133 0.344615 0.850136
0.0438087 -0.0648749 0.346717 0.965524 0.258651 -0.0293765
0.00605652 -0.125611 0.648258 0.258786 -0.965931 0.00273358
-0.122857 -0.0821102 0.656372 0.258693 0.965952 -0.00392231
-0.00457149 -0.0830687 0.648276 0 -1 0
-0.000285174 -0.0258699 0.238426 0.980324 0.0851294 0.178094
0.0297886 -0.0410985 0.588799 0.707088 0.707126 -0.000501344
0.0204576 -0.0638472 0.1769 -0.389292 0.854482 0.343966
0.0237303 -0.0347727 0.736752 0.707107 0.707104 -0.00187332
0.017056 -0.0598869 0.063046 0.943257 -0.25314 -0.214909
0.0499062 -0.0971685 0.223411 -0.258816 -0.965926 0.00108592
-0.00151292 -0.0533764 0.941037 0.968964 -0.232605 -0.0836853
0.0541636 -0.0830687 0.635347 0 -1 0
0.0341832 -0.0462408 0.350517 0.707125 0.707056 -0.00679623
0.00658159 -0.0312191 0.83048 0.258024 0.963161 0.0757919
-0.230568 -0.070501 0.562043 -0.188096 -0.686937 0.701953
0.0429298 -0.0573951 0.6912 0.965928 0.258808 -0.00100817
0.253749 -0.0830687 0.55727 0 -1 0
0.112713 -0.0830687 0.661633 0 -1 0
-0.130059 -0.0830687 0.58636 0 1 0
-0.171243 -0.0830687 0.59025 0 1 0
-0.0322306 -0.0405961 0.706518 -0.707107 0.707104 -0.00187597
0.041111 -0.0781243 0.252805 -0.701989 0.702048 0.119751
-0.0345103 -0.113101 0.514949 -0.707115 -0.707098 0.000506428
-0.0237113 -0.0343221 0.332983 -0.258839 0.9659 0.00624695
-0.0049077 0.0380757 0.170907 -0.94555 0.257885 0.19857
-0.00900292 -0.126014 0.377145 -0.257716 -0.961953 -0.0907145
0.164336 -0.0606615 0.0735483 -0.0740358 -0.975259 -0.208298
-0.0121296 -0.124494 0.805706 -0.258819 -0.965925 0.00136015
0.0254549 -0.0830687 0.656332 0 1 0
0.0280497 -0.0911267 0.191294 0.696599 -0.696929 -0.170414
-0.121671 -0.0820191 0.576147 -0.183917 -0.527578 0.829359
-0.0468167 -0.0730903 0.121791 0.929936 -0.249716 -0.269926
0.0363945 -0.0474622 0.727233 0.707083 0.707128 -0.0018756
0.00669118 -0.125938 0.397454 0.258822 -0.965925 0.000999299
-0.0353476 -0.0440568 0.482419 -0.70709 0.70712 -0.00222899
-0.0483152 -0.0672785 0.492597 -0.965922 0.258831 -0.00136152
0.0347452 -0.0471608 0.313283 0.707125 0.707056 -0.00679623
-0.0228052 -0.110502 0.251861 -0.257716 -0.961953 -0.0907145
-0.119544 -0.0735874 0.656848 0.418052 -0.327685 -0.847263
0.38179 -0.075821 0.534966 0.179328 0.981721 -0.0637596
-0.241239 -0.0830687 0.590361 0 1 0
-0.0455667 -0.0567633 0.73815 -0.965922 0.25883 -0.00100518
0.0163561 -0.0329006 0.600831 0.258801 0.96593 -0.00100707
-0.0223841 -0.0340665 0.444505 -0.258807 0.965925 -0.00273069
0.0463183 -0.0698707 0.813895 0.962472 0.258062 0.083969
-0.0435072 -0.0516607 0.786612 -0.707085 0.707126 -0.00187115
-0.0402851 -0.10731 0.520649 -0.707115 -0.707095 0.00223149
-0.0419721 -0.0505466 0.557771 -0.707103 0.707111 -0.000505943
0.0406769 -0.0680968 0.223849 0.963583 0.25805 -0.0701222
0.0375816 -0.0574528 0.176601 0.0740434 0.975251 0.208332
0.0437605 -0.060841 0.441214 0.965927 0.258812 -0.00136427
-0.00756269 -0.0830687 0.684923 0 -1 0
-0.0408166 -0.0515296 0.275248 -0.965521 0.258662 -0.0293759
0.0375941 -0.052042 0.255446 0.965525 0.258649 -0.0293763
0.00297087 0.0121054 0.158991 0.997097 -0.0694425 -0.0312416
0.0347491 -0.0474088 0.287879 0.707125 0.707056 -0.00679623
-0.0074776 0.00456423 0.189011 -0.996097 0.0797865 0.0377568
-0.0114293 -0.0696217 0.0680094 -0.245159 -0.915672 -0.3185
0.0373915 -0.106943 0.723078 0.707113 -0.7071 0.000860217
0.0654213 -0.0714851 0.159379 -0.0740428 -0.975258 -0.208301
0.0403765 -0.0637132 0.131896 -0.0740305 -0.975259 -0.208301
-0.393527 -0.0830687 0.521576 0 1 0
-0.165305 -0.0764562 0.571345 -0.132567 -0.704902 0.696806
-0.400463 -0.0818088 0.51788 0.287729 -0.951731 0.106866
-0.0213437 -0.033694 0.477647 -0.258807 0.965925 -0.00273069
-0.00612529 -0.0290569 0.778881 -0.258815 0.965924 -0.00237506
0.0502127 -0.0732186 0.252277 0.256803 -0.958057 0.1272
0.0315623 -0.0715007 0.171488 -0.0740367 -0.975258 -0.208304
0.0630865 -0.0793682 0.193936 0.96593 0.258802 0.000816756
-0.0802076 -0.0479374 0.100899 0.0740505 0.975257 0.208302
0.0607331 -0.0538569 0.151538 0.0740555 0.975255 0.208309
0.038767 -0.0679902 0.674151 -0.201363 0.976899 0.0715637
0.0622065 -0.0682906 0.602816 -0.149046 0.71841 -0.679465
0.0181692 -0.115498 0.877997 0.257612 -0.961254 0.0981152
-0.0425302 -0.0802826 0.205049 0.965933 -0.258786 0.00179247
0.0290567 -0.0772819 0.146422 0.949795 -0.254836 -0.181518
0.0225899 -0.0827848 0.668026 -0.320618 -0.939694 -0.119079
0.0242252 -0.0360058 0.382696 0.707107 0.707103 -0.00223153
0.00917575 -0.0830687 0.637954 0 1 0
-0.0190682 -0.0329596 0.532529 -0.258807 0.965928 -0.00100594
-0.0502436 -0.0745064 0.623963 -0.965922 0.258834 0.000362635
0.0419039 -0.0536542 0.610863 0.965927 0.258813 0.000363063
-0.0433246 -0.0711064 0.166272 0.965928 0.258804 -0.00179147
0.04041 -0.0915635 0.233682 -0.707144 -0.70707 0.000604876
-0.00741548 -0.119031 0.878865 -0.257653 -0.961243 0.098116
-0.112055 -0.0830687 0.612722 0 1 0
-0.165528 -0.0435009 0.110454 0.0740441 0.97526 0.208293
-0.0309914 -0.0391409 0.788021 -0.707087 0.707125 -0.00187336
0.0300563 -0.112763 0.823444 0.703999 -0.703802 0.095122
-0.220297 -0.0678572 0.596172 0 -1 0
0.0548724 -0.0482137 0.0934813 0.100518 0.81236 -0.574427
0.0401563 -0.0515345 0.510286 0.707107 0.707103 -0.00223151
-0.186683 -0.0699582 0.573528 -0.168979 -0.701786 0.692057
-0.0456865 -0.0830687 0.672471 0 1 0
0.0225937 -0.121309 0.602621 0.258806 -0.965925 0.00272957
-0.010175 -0.12504 0.789849 -0.258819 -0.965925 0.00136015
0.00186213 0.0159286 0.11506 0.997098 -0.0694415 -0.0311861
-0.00175457 -0.0764274 0.679112 -0.200328 -0.976899 -0.0744091
-0.0052811 -0.00518433 0.136996 0.996696 -0.0751628 -0.0307945
0.0235434 -0.0348884 0.541217 0.258801 0.96593 -0.00100707
0.0070799 -0.106079 0.201873 0.253679 -0.947116 -0.196515
-0.0422152 -0.104857 0.738777 -0.707115 -0.707098 0.00086244
0.0113172 -0.0732616 0.668875 -0.201357 0.976899 0.071578
-0.047103 -0.0857276 0.342005 -0.964416 -0.258522 -0.0553883
-0.164823 -0.033351 0.0917225 0.350324 -0.934362 -0.0651166
-0.114886 -0.100362 0.64128 0.965916 -0.25884 -0.00297859
0.0686057 -0.0830687 0.674808 0 -1 0
-0.00157946 -0.0744934 0.649404 -0.201361 0.976899 0.0715627
0.0393401 -0.0832656 0.146664 -0.962468 -0.258027 -0.0841272
0.0169138 -0.109994 0.237572 0.257708 -0.961955 -0.0907155
0.0350506 -0.109399 0.643856 0.707113 -0.707097 0.00222842
-0.147984 -0.0830687 0.631058 0 1 0
-0.200598 -0.0830687 0.564325 0 1 0
-0.0300035 -0.0388359 0.443375 -0.707107 0.707103 -0.00223151
-0.0372914 -0.0458686 0.554322 -0.707085 0.707128 -0.000503916
-0.0168256 -0.0326079 0.433538 -0.258847 0.965914 -0.00272718
0.27382 -0.103456 0.56478 -0.674454 -0.675012 -0.299115
-0.023631 -0.0797494 0.953042 -0.868328 0.233518 0.437579
0.0246837 -0.042243 0.873012 0.704853 0.704965 0.0787845
-0.000717595 0.0389233 0.177035 0.996697 -0.0751532 -0.0307824
-0.223301 -0.0708293 0.603813 0.427317 -0.320549 -0.845369
0.0774661 -0.0496191 0.125751 0.0740466 0.975257 0.208307
0.0367779 -0.108082 0.506968 0.707105 -0.707108 0.000501276
0.0641252 -0.0585752 0.0993997 -0.0740438 -0.975257 -0.208306
-0.0199009 -0.122944 0.540958 -0.258806 -0.965926 0.00273356
0.0306813 -0.113569 0.792292 0.707115 -0.707098 0.000859818
0.0437608 -0.060814 0.44658 0.965927 0.258812 -0.00136427
-0.0833218 -0.0830687 0.630305 0 1 0
-0.0312437 -0.0570877 0.182758 -0.523496 -0.790988 -0.316686
0.0409935 -0.0632569 0.854603 0.962472 0.258062 0.083969
-0.0716174 -0.048996 0.161186 0.476731 -0.180273 -0.860366
0.00762039 -0.0303982 0.696786 0.25882 0.965923 -0.00237664
0.303718 -0.0790884 0.572801 0.388523 0.148409 0.909409
-0.0102968 -0.0126595 0.103281 -0.864643 0.072421 -0.497139
0.0448085 -0.0913665 0.608149 0.965927 -0.25881 0.00136389
-0.0361353 -0.0637988 0.159491 0.074053 0.975257 0.208303
0.0335723 -0.0928335 0.220849 0.696593 -0.696934 -0.170413
-0.0457065 -0.0980688 0.715697 -0.965925 -0.258823 -4.58086e-06
-0.0818902 -0.0409446 0.14178 -0.0740552 -0.975254 -0.208315
-0.0511036 -0.0783446 0.573816 -0.965924 -0.25882 0.00136298
0.0160731 -0.0324942 0.76542 0.258841 0.965917 -0.00237339
-0.00857428 -0.0304623 0.410367 -0.258824 0.965921 -0.00272719
0.0471101 -0.0736621 0.380573 0.965927 0.258812 -0.00136427
0.149431 -0.0506581 0.0854565 -0.132388 0.783499 -0.607126
0.0449306 -0.072845 0.17493 -0.258757 0.965937 -0.00317226
0.265912 -0.0811056 0.589732 0.397681 0.166258 0.902335
0.0437836 -0.0951972 0.607088 0.965927 -0.25881 0.00136389
0.0409164 -0.10376 0.571789 0.707105 -0.707105 0.00223048
-0.177437 -0.0830687 0.592639 0 1 0
0.359015 -0.0830687 0.527127 0 -1 0
-0.0234445 -0.122051 0.520923 -0.258806 -0.965926 0.00273356
-0.0418318 -0.087909 0.260404 -0.964416 -0.258521 -0.0553882
0.0193825 -0.0335745 0.199395 0.70693 0.706922 -0.022628
0.0189355 -0.122348 0.581952 0.258806 -0.965925 0.00272957
0.0437256 -0.0599179 0.805897 0.965924 0.258823 -0.00101064
-0.106573 -0.0830687 0.595932 0 1 0
0.296535 -0.0678572 0.554346 0 1 0
0.175255 -0.0830687 0.569873 0 -1 0
-0.0325115 -0.114667 0.652765 -0.707103 -0.707107 0.00222844
-0.0343894 -0.112734 0.696884 -0.707104 -0.70711 0.000859838
0.279847 -0.078747 0.545241 -0.213143 0.494089 -0.84288
0.171365 -0.0830687 0.572837 0 -1 0
0.0765169 -0.0685728 0.152914 0.573719 -0.0203672 0.818799
-0.0061146 -0.0170861 0.129855 -0.9971 0.0694208 0.0311929
-0.000587715 -0.0884275 0.981228 0.196134 -0.73068 0.653941
0.2804 -0.084794 0.59611 0.245663 -0.916664 0.31524
-0.0109731 -0.032251 0.0357047 -0.705899 0.70565 -0.0613613
-0.00968918 -0.00851805 0.149554 -0.996695 0.0751719 0.0307906
-0.126085 -0.0812489 0.655966 0.433159 -0.204167 -0.877889
-0.0434113 -0.0706598 0.203048 0.965907 0.258888 0.00079
-0.00951187 -0.030708 0.823395 -0.258034 0.963158 0.075796
0.045414 -0.0895375 0.474945 0.965928 -0.258812 -0.000362873
-0.00342259 0.00173337 0.174001 -0.997098 0.0694335 0.0312135
0.1323 -0.0678572 0.61029 0 1 0
0.00412941 -0.0293094 0.759136 0.258801 0.965928 -0.00237507
-0.011229 -0.0311609 0.823305 -0.258034 0.963158 0.075796
-0.0117718 -0.0528725 0.11064 -0.994837 -0.0823215 0.0593522
0.039211 -0.0796523 0.18798 -0.965916 0.258851 -0.00180223
-0.252943 -0.0830687 0.590477 0 1 0
-0.032051 -0.111287 0.840005 -0.703999 -0.703801 0.0951271
-0.319405 -0.0830687 0.532726 0 1 0
0.000575642 0.0786722 0.130594 -0.9971 0.0694143 0.0312093
0.0019286 -0.00214592 0.15739 0.9971 -0.0694112 -0.0311917
-0.00588987 -0.116232 0.89921 -0.254216 -0.948258 0.190213
-0.0015642 0.0136786 0.21152 0.996622 -0.0722461 -0.0390577
0.0226233 -0.034636 0.546907 0.258801 0.96593 -0.00100707
-0.0666418 -0.0678572 0.680224 0 -1 0
0.0839141 -0.0595355 0.0968617 -0.0740408 -0.975258 -0.208304
-0.0455118 -0.0987943 0.663992 -0.965925 -0.258823 -4.58086e-06
-0.044943 -0.0795052 0.275351 -0.964416 -0.258522 -0.0553883
0.0546702 -0.0678572 0.622112 0 1 0
0.216806 -0.0678572 0.594731 0 1 0
-0.128164 -0.0711811 0.583995 -0.1522 -0.717031 0.680222
0.0138882 -0.0326995 0.383972 0.258838 0.965917 -0.00272946
0.0390202 -0.0499381 0.783762 0.707107 0.707104 -0.00187334
-0.00932761 -0.0669099 0.961327 -0.221762 0.828556 0.514117
0.0422517 -0.0543999 0.810342 0.965924 0.258823 -0.00101064
-0.182689 -0.0830687 0.572208 0 1 0
-0.0227251 -0.0402605 0.117548 -0.0740267 -0.975261 -0.208294
-0.00684259 0.0459878 0.108642 -0.996696 0.0751498 0.0308096
0.0025976 -0.0830687 0.702205 0 -1 0
0.00808114 -0.0830687 0.705913 0 1 0
-0.0679238 -0.0778617 0.205343 -0.965915 -0.258854 0.00180102
0.0288339 -0.0561825 0.167339 -0.38931 0.854478 0.343954
0.0205868 -0.12214 0.470319 0.258822 -0.965925 0.000999299
0.00520922 -0.0752032 0.678191 -0.201359 0.976899 0.0715726
-0.00179738 0.0122186 0.201896 -0.996126 0.0782936 0.0400512
-0.00564029 -0.0494722 0.113378 0.960759 -0.277234 0.00910178
0.159503 -0.0678572 0.603866 0 1 0
-0.00493976 0.0407046 0.167415 -0.951759 0.22476 0.208898
0.0460696 -0.086739 0.593112 0.965928 -0.258808 0.00136366
-0.0555849 -0.0640237 0.233003 -0.258763 0.965937 -0.00263845
-0.00287943 -0.0072689 0.211382 -0.997098 0.0694245 0.0312213
0.350204 -0.0826635 0.521281 -0.266695 0.437836 -0.858588
0.00673504 0.089923 0.106145 0.997098 -0.0694328 -0.0312119
0.0456803 -0.0676361 0.530694 0.965927 0.258813 0.000363063
0.068508 -0.0650136 0.127983 -0.0740579 -0.975251 -0.208331
0.00894274 -0.0768724 0.656154 -0.200329 -0.976899 -0.0744039
-0.0339673 -0.0437142 0.304055 -0.707101 0.70708 -0.00679741
-0.352597 -0.0701798 0.534331 0.178425 -0.981721 0.0662478
-0.0816982 -0.0830687 0.627413 0 1 0
-0.00876843 -0.0486803 0.161718 -0.98028 -0.182066 0.0768369
0.0195344 -0.0333259 0.804401 0.258841 0.965917 -0.00237339
0.0325716 -0.0442594 0.412129 0.707107 0.707103 -0.00223153
0.0361139 -0.047646 0.461487 0.707107 0.707103 -0.00223153
-0.00593314 -0.0485314 0.108979 -0.38931 0.854486 0.343936
0.0236582 -0.0470418 0.896657 0.671821 0.672376 0.310753
-0.290091 -0.0730196 0.573381 0.393712 -0.242346 -0.886712
-0.0359092 -0.087369 0.909616 -0.937179 -0.250659 0.242621
-0.00908605 -0.0302912 0.526349 -0.258851 0.965917 -0.00100591
0.0061432 -0.0744322 0.670295 -0.201357 0.976899 0.071578
0.0289053 -0.046009 0.126109 0.0740296 0.975258 0.208307
0.0381449 -0.0495379 0.505541 0.707107 0.707103 -0.00223151
0.0343528 -0.0459853 0.429646 0.707107 0.707103 -0.00223153
0.0736982 -0.0679575 0.603013 0.00619756 0.999978 -0.00230945
-0.0670333 -0.073024 0.225107 -0.965932 0.258794 -0.00127922
0.0169029 -0.122831 0.603589 0.258806 -0.965925 0.00272957
0.0117737 -0.0313047 0.780669 0.258801 0.965928 -0.00237665
-0.168802 -0.0757624 0.633205 0.426739 -0.32035 -0.845736
-0.144761 -0.0459445 0.114512 0.0740008 0.975251 0.208348
0.0332211 -0.103906 0.865558 0.703999 -0.703802 0.095122
-0.00467017 0.00491656 0.127062 -0.997099 0.0694181 0.0312174
0.0387436 -0.0873049 0.179416 -0.965911 -0.258874 -0.000819732
0.121507 -0.0678572 0.654383 0 1 0
-0.00560673 -0.041553 0.215229 0.996696 -0.0751583 -0.0308025
-0.00665448 -0.0741122 0.661908 -0.200331 -0.9769 -0.0743957
0.0455779 -0.0888817 0.443481 0.965928 -0.258809 -0.000363414
-0.0411836 -0.105865 0.757921 -0.707115 -0.707098 0.00086244
0.0580353 -0.0735812 0.245084 0.701886 0.702151 0.119754
0.0392663 -0.0678572 0.666157 0 1 0
0.0905212 -0.0679788 0.601296 -0.00975173 0.999315 -0.0357132
0.000814173 -0.00575649 0.129818 0.9971 -0.0694227 -0.0311895
-0.0180491 -0.0830687 0.683544 0 -1 0
-0.0444956 -0.102587 0.692424 -0.965925 -0.258823 -4.58086e-06
0.0158933 -0.123391 0.475998 0.258806 -0.965929 0.00100237
-0.271548 -0.0712669 0.550112 -0.248672 -0.61754 0.746195
0.000149542 -0.0286395 0.522248 0.258826 0.965923 -0.00100363
-0.0272146 -0.0353103 0.808377 -0.707087 0.707125 -0.00187336
-0.266261 -0.0706321 0.583454 0.400681 -0.270162 -0.875481
-0.396256 -0.0830687 0.505439 0 1 0
-0.021104 -0.102161 0.932652 -0.69162 -0.69117 0.209634
0.102971 -0.0678572 0.655126 0 1 0
-0.0312987 -0.0678572 0.638921 0 -1 0
-0.0612874 -0.088582 0.228934 -0.258794 -0.965932 0.00109123
0.0154217 -0.0422958 0.0445774 0.957305 0.256218 -0.133867
0.158719 -0.079115 0.640725 0.429073 0.199218 0.881027
-0.126127 -0.104916 0.668227 -0.254674 0.95013 0.179983
0.0499435 -0.0971834 0.219008 -0.258816 -0.965926 0.00108592
-0.0582587 -0.0869103 0.248562 0.258175 0.96365 0.0687369
0.129477 -0.0830687 0.594455 0 -1 0
-0.113044 -0.0727974 0.585679 -0.15522 -0.71311 0.683653
0.0442595 -0.0623362 0.532728 0.965927 0.258813 0.000363063
-0.0023531 -0.123687 0.333574 -0.257708 -0.961955 -0.0907159
-0.0960755 -0.0539527 0.134701 0.0740354 0.975254 0.208322
0.0368306 -0.0678572 0.66633 0 1 0
-0.0435955 -0.09638 0.840435 -0.962051 -0.257617 0.08995
0.0447556 -0.0644227 0.466339 0.965927 0.258809 -0.00136366
-0.0188909 -0.106298 0.214616 -0.253678 -0.947116 -0.196518
0.13316 -0.0830687 0.623535 0 -1 0
-0.0432782 -0.0640649 0.245783 -0.965523 0.258653 -0.0293777
0.0103778 -0.0316388 0.356297 0.258815 0.965907 0.0062439
-0.0257711 -0.0435854 0.0996118 -0.960292 0.25709 -0.108369
-0.000532001 0.107866 0.108699 -0.9769 0.213643 0.00482896
-0.0454204 -0.0993961 0.603837 -0.965922 -0.25883 0.00136113
-0.0174886 -0.0524412 0.0440727 -0.943218 -0.253264 -0.214936
-0.0602341 -0.0652566 0.237725 -0.258983 0.965878 -0.00263655
0.042746 -0.0990758 0.605906 0.965927 -0.25881 0.00136389
0.174306 -0.0830687 0.610095 0 -1 0
0.000304621 -0.0832731 0.103796 0.248605 -0.9283 -0.276504
0.0629812 -0.0789784 0.22603 0.96591 0.258873 -0.00127604
-0.0140079 -0.112224 0.908343 -0.254178 -0.948273 0.19019
-0.00362294 -0.0223829 0.232647 0.996695 -0.0751662 -0.0307989
-0.0781363 -0.0479995 0.100453 0.0740404 0.975253 0.208325
0.0215453 -0.0403844 0.88446 0.704853 0.704965 0.0787845
-0.0463211 -0.0834877 0.317935 -0.964416 -0.258522 -0.0553883
0.0299753 -0.0657845 0.916847 0.927246 0.248981 0.279686
-0.0666273 -0.0826507 0.224342 -0.965915 -0.258858 -0.00027668
-0.0450099 -0.0923223 0.836929 -0.962051 -0.257617 0.08995
0.234077 -0.0678572 0.587511 0 1 0
0.0443693 -0.0450942 0.0972187 0.0440635 0.830384 -0.555446
-0.00869739 -0.0298494 0.736868 -0.258824 0.965922 -0.00237588
0.0449442 -0.0650234 0.626725 0.965928 0.258811 0.000363393
0.0440815 -0.0944005 0.547304 0.965928 -0.258808 0.00136366
0.0338867 -0.0700503 0.166529 0.958372 -0.257024 -0.124343
0.026565 -0.105456 0.260659 0.70488 -0.705045 -0.0778218
-0.0340177 -0.0422891 0.741981 -0.707107 0.707104 -0.00187597
-0.00414739 -0.00147582 0.164637 0.996695 -0.0751665 -0.030794
0.00447889 -0.0300734 0.358653 0.258812 0.965908 0.00624416
0.0144078 -0.0320223 0.775867 0.258841 0.965917 -0.00237339
-0.0593357 -0.0891205 0.215256 -0.258854 -0.965916 0.00110652
0.0212261 -0.121411 0.739099 0.258786 -0.965934 0.00136017
0.0187681 -0.0949313 0.168914 0.696593 -0.696934 -0.170413
-0.134195 -0.101646 0.669657 0.692775 0.693172 0.198936
-0.00166667 -0.0499521 0.929739 0.968964 -0.232605 -0.0836853
0.276619 -0.0825791 0.551318 -0.697442 0.697099 -0.166216
0.0429252 -0.0675322 0.294283 0.965524 0.258651 -0.0293765
0.0149125 -0.0666941 0.154902 -0.0740338 -0.975259 -0.208298
0.0269423 -0.0664349 0.12013 0.949795 -0.254836 -0.181518
0.157621 -0.0705372 0.638315 0.414761 0.320336 0.85168
0.0402285 -0.0913951 0.2183 -0.707144 -0.70707 0.000604876
0.0442734 -0.0634387 0.374636 0.965524 0.258651 -0.0293765
0.0447139 -0.0559875 0.09444 -0.0731705 -0.966428 -0.246297
-0.0189244 -0.0625623 0.935503 -0.448273 -0.882013 -0.145275
0.0832935 -0.0678572 0.652771 0 1 0
0.0101803 -0.105576 0.20345 0.253679 -0.947116 -0.196515
0.00595077 -0.125841 0.576867 0.258786 -0.965931 0.00273358
0.142686 -0.0830687 0.591278 0 -1 0
-0.0388935 -0.10818 0.737468 -0.707115 -0.707098 0.00086244
0.0629803 -0.0678853 0.605514 0.00619756 0.999978 -0.00230945
-0.00203233 -0.0309623 0.852091 -0.258046 0.963155 0.0757936
-0.0470645 -0.0929994 0.655318 -0.965925 -0.258823 -4.58086e-06
0.0424692 -0.0659986 0.292797 0.965524 0.258651 -0.0293765
-0.0104071 -0.0258034 0.168507 -0.996694 0.0751881 0.0307734
-0.118603 -0.0411564 0.0927291 -0.0986609 -0.651095 0.752557
0.0406713 -0.0678572 0.655147 0 1 0
-0.0282067 -0.0807728 0.612705 -0.2048 0.574138 -0.792731
0.226258 -0.0678572 0.60073 0 1 0
-0.00040178 0.0608829 0.138932 -0.9971 0.0694143 0.0312093
0.0565478 -0.0831942 0.597862 0.00978784 -0.99931 0.0358162
0.17651 -0.0830687 0.603214 0 -1 0
-0.214724 -0.0678572 0.586427 0 -1 0
-0.0187198 -0.123128 0.587611 -0.258791 -0.96593 0.0027307
0.0590559 -0.0830687 0.604144 0 -1 0
-0.0623272 -0.0678572 0.650282 0 -1 0
-0.0499691 -0.0678572 0.67497 0 -1 0
-0.0501074 -0.0753494 0.370878 -0.965521 0.258662 -0.0293759
0.00390502 -0.0297524 0.480238 0.258826 0.96592 -0.00273009
-0.035259 -0.0434493 0.772548 -0.707107 0.707104 -0.00187597
-0.0482372 -0.0892518 0.44687 -0.965922 -0.258833 -0.000362657
-0.00947805 -0.0466361 0.102339 0.996696 -0.0751688 -0.0307814
-0.000574911 -0.0275545 0.16418 0.258817 0.965914 0.00488374
0.0179553 -0.122254 0.762615 0.258786 -0.965934 0.00136017
0.164017 -0.0678572 0.602649 0 1 0
-0.00472997 -0.0283722 0.190895 -0.258808 0.965916 0.00488375
-0.00726527 -0.047105 0.17511 0.996694 -0.0751838 -0.0307871
0.0330487 -0.0696859 0.159317 0.958372 -0.257024 -0.124343
-0.356845 -0.0830687 0.531981 0 1 0
-0.0449362 -0.0823218 0.288379 -0.964416 -0.258522 -0.0553883
-0.0669688 -0.0728881 0.171882 -0.96591 0.258872 -0.00179456
0.363393 -0.0830687 0.528648 0 -1 0
0.0532117 -0.0678573 0.61373 -3.04081e-05 1 -0.000105984
0.0216086 -0.114125 0.294716 0.257708 -0.961955 -0.0907155
-0.0468996 -0.0738396 0.231071 -0.960532 -0.257218 0.105907
0.0860727 -0.0821141 0.676091 0.419967 0.205041 0.884073
-0.12389 -0.0830687 0.640912 0 1 0
0.240355 -0.0830687 0.558222 0 -1 0
-0.227184 -0.0830687 0.554524 0 1 0
-0.000328225 -0.0277487 0.118094 0.258853 0.9659 -0.00574221
0.00647602 -0.0746871 0.634102 -0.200331 -0.976899 -0.0744046
0.178481 -0.0830687 0.61109 0 -1 0
0.0279079 -0.0430101 0.0992595 0.0335261 0.836469 -0.546987
-0.00744129 -0.0295328 0.266525 -0.258806 0.965909 0.00624514
-0.132826 -0.0308371 0.112564 -0.0739342 -0.975225 -0.208494
0.145852 -0.0678572 0.608414 0 1 0
0.388988 -0.0773673 0.532141 0.28922 0.951723 -0.102831
-0.0196872 -0.115313 0.294022 -0.257716 -0.961953 -0.0907145
-0.372769 -0.0752522 0.513497 0.178352 -0.981724 0.0663991
-0.048705 -0.0683469 0.771235 -0.965922 0.25883 -0.00100518
-0.00337571 -0.125831 0.822846 -0.257618 -0.961254 0.0981044
-0.00799636 -0.0565062 0.142752 -0.696961 -0.630527 -0.341586
-0.00337502 0.0844756 0.126923 -0.996696 0.075162 0.0307825
-0.000916718 -0.00384329 0.103091 0.754595 -0.0475655 -0.654464
0.00686054 -0.0544648 0.100511 0.0740394 0.975256 0.208314
-0.000833847 0.0644855 0.11088 0.996694 -0.0751709 -0.0308286
-0.0229696 -0.0348586 0.185213 -0.706953 0.706899 -0.0226341
-0.0482383 -0.0665027 0.797617 -0.965922 0.25883 -0.00100518
0.0035154 -0.0851429 0.97992 0.731894 -0.194892 0.652954
-0.397293 -0.0830687 0.524636 0 1 0
0.0398609 -0.105081 0.391657 0.707094 -0.70712 0.000504429
-0.0629436 -0.0692832 0.254725 0.702173 -0.701919 0.119427
0.000768846 0.0901355 0.100133 0.996695 -0.0751599 -0.0308221
0.15796 -0.0829637 0.571706 -0.0128333 -0.999324 -0.0344601
-0.037739 -0.0462665 0.623957 -0.707085 0.707128 -0.000503916
0.0347721 -0.0461002 0.562867 0.707107 0.707106 -0.000501305
-0.278161 -0.106523 0.591863 0.25889 -0.965907 -0.000181074
0.00207233 -0.028797 0.260962 0.258815 0.965907 0.0062439
-0.30036 -0.0830687 0.533582 0 1 0
-0.0456817 -0.0936893 0.354417 -0.964416 -0.258522 -0.0553883
0.0317218 -0.0429771 0.656528 0.707124 0.707088 -0.00187552
-0.00801957 -0.0454203 0.132021 -0.997099 0.0694152 0.0312301
0.00418041 -0.05795 0.9407 -0.893032 0.441598 0.0865185
-0.0486542 -0.0684915 0.685268 -0.965925 0.258819 -0.001007
0.0110902 -0.0414522 0.110662 -0.389345 0.85446 0.343959
0.0132091 -0.0632743 0.949843 0.616947 0.617915 0.487399
0.141609 -0.0479634 0.0952004 0.0740815 0.975231 0.208413
-0.0247956 -0.0343417 0.664157 -0.258807 0.965926 -0.00237589
0.109226 -0.0489348 0.111258 0.0740377 0.975257 0.208308
-0.00808431 -0.0264955 0.209028 -0.994837 -0.0823265 0.059344
-0.00288022 0.00314246 0.194377 0.996695 -0.0751702 -0.030792
0.046852 -0.0837275 0.610475 0.965928 -0.258808 0.00136366
-0.374373 -0.0830687 0.513345 0 1 0
0.209107 -0.0678572 0.602185 0 1 0
0.00307961 -0.0290384 0.754954 0.258801 0.965928 -0.00237507
0.107349 -0.0851094 0.601431 -0.248459 -0.926641 -0.282143
0.289135 -0.0999222 0.556387 0.581638 -0.582796 -0.567491
-0.314975 -0.0830687 0.546535 0 1 0
0.016653 -0.110927 0.246729 0.257708 -0.961955 -0.0907155
-0.00479549 -0.00992706 0.164289 0.996696 -0.075164 -0.0307944
0.0473325 -0.0817083 0.659272 0.965928 -0.258812 -9.59723e-06
-0.0376737 -0.0466232 0.406172 -0.707103 0.707107 -0.00222896
-0.27148 -0.089731 0.599907 0.915561 0.246025 0.318151
-0.0190176 -0.032109 0.172744 -0.258809 0.965916 0.00487775
-0.027553 -0.0357415 0.773322 -0.707087 0.707125 -0.00187336
-0.00685666 -0.0296694 0.549765 -0.258851 0.965917 -0.00100591
-0.0327786 -0.11462 0.582975 -0.707115 -0.707095 0.00223149
0.00477701 -0.0830687 0.706735 0 -1 0
0.0220139 -0.0830687 0.645014 0 -1 0
0.0139472 -0.0531942 0.0415176 0.943257 -0.25314 -0.214909
-0.00817889 -0.049672 0.151803 0.996695 -0.075176 -0.030791
0.0228831 -0.0830687 0.688805 0 -1 0
0.0168237 -0.122549 0.768656 0.258786 -0.965934 0.00136017
-0.0346133 -0.0793768 0.700468 0.426564 -0.21558 -0.87839
-0.305906 -0.0830687 0.548685 0 1 0
-0.0344916 -0.107567 0.326611 -0.704864 -0.70506 -0.0778223
-0.0566581 -0.0809492 0.246303 -0.697122 -0.696595 0.169634
-0.0361993 -0.0830687 0.638389 0 1 0
-0.00258191 0.00421908 0.220799 -0.903591 0.307203 0.298578
-0.0190346 -0.0325804 0.752651 -0.258807 0.965926 -0.00237589
0.0336694 -0.045444 0.38463 0.707107 0.707103 -0.00223153
0.0531665 -0.0642673 0.129943 -0.0740547 -0.975258 -0.208299
-0.0839333 -0.0852115 0.638706 -0.965949 0.258729 -0.00128964
-0.0107608 -0.0356202 0.15151 -0.99484 -0.0822845 0.0593457
-0.153094 -0.0830687 0.600708 0 1 0
-0.0456901 -0.0981306 0.751468 -0.965925 -0.258823 -4.58086e-06
-0.0447333 -0.0542265 0.432708 -0.965922 0.258831 -0.00136152
-0.0124889 -0.0311136 0.6123 -0.258851 0.965917 -0.00100591
-0.064266 -0.0490953 0.100653 0.0740404 0.975253 0.208325
0.0674655 -0.0612732 0.110844 -0.0740343 -0.975258 -0.208304
0.0379488 -0.10686 0.529664 0.707105 -0.707105 0.00223048
-0.0279241 -0.119471 0.583913 -0.707115 -0.707095 0.00223149
0.137267 -0.0678572 0.625647 0 1 0
-0.0245101 -0.12119 0.795758 -0.258819 -0.965925 0.00136015
-0.00794068 0.0173183 0.143077 -0.996697 0.0751574 0.0307634
-0.0729865 -0.0830687 0.648764 0 1 0
0.0417158 -0.103219 0.401489 0.707094 -0.70712 0.000504429
0.0966702 -0.0678572 0.619766 0 1 0
-0.0304069 -0.0392429 0.442222 -0.707107 0.707103 -0.00223151
0.0160459 -0.0326809 0.686565 0.258801 0.965928 -0.00237665
0.0981465 -0.0735311 0.667793 0.405177 0.329071 0.852961
-0.37286 -0.0830687 0.517178 0 1 0
0.00167315 -0.0776719 0.0862214 0.248568 -0.928312 -0.276498
-0.00043926 0.00926774 0.215727 0.905534 0.273987 0.323944
0.174364 -0.0776008 0.632764 0.429073 0.199218 0.881027
0.00616486 -0.125618 0.635559 0.258786 -0.965931 0.00273358
0.364611 -0.0830687 0.541916 0 -1 0
-0.075658 -0.0678572 0.615888 0 -1 0
0.0211123 -0.0480667 0.0742268 0.957305 0.256218 -0.133867
-0.00129425 -0.106421 0.192714 0.253679 -0.947116 -0.196515
0.0367277 -0.107557 0.763519 0.707113 -0.7071 0.000860217
-0.0175239 -0.0575256 0.123507 0.0740465 0.975252 0.208327
-0.00895787 -0.00478211 0.164098 -0.996694 0.0751682 0.0308282
0.0573419 -0.08661 0.125725 0.6606 -0.661422 -0.355146
0.197825 -0.0678572 0.586144 0 1 0
0.0142642 -0.0532027 0.923467 0.00868958 0.0106174 0.999906
-0.0463613 -0.0678572 0.677432 0 -1 0
-0.147147 -0.0678572 0.634073 0 -1 0
0.000731922 -0.0830687 0.707851 0 1 0
0.026561 -0.0633747 0.925722 0.671783 0.672406 0.310769
-0.29241 -0.0830687 0.543682 0 1 0
0.238449 -0.0825182 0.602631 0.429681 0.199422 0.880685
0.0357273 -0.048644 0.831492 0.704833 0.704984 0.0787898
-0.296308 -0.0830687 0.550354 0 1 0
-0.0362068 -0.0444127 0.766682 -0.707107 0.707104 -0.00187597
-0.0184041 -0.0652219 0.949226 -0.616928 0.61794 0.487391
-0.0442842 -0.0845487 0.20793 0.707143 -0.707065 0.00266229
0.00245483 0.108772 0.123666 -0.9971 0.0694267 0.0311752
0.0307398 -0.0831944 0.599463 -0.00621184 -0.999978 0.00220768
-0.0138715 -0.0830687 0.64656 0 -1 0
0.0217476 -0.0349611 0.230247 0.707079 0.707102 -0.00679376
0.0272659 -0.117 0.779804 0.707115 -0.707098 0.000859818
-0.000673971 -0.0488626 0.0908048 -0.0534637 0.727559 -0.683959
0.0402127 -0.104524 0.552598 0.707105 -0.707105 0.00223048
-0.302531 -0.0830687 0.567971 0 1 0
0.0624969 -0.0830687 0.678933 0 -1 0
-0.0771143 -0.0678572 0.666029 0 -1 0
0.115542 -0.0830687 0.611943 0 -1 0
0.0313495 -0.0438848 0.300791 0.707079 0.707102 -0.00679376
0.27993 -0.0811097 0.543835 -0.213143 0.494089 -0.84288
0.00164439 -0.0685858 0.0596204 0.245162 -0.915678 -0.31848
0.0275774 -0.117014 0.598927 0.707113 -0.707097 0.00222842
-0.00510671 -0.0830687 0.676143 0 1 0
-0.0170942 -0.0456777 0.909495 -0.244304 0.912452 0.328248
0.205523 -0.0678572 0.607004 0 1 0
-0.0453664 -0.0993384 0.753097 -0.965925 -0.258823 -4.58086e-06
-0.130843 -0.0823019 0.642942 -0.258844 0.965905 -0.00523703
-0.0498124 -0.0833422 0.53984 -0.965922 -0.25883 0.00136113
0.0137471 -0.120365 0.84193 0.257612 -0.961254 0.0981152
5.54305e-05 -0.127153 0.68957 0.258813 -0.965926 0.00135551
-0.114724 -0.0830687 0.613034 0 1 0
-0.0487487 -0.0655533 0.194395 0.258848 0.965918 -0.000540026
-0.117682 -0.0720829 0.585389 -0.1522 -0.717031 0.680222
0.0464242 -0.070573 0.480954 0.965927 0.258809 -0.00136366
0.0456205 -0.0738581 0.327172 0.965524 0.258651 -0.0293765
-0.12857 -0.0867973 0.612727 -0.164843 -0.166276 -0.972203
0.0116293 -0.108621 0.219999 0.253679 -0.947116 -0.196515
-0.154306 -0.0678572 0.636418 0 -1 0
-0.0426296 -0.0893898 0.281206 -0.964416 -0.258521 -0.0553882
-0.0467296 -0.0866138 0.24356 0.700029 -0.699691 0.142801
-0.0249686 -0.0830687 0.626414 0 1 0
-0.114966 -0.0830687 0.614036 0 1 0
-0.0155753 -0.032468 0.0874746 -0.706487 0.706388 -0.0434938
0.0407069 -0.0520438 0.550351 0.707083 0.707131 -0.000503941
0.183047 -0.07609 0.570637 -0.159205 0.701778 -0.694378
-0.0454353 -0.0713013 0.860011 -0.96247 0.258069 0.083974
-0.00523273 -0.0288737 0.75612 -0.258815 0.965924 -0.00237506
0.0632844 -0.0832113 0.595543 0.00978784 -0.99931 0.0358162
0.122619 -0.0955357 0.661205 -0.686678 -0.182527 0.703674
-0.00824783 -0.0830687 0.671195 0 1 0
0.0436532 -0.0553749 0.164716 0.0740308 0.975254 0.208325
0.0364503 -0.107938 0.678284 0.707113 -0.7071 0.000860217
0.000277525 0.0581528 0.162307 0.996694 -0.0751773 -0.0308195
-0.041436 -0.0497289 0.733999 -0.707085 0.707126 -0.00187115
-0.0642736 -0.0711836 0.251374 0.702143 -0.701948 0.11943
0.0333865 -0.110895 0.766507 0.707115 -0.707098 0.000859818
-0.0365953 -0.108271 0.352042 -0.704864 -0.70506 -0.0778223
0.0184942 -0.0814224 0.124408 0.685761 -0.686231 -0.242524
0.0283384 -0.0414307 0.242838 0.707079 0.707102 -0.00679376
-0.00651265 -0.0234898 0.131383 -0.9971 0.0694208 0.0311929
-0.0312874 -0.108326 0.304465 -0.704882 -0.705043 -0.0778174
-0.0453933 -0.0992368 0.679746 -0.965925 -0.258823 -4.58086e-06
0.00369495 -0.0298174 0.437329 0.258826 0.96592 -0.00273009
0.127451 -0.10436 0.631 -0.242799 -0.906991 -0.344116
-0.0104 -0.030512 0.0616105 -0.258759 0.965756 -0.0189496
-0.262448 -0.0830687 0.555921 0 1 0
-0.365719 -0.0730599 0.526991 0.178427 -0.981721 0.066242
-0.066396 -0.0761914 0.592821 -0.158689 -0.718355 0.677336
-0.0379348 -0.0598434 0.141612 0.0740538 0.975255 0.208312
-0.0288955 -0.0830687 0.626036 0 -1 0
-0.0412925 -0.0765531 0.215799 -0.958368 -0.257035 -0.124351
-0.0124509 -0.124567 0.69197 -0.258791 -0.965932 0.00135551
0.0927461 -0.0572986 0.140854 0.566185 0.101455 0.818011
0.00185308 0.0984188 0.141137 -0.881733 0.250761 0.399582
0.033788 -0.110734 0.620881 0.707113 -0.707097 0.00222842
-0.0514545 -0.0463756 0.156389 -0.0740066 -0.975254 -0.208332
0.00522384 -0.119977 0.310232 0.25771 -0.961954 -0.0907158
-0.106938 -0.0859911 0.641653 -0.96588 -0.258988 -2.05127e-05
0.0589529 -0.0940066 0.161741 0.702032 -0.702252 -0.118291
0.0163182 -0.122975 0.608131 0.258806 -0.965925 0.00272957
-0.00117723 -0.0274339 0.172237 0.258817 0.965914 0.00488374
-0.312321 -0.0738265 0.534406 -0.248635 -0.617625 0.746137
0.0554187 -0.0680708 0.14695 -0.0740645 -0.975254 -0.208314
0.0292905 -0.0596081 0.116617 -0.0740268 -0.975259 -0.208303
-0.307536 -0.0830687 0.534542 0 1 0
-0.0293124 -0.0575619 0.127866 0.0740244 0.975252 0.208334
-0.00263874 -0.00601437 0.222653 0.99635 -0.079948 -0.0299138
0.0207703 -0.0341851 0.510892 0.258837 0.965917 -0.00272956
0.0509979 -0.0902325 0.238756 -0.255269 -0.951819 0.169935
-0.128358 -0.0816108 0.661022 -0.258793 0.965925 -0.00387603
-0.0434621 -0.0365058 0.103567 -0.0500428 -0.835312 0.547494
-0.313142 -0.0788505 0.564566 0.401314 -0.148502 -0.903822
0.0483496 -0.0830687 0.682751 0 -1 0
0.290881 -0.102548 0.565327 0.674461 -0.675014 -0.299095
0.0170171 -0.102349 0.196727 0.253687 -0.947113 -0.196517
0.0437624 -0.0601906 0.771257 0.965924 0.258823 -0.00101064
0.232386 -0.0795256 0.604912 0.429681 0.199422 0.880685
-0.00110844 -0.0280835 0.686967 0.258801 0.965928 -0.00237507
0.0493284 -0.0830687 0.672813 0 -1 0
0.0196403 -0.0334724 0.756346 0.258841 0.965917 -0.00237339
-0.365046 -0.0734475 0.519434 0.178418 -0.981722 0.0662479
-0.119775 -0.0678572 0.6409 0 -1 0
-0.00500867 -0.04059 0.217097 0.91564 -0.400552 0.0340932
-0.0104611 -0.124998 0.765123 -0.258819 -0.965925 0.00136015
0.176554 -0.0742785 0.573779 -0.122822 0.70474 -0.698754
-0.0469923 -0.0931852 0.813254 -0.962051 -0.257617 0.08995
0.0810114 -0.0830723 0.590887 0.0193471 -0.999307 0.0317944
-0.0335808 -0.0462887 0.14963 -0.074045 -0.975256 -0.208308
0.269522 -0.0781548 0.587597 0.397647 0.166443 0.902316
0.0375913 -0.107008 0.596302 0.707105 -0.707105 0.00223048
0.034381 -0.0464673 0.347522 0.707125 0.707056 -0.00679623
0.00376333 -0.114055 0.24328 0.257708 -0.961955 -0.0907155
0.298995 -0.079487 0.574884 0.388523 0.148409 0.909409
-0.267565 -0.0830687 0.542942 0 1 0
0.0231996 -0.0347449 0.590498 0.258801 0.96593 -0.00100707
-0.00436127 0.0737852 0.103663 -0.785557 -0.0218941 -0.618401
0.0371895 -0.0539567 0.227963 0.963583 0.25805 -0.0701222
-0.00898588 -0.0306256 0.371549 -0.258815 0.965907 0.00624415
0.270566 -0.101189 0.59618 -0.707031 -0.707182 -0.000662035
-0.00838117 0.00837704 0.150647 -0.996695 0.0751724 0.0307931
0.0457588 -0.07808 0.230053 0.702147 -0.701947 0.119416
-0.0255057 -0.0403697 0.120444 -0.70648 0.706396 -0.0434926
-0.347593 -0.0692662 0.534393 0.178427 -0.981721 0.066242
-0.0180207 -0.12305 0.709915 -0.258819 -0.965925 0.00136015
0.0432547 -0.0599166 0.372165 0.965524 0.258651 -0.0293765
0.0455458 -0.0888987 0.554251 0.965928 -0.258808 0.00136366
-0.0235717 -0.0343306 0.463638 -0.258807 0.965925 -0.00273069
0.0208375 -0.034292 0.479441 0.258837 0.965917 -0.00272956
0.114311 -0.0830687 0.595123 0 -1 0
0.0222293 -0.0603332 0.0869031 0.949797 -0.254828 -0.181519
0.0534118 -0.067858 0.607518 -3.04081e-05 1 -0.000105984
0.0383691 -0.0829157 0.170608 -0.965928 0.258804 -0.00181588
0.30519 -0.074003 0.540886 -0.238115 0.617555 -0.749618
-0.129361 -0.0678572 0.596342 0 -1 0
0.320532 -0.071894 0.537801 -0.230482 0.629519 -0.742014
-0.060329 -0.0881419 0.246361 -0.25608 -0.955412 0.147007
-0.0447013 -0.0532982 0.798896 -0.965922 0.25883 -0.00100518
0.0704144 -0.0760201 0.681926 0.405177 0.329071 0.852961
0.0564964 -0.0830687 0.624506 0 -1 0
0.0591228 -0.0742164 0.187921 0.707107 0.707101 -0.0026772
0.137975 -0.0862928 0.618462 0.887409 0.23679 -0.39552
0.00760558 0.0946791 0.123373 0.997099 -0.0694266 -0.0312051
-0.12604 -0.10745 0.651493 0.258744 -0.965931 0.00533713
0.104441 -0.0830687 0.59126 0 -1 0
-0.00330039 0.00191 0.183788 0.996696 -0.0751579 -0.0307962
-0.0498762 -0.0652025 0.153611 0.258801 0.965874 0.0104451
-0.00354112 -0.0287595 0.570327 -0.258824 0.965924 -0.00100303
0.133644 -0.106915 0.644588 0.258842 -0.965919 -0.00156954
0.0177853 -0.107807 0.224021 0.253679 -0.947116 -0.196515
0.00167896 -0.0763176 0.68347 -0.201359 0.976899 0.0715726
-0.0228961 -0.0370741 0.131582 -0.706487 0.706388 -0.0434938
-0.0460807 -0.0970955 0.572731 -0.965922 -0.25883 0.00136113
-0.0225948 -0.0391204 0.0934548 -0.706513 0.706362 -0.0435033
-0.00954932 -0.0227218 0.188743 -0.996694 0.0751777 0.0308171
-0.130179 -0.104381 0.670065 0.254557 0.950161 0.179989
0.0992599 -0.0811794 0.669608 0.420733 0.20409 0.883929
-0.121463 -0.0331816 0.101043 -0.216399 -0.749267 0.625916
0.00129054 -0.12709 0.374474 0.25771 -0.961954 -0.0907158
0.000126912 0.0675156 0.134576 0.996697 -0.0751617 -0.0307635
-0.0482653 -0.0891763 0.467755 -0.965922 -0.258833 -0.000362657
-0.237293 -0.0678572 0.587912 0 -1 0
-0.25189 -0.0678572 0.585181 0 -1 0
-0.28714 -0.0825077 0.585949 -0.258775 0.96593 -0.00386085
-0.0467701 -0.0946538 0.394208 -0.965925 -0.25882 -0.000360068
-0.0655442 -0.0810767 0.14828 -0.962466 -0.258038 -0.0841135
0.0462515 -0.0678572 0.645917 0 1 0
0.0193847 -0.063145 0.173941 -0.389309 0.854485 0.343937
0.0714789 -0.0645448 0.124733 -0.0740579 -0.975251 -0.208331
-0.0649706 -0.0692097 0.168232 -0.707207 0.707002 -0.00267695
0.141174 -0.0830687 0.611866 0 -1 0
0.286914 -0.102558 0.594074 -0.692839 0.693127 0.198869
-0.0318892 -0.0399966 0.803876 -0.707087 0.707125 -0.00187336
0.0465257 -0.0852523 0.37793 0.965928 -0.258809 -0.000363414
0.00526456 0.0729106 0.143835 0.966843 0.125203 0.222572
0.221524 -0.0723272 0.607843 0.415365 0.320457 0.85134
-0.0209177 -0.116904 0.314395 -0.257716 -0.961953 -0.0907145
-0.120818 -0.0790528 0.578223 -0.183917 -0.527578 0.829359
-0.0228141 -0.122318 0.43485 -0.258806 -0.965929 0.000998187
-0.0200883 -0.122683 0.615281 -0.258791 -0.96593 0.0027307
0.0598268 -0.0938092 0.174524 0.707107 -0.707107 5.85497e-05
-0.16007 -0.0373976 0.0847949 -0.213444 -0.596431 0.773765
0.0484408 -0.0943254 0.249109 0.258192 0.963644 0.0687511
-0.0364219 -0.0686022 0.182082 0.0740478 0.975256 0.208309
-0.039935 -0.0947198 0.259521 -0.704864 -0.70506 -0.0778223
-0.00149016 -0.0734033 0.612981 -0.163008 0.760348 -0.628728
0.0369437 -0.0525299 0.229836 0.963583 0.25805 -0.0701222
-0.000201948 -0.0569727 0.0248096 0.245162 -0.915678 -0.31848
-0.0477125 -0.065243 0.452012 -0.965922 0.258831 -0.00136152
-0.371845 -0.0781865 0.51154 -0.278783 -0.437791 0.854763
-0.134876 -0.0293418 0.106293 -0.074095 -0.975277 -0.208192
0.043682 -0.0889488 0.345485 0.964419 -0.258511 -0.0553875
0.0248304 -0.0439334 0.886825 0.704853 0.704965 0.0787845
-0.292073 -0.0907072 0.599076 0.930904 -0.248843 0.267385
-0.222508 -0.0768063 0.606481 0.427317 -0.320549 -0.845369
0.00832172 -0.029999 0.176116 0.258805 0.965917 0.00488029
-0.132677 -0.082721 0.633547 -0.258718 0.965479 0.0302631
-0.307777 -0.0830687 0.539102 0 1 0
-0.128608 -0.0800499 0.57594 -0.162117 -0.51638 0.840874
-0.0109024 -0.0230531 0.145762 -0.996696 0.0751522 0.0308169
0.0353028 -0.0509627 0.147027 0.0740557 0.975253 0.20832
-0.00865989 -0.030156 0.546502 -0.258851 0.965917 -0.00100591
-0.0461296 -0.0971344 0.458939 -0.965925 -0.25882 -0.000360068
0.115902 -0.0529036 0.125582 0.494818 0.0505387 0.867526
0.0424411 -0.10009 0.629417 0.965927 -0.25881 0.00136389
-0.00395272 0.0010353 0.219859 -0.953815 0.22442 0.199681
0.00048535 -0.0290562 0.402363 0.258826 0.96592 -0.00273009
0.0386581 -0.0678572 0.622226 0 1 0
0.0134398 -0.0324488 0.430184 0.258838 0.965917 -0.00272946
-0.0501124 -0.0822023 0.409793 -0.965922 -0.258833 -0.000362657
-0.0444357 -0.0956713 0.341973 -0.964416 -0.258521 -0.0553882
0.109829 -0.0830687 0.606073 0 -1 0
-0.00596371 0.0238509 0.184102 -0.95234 0.231498 0.198638
-0.0445906 -0.0674715 0.258923 -0.965523 0.258653 -0.0293777
-0.120892 -0.0822371 0.658759 0.433159 -0.204167 -0.877889
-0.000928255 0.0431117 0.161648 -0.997099 0.0694282 0.0311994
-0.0559889 -0.064054 0.111345 -0.258562 0.965595 -0.0277671
0.0337795 -0.111109 0.466136 0.707105 -0.707108 0.000501276
-0.03541 -0.106969 0.847093 -0.703987 -0.703814 0.0951218
-0.0384331 -0.108624 0.751173 -0.707115 -0.707098 0.00086244
-0.113716 -0.0959583 0.637703 0.965905 -0.258879 -0.00294839
-0.0179748 -0.0944589 0.156376 -0.253678 -0.947116 -0.196518
