0.0249636 -0.0404307 0.15957 0.706948 0.706904 -0.0226327
-0.00577275 -0.0362732 0.229328 -0.980286 -0.182037 0.0768287
0.0213107 -0.0344594 0.465052 0.258837 0.965917 -0.00272956
-0.0393425 -0.0830687 0.627121 0 -1 0
-0.00795693 -0.0307054 0.112688 0.996695 -0.075177 -0.0307799
-0.15012 -0.0878264 0.625868 0.258745 -0.965945 0.00144552
0.00238573 0.112115 0.114021 -0.9971 0.069405 0.031211
-0.00260249 -0.126081 0.359677 -0.257708 -0.961955 -0.0907159
-0.0018406 -0.0342136 0.176904 0.960754 -0.277252 0.00910356
-0.195931 -0.0830687 0.566671 0 1 0
0.0709541 -0.080977 0.683009 0.419967 0.205041 0.884073
0.0319687 -0.0719347 0.173376 -0.0740367 -0.975258 -0.208304
0.041932 -0.101868 0.788393 0.965925 -0.258824 -7.62316e-06
0.0351318 -0.0830687 0.643337 0 -1 0
0.0467403 -0.0830687 0.651392 0 -1 0
-0.100934 -0.0678572 0.62918 0 -1 0
-0.0252765 -0.121489 0.546011 -0.258791 -0.96593 0.0027307
-0.0418401 -0.036204 0.104387 -0.0582495 -0.977323 -0.203585
-0.084661 -0.0678572 0.621529 0 -1 0
-0.119483 -0.0844646 0.668711 0.673617 0.674353 0.302469
-0.00359795 -0.127432 0.468672 -0.258827 -0.965923 0.00100236
0.0479253 -0.0795752 0.638292 0.965928 -0.258808 0.00136366
-0.022686 -0.0334533 0.795623 -0.25884 0.965917 -0.00237339
-0.214621 -0.0714783 0.608447 0.427331 -0.320513 -0.845375
0.0568524 -0.0464061 0.0963841 0.100518 0.81236 -0.574427
0.0309069 -0.114024 0.40719 0.707094 -0.70712 0.000504429
0.00307475 -0.126356 0.681006 0.258786 -0.965934 0.00136017
-0.045215 -0.0553157 0.772966 -0.965922 0.25883 -0.00100518
-0.0152968 -0.0830687 0.662473 0 -1 0
-0.0360002 -0.0450952 0.37187 -0.707101 0.70708 -0.00679741
0.0480425 -0.079061 0.726065 0.965928 -0.258812 -9.59723e-06
-0.0919441 -0.0830687 0.641643 0 1 0
-0.00149332 0.0560232 0.114868 -0.997099 0.06942 0.031208
-0.00212914 0.0338852 0.143649 0.996695 -0.0751726 -0.0307779
0.0318525 -0.0888817 0.913073 0.937184 -0.250632 0.24263
0.0950675 -0.0830687 0.641898 0 -1 0
0.0206233 -0.108657 0.235841 0.704874 -0.705051 -0.0778207
-0.047539 -0.0919478 0.511187 -0.965922 -0.258833 -0.000362657
0.0214534 -0.0734224 0.699587 -0.201358 0.976899 0.0715723
-0.375854 -0.0819621 0.537172 0.402889 -0.153316 -0.902316
0.0492176 -0.0786044 0.595261 -0.184221 0.528324 -0.828816
0.0257489 -0.11901 0.545583 0.707113 -0.707097 0.00222842
0.0337195 -0.0596103 0.159475 0.963585 0.258045 -0.0701215
-0.0200496 -0.032942 0.716217 -0.258807 0.965926 -0.00237589
0.00629279 -0.0613086 0.152911 -0.581545 0.719411 0.379806
0.373777 -0.0740667 0.539441 0.179352 0.98172 -0.063701
-0.0568841 -0.0552081 0.126647 0.0740327 0.975254 0.208325
-0.00353146 -0.0290512 0.431536 -0.258851 0.965913 -0.00273007
-0.0394311 -0.048049 0.511345 -0.707103 0.707107 -0.00222896
0.079759 -0.0546368 0.148425 0.0740272 0.975254 0.208324
-0.0297381 -0.117632 0.591979 -0.707115 -0.707095 0.00223149
0.223635 -0.0678572 0.575423 0 1 0
0.110292 -0.047117 0.102368 0.0740489 0.975261 0.208287
-0.194349 -0.0830687 0.614298 0 1 0
-0.00152786 -0.11865 0.277822 -0.257708 -0.961955 -0.0907159
0.0443552 -0.0631225 0.429513 0.965927 0.258812 -0.00136427
-0.0467055 -0.0870383 0.189178 0.707144 -0.70707 4.11363e-05
-0.151107 -0.0830687 0.642093 0 1 0
0.0460263 -0.0820661 0.354181 0.964419 -0.258511 -0.0553875
0.388187 -0.0787307 0.517263 0.289265 0.95172 -0.102736
0.0470403 -0.0833903 0.419796 0.965928 -0.258809 -0.000363414
-0.0114165 -0.0321346 0.145352 -0.99484 -0.0822759 0.0593659
0.177375 -0.0830687 0.631284 0 -1 0
-0.00244811 0.0405745 0.116998 0.996695 -0.0751806 -0.0307781
-0.030281 -0.0693438 0.928142 -0.92724 0.249007 0.279681
0.0384394 -0.0678572 0.619984 0 1 0
0.109644 -0.0851145 0.607971 0.960265 -0.256848 -0.109179
-0.0509202 -0.0769871 0.592353 -0.965922 0.258834 0.000362635
-0.0454746 -0.0759361 0.26795 -0.964416 -0.258522 -0.0553883
0.0326674 -0.0734973 0.164257 0.958372 -0.257024 -0.124343
0.023966 -0.0349084 0.774469 0.707107 0.707104 -0.00187332
-0.0036858 0.0846611 0.116409 -0.996696 0.0751616 0.0307826
0.00320117 0.122377 0.103214 0.968318 0.234254 -0.0865119
-0.0511124 -0.0768912 0.116659 0.660616 -0.661381 -0.355192
-0.11748 -0.0473325 0.134439 0.448877 -0.0113869 -0.893521
0.0121199 -0.0946145 0.153126 0.253687 -0.947113 -0.196517
-0.00891899 0.017874 0.110052 -0.996696 0.0751645 0.0307684
0.0468481 -0.0721222 0.487208 0.965927 0.258809 -0.00136366
-0.00972334 -0.125878 0.384684 -0.258827 -0.965923 0.00100236
-0.0496519 -0.0794206 0.356947 -0.964416 -0.258522 -0.0553883
-0.003768 -0.0213097 0.225334 0.996695 -0.0751662 -0.0307989
0.0459969 -0.0928624 0.142426 -0.256287 -0.956723 -0.137836
0.0537873 -0.0531419 0.15066 0.0740367 0.975258 0.208301
0.019881 -0.0901293 0.952497 0.895816 -0.239337 0.374475
0.00773981 -0.030138 0.233485 0.258815 0.965907 0.0062439
0.0427607 -0.0678412 0.150375 -0.0740313 -0.975259 -0.208303
0.401755 -0.0830687 0.53025 0 -1 0
-0.0145324 -0.0343879 0.0520774 -0.705899 0.70565 -0.0613613
-0.0810085 -0.0830687 0.625649 0 1 0
-0.102074 -0.0850726 0.631641 0.965964 0.258677 0.000341264
-0.0356058 -0.112088 0.398574 -0.707084 -0.70713 0.000498246
-0.0135245 -0.124248 0.714533 -0.258791 -0.965932 0.00135551
-0.0511154 -0.077882 0.665294 -0.965923 -0.258831 -5.93033e-06
-0.00145379 0.0540218 0.116351 0.996694 -0.0751679 -0.0308291
-0.0504153 -0.0804963 0.738158 -0.965923 -0.258831 -5.93033e-06
0.00310862 0.108768 0.130386 0.996693 -0.0751889 -0.0308167
-0.00193068 0.0349395 0.147501 0.996695 -0.0751726 -0.0307779
0.0182967 -0.113873 0.282638 0.257708 -0.961955 -0.0907155
-0.0450665 -0.101053 0.539825 -0.965922 -0.25883 0.00136113
0.0286248 -0.093678 0.920586 0.937184 -0.250632 0.24263
0.026406 -0.0549439 0.102723 0.960292 0.257089 -0.108374
-0.0144808 -0.061638 0.949648 -0.616941 0.617931 0.487386
-0.0276993 -0.0405127 0.156351 -0.706947 0.706904 -0.0226328
-0.0042795 -0.0311235 0.219718 -0.997098 0.0694391 0.0312009
-0.0948456 -0.0803208 0.583188 -0.186688 -0.517319 0.835182
-0.0113813 -0.0343135 0.862847 -0.258034 0.963158 0.075796
-0.0209036 -0.0334563 0.527859 -0.258807 0.965928 -0.00100594
-0.0260159 -0.102529 0.218344 -0.696595 -0.696931 -0.170418
0.0276245 -0.117307 0.405877 0.707094 -0.70712 0.000504429
0.0565202 -0.0879291 0.234292 0.823872 -0.219961 0.522352
-0.0218666 -0.122578 0.429489 -0.258806 -0.965929 0.000998187
0.00188537 -0.0103195 0.174198 0.9971 -0.0694124 -0.0312154
-0.0906361 -0.0500106 0.114311 0.0740184 0.97525 0.208347
-0.198481 -0.0830687 0.609849 0 1 0
0.391246 -0.0830687 0.515464 0 -1 0
-0.129205 -0.0830687 0.595853 0 1 0
0.00880472 -0.0812695 0.693185 -0.320616 -0.939696 -0.119068
0.00194681 -0.0290408 0.599562 0.25882 0.965925 -0.00100303
0.0696122 -0.0492026 0.126592 0.0740285 0.97527 0.208252
-0.0352806 -0.0441685 0.425721 -0.70709 0.70712 -0.00222899
-0.024135 -0.0830687 0.637334 0 1 0
0.341192 -0.0830687 0.532988 0 -1 0
-0.00975734 -0.0747378 0.629733 -0.201359 0.976899 0.071573
0.0264503 -0.0722718 0.176915 -0.0740367 -0.975258 -0.208304
-0.0776384 -0.0435272 0.094157 0.0438362 -0.665631 0.744992
-0.256848 -0.0678572 0.559781 0 -1 0
-0.00455386 -0.0282609 0.216865 0.996696 -0.0751583 -0.0308025
-0.301942 -0.0830687 0.551363 0 1 0
-0.0268655 -0.0359871 0.369142 -0.70708 0.707101 -0.00679365
-0.0037594 -0.0830687 0.649485 0 1 0
-0.0447126 -0.102453 0.480516 -0.965925 -0.25882 -0.000360068
0.101217 -0.0830687 0.638191 0 -1 0
-0.00232707 -0.126406 0.362342 -0.257708 -0.961955 -0.0907159
-0.0227398 -0.122254 0.515823 -0.258806 -0.965926 0.00273356
-0.048247 -0.0674826 0.405469 -0.965924 0.258823 -0.00136298
-0.00682237 -0.0198373 0.113359 -0.9971 0.0694137 0.0312054
-0.0035751 0.0220171 0.125814 0.996695 -0.0751531 -0.0308379
0.0453353 -0.0897859 0.442621 0.965928 -0.258809 -0.000363414
0.000786663 -0.024729 0.188452 0.960759 -0.277236 0.00912073
-0.275874 -0.0678572 0.568823 0 -1 0
-0.0399627 -0.107671 0.483145 -0.707115 -0.707098 0.000506428
0.038732 -0.0978468 0.858765 0.962054 -0.257605 0.0899497
0.0531189 -0.0865485 0.250076 0.952049 -0.254968 0.169095
-0.0458092 -0.0579413 0.667962 -0.965925 0.258819 -0.001007
-0.0251279 -0.0488388 0.0817474 -0.957295 0.256253 -0.133869
0.00504682 0.0588824 0.121253 0.9971 -0.0694212 -0.0311864
0.30386 -0.0830687 0.55259 0 -1 0
0.0452097 -0.0658705 0.524197 0.965927 0.258813 0.000363063
0.0144454 -0.121061 0.833279 0.257612 -0.961254 0.0981152
-0.00100056 -0.0322539 0.130788 0.997099 -0.0694347 -0.0311791
-0.0354317 -0.0684154 0.15381 -0.958372 -0.257024 -0.124347
0.102153 -0.0657038 0.119256 -0.0740628 -0.975244 -0.208359
-0.049689 -0.0727202 0.432808 -0.965924 0.258823 -0.00136298
0.011029 -0.0598021 0.937285 0.671819 0.67238 0.310747
-0.144863 -0.0830687 0.615377 0 1 0
0.0374807 -0.106788 0.776995 0.707115 -0.707098 0.000859818
0.042572 -0.0560365 0.511225 0.965927 0.258809 -0.00136366
-0.00176022 0.0474993 0.125302 -0.997099 0.0694238 0.0312046
-0.0305008 -0.109169 0.30498 -0.704882 -0.705043 -0.0778174
-0.00597103 -0.0157513 0.228019 -0.964814 0.185833 0.186012
-0.0099443 -0.060451 0.103964 -0.997098 0.0694412 0.0311958
0.330945 -0.0830687 0.534531 0 -1 0
-0.0376157 -0.095709 0.247476 -0.704864 -0.70506 -0.0778223
0.025074 -0.11203 0.306714 0.704874 -0.705051 -0.0778207
0.173696 -0.0830687 0.573211 0 -1 0
0.0991772 -0.0633963 0.109512 -0.0740324 -0.975251 -0.20834
-0.0255824 -0.0697095 0.943812 -0.868328 0.233518 0.437579
-0.124845 -0.0835643 0.632651 0.707477 0.706734 -0.00181239
0.00241824 -0.0555569 0.107202 0.0740383 0.975254 0.208322
-0.00729801 -0.125973 0.674232 -0.258791 -0.965932 0.00135551
-0.149188 -0.0461214 0.116915 0.0740457 0.975254 0.208317
0.00110279 -0.12727 0.530799 0.258786 -0.965931 0.00273358
-0.063491 -0.0865465 0.225529 -0.707115 -0.707099 0.000594948
-0.00961676 -0.0435114 0.159747 -0.99484 -0.0822845 0.0593457
0.0258331 -0.0370766 0.660847 0.707124 0.707088 -0.00187552
0.0257722 -0.0599163 0.11931 -0.0740295 -0.975256 -0.208314
-0.00203128 -0.0366042 0.124318 0.960765 -0.277212 0.00913856
-0.00592916 -0.0299248 0.176414 0.996695 -0.0751781 -0.0307682
0.00175126 -0.126878 0.608066 0.258786 -0.965931 0.00273358
-0.0144441 -0.0351091 0.862531 -0.258057 0.963152 0.0757961
0.0477028 -0.0768486 0.36928 0.965524 0.258651 -0.0293765
-0.219394 -0.068826 0.566623 -0.171206 -0.697824 0.695507
0.0212762 -0.0341684 0.649193 0.258801 0.96593 -0.00100707
0.0281057 -0.0652207 0.124513 0.949795 -0.254836 -0.181518
0.0268727 -0.117387 0.784797 0.707115 -0.707098 0.000859818
0.0694738 -0.0537656 0.148004 0.0740231 0.975263 0.208283
-0.0605073 -0.0700397 0.111021 -0.915995 -0.246037 -0.31689
0.137649 -0.0478063 0.0958723 0.0740008 0.975273 0.208244
0.017597 -0.122606 0.617586 0.258806 -0.965925 0.00272957
0.00130609 0.0946025 0.106615 0.996694 -0.0751733 -0.0308213
-0.0343572 -0.0424904 0.794114 -0.707087 0.707125 -0.00187336
-0.000809435 0.106337 0.120447 -0.97691 0.213604 0.00459053
-0.0517976 -0.0645129 0.136892 0.258912 0.965865 0.00835616
0.213538 -0.0830687 0.595969 0 -1 0
0.103851 -0.0830687 0.59511 0 -1 0
0.0448647 -0.0909464 0.648083 0.965927 -0.25881 0.00136389
0.0428847 -0.0700593 0.85383 0.962475 0.258053 0.083972
-0.00416515 0.0206036 0.110172 0.996696 -0.0751654 -0.0307877
-0.0113247 -0.0585661 0.942036 -0.141794 0.527544 -0.837611
-0.0451766 -0.0555797 0.489953 -0.965922 0.258831 -0.00136152
-0.045549 -0.0993395 0.486425 -0.965925 -0.25882 -0.000360068
0.0420453 -0.10204 0.425315 0.965928 -0.258812 -0.000362873
0.0507491 -0.0526922 0.149634 0.0740367 0.975258 0.208301
-0.0028077 -0.0279758 0.214359 -0.258808 0.965916 0.00488375
-0.0481081 -0.0891049 0.660976 -0.965925 -0.258823 -4.58086e-06
-0.0506439 -0.0830687 0.657619 0 1 0
-0.0195569 -0.0532038 0.103997 0.0740295 0.97526 0.208296
-0.0348077 -0.0799808 0.172906 -0.958372 -0.257024 -0.124347
0.0240547 -0.120823 0.481003 0.707105 -0.707108 0.000501276
0.0368917 -0.0479721 0.722444 0.707083 0.707128 -0.0018756
0.00577138 -0.0527834 0.0928932 -0.0896468 -0.975123 -0.20273
0.0562187 -0.0526503 0.147494 0.0740367 0.975258 0.208301
-0.0054208 -0.0543142 0.0193746 -0.245375 -0.915627 -0.318462
0.0400839 -0.0798194 0.146649 -0.965003 0.258471 -0.0442968
-0.0221863 -0.0388339 0.0914719 -0.706513 0.706362 -0.0435033
0.0454184 -0.0890749 0.611046 0.965927 -0.25881 0.00136389
0.0517111 -0.0559399 0.164497 0.0740573 0.975251 0.208327
0.0211747 -0.065785 0.182526 -0.389291 0.85448 0.343971
-0.0126484 -0.115156 0.27236 -0.257708 -0.961955 -0.0907159
-0.00169239 -0.0538985 0.932722 0.244264 0.912459 0.328259
-0.208141 -0.0830687 0.595916 0 1 0
0.0114291 -0.0408412 0.0188106 0.957293 0.256263 -0.133867
0.0113389 -0.081218 0.106816 0.248568 -0.928312 -0.276498
-0.0359372 -0.044355 0.686806 -0.707107 0.707104 -0.00187597
-0.139003 -0.0442955 0.104746 0.0740361 0.975251 0.208335
0.0476853 -0.0809901 0.424864 0.965928 -0.258809 -0.000363414
0.0367351 -0.108212 0.384153 0.707094 -0.70712 0.000504429
-0.0468135 -0.0614813 0.721389 -0.965922 0.25883 -0.00100518
0.0426234 -0.0859099 0.130157 -0.683601 -0.684086 -0.254393
-0.016897 -0.0644883 0.950204 -0.616928 0.61794 0.487391
0.202929 -0.0678572 0.602694 0 1 0
-0.0472342 -0.0884597 0.357041 -0.964416 -0.258522 -0.0553883
0.136593 -0.0668012 0.112153 -0.0740523 -0.975249 -0.208338
-0.00405786 -0.0327034 0.230317 -0.997098 0.0694391 0.0312009
-0.101021 -0.0552018 0.142305 0.0740324 0.97525 0.208343
-0.0400816 -0.0529554 0.238538 -0.965523 0.258653 -0.0293777
-0.00569309 -0.0287166 0.181109 0.996695 -0.0751781 -0.0307682
0.296106 -0.0813266 0.576466 0.397681 0.166258 0.902335
0.00432694 -0.0754283 0.64962 -0.200331 -0.976899 -0.0744031
0.00438273 -0.0292462 0.234681 0.258815 0.965907 0.0062439
0.110551 -0.0678572 0.657674 0 1 0
-0.0263202 -0.0589816 0.922697 -0.671808 0.672388 0.310756
0.318728 -0.0770249 0.566028 0.381163 0.242324 0.892185
0.106901 -0.0610328 0.0957013 -0.0740466 -0.975256 -0.20831
0.0745058 -0.0811127 0.681353 0.419967 0.205041 0.884073
0.398688 -0.081131 0.524585 0.289225 0.951727 -0.102782
0.0016492 0.103624 0.109381 -0.9971 0.0694111 0.0311898
0.00784554 -0.0339107 0.860383 0.258024 0.963161 0.0757919
-0.00949215 -0.0552552 0.122925 0.996695 -0.0751692 -0.0307903
-0.00190231 0.00528112 0.218426 0.996622 -0.0722461 -0.0390577
0.0436189 -0.0603737 0.429631 0.965927 0.258812 -0.00136427
0.0480769 -0.0789338 0.759069 0.965928 -0.258812 -9.59723e-06
0.0340153 -0.110303 0.736394 0.707113 -0.7071 0.000860217
-0.0497186 -0.0801595 0.821402 -0.962051 -0.257617 0.08995
-0.0279322 -0.0380968 0.831515 -0.704811 0.705006 0.0787906
-0.0449401 -0.0546764 0.493916 -0.965922 0.258831 -0.00136152
-0.0372603 -0.0794227 0.912606 -0.937179 -0.250659 0.242621
0.028529 -0.0687732 0.159796 -0.0740313 -0.975259 -0.208303
0.0304724 -0.0697838 0.675296 -0.201363 0.976899 0.0715637
-0.365855 -0.0830687 0.516674 0 1 0
-0.0510009 -0.078874 0.546015 -0.965924 -0.25882 0.00136298
0.0998527 -0.0678572 0.60284 0 1 0
-0.0314425 -0.11265 0.34505 -0.704864 -0.70506 -0.0778223
0.0148319 -0.123026 0.809412 0.258813 -0.965926 0.00135551
-0.0454853 -0.0768722 0.272504 -0.964416 -0.258522 -0.0553883
0.0876227 -0.0698925 0.144031 -0.0740387 -0.975258 -0.208305
0.048746 -0.0929649 0.228892 0.25815 0.963656 0.068742
-0.0451446 -0.0736874 0.251708 -0.964416 -0.258522 -0.0553883
0.0283286 -0.0441702 0.149354 0.70648 0.706395 -0.0434977
0.258823 -0.0791244 0.550337 -0.213143 0.494089 -0.84288
-0.00407019 0.0101005 0.134698 -0.997099 0.0694181 0.0312174
-0.0422142 -0.0800234 0.696935 0.426577 -0.215505 -0.878402
0.0171634 -0.0326374 0.229443 0.2588 0.965919 0.00487988
-0.00238885 -0.0351327 0.206719 0.960759 -0.277236 0.00912073
0.0261827 -0.0412289 0.172717 0.706948 0.706904 -0.0226327
-0.103113 -0.0809037 0.580979 -0.186688 -0.517319 0.835182
-0.0482494 -0.0658004 0.167049 0.707179 0.707029 -0.00269144
0.00592297 -0.0770142 0.704919 -0.201358 0.976899 0.0715723
-7.3901e-05 0.0950465 0.0977668 -0.616003 -0.0491805 -0.786207
0.00311229 0.0236096 0.137915 0.9971 -0.06942 -0.0311895
-0.0781994 -0.0465998 0.0939224 0.0740406 0.975257 0.208305
-0.043326 -0.0792774 0.246133 -0.964416 -0.258521 -0.0553882
0.285108 -0.0830687 0.560512 0 -1 0
-0.0503661 -0.0802667 0.373333 -0.964416 -0.258522 -0.0553883
0.0640713 -0.083994 0.161096 0.964985 0.258541 -0.0442901
-0.127732 -0.0678572 0.611537 0 -1 0
-0.0283103 -0.0830687 0.701498 0 1 0
0.00128769 -0.0830687 0.635509 0 1 0
0.0258102 -0.0371804 0.512935 0.707088 0.707122 -0.00222849
-0.0474365 -0.092245 0.450373 -0.965925 -0.25882 -0.000360068
-0.0563154 -0.0358075 0.109128 -0.0761928 -0.966159 -0.246436
0.131064 -0.0861365 0.634127 -0.703717 -0.703483 0.0994723
0.358612 -0.0708898 0.545704 0.179342 0.98172 -0.0637329
0.00161032 0.101787 0.0989313 0.996695 -0.0751672 -0.0308208
-0.0371777 -0.060035 0.182402 0.460222 -0.195904 -0.86592
0.0316983 -0.0524606 0.0874691 0.0345264 0.668535 -0.742879
-0.10545 -0.0792626 0.581498 -0.183917 -0.527578 0.829359
0.0163443 -0.0328988 0.303912 0.258829 0.965903 0.00624613
0.0570099 -0.0617553 0.116817 -0.0740613 -0.975248 -0.20834
0.00101231 -0.0291593 0.360933 0.258812 0.965908 0.00624416
0.0821486 -0.0678572 0.633942 0 1 0
0.0596064 -0.0678642 0.605624 0.00619756 0.999978 -0.00230945
0.279654 -0.0830687 0.573793 0 -1 0
-0.00720419 -0.055317 0.100431 0.960759 -0.277234 0.00910178
-0.00433561 -0.0260652 0.206674 -0.997099 0.0694243 0.0312004
0.00315437 -0.0289391 0.803499 0.258801 0.965928 -0.00237507
0.0549024 -0.0719797 0.145833 0.258887 0.965851 0.0104552
-0.103277 -0.0444791 0.0929067 0.0740396 0.975258 0.208304
-0.0409646 -0.0493059 0.715697 -0.707085 0.707126 -0.00187115
-0.402848 -0.0829684 0.513976 0.28774 -0.951727 0.10687
-0.0377318 -0.0807355 0.909429 -0.937179 -0.250659 0.242621
-0.0044074 0.0189969 0.104132 -0.997098 0.0694183 0.0312423
0.133891 -0.106837 0.648786 0.258841 -0.965906 0.00526265
0.0364913 -0.054037 0.218073 0.963583 0.25805 -0.0701222
-0.0448156 -0.0544816 0.442591 -0.965922 0.258831 -0.00136152
0.0136271 -0.0322378 0.534944 0.258837 0.965921 -0.00100363
-0.167377 -0.0678572 0.595393 0 -1 0
-0.00615903 0.00246022 0.207718 -0.953816 0.224454 0.199639
-0.00340963 0.00688797 0.1681 0.996695 -0.0751665 -0.030794
0.0375892 -0.0486885 0.715288 0.707083 0.707128 -0.0018756
-0.00105861 0.0482345 0.146085 -0.997099 0.0694246 0.0312044
-0.0126819 -0.0647654 0.057499 -0.678172 -0.678768 -0.281703
0.0277091 -0.0388199 0.710928 0.707124 0.707088 -0.00187552
0.10579 -0.0869595 0.639855 -0.707296 -0.706917 0.000899531
-0.00192313 -0.0286078 0.352157 -0.258815 0.965907 0.00624415
0.0188668 -0.0464117 0.0613362 0.957305 0.256218 -0.133867
0.0426046 -0.0564976 0.446825 0.965927 0.258812 -0.00136427
-0.00781508 0.0295419 0.117303 -0.996695 0.0751638 0.030824
0.171735 -0.0830687 0.588923 0 -1 0
0.013271 -0.0322086 0.324525 0.258798 0.965911 0.00624413
0.0181755 -0.122527 0.590713 0.258806 -0.965925 0.00272957
-0.0708047 -0.0614817 0.160966 0.0740463 0.975256 0.20831
0.0453481 -0.0830687 0.646401 0 -1 0
-0.00643896 -0.126755 0.387591 -0.258827 -0.965923 0.00100236
0.124369 -0.060793 0.08837 -0.0740576 -0.975248 -0.208345
-0.0957031 -0.0536364 0.133087 0.0740354 0.975254 0.208322
0.0494085 -0.0833226 0.593908 -0.00621184 -0.999978 0.00220768
0.016263 -0.0830687 0.61532 0 -1 0
0.0625657 -0.0678572 0.631949 0 1 0
-0.233539 -0.0830687 0.558538 0 1 0
-0.0126544 -0.111067 0.229549 -0.253678 -0.947116 -0.196518
0.00178085 -0.00790337 0.165483 0.997101 -0.0694151 -0.0311774
-0.0364081 -0.0460724 0.312663 -0.707097 0.707084 -0.00679719
0.138178 -0.0735644 0.581241 -0.122718 0.704909 -0.698601
0.234278 -0.06909 0.565598 -0.17814 0.687001 -0.704483
-0.0474953 -0.0637117 0.802235 -0.965922 0.25883 -0.00100518
-0.102638 -0.0678572 0.608471 0 -1 0
0.0326124 -0.0559741 0.157642 0.963585 0.258045 -0.0701215
-0.063063 -0.0678572 0.635099 0 -1 0
-0.00794283 -0.0715686 0.63198 -0.200331 -0.976899 -0.0744046
-0.0356329 -0.111514 0.677731 -0.707104 -0.70711 0.000859838
-0.000140677 0.0529636 0.173573 -0.899127 0.30938 0.309604
-0.00562636 -0.000334021 0.108182 -0.997099 0.069432 0.0311915
-0.00199617 -0.127881 0.449596 -0.258827 -0.965923 0.00100236
-0.0536331 -0.0736268 0.108582 0.23022 -0.86037 -0.454711
-2.80668e-05 -0.028529 0.582871 0.25882 0.965925 -0.00100303
-0.0675624 -0.0792943 0.182121 -0.965929 -0.258806 -0.000800714
0.0430828 -0.0791581 0.289355 0.964418 -0.258517 -0.0553868
-0.0269024 -0.120101 0.795754 -0.707104 -0.70711 0.000859838
-0.00459081 -0.019012 0.193098 0.996694 -0.0751809 -0.0307966
-0.0103673 -0.0251725 0.168257 -0.996694 0.0751881 0.0307734
0.14406 -0.0750535 0.578706 -0.122718 0.704909 -0.698601
-0.137637 -0.0457656 0.111143 0.0740915 0.975273 0.208216
0.123731 -0.0474859 0.095244 -0.147501 0.774561 -0.615059
0.00207221 0.0943595 0.143502 -0.997099 0.0694254 0.0312031
0.138159 -0.0830687 0.607468 0 -1 0
-0.042652 -0.089413 0.281705 -0.964416 -0.258521 -0.0553882
0.145207 -0.0486656 0.0947056 0.47947 0.876627 0.0404221
-0.00344017 -0.00349858 0.100156 0.75468 -0.0476029 -0.654364
-0.0314679 -0.106257 0.287359 -0.704882 -0.705043 -0.0778174
0.0129465 -0.123539 0.803334 0.258813 -0.965926 0.00135551
0.126926 -0.0662068 0.119526 0.498387 -0.0544446 0.865243
-0.0778517 -0.0678572 0.652267 0 -1 0
-0.0010537 0.105081 0.126741 -0.976906 0.21362 0.00465735
-0.0175532 -0.0324429 0.638965 -0.258807 0.965929 -0.00100594
-0.00785406 0.00337719 0.179906 -0.996695 0.0751672 0.0307972
-0.0116569 -0.116811 0.287098 -0.257708 -0.961955 -0.0907159
-0.00803592 -0.0292041 0.106463 0.996695 -0.075177 -0.0307799
-0.04628 -0.0552642 0.12314 0.0740472 0.975257 0.208304
-0.0350571 -0.0832059 0.602884 -0.00617995 0.999978 -0.00229526
0.0273514 -0.045852 0.132668 0.960297 0.257069 -0.108372
-0.389369 -0.0782784 0.519451 0.28776 -0.95173 0.106794
-0.0555236 -0.0901858 0.201142 -0.258788 -0.965929 0.00317248
0.0626175 -0.0624407 0.118032 -0.0740438 -0.975249 -0.208346
0.000855309 -0.109859 0.934025 0.254138 -0.948273 0.190243
-0.0252868 -0.121435 0.564255 -0.258791 -0.96593 0.0027307
-0.0394429 -0.0495337 0.268293 -0.707097 0.707084 -0.00679709
-0.0246942 -0.102972 0.918136 -0.691621 -0.691171 0.209626
-0.00293096 0.0400105 0.177807 -0.94555 0.257885 0.19857
0.117388 -0.0678572 0.652563 0 1 0
-0.00727266 -0.030125 0.0386307 -0.258759 0.965756 -0.0189496
-0.0247598 -0.0459589 0.144244 -0.5235 -0.790976 -0.316709
-0.00552317 -0.0451473 0.177373 0.91567 -0.400484 0.0340852
0.00150098 -0.0517888 0.0898865 -0.0740456 -0.975257 -0.208307
0.0352783 -0.0707145 0.178628 0.958372 -0.257024 -0.124343
-0.184252 -0.0678572 0.616071 0 -1 0
-0.0419536 -0.0514426 0.3309 -0.707097 0.707084 -0.00679709
0.0227686 -0.058171 0.165414 -0.38931 0.854478 0.343954
0.0275382 -0.04155 0.20503 0.706943 0.706908 -0.0226322
0.119816 -0.0937207 0.627678 -0.942967 -0.253154 -0.216162
-0.00840252 0.011156 0.143169 -0.996697 0.0751574 0.0307634
0.119676 -0.0830687 0.591081 0 -1 0
0.0120886 -0.0343217 0.0564434 0.705834 0.705716 -0.0613446
0.00464515 0.028788 0.17358 0.996514 -0.0725376 -0.0412006
0.045277 -0.0893849 0.810715 0.965925 -0.258824 -7.62316e-06
-0.0112653 -0.0148077 0.113889 -0.996695 0.0751732 0.0308045
-0.00877211 -0.125735 0.608396 -0.258806 -0.965926 0.00273356
0.044695 -0.0637558 0.749515 0.965924 0.258823 -0.00101064
-0.00115119 0.0577151 0.122035 -0.997099 0.0694233 0.0312126
-0.0842944 -0.0373319 0.101461 -0.064787 -0.822616 0.564895
0.000350139 0.0633563 0.157453 -0.997098 0.0694356 0.03121
0.0217732 -0.043785 0.0881418 0.960297 0.257069 -0.108372
-0.0672868 -0.080293 0.172425 -0.965916 -0.258855 -0.000815114
-0.0268243 -0.035398 0.559252 -0.707107 0.707106 -0.000503882
0.00632145 -0.125993 0.440068 0.258806 -0.965929 0.00100237
0.0819892 -0.0528517 0.139276 0.0740174 0.975266 0.208275
-0.0407817 -0.106465 0.631129 -0.707103 -0.707107 0.00222844
0.0683446 -0.0761993 0.593108 -0.149121 0.718349 -0.679513
0.0727986 -0.0813954 0.58829 -0.174884 0.517314 -0.837736
0.00275563 0.00273495 0.172957 0.997098 -0.0694429 -0.0312096
0.0406425 -0.0793255 0.247644 0.964418 -0.258517 -0.0553868
-0.0498033 -0.0732111 0.420631 -0.965924 0.258823 -0.00136298
-0.0196701 -0.122604 0.712757 -0.258819 -0.965925 0.00136015
-0.113825 -0.0322405 0.112382 -0.0740307 -0.975259 -0.208302
0.0414793 -0.103327 0.376458 0.704874 -0.705051 -0.0778207
-0.00686551 -0.0211704 0.114946 -0.9971 0.0694141 0.0312075
0.0354634 -0.0702048 0.607243 -0.164053 0.759974 -0.628908
0.030645 -0.114289 0.402728 0.707094 -0.70712 0.000504429
-0.0116379 -0.0830687 0.70645 -0.322261 0.939696 0.114534
-0.0061353 -0.0262248 0.160706 0.996695 -0.0751668 -0.0308013
0.0112586 -0.0391456 0.0208367 0.957293 0.256263 -0.133867
0.149029 -0.0680661 0.584882 -0.122822 0.70474 -0.698754
-0.0374409 -0.054723 0.889442 -0.671783 0.672409 0.310763
-0.038122 -0.0365882 0.105168 -0.0582495 -0.977323 -0.203585
0.0227211 -0.11002 0.267194 0.704874 -0.705051 -0.0778207
-0.010838 -0.103815 0.950844 -0.248656 -0.927521 0.279062
0.0435895 -0.0895719 0.346783 0.964419 -0.258511 -0.0553875
-0.0854969 -0.0349067 0.114795 -0.0740689 -0.975278 -0.208197
-0.0114584 -0.0308706 0.306973 -0.258806 0.965909 0.00624514
-0.0387603 -0.108399 0.667066 -0.707104 -0.70711 0.000859838
-0.00925309 0.00343087 0.13449 -0.996696 0.0751522 0.0308016
-0.029255 -0.11829 0.536366 -0.707115 -0.707095 0.00223149
-0.232848 -0.0678572 0.584572 0 -1 0
0.0335535 -0.0986629 0.262418 0.70488 -0.705045 -0.0778218
0.0448312 -0.0831843 0.33859 0.964419 -0.258511 -0.0553875
0.044829 -0.0645076 0.50219 0.965927 0.258809 -0.00136366
-0.00575305 -0.0216876 0.162003 0.996695 -0.0751668 -0.0308013
0.0240113 -0.0352388 0.666882 0.707107 0.707104 -0.00187332
0.047924 -0.0795064 0.806561 0.965925 -0.258824 -7.62316e-06
0.0265746 -0.10924 0.295031 0.704874 -0.705051 -0.0778207
-0.00272362 0.017945 0.163314 0.996695 -0.0751737 -0.0307772
-0.00917931 0.001262 0.142174 -0.996695 0.0751829 0.0307587
0.00206961 -0.0802151 0.702998 -0.320621 -0.939691 -0.119091
0.34814 -0.0830687 0.534678 0 -1 0
-0.0486824 -0.0685708 0.545832 -0.965922 0.258834 0.000362635
-0.00424453 -0.0193702 0.194685 -0.9971 0.0694175 0.0311919
-0.0668084 -0.0690486 0.600301 -0.15863 -0.718402 0.677299
0.0688627 -0.0830687 0.603899 0 -1 0
-0.00506787 -0.0288076 0.765049 -0.258815 0.965924 -0.00237506
0.0742941 -0.0830687 0.660594 0 -1 0
0.0190043 -0.11325 0.278038 0.257708 -0.961955 -0.0907155
0.0384506 -0.0573123 0.237195 0.965525 0.258649 -0.0293763
0.00216434 -0.061333 0.146636 -0.581528 0.719437 0.379785
0.040342 -0.0678572 0.655514 0 1 0
-0.041989 -0.105148 0.685944 -0.707115 -0.707098 0.00086244
0.0390367 -0.0804319 0.169484 -0.965928 0.258804 -0.00181588
-0.0243265 -0.0991137 0.932069 -0.691598 -0.691201 0.209604
0.00769409 -0.125663 0.40366 0.258822 -0.965925 0.000999299
-0.00723534 -0.0352871 0.134536 -0.997099 0.0694152 0.0312301
-0.0594147 -0.089105 0.212703 -0.258854 -0.965911 0.00319198
-0.00252477 -0.0065223 0.227807 0.99635 -0.079948 -0.0299138
0.038014 -0.0841289 0.197211 -0.965916 0.258856 0.000814415
-0.202095 -0.0678572 0.583447 0 -1 0
-0.0449527 -0.100883 0.761934 -0.965925 -0.258823 -4.58086e-06
-0.0311182 -0.103094 0.896536 -0.691599 -0.6912 0.209605
0.0475625 -0.0814982 0.53028 0.965928 -0.258808 0.00136366
-0.00639993 -0.0363972 0.163697 -0.9971 0.0694232 0.0311908
0.0429441 -0.0571884 0.757954 0.965928 0.258808 -0.00100817
-0.0101315 -0.0194941 0.162024 -0.996695 0.0751644 0.0308289
-0.0351563 -0.0830687 0.632023 0 -1 0
-0.00474834 -0.0011123 0.144301 0.996696 -0.0751578 -0.0307808
-0.0182004 -0.0324495 0.714986 -0.258807 0.965926 -0.00237589
-0.0367152 -0.0902686 0.903507 -0.937181 -0.250643 0.24263
0.141971 -0.0731795 0.580963 -0.122718 0.704909 -0.698601
-0.21112 -0.080436 0.613131 0.442076 -0.199256 -0.874566
-0.00269704 0.078098 0.140751 -0.944921 0.18901 0.267208
-0.036608 -0.110508 0.70295 -0.707104 -0.70711 0.000859838
0.159213 -0.0857076 0.598417 0.964782 -0.258539 -0.048511
-0.0123311 -0.0324145 0.0494484 -0.705842 0.705708 -0.0613468
0.153555 -0.0614772 0.0811997 -0.0740268 -0.975267 -0.208266
0.0531916 -0.0465916 0.120205 0.074054 0.975255 0.208313
-0.022395 -0.0332792 0.225281 -0.258809 0.965916 0.00487775
-0.262619 -0.0830687 0.5679 0 1 0
-0.0158828 -0.123497 0.799427 -0.258819 -0.965925 0.00136015
-0.0312315 -0.116391 0.499495 -0.707115 -0.707098 0.000506428
0.0326639 -0.0441593 0.473094 0.707107 0.707103 -0.00223153
0.0749903 -0.0639988 0.120928 -0.0740358 -0.975258 -0.208306
0.0275633 -0.11735 0.430993 0.707105 -0.707108 0.000501276
-0.0252463 -0.036119 0.837845 -0.704833 0.704985 0.0787849
-0.0496564 -0.0833277 0.707914 -0.965923 -0.258831 -5.93033e-06
0.044973 -0.0959477 0.170639 -0.25883 -0.965923 0.000564996
-0.0546417 -0.0806413 0.25197 0.255086 -0.951867 0.169944
-0.0298174 -0.0854827 0.935096 -0.937182 -0.250644 0.242627
-0.018598 -0.0800657 0.601119 -0.217273 -0.570777 0.791837
-0.0564452 -0.0669492 0.246319 0.25674 -0.958073 0.127205
0.00572658 0.0998 0.0981009 0.651391 -0.137849 -0.746115
-0.353485 -0.0830687 0.521132 0 1 0
0.0130873 -0.0357002 0.0520772 0.705856 0.705694 -0.0613486
0.0108085 -0.0926484 0.144715 0.248605 -0.9283 -0.276504
0.118792 -0.0830687 0.639591 0 -1 0
0.321879 -0.0830687 0.558013 0 -1 0
0.0260786 -0.0371895 0.710897 0.707107 0.707104 -0.00187332
0.00635544 -0.0303296 0.50833 0.258826 0.96592 -0.00273009
-0.033625 -0.0423847 0.466392 -0.70709 0.70712 -0.00222899
-0.0192111 -0.0326903 0.727208 -0.258807 0.965926 -0.00237589
-0.138053 -0.0305137 0.112908 -0.0741116 -0.975275 -0.208197
-0.0125505 -0.0683228 0.173854 -0.696979 -0.630511 -0.341579
-0.033151 -0.0421766 0.382062 -0.70709 0.70712 -0.00222899
0.116417 -0.0830687 0.64961 0 -1 0
0.0161383 -0.123422 0.383381 0.258822 -0.965925 0.000999299
-0.0321185 -0.0414645 0.34576 -0.70708 0.707101 -0.00679365
0.0345502 -0.0459052 0.524909 0.707107 0.707106 -0.000501305
-0.0460348 -0.096844 0.743112 -0.965925 -0.258823 -4.58086e-06
0.0380016 -0.0841862 0.200614 -0.965916 0.258856 0.000814415
0.0396432 -0.0781126 0.177485 -0.965916 0.258851 -0.00180223
-0.00587398 -0.0104256 0.122726 -0.9971 0.0694157 0.0312072
-0.196254 -0.0830687 0.587159 0 1 0
-0.0472928 -0.0639793 0.394497 -0.965924 0.258823 -0.00136298
-0.0252253 -0.0693111 0.181421 0.0740313 0.975255 0.20832
-0.145887 -0.0455995 0.120482 0.426919 0.00986619 -0.904236
0.00931953 -0.124624 0.723213 0.258813 -0.965926 0.00135551
-0.029039 -0.0372741 0.75569 -0.707087 0.707125 -0.00187336
0.101463 -0.0491445 0.114999 0.0740377 0.975257 0.208308
-0.0174378 -0.032576 0.502927 -0.258807 0.965925 -0.00273069
-0.0338642 -0.042411 0.597034 -0.707107 0.707106 -0.000503871
0.0410556 -0.0870793 0.139374 -0.948798 -0.254572 -0.187015
-0.0329179 -0.114246 0.663272 -0.707104 -0.70711 0.000859838
-0.0186764 -0.123442 0.420183 -0.258806 -0.965929 0.000998187
-0.00241331 -0.0514898 0.121119 -0.523473 -0.791007 -0.316676
-0.0513773 -0.0869562 0.249842 -0.258192 0.963645 0.0687416
-0.0663314 -0.0704885 0.198076 -0.707189 0.707024 -5.85675e-05
0.0272988 -0.117453 0.547844 0.707113 -0.707097 0.00222842
-0.00539708 -0.0363426 0.195619 -0.997099 0.0694279 0.0311899
0.277428 -0.0830687 0.543711 0 -1 0
-0.00525433 0.00829177 0.100888 -0.997098 0.0694183 0.0312423
0.0459992 -0.0693571 0.410747 0.965927 0.258812 -0.00136427
0.00227197 -0.0513537 0.0155771 0.167726 -0.62588 -0.761671
0.0582301 -0.0830687 0.607184 0 -1 0
-0.0500335 -0.0737951 0.472809 -0.965924 0.258823 -0.00136298
-0.0141044 -0.0312663 0.749872 -0.258824 0.965922 -0.00237588
-0.177909 -0.0687874 0.576701 -0.132665 -0.704746 0.696946
0.096873 -0.0809209 0.583557 -0.174884 0.517314 -0.837736
0.000641936 0.0746497 0.14165 -0.9971 0.0694233 0.031191
-0.0218509 -0.122425 0.539503 -0.258806 -0.965926 0.00273356
0.0173142 -0.0466926 0.909616 0.671796 0.672395 0.310765
-0.0121977 -0.0456351 0.913021 -0.244308 0.912451 0.328249
0.190491 -0.0678572 0.607736 0 1 0
-0.342437 -0.0724772 0.525678 -0.24097 -0.629427 0.738753
0.00144515 -0.0127452 0.165529 0.997099 -0.0694322 -0.0311742
-0.000469298 0.0764495 0.102143 -0.997099 0.0694324 0.0311944
-0.151061 -0.0429729 0.10284 0.0740509 0.975254 0.208319
-0.0592798 -0.068732 0.238614 0.256822 -0.95805 0.127207
-0.311082 -0.0809192 0.530162 -0.285908 -0.426796 0.857964
-0.0264095 -0.0988168 0.204769 -0.696595 -0.696931 -0.170418
0.389757 -0.0830687 0.525657 0 -1 0
-0.019273 -0.123143 0.529796 -0.258806 -0.965926 0.00273356
-0.00988711 -0.0609647 0.136893 0.0740274 0.975252 0.208335
-0.000791243 -0.0305111 0.178913 0.960758 -0.277238 0.00910958
0.0375878 -0.0490494 0.483847 0.707107 0.707103 -0.00223151
0.0460476 -0.0865105 0.652062 0.965927 -0.25881 0.00136389
-0.0176702 -0.0318597 0.194872 -0.258809 0.965916 0.00487775
0.120601 -0.0830687 0.606754 0 -1 0
-0.0476827 -0.0649474 0.622763 -0.965925 0.258822 0.000360256
0.0285105 -0.0666401 0.149816 -0.0740353 -0.975256 -0.208314
0.0293769 -0.115568 0.387114 0.707094 -0.70712 0.000504429
-0.0675666 -0.0763234 0.158954 -0.965002 0.258476 -0.0442966
0.0444272 -0.092787 0.608596 0.965927 -0.25881 0.00136389
-0.0053359 -0.0348667 0.238234 -0.980286 -0.182033 0.0768316
0.0219401 -0.0830687 0.685372 0 -1 0
0.0730033 -0.0538363 0.14708 0.0740424 0.975255 0.208316
-0.0453004 -0.0836722 0.858595 -0.962054 -0.257605 0.0899538
0.00647638 0.0782059 0.137719 0.953941 0.0925589 0.285358
-0.00120313 0.0369124 0.166655 -0.9971 0.0694099 0.0312029
0.0479868 -0.0919113 0.231641 -0.248536 -0.926894 0.281244
-0.00335099 -0.0191471 0.233551 0.996695 -0.0751662 -0.0307989
0.177802 -0.0830687 0.573264 0 -1 0
-0.043553 -0.0730237 0.247949 0.958022 0.257 0.127062
-0.00704423 0.00281948 0.203085 -0.953816 0.224454 0.199639
-0.00172803 0.0437646 0.13251 0.996696 -0.0751677 -0.0307805
0.0477881 -0.0806235 0.436953 0.965928 -0.258809 -0.000363414
0.343622 -0.0686027 0.538755 0.17933 0.981721 -0.0637593
-0.118929 -0.0830687 0.589291 0 1 0
-0.0675274 -0.0528668 0.119469 0.0740459 0.975252 0.208329
-0.144342 -0.0441826 0.106115 0.0740509 0.975254 0.208319
-0.0662328 -0.0424751 0.14338 -0.0740324 -0.97525 -0.208341
-0.017981 -0.0598844 0.0584968 -0.678223 -0.678724 -0.281687
-0.129253 -0.0799336 0.654097 0.433159 -0.204167 -0.877889
-0.0480285 -0.0661135 0.533673 -0.965922 0.258834 0.000362635
-0.0333935 -0.0689315 0.142966 -0.949796 -0.254836 -0.181512
-0.0757942 -0.0579678 0.146289 0.0740253 0.975251 0.208338
-0.0480522 -0.0659891 0.751034 -0.965922 0.25883 -0.00100518
-0.0447016 -0.0574408 0.350892 -0.965521 0.258662 -0.0293759
0.0259937 -0.118525 0.621723 0.707113 -0.707097 0.00222842
0.10153 -0.0649941 0.116155 -0.0740197 -0.975258 -0.208308
0.0478518 -0.0797743 0.771086 0.965928 -0.258812 -9.59723e-06
0.000692302 -0.0895497 0.125217 0.248605 -0.9283 -0.276504
-0.0124626 -0.0305102 0.203952 -0.258842 0.965907 0.00487827
0.0153866 -0.0769498 0.962437 0.868323 0.233542 0.437576
-0.00218624 0.0308669 0.149172 0.996695 -0.0751726 -0.0307779
0.00936371 -0.03016 0.14938 0.258809 0.965911 -0.00573232
-0.0100666 -0.121803 0.844741 -0.257618 -0.961254 0.0981044
0.0169803 -0.0694878 0.633298 -0.201359 0.976899 0.071573
0.145742 -0.0637409 0.094574 -0.0740844 -0.975238 -0.20838
-0.0634746 -0.08664 0.196225 -0.707136 -0.707072 0.00268871
0.00922905 -0.0313681 0.413336 0.25882 0.965922 -0.00272947
0.0969907 -0.0830687 0.66327 0 -1 0
-0.0137144 -0.0441923 0.121573 -0.523492 -0.790984 -0.316703
0.0377372 -0.0486743 0.776469 0.707107 0.707104 -0.00187334
0.0385931 -0.0866191 0.225373 -0.965913 -0.258865 -0.00027948
-0.0182799 -0.0325777 0.129626 -0.70648 0.706395 -0.0434916
-0.0214841 -0.121997 0.798972 -0.258819 -0.965925 0.00136015
-0.0379837 -0.0469467 0.401866 -0.707107 0.707103 -0.00222947
-0.0143719 -0.0594496 0.131394 0.0740274 0.975252 0.208335
0.125406 -0.0834609 0.619681 -0.6974 0.697155 -0.166158
0.00589487 -0.126147 0.40185 0.258822 -0.965925 0.000999299
-0.00483454 -0.0326234 0.100748 0.772311 -0.0622157 -0.632191
0.0126031 -0.0319813 0.517698 0.258837 0.965921 -0.00100363
-0.144663 -0.0678572 0.600194 0 -1 0
0.138491 -0.091994 0.619829 0.778814 -0.209923 -0.591085
-0.100372 -0.0830687 0.621568 0 1 0
-0.00721495 -0.0792525 0.687585 -0.322254 0.939697 0.114553
-0.008438 -0.0521191 0.112948 -0.581562 0.719419 0.379767
-0.253618 -0.0830687 0.58849 0 1 0
0.0230096 -0.0421033 0.88674 0.704853 0.704965 0.0787845
0.278584 -0.068593 0.553795 -0.238122 0.61754 -0.749628
0.00378967 -0.0294327 0.672015 0.25882 0.965923 -0.00237664
-0.0424759 -0.0800253 0.220528 0.965934 -0.25879 -0.000275261
0.0166238 -0.122643 0.73991 0.258786 -0.965934 0.00136017
-0.309151 -0.0821015 0.566872 0.401314 -0.148502 -0.903822
-0.0221063 -0.0968463 0.945682 -0.67137 -0.670773 0.315159
-0.329297 -0.0827804 0.558038 0.40132 -0.148472 -0.903824
0.0606926 -0.0759356 0.160912 0.707062 0.707086 -0.00961087
0.00461385 -0.117749 0.889667 0.254211 -0.948263 0.190197
0.0425379 -0.0996028 0.668872 0.965928 -0.258812 -9.59723e-06
0.0147915 -0.0499818 0.921121 0.244341 0.91244 0.328253
0.279705 -0.0830687 0.560185 0 -1 0
-0.00436272 -0.0436222 0.15658 0.960763 -0.27722 0.00912611
-0.0262657 -0.0366795 0.234664 -0.707101 0.70708 -0.00679741
0.0402504 -0.0532474 0.83222 0.7048 0.705018 0.0787827
-0.182627 -0.0678572 0.619698 0 -1 0
0.00330304 0.00710871 0.180719 0.997099 -0.0694305 -0.0311884
-0.045548 -0.0574306 0.401612 -0.965922 0.258831 -0.00136152
0.108541 -0.0809252 0.665132 0.420733 0.20409 0.883929
-0.125197 -0.08111 0.623029 0.25878 0.965616 0.0248531
-0.00314158 -0.127381 0.559515 -0.258806 -0.965926 0.00273356
-0.140371 -0.0480363 0.122745 0.0740457 0.975254 0.208317
-0.00445333 -0.0177427 0.18439 -0.9971 0.0694142 0.0312072
-0.0316084 -0.115797 0.580701 -0.707115 -0.707095 0.00223149
0.000128395 0.0781016 0.117568 -0.9971 0.0694174 0.0311945
0.156523 -0.0652683 0.0978932 -0.0740286 -0.975261 -0.208294
-0.0298071 -0.0830687 0.653619 0 -1 0
-0.211373 -0.0830687 0.597728 0 1 0
-0.21166 -0.0678572 0.578677 0 -1 0
-0.031334 -0.115698 0.771707 -0.707115 -0.707098 0.00086244
0.158687 -0.0678572 0.630439 0 1 0
-0.0309266 -0.116099 0.777512 -0.707115 -0.707098 0.00086244
0.00992054 -0.124719 0.597618 0.258786 -0.965931 0.00273358
0.0213172 -0.0344801 0.342382 0.258829 0.965903 0.00624613
0.0476078 -0.0813865 0.501153 0.965928 -0.258812 -0.000362873
0.396862 -0.0802436 0.527666 0.28923 0.951725 -0.102787
-0.103689 -0.0378382 0.134984 -0.0740048 -0.97525 -0.208354
0.0182047 -0.0527287 0.0596561 0.943257 -0.25314 -0.214909
-0.00648235 0.0119238 0.195511 -0.95196 0.23108 0.200931
-0.00614444 -0.00685343 0.106132 -0.997099 0.069432 0.0311915
0.0451131 -0.0900677 0.638873 0.965927 -0.25881 0.00136389
0.00413786 -0.0812333 0.705464 -0.320616 -0.939692 -0.119102
0.334956 -0.0678572 0.537511 0 1 0
0.0450694 -0.0907415 0.416346 0.965928 -0.258809 -0.000363414
0.139041 -0.0830687 0.631244 0 -1 0
-0.0114375 -0.0299233 0.145209 -0.996696 0.0751522 0.0308169
0.0272072 -0.109917 0.865592 0.703987 -0.703813 0.0951276
-0.295704 -0.0830687 0.551914 0 1 0
0.0931765 -0.0728167 0.669878 0.405177 0.329071 0.852961
0.00930589 -0.034355 0.0240422 0.705856 0.705694 -0.0613486
0.00245605 -0.0589476 0.123063 -0.0740602 -0.975251 -0.208329
0.106073 -0.0855536 0.640596 -0.943475 -0.252944 0.214184
0.0137629 -0.0321899 0.616043 0.258837 0.965921 -0.00100363
-0.0229046 -0.122246 0.480916 -0.258806 -0.965929 0.000998187
0.248408 -0.0830687 0.552876 0 -1 0
-0.172681 -0.038267 0.0924336 0.541813 -0.840389 0.013618
0.292667 -0.0705864 0.575413 0.381161 0.242327 0.892185
-0.109396 -0.0830687 0.653671 0 1 0
-0.00509454 -0.0200347 0.179286 0.996696 -0.075171 -0.0307695
0.0311495 -0.0427808 0.430038 0.707107 0.707103 -0.00223153
0.0447849 -0.0759589 0.304061 0.964418 -0.258517 -0.0553868
0.0610234 -0.0925109 0.225013 0.7071 -0.707113 0.000594873
0.104136 -0.076125 0.585518 -0.145552 0.713125 -0.685761
-0.00732794 0.0283606 0.135954 -0.996695 0.0751702 0.0307928
0.00200174 0.119024 0.124374 -0.953622 0.300758 -0.0122291
0.0280633 -0.106096 0.28003 0.70488 -0.705045 -0.0778218
-0.327 -0.0745895 0.528912 -0.24091 -0.629571 0.73865
-0.00306942 -0.090809 0.129103 -0.248567 -0.928309 -0.276507
0.00661155 -0.117101 0.283677 0.25771 -0.961954 -0.0907158
0.0543672 -0.0660431 0.13783 -0.0740576 -0.975256 -0.208308
0.0125606 -0.118123 0.311414 0.257708 -0.961955 -0.0907155
0.00247511 -0.0830687 0.677714 0 -1 0
-0.0424514 -0.0631739 0.15881 0.074053 0.975257 0.208303
0.0324015 -0.0830687 0.636011 0 -1 0
0.120192 -0.0828026 0.580424 -0.00717345 -0.999316 -0.0362672
-0.139096 -0.0678572 0.63134 0 -1 0
0.00525563 -0.126076 0.559575 0.258786 -0.965931 0.00273358
-0.0032307 -0.0404956 0.132377 0.960765 -0.277212 0.00913856
-0.0313403 -0.0662366 0.1692 0.0740429 0.975258 0.2083
0.031655 -0.0430056 0.531308 0.707088 0.707126 -0.000501344
0.126529 -0.102524 0.661795 0.692774 0.693172 0.198936
-0.00472725 -0.126895 0.581196 -0.258806 -0.965926 0.00273356
0.0640289 -0.0857005 0.233524 0.965916 -0.258854 -0.000258889
0.0435319 -0.0959918 0.634538 0.965927 -0.25881 0.00136389
-0.0208433 -0.0334108 0.556013 -0.258807 0.965928 -0.00100594
0.0502053 -0.0825767 0.239146 -0.25523 0.952244 0.167598
0.00209118 -0.0137751 0.219575 0.980318 0.0840988 0.178615
-0.000519119 0.0709148 0.112867 -0.997099 0.0694236 0.0312028
0.0359823 -0.108435 0.654407 0.707113 -0.7071 0.000860217
-0.0211076 -0.0331798 0.734809 -0.25884 0.965917 -0.00237339
0.0343197 -0.0467597 0.310733 0.707125 0.707056 -0.00679623
-0.0338242 -0.113295 0.700391 -0.707104 -0.70711 0.000859838
0.0287899 -0.116102 0.461254 0.707105 -0.707108 0.000501276
0.0341403 -0.110194 0.722786 0.707113 -0.7071 0.000860217
-0.107518 -0.0430488 0.139217 0.497111 -0.17544 -0.849765
-0.0550657 -0.0830687 0.675466 0 1 0
0.0155882 -0.0321956 0.225541 0.2588 0.965919 0.00487988
0.14161 -0.0830687 0.620263 0 -1 0
0.0355591 -0.047272 0.404182 0.707107 0.707103 -0.00223153
-0.0453534 -0.0657409 0.29923 -0.965523 0.258653 -0.0293777
0.0410797 -0.0523478 0.646921 0.707083 0.707131 -0.000503941
0.00648753 0.0832807 0.113013 0.997098 -0.0694284 -0.0312242
0.223217 -0.082011 0.557385 -0.190939 0.513062 -0.836845
-0.00143015 0.0204486 0.194941 -0.996126 0.0782936 0.0400512
0.037915 -0.0700301 0.162345 -0.0740508 -0.975254 -0.208318
0.0196918 -0.0771459 0.630803 -0.200331 -0.976899 -0.0744046
-0.221376 -0.0678572 0.596541 0 -1 0
-0.00297352 -0.0287978 0.338008 -0.258815 0.965907 0.00624415
-0.00740759 -0.118261 0.886434 -0.257653 -0.961243 0.098116
0.0149748 -0.123671 0.443664 0.258822 -0.965925 0.000999299
-0.00255362 -0.0277558 0.184326 -0.258808 0.965916 0.00488375
-0.017932 -0.0830687 0.678278 0 1 0
0.0434752 -0.0596864 0.458293 0.965927 0.258812 -0.00136427
0.00301367 -0.0682289 0.964986 0.221716 0.828564 0.514124
-0.0268585 -0.12083 0.405393 -0.707084 -0.70713 0.000498246
-0.00250196 -0.0388348 0.106108 0.960763 -0.27722 0.00911842
0.138922 -0.0678572 0.64274 0 1 0
-0.0179194 -0.0959968 0.163716 -0.253678 -0.947116 -0.196518
0.0112647 -0.0311077 0.805301 0.25882 0.965923 -0.00237664
0.058822 -0.0831106 0.599571 0.00978784 -0.99931 0.0358162
0.0976026 -0.0678572 0.646299 0 1 0
-0.0486382 -0.0871279 0.723559 -0.965923 -0.258831 -5.93033e-06
0.0431609 -0.0578928 0.784821 0.965924 0.258823 -0.00101064
0.0411015 -0.101756 0.360327 0.964419 -0.258511 -0.0553875
0.119028 -0.0900705 0.63735 -0.965944 0.258722 -0.00395795
-0.00578925 -0.0289015 0.805455 -0.258815 0.965924 -0.00237506
-0.0317865 -0.0401681 0.700402 -0.707107 0.707104 -0.00187597
-0.00278929 -0.00217126 0.210293 0.996695 -0.0751761 -0.0307992
-0.0254745 -0.0622879 0.0922017 -0.949787 -0.254863 -0.181522
-0.00694324 -0.0296347 0.605419 -0.258824 0.965924 -0.00100303
-0.0109449 -0.0301377 0.210726 -0.258842 0.965907 0.00487827
0.234192 -0.0704262 0.600947 0.415365 0.320457 0.85134
0.0686024 -0.0628743 0.117934 -0.074053 -0.975245 -0.208358
0.00358554 0.126788 0.119708 -0.997098 0.0694363 0.031198
-0.282531 -0.0691831 0.575689 0.393712 -0.242346 -0.886712
0.0072899 -0.0301183 0.774546 0.258801 0.965928 -0.00237507
0.0241097 -0.0384569 0.194548 0.706943 0.706908 -0.0226322
0.0569725 -0.0678572 0.674381 0 1 0
0.0160512 -0.0758941 0.624169 -0.200329 -0.976899 -0.074408
0.0411171 -0.0561683 0.334909 0.965525 0.258649 -0.0293763
-0.0297851 -0.117792 0.52625 -0.707115 -0.707095 0.00223149
0.0391219 -0.0512991 0.338084 0.707097 0.707084 -0.00679712
0.0256092 -0.11921 0.52663 0.707105 -0.707105 0.00223048
0.0161901 -0.0320405 0.162923 0.2588 0.965919 0.00487988
-0.0206356 -0.0332764 0.631571 -0.258807 0.965929 -0.00100594
-0.0124668 -0.0682841 0.960624 -0.616941 0.617931 0.487386
0.0125644 -0.0321697 0.445913 0.258838 0.965917 -0.00272946
0.24753 -0.0678572 0.588713 0 1 0
-0.00201626 -0.0645879 0.0462899 -0.245375 -0.915627 -0.318462
-0.0484224 -0.0675684 0.51358 -0.965922 0.258831 -0.00136152
-0.00368216 -0.0109864 0.194004 -0.9971 0.0694175 0.0311919
0.0396346 -0.0756594 0.696273 0.398133 0.344615 0.850136
0.0068626 -0.125769 0.516012 0.258806 -0.965925 0.00272957
-0.0376934 -0.099096 0.278865 -0.704864 -0.70506 -0.0778223
0.0130919 -0.0500604 0.0340725 0.943257 -0.25314 -0.214909
-0.0310575 -0.0392083 0.787484 -0.707087 0.707125 -0.00187336
-0.00159793 -0.0343699 0.146565 0.960762 -0.277224 0.00911788
-0.0441722 -0.0678572 0.631054 0 -1 0
0.0288606 -0.11568 0.614995 0.707113 -0.707097 0.00222842
0.000835815 -0.110903 0.928846 0.254138 -0.948273 0.190243
-0.00546696 -0.0830687 0.711982 0 1 0
0.0302442 -0.078737 0.615477 -0.320607 -0.939697 -0.119083
0.025036 -0.0362808 0.66033 0.707124 0.707088 -0.00187552
-0.0383495 -0.108772 0.698656 -0.707104 -0.70711 0.000859838
-0.0621812 -0.066277 0.233811 -0.70712 0.70709 -0.00213395
-0.0219791 -0.120536 0.355918 -0.257716 -0.961953 -0.0907145
-0.0496049 -0.0653181 0.204679 0.258848 0.965918 -0.000540026
-0.0053179 -0.124754 0.828303 -0.257618 -0.961254 0.0981044
-0.00804295 -0.126249 0.461179 -0.258827 -0.965923 0.00100236
0.00762361 -0.046498 0.119273 -0.38931 0.854486 0.343936
-0.00679011 -0.0300316 0.393567 -0.258824 0.965921 -0.00272719
0.00868169 -0.0742102 0.674407 -0.201359 0.976899 0.0715726
0.0294182 -0.0930647 0.918155 0.937184 -0.250632 0.24263
-0.0456408 -0.0568629 0.78376 -0.965922 0.25883 -0.00100518
0.0249923 -0.0417762 0.134044 0.70648 0.706395 -0.0434977
0.00169379 -0.0285853 0.788224 0.258801 0.965928 -0.00237507
0.00525977 -0.0301786 0.342553 0.258812 0.965908 0.00624416
-0.0256236 -0.102993 0.914999 -0.691621 -0.691171 0.209626
0.00136905 0.00589145 0.121633 0.997101 -0.0694077 -0.031192
0.10307 -0.0829658 0.588307 -0.00717345 -0.999316 -0.0362672
-0.0484443 -0.0885059 0.465957 -0.965922 -0.258833 -0.000362657
0.167684 -0.0830687 0.614529 0 -1 0
-0.0378689 -0.0918718 0.897394 -0.937181 -0.250643 0.24263
0.144236 -0.0678572 0.639934 0 1 0
-0.00694831 -0.045285 0.180927 0.996695 -0.0751568 -0.0308181
-0.00223699 -0.0326506 0.235936 0.915658 -0.400512 0.0340776
-0.0476401 -0.0908521 0.697294 -0.965925 -0.258823 -4.58086e-06
-0.124317 -0.0944907 0.667192 0.645127 0.64597 0.408086
-0.0206392 -0.122605 0.5906 -0.258791 -0.96593 0.0027307
0.0358452 -0.0998576 0.876089 0.703999 -0.703802 0.095122
-0.0495338 -0.0837841 0.661946 -0.965925 -0.258823 -4.58086e-06
0.263352 -0.0830687 0.558062 0 -1 0
-0.0159776 -0.123846 0.593583 -0.258791 -0.96593 0.0027307
0.0239472 -0.0418179 0.116392 0.70648 0.706395 -0.0434977
0.107758 -0.0688621 0.592326 -0.142585 0.717041 -0.682291
0.0254175 -0.119504 0.419328 0.707105 -0.707108 0.000501276
-0.0728629 -0.0537428 0.16149 0.476746 -0.180249 -0.860362
0.0408101 -0.100936 0.351426 0.964419 -0.258511 -0.0553875
-0.0406373 -0.107006 0.469242 -0.707115 -0.707098 0.000506428
-0.201403 -0.0678574 0.574101 -0.000100502 -1 0.000255141
0.164395 -0.0830687 0.628353 0 -1 0
0.0507646 -0.0678572 0.668261 0 1 0
0.0007517 -0.00692958 0.130431 0.9971 -0.0694227 -0.0311895
-0.037272 -0.0871565 0.206731 -0.958372 -0.257024 -0.124347
-0.0132996 -0.041057 0.899475 -0.244308 0.912451 0.328249
-0.0160052 -0.0466814 0.0307762 -0.943218 -0.253264 -0.214936
-0.0249855 -0.0343495 0.681683 -0.25884 0.965917 -0.00237339
-0.0746347 -0.0587352 0.161049 0.502846 -0.0578954 -0.862435
-0.260809 -0.081101 0.545071 -0.225025 -0.494061 0.839802
-0.00136097 0.0545249 0.122429 -0.997099 0.0694225 0.0312127
0.0459105 -0.0697088 0.373237 0.965524 0.258651 -0.0293765
-0.0255469 -0.120987 0.743169 -0.258819 -0.965925 0.00136015
