0.0426316 -0.0728407 0.869294 0.962054 -0.257607 0.0899495
-0.0376069 -0.0705336 0.903478 -0.93718 -0.250646 0.242632
0.0758146 -0.052635 0.561955 0 1 0
0.111137 -0.0768318 0.583939 0.362008 0.932175 -0.000417127
-0.0189673 -0.0179429 0.15722 -0.706943 0.706909 -0.0226318
0.0425995 -0.0465026 0.274989 0.965523 0.258655 -0.0293767
0.314418 -0.0679197 0.453185 0 -1 0
-0.00698565 -0.108181 0.83955 -0.257614 -0.961254 0.0981091
-0.31385 -0.0679197 0.449375 0 1 0
-0.00871071 -0.0152018 0.545587 -0.258845 0.965918 -0.00100563
0.04986 -0.0641404 0.67098 0.965924 -0.258824 -8.9201e-06
0.0392254 -0.0391246 0.0902658 -0.0441142 -0.982488 -0.181028
-0.0153311 -0.01686 0.65657 -0.258806 0.965926 -0.00237628
0.158905 -0.0769624 0.556638 0.981531 0.191234 0.0050744
-0.00391794 0.0696354 0.165378 -0.999405 0.0227327 -0.0259572
-0.061391 -0.0679197 0.552304 0 1 0
0.00552416 -0.0937187 0.940073 0.254166 -0.948271 0.190217
-0.0340828 -0.0817116 0.239882 -0.704887 -0.705038 -0.0778172
-0.0958685 -0.0887356 0.600599 0.983315 0.181909 -0.000195711
-0.0478857 -0.0696505 0.629423 -0.965927 -0.258811 0.00136374
-0.0431611 -0.0471126 0.305685 -0.965525 0.258648 -0.0293763
0.0323198 -0.0994149 0.405778 0.707105 -0.707108 0.000504544
0.197382 -0.0679197 0.459259 0 -1 0
0.02766 -0.0220274 0.469626 0.707094 0.707116 -0.00222957
0.0161393 -0.108289 0.736334 0.25882 -0.965925 0.00135933
-0.00448605 0.0259647 0.149048 -0.999403 0.0227126 -0.0260228
-0.0447816 -0.0441138 0.564701 -0.965928 0.258809 0.00035928
0.163728 -0.0679197 0.523934 0 -1 0
0.0476024 -0.0525623 0.709537 0.965926 0.258817 -0.00100773
0.0661793 -0.0333125 0.126421 0.0740224 0.975268 0.208262
-0.226223 -0.0679197 0.482194 0 1 0
-0.0155486 -0.0353745 0.0405704 -0.943219 -0.253262 -0.214935
-0.149688 -0.0925397 0.491939 -0.346043 -0.938218 -0.00128585
-0.0488561 -0.0596537 0.442103 -0.965927 0.258811 -0.00136375
0.0325981 -0.026757 0.596846 0.707094 0.707119 -0.000501492
-0.0314886 -0.0990141 0.804149 -0.707109 -0.707104 0.000859182
0.0453901 -0.081524 0.498854 0.965925 -0.25882 -0.000362743
-0.113989 -0.0679197 0.521069 0 1 0
0.144067 -0.0903364 0.488934 -0.808877 -0.587976 -0.00155911
-0.0870584 -0.0371469 0.125464 0.0740392 0.975257 0.208309
-0.0178374 -0.103262 0.32581 -0.257714 -0.961954 -0.0907147
0.345841 -0.0679197 0.424688 0 -1 0
-0.0270934 -0.0247696 0.847667 -0.704815 0.705003 0.0787884
-0.0037386 -0.0529597 0.139616 -0.97927 -0.188275 -0.0747144
-0.323341 -0.0615862 0.416621 -0.248652 -0.617564 0.746181
-0.0827135 -0.052635 0.502913 0 -1 0
-0.00582969 -0.111466 0.465633 -0.258825 -0.965924 0.00100448
-0.0228107 -0.0587568 0.591619 -0.200327 -0.976899 -0.0744171
-0.0129363 -0.0158423 0.238468 -0.258805 0.965909 0.00624469
0.0231352 -0.0910707 0.914006 0.691607 -0.691188 0.209619
0.0258977 -0.0968891 0.298396 0.704886 -0.705039 -0.07782
-0.109467 -0.0868457 0.485944 -0.656765 -0.454831 -0.601489
-0.0171668 -0.107963 0.670144 -0.258825 -0.965923 0.00136099
0.040501 -0.0893983 0.362807 0.704886 -0.705039 -0.07782
0.0263867 -0.021699 0.31076 0.707094 0.707087 -0.00679688
0.01512 -0.01599 0.125483 0.258808 0.965912 -0.00573225
-0.00483112 -0.0142426 0.499616 -0.258845 0.965915 -0.00272956
-0.0155135 -0.0166334 0.76853 -0.258806 0.965926 -0.00237628
0.0280055 -0.0556835 0.571638 -0.201361 0.976899 0.0715691
-0.0242181 -0.106213 0.614117 -0.258825 -0.96592 0.0027321
-0.214703 -0.0679197 0.473865 0 1 0
-0.0303998 -0.0254087 0.436217 -0.707086 0.707124 -0.00222855
0.03965 -0.033568 0.818858 0.704828 0.70499 0.0787883
-0.178439 -0.0679197 0.471928 0 1 0
0.0211099 -0.0695885 0.961789 0.895815 -0.239341 0.374474
0.0317759 -0.0992953 0.777592 0.707111 -0.707102 0.000859228
-0.0132676 -0.0276469 0.121021 -0.523477 -0.791003 -0.31668
0.132486 -0.0411843 0.0836781 -0.190399 0.614515 -0.765584
-0.149512 -0.0256561 0.118951 0.426916 0.00986635 -0.904238
-0.0421098 -0.0498402 0.168914 0.0740547 0.97526 0.208286
0.152541 -0.0778947 0.465869 0.596206 -0.435029 -0.674751
0.0454112 -0.0467899 0.364872 0.965522 0.258659 -0.0293771
0.274404 -0.0679197 0.47105 0 -1 0
0.0286996 -0.0539163 0.16283 -0.0740461 -0.975255 -0.208313
-0.0135306 -0.0556849 0.526302 -0.200331 -0.976899 -0.0743995
-0.0398109 -0.0342292 0.744751 -0.707081 0.70713 -0.00187103
0.0443008 -0.0855631 0.480025 0.965925 -0.25882 -0.000362743
0.140013 -0.052635 0.52292 0 1 0
-0.0477463 -0.0579273 0.36117 -0.965525 0.258648 -0.0293763
0.031717 -0.0262475 0.41788 0.707104 0.707106 -0.00223105
0.0349481 -0.0290709 0.647693 0.707123 0.70709 -0.000506032
-0.0117712 -0.0581985 0.0807273 -0.245163 -0.915671 -0.318501
-0.0385798 -0.0331159 0.700263 -0.707081 0.70713 -0.00187103
-0.00305755 -0.0895843 0.189146 -0.253694 -0.947112 -0.196517
-0.0116745 -0.0178678 0.05074 -0.705835 0.705715 -0.0613453
-0.114394 -0.0218184 0.0975768 -0.102935 -0.811056 0.57584
-0.016521 -0.0173796 0.327682 -0.258846 0.965899 0.00624696
0.352783 -0.0540778 0.437908 0.382272 0.249779 0.889651
-0.0769327 -0.052635 0.552004 0 -1 0
-0.000197668 -0.0126883 0.704008 -0.258809 0.965926 -0.00237454
-0.249301 -0.0679197 0.44905 0 1 0
0.00353319 -0.10758 0.329446 0.257709 -0.961955 -0.0907161
-0.0111902 -0.0921846 0.212176 -0.253675 -0.947116 -0.196522
0.101213 -0.052635 0.527339 0 1 0
0.0386221 -0.0328096 0.556357 0.707107 0.707106 -0.000501464
0.0137574 -0.0157995 0.0960619 0.258808 0.965912 -0.00573225
-0.13772 -0.0742116 0.561995 0.981528 0.191252 0.00506098
0.0320119 -0.0259218 0.734271 0.707123 0.707088 -0.00187535
-0.0379829 -0.032643 0.645158 -0.707081 0.707132 -0.000504055
0.23389 -0.052635 0.465208 0 1 0
-0.173315 -0.052635 0.473584 0 -1 0
0.0209997 -0.0958581 0.254764 0.257706 -0.961955 -0.0907157
0.072423 -0.0681766 0.476489 0.019346 -0.999307 0.0317948
-0.0366983 -0.0210168 0.104732 -0.0582541 -0.977324 -0.203579
-0.0182639 -0.0177128 0.592417 -0.258804 0.965929 -0.00100566
-0.049373 -0.0642118 0.608133 -0.965927 -0.258811 0.00136374
0.0151552 -0.0298042 0.913027 0.244349 0.912436 0.328259
0.200222 -0.0679197 0.50813 0 -1 0
-0.034045 -0.0971709 0.381746 -0.707096 -0.707118 0.000499444
0.000390498 -0.0760545 0.129506 0.248605 -0.9283 -0.276505
0.0955671 -0.0679197 0.494 0 -1 0
-0.0445924 -0.0818004 0.728126 -0.965927 -0.258814 -6.03792e-06
0.0999413 -0.094863 0.583618 -0.983316 -0.181903 -0.000118932
-0.160812 -0.0679197 0.513277 0 1 0
-0.0405355 -0.0906362 0.443848 -0.707124 -0.707089 0.000507052
-0.0252128 -0.0776765 0.943973 -0.93718 -0.250663 0.242614
-0.00853588 -0.0144245 0.193327 -0.258842 0.965907 0.00487849
0.0422464 -0.0889137 0.704046 0.707119 -0.707094 0.000857404
-0.0498139 -0.0630262 0.50732 -0.965923 -0.258831 -0.000363373
-0.0115666 -0.0679197 0.560427 0 -1 0
-0.0639561 -0.0399099 0.130188 0.0740375 0.975257 0.208308
0.0331318 -0.0290185 0.250964 0.707131 0.70705 -0.00679643
0.103125 -0.0679197 0.549544 0 -1 0
0.0271261 -0.0642568 0.517925 -0.320613 -0.939695 -0.119077
0.0215032 -0.107053 0.625041 0.258801 -0.965927 0.00273117
-0.0314524 -0.026199 0.524145 -0.707111 0.707103 -0.000503996
-0.0319911 -0.0990409 0.545617 -0.707124 -0.707086 0.00223252
0.0486211 -0.0687677 0.785313 0.965924 -0.258827 -8.41487e-06
0.130265 -0.0679197 0.511078 0 -1 0
-0.0272329 -0.0958473 0.871766 -0.703993 -0.703808 0.0951243
0.0448604 -0.0834093 0.433618 0.965925 -0.25882 -0.000362743
0.0443951 -0.0327445 0.131505 0.0740195 0.975259 0.208305
-0.273841 -0.0679197 0.448078 0 1 0
-0.0111045 -0.0160457 0.456454 -0.258821 0.965921 -0.00272704
0.376187 -0.0670355 0.401743 -0.266711 0.437753 -0.858625
0.0407929 -0.0352617 0.437482 0.707107 0.707103 -0.00223104
-0.00494749 0.000195633 0.144267 -0.999405 0.0227185 -0.0259654
-0.107288 -0.0679197 0.536892 0 1 0
-0.0138213 -0.0577028 0.967394 -0.616926 0.61794 0.487393
-0.165515 -0.052635 0.516913 0 -1 0
-0.0341699 -0.0882473 0.299885 -0.704876 -0.705049 -0.07782
-0.0487688 -0.0662134 0.711958 -0.965926 -0.258816 -6.51419e-06
-0.118599 -0.0679197 0.503166 0 1 0
0.0458344 -0.079611 0.571561 0.965924 -0.258822 0.00136405
0.201272 -0.052635 0.481164 0 1 0
-0.239521 -0.052635 0.469256 0 -1 0
-0.0482331 -0.0575472 0.820095 -0.962473 0.258058 0.0839715
-0.0409784 -0.0478883 0.873565 -0.962474 0.258057 0.0839712
0.0299158 -0.052635 0.510827 0 1 0
0.0360402 -0.08044 0.901366 0.937183 -0.250635 0.242632
-0.031659 -0.0285935 0.139104 -0.0740576 -0.975261 -0.208283
-0.301389 -0.0629409 0.458306 0.401307 -0.148479 -0.903829
0.140307 -0.0812181 0.577377 -0.981526 -0.191248 -0.00547782
0.0309854 -0.100445 0.589288 0.707119 -0.707091 0.00222997
0.107357 -0.0524144 0.13345 0.575108 -0.0203673 0.817824
0.0338921 -0.0280931 0.537483 0.707094 0.707119 -0.000501492
0.0172414 -0.0186087 0.839348 0.258055 0.963153 0.0757927
0.0309768 -0.0773896 0.202486 0.696599 -0.696928 -0.170415
-0.136433 -0.0559578 0.536276 0.418035 -0.32775 -0.847247
0.0222567 -0.107123 0.528942 0.258801 -0.965927 0.00273117
0.0305459 -0.100489 0.80749 0.707111 -0.707102 0.000859228
-0.0435472 -0.0394466 0.521387 -0.965923 0.258831 0.000363385
-0.0246977 -0.0798958 0.189259 -0.696596 -0.69693 -0.17042
0.0512833 -0.052635 0.537982 0 1 0
0.175428 -0.0679197 0.478394 0 -1 0
0.0124292 -0.109878 0.430371 0.25882 -0.965925 0.00100079
-0.0986917 -0.0799216 0.565749 0.822983 0.568065 -0.00030168
-0.149252 -0.0926876 0.506329 -0.346025 -0.938212 0.00499309
0.0279244 -0.0234274 0.290911 0.707075 0.707106 -0.00679342
0.0382672 -0.0769881 0.235169 0.964417 -0.25852 -0.0553879
-0.0147872 -0.0427743 0.161316 -0.52349 -0.790985 -0.316704
-0.0318263 -0.0635063 0.1595 -0.958372 -0.257022 -0.124348
-0.0277014 -0.0256209 0.190216 -0.706943 0.706908 -0.0226319
-0.0660637 -0.052635 0.52261 0 -1 0
0.146489 -0.0891513 0.538681 0.808595 0.58783 0.0250974
-0.0233655 -0.0195598 0.27473 -0.707076 0.707105 -0.00679343
-0.0928618 -0.0175237 0.10903 -0.0740575 -0.975271 -0.208237
0.0314984 -0.0958043 0.339299 0.704886 -0.705039 -0.07782
0.0161526 -0.016912 0.666524 0.258803 0.965927 -0.00237689
0.0324841 -0.0299973 0.186174 0.706982 0.706869 -0.0226336
0.0247432 -0.019718 0.370773 0.258831 0.965902 0.00624628
-0.0439603 -0.0841582 0.672283 -0.965927 -0.258814 -6.03792e-06
-0.063561 -0.0682649 0.476996 -0.00618026 0.999978 -0.00229543
-0.00437032 -0.0177039 0.869842 -0.258048 0.963154 0.075793
0.0468104 -0.0494636 0.746209 0.965922 0.258831 -0.00101006
-0.0167268 -0.0954267 0.915873 -0.254166 -0.948274 0.190201
-0.0269761 -0.0235648 0.233707 -0.707101 0.70708 -0.0067977
-0.106225 -0.0566825 0.476384 -0.155205 -0.713118 0.683647
-0.113658 -0.091767 0.593511 -0.983305 -0.181968 -0.000118351
0.0312523 -0.0632012 0.150772 0.949794 -0.254838 -0.181518
-0.114279 -0.01667 0.112648 -0.0740367 -0.97526 -0.208296
-0.0172995 -0.0440034 0.13277 0.0740267 0.975252 0.208336
-0.0386804 -0.0679197 0.547938 0 1 0
-0.33486 -0.052635 0.434774 0 -1 0
0.041758 -0.0359091 0.607474 0.707078 0.707135 -0.000504603
-0.154205 -0.0877859 0.578293 -0.808892 -0.58794 -0.00444823
-0.0298685 -0.0607665 0.489823 -0.158699 -0.718366 0.677322
0.0119011 -0.0436594 0.946649 0.318424 0.316748 -0.893463
0.137106 -0.052635 0.491266 0 1 0
-0.0423369 -0.0375507 0.11146 0.0740379 0.975251 0.208336
0.0468125 -0.0449453 0.114393 -0.0740492 -0.975255 -0.208313
-0.00782814 -0.110862 0.523027 -0.258801 -0.965927 0.0027275
0.0603062 -0.052926 0.572229 0.398104 0.344741 0.850098
-0.0979219 -0.0810334 0.515439 0.822906 0.568175 0.00148714
0.0137854 -0.031296 0.0256757 0.943242 -0.253195 -0.21491
0.29458 -0.052635 0.448074 0 1 0
-0.211646 -0.052635 0.489316 0 -1 0
-0.022478 -0.0187146 0.681094 -0.258806 0.965926 -0.00237628
0.0442197 -0.047367 0.320632 0.965522 0.258659 -0.0293771
-0.111142 -0.0981777 0.523852 -0.822926 -0.568136 0.00380996
0.0989731 -0.0896148 0.523372 -0.983314 -0.181898 0.0026487
0.0499869 -0.0643814 0.520727 0.965926 -0.258817 0.00136307
-0.354754 -0.0679197 0.405151 0 1 0
-0.38196 -0.0679197 0.422244 0 1 0
-0.0342798 -0.0650523 0.921992 -0.937178 -0.250662 0.242623
0.00138038 -0.0617105 0.578995 -0.201362 0.976899 0.0715618
0.0755597 -0.0508799 0.131957 -0.0740462 -0.975255 -0.208314
-0.0377173 -0.032822 0.405734 -0.707107 0.707103 -0.0022285
0.0431149 -0.046697 0.851562 0.96247 0.258069 0.0839701
-0.0201329 -0.107399 0.58195 -0.258825 -0.96592 0.0027321
0.234754 -0.0679197 0.455178 0 -1 0
0.0078909 -0.0679197 0.534767 0 -1 0
0.111366 -0.046766 0.0999711 -0.0740523 -0.975254 -0.208316
-0.0240563 -0.0947562 0.267247 -0.704887 -0.705038 -0.0778172
-0.0441119 -0.0737695 0.331243 -0.964419 -0.258511 -0.0553856
-0.0190673 -0.0179049 0.614723 -0.258806 0.965929 -0.00100544
-0.0414651 -0.0424699 0.29082 -0.965525 0.258648 -0.0293763
-0.178411 -0.0679197 0.492722 0 1 0
0.0478948 -0.0388875 0.15902 0.0740356 0.975259 0.208299
0.00596265 0.0471598 0.17069 -0.999507 0.0169602 -0.0264085
-0.0425845 -0.0879467 0.780674 -0.707109 -0.707104 0.000859182
-0.0890405 -0.0679197 0.524486 0 1 0
0.0662752 -0.0679197 0.54923 0 -1 0
-0.0449971 -0.0808677 0.411175 -0.965928 -0.258809 -0.00035928
0.0267238 -0.104514 0.650223 0.707119 -0.707091 0.00222997
0.0225024 -0.0532423 0.189505 -0.581566 0.719404 0.379788
-0.0605928 -0.0679197 0.576105 0 1 0
-0.0410631 -0.0718654 0.26927 -0.964418 -0.258516 -0.0553868
-0.000521001 -0.0543849 0.105518 -0.943391 -0.315185 -0.103304
0.0457953 -0.0455958 0.766662 0.965922 0.258831 -0.00101006
-0.00505172 -0.111094 0.75225 -0.258825 -0.965923 0.00136099
0.00588189 -0.0143261 0.520508 0.258818 0.965926 -0.00100334
0.0155196 -0.0370078 0.141366 -0.389339 0.854457 0.343976
0.0419377 -0.0362223 0.495849 0.707107 0.707103 -0.00223104
-0.119488 -0.052635 0.520796 0 -1 0
0.0940803 -0.0318221 0.109526 0.0740469 0.975254 0.208321
0.00511439 -0.00625411 0.168526 -0.999511 0.0169325 -0.0262742
0.00266422 -0.111236 0.822366 0.257609 -0.961255 0.0981126
-0.0438869 -0.040796 0.580098 -0.965928 0.258809 0.00035928
0.00199436 0.00194377 0.120414 0.99908 -0.0232941 0.0360198
-0.227796 -0.0672858 0.441143 -0.202735 -0.513009 0.834098
0.117097 -0.0893552 0.551203 0.98333 -0.181832 -0.000108536
-0.00450179 -0.0143876 0.363019 -0.258813 0.965907 0.00624422
0.00427439 -0.112091 0.402873 0.258801 -0.96593 0.00100449
0.149672 -0.0349168 0.104034 0.479521 0.876594 0.0405178
-0.297788 -0.0650646 0.423247 -0.285914 -0.426759 0.85798
0.0456293 -0.0805828 0.464253 0.965925 -0.25882 -0.000362743
-0.0386249 -0.0328918 0.801805 -0.707129 0.707082 -0.00187579
0.00487812 -0.0295644 0.162494 -0.999509 0.0169467 -0.026344
0.105725 -0.0764931 0.613468 -0.36178 0.932264 -0.000416041
0.00946824 -0.0152172 0.587722 0.258818 0.965926 -0.00100334
0.00224568 0.0583725 0.146169 0.99951 -0.0169511 0.0263066
-0.0169471 -0.0620482 0.105288 -0.685784 -0.686212 -0.242516
0.0060728 -0.111053 0.689253 0.25882 -0.965925 0.00135933
0.00547522 -0.0134876 0.198599 0.258823 0.965913 0.00488346
0.376781 -0.0679197 0.430205 0 -1 0
-0.0292203 -0.0498702 0.187721 0.488217 -0.0672134 -0.87013
0.274676 -0.0679197 0.44522 0 -1 0
-0.0573559 -0.0222174 0.118385 -0.0740462 -0.975258 -0.208301
0.0109725 -0.0160622 0.387212 0.258822 0.965921 -0.00273005
0.045161 -0.0822141 0.381198 0.965925 -0.25882 -0.000362719
0.114489 -0.0976854 0.522091 0.822847 -0.56825 0.00371571
0.107805 -0.0526627 0.48524 -0.0191467 0.999312 -0.0317621
-0.113143 -0.0945141 0.535743 -0.983303 -0.181976 -0.000118924
-0.202453 -0.052635 0.471936 0 -1 0
-0.0256144 -0.105109 0.643321 -0.707124 -0.707086 0.00223252
-0.0432609 -0.0387185 0.452345 -0.965923 0.258827 -0.00136058
-0.0965401 -0.0851764 0.534611 0.983315 0.181913 -0.000196026
0.00169989 -0.112114 0.767642 0.25881 -0.965927 0.00136099
0.001037 0.0221312 0.168742 0.99951 -0.0169467 0.0263143
0.159368 -0.0779474 0.498627 0.981543 0.191234 0.00194511
0.000265341 -0.112731 0.629207 -0.258801 -0.965927 0.0027275
0.0643198 -0.0386591 0.152113 0.0740541 0.975254 0.208315
0.0115646 -0.105085 0.859263 0.25762 -0.961253 0.0981089
0.00637834 0.0841659 0.172389 -0.990675 -0.123254 -0.0580552
0.0187902 -0.0621326 0.595395 0.414138 0.215568 0.884319
0.00502098 -0.0143606 0.425025 0.258822 0.965921 -0.00273005
-0.0894783 -0.0425844 0.151981 0.521386 -0.0556774 -0.851503
0.17254 -0.0676112 0.456274 -0.150227 0.516439 -0.843043
-0.140706 -0.0913373 0.560092 0.8089 -0.58793 0.00432005
-0.0198883 -0.0697651 0.13544 -0.685759 -0.686232 -0.242526
-0.042578 -0.0418691 0.332688 -0.965525 0.258648 -0.0293763
0.0247976 -0.0193495 0.563953 0.258803 0.96593 -0.00100637
0.0362219 -0.030287 0.675817 0.707123 0.707088 -0.00187535
-0.0452461 -0.0465028 0.380924 -0.965927 0.258811 -0.00136375
-0.00859026 -0.0988822 0.2531 -0.257705 -0.961956 -0.0907162
0.0238449 -0.106258 0.712152 0.25882 -0.965925 0.00135933
-0.243133 -0.0679197 0.478464 0 1 0
-0.0372501 -0.0315863 0.775618 -0.707129 0.707082 -0.00187579
0.0268267 -0.0205772 0.794386 0.70711 0.707101 -0.0018736
-0.0333748 -0.075395 0.206321 -0.696597 -0.696929 -0.170419
-0.37249 -0.06016 0.401745 -0.240925 -0.629516 0.738691
-0.000528372 -0.0618164 0.174169 0.99951 -0.0169464 0.0263147
-0.151188 -0.0276455 0.103776 0.0740299 0.97525 0.208346
-0.14536 -0.067584 0.491181 0.34579 0.937906 0.0275958
0.0477059 -0.0531026 0.491169 0.965926 0.258817 -0.00136309
-0.135522 -0.0292408 0.105677 0.0740427 0.975254 0.208321
0.114291 -0.0979591 0.59751 0.822812 -0.568314 -4.92854e-05
0.0464957 -0.0767458 0.64693 0.965924 -0.258822 0.00136405
0.0316377 -0.0679197 0.554692 0 -1 0
-0.0306893 -0.0999136 0.721645 -0.707109 -0.707104 0.000859225
-0.039499 -0.0489487 0.892434 -0.927244 0.248997 0.279676
0.0174441 -0.0478445 0.0677272 0.678201 -0.678742 -0.281697
-0.0113314 -0.038294 0.103919 -0.0740456 -0.975254 -0.208317
0.0278461 -0.0296712 0.889588 0.704852 0.704965 0.0787843
-0.035533 -0.0951109 0.687919 -0.707109 -0.707104 0.000859225
0.0287879 -0.022926 0.625838 0.707123 0.70709 -0.000506032
0.270484 -0.052635 0.462473 0 1 0
-0.147166 -0.052635 0.482127 0 -1 0
0.144424 -0.0842632 0.514249 -0.981543 -0.191098 0.00746307
0.0476941 -0.0577527 0.174039 -0.0740381 -0.975256 -0.208311
0.0400679 -0.0346921 0.388221 0.707107 0.707103 -0.00223104
-0.0207168 -0.107451 0.490198 -0.258801 -0.96593 0.000999876
-0.0442162 -0.0838548 0.53254 -0.965923 -0.258827 0.00136058
-0.0458277 -0.077191 0.755944 -0.965926 -0.258816 -6.51419e-06
-0.0988488 -0.02416 0.142229 -0.0740616 -0.975262 -0.208276
-0.0373984 -0.0918307 0.826253 -0.703996 -0.703805 0.0951256
-0.0488601 -0.0658794 0.654923 -0.965927 -0.258811 0.00136374
-0.04684 -0.0519349 0.479034 -0.965923 0.258827 -0.00136058
0.154801 -0.0571411 0.467734 -0.122723 0.704891 -0.698618
0.0138471 -0.0166864 0.438898 0.25884 0.965916 -0.00273004
0.00964177 -0.103555 0.304117 0.257709 -0.961955 -0.0907161
0.325043 -0.052635 0.439739 0 1 0
0.0249625 -0.0330114 0.0904224 0.960297 0.257072 -0.10837
0.0648681 -0.0679197 0.502417 0 -1 0
0.0479472 -0.0540424 0.647018 0.965926 0.25882 0.000362735
-0.0239041 -0.0195647 0.424901 -0.258803 0.965926 -0.00273147
0.261323 -0.0679197 0.455266 0 -1 0
-0.0261935 -0.0209105 0.565608 -0.707107 0.707106 -0.000503508
0.202365 -0.0679197 0.474137 0 -1 0
0.0244831 -0.0646174 0.488181 -0.18428 0.528181 -0.828894
0.0416498 -0.0524064 0.885901 0.962473 0.258057 0.0839741
0.00268576 -0.0134423 0.314271 0.258814 0.965907 0.00624422
0.190063 -0.052635 0.509884 0 1 0
0.0459765 -0.0786352 0.721858 0.965924 -0.258827 -8.41487e-06
0.0626682 -0.0394873 0.0879951 0.0912855 0.65649 -0.748791
-0.0285512 -0.0245021 0.300047 -0.707101 0.70708 -0.0067977
0.0288224 -0.0765723 0.933241 0.937188 -0.250637 0.242611
0.322308 -0.067302 0.418501 -0.273783 0.426809 -0.861903
-0.099374 -0.098884 0.578886 0.822891 -0.568199 -4.10534e-05
-0.0281708 -0.0556269 0.564957 -0.200333 -0.976899 -0.0744002
0.0102755 -0.0151242 0.753114 0.258823 0.965922 -0.00237688
-0.0429658 -0.0563247 0.230509 -0.958371 -0.257026 -0.124349
-0.0265679 -0.104599 0.451288 -0.707096 -0.707118 0.000499444
-0.155544 -0.0627744 0.460192 -0.162241 -0.515905 0.841142
-0.0633282 -0.0679197 0.52149 0 1 0
0.0484288 -0.0694821 0.68933 0.965924 -0.258824 -8.9201e-06
-0.00705073 -0.014079 0.107363 -0.258793 0.965916 -0.00573356
-0.0306528 -0.0943786 0.323577 -0.704876 -0.705049 -0.07782
0.0925318 -0.0388286 0.142734 0.564846 0.101346 0.818949
0.00310172 0.104573 0.163799 -0.867547 -0.152708 0.473331
0.0247099 -0.0194416 0.493987 0.258835 0.965918 -0.00273052
-0.00667208 -0.0353422 0.0163513 -0.48656 -0.488108 -0.724575
0.0402223 -0.0908831 0.749252 0.707119 -0.707094 0.000857404
0.0471241 -0.0749327 0.41314 0.965925 -0.25882 -0.000362719
-0.00194761 -0.0528064 0.0576634 -0.245371 -0.915627 -0.318464
-0.0207149 -0.0300436 0.0682053 -0.957294 0.256256 -0.133868
-0.041015 -0.0898193 0.608249 -0.707109 -0.707101 0.00222851
-0.153994 -0.0835401 0.597378 0.981203 0.191099 0.026863
-0.0465316 -0.0437243 0.141854 0.0740482 0.975256 0.20831
0.0488011 -0.0570993 0.554249 0.965926 0.25882 0.000362735
-0.137815 -0.0736297 0.519751 0.809001 0.587793 0.00400352
-0.0212925 -0.0181418 0.784907 -0.258839 0.965918 -0.0023738
-0.00382371 -0.0140254 0.480972 -0.258845 0.965915 -0.00272956
0.038342 -0.0323623 0.692646 0.707078 0.707133 -0.00187544
0.00601023 -0.0661893 0.101438 0.248571 -0.928311 -0.276498
0.0931821 -0.0633078 0.474024 -0.172184 0.527629 -0.831841
0.0369138 -0.0679197 0.535025 0 -1 0
0.0311962 -0.0935059 0.863727 0.703993 -0.703808 0.0951257
0.0105097 -0.0146201 0.14816 0.258808 0.965912 -0.00573225
0.255603 -0.054644 0.479944 0.388288 0.270097 0.881068
0.0481765 -0.0282364 0.109054 0.0740561 0.975261 0.208281
0.163418 -0.052635 0.513749 0 1 0
0.021127 -0.10737 0.5486 0.258801 -0.965927 0.00273117
-0.0439841 -0.0411013 0.538717 -0.965928 0.258809 0.00035928
0.0286079 -0.103078 0.475013 0.707115 -0.707099 0.000501965
-0.0396668 -0.0342733 0.673624 -0.707081 0.70713 -0.00187103
-0.260971 -0.0679197 0.432384 0 1 0
0.0452296 -0.0433865 0.791758 0.965922 0.258831 -0.00101006
0.348605 -0.054302 0.421841 0.179372 0.981721 -0.0636413
0.104476 -0.0770017 0.560067 -0.361893 0.93222 -0.000416026
-0.00763677 -0.110436 0.727308 -0.258825 -0.965923 0.00136099
0.137037 -0.0508469 0.109952 -0.0740359 -0.975258 -0.208304
0.0466857 -0.0694596 0.346613 0.964416 -0.258521 -0.0553877
-0.145588 -0.0675685 0.579043 0.345906 0.938268 0.00137305
0.00763788 -0.0573518 0.974032 0.535734 0.537011 0.65162
0.0439597 -0.0542912 0.25112 0.965522 0.258659 -0.0293771
0.144993 -0.0679197 0.485211 0 -1 0
0.001881 -0.0294154 0.0931393 0.999276 -0.0292084 0.0243984
-0.00108315 -0.112227 0.70278 -0.258825 -0.965923 0.00136099
0.155243 -0.0854709 0.541862 0.981369 -0.191133 0.0195622
0.224435 -0.052635 0.483158 0 1 0
-0.00827312 -0.0554519 0.509086 -0.20033 -0.976899 -0.0744092
-0.0216693 -0.106002 0.365759 -0.257714 -0.961954 -0.0907147
0.00436355 -0.0568363 0.520859 -0.20136 0.976899 0.0715759
0.00751946 -0.0142783 0.243238 0.25882 0.965905 0.00624369
0.0393975 -0.0398964 0.229705 0.963582 0.258056 -0.070122
0.00436105 -0.0191846 0.890516 0.258011 0.963164 0.0757938
0.133615 -0.0679197 0.530505 0 -1 0
0.0112529 -0.110144 0.477421 0.258801 -0.96593 0.00100449
0.0944592 -0.052635 0.551337 0 1 0
0.0135377 -0.0194068 0.0483085 0.705834 0.705716 -0.0613453
0.0307094 -0.0897914 0.277676 0.704887 -0.705038 -0.0778202
-0.0283951 -0.0976281 0.849989 -0.703996 -0.703805 0.0951256
-0.00528509 0.0111697 0.166881 -0.999406 0.0227184 -0.0259184
-0.147419 -0.0819653 0.472365 -0.238584 -0.64813 -0.723191
-0.0422241 -0.0433101 0.845218 -0.962474 0.258057 0.0839712
-0.0151087 -0.0177329 0.833652 -0.258056 0.963152 0.0757969
0.11002 -0.0679197 0.52675 0 -1 0
-0.113493 -0.052635 0.497685 0 -1 0
-0.0272144 -0.0925287 0.89397 -0.691599 -0.691198 0.20961
-0.00628388 -0.0953732 0.930094 -0.254165 -0.948271 0.190217
0.0257515 -0.0438235 0.926452 0.671742 0.672453 0.310757
0.0217116 -0.105129 0.35509 0.257706 -0.961955 -0.0907157
-0.0625343 -0.0464518 0.160311 0.0740627 0.975257 0.208297
-0.342374 -0.0679197 0.425949 0 1 0
0.00237663 -0.11255 0.451106 0.258801 -0.96593 0.00100449
0.285654 -0.0679197 0.433306 0 -1 0
0.0217884 -0.0981408 0.895136 0.691607 -0.691188 0.209619
-0.140033 -0.0767439 0.531003 -0.981351 -0.191206 0.0197525
-0.006474 -0.0274589 0.91257 -0.244332 0.912443 0.328252
0.043728 -0.0877335 0.521923 0.965924 -0.258822 0.00136405
0.00826143 -0.0149331 0.5499 0.258818 0.965926 -0.00100334
-0.00812389 -0.0163565 0.0272724 -0.705895 0.705654 -0.0613605
0.000617661 -0.0391097 0.145259 0.99951 -0.0169367 0.0263173
0.0446532 -0.083576 0.803201 0.965924 -0.258827 -8.41487e-06
-0.0463074 -0.0751653 0.375989 -0.964419 -0.258511 -0.0553856
0.0147389 -0.099387 0.274399 0.257706 -0.961955 -0.0907157
-0.0210743 -0.0181808 0.745218 -0.258839 0.965918 -0.0023738
0.0273846 -0.0273017 0.11207 0.074044 0.975252 0.20833
0.047164 -0.0663882 0.839298 0.962051 -0.257617 0.0899528
0.0345347 -0.0967672 0.62996 0.707119 -0.707091 0.00222997
0.0501996 -0.0628748 0.726795 0.965924 -0.258824 -8.9201e-06
-0.0434912 -0.039689 0.431211 -0.965923 0.258827 -0.00136058
-0.155244 -0.0780194 0.556796 -0.981529 0.191234 -0.00556822
-0.0157197 -0.0805508 0.161955 -0.253675 -0.947116 -0.196522
0.00157897 -0.0133175 0.340841 0.258814 0.965907 0.00624422
-0.0314969 -0.0299907 0.172287 -0.706947 0.706904 -0.0226331
0.120768 -0.052635 0.516058 0 1 0
0.0224394 -0.0184779 0.714714 0.258841 0.965917 -0.0023738
-0.268657 -0.052635 0.450133 0 -1 0
0.0418719 -0.0773678 0.299707 0.964416 -0.258521 -0.0553877
-0.0344137 -0.0316266 0.212299 -0.706947 0.706904 -0.0226331
7.82693e-05 -0.000170274 0.187477 0.999405 -0.0226908 0.0259839
0.00584655 -0.0594574 0.560808 -0.201359 0.976899 0.0715718
0.0865814 -0.052635 0.495344 0 1 0
-0.0194756 -0.0639849 0.540934 -0.32225 0.939702 0.114523
0.0499208 -0.0616529 0.437202 0.965926 0.258817 -0.00136309
0.0412325 -0.0362719 0.339165 0.707097 0.707084 -0.0067975
0.0264566 -0.0484496 0.104969 0.949797 -0.254828 -0.181519
-0.0257833 -0.0373827 0.0920746 -0.960288 0.257108 -0.108363
0.0201824 -0.0833564 0.182764 0.696598 -0.69693 -0.170414
0.0386794 -0.0865398 0.320408 0.704887 -0.705038 -0.0778202
-0.147113 -0.0677594 0.542209 -0.345957 0.938247 -0.00237745
0.155677 -0.0449406 0.0756744 -0.0740262 -0.975265 -0.208277
0.0348576 -0.0968118 0.497558 0.707115 -0.707099 0.000501965
-0.0105597 -0.110228 0.436956 -0.258825 -0.965924 0.00100448
-0.078324 -0.0679197 0.540534 0 1 0
-0.0175866 -0.0562274 0.544344 -0.200329 -0.976899 -0.0744127
-0.0307305 -0.0645434 0.513852 -0.32226 0.939696 0.114543
-0.00729214 -0.0885062 0.958012 -0.248661 -0.927522 0.279054
0.00854244 -0.0509704 0.163825 -0.581565 0.719398 0.3798
0.00579797 -0.0365751 0.123041 -0.99951 0.0169529 -0.0263014
-0.0961735 -0.0329869 0.109229 0.0740096 0.975244 0.208379
0.0738992 -0.052635 0.533402 0 1 0
-0.0599553 -0.0526355 0.49608 -3.18663e-05 -1 0.000105436
0.0457795 -0.0458572 0.578848 0.965925 0.25882 0.000362743
0.0468678 -0.0503383 0.422143 0.965924 0.258822 -0.00136404
-0.10239 -0.101171 0.553313 0.361691 -0.932298 2.62204e-06
-0.186849 -0.0679197 0.451054 0 1 0
-0.09027 -0.0677908 0.477233 -0.00768336 0.999317 0.0361559
0.0145736 -0.0182454 0.0735882 0.705834 0.705716 -0.0613453
-0.0471833 -0.0530641 0.692642 -0.965929 0.258807 -0.00100759
0.000376887 -0.0862592 0.971677 0.196144 -0.730677 0.65394
-0.0219221 -0.107228 0.394201 -0.258825 -0.965924 0.00100448
-0.00622019 -0.0225719 0.17338 -0.999405 0.0226926 -0.0259714
0.000855783 -0.0127732 0.682802 0.258795 0.965929 -0.00237455
-0.100656 -0.100498 0.620016 0.36174 -0.932279 0
-0.303869 -0.052635 0.437757 0 -1 0
0.0250898 -0.0893763 0.227443 0.696598 -0.69693 -0.170414
-0.0100479 -0.0149446 0.216068 -0.258842 0.965907 0.00487849
0.00666949 -0.0140755 0.786658 0.258795 0.965929 -0.00237455
-0.0385737 -0.0333901 0.497224 -0.707107 0.707103 -0.00222851
0.0555833 -0.0515359 0.142129 -0.0740476 -0.975255 -0.208314
0.298386 -0.0679197 0.445918 0 -1 0
-0.000369465 -0.112824 0.535976 -0.258801 -0.965927 0.0027275
0.010097 -0.0153567 0.615595 0.258818 0.965926 -0.00100334
-0.0387972 -0.0679197 0.579882 0 1 0
-0.173697 -0.0264695 0.106271 0.0740927 0.975274 0.20821
-0.0298038 -0.0254004 0.336918 -0.707076 0.707105 -0.00679343
-0.108525 -0.0769707 0.608192 -0.361674 0.932305 -0.000421268
-0.0218526 -0.018495 0.702228 -0.258839 0.965918 -0.0023738
0.0258871 -0.105061 0.372337 0.704886 -0.705039 -0.07782
0.111915 -0.0771212 0.502668 0.361826 0.931842 0.0274433
-0.0166149 -0.0954289 0.239278 -0.257705 -0.961956 -0.0907162
-0.0499519 -0.0333499 0.167874 -0.0740529 -0.975255 -0.208312
-0.0491487 -0.0603676 0.533354 -0.965923 0.258831 0.000363385
-0.0246263 -0.0477767 0.153039 0.074054 0.975255 0.208312
-0.283096 -0.0647776 0.428002 -0.225029 -0.494002 0.839835
-0.200048 -0.0679197 0.489027 0 1 0
0.39547 -0.0679197 0.396513 0 -1 0
-0.0420907 -0.0684492 0.881921 -0.962054 -0.257607 0.0899504
-0.122652 -0.058178 0.543934 0.418035 -0.32775 -0.847247
-0.0347541 -0.0305291 0.830673 -0.70484 0.704977 0.0787888
0.0119648 -0.015672 0.274576 0.258795 0.965912 0.00624403
-0.0384715 -0.0835463 0.877394 -0.962054 -0.257606 0.0899507
-0.0571327 -0.052635 0.547621 0 -1 0
-0.393531 -0.0679197 0.391795 0 1 0
0.155698 -0.0906557 0.588394 0.80898 -0.587821 0.00432042
0.147816 -0.0931347 0.561827 -0.345885 -0.938275 -0.00187808
-0.0600998 -0.0679197 0.497631 0 1 0
0.0321108 -0.099609 0.426634 0.707105 -0.707108 0.000504544
-0.078198 -0.0211322 0.120714 -0.074034 -0.975251 -0.208337
0.0117468 -0.0155725 0.73115 0.258823 0.965922 -0.00237688
-0.280333 -0.0628792 0.467867 0.410355 -0.166309 -0.896633
0.012519 -0.0440598 0.122435 -0.0740619 -0.97525 -0.208334
-3.12912e-05 -0.0659468 0.152621 0.99951 -0.0169567 0.0263013
-0.0525709 -0.028266 0.145003 -0.0740426 -0.975252 -0.20833
-0.132274 -0.0165684 0.118567 -0.0740498 -0.975267 -0.208257
0.0809506 -0.0679197 0.53399 0 -1 0
-0.00718866 -0.108142 0.34731 -0.257714 -0.961954 -0.0907147
0.211938 -0.0528361 0.499609 0.415358 0.320471 0.851338
0.215451 -0.0668264 0.447361 -0.190911 0.513175 -0.836782
-0.0778099 -0.0545375 0.485198 -0.158625 -0.718426 0.677276
0.0215817 -0.102042 0.321989 0.257706 -0.961955 -0.0907157
0.0958174 -0.0429234 0.0875072 -0.0740369 -0.975261 -0.20829
-0.0310022 -0.09597 0.34116 -0.704876 -0.705049 -0.07782
0.0427038 -0.0596267 0.231386 0.964417 -0.25852 -0.0553879
-0.00885173 -0.104922 0.866574 -0.257625 -0.961251 0.0981129
-0.0284757 -0.0229442 0.725682 -0.70709 0.707121 -0.00187365
-0.018967 -0.107788 0.55462 -0.258825 -0.96592 0.0027321
-0.00428017 0.014043 0.13379 -0.903082 0.256016 -0.344816
-0.0443065 -0.0424346 0.632284 -0.965928 0.258809 0.00035928
0.0297348 -0.0265594 0.844847 0.704837 0.704981 0.0787885
-0.0184572 -0.0278802 0.130182 -0.52349 -0.790987 -0.316698
-0.224254 -0.052635 0.473388 0 -1 0
0.0207039 -0.0178727 0.818206 0.258055 0.963153 0.0757927
0.242206 -0.0679197 0.4412 0 -1 0
-0.0190911 -0.100236 0.297286 -0.257714 -0.961954 -0.0907147
-0.0324809 -0.0271845 0.584349 -0.707111 0.707103 -0.000503996
-0.00552851 -0.0139887 0.258769 -0.258809 0.965908 0.00624463
0.113303 -0.0993861 0.566772 0.822812 -0.568314 -4.92854e-05
0.0548788 -0.0681384 0.483944 0.00978705 -0.99931 0.0358163
0.0445595 -0.0839247 0.76744 0.965924 -0.258827 -8.41487e-06
-0.00427422 0.0483788 0.160506 -0.999406 0.0227118 -0.0259417
-0.037977 -0.052635 0.508969 0 -1 0
-0.0273104 -0.0568513 0.93988 -0.927249 0.248986 0.279669
-0.00686346 -0.0138926 0.130321 -0.258793 0.965916 -0.00573356
-0.0443907 -0.082555 0.806364 -0.965926 -0.258816 -6.51419e-06
-0.123492 -0.0525362 0.478584 -0.0195943 -0.999312 0.0314935
-0.0242679 -0.0194346 0.505373 -0.258803 0.965926 -0.00273147
-0.01204 -0.109178 0.783319 -0.258815 -0.965926 0.00135933
0.0413922 -0.0357408 0.475561 0.707107 0.707103 -0.00223104
0.0218878 -0.0496473 0.145264 -0.0740459 -0.975258 -0.208299
0.367376 -0.057988 0.417881 0.179327 0.981721 -0.063768
-0.0350991 -0.0961018 0.403145 -0.707096 -0.707118 0.000499444
0.0197827 -0.0679197 0.578293 0 -1 0
-0.0423749 -0.0755898 0.309494 -0.964418 -0.258516 -0.0553868
0.0366713 -0.030631 0.715572 0.707078 0.707133 -0.00187544
0.0688458 -0.0285926 0.103937 0.0872727 0.966441 0.241611
0.115203 -0.0852099 0.628718 -0.967165 -0.17871 0.180705
0.293745 -0.0679197 0.465789 0 -1 0
-0.0305863 -0.100567 0.47077 -0.707096 -0.707118 0.000499444
0.0263479 -0.104759 0.748598 0.707111 -0.707102 0.000859228
0.016251 -0.0601702 0.505006 -0.20033 -0.976899 -0.0744092
-0.0457048 -0.0782932 0.459335 -0.965928 -0.258809 -0.00035928
-0.0476129 -0.0705292 0.796796 -0.965926 -0.258816 -6.51419e-06
0.0495491 -0.0653037 0.763261 0.965924 -0.258824 -8.9201e-06
0.0998432 -0.0943473 0.60568 -0.983316 -0.181903 -0.000118932
0.0410709 -0.0387643 0.292885 0.965523 0.258655 -0.0293767
0.0993392 -0.0491811 0.115553 -0.0740286 -0.975255 -0.208321
-0.00740717 -0.0145057 0.750514 -0.258809 0.965926 -0.00237454
0.0123149 -0.109402 0.673649 0.25882 -0.965925 0.00135933
-0.0468932 -0.052035 0.59378 -0.965923 0.258831 0.000363385
-0.0760622 -0.0653982 0.569176 0.432393 -0.204978 -0.878077
-0.00981676 -0.015155 0.0735591 -0.258757 0.965757 -0.0189494
0.124031 -0.0315344 0.0975333 0.073999 0.975276 0.208231
0.0463181 -0.0479292 0.668438 0.965926 0.258817 -0.00100773
0.0491348 -0.0652971 0.36983 0.964416 -0.258521 -0.0553877
-0.0989605 -0.052635 0.514598 0 -1 0
-0.0261141 -0.0408025 0.120918 0.0740276 0.975252 0.208333
-0.178669 -0.0679197 0.514974 0 1 0
0.0377553 -0.0323432 0.399702 0.707107 0.707103 -0.00223104
-0.0598998 -0.035935 0.110139 0.0740424 0.975252 0.208329
-0.0943509 -0.0679197 0.551895 0 1 0
-0.0479462 -0.0561501 0.46255 -0.965927 0.258811 -0.00136375
0.0204698 -0.107763 0.392035 0.25882 -0.965925 0.00100079
-0.138249 -0.0877932 0.582307 0.808959 -0.587849 0.00431307
-0.045822 -0.077903 0.492886 -0.965923 -0.258831 -0.000363373
0.157183 -0.0495212 0.104901 0.478879 -0.0677598 0.875262
0.171919 -0.0679197 0.498315 0 -1 0
0.00431333 -0.0435087 0.174971 -0.99951 0.0169531 -0.0263025
-0.0556489 -0.0234915 0.0995985 -0.0334415 -0.833673 0.551244
-0.098308 -0.0819646 0.627508 0.80001 0.552714 0.233431
0.00633996 0.035837 0.149069 -0.999514 0.0169065 -0.0261776
0.0258992 -0.057039 0.946503 0.927242 0.249018 0.279665
0.0463102 -0.0478166 0.505775 0.965926 0.258817 -0.00136309
-0.0457484 -0.0476069 0.718762 -0.965929 0.258807 -0.00100759
0.015374 -0.0891818 0.202414 0.253687 -0.947113 -0.19652
0.207087 -0.0526353 0.462533 -9.61936e-05 1 -0.000254694
0.0062274 -0.0793433 0.145795 0.248605 -0.9283 -0.276505
0.0213151 -0.105752 0.827125 0.257609 -0.961255 0.0981126
-0.0106125 -0.0156429 0.30393 -0.258809 0.965908 0.00624463
-0.0271359 -0.103447 0.738192 -0.707109 -0.707104 0.000859225
-0.158828 -0.0679197 0.475522 0 1 0
0.0331694 -0.0328735 0.169966 0.963583 0.25805 -0.0701211
0.150256 -0.0695687 0.584063 -0.34563 -0.937616 0.0376328
-0.00413234 0.0677685 0.184748 -0.558348 -0.0463705 0.82831
0.0468482 -0.0554067 0.336231 0.965522 0.258659 -0.0293771
0.0316528 -0.0395253 0.904395 0.671774 0.672416 0.310766
-0.107055 -0.0764097 0.587097 -0.361904 0.932215 -0.000416024
-0.154125 -0.0748006 0.488677 -0.978441 0.190511 -0.0797457
-0.0281082 -0.022842 0.541937 -0.707111 0.707103 -0.000503996
-0.00320331 -0.0679197 0.515089 0 1 0
-0.049539 -0.0639331 0.42278 -0.965923 -0.258831 -0.000363373
-0.110978 -0.0679197 0.485774 0 1 0
-0.00860336 -0.110805 0.386241 -0.258825 -0.965924 0.00100448
-0.02341 -0.0513537 0.169354 0.074022 0.975256 0.208319
0.0872717 -0.0679197 0.560464 0 -1 0
0.0450283 -0.0428903 0.726325 0.965926 0.258817 -0.00100773
0.0371402 -0.0939901 0.728873 0.707119 -0.707094 0.000857404
-0.0307486 -0.0999315 0.65818 -0.707109 -0.707104 0.000859225
-0.209466 -0.0642698 0.502459 0.442071 -0.199274 -0.874564
0.02065 -0.0186208 0.399493 0.25884 0.965916 -0.00273004
-0.0433373 -0.0870434 0.549944 -0.965923 -0.258827 0.00136058
0.104481 -0.0341771 0.116855 0.0740502 0.97525 0.208338
0.0114465 -0.0149982 0.180896 0.258803 0.965918 0.00488088
-0.0304535 -0.0823108 0.916976 -0.691619 -0.691172 0.209629
-0.0316924 -0.0263762 0.612169 -0.707107 0.707106 -0.000503508
-0.00541723 -0.0133823 0.152431 -0.258842 0.965907 0.00487849
0.00238271 0.0812918 0.155718 0.99951 -0.0169312 0.0263266
0.037375 -0.0940049 0.605165 0.707115 -0.707095 0.00223104
0.00557439 -0.0162656 0.849291 0.258017 0.963163 0.0757926
0.0197934 -0.100699 0.880626 0.257609 -0.961255 0.0981126
0.0472174 -0.0512498 0.597632 0.965926 0.25882 0.000362735
0.111381 -0.0769452 0.541578 0.362008 0.932175 -0.000417127
-0.0259764 -0.0264185 0.872415 -0.704829 0.704989 0.0787848
0.0119497 -0.106967 0.839813 0.257609 -0.961255 0.0981126
0.0158431 -0.108688 0.5833 0.258801 -0.965927 0.00273117
0.150667 -0.0937615 0.506503 0.346026 -0.938212 0.00491693
0.0389955 -0.058181 0.904101 0.927245 0.24898 0.279688
-0.0366351 -0.0327997 0.277837 -0.707092 0.707089 -0.00679669
-0.0421663 -0.0244911 0.123631 -0.0740343 -0.975255 -0.208317
0.141594 -0.0744011 0.543855 -0.981533 0.191213 -0.00555788
-0.298912 -0.0679197 0.442345 0 1 0
-0.0140603 -0.0540818 0.182828 -0.696963 -0.630524 -0.341587
-0.248999 -0.052635 0.449378 0 -1 0
0.0458815 -0.0789877 0.665472 0.965924 -0.258824 -8.9201e-06
0.213528 -0.0679197 0.486686 0 -1 0
0.312496 -0.052635 0.448172 0 1 0
-0.029562 -0.0470586 0.923697 -0.92724 0.249006 0.279682
0.0825489 -0.0347377 0.127275 0.0740228 0.975267 0.208268
-0.187138 -0.052635 0.486755 0 -1 0
0.0382348 -0.0689668 0.216049 0.958371 -0.25703 -0.124343
0.0696938 -0.0679197 0.566051 0 -1 0
-0.328052 -0.0679197 0.445904 0 1 0
-0.196008 -0.0679197 0.470907 0 1 0
-0.154698 -0.084937 0.518007 -0.981523 -0.191268 -0.00546762
-0.186769 -0.054349 0.462147 -0.168975 -0.70181 0.692033
-0.044214 -0.0679197 0.566074 0 1 0
0.0352527 -0.0964459 0.456406 0.707115 -0.707099 0.000501965
-0.0638509 -0.052635 0.565438 0 -1 0
0.0317221 -0.0345319 0.146714 0.96029 0.257095 -0.108372
0.0452967 -0.0441214 0.62616 0.965926 0.25882 0.000362735
-0.0292111 -0.0241327 0.463906 -0.707111 0.707099 -0.00223208
0.0157012 -0.0167972 0.111396 0.706475 0.7064 -0.043496
-0.0434416 -0.051894 0.272804 -0.965524 0.258651 -0.0293757
0.0485017 -0.0696089 0.580571 0.965926 -0.258817 0.00136307
-0.0289222 -0.0325649 0.156723 -0.0740358 -0.975252 -0.208331
0.00430802 -0.0338803 0.107539 -0.523477 -0.791003 -0.31668
0.030286 -0.100884 0.696623 0.707119 -0.707094 0.000857404
-0.0447388 -0.0812537 0.710717 -0.965927 -0.258814 -6.03792e-06
-0.0384912 -0.0922643 0.633232 -0.707109 -0.707101 0.00222851
-0.00646946 -0.0145688 0.576699 -0.258845 0.965918 -0.00100563
-0.0192683 -0.107221 0.797306 -0.258815 -0.965926 0.00135933
0.0434307 -0.0425976 0.835343 0.96247 0.258069 0.0839701
0.036064 -0.0641939 0.189451 0.958371 -0.25703 -0.124343
0.0293111 -0.0234815 0.580762 0.707123 0.70709 -0.000506032
0.0483395 -0.0703151 0.561402 0.965926 -0.258817 0.00136307
-0.0204064 -0.0179389 0.253173 -0.258846 0.965899 0.00624696
0.00516609 -0.0147522 0.0232605 0.258764 0.965755 -0.0189526
-0.0968182 -0.052635 0.490833 0 -1 0
-0.0235775 -0.0336643 0.908012 -0.671779 0.67241 0.31077
-0.0229316 -0.0222565 0.106329 -0.0739795 -0.975264 -0.208296
-0.00509386 -0.0260394 0.126944 -0.999406 0.0227211 -0.0259288
-0.281366 -0.0531815 0.464625 0.39372 -0.242279 -0.886728
-0.0923382 -0.0531188 0.556907 0.417186 -0.329073 -0.847152
-0.350931 -0.0548417 0.41499 0.17841 -0.981722 0.0662656
0.0264023 -0.0307785 0.128695 0.0740444 0.975258 0.2083
-0.133169 -0.0267237 0.126535 0.41193 -0.0836348 -0.907369
0.00105292 0.0407956 0.185772 0.999405 -0.0227062 0.0259679
0.0372449 -0.0316477 0.45839 0.707107 0.707103 -0.00223104
-0.00144842 -0.112614 0.490092 -0.258825 -0.965924 0.00100448
-0.00426471 -0.0331121 0.929929 -0.244372 0.912434 0.328248
-0.228395 -0.0679197 0.462814 0 1 0
0.159302 -0.0817859 0.574234 0.981556 -0.191106 0.00517666
-0.0471536 -0.0594587 0.838344 -0.962473 0.258058 0.0839715
-0.00488173 0.0116884 0.151794 -0.999406 0.022683 -0.0259307
0.146761 -0.0679197 0.524416 0 -1 0
-0.00235692 -0.0679197 0.540635 0 -1 0
0.117169 -0.0890004 0.609759 0.98333 -0.181832 -0.000108536
-0.0460856 -0.0621753 0.857162 -0.962054 -0.257607 0.0899504
0.0312774 -0.0261407 0.357472 0.707094 0.707087 -0.00679688
-0.13947 -0.0187316 0.0938103 -0.216411 -0.749252 0.625929
0.0493277 -0.0661315 0.804795 0.965924 -0.258827 -8.41487e-06
-0.0451992 -0.080137 0.428102 -0.965928 -0.258809 -0.00035928
0.00638928 0.056345 0.160402 -0.999512 0.0169328 -0.0262576
0.0429832 -0.0526305 0.151733 -0.0740497 -0.975255 -0.208311
0.00225033 -0.0502757 0.0830584 -0.929427 -0.155251 0.334758
-0.0766056 -0.052635 0.53413 0 -1 0
-0.00154772 -0.0636086 0.590012 -0.320618 -0.939693 -0.119089
-0.0422144 -0.0679197 0.521323 0 1 0
0.101699 -0.079892 0.597025 -0.82289 0.5682 -0.000301739
-0.0457602 -0.0482273 0.417783 -0.965927 0.258811 -0.00136375
0.0234174 -0.106588 0.608012 0.258801 -0.965927 0.00273117
0.0407747 -0.0361009 0.309328 0.707097 0.707084 -0.0067975
-0.0304973 -0.0248727 0.760806 -0.70709 0.707121 -0.00187365
-0.0320382 -0.02668 0.660388 -0.707107 0.707104 -0.00187583
0.000914059 -0.0497705 0.127138 0.99951 -0.0169478 0.0263034
0.0472666 -0.0515654 0.471744 0.965926 0.258817 -0.00136309
0.0633383 -0.0474333 0.120165 -0.0740489 -0.975246 -0.208353
-0.148082 -0.052635 0.518529 0 -1 0
-0.0118004 -0.108554 0.823248 -0.257614 -0.961254 0.0981091
-0.0475415 -0.0707933 0.691852 -0.965927 -0.258814 -6.03792e-06
0.0450914 -0.082291 0.589199 0.965924 -0.258822 0.00136405
0.0342757 -0.0679197 0.503969 0 -1 0
-0.0421198 -0.0631523 0.247 -0.964418 -0.258516 -0.0553868
0.219031 -0.0679197 0.46114 0 -1 0
0.0218385 -0.0186378 0.208456 0.706925 0.706927 -0.0226272
-0.136907 -0.0843952 0.501584 0.981573 -0.191068 0.0027522
0.0286763 -0.0247514 0.231368 0.707075 0.707106 -0.00679342
0.0112616 -0.0160286 0.358879 0.258814 0.965907 0.00624422
0.101461 -0.0679197 0.511718 0 -1 0
-0.00319088 -0.0720492 0.188796 -0.494574 0.0184523 0.86894
0.0616956 -0.052635 0.554472 0 1 0
0.0132066 -0.06353 0.549666 -0.320607 -0.939696 -0.119091
0.00362696 -0.0481846 0.0452541 0.245164 -0.915677 -0.318481
-0.00732552 -0.0466495 0.958007 -0.221757 0.828557 0.514117
-0.0239634 -0.0194242 0.480168 -0.258803 0.965926 -0.00273147
0.143988 -0.0481046 0.0946432 -0.0739713 -0.975287 -0.208191
-0.0368527 -0.032014 0.387787 -0.707107 0.707103 -0.0022285
0.148384 -0.0707051 0.567093 0.345547 -0.937487 0.0414066
-0.109557 -0.0209842 0.131167 -0.0740371 -0.975247 -0.208357
-0.116629 -0.0676187 0.466876 -0.00768336 0.999317 0.0361559
-0.160473 -0.0679197 0.528004 0 1 0
0.156595 -0.0879629 0.48303 0.785363 -0.571322 -0.238319
0.125664 -0.0679197 0.495109 0 -1 0
0.0322525 -0.099273 0.559101 0.707115 -0.707095 0.00223104
-0.0194327 -0.107778 0.507563 -0.258801 -0.96593 0.000999876
-0.0460769 -0.0559828 0.323421 -0.965524 0.258651 -0.0293757
0.0100972 -0.0153207 0.650304 0.258822 0.965924 -0.0010038
0.148392 -0.0680437 0.503247 -0.345692 0.938347 0.00134151
0.0296126 -0.102045 0.513975 0.707115 -0.707099 0.000501965
-0.0461286 -0.0492564 0.65955 -0.965929 0.258807 -0.00100759
-0.0939258 -0.0211223 0.126258 -0.0740303 -0.975248 -0.208355
0.0117239 -0.0429032 0.151715 -0.389326 0.854471 0.343954
0.0197871 -0.0180365 0.535548 0.258835 0.965921 -0.00100333
0.040346 -0.0740604 0.257701 0.964417 -0.25852 -0.0553879
0.0412235 -0.0354344 0.523512 0.707107 0.707106 -0.000501464
-0.0458186 -0.0480342 0.49599 -0.965923 0.258827 -0.00136058
0.0332514 -0.0289042 0.275306 0.707131 0.70705 -0.00679643
-0.00503316 -0.0146099 0.388782 -0.258821 0.965921 -0.00272704
0.0403885 -0.0431075 0.871781 0.96247 0.258069 0.0839701
0.0105846 -0.0377299 0.0934879 0.0740578 0.975259 0.208291
-0.101002 -0.077122 0.501279 0.361546 0.93195 0.027465
0.390896 -0.0620889 0.42101 0.289242 0.951723 -0.102774
0.0380684 -0.052635 0.537051 0 1 0
0.0371563 -0.0940744 0.652487 0.707119 -0.707091 0.00222997
0.00616866 -0.110986 0.718111 0.25881 -0.965927 0.00136099
-0.0270967 -0.0457026 0.107266 -0.949796 -0.254834 -0.181513
-0.0214074 -0.0622617 0.501543 -0.206047 0.570885 -0.794754
0.291231 -0.0529642 0.463999 0.381165 0.242422 0.892157
0.0346885 -0.0970615 0.384198 0.707105 -0.707108 0.000504544
-0.0306788 -0.0998445 0.787246 -0.707109 -0.707104 0.000859182
-0.0141917 -0.0193502 0.857326 -0.258056 0.963152 0.0757969
0.177808 -0.0603802 0.519083 0.414779 0.320313 0.851679
-0.0313567 -0.0562284 0.144334 -0.949796 -0.254834 -0.181513
-0.312648 -0.0574306 0.423624 -0.248676 -0.617508 0.746219
-0.0670017 -0.0242272 0.131223 -0.0740351 -0.975245 -0.208366
0.360789 -0.0679197 0.424611 0 -1 0
0.0442342 -0.0835581 0.82146 0.962051 -0.257617 0.0899528
-0.145588 -0.0670639 0.475019 0.345972 0.938111 -0.0158649
-0.0347359 -0.0664025 0.187911 -0.958372 -0.257022 -0.124348
0.143179 -0.0609588 0.536072 0.406052 0.327671 0.853085
0.0576207 -0.052635 0.523677 0 1 0
0.019681 -0.0659785 0.122624 0.685762 -0.68623 -0.242525
0.0989134 -0.0885351 0.554301 -0.98332 0.181884 -0.000195705
-0.035811 -0.0842834 0.278837 -0.704876 -0.705049 -0.07782
-0.111828 -0.0806331 0.515789 -0.82266 0.568532 0.00160489
-0.0383751 -0.0365554 0.241333 -0.965524 0.258651 -0.0293757
-0.0464988 -0.0746868 0.776553 -0.965926 -0.258816 -6.51419e-06
-0.147147 -0.0137135 0.110488 -0.0740504 -0.975255 -0.208314
-0.138121 -0.0880802 0.519194 0.808959 -0.587849 0.00431307
0.114078 -0.0850305 0.488384 0.88447 -0.164233 -0.436737
0.170066 -0.052635 0.501663 0 1 0
0.0368537 -0.037632 0.203083 0.963583 0.25805 -0.0701211
-0.0209711 -0.0193324 0.176409 -0.706951 0.7069 -0.0226343
0.0389731 -0.0331434 0.580637 0.707107 0.707106 -0.000501464
-0.0332953 -0.0976797 0.563684 -0.707124 -0.707086 0.00223252
0.0426537 -0.0783003 0.853422 0.962054 -0.257607 0.0899495
0.00511565 0.00601318 0.176371 -0.99951 0.0169462 -0.0263155
0.339563 -0.0602841 0.445332 0.382274 0.249778 0.88965
-0.0189629 -0.10027 0.88561 -0.257625 -0.961251 0.0981129
0.179317 -0.0526353 0.472719 -6.00682e-05 1 -0.000266232
-0.0456633 -0.0469528 0.805428 -0.965925 0.25882 -0.00100534
-0.0176659 -0.0479359 0.0697718 -0.678222 -0.678725 -0.281686
0.014013 -0.0208109 0.878324 0.258047 0.963155 0.0757914
0.0286783 -0.0231338 0.441683 0.707094 0.707116 -0.00222957
0.044313 -0.0848417 0.68031 0.965924 -0.258827 -8.41487e-06
0.0190512 -0.108124 0.410909 0.25882 -0.965925 0.00100079
0.0116989 -0.0679197 0.522158 0 1 0
0.0918895 -0.0539533 0.140542 -0.0740267 -0.975259 -0.208302
-0.156867 -0.052635 0.499359 0 -1 0
0.039018 -0.0575753 0.584084 0.398104 0.344741 0.850098
0.0600419 -0.0473158 0.165663 0.545675 0.110678 0.830656
-0.0153637 -0.108315 0.763657 -0.258815 -0.965926 0.00135933
0.039321 -0.0808546 0.881751 0.962054 -0.257607 0.0899495
-0.136536 -0.0798469 0.545289 0.981587 0.190949 0.00508667
-0.0113801 -0.0161958 0.429438 -0.258821 0.965921 -0.00272704
-0.0128029 -0.109658 0.407581 -0.258825 -0.965924 0.00100448
-0.232824 -0.0531292 0.486761 0.427318 -0.320524 -0.845378
0.0107073 -0.0364115 0.934704 0.244349 0.912436 0.328261
-0.026535 -0.101666 0.833878 -0.703996 -0.703805 0.0951256
-0.00515986 -0.105284 0.311245 -0.257705 -0.961956 -0.0907162
0.350777 -0.0655375 0.4104 -0.266711 0.437753 -0.858625
0.00611611 0.00992098 0.140893 -0.999509 0.0169514 -0.0263376
0.0445543 -0.0481367 0.130136 -0.0740389 -0.975264 -0.208276
-0.0297847 -0.101298 0.52973 -0.707124 -0.707086 0.00223252
-0.112145 -0.0811052 0.544852 -0.823108 0.567884 -0.000306507
0.0999085 -0.052635 0.50493 0 1 0
-0.146816 -0.0679197 0.508191 0 1 0
-0.00544156 -0.00057943 0.162622 -0.999404 0.0227153 -0.0260007
0.133243 -0.0679197 0.473807 0 -1 0
0.155602 -0.0701148 0.538068 0.808872 0.587971 0.00400642
0.00102317 -0.0629925 0.11932 -0.961541 0.27266 0.0331021
0.0345272 -0.0970921 0.529329 0.707115 -0.707095 0.00223104
-0.00732576 -0.040511 0.119713 -0.581584 0.719389 0.37979
0.0140164 -0.0195244 0.861964 0.258055 0.963153 0.0757927
0.0345016 -0.0276632 0.10004 0.0335533 0.836467 -0.546989
-0.221124 -0.066803 0.497144 0.442073 -0.199265 -0.874566
-0.0466085 -0.0749449 0.476547 -0.965923 -0.258831 -0.000363373
-0.0220639 -0.0679197 0.526072 0 -1 0
0.233239 -0.0679197 0.470689 0 -1 0
-0.0124137 -0.0679197 0.57419 0 -1 0
0.0189684 -0.0177449 0.604998 0.258803 0.96593 -0.00100637
-0.0241902 -0.106051 0.691338 -0.258815 -0.965926 0.00135933
-0.000934241 -0.0719472 0.163653 0.999405 -0.0226987 0.0259573
