-0.0305567 -0.0479237 0.135094 -0.958602 -0.257213 -0.122162
-0.0422534 -0.0590534 0.772844 -0.965927 -0.258815 -2.26311e-06
-0.0122386 -0.0496397 0.587293 0.158897 0.984444 0.0749846
0.00973644 -0.0260389 0.541344 0.707089 0.707124 -0.0003344
-0.234988 -0.0443404 0.501698 -0.319469 0.249827 0.914071
-0.0120726 -0.0173671 0.188316 -0.258816 0.965921 0.00325618
-0.042115 -0.0455109 0.343483 -0.965752 0.258726 -0.0195908
-0.0309676 -0.0250385 0.778259 -0.707103 0.70711 -0.00125049
-0.139094 -0.0544623 0.505046 0 -1 0
-0.00351811 -0.0197317 0.35015 0.258822 0.965916 0.00416292
-0.0407614 -0.0372411 0.672143 -0.965925 0.258822 -0.000670009
0.157083 -0.0544623 0.509499 0 -1 0
0.129353 -0.0544623 0.546168 0 -1 0
0.0185486 -0.0560294 0.860554 0.964225 -0.25818 0.0601132
-0.165617 -0.0544623 0.512448 0 -1 0
0.0211105 -0.0559874 0.687459 0.965926 -0.258819 -5.84766e-06
-0.0237765 -0.0210234 0.529447 -0.258811 0.965928 -0.000670855
0.200812 -0.0442364 0.502203 0 1 0
-0.0241315 -0.0215832 0.148325 -0.706851 0.706767 -0.0290169
-0.153905 -0.0442364 0.53029 0 1 0
-0.0387902 -0.0331164 0.566797 -0.707088 0.707126 -0.000336441
-0.0264831 -0.0800907 0.372873 -0.258297 -0.964161 -0.0606283
-0.00739878 -0.083531 0.605579 0.258808 -0.965927 0.00182088
-0.0280663 -0.0767871 0.338529 -0.706069 -0.706233 -0.0519774
0.00540148 -0.0220711 0.477607 0.258843 0.965918 -0.00181982
-0.0682603 0.0301189 0.130366 -0.99938 -0.0227272 -0.0268954
0.0126269 -0.0733387 0.469732 0.707097 -0.707117 0.000337758
-0.0185821 -0.0472903 0.569891 0.158898 0.984443 0.0749828
-0.0324144 -0.0267445 0.558874 -0.707112 0.707101 -0.000336414
0.00306092 -0.0222484 0.155467 0.707049 0.707003 -0.0150945
-0.0265992 -0.0216453 0.685864 -0.258824 0.965923 -0.00158297
0.0165664 -0.0377909 0.107556 -0.0749482 -0.987229 -0.14058
-0.029103 -0.024893 0.222626 -0.707042 0.707011 -0.0150937
0.0182761 -0.0636032 0.357622 0.965241 -0.258735 -0.036964
-0.000538705 -0.0815846 0.667357 0.258808 -0.965928 0.00090664
-0.0400552 -0.0345293 0.514393 -0.965928 0.258808 -0.000909446
-0.0705527 -0.0524958 0.56791 -0.353135 0.212683 0.911077
-0.0374561 -0.0315326 0.820608 -0.706083 0.70617 0.0526273
0.0407396 -0.0517876 0.221719 0.270312 -0.953893 0.130459
0.00805971 -0.0240968 0.777114 0.707106 0.707106 -0.00124903
-0.0821953 -0.0442364 0.521606 0 1 0
0.0212384 -0.0463225 0.590188 0.965927 0.258814 0.000242216
5.93062e-05 -0.0244162 0.0498012 0.962111 0.257477 -0.0897115
-0.0700399 -0.0333903 0.137655 -0.971021 0.238489 -0.0155267
0.00800691 -0.0273917 0.100331 0.036576 0.916013 -0.399478
-0.0516475 -0.0305401 0.0938717 -0.0627373 -0.984422 -0.164247
-0.0403314 -0.0666947 0.500246 -0.965924 -0.258824 -0.000241786
-0.0373295 -0.031451 0.749866 -0.707147 0.707065 -0.00125175
-0.000859358 -0.0820331 0.385893 0.258814 -0.965927 0.00067127
-0.226273 -0.0537981 0.477993 0.178826 0.499018 -0.84794
0.0219606 -0.052817 0.776048 0.965926 -0.258819 -5.84766e-06
-0.0214363 -0.034716 0.0434501 -0.955567 -0.256537 -0.14519
0.230413 -0.0442364 0.487844 0 1 0
-0.00211396 -0.0233659 0.890953 0.258448 0.964698 0.0506183
0.00631645 -0.0729975 0.289948 0.706077 -0.706225 -0.0519785
-0.0397702 -0.0470368 0.883521 -0.964358 0.258584 0.056103
-0.0409849 -0.0637863 0.69512 -0.965923 -0.25883 -3.81048e-06
-0.0199552 -0.0386449 0.133019 -0.0749522 -0.987222 -0.140622
-0.0376714 -0.0322581 0.406448 -0.707108 0.707104 -0.00148769
-0.00318721 -0.0196116 0.633365 0.258823 0.965925 -0.000669113
0.0459012 0.00759798 0.133519 0.999381 0.0227231 0.0268607
-0.00425594 -0.0485464 0.556023 0.158901 0.984443 0.0749784
-0.23957 -0.0534715 0.475381 0.178861 0.498857 -0.848028
0.00465284 -0.0218575 0.335383 0.258836 0.965912 0.00416444
0.00760054 -0.0783411 0.519737 0.707097 -0.707117 0.000337758
0.0458008 -0.068525 0.154928 0.269787 -0.952472 -0.141463
0.0421284 0.0278107 0.103515 -0.999381 -0.0227211 -0.0268695
-0.0570501 -0.0442364 0.538323 0 1 0
-0.0617809 -0.0212926 0.0860735 0.999381 0.0226855 0.0268834
0.0559964 -0.040947 0.108699 -0.0749449 -0.987222 -0.140628
-0.0175725 -0.0569616 0.123896 -0.254067 -0.948656 -0.188421
0.00169228 -0.0726202 0.242029 0.258296 -0.964162 -0.0606288
-0.0548592 -0.0502009 0.219422 0.953726 -0.300678 -0.000214986
-0.0280198 -0.0225192 0.448026 -0.707113 0.707099 -0.00148717
0.0428815 0.0213058 0.0810123 -0.99938 -0.0226939 -0.0269158
-0.0769187 -0.031283 0.111697 -0.0749398 -0.987221 -0.140636
0.126072 -0.0544623 0.514715 0 -1 0
-0.0283201 -0.0281894 0.11196 -0.963435 0.257946 -0.0724988
-0.0262455 -0.054624 0.961179 -0.93289 -0.249211 0.26002
-0.029183 -0.0783366 0.775257 -0.707113 -0.7071 0.000571632
0.0413877 -0.0471578 0.212547 -0.272582 0.962129 -0.0026503
-0.0630259 0.0265383 0.0919406 0.999384 0.0227264 0.0267324
-0.198522 -0.0442364 0.496912 0 1 0
0.00832084 -0.0775067 0.574086 0.707119 -0.707093 0.00148431
-0.0323011 -0.0412181 0.920959 -0.948071 0.254569 0.190674
-0.0282789 -0.0795992 0.532949 -0.707103 -0.707109 0.00148566
-0.0407337 -0.0374031 0.41729 -0.965928 0.258808 -0.000909446
0.00932146 -0.0687152 0.272585 0.706075 -0.706227 -0.0519783
0.0119528 -0.0737393 0.638545 0.707119 -0.707093 0.00148431
-0.00447059 -0.0297939 0.923394 0.251938 0.94105 0.225728
0.0183883 -0.0666276 0.512229 0.965928 -0.258812 -0.0002425
0.0214699 -0.0472193 0.625215 0.965927 0.258814 0.000242216
-0.0428104 -0.0448136 0.700914 -0.965925 0.258822 -0.000670009
-0.0363525 -0.0258932 0.125848 0.0749518 0.987222 0.140623
-0.0660276 -0.0544623 0.51631 0 -1 0
0.255003 -0.0544623 0.490034 0 -1 0
-0.036202 -0.0414954 0.183624 -0.641361 0.088257 0.762146
0.0196445 -0.04353 0.344691 0.965755 0.258716 -0.019593
0.0221068 -0.0522715 0.79491 0.965926 -0.258819 -5.84766e-06
0.179572 -0.0544623 0.526261 0 -1 0
0.0392935 -0.0694325 0.171725 -0.24496 -0.969533 0.000539583
0.00597553 -0.022543 0.398511 0.70709 0.707122 -0.00148588
0.33146 -0.051809 0.473464 0.316371 0.158096 0.935369
-0.331592 -0.0521038 0.452512 0.222736 0.444575 -0.867607
-0.138933 -0.0442367 0.506196 5.01123e-05 1 -0.000264724
0.0512134 -0.0501841 0.139662 0.696529 0.716698 -0.0345221
0.0120553 -0.0283174 0.626575 0.707089 0.707124 -0.0003344
-0.0341199 -0.0625514 0.909423 -0.952877 -0.254884 0.1645
0.00830016 -0.0494193 0.580483 -0.15973 0.984522 0.0721247
0.00281438 -0.0431467 0.0839569 0.697217 -0.697748 -0.164428
0.0129846 -0.0354505 0.186333 0.964902 0.258403 -0.0468216
-0.0363588 -0.0538949 0.212556 -0.962511 -0.258144 -0.0832776
-0.0451866 -0.0517242 0.577554 -0.348047 0.223337 0.910485
-0.00794075 -0.0185003 0.475278 0.258823 0.965923 -0.00182016
0.0471385 -0.0255967 0.099581 0.980242 -0.188704 0.0592909
0.00404065 -0.0806743 0.451927 0.258814 -0.965927 0.00067127
0.0134584 -0.0307419 0.274875 0.707139 0.70706 -0.00453207
-0.0274134 -0.0224725 0.315477 -0.707101 0.707098 -0.00453125
0.0384648 -0.0459274 0.153009 -0.074957 -0.987225 -0.140601
0.0460325 0.0624694 0.0822445 0.999378 0.0227476 0.0269405
-0.0755591 -0.0553777 0.229636 -0.737321 -0.675543 0.000514112
-0.0328677 -0.0697957 0.308756 -0.706071 -0.706231 -0.051977
-0.0336609 -0.0742806 0.444812 -0.707102 -0.707112 0.000336434
0.0194913 -0.062436 0.432068 0.965928 -0.258812 -0.0002425
0.179284 -0.0544623 0.503445 0 -1 0
-0.00928377 -0.0469716 0.546001 0.158902 0.984444 0.0749688
0.00423059 -0.0413225 0.138926 -0.074954 -0.987226 -0.140597
0.100153 -0.0442364 0.545695 0 1 0
0.285394 -0.0539234 0.466657 -0.218634 0.433071 -0.874442
-0.0656349 -0.0394709 0.0915559 -0.999381 -0.0227272 -0.0268545
0.0762155 -0.0442364 0.544679 0 1 0
-0.0156266 -0.0830082 0.806182 -0.258821 -0.965925 0.000906101
0.0149411 -0.0705842 0.812579 0.707106 -0.707107 0.000573095
-0.0163079 -0.0830043 0.637253 -0.258813 -0.965926 0.00181822
-0.0702005 -0.0442364 0.541221 0 1 0
-0.0063657 -0.0366647 0.0283325 0.252419 -0.9426 -0.218607
0.0207927 -0.0567263 0.375201 0.965241 -0.258735 -0.036964
0.00188131 -0.0208177 0.740528 0.258843 0.965918 -0.00158243
0.0769447 -0.0544623 0.563633 0 -1 0
0.0183408 -0.0663236 0.659546 0.965926 -0.258819 -5.84766e-06
0.238693 -0.0544623 0.48197 0 -1 0
-0.210238 -0.0538055 0.481371 0.178826 0.499018 -0.84794
-0.0119245 -0.0175117 0.808872 -0.25881 0.965927 -0.00158336
-0.0293883 -0.0303065 0.899074 -0.690568 0.691191 0.213005
-0.0417604 -0.0410011 0.659917 -0.965925 0.258822 -0.000670009
-0.00572195 -0.0462163 0.528536 0.158899 0.984444 0.0749758
-0.0393032 -0.0406329 0.269293 -0.965755 0.258716 -0.0195923
-0.258373 -0.0544623 0.486289 0 -1 0
0.00385565 -0.0215184 0.605001 0.258797 0.965931 -0.00067197
0.0204647 -0.043394 0.512648 0.965928 0.258808 -0.000909124
0.019788 -0.0613454 0.449835 0.965928 -0.258812 -0.0002425
-0.04011 -0.0671295 0.636346 -0.965928 -0.258808 0.000909437
0.0216864 -0.0478961 0.721258 0.965926 0.258819 -0.000673593
-0.286103 -0.0479164 0.484799 -0.320387 0.257689 0.911564
-0.0243642 -0.0214458 0.382624 -0.258849 0.965916 -0.00181815
0.017765 -0.0505083 0.252615 0.965239 -0.258741 -0.0369636
0.0542618 -0.0642298 0.197849 0.969535 -0.244947 0.00181362
0.147777 -0.0463486 0.53688 0.337686 0.331526 0.880942
-0.0196647 -0.0662295 0.182569 -0.256435 -0.957441 -0.132471
-0.0338463 -0.0319361 0.0925783 -0.103937 -0.987241 -0.120635
-0.0443768 -0.0513673 0.590281 -0.965923 -0.258827 0.000907057
-0.0660866 -0.00653988 0.0804998 -0.999382 -0.0227061 -0.026817
-0.0291905 -0.0236236 0.479531 -0.707113 0.707099 -0.00148717
-0.0250649 -0.0271918 0.0744537 -0.962094 0.257542 -0.0897071
-0.182853 -0.0544623 0.491609 0 -1 0
-0.041859 -0.0609449 0.538742 -0.965928 -0.258808 0.000909437
0.0214812 -0.0550138 0.541849 0.965928 -0.258808 0.000909117
-0.0695318 -0.0377995 0.15351 -0.0749414 -0.987224 -0.140616
-0.0636301 0.0179987 0.121634 0.999379 0.0227452 0.0269215
-0.0160924 -0.0346634 0.103007 -0.0749604 -0.987223 -0.140612
0.00015523 -0.0205642 0.825972 0.25847 0.964692 0.0506209
0.0138268 -0.0491768 0.191367 0.962513 -0.258136 -0.0832723
-0.00976095 -0.0824933 0.350246 0.258293 -0.964162 -0.0606286
-0.0232894 -0.0612992 0.155737 -0.702286 -0.702616 -0.114564
0.0195396 -0.0451014 0.31877 0.965755 0.258716 -0.019593
-0.070842 -0.0590775 0.17314 -0.300679 -0.953725 0.000483768
-0.0166266 -0.0604679 0.140274 -0.254067 -0.948656 -0.188421
-0.000129191 -0.0230545 0.0644516 0.70657 0.706458 -0.040946
0.227768 -0.0544623 0.499595 0 -1 0
0.037373 -0.0544623 0.558717 0 -1 0
-0.00561339 -0.0787352 0.308151 0.258293 -0.964162 -0.0606286
-0.0533098 -0.0291989 0.158097 0.0749198 0.987222 0.140642
-0.0147083 -0.0186372 0.500026 -0.258851 0.965916 -0.00182015
-0.0495979 -0.0442364 0.561272 0 1 0
0.0159228 -0.0322203 0.551367 0.707107 0.707106 -0.000334377
0.0150666 -0.0317618 0.36666 0.707113 0.707086 -0.00453262
-0.000337224 -0.0739438 0.254432 0.258296 -0.964162 -0.0606288
0.0214902 -0.0490048 0.829264 0.964362 0.258572 0.0561016
-0.0283643 -0.061208 0.944846 -0.952888 -0.254855 0.164477
0.00793104 -0.0778244 0.608454 0.707119 -0.707093 0.00148431
0.0331267 -0.0533152 0.172375 -0.969539 0.244929 -0.00181704
0.0668843 -0.0545348 0.508824 0.0152318 -0.999378 0.031804
-0.00392461 -0.0806801 0.844223 0.258311 -0.963832 0.0655967
0.0476013 -0.0442364 0.557851 0 1 0
-0.0484891 -0.0406934 0.162612 -0.0749535 -0.987223 -0.140616
-0.0420854 -0.0421188 0.552992 -0.965928 0.258812 0.000240133
0.0161371 -0.0694871 0.690134 0.707119 -0.707095 0.000571178
-0.010253 -0.0297625 0.105578 0.538711 0.813978 0.217326
-0.0593656 -0.0229734 0.117617 0.0749579 0.987226 0.140594
-0.0187606 -0.0199102 0.40071 -0.258822 0.965923 -0.00181816
-0.102792 -0.0296853 0.114271 -0.0749961 -0.987233 -0.140526
0.013194 -0.0411005 0.906599 0.948058 0.254612 0.190679
-0.0363231 -0.0313662 0.317989 -0.707106 0.707093 -0.00453136
0.0127254 -0.0602625 0.219262 0.702288 -0.702615 -0.114562
-0.0210692 -0.0222787 0.864003 -0.258447 0.964698 0.050623
0.070507 -0.0442364 0.530049 0 1 0
0.0272663 -0.045286 0.154477 -0.0749861 -0.987219 -0.140625
-0.0393148 -0.0392661 0.147701 -0.0749589 -0.987222 -0.140616
0.300495 -0.0544623 0.478244 0 -1 0
-0.00901964 -0.0251223 0.908996 0.25189 0.94106 0.225739
-0.0293479 -0.0544623 0.547037 0 -1 0
0.0640625 -0.0387669 0.0890929 -0.074973 -0.987217 -0.140647
-0.016051 -0.018473 0.200154 -0.258824 0.965919 0.00325537
-0.0238008 -0.0808635 0.757545 -0.258821 -0.965925 0.000906101
-0.0168333 -0.0642182 0.975826 -0.613435 -0.612111 0.499017
-0.000158982 -0.0814535 0.698568 0.258808 -0.965928 0.00090664
0.0533802 -0.0442364 0.532836 0 1 0
0.0507508 -0.0555349 0.126163 0.93156 -0.235997 -0.27659
-0.0388972 -0.068661 0.727124 -0.707122 -0.707091 0.000572931
0.0470164 -0.0381959 0.0941713 -0.0749623 -0.987221 -0.140627
0.00343388 -0.0808129 0.486379 0.258814 -0.965927 0.00067127
-0.0432264 -0.0538639 0.510789 0.155377 0.532088 -0.83231
0.207858 -0.0544623 0.495649 0 -1 0
-0.0395112 -0.0357159 0.835793 -0.964358 0.258584 0.056103
-0.042307 -0.0433786 0.387543 -0.965923 0.258827 -0.000907061
7.14804e-05 -0.0222093 0.85775 0.25847 0.964692 0.0506209
-0.0753065 -0.0407728 0.179047 -0.675627 0.737238 -0.00278813
-0.0170201 -0.020806 0.0201652 -0.70667 0.706356 -0.040962
-0.0672672 0.0114498 0.151688 0.864395 0.345169 0.365621
-0.194797 -0.0455885 0.516744 -0.348697 0.332181 0.876394
-0.024209 -0.079608 0.355509 -0.258297 -0.964161 -0.0606283
0.12532 -0.0442364 0.541504 0 1 0
-0.10079 -0.047981 0.554733 -0.340587 0.339128 0.876922
0.0412687 0.0543204 0.11308 -0.999381 -0.0227236 -0.0268511
0.0382285 -0.0544623 0.528859 0 -1 0
-0.0210807 -0.0345528 0.932495 0.847634 0.529451 0.0346069
-0.276923 -0.0514892 0.466914 0.228633 0.433552 -0.871642
-0.0666875 -0.0157671 0.173724 0.957845 0.170201 0.231442
-0.0945165 -0.0544623 0.529769 0 -1 0
-0.035437 -0.0294623 0.804065 -0.707147 0.707065 -0.00125175
-0.0639372 -0.0544623 0.544199 0 -1 0
0.343901 -0.0536938 0.467928 0.231368 0.967246 -0.104426
-0.0362117 -0.0544623 0.565213 0 -1 0
-0.0411293 -0.038614 0.621184 -0.965924 0.258824 0.000241786
-0.0434965 -0.0544131 0.682597 -0.965923 -0.25883 -3.81048e-06
0.000851417 -0.0780539 0.324857 0.258296 -0.964162 -0.0606288
-0.0415357 -0.0520617 0.86118 -0.964217 -0.258211 0.0601092
-0.0170438 -0.0187323 0.11301 -0.258796 0.965924 -0.00382508
-0.0120691 -0.0786855 0.289119 -0.258295 -0.964162 -0.0606285
-0.0208146 -0.0200093 0.738354 -0.258801 0.965929 -0.00158413
-0.00158229 -0.0202512 0.450239 0.258842 0.965918 -0.00181987
0.0180811 -0.0655468 0.827175 0.964225 -0.25818 0.0601132
-0.10462 -0.0203097 0.123038 0.0748527 0.987217 0.140708
0.0135164 -0.0347504 0.201155 0.964902 0.258403 -0.0468216
0.0187805 -0.0370786 0.710578 0.965928 0.258811 -0.000672678
0.0102215 -0.0262222 0.797726 0.707106 0.707106 -0.00124903
-0.067583 0.0571082 0.0823521 -0.999379 -0.0226951 -0.0269431
-0.111015 -0.0533518 0.499133 0.12826 0.51892 -0.845146
-0.0288292 -0.0754198 0.855581 -0.705778 -0.705573 0.0635935
-0.0406774 -0.0337229 0.10951 -0.0749493 -0.987227 -0.14059
0.0517922 -0.066945 0.183995 0.717164 -0.696904 8.75364e-06
-0.0409315 -0.0377512 0.720334 -0.965925 0.258819 -0.000670288
-0.0401759 -0.0668062 0.73846 -0.965923 -0.25883 -3.81048e-06
0.0137525 -0.0307862 0.313844 0.707113 0.707086 -0.00453262
-0.0894953 -0.0446435 0.510733 0.120322 0.720241 -0.68321
0.0412345 0.0813595 0.0914886 -0.999379 -0.0227317 -0.0269216
-0.0110007 -0.0505345 0.0828303 -0.25242 -0.942602 -0.2186
0.0124493 -0.0287855 0.508436 0.70709 0.707122 -0.00148588
-0.0310613 -0.0751844 0.833421 -0.705778 -0.705573 0.0635935
0.0442108 0.0349946 0.122522 0.93873 0.221932 0.263688
0.0699847 -0.0542191 0.568613 0.342224 0.212337 0.915312
-0.0428929 -0.0429646 0.175575 -0.0749363 -0.987225 -0.140612
-0.00262152 -0.0673292 0.959701 0.690696 -0.69007 0.216199
-0.00526964 -0.0193683 0.374718 0.258813 0.965919 0.00416352
-0.0341404 -0.0283639 0.692053 -0.707119 0.707094 -0.00125179
-0.0164203 -0.0201544 0.847257 -0.258446 0.964698 0.050623
-0.00397692 -0.0758459 0.905395 0.256811 -0.957931 0.128128
-0.00172582 -0.0200552 0.558275 0.258842 0.965919 -0.000669107
-0.0189954 -0.019682 0.304483 -0.258815 0.965918 0.0041636
0.0471864 -0.0156952 0.105417 0.999381 0.0226903 0.0268841
0.0421186 -0.029583 0.15241 -0.999382 -0.0227238 -0.026832
-0.00463321 -0.0647406 0.167289 0.256454 -0.957436 -0.13247
0.00615557 -0.0307793 0.137496 0.0749772 0.987221 0.140617
0.0429823 -0.0487464 0.577106 0.323282 0.355508 0.876985
-0.0668396 -0.00629476 0.10832 -0.999382 -0.0227044 -0.02683
0.0339102 -0.0532517 0.149203 -0.968564 0.244579 -0.0454307
-0.0183218 -0.0823506 0.737264 -0.258812 -0.965927 0.000905119
-0.0387645 -0.0328159 0.789576 -0.707147 0.707065 -0.00125175
-0.0596669 -0.0577886 0.231006 0.675605 -0.737264 0.000632676
0.0126014 -0.044006 0.153307 -0.0749707 -0.98722 -0.140625
0.015195 -0.0640668 0.879822 0.964219 -0.258199 0.0601176
-0.0168601 -0.0191584 0.546309 -0.25885 0.965917 -0.000670841
-0.03861 -0.0692187 0.556527 -0.707114 -0.707098 0.00148766
0.0524266 -0.0576836 0.230435 -0.956467 -0.270844 0.108691
-0.0737708 -0.0392642 0.230539 -0.675588 0.737276 -0.00223096
0.301987 -0.0461946 0.471287 0.141963 0.987781 -0.0643014
-0.160762 -0.0442364 0.511195 0 1 0
-0.0272853 -0.0226167 0.272977 -0.707101 0.707098 -0.00453125
0.0119401 -0.035448 0.167191 0.074969 0.98722 0.140631
-0.0210723 -0.0436094 0.0722113 -0.693643 -0.694227 -0.192113
-0.0174787 -0.0701016 0.949358 -0.256776 -0.957939 0.128136
-0.116971 -0.0442364 0.533696 0 1 0
0.0102869 -0.0299954 0.869811 0.706053 0.7062 0.0526291
0.0462274 0.0384524 0.0953093 0.999384 0.022726 0.0267289
-0.0148172 -0.0184903 0.684705 -0.258822 0.965924 -0.00158412
0.0612177 -0.0544623 0.55658 0 -1 0
0.0656756 -0.0443151 0.518981 0.00488222 0.999985 -0.00229856
0.0158779 -0.0544623 0.558435 0 -1 0
0.044969 -0.0701997 0.227401 0.272646 -0.962114 0.00106713
-0.0618136 -0.0238603 0.102261 -0.0231664 0.906899 -0.420711
-0.0323645 -0.0755695 0.460462 -0.707102 -0.707112 0.000336434
-0.00404951 -0.0600042 0.139676 0.254059 -0.948656 -0.188428
0.0422278 -0.0184015 0.138894 -0.99938 -0.022717 -0.0268821
0.142653 -0.0544623 0.511805 0 -1 0
0.0474533 -0.0418355 0.11949 -0.0749407 -0.987224 -0.140619
-0.000568842 -0.0205839 0.364533 0.258836 0.965912 0.00416444
-0.0128654 -0.0181059 0.520423 -0.25885 0.965917 -0.000670841
-0.0815932 -0.0442364 0.552937 0 1 0
0.0473822 -0.0157179 0.081601 0.806964 0.0376822 -0.589397
-0.0385139 -0.0328249 0.598802 -0.707088 0.707126 -0.000336441
0.00203659 -0.0398208 0.937939 -0.397095 0.91174 0.105101
0.0110621 -0.0547152 0.176581 0.962511 -0.258144 -0.0832715
-0.0290574 -0.0784504 0.789794 -0.707113 -0.7071 0.000571632
-0.00609389 -0.0186415 0.257346 0.258822 0.965916 0.00416292
-0.0340169 -0.0357805 0.165311 -0.964899 0.258412 -0.0468267
0.0109957 -0.0272857 0.567576 0.707089 0.707124 -0.0003344
-0.0049379 -0.0831169 0.398909 0.258814 -0.965927 0.00067127
0.0202227 -0.0426766 0.459717 0.965928 0.258808 -0.000909124
0.198696 -0.0442364 0.515271 0 1 0
0.0220949 -0.0498264 0.413564 0.965928 0.258808 -0.000909124
-0.0377476 -0.060462 0.88586 -0.964217 -0.258211 0.0601092
-0.00869628 -0.0491959 0.981647 0.22428 0.838452 0.496685
-0.0683344 0.0501694 0.116165 -0.999381 -0.0227332 -0.0268662
-0.02016 -0.0199981 0.610546 -0.25885 0.965917 -0.000670841
0.0492994 -0.0372869 0.145132 0.713072 0.127831 0.689338
-0.0282092 -0.0796978 0.517244 -0.707102 -0.707112 0.000336423
0.0698889 -0.0544623 0.547615 0 -1 0
0.102552 -0.0468147 0.507162 -0.112669 0.719828 -0.684947
-0.0326054 -0.0274705 0.345748 -0.7071 0.707099 -0.00453114
-0.0425035 -0.0581201 0.751232 -0.965927 -0.258815 -2.26311e-06
0.0136893 -0.0474378 0.56537 -0.15973 0.984522 0.0721374
-0.0310388 -0.0769164 0.415915 -0.707102 -0.707112 0.000336434
0.0154696 -0.0320526 0.391149 0.707115 0.707097 -0.00148768
-0.00418651 -0.0195281 0.463646 0.258819 0.965924 -0.00181988
-0.0575036 -0.0558339 0.207538 0.675641 -0.737225 0.00278582
0.114735 -0.0442364 0.516583 0 1 0
-0.0129254 -0.0840984 0.537643 -0.258833 -0.96592 0.00182087
0.00250676 -0.0811098 0.416683 0.258814 -0.965927 0.00067127
-0.0346958 -0.0287845 0.768205 -0.707147 0.707065 -0.00125175
0.054473 -0.0544623 0.548516 0 -1 0
-0.00154196 -0.0544623 0.538244 0 -1 0
-0.0331413 -0.0705205 0.322323 -0.706071 -0.706231 -0.051977
0.00318836 -0.0263499 0.0778086 0.962101 0.257514 -0.0897113
-0.06814 0.0705433 0.0917214 -0.999385 -0.022697 -0.0267187
-0.0651627 0.0252597 0.0810618 0.796349 0.0607951 -0.601775
0.0914116 -0.0544623 0.537385 0 -1 0
0.0156218 -0.0496477 0.528355 0.158899 0.984444 0.074977
-0.0129189 -0.0177957 0.798116 -0.25881 0.965927 -0.00158336
0.261732 -0.0442364 0.487806 0 1 0
0.0523048 -0.0303926 0.110181 0.0749743 0.987208 0.140707
-0.0898896 -0.0298126 0.108288 -0.0749534 -0.987224 -0.140607
-0.0430435 -0.0565431 0.468237 -0.965928 -0.258811 -0.000240135
0.00489715 -0.0230615 0.203403 0.707026 0.707026 -0.0150897
-0.123471 -0.0442364 0.515911 0 1 0
-0.00749799 -0.0349525 0.134796 -0.402796 0.883994 0.237298
0.0095106 -0.0761055 0.700472 0.707119 -0.707095 0.000571178
-0.104567 -0.0544623 0.515616 0 -1 0
-0.0683668 0.0223018 0.142305 -0.999654 -0.0199111 -0.0172054
-0.00621192 -0.0829896 0.790032 0.258822 -0.965925 0.000905115
-0.0466301 -0.0442367 0.522201 2.24376e-05 1 -9.43159e-05
-0.00885975 -0.0544623 0.575573 0 -1 0
-0.0402412 -0.0363385 0.372248 -0.965752 0.258726 -0.0195908
0.0471391 0.00376427 0.0907263 0.99938 0.0227422 0.0268656
-0.134683 -0.0442364 0.534447 0 1 0
-0.0672719 0.0203928 0.101824 -0.99938 -0.0227411 -0.0268702
-0.308867 -0.0467555 0.47409 -0.141293 0.98772 -0.0666752
0.0210118 -0.0563554 0.671596 0.965926 -0.258819 -5.84766e-06
-0.0232351 -0.0814513 0.401833 -0.258818 -0.965926 0.000668845
-0.110254 -0.0275643 0.103356 -0.0749004 -0.987217 -0.140686
-0.0580468 -0.0423478 0.135468 0.970452 0.21493 -0.109675
-0.029177 -0.0784095 0.692475 -0.707113 -0.7071 0.000571632
0.0126351 -0.0733647 0.397766 0.707107 -0.707106 0.000335894
0.00207582 -0.0225214 0.123242 0.706852 0.706766 -0.0290211
0.0140718 -0.0454586 0.539202 -0.159731 0.984522 0.0721345
-0.0120043 -0.0844173 0.464268 -0.258818 -0.965926 0.000668845
-0.287767 -0.0544623 0.473879 0 -1 0
0.00715652 -0.0788255 0.435047 0.707097 -0.707117 0.000337758
0.233197 -0.0447358 0.504795 0.308668 0.249363 0.917901
-0.203658 -0.0544623 0.495139 0 -1 0
0.0128865 -0.0728376 0.623278 0.707119 -0.707093 0.00148431
-0.0409066 -0.0642189 0.618528 -0.965928 -0.258808 0.000909437
-0.0172653 -0.0304037 0.12536 0.538762 0.813923 0.217407
-0.303269 -0.0544623 0.465874 0 -1 0
0.0875379 -0.0442364 0.550157 0 1 0
-0.0295497 -0.071603 0.28824 -0.706069 -0.706233 -0.0519774
-0.0432733 -0.0552458 0.665708 -0.965923 -0.25883 -3.81048e-06
-0.0235432 -0.0813532 0.424147 -0.258833 -0.965922 0.000670775
-0.0710383 -0.0374352 0.210689 -0.216426 0.976295 -0.0026965
-0.185025 -0.0535927 0.523206 -0.361659 0.20727 0.908978
0.00540407 -0.0226833 0.275527 0.707106 0.707093 -0.00453278
0.0832766 -0.0544119 0.509447 -0.00564651 -0.999326 -0.0362676
-0.00661487 -0.0186779 0.29818 0.258822 0.965916 0.00416292
0.0196659 -0.0403016 0.741956 0.965928 0.258811 -0.000672678
0.268087 -0.0544623 0.474283 0 -1 0
-0.0263874 -0.0803329 0.621649 -0.258813 -0.965926 0.00181822
0.0419524 0.0193273 0.144582 0.84798 0.387542 0.361581
0.00774188 -0.0251732 0.839247 0.706053 0.7062 0.0526291
-0.0682891 0.0822394 0.087366 -0.999381 -0.0227039 -0.0268558
-0.04228 -0.0551335 0.836045 -0.964225 -0.25818 0.0601159
0.0286157 -0.0389031 0.108943 -0.0749303 -0.987228 -0.140595
-0.0429456 -0.0544623 0.525935 0 -1 0
-0.0255744 -0.0686846 0.215038 -0.702286 -0.702616 -0.114564
0.0184402 -0.032857 0.145535 0.0749388 0.987225 0.140607
0.0173877 -0.0336627 0.598793 0.707085 0.707128 -0.000335931
0.0899183 -0.040601 0.0881868 -0.0749283 -0.987236 -0.140535
-0.0147472 -0.0185103 0.661028 -0.258822 0.965924 -0.00158412
-0.0562837 -0.0421557 0.20886 0.73728 0.675588 7.84277e-05
0.0229576 -0.046825 0.577531 -0.159729 0.984522 0.0721278
0.0191572 -0.063723 0.474989 0.965928 -0.258812 -0.0002425
0.0291407 -0.030682 0.12456 0.0749893 0.987217 0.140639
-0.0416652 -0.0589698 0.362399 -0.965238 -0.258746 -0.036963
0.0046434 -0.0775538 0.856418 0.258311 -0.963832 0.0655967
-0.0638073 -0.000174065 0.143094 0.998931 0.0288815 0.0360942
-0.0149587 -0.083275 0.712477 -0.258812 -0.965927 0.000905119
-0.0135676 -0.0838285 0.589513 -0.258833 -0.96592 0.00182087
-0.0210839 -0.0225286 0.0605688 -0.706603 0.706424 -0.0409543
-0.0207759 -0.081961 0.555527 -0.258833 -0.96592 0.00182087
-0.0150878 -0.031773 0.0149597 -0.578416 -0.579627 -0.573993
-0.0416393 -0.0465885 0.305804 -0.965755 0.258716 -0.0195923
-0.042767 -0.0571366 0.786298 -0.965927 -0.258815 -2.26311e-06
-0.0371571 -0.0706268 0.577835 -0.707114 -0.707098 0.00148766
-0.0380808 -0.0420244 0.214594 -0.9649 0.258408 -0.0468276
0.0415498 -0.0217909 0.166976 -0.99938 -0.02274 -0.0268826
0.0217985 -0.0484711 0.652203 0.965927 0.258814 0.000242216
-0.159877 -0.0537644 0.533243 -0.361111 0.207115 0.909232
-0.0369499 -0.0494624 0.908854 -0.948052 0.254623 0.190697
-0.0346918 -0.0730558 0.595115 -0.707114 -0.707098 0.00148766
0.0152358 -0.0317295 0.433575 0.707115 0.707097 -0.00148768
-0.0193498 -0.0196648 0.70912 -0.258822 0.965924 -0.00158412
0.0459428 -0.00124129 0.139455 0.99938 0.0227443 0.026865
-0.0207484 -0.0244366 0.0360705 -0.962094 0.257542 -0.0897071
0.0167969 -0.0687848 0.742641 0.707119 -0.707095 0.000571178
0.00702209 -0.0785687 0.731643 0.707106 -0.707107 0.000573095
0.0417565 0.0148278 0.128335 -0.99938 -0.0227551 -0.0268736
0.0550698 -0.0593908 0.160637 0.965868 -0.244209 -0.0863769
-0.0624338 0.000343185 0.0920751 0.99938 0.0226968 0.0269108
-0.0396512 -0.063523 0.341677 -0.965239 -0.258741 -0.0369623
-0.00905538 -0.0178987 0.733637 0.258791 0.965932 -0.00158337
-0.0339277 -0.0284535 0.435496 -0.707103 0.707109 -0.00148616
0.0463554 -0.0698278 0.208448 0.272662 -0.962109 0.00106288
0.0173721 -0.0334299 0.765394 0.707108 0.707104 -0.00124961
0.0142679 -0.0333528 0.224356 0.9649 0.258408 -0.0468222
0.0198178 -0.0608417 0.650013 0.965926 -0.258816 0.000910148
-0.0599639 -0.0581585 0.186127 0.675629 -0.737241 6.44138e-05
-0.068195 0.0422833 0.124407 0.859456 0.307782 0.408174
0.00436624 -0.0216913 0.314639 0.258836 0.965912 0.00416444
-0.057924 -0.0404317 0.171894 0.737327 0.675531 -0.00267765
0.0144516 -0.0308593 0.474429 0.707115 0.707097 -0.00148768
0.0060137 -0.0727772 0.894354 0.705768 -0.705584 0.06359
0.00489014 -0.0257646 0.112802 0.706857 0.706761 -0.0290203
-0.0627937 0.00810901 0.0988932 0.999381 0.0226921 0.0268888
0.0103774 -0.0588248 0.196051 0.702288 -0.702615 -0.114562
0.323915 -0.0544623 0.458636 0 -1 0
-0.0672266 -0.0155863 0.130562 -0.999381 -0.0227172 -0.026872
0.0165979 -0.0587327 0.279707 0.965241 -0.258735 -0.036964
0.0162869 -0.0346091 0.296987 0.965755 0.258716 -0.019593
-0.008534 -0.0176859 0.174952 0.258839 0.965915 0.00325468
-0.0143229 -0.0793966 0.877722 -0.258311 -0.963832 0.0655928
-0.00190209 -0.0821689 0.546779 0.258833 -0.965921 0.00181774
0.174636 -0.0514764 0.491663 -0.152766 0.510014 -0.846492
-0.00911557 -0.0841765 0.48518 0.258832 -0.965922 0.000668842
-0.0055123 -0.0832493 0.429869 0.258832 -0.965922 0.000668842
-0.0559158 -0.0498716 0.155129 0.95004 -0.299693 -0.0872186
0.0158101 -0.0666524 0.853586 0.705763 -0.705589 0.0635916
-0.0175287 -0.0194248 0.483169 -0.258851 0.965916 -0.00182015
0.0426511 -0.0280057 0.131275 -0.99938 -0.022717 -0.0268821
0.0195336 -0.0622349 0.38574 0.965927 -0.258814 -0.000242218
-0.114871 -0.0246171 0.0856527 0.261246 0.730097 -0.631434
0.015282 -0.031493 0.678777 0.707086 0.707126 -0.00125097
0.00949412 -0.0470932 0.551376 -0.159729 0.984522 0.0721249
0.00779265 -0.076967 0.363935 0.706077 -0.706225 -0.0519785
-0.065513 0.069266 0.101248 0.929265 0.175976 0.324807
-0.0406323 -0.0464471 0.258032 -0.965755 0.258716 -0.0195923
-0.062139 -0.0170818 0.0958279 0.999381 0.0226857 0.0268978
-0.255961 -0.0442364 0.478767 0 1 0
0.0434477 -0.0364584 0.10878 -0.999381 -0.0227133 -0.026885
0.0217714 -0.0455575 0.557603 -0.15973 0.984523 0.0721234
-0.00306259 -0.0357377 0.103674 0.720643 0.652069 0.235543
-0.006094 -0.018865 0.586793 0.258823 0.965925 -0.000669113
0.0152751 -0.0702964 0.755404 0.707119 -0.707095 0.000571178
0.146915 -0.0442365 0.507008 -4.71692e-05 1 -0.000265615
0.0198494 -0.0473177 0.849693 0.964362 0.258572 0.0561016
-0.0312247 -0.0675974 0.25657 -0.706069 -0.706233 -0.0519774
-0.00922206 -0.0758051 0.916212 0.256779 -0.957938 0.128139
0.0194931 -0.0544002 0.324984 0.965239 -0.258741 -0.0369636
-0.036925 -0.0601943 0.247184 -0.965239 -0.258741 -0.0369623
-0.0654299 -0.035706 0.111313 0.945392 -0.316421 0.0781766
0.0330081 -0.0536499 0.228362 -0.96953 0.244971 -0.00125575
-0.0360579 -0.0282 0.14189 0.0749277 0.987222 0.140635
-0.0280392 -0.0223777 0.541268 -0.707118 0.707096 -0.000336921
0.103083 -0.0544623 0.551097 0 -1 0
-0.0704472 -0.0331496 0.121351 -0.0749378 -0.987217 -0.140668
0.00384746 -0.0215058 0.619863 0.258797 0.965931 -0.00067197
-0.00251564 -0.0820328 0.754198 0.258822 -0.965925 0.000905115
-0.0815541 -0.049366 0.562732 -0.339789 0.340621 0.876653
0.012056 -0.028232 0.698623 0.707127 0.707086 -0.00125092
0.0177072 -0.0530531 0.886832 0.964219 -0.258199 0.0601176
0.00675735 -0.0230075 0.650995 0.707126 0.707088 -0.000338234
-0.0554641 -0.0440167 0.182493 0.976286 0.216476 -0.0018029
0.0266188 -0.0544623 0.524174 0 -1 0
-0.018171 -0.033002 0.0922461 -0.0589503 -0.988763 -0.137376
0.0457055 -0.00802798 0.154013 0.99938 0.0227504 0.0268719
0.0190098 -0.0374216 0.17531 0.682154 0.162108 0.713013
-0.0303755 -0.0700319 0.896395 -0.700195 -0.699788 0.141506
0.0428207 -0.0433846 0.132835 -0.0749673 -0.987222 -0.140616
-0.0634127 0.0319079 0.101787 0.99938 0.0227146 0.0269016
0.162608 -0.0442364 0.508248 0 1 0
-0.142643 -0.0442364 0.518122 0 1 0
-0.0177798 -0.0364021 0.116115 -0.074958 -0.987224 -0.140603
-0.038378 -0.0695524 0.468249 -0.707102 -0.707112 0.000336423
-0.0139329 -0.083858 0.379317 -0.258297 -0.964161 -0.0606283
0.00191493 -0.0809708 0.639914 0.258808 -0.965927 0.00182088
-0.0889478 -0.0543326 0.503954 -0.015584 -0.999381 0.0315288
-0.0043618 -0.0828948 0.496596 0.258832 -0.965922 0.000668842
-0.0106787 -0.0544623 0.56356 0 -1 0
-0.0205675 -0.0504057 0.530019 -0.159729 0.984522 0.0721307
-0.0253707 -0.02111 0.811625 -0.258824 0.965923 -0.00158297
-0.0293613 -0.0782817 0.644874 -0.707114 -0.707098 0.00148766
0.0901063 -0.0381191 0.108679 0.630644 0.0391693 0.775083
0.00232038 -0.0685421 0.933902 0.700201 -0.699782 0.141508
-0.0400323 -0.0673426 0.782179 -0.965923 -0.25883 -3.81048e-06
0.0415731 0.0638418 0.093716 -0.999379 -0.0227467 -0.0269193
-0.0485393 -0.0544623 0.565246 0 -1 0
-0.213852 -0.0544623 0.510953 0 -1 0
0.0160458 -0.0325016 0.451599 0.707108 0.707104 -0.0014882
-0.00694755 -0.0822992 0.832337 0.258311 -0.963832 0.0655967
0.0470229 0.0122477 0.0878708 0.999381 0.0227123 0.0268518
0.0522073 -0.0629073 0.144738 0.711775 -0.69183 -0.121437
-0.112994 -0.0544623 0.54985 0 -1 0
0.00819364 -0.0296035 0.892636 0.706079 0.706175 0.0526244
-0.0322991 -0.0300656 0.870112 -0.706045 0.706209 0.0526287
0.00460505 -0.0685202 0.220128 0.702284 -0.702618 -0.114561
-0.0367694 -0.0491362 0.202551 -0.962511 -0.258144 -0.0832776
0.020762 -0.0445605 0.677279 0.965928 0.258811 -0.000672678
-0.028226 -0.022926 0.371507 -0.707101 0.707098 -0.00453125
0.296504 -0.0544623 0.463954 0 -1 0
-0.0674036 0.0383253 0.0915549 -0.999384 -0.0226987 -0.0267805
-0.00205855 -0.0519508 0.584461 -0.258825 0.958826 0.116888
-0.000723434 -0.0273599 0.0329577 0.962101 0.257514 -0.0897113
0.0470503 -0.0544623 0.534113 0 -1 0
-0.0208882 -0.0706525 0.938408 -0.256776 -0.957939 0.128136
-0.0203756 -0.0198639 0.260881 -0.258811 0.965919 0.00416363
-0.00703302 -0.0186775 0.510308 0.258823 0.965923 -0.00182016
0.0187474 -0.0546438 0.307215 0.965239 -0.258741 -0.0369636
0.0177558 -0.0345878 0.827013 0.964364 0.25856 0.0561042
-0.0297674 -0.0424659 0.935223 -0.948068 0.254575 0.19068
-0.0248348 -0.04508 0.554123 0.158899 0.984443 0.0749857
0.0211374 -0.0562834 0.42244 0.965927 -0.258814 -0.000242218
0.0252753 -0.0544623 0.550822 0 -1 0
-0.217945 -0.0442364 0.505603 0 1 0
-0.0580119 -0.0473268 0.513648 0.125456 0.721878 -0.680554
-0.0438868 -0.0491792 0.414769 -0.965923 0.258827 -0.000907061
0.0463042 0.00301784 0.122415 0.999379 0.0227568 0.0269031
-0.117631 -0.0453127 0.505073 0.120322 0.720241 -0.68321
-0.169148 -0.0544623 0.501888 0 -1 0
0.249354 -0.0521797 0.501253 0.322879 0.171453 0.930781
0.27864 -0.05304 0.491499 0.314981 0.153096 0.936669
-0.0457978 -0.0267195 0.136684 0.0748975 0.987225 0.140629
0.0872507 -0.0544623 0.520757 0 -1 0
-0.0365024 -0.0710889 0.686446 -0.707113 -0.7071 0.000571632
0.0243958 -0.0452115 0.522858 -0.129803 0.76391 -0.632133
-0.0203397 -0.0822036 0.435629 -0.258818 -0.965926 0.000668845
-0.0159165 -0.0183266 0.13919 -0.258828 0.965916 -0.00382927
0.0162168 -0.0330813 0.340262 0.707113 0.707086 -0.00453262
0.0144738 -0.0688424 0.344304 0.706075 -0.706227 -0.0519783
-0.00141807 -0.0820945 0.513234 0.258832 -0.965922 0.000668842
0.00243026 -0.0210698 0.676501 0.258798 0.96593 -0.00158494
0.0172312 -0.06857 0.586638 0.707098 -0.707114 0.0014882
-0.0296976 -0.0409607 0.154471 -0.0749665 -0.987223 -0.140611
-0.0675028 -0.0600761 0.202813 -0.300668 -0.953723 0.00320347
0.0125143 -0.0300035 0.242776 0.707139 0.70706 -0.00453207
0.0216547 -0.0478976 0.612795 0.965927 0.258814 0.000242216
0.0519686 -0.0503899 0.200749 0.696864 0.717203 -3.06654e-05
0.0524296 -0.0519744 0.239622 0.691532 0.71181 0.122922
0.0106766 -0.0269865 0.525505 0.707089 0.707124 -0.0003344
-0.334506 -0.0544623 0.464458 0 -1 0
0.00417955 -0.0217635 0.230596 0.707026 0.707026 -0.0150897
-0.00425854 -0.05088 0.0934566 0.254013 -0.94867 -0.188422
0.0426566 -0.0442368 0.522626 -2.13896e-05 1 -9.47132e-05
0.0178062 -0.0423314 0.269906 0.965755 0.258716 -0.019593
-0.00670117 -0.0806362 0.855803 0.25833 -0.963827 0.0655924
-0.0308823 -0.0250166 0.742398 -0.707103 0.70711 -0.00125049
0.0207418 -0.053719 0.352823 0.965241 -0.258735 -0.036964
-0.0440642 -0.0493427 0.758836 -0.965925 0.258822 -0.000670009
-0.0673954 -0.0239693 0.143921 -0.999381 -0.0226944 -0.0268619
0.0372681 -0.0655974 0.148455 -0.691646 -0.711961 -0.121397
-0.0406006 -0.0385545 0.360699 -0.965752 0.258726 -0.0195908
-0.0379839 -0.0372658 0.248728 -0.965755 0.258716 -0.0195923
-0.0413336 -0.0394849 0.462015 -0.965928 0.258808 -0.000909446
0.0480541 -0.0544623 0.522619 0 -1 0
-0.129153 -0.0544623 0.514622 0 -1 0
0.0125551 -0.0549763 0.918846 0.952877 -0.254871 0.164518
0.0118138 -0.0279245 0.735484 0.707127 0.707086 -0.00125092
-0.00537074 -0.0190158 0.648884 0.258819 0.965926 -0.000668832
0.0189052 -0.0642186 0.720229 0.965927 -0.258815 -6.23134e-06
-0.00461167 -0.0210881 0.0210346 0.706566 0.706461 -0.0409495
-0.0405275 -0.0363761 0.490565 -0.965928 0.258808 -0.000909446
0.0391671 -0.0453918 0.182147 -0.813394 0.575899 0.0820386
0.00694368 -0.0233212 0.488854 0.70709 0.707122 -0.00148588
-0.0439551 -0.0527027 0.796832 -0.965927 -0.258815 -2.26311e-06
-0.0189546 -0.074156 0.246422 -0.258295 -0.964162 -0.0606285
-0.0621851 -0.0446938 0.22652 0.552965 0.507901 0.660505
-0.0242478 -0.0359021 0.116052 -0.0749484 -0.987223 -0.14062
-0.0133458 -0.0217326 0.89303 -0.258466 0.964693 0.0506205
-0.0293939 -0.0782132 0.667039 -0.707113 -0.7071 0.000571632
0.127168 -0.0544623 0.526373 0 -1 0
0.0675484 -0.0423476 0.112375 -0.0749685 -0.987216 -0.140657
-0.00286326 -0.0195246 0.753838 0.258819 0.965925 -0.00158493
-0.0620782 -0.0492364 0.128495 0.628106 -0.686219 -0.36686
0.00579009 -0.0480183 0.527799 0.158899 0.984444 0.0749758
0.153316 -0.0544623 0.523112 0 -1 0
-0.041947 -0.0596486 0.374508 -0.965238 -0.258746 -0.036963
-0.0741381 -0.023971 0.132494 0.0748726 0.987224 0.140651
-0.0857411 -0.0226011 0.129062 0.0749819 0.987215 0.140657
0.00969044 -0.0461958 0.170234 -0.074948 -0.987225 -0.140608
-0.0517525 -0.0442364 0.551128 0 1 0
-0.00936967 -0.0182426 0.408849 0.258823 0.965923 -0.00182016
0.00352098 -0.0807476 0.529825 0.258833 -0.965921 0.00181774
0.0188834 -0.0378801 0.402296 0.965926 0.258816 -0.000910157
0.0183915 -0.0661377 0.802653 0.965927 -0.258815 -6.23134e-06
0.0199365 -0.0411679 0.797154 0.965926 0.258819 -0.000673593
-0.0400044 -0.0678323 0.411602 -0.965924 -0.258824 -0.000241786
-0.0515405 -0.0334537 0.11341 -0.0749254 -0.987225 -0.140619
0.0615085 -0.0442364 0.542626 0 1 0
0.111328 -0.0442364 0.540479 0 1 0
-0.231483 -0.0442364 0.490696 0 1 0
-0.00954301 -0.0839853 0.680027 0.258822 -0.965925 0.000905115
0.0144829 -0.0544623 0.537157 0 -1 0
-0.0431275 -0.0557905 0.70292 -0.965923 -0.25883 -3.81048e-06
0.0166262 -0.0689294 0.774961 0.707119 -0.707095 0.000571178
-0.063817 -0.0117082 0.153699 0.999381 0.0227195 0.0268462
0.067707 -0.0345782 0.126774 0.648512 0.0663478 0.758307
-0.122848 -0.0544623 0.534123 0 -1 0
0.172517 -0.047977 0.528005 0.338213 0.331602 0.880711
-0.0632937 -0.0083301 0.131384 0.999383 0.0226961 0.0268057
-0.0389593 -0.0442364 0.571855 0 1 0
0.018365 -0.0356359 0.630083 0.965928 0.258812 0.0002425
-0.0318845 -0.0545733 0.513925 0.00486572 -0.999986 0.00229583
-0.0168865 -0.04243 0.0546789 -0.252366 -0.942615 -0.218607
-0.0421293 -0.0442364 0.541747 0 1 0
-0.0688984 -0.0343771 0.191632 -0.214413 0.967375 0.134957
-0.0664295 -0.0263644 0.110014 -0.99938 -0.0227027 -0.0269093
0.0421495 -0.0446229 0.191246 -0.270066 0.953541 0.133503
-0.0599612 -0.031773 0.106098 -0.0749342 -0.98722 -0.140647
0.0424051 0.0310572 0.0904849 -0.999383 -0.0227105 -0.0268019
0.0133094 -0.0726425 0.498646 0.707097 -0.707117 0.000337758
0.0192674 -0.0432513 0.329782 0.965755 0.258716 -0.019593
-0.0230948 -0.0442365 0.525599 -1.60384e-05 1 -7.56765e-06
0.108865 -0.053416 0.500542 -0.118763 0.5186 -0.846729
0.0437871 -0.068316 0.23968 0.244334 0.967118 0.0706006
-0.0363284 -0.0391803 0.898215 -0.948052 0.254623 0.190697
0.0148994 -0.0390968 0.117616 -0.0749744 -0.987215 -0.140663
0.0213066 -0.0557397 0.516133 0.965928 -0.258812 -0.0002425
0.00244171 -0.0514014 0.117405 0.697247 -0.697717 -0.164432
-0.0259879 -0.077371 0.327514 -0.258297 -0.964161 -0.0606283
0.00951806 -0.0760845 0.717143 0.707106 -0.707107 0.000573095
0.00250235 -0.0544623 0.523855 0 -1 0
-0.0121997 -0.017847 0.0610007 -0.25877 0.965856 -0.0126352
0.0286435 -0.0342071 0.149576 0.0749457 0.987225 0.140604
-0.0833421 -0.0442364 0.533939 0 1 0
-0.0187231 -0.0824798 0.572149 -0.258833 -0.96592 0.00182087
-0.0171702 -0.045116 0.538351 0.1589 0.984442 0.0749923
0.0219968 -0.0526811 0.747093 0.965926 -0.258819 -5.84766e-06
-0.0129025 -0.0186162 0.835902 -0.258446 0.964698 0.050623
0.0486572 -0.0544623 0.563496 0 -1 0
0.272788 -0.0442364 0.485598 0 1 0
0.0398398 -0.0694811 0.217446 -0.244985 -0.969526 0.00108949
0.0505277 -0.0489345 0.225901 0.696937 0.717129 -0.00218448
0.00972941 -0.0298004 0.151055 0.963438 0.257937 -0.0725018
-0.00952629 -0.0415941 0.148167 -0.0749588 -0.987224 -0.140607
-0.00362516 -0.0271369 0.112252 -0.402808 0.883989 0.237298
-0.0351793 -0.0378998 0.135902 -0.0749403 -0.987224 -0.140618
0.0397974 -0.0442364 0.547672 0 1 0
-0.0165064 -0.0707396 0.209053 -0.256435 -0.957441 -0.132471
0.0133941 -0.0338384 0.879694 0.706018 0.706236 0.0526263
-0.0657829 -0.0379081 0.244481 -0.298139 -0.945372 0.13185
0.0215454 -0.0475076 0.489775 0.965928 0.258808 -0.000909124
-0.00675167 -0.0180908 0.153385 0.258839 0.965915 0.00325468
0.0172734 -0.0335237 0.650821 0.707085 0.707128 -0.000335931
0.0205663 -0.0435933 0.76829 0.965926 0.258819 -0.000673593
0.00133491 -0.0790597 0.342912 0.258293 -0.964162 -0.0606286
-0.0109631 -0.0173065 0.78306 0.258791 0.965932 -0.00158337
-0.0366433 -0.0712783 0.486639 -0.707102 -0.707112 0.000336423
-0.0124243 -0.0384837 0.127875 -0.074988 -0.987217 -0.140637
-0.0243981 -0.0213513 0.43767 -0.258849 0.965916 -0.00181815
-0.0133582 -0.0836425 0.777878 -0.258812 -0.965927 0.000905119
-0.0965073 -0.0277558 0.0973724 -0.0749086 -0.987216 -0.140686
-0.0734756 -0.044356 0.515095 -0.00485619 0.999985 -0.00238581
0.024315 -0.0372039 0.0993063 -0.0749547 -0.987219 -0.140641
-0.0229461 -0.0426459 0.956335 -0.661953 0.663404 0.348874
0.042928 -0.0193366 0.113632 -0.999381 -0.0226986 -0.0268777
-0.00738006 -0.0374715 0.955489 0.240057 0.897021 0.371116
0.0762722 -0.0544623 0.538732 0 -1 0
-0.104978 -0.0442364 0.541604 0 1 0
0.00630255 -0.0355925 0.0911611 0.95861 -0.257185 -0.122162
-0.0197905 -0.0198446 0.671459 -0.258822 0.965924 -0.00158412
-0.0343725 -0.0286721 0.623084 -0.707112 0.707101 -0.000336414
-0.0366352 -0.0243067 0.11486 0.0749298 0.987226 0.140608
-0.0211227 -0.0204284 0.345388 -0.258811 0.965919 0.00416363
0.0340122 -0.0519361 0.201594 -0.717154 0.696915 4.24724e-07
-0.00585567 -0.0828843 0.800561 0.258822 -0.965925 0.000905115
0.00104772 -0.0668015 0.193182 0.256454 -0.957436 -0.13247
0.0159998 -0.0698969 0.541259 0.707098 -0.707114 0.0014882
0.0042525 -0.0544623 0.560021 0 -1 0
-0.0318917 -0.0262381 0.524507 -0.707112 0.707101 -0.000336414
-0.0238846 -0.0214481 0.833803 -0.258447 0.964698 0.050623
-0.0638574 0.0525099 0.100905 0.999381 0.0227082 0.026855
-0.0182989 -0.0194488 0.293681 -0.258815 0.965918 0.0041636
-0.0329062 -0.062082 0.219488 -0.702277 -0.702624 -0.114567
0.308572 -0.0544623 0.471489 0 -1 0
-0.00411674 -0.0666589 0.182153 0.256454 -0.957436 -0.13247
-0.0170167 -0.0187752 0.213029 -0.258816 0.965921 0.00325618
-0.0763853 -0.0443552 0.149712 -0.952758 0.300222 -0.0460391
-0.0373223 -0.0706471 0.386218 -0.707102 -0.707112 0.000336434
0.145114 -0.0442364 0.523968 0 1 0
0.0168099 -0.0401327 0.249831 0.965755 0.258716 -0.019593
-0.00998914 -0.0544623 0.52855 0 -1 0
0.0126695 -0.0291867 0.422416 0.707108 0.707104 -0.0014877
0.000184944 -0.0748049 0.270351 0.258296 -0.964162 -0.0606288
-0.0401419 -0.0396021 0.324253 -0.965752 0.258726 -0.0195908
-0.0387767 -0.0368347 0.293499 -0.965752 0.258726 -0.0195908
-0.0247822 -0.0292619 0.139718 0.538655 0.814035 0.21725
0.199425 -0.0544623 0.505156 0 -1 0
-0.324755 -0.0544623 0.460433 0 -1 0
-0.0236101 -0.0206845 0.250201 -0.258811 0.965919 0.00416363
-0.0203524 -0.0206295 0.0807078 -0.706574 0.706454 -0.0409457
-0.0305883 -0.0768978 0.816664 -0.707122 -0.707091 0.000572931
-0.244778 -0.0544623 0.485966 0 -1 0
-0.0153802 -0.0341521 0.943919 -0.251933 0.941044 0.225757
0.0356644 -0.0503526 0.162832 -0.717164 0.696836 -0.00979265
-0.0603897 -0.037131 0.159129 0.987542 0.154514 -0.0297561
-0.0661457 -0.0560127 0.224953 0.207153 -0.934018 0.291028
-0.0252779 -0.0213812 0.593552 -0.258801 0.96593 -0.000671484
-0.00455512 -0.0188393 0.200829 0.258839 0.965915 0.00325468
-0.0343911 -0.0710894 0.347029 -0.706071 -0.706231 -0.051977
0.0118603 -0.0701491 0.326556 0.706077 -0.706225 -0.0519785
0.0257167 -0.0442364 0.536171 0 1 0
0.182855 -0.0450374 0.522928 0.338213 0.331602 0.880711
-0.0424322 -0.0433261 0.730353 -0.965925 0.258822 -0.000670009
0.0810324 -0.0442364 0.55817 0 1 0
0.0518911 -0.0503964 0.165349 0.696906 0.717157 -0.00274169
-0.040141 -0.064923 0.828311 -0.964225 -0.25818 0.0601159
0.0423273 -0.057487 0.232221 -0.268538 0.947792 0.171982
-0.0229077 -0.0202174 0.172564 -0.258813 0.965922 0.0032534
0.00466217 -0.0253298 0.882669 0.706079 0.706175 0.0526244
-0.0433439 -0.055169 0.605405 -0.965923 -0.258827 0.000907057
0.0347398 -0.06027 0.139947 -0.944164 -0.267916 -0.19177
-0.0327043 -0.0748599 0.719908 -0.707113 -0.7071 0.000571632
-0.043426 -0.047179 0.674682 -0.965925 0.258822 -0.000670009
-0.0652218 -0.019503 0.16438 0.980244 -0.188695 0.0593037
-0.0158448 -0.0185268 0.232327 -0.258815 0.965918 0.0041636
0.0179103 -0.0363568 0.35393 0.965755 0.258716 -0.019593
0.0214135 -0.0551167 0.58451 0.965928 -0.258808 0.000909117
-0.0401078 -0.0603102 0.848654 -0.964225 -0.25818 0.0601159
0.0977354 -0.0442364 0.529628 0 1 0
-0.200612 -0.0544623 0.508392 0 -1 0
0.0220242 -0.0494408 0.448219 0.965928 0.258808 -0.000909124
0.0195857 -0.0495636 0.293545 0.965239 -0.258741 -0.0369636
-0.0654288 -0.0346274 0.129051 -0.0749 -0.987221 -0.140661
-0.0179051 -0.025106 0.90339 -0.251994 0.941036 0.225723
-0.0711808 -0.0541827 0.141324 -0.286486 -0.909261 -0.301944
-0.0278834 -0.0219374 0.787801 -0.707103 0.70711 -0.00125049
0.0812904 -0.0338066 0.115635 0.630734 0.0391457 0.775011
-0.0214448 -0.0205962 0.418341 -0.258849 0.965916 -0.00181815
0.000856877 -0.08139 0.567831 0.258833 -0.965921 0.00181774
0.0217041 -0.0539628 0.604245 0.965928 -0.258808 0.000909117
0.121326 -0.0544623 0.535653 0 -1 0
-0.0961784 -0.0218703 0.129041 -0.559135 0.11304 0.821334
-0.00694589 -0.0833354 0.644947 0.258808 -0.965927 0.00182088
-0.0432296 -0.0466707 0.430659 -0.965923 0.258827 -0.000907061
-0.0621783 -0.05802 0.159601 0.214215 -0.966259 -0.143025
-0.00569082 -0.0191761 0.0428274 0.25882 0.965843 -0.0126369
-0.0337447 -0.0661631 0.271313 -0.706069 -0.706233 -0.0519774
-0.027143 -0.0220269 0.469423 -0.258812 0.965926 -0.00182031
-0.0166862 -0.0189723 0.283383 -0.258815 0.965918 0.0041636
-0.0279255 -0.0394995 0.143267 -0.0749403 -0.987224 -0.140618
0.00173826 -0.0481156 0.548156 -0.159729 0.984523 0.0721231
0.00810101 -0.0245227 0.467834 0.70709 0.707122 -0.00148588
-0.00283814 -0.0197643 0.547915 0.258823 0.965925 -0.000669113
0.261946 -0.0504828 0.496688 0.308694 0.249319 0.917904
-0.0305304 -0.0435741 0.173265 -0.0749548 -0.987225 -0.140597
0.0199057 -0.0604858 0.76498 0.965927 -0.258815 -6.23134e-06
0.0107357 -0.0749123 0.66089 0.707119 -0.707095 0.000571178
-0.0432586 -0.0556722 0.395006 -0.965924 -0.258824 -0.000241786
0.247527 -0.0442364 0.483785 0 1 0
0.00123723 -0.0208246 0.59389 0.258842 0.965919 -0.000669107
-0.013692 -0.0388087 0.0353765 -0.25242 -0.942602 -0.2186
0.0121896 -0.0679278 0.300848 0.706075 -0.706227 -0.0519783
0.00656293 -0.0229124 0.502219 0.70709 0.707122 -0.00148588
-0.0138628 -0.0544623 0.547691 0 -1 0
-0.0443794 -0.0512581 0.618702 -0.965923 -0.258827 0.000907057
-0.0677954 0.0116441 0.128702 -0.99938 -0.0227481 -0.0268637
-0.0116019 -0.0790847 0.89302 -0.258336 -0.963825 0.0655984
0.0411395 -0.0138622 0.175546 -0.999382 -0.0227057 -0.0268268
-0.00899411 -0.0592399 0.129162 0.254059 -0.948656 -0.188428
-0.0835361 -0.0544623 0.521848 0 -1 0
-0.246166 -0.0544623 0.497775 0 -1 0
0.00714107 -0.0236273 0.437123 0.70709 0.707122 -0.00148588
0.0876148 -0.0388353 0.0775198 -0.211912 0.757626 -0.617329
-0.00246768 -0.0821962 0.612763 0.258808 -0.965927 0.00182088
-0.0375255 -0.0354456 0.119926 -0.0749771 -0.987224 -0.140596
-0.0323208 -0.0695856 0.298473 -0.706069 -0.706233 -0.0519774
-0.0144 -0.0789003 0.302466 -0.258295 -0.964162 -0.0606285
0.0214171 -0.0548427 0.660274 0.965926 -0.258819 -5.84766e-06
-0.0362591 -0.0319652 0.2337 -0.965752 0.258726 -0.0195908
-0.0390228 -0.068589 0.66098 -0.707113 -0.7071 0.000571632
-0.000792854 -0.0205611 0.101111 0.706852 0.706766 -0.0290211
-0.0772243 -0.0528804 0.209649 -0.976286 -0.216476 0.00176859
-0.0444091 -0.0514377 0.535871 -0.965923 -0.258827 0.000907057
-0.14468 -0.0510458 0.495439 0.128328 0.518605 -0.845329
0.0411158 0.0644104 0.110243 -0.999382 -0.0226868 -0.0268568
-0.059306 -0.0575245 0.197279 0.675641 -0.737225 0.00278582
0.0419338 0.0547784 0.08795 -0.999383 -0.0226942 -0.0268239
0.0182881 -0.0353103 0.588755 0.965928 0.258812 0.0002425
0.0198769 -0.0544623 0.568577 0 -1 0
-0.169017 -0.0442364 0.502932 0 1 0
-0.0625386 -0.0154824 0.109347 0.999381 0.0227135 0.0268555
-0.225888 -0.0544623 0.48816 0 -1 0
0.0210016 -0.0461455 0.377046 0.965755 0.258716 -0.019593
-0.0402393 -0.066977 0.434679 -0.965924 -0.258824 -0.000241786
0.00854948 -0.0275957 0.162102 0.707052 0.707 -0.0150947
0.0291015 -0.0544623 0.53278 0 -1 0
-0.0405344 -0.0361168 0.779205 -0.965925 0.258819 -0.000670288
-0.0410951 -0.0517664 0.297087 -0.965238 -0.258746 -0.036963
-0.0407384 -0.0519007 0.874662 -0.964217 -0.258211 0.0601092
-0.0147375 -0.0188595 0.378331 -0.258816 0.965918 0.00416352
0.000833908 -0.0205809 0.713836 0.258798 0.96593 -0.00158494
0.0388077 -0.0383896 0.0999059 -0.074938 -0.987222 -0.140633
-0.0261615 -0.0806098 0.484428 -0.258833 -0.965922 0.000670775
-0.00637028 -0.0312221 0.122813 -0.402734 0.884045 0.237213
-0.018298 -0.0196969 0.448152 -0.258822 0.965923 -0.00181816
-0.183113 -0.0544623 0.501793 0 -1 0
