-0.0197248 -0.0363323 0.101945 -0.0323956 0.923176 -0.383011
-0.00405549 -0.0380423 0.0230476 0.693702 -0.694169 -0.19211
0.0446601 -0.0438372 0.137498 -0.0377713 -0.994811 -0.0944733
0.0325937 0.062891 0.090256 -0.897893 -0.436284 -0.0586884
-0.0330014 -0.0765919 0.33754 -0.706069 -0.706233 -0.0519771
-0.00346849 -0.0871342 0.714782 0.258808 -0.965928 0.000906532
-0.0676744 -0.0356922 0.0986035 0.0095253 0.897064 -0.441797
-0.184072 -0.0249985 0.113916 0.134244 0.928903 -0.345135
-0.0263908 -0.0362522 0.163441 0.309717 0.936128 0.166555
0.242027 -0.0788217 0.529305 0.97046 -0.241238 0.00340022
0.0479411 0.0289479 0.104779 0.901103 0.427071 0.0749827
-0.0523722 -0.039883 0.134644 -0.0377699 -0.994812 -0.0944562
-0.0585236 0.0534957 0.151364 -0.796017 0.474553 0.375707
0.168129 -0.0471098 0.122604 -0.0377866 -0.994812 -0.0944567
-0.0202594 -0.0244074 0.176273 -0.258832 0.965917 0.0032535
-0.00737783 -0.025895 0.872099 0.258423 0.964705 0.0506213
-0.0285845 -0.0290376 0.839339 -0.706051 0.706203 0.0526286
-0.0636225 -0.0419136 0.160526 -0.0377591 -0.994811 -0.0944747
0.219745 -0.0725345 0.534556 -0.970463 0.241238 -0.00226623
0.00651706 -0.0777382 0.886104 0.705768 -0.705583 0.0635899
0.0103373 -0.047801 0.922159 0.948059 0.254609 0.190679
-0.223144 -0.0310264 0.109646 -0.037753 -0.994809 -0.0944941
0.0640216 0.00161728 0.123233 0.899508 0.430347 0.0754121
0.0154764 -0.0752869 0.484073 0.707109 -0.707105 0.000335774
0.0220196 -0.0573451 0.743455 0.965926 -0.258818 -6.33478e-06
-0.0413617 -0.0673312 0.573658 -0.96593 -0.258803 0.000910075
-0.0238486 -0.0504417 0.558164 0.158902 0.984443 0.0749758
-0.229074 -0.0851589 0.505814 -0.230136 -0.92604 -0.299143
0.00438033 -0.0766594 0.247688 0.706076 -0.706226 -0.0519783
-0.0520063 0.0568292 0.122077 0.915473 -0.401433 -0.0275911
0.067587 -0.0281449 0.198741 -0.896254 -0.437098 -0.0753312
0.0220928 -0.0543941 0.704553 0.965924 0.258826 -0.00067389
0.102714 -0.0465641 0.188172 0.598685 0.214772 0.771654
0.00378587 -0.0785489 0.268315 0.258291 -0.964163 -0.0606286
0.0737287 -0.0593028 0.549143 0 -1 0
0.112849 -0.0593028 0.549615 0 -1 0
-0.0936784 -0.0566719 0.558108 -0.353819 0.211793 0.911019
0.292306 -0.0588907 0.486401 0.314981 0.153016 0.936682
-0.0194956 -0.0290633 0.0235582 -0.962094 0.257541 -0.0897079
-0.324661 -0.0543536 0.467045 -0.141288 0.987719 -0.0667063
0.0640384 -0.0490885 0.52516 0 1 0
0.0223423 -0.0565528 0.440976 0.965927 -0.258813 -0.000242166
0.145147 -0.0490885 0.511933 0 1 0
0.00894663 -0.0302345 0.475675 0.707096 0.707116 -0.0014863
-0.131684 -0.0593028 0.516608 0 -1 0
-0.0228598 -0.0859425 0.731471 -0.258817 -0.965926 0.00090593
-0.0292622 -0.0296526 0.249096 -0.7071 0.707099 -0.00453109
-0.00688083 -0.0868701 0.834655 0.25831 -0.963832 0.0655967
0.0602034 -0.00744885 0.166659 -0.898897 -0.431624 -0.0754019
0.191616 -0.0452849 0.0939954 -0.0377593 -0.994811 -0.0944689
-0.0109589 -0.0516193 0.0665127 0.252373 -0.942614 -0.218604
0.182965 -0.0593028 0.513059 0 -1 0
0.00937728 -0.0773506 0.324958 0.706076 -0.706226 -0.0519783
-0.00987011 -0.0723081 0.176744 0.256431 -0.957442 -0.132467
-0.0288471 -0.0279354 0.716288 -0.707103 0.70711 -0.00125104
-0.06109 0.0449528 0.155704 0.92641 -0.375443 -0.02841
-0.0397611 -0.0726803 0.635268 -0.707114 -0.707098 0.00148835
-0.0185805 -0.0249178 0.0606313 -0.706574 0.706453 -0.0409442
0.112645 -0.0341537 0.118642 0.0377285 0.994818 0.0944144
-0.0413066 -0.0676203 0.40291 -0.965923 -0.258829 -0.000242406
0.0157817 -0.0746057 0.741076 0.707121 -0.707092 0.000571386
0.0951257 -0.0593028 0.528334 0 -1 0
0.0621895 -0.0593028 0.549756 0 -1 0
-0.0209902 -0.0639923 0.973999 -0.837781 -0.22296 0.498409
0.0221004 -0.0544488 0.556073 0.965927 0.258813 0.000242165
-0.10487 -0.0432742 0.191347 -0.0377621 -0.994811 -0.0944742
-0.149864 -0.049089 0.50278 4.9988e-05 1 -0.000264043
0.00787855 -0.0370913 0.165176 -0.218821 0.960508 0.171874
-0.0387873 -0.0378808 0.713413 -0.707082 0.707131 -0.0012471
-0.0370675 -0.0639662 0.244285 -0.965239 -0.258742 -0.0369625
-0.0319383 -0.0803388 0.802187 -0.707125 -0.707089 0.000573139
-0.0432069 -0.0514077 0.628129 -0.965923 0.258829 0.000242218
-0.220153 -0.0290444 0.0923509 0.153164 0.856121 -0.493556
-0.0699342 -0.0751517 0.554954 0.953374 -0.237542 -0.18615
0.226531 -0.0529337 0.484111 -0.141083 0.691149 -0.708808
-0.0708157 -0.035436 0.205487 0.0377646 0.994812 0.0944655
0.134841 -0.0465593 0.130115 -0.0377808 -0.994812 -0.0944591
0.0112149 -0.0322041 0.737915 0.707121 0.707092 -0.00125058
-0.0497594 -0.0593028 0.535716 0 -1 0
-0.0705659 -0.0794546 0.57509 0.970464 -0.241222 0.00337908
0.0177073 -0.0631682 0.306049 0.965241 -0.258735 -0.0369634
-0.0139141 -0.0883097 0.763262 -0.258813 -0.965927 0.000905568
0.067475 -0.0239682 0.175839 -0.896266 -0.437072 -0.0753308
0.197254 -0.0392841 0.111982 0.263767 0.964383 0.0198119
-0.0242462 -0.0793683 0.275046 -0.258293 -0.964162 -0.060628
0.0207943 -0.0496546 0.642018 0.965927 0.258813 0.000242165
0.0126981 -0.0340628 0.439119 0.707111 0.707101 -0.00148786
-0.00633603 -0.0239565 0.396646 0.258809 0.965927 -0.00181983
-0.0395219 -0.0493742 0.874428 -0.964356 0.258593 0.0561031
-0.165706 -0.051608 0.528084 -0.34817 0.332054 0.876652
0.159429 -0.0593028 0.49425 0 -1 0
-0.0437631 -0.053402 0.700144 -0.965923 0.258827 -0.000669693
-0.0271706 -0.0281568 0.208842 -0.707042 0.707011 -0.015093
-0.19722 -0.0256268 0.148547 -0.44927 0.199043 0.870941
-0.0778708 -0.0648514 0.590469 0.233208 0.938737 0.253745
0.020283 -0.0387227 0.190085 -0.218826 0.960508 0.17187
-0.0721983 0.0219606 0.113077 0.910387 -0.413052 -0.0241473
-0.00976881 -0.0848247 0.876083 0.258332 -0.963827 0.0655918
0.0188791 -0.0544655 0.275734 0.965241 -0.258736 -0.0369633
0.0895187 -0.0336858 0.122954 0.0377431 0.994818 0.0944099
0.00429337 -0.0499882 0.953101 0.918537 0.247045 0.308641
-0.0169704 -0.0413918 0.0318539 -0.693736 -0.694141 -0.192091
0.00167226 -0.0255714 0.163206 0.707029 0.707023 -0.0150895
-0.121236 -0.0362615 0.124034 -0.0377532 -0.994808 -0.0945038
-0.0426581 -0.0495981 0.422424 -0.965922 0.258832 -0.000906351
0.319882 -0.0592229 0.457341 -0.212853 0.44374 -0.87051
0.0678732 -0.021539 0.157006 -0.896254 -0.437097 -0.0753314
0.138101 -0.0380587 0.149585 0.0377906 0.994807 0.0945073
-0.015359 -0.0744168 0.954237 -0.2542 -0.948256 0.190246
-0.0266984 -0.0484267 0.0957899 -0.958598 -0.257227 -0.122164
-0.092769 -0.018224 0.139892 -0.913127 0.406707 0.0280772
-0.0133624 -0.0231032 0.314476 -0.258808 0.96592 0.00416435
-0.0240734 -0.0448417 0.204296 0.473364 0.856377 0.206263
0.00442789 -0.0593028 0.550725 0 -1 0
-0.0344148 -0.0372879 0.184178 0.309758 0.936105 0.166605
0.0404095 -0.0593028 0.550267 0 -1 0
-0.0598311 -0.0490885 0.554215 0 1 0
0.0500237 -0.0456702 0.154653 -0.0377513 -0.994815 -0.0944367
-0.0118449 -0.0227223 0.517174 -0.258852 0.965915 -0.00182084
0.160798 -0.0454403 0.107953 -0.0377855 -0.994807 -0.0945088
-0.232846 -0.0638608 0.49832 -0.980243 -0.0944203 -0.173807
0.155562 -0.0593028 0.516496 0 -1 0
0.0181454 -0.0552959 0.889633 0.964223 -0.258186 0.0601145
-0.0299028 -0.0824691 0.685036 -0.707113 -0.7071 0.000571403
-0.267423 -0.0593028 0.467824 0 -1 0
-0.0407994 -0.0695762 0.532123 -0.96593 -0.258803 0.000910075
-0.0419487 -0.0463892 0.793522 -0.965924 0.258826 -0.000669811
-0.0948465 -0.0593028 0.52219 0 -1 0
0.0243334 -0.0441032 0.148423 -0.0377522 -0.994812 -0.0944666
0.0196252 -0.0662828 0.812322 0.965925 -0.258822 -5.95287e-06
0.0190148 -0.0686323 0.636562 0.965926 -0.258816 0.000910111
-0.0412792 -0.0441356 0.512516 -0.965929 0.258804 -0.00090989
-0.0835148 0.00230973 0.142618 -0.911 0.411455 0.0280127
0.00282683 -0.0287262 0.10911 0.706846 0.706772 -0.0290198
-0.0314203 -0.056587 0.938144 -0.94807 0.25457 0.190677
0.0719862 -0.0593028 0.525461 0 -1 0
0.0209417 -0.0618498 0.515493 0.965928 -0.258811 -0.000242437
0.171827 -0.0360114 0.114542 0.037746 0.994819 0.0943946
0.0547155 0.0198917 0.130014 0.900143 0.429017 0.0754111
0.000281504 -0.0419595 0.052928 0.955596 -0.256439 -0.145176
-0.00681471 -0.0231169 0.201616 0.258819 0.96592 0.00325626
-0.0184636 -0.0872765 0.611707 -0.258814 -0.965926 0.00181841
-0.0450391 -0.0309621 0.148064 0.0377435 0.994811 0.0944753
-0.0382399 -0.0383262 0.313373 -0.965751 0.258731 -0.0195909
-0.0055815 -0.0850357 0.331566 0.258287 -0.964164 -0.0606282
0.0139975 -0.0376392 0.222052 0.964902 0.258401 -0.0468219
0.0182062 -0.0475323 0.855226 0.964363 0.258567 0.0561029
-0.0230325 -0.0861871 0.540143 -0.258827 -0.965922 0.00182016
-0.00860548 -0.0228846 0.741363 0.258792 0.965932 -0.00158337
-0.017265 -0.0762046 0.214966 -0.256432 -0.957441 -0.132471
-0.000171333 -0.0861923 0.777144 0.258817 -0.965926 0.000905564
-0.0729145 0.0150812 0.172172 0.935671 -0.211689 0.282324
0.136705 -0.0593028 0.522709 0 -1 0
-0.0509003 0.0714413 0.095292 -0.915458 0.401463 0.0276526
0.0187135 -0.0696843 0.774322 0.965925 -0.258822 -5.95287e-06
-0.041174 -0.0677379 0.795409 -0.965925 -0.258822 -2.13238e-06
0.0422418 0.0453758 0.132132 0.877859 0.464074 0.118318
0.0188731 -0.0446479 0.356698 0.965755 0.258715 -0.0195928
-0.0655738 -0.0593028 0.550111 0 -1 0
0.00967242 -0.030613 0.765338 0.707107 0.707105 -0.0012494
-0.00903228 -0.0886381 0.700852 0.258817 -0.965926 0.000905564
-0.0949854 -0.0220257 0.122419 -0.966087 0.25655 0.0292836
-0.0411947 -0.0676598 0.742584 -0.965922 -0.258834 -3.52859e-06
-0.00328146 -0.024525 0.54687 0.258824 0.965924 -0.00066923
-0.0305581 -0.0301149 0.379171 -0.707101 0.707098 -0.00453119
-0.0291411 -0.0284356 0.501483 -0.707124 0.707088 -0.00148834
0.0392311 0.0407907 0.100671 -0.89879 -0.431935 -0.0748922
-0.141012 -0.0410826 0.182713 -0.0377633 -0.994811 -0.0944756
-0.307884 -0.0551193 0.477142 -0.320384 0.257524 0.911611
-0.0316399 -0.0308826 0.550724 -0.707123 0.707091 -0.000336298
-0.0143197 -0.0398353 0.118929 -0.0377746 -0.994811 -0.0944634
-0.0265803 -0.0823002 0.856304 -0.705778 -0.705573 0.0635931
0.0177447 -0.0382749 0.0965022 0.0065788 0.902682 -0.430258
0.00446989 -0.0401168 0.0772422 0.955596 -0.256439 -0.145176
0.0318195 0.060108 0.11884 0.898798 0.431914 0.0749115
-0.0109814 -0.0258489 0.889495 -0.258464 0.964694 0.0506207
0.0195886 -0.0486095 0.339656 0.965755 0.258715 -0.0195928
0.227086 -0.0524278 0.507098 0.31478 0.278282 0.907454
0.00296277 -0.026143 0.824029 0.258471 0.964692 0.050621
0.00885638 -0.0302909 0.40593 0.707111 0.707101 -0.00148786
0.157354 -0.0480204 0.147327 0.539941 -0.117006 0.833531
0.0223334 -0.0553419 0.581425 0.965927 0.258813 0.000242165
-0.101065 -0.04477 0.212565 -0.544057 0.125269 0.829644
-0.036985 -0.0368103 0.337288 -0.707099 0.7071 -0.00453107
0.12457 -0.0481235 0.15069 -0.0377598 -0.994813 -0.0944554
-0.0120218 -0.0410153 0.130441 -0.0377641 -0.994812 -0.0944639
-0.0665724 0.0220693 0.146982 0.911232 -0.41036 -0.0354919
0.0109229 -0.0796311 0.610726 0.707122 -0.70709 0.00148422
-0.0408622 -0.0425675 0.531525 -0.965929 0.258807 0.000239414
-0.0360405 -0.0377932 0.223341 -0.9649 0.258411 -0.0468269
-0.210576 -0.0593028 0.495035 0 -1 0
-0.0243845 -0.0262252 0.353574 -0.258843 0.96591 0.00416485
0.0632414 -0.0504244 0.199442 -0.0377714 -0.994811 -0.0944661
-0.0338998 -0.0507169 0.159513 -0.962509 -0.258151 -0.0832787
-0.034018 -0.0698487 0.259727 -0.706068 -0.706234 -0.0519771
-0.0093047 -0.0228475 0.638673 0.258819 0.965926 -0.000668893
-0.0379648 -0.0585624 0.899558 -0.952876 -0.254892 0.164493
-0.0598443 -0.0329439 0.174856 0.0377764 0.994812 0.0944557
0.10791 -0.0593028 0.520687 0 -1 0
0.0421416 -0.0593028 0.537097 0 -1 0
-0.284437 -0.0554484 0.464775 0.222764 0.444436 -0.867671
-0.0987418 -0.0387143 0.140873 -0.0377688 -0.994811 -0.0944662
0.00242304 -0.0685828 0.953904 0.690705 -0.690063 0.216191
0.0718761 -0.0463073 0.152629 -0.0377673 -0.994813 -0.0944527
-0.227376 -0.0623486 0.527074 0.231306 0.930664 0.283482
0.178249 -0.0547623 0.491612 -0.125929 0.705163 -0.697773
-0.188377 -0.0341522 0.128664 -0.0377268 -0.994806 -0.0945369
-0.0426014 0.0879376 0.112679 0.994179 -0.10339 -0.0302945
-0.0252536 -0.0262453 0.614804 -0.258813 0.965927 -0.000669967
0.226648 -0.0823461 0.500149 -0.198898 -0.800974 -0.564695
0.015723 -0.036897 0.566467 0.707107 0.707106 -0.000334766
0.065532 -0.00463996 0.0870719 -0.898895 -0.431622 -0.0754351
0.0190894 -0.0432826 0.667083 0.965928 0.258811 -0.000672197
0.0477164 -0.0800403 0.593767 -0.91933 -0.263605 0.292137
-0.0208763 -0.0252502 0.099028 -0.706851 0.706767 -0.0290178
-0.0414711 -0.0667687 0.617613 -0.965922 -0.258832 0.000906344
0.0198194 -0.0659519 0.544835 0.965928 -0.258808 0.00090908
0.0621947 0.00749525 0.111482 0.899495 0.430364 0.0754722
0.106461 -0.0433525 0.107689 -0.0377695 -0.994811 -0.0944741
-0.0268697 -0.0294785 0.142033 -0.706852 0.706766 -0.029018
0.0109138 -0.0794167 0.811544 0.70711 -0.707103 0.000573041
-0.0310548 -0.0816387 0.502603 -0.707102 -0.707112 0.000335799
-0.0421546 -0.0640771 0.71112 -0.965922 -0.258834 -3.52859e-06
0.0326869 -0.0481018 0.187197 -0.0377572 -0.994813 -0.0944557
0.0151254 -0.0361586 0.712999 0.707086 0.707126 -0.00125062
-0.00786255 -0.0886926 0.423469 0.258828 -0.965923 0.000668879
-0.181829 -0.0493831 0.494441 0.135511 0.701777 -0.699389
-0.0410314 -0.0549754 0.284863 -0.965237 -0.258751 -0.0369637
-0.0567224 0.0553182 0.134398 0.91582 -0.401563 0.00468373
0.00817909 -0.0766491 0.299151 0.706076 -0.706226 -0.0519783
-0.0780951 0.00825629 0.121276 -0.911736 0.409349 0.0342074
-0.162937 -0.0374809 0.15355 -0.0377712 -0.994813 -0.0944494
-0.0207274 -0.0775304 0.922244 -0.25678 -0.95794 0.128125
0.0195599 -0.0668373 0.568477 0.965926 -0.258816 0.000910111
-0.0880371 -0.0183206 0.180101 -0.91546 0.40146 0.0276376
-0.0381516 -0.0741569 0.763115 -0.707125 -0.707089 0.000573139
-0.00841115 -0.0507109 0.528982 0.1589 0.984444 0.0749741
-0.0671256 0.0393224 0.0916943 -0.83977 0.423278 -0.340034
0.0159648 -0.0371102 0.626839 0.707086 0.707128 -0.000336322
0.28686 -0.0505181 0.471503 -0.183299 0.635915 -0.749675
0.0530966 0.00862241 0.159386 -0.898893 -0.431625 -0.0754362
-0.020966 -0.0506357 0.0796863 -0.693643 -0.694228 -0.192112
-0.0427851 -0.0384252 0.11546 -0.0377506 -0.994813 -0.0944602
0.0734687 -0.0286081 0.131443 -0.896271 -0.437059 -0.0753564
-0.0974492 -0.0490885 0.544279 0 1 0
-0.0443386 -0.0559085 0.411297 -0.965922 0.258832 -0.000906351
0.00889013 -0.0613803 0.172799 0.702287 -0.702616 -0.114563
-0.0293376 -0.0818429 0.359117 -0.706069 -0.706233 -0.0519771
0.0872822 -0.0496582 0.200126 0.60128 -0.0343983 0.798298
-0.114168 -0.0302691 0.168403 0.0377891 0.994814 0.0944306
-0.110752 -0.0489833 0.507423 0.0154223 0.999385 -0.0314886
-0.0746231 -0.082166 0.592412 -0.709053 0.684099 0.171034
-0.0271114 -0.079031 0.886682 -0.705772 -0.705579 0.0635913
-0.0693106 0.0352762 0.119996 -0.913107 0.406751 0.0281037
0.0189063 -0.0424961 0.522472 0.965928 0.258812 0.000242248
0.0182207 -0.0524007 0.238254 -0.0377638 -0.994812 -0.0944618
0.0334271 -0.0459478 0.164212 -0.0377628 -0.994813 -0.0944485
-0.0336242 -0.0781014 0.824715 -0.705778 -0.705573 0.0635931
0.0569608 -0.0333291 0.132213 0.0377704 0.99481 0.0944801
0.0209654 -0.0616394 0.385073 0.965927 -0.258813 -0.000242166
0.0468969 -0.0490885 0.563583 0 1 0
-0.0113005 -0.0375234 0.935781 0.970846 -0.233093 -0.055915
0.0688607 -0.00748358 0.118305 0.896254 0.437102 0.0753018
0.00234251 -0.0275714 0.125438 0.706855 0.706763 -0.0290216
0.0998422 -0.0470796 0.149581 -0.0377719 -0.994811 -0.0944709
0.0137988 -0.0509003 0.909087 0.948059 0.254609 0.190679
-0.0928127 -0.0731771 0.55701 -0.965822 0.239939 -0.0980665
0.0722498 -0.059214 0.505294 -0.138462 0.520358 -0.842648
0.0524499 0.0194773 0.0850403 -0.806553 -0.304654 -0.506614
-0.00313454 -0.0240048 0.134539 0.258811 0.965921 -0.00382376
0.0124878 -0.0344408 0.307841 0.707128 0.707071 -0.00453177
0.0627445 -0.0648676 0.576241 0.694204 0.719777 0.00157393
0.012092 -0.0342007 0.283555 0.707128 0.707071 -0.00453177
-0.119609 -0.0418802 0.182559 -0.0377491 -0.994811 -0.0944809
-0.0834906 -0.0136361 0.113816 0.91547 -0.401437 -0.027609
-0.138614 -0.029034 0.165167 0.0377634 0.994815 0.0944342
-0.00326263 -0.0593028 0.577346 0 -1 0
0.0128597 -0.0776071 0.652205 0.707122 -0.70709 0.00148422
0.000124652 -0.0378954 0.0970289 0.0065788 0.902682 -0.430258
0.020369 -0.0480792 0.48297 0.965928 0.258809 -0.000909089
0.239647 -0.0509884 0.482781 -0.189483 0.624295 -0.75786
-0.0124628 -0.044113 0.163238 -0.0377547 -0.994812 -0.094468
-0.0442804 -0.0553739 0.584627 -0.965929 0.258807 0.000239414
-0.167739 -0.0265941 0.115807 0.0604052 0.9519 -0.300397
0.238528 -0.0703719 0.493495 0.901871 0.258475 -0.34615
-0.0406546 -0.0420567 0.440681 -0.965929 0.258804 -0.00090989
-0.170119 -0.0267486 0.153694 0.0377244 0.994805 0.0945537
0.220834 -0.0490885 0.500626 0 1 0
-0.0186663 -0.0243103 0.264828 -0.258807 0.96592 0.00416438
0.0680279 -0.0177635 0.0898197 -0.898811 -0.431888 -0.0749115
-0.0241912 -0.0588621 0.127583 -0.697245 -0.69772 -0.164426
0.0919635 -0.0490885 0.521582 0 1 0
0.0566377 0.0204995 0.103627 0.900144 0.429005 0.075466
0.02237 -0.055781 0.416411 0.965928 0.258809 -0.000909089
-0.02037 -0.0865441 0.801377 -0.258817 -0.965926 0.00090593
0.0509842 -0.0490885 0.530511 0 1 0
0.0233707 -0.050651 0.217768 -0.0377615 -0.994812 -0.0944586
0.152737 -0.0527558 0.534889 0.337729 0.33134 0.880996
-0.0963028 -0.0258212 0.112189 -0.966096 0.256521 0.0292493
-0.146888 -0.0593028 0.512309 0 -1 0
-0.088712 -0.0490885 0.529686 0 1 0
-0.0225401 -0.0255018 0.30043 -0.258826 0.965915 0.0041642
0.057276 -0.0417201 0.11016 -0.0377562 -0.994811 -0.0944776
-0.0362953 -0.0540114 0.197412 -0.96251 -0.258145 -0.0832773
-0.098429 -0.0306832 0.166471 0.0377738 0.994813 0.0944472
0.0340043 -0.0338816 0.10911 0.01924 0.960075 -0.27908
-0.0323405 -0.0593028 0.573961 0 -1 0
0.0215066 -0.0520031 0.782775 0.965924 0.258826 -0.00067389
0.0725641 -0.0230982 0.110237 -0.896258 -0.437092 -0.0753068
-0.0244287 -0.0858506 0.520177 -0.258827 -0.965922 0.00182016
-0.126514 -0.0491787 0.542655 -0.340551 0.339209 0.876905
-0.00962715 -0.0229606 0.045827 0.258739 0.965865 -0.0126365
-0.0408039 -0.0490885 0.559502 0 1 0
0.0145659 -0.076242 0.390153 0.707109 -0.707105 0.000335774
0.0154998 -0.0752956 0.416595 0.707109 -0.707105 0.000335774
-0.0147381 -0.0589775 0.105753 -0.254019 -0.948667 -0.188429
-0.0370303 -0.0756713 0.485693 -0.707102 -0.707112 0.000335799
-0.0317555 -0.0309491 0.653929 -0.707112 0.707101 -0.00033527
-0.0147391 -0.0883051 0.595491 -0.258827 -0.965922 0.00182016
-0.156744 -0.0253151 0.133252 0.0377795 0.994818 0.0943951
0.00613095 -0.0273659 0.500915 0.707096 0.707116 -0.0014863
-0.0191695 -0.0822995 0.300032 -0.258293 -0.964162 -0.060628
-0.0800981 -0.047343 0.224294 -0.0377615 -0.994813 -0.0944538
-0.0795717 -0.0796546 0.541521 0.227767 -0.793266 -0.564669
0.0224707 -0.056014 0.457151 0.965928 0.258809 -0.000909089
-0.0255805 -0.0265152 0.457646 -0.258797 0.96593 -0.00182118
-0.239384 -0.0303864 0.109397 -0.0377995 -0.994816 -0.0944023
-0.074094 -0.0306052 0.155919 0.0377559 0.994812 0.0944663
0.257693 -0.0490885 0.487263 0 1 0
0.0519832 -0.0860071 0.559 -0.241278 -0.970456 -0.00105363
-0.0780568 0.0137666 0.152903 -0.912651 0.408143 0.0220722
0.0116818 -0.0382426 0.176451 -0.218834 0.960502 0.171897
0.00115962 -0.0354109 0.919099 0.69057 0.691186 0.213016
0.0523329 -0.0405276 0.209876 0.0377738 0.99481 0.0944768
0.0207307 0.0826301 0.136058 -0.897693 -0.440367 0.0149938
0.202872 -0.0461696 0.0988102 -0.0378074 -0.994801 -0.0945594
-0.0431082 -0.0605188 0.760783 -0.965925 -0.258822 -2.13238e-06
-0.0136687 -0.0248511 0.856758 -0.258464 0.964694 0.0506207
0.0119149 -0.0520726 0.557916 -0.159731 0.984521 0.0721382
-0.0278401 -0.0268552 0.757697 -0.707103 0.70711 -0.00125104
0.0551424 -0.0377602 0.179608 0.0377628 0.994812 0.094464
-0.0798603 -0.0335541 0.189283 0.0377475 0.994811 0.0944736
0.000832259 -0.0253526 0.778418 0.258844 0.965918 -0.00158297
0.0165637 -0.0523785 0.252633 0.588784 -0.00967383 0.808233
0.0185688 -0.0414013 0.471368 0.965926 0.258816 -0.000909923
0.0202268 -0.0644874 0.528864 0.965928 -0.258808 0.00090908
-0.0638838 -0.0593028 0.562752 0 -1 0
-0.0384719 -0.0441436 0.173956 -0.0377625 -0.994812 -0.0944634
-0.131867 -0.0376831 0.143255 -0.0377756 -0.99481 -0.0944781
-0.148263 -0.0295453 0.174408 0.0377812 0.994815 0.0944222
0.0751917 -0.0503185 0.193549 -0.0377697 -0.994812 -0.0944635
-0.0894372 -0.0154848 0.0925321 -0.91547 0.401436 0.0276356
-0.0122567 -0.0454729 0.963488 -0.23993 0.897043 0.371143
-0.0580731 -0.0491643 0.23467 -0.0377713 -0.994813 -0.094452
-0.00131082 -0.0251184 0.33032 0.258812 0.965919 0.00416346
-0.0301074 -0.0317946 0.11207 0.064014 0.968597 -0.240254
-0.0129 -0.0593028 0.533101 0 -1 0
-0.0172749 -0.0240061 0.701449 -0.258824 0.965923 -0.00158412
0.0402522 -0.0418636 0.228773 0.0377524 0.994812 0.0944655
-0.0434871 -0.0525651 0.458622 -0.965922 0.258832 -0.000906351
-0.0120332 -0.0745756 0.193064 -0.256462 -0.957434 -0.132466
-0.0406228 -0.0417536 0.616777 -0.965923 0.258829 0.000242218
0.065088 -0.00224997 0.132825 0.896264 0.437074 0.0753501
-0.043776 -0.0552901 0.362245 -0.965754 0.258719 -0.0195927
0.0626002 -0.0646273 0.56005 0.946665 0.322206 -0.00291412
-0.0947757 -0.0350442 0.199812 -0.915465 0.401448 0.0276095
0.00338981 -0.0854861 0.585663 0.258828 -0.965922 0.00181764
-0.00598795 -0.087777 0.749231 0.258817 -0.965926 0.000905564
0.018807 -0.0420086 0.751816 0.965928 0.258811 -0.000672197
-0.00422731 -0.0243813 0.471073 0.258809 0.965927 -0.00181983
-0.0228324 -0.0862086 0.557182 -0.258827 -0.965922 0.00182016
-0.129818 -0.0490885 0.517674 0 1 0
-0.249032 -0.0593028 0.478715 0 -1 0
-0.03589 -0.0349551 0.729539 -0.707154 0.707058 -0.00125186
-0.0851717 -0.00882355 0.142278 0.911403 -0.41056 -0.0280296
0.0796396 -0.0341642 0.0856748 0.898809 0.431894 0.0749005
0.0192154 -0.0441242 0.383275 0.965926 0.258816 -0.000909923
0.00652058 -0.0274187 0.789381 0.707107 0.707105 -0.0012494
-0.0850328 -0.0593028 0.542896 0 -1 0
0.00498196 -0.0852314 0.451641 0.258808 -0.965929 0.000671409
-0.0209698 -0.0865501 0.640856 -0.258814 -0.965926 0.00181841
-0.0231734 -0.0444454 0.0652867 -0.693643 -0.694228 -0.192112
0.000393709 -0.0864141 0.518981 0.258828 -0.965923 0.000668879
-0.205052 -0.0490885 0.497464 0 1 0
0.00515549 -0.0269287 0.453439 0.258832 0.965921 -0.00182041
-0.0282436 -0.0790021 0.874437 -0.705778 -0.705573 0.0635931
-0.0380728 -0.0742871 0.699626 -0.707125 -0.707089 0.000573139
0.0175356 -0.0712952 0.358454 0.965241 -0.258735 -0.0369634
-0.0404621 -0.070757 0.387258 -0.965923 -0.258829 -0.000242406
0.132764 -0.0347124 0.116481 0.0377757 0.994811 0.094463
0.151873 -0.0373718 0.103735 -0.0894203 0.939206 -0.331507
-0.0434072 -0.0594021 0.665953 -0.965922 -0.258834 -3.52859e-06
-0.231832 -0.0506451 0.502569 -0.32548 0.278817 0.903507
-0.0401496 -0.0540341 0.255247 -0.965237 -0.258751 -0.0369637
-0.0110054 -0.0887708 0.368163 -0.258292 -0.964163 -0.0606281
-0.0148007 -0.0881436 0.686988 -0.258813 -0.965927 0.000905568
0.0807899 -0.0490885 0.550837 0 1 0
-0.0419131 -0.0463017 0.776092 -0.965924 0.258826 -0.000669811
-0.0604533 -0.0593028 0.519899 0 -1 0
-0.236841 -0.0490885 0.487414 0 1 0
-0.0896982 -0.0671497 0.58023 -0.719799 0.694176 -0.003069
-0.0612005 0.0366899 0.145611 0.951089 -0.286798 0.114787
-0.275181 -0.0490885 0.477645 0 1 0
0.0425155 0.0505156 0.091541 0.812075 0.407243 -0.417957
0.00624271 -0.084545 0.432576 0.707097 -0.707116 0.000337872
-0.0457093 0.072879 0.108589 0.974778 -0.221199 -0.0296493
-0.0423626 0.0892211 0.131668 -0.919453 0.393145 0.00658024
0.0239277 0.0708343 0.120242 -0.923626 -0.381065 0.0412957
-0.00734639 -0.0430438 0.149933 -0.0377844 -0.994809 -0.0944806
-0.035103 -0.0732622 0.320847 -0.706069 -0.706233 -0.0519771
0.131228 -0.0490885 0.51706 0 1 0
-0.203674 -0.0344908 0.138346 -0.037766 -0.994812 -0.0944601
-0.0408439 -0.0425499 0.585977 -0.965923 0.258829 0.000242218
0.0452672 0.0319024 0.119781 -0.90062 -0.427997 -0.0755159
-0.0310782 -0.0383788 0.129989 -0.963435 0.257947 -0.0725004
-0.00607512 -0.0237548 0.578164 0.258824 0.965924 -0.00066923
0.00665672 -0.0796664 0.86316 0.705768 -0.705583 0.0635899
0.0121826 -0.0593028 0.576762 0 -1 0
-0.0423093 -0.0638946 0.545176 -0.96593 -0.258803 0.000910075
-0.0341648 -0.0783761 0.58805 -0.707114 -0.707098 0.00148835
0.106882 -0.0383842 0.165496 0.0377622 0.994811 0.0944701
0.0751484 -0.0313189 0.150111 0.968766 0.235795 0.0767713
-0.0635635 0.0480459 0.121924 -0.913138 0.406686 0.0280419
0.0249207 0.0781049 0.0978434 0.898799 0.431914 0.0749034
-0.129456 -0.0408731 0.192835 -0.563132 0.120149 0.817586
-0.0228948 -0.0832707 0.331348 -0.258293 -0.964162 -0.060628
-0.149258 -0.0348609 0.120491 -0.0377844 -0.994813 -0.0944436
-0.179316 -0.0331996 0.115008 -0.0377425 -0.99481 -0.0944896
0.0211613 -0.0506739 0.798321 0.965924 0.258826 -0.00067389
-0.18698 -0.0306 0.100363 0.165163 0.849128 -0.5017
0.0381496 -0.0318914 0.123685 0.0457334 0.994717 0.0919081
-0.109211 -0.0381291 0.138897 -0.0377688 -0.994811 -0.0944662
-0.0787935 -0.0017838 0.0966845 0.912452 -0.408258 -0.0275228
-0.105047 -0.02957 0.114126 -0.0122899 0.955322 -0.295312
0.222112 -0.0797277 0.546392 0.941708 0.271156 0.199152
-0.0222656 -0.0861698 0.658885 -0.258813 -0.965927 0.000905568
0.02027 -0.063875 0.75749 0.965925 -0.258822 -5.95287e-06
0.0627798 -0.00118594 0.100108 -0.898901 -0.431613 -0.075415
-0.043798 -0.0532552 0.807192 -0.965924 0.258826 -0.000669811
0.00268526 -0.0784818 0.905725 0.700189 -0.699792 0.141515
0.0464025 -0.035824 0.16271 0.037759 0.994811 0.0944702
-0.0824535 -0.0593028 0.518162 0 -1 0
-0.126645 -0.0593028 0.530767 0 -1 0
-0.0829783 -0.0161096 0.166731 0.915477 -0.40142 -0.0276305
-0.0172931 -0.087855 0.388483 -0.258813 -0.965927 0.000668881
-0.0833171 -0.00799053 0.189322 -0.910167 0.413781 0.0195447
-0.0975698 -0.0285969 0.0947037 -0.966092 0.256536 0.0292601
0.181153 -0.0426992 0.0832443 -0.121978 0.872161 -0.473768
-0.21739 -0.0559417 0.480855 0.17886 0.498764 -0.848082
-0.0215008 -0.0676918 0.161639 -0.256432 -0.957441 -0.132471
-0.00694767 -0.0236767 0.346255 0.258803 0.965921 0.00416436
-0.0939766 -0.028117 0.135549 0.91312 -0.406721 -0.0281126
0.185082 -0.0374616 0.0949176 -0.0796506 0.94245 -0.324721
0.00884404 -0.0312643 0.234913 0.707088 0.707111 -0.00453031
0.0174069 -0.0385397 0.653118 0.707086 0.707128 -0.000336322
0.00336339 -0.0848895 0.823415 0.25831 -0.963832 0.0655967
0.0109029 -0.0340873 0.19672 0.70707 0.706982 -0.0150933
-0.0275626 -0.0490885 0.529419 2.62326e-05 1 -0.000110266
0.0207174 -0.0622044 0.719413 0.965926 -0.258818 -6.33478e-06
-0.0346254 -0.0339545 0.485171 -0.707082 0.70713 -0.00148633
0.314642 -0.0593028 0.471293 0 -1 0
-0.225684 -0.0582872 0.51236 0.2312 0.930685 0.283501
0.107364 -0.0490885 0.548981 0 1 0
-0.0687957 0.0279433 0.135835 -0.912516 0.408114 0.0275418
-0.267001 -0.0593028 0.481503 0 -1 0
-0.0403393 -0.0447733 0.83917 -0.964363 0.258567 0.0560974
0.0398492 -0.0594595 0.512563 -0.00489035 -0.999986 0.0022084
-0.038293 -0.0410246 0.280355 -0.965751 0.258731 -0.0195909
0.0148442 -0.0493722 0.188673 0.962512 -0.25814 -0.0832722
-0.0160745 -0.0300603 0.904717 -0.251971 0.941041 0.225726
0.0653697 -0.0412668 0.212448 0.0377714 0.99481 0.0944778
0.0999321 -0.0514444 0.507227 -0.112678 0.719799 -0.684976
-0.0148854 -0.059321 0.985305 -0.837436 0.225869 0.497678
0.059726 -0.0572852 0.534462 0.970143 0.2408 -0.0289447
-0.128767 -0.0402773 0.16934 -0.0377583 -0.994811 -0.0944731
0.0629877 -0.0159406 0.139793 -0.898808 -0.431903 -0.0748578
0.0327474 0.0561199 0.133395 0.91761 0.39739 0.00855281
0.0399903 0.0539227 0.109575 0.896271 0.437074 0.0752587
-0.0333503 -0.0327127 0.469331 -0.707103 0.707109 -0.00148631
0.236082 -0.0633993 0.505205 0.97463 0.214517 -0.06387
-0.0719657 0.0234963 0.0977279 0.91093 -0.411607 -0.0280344
0.00276268 -0.0762946 0.230013 0.256431 -0.957442 -0.132467
0.0122073 -0.0611187 0.917714 0.952879 -0.254866 0.164515
-0.0963945 -0.0490899 0.511072 0.0154223 0.999385 -0.0314886
-0.0323307 -0.0803926 0.439931 -0.707101 -0.707112 0.000335771
0.00903245 -0.0313529 0.250493 0.707088 0.707111 -0.00453031
0.0810906 -0.0484971 0.172009 -0.0377529 -0.994814 -0.0944494
0.00546993 -0.0268654 0.55353 0.258808 0.965929 -0.000670737
-0.0757695 0.00265714 0.131048 0.912449 -0.408264 -0.027525
-0.00768376 -0.0593028 0.556143 0 -1 0
-0.190671 -0.0593028 0.511072 0 -1 0
-0.00240729 -0.0250375 0.381609 0.258841 0.965918 -0.00181982
-0.0821775 0.00125914 0.170853 -0.861179 0.480838 0.164821
-0.053064 0.0698134 0.130461 -0.890675 0.452893 0.0398096
-0.0709537 -0.0405994 0.149617 -0.0377557 -0.994811 -0.0944737
0.00285037 -0.0858291 0.413466 0.258808 -0.965929 0.000671409
0.00889798 -0.0818536 0.508304 0.707097 -0.707116 0.000337872
-0.0430723 -0.0512543 0.390865 -0.965922 0.258832 -0.000906351
-0.0996275 -0.0593028 0.53552 0 -1 0
-0.0202554 -0.0517315 0.521074 0.136877 0.764309 -0.630155
-0.0533637 -0.0412259 0.149184 -0.0377676 -0.994811 -0.094466
0.0685614 -0.0762841 0.568305 0.970451 -0.241274 0.00338385
0.0740241 -0.0443402 0.131055 -0.0377599 -0.994811 -0.0944769
-0.0229878 -0.025625 0.633834 -0.258813 0.965927 -0.000669967
0.300706 -0.0505233 0.476704 0.14205 0.987785 -0.0640504
-0.0442507 -0.0451562 0.186931 -0.0377662 -0.994812 -0.0944593
-0.0183065 -0.0246085 0.435129 -0.258814 0.965925 -0.00181813
0.0686905 -0.0744721 0.586361 0.961079 0.276263 -0.00228008
0.106859 -0.0366132 0.146853 0.0377711 0.99481 0.0944802
-0.0437157 -0.0533379 0.481543 -0.965922 0.258832 -0.000906351
-0.00318864 -0.08189 0.893291 0.258332 -0.963827 0.0655918
-0.19416 -0.0549732 0.486442 0.133754 0.705603 -0.69587
-0.0346577 -0.0776739 0.734774 -0.707125 -0.707089 0.000573139
-0.0584972 0.0530662 0.110564 -0.915465 0.40145 0.0276081
0.0452063 -0.0488114 0.189664 -0.0377717 -0.994811 -0.094467
-0.129038 -0.026205 0.131547 0.0377712 0.994813 0.0944527
-0.0235035 -0.0255142 0.799521 -0.258825 0.965923 -0.00158357
-0.0330699 -0.0323194 0.536559 -0.707123 0.707091 -0.000336298
0.0976888 -0.0593028 0.547411 0 -1 0
-0.013636 -0.0226781 0.189799 -0.258809 0.965923 0.00325627
0.144729 -0.0481163 0.142556 -0.0377441 -0.994813 -0.0944595
-0.0383373 -0.0373778 0.74351 -0.707082 0.707131 -0.0012471
0.0185505 -0.0620518 0.854119 0.964223 -0.258186 0.0601145
0.140451 -0.0451288 0.112808 -0.0377593 -0.994816 -0.09442
-0.0519101 -0.0490885 0.52491 0 1 0
-0.00752643 -0.0885608 0.48367 0.258828 -0.965923 0.000668879
0.225858 -0.0670196 0.544555 0.695689 -0.670302 0.258289
0.0231509 -0.0356112 0.169766 0.03776 0.994813 0.0944508
-0.0373989 -0.040922 0.237636 -0.965754 0.258719 -0.0195927
0.00101302 -0.0445375 0.0648194 0.693702 -0.694169 -0.19211
-0.0714479 0.013981 0.106306 0.911837 -0.409628 -0.0275199
0.230555 -0.0871207 0.51924 -0.241274 -0.970457 -0.00103883
0.122095 -0.0490885 0.541629 0 1 0
-0.0316541 -0.0306175 0.786834 -0.707103 0.70711 -0.00125104
-0.0329898 -0.0593028 0.55507 0 -1 0
-0.0262446 -0.0832679 0.843533 -0.258338 -0.963825 0.0655984
0.0484849 0.0124003 0.151157 -0.900903 -0.4264 -0.0809689
-0.00342969 -0.0438971 0.185923 -0.366159 0.905943 0.212593
0.00179679 -0.0859774 0.551424 0.258828 -0.965922 0.00181764
-0.0272663 -0.0489362 0.21995 -0.0377721 -0.994813 -0.0944485
0.00260085 -0.0798183 0.283453 0.258291 -0.964163 -0.0606286
-0.0784021 -0.00203982 0.113455 0.912446 -0.40827 -0.027509
0.00394257 -0.0855504 0.393398 0.258808 -0.965929 0.000671409
-0.334603 -0.0593028 0.458252 0 -1 0
0.253798 -0.0577765 0.499181 0.322878 0.171371 0.930796
-0.178333 -0.0357222 0.141182 -0.0377849 -0.994815 -0.0944179
-0.224664 -0.0637491 0.49153 0.931962 -0.258884 -0.253821
-0.255578 -0.0593028 0.48751 0 -1 0
-0.0219581 -0.02534 0.646987 -0.258813 0.965927 -0.000669967
0.0665242 -0.0490885 0.549351 0 1 0
-0.0232202 -0.0381397 0.92756 -0.69055 0.691207 0.213012
0.0342681 -0.0517664 0.225159 -0.0377647 -0.994812 -0.0944623
-0.0279268 -0.0490885 0.545332 0 1 0
0.0195515 -0.0667283 0.608452 0.965926 -0.258816 0.000910111
-0.0138216 -0.0226448 0.165136 -0.258835 0.965916 0.00325343
-0.0340956 -0.0786128 0.471146 -0.707102 -0.707112 0.000335799
-0.0408722 -0.0471174 0.327034 -0.965751 0.258731 -0.0195909
0.0854911 -0.0593028 0.518724 0 -1 0
-0.154724 -0.0593028 0.523401 0 -1 0
0.195679 -0.0590063 0.48565 -0.151338 0.516704 -0.842682
-0.0900063 -0.0131938 0.156874 -0.913116 0.406734 0.0280578
-0.00905145 -0.0231981 0.413032 0.258825 0.965923 -0.00182085
-0.089258 -0.0142895 0.0811008 -0.915465 0.401449 0.0276212
-0.170141 -0.0361078 0.164891 -0.491622 0.026019 0.87042
0.000492117 -0.0253802 0.705983 0.258808 0.965927 -0.00158492
0.0103116 -0.0559578 0.933174 0.948062 0.254611 0.190663
-0.0410307 -0.0518437 0.272436 -0.965754 0.258719 -0.0195927
0.0128845 -0.034041 0.603474 0.707095 0.707118 -0.000334783
-0.0403173 -0.042167 0.153879 -0.0377676 -0.994811 -0.094466
0.0734623 -0.016934 0.118387 0.896278 0.43704 0.0753767
0.0190077 -0.068584 0.669779 0.965926 -0.258818 -6.33478e-06
-0.0272812 -0.0265052 0.812529 -0.258825 0.965923 -0.00158357
-0.0852059 -0.0196171 0.143887 0.915459 -0.401462 -0.0276235
-0.138477 -0.034424 0.111581 -0.0377681 -0.994813 -0.0944482
0.072574 -0.0339542 0.173111 -0.89627 -0.437067 -0.0753179
-0.16852 -0.0490889 0.498039 7.81476e-05 1 -0.000252052
-0.101858 -0.0366895 0.120797 -0.0377651 -0.99481 -0.0944787
-0.00184912 -0.0248669 0.607315 0.258831 0.965922 -0.000669227
0.0181 -0.07224 0.581504 0.965926 -0.258816 0.000910111
0.0250758 -0.0490885 0.54404 0 1 0
-0.0164695 -0.0801138 0.911463 -0.256818 -0.957927 0.12814
0.110911 -0.0490885 0.528236 0 1 0
0.0771347 -0.0327003 0.111572 -0.896258 -0.437092 -0.0753068
0.00847874 -0.0802888 0.352674 0.706076 -0.706226 -0.0519783
-0.00416968 -0.0874049 0.642331 0.258808 -0.965927 0.00182017
-0.191808 -0.0329138 0.116994 -0.037776 -0.994812 -0.0944521
-0.215502 -0.0244823 0.103548 0.124668 0.93331 -0.336736
-0.0405016 -0.049081 0.226768 -0.0377585 -0.994813 -0.0944571
-0.039407 -0.0520773 0.888863 -0.964356 0.258593 0.0561031
-0.0624352 -0.0344694 0.191956 0.0377778 0.994812 0.0944593
0.00865143 -0.0306853 0.295213 0.707088 0.707111 -0.00453031
-0.0414402 -0.0605925 0.845133 -0.964223 -0.258186 0.0601161
-0.0394508 -0.0490885 0.572762 0 1 0
-0.239324 -0.0736517 0.526626 -0.970447 0.241301 0.00250032
-0.213335 -0.0237101 0.131986 -0.184239 0.982406 0.0305615
0.0598509 -0.0469134 0.163821 -0.0377673 -0.994813 -0.0944527
-0.0337879 -0.0324143 0.155631 0.309796 0.936082 0.166665
-0.0734414 -0.0669196 0.577168 0.694206 0.71977 -0.00311554
0.0159904 -0.0491684 0.20129 0.962512 -0.25814 -0.0832722
-0.0155313 -0.0879177 0.719177 -0.258813 -0.965927 0.000905568
-0.0628981 -0.036723 0.215875 0.0377646 0.994812 0.0944655
-0.00211285 -0.0246085 0.26189 0.258812 0.965919 0.00416346
0.0331871 0.0598221 0.142978 0.893485 0.429149 0.132348
-0.0050549 -0.0393663 0.110285 -0.0377767 -0.99481 -0.094473
0.0182066 -0.0399456 0.58737 0.965928 0.258812 0.000242248
-0.00461282 -0.0240246 0.0671848 0.258831 0.96584 -0.0126369
0.112524 -0.0424546 0.0958092 -0.0377585 -0.994814 -0.0944395
-0.0418873 -0.0464536 0.680133 -0.965923 0.258827 -0.000669693
0.0394579 0.0356885 0.148629 -0.937975 -0.338688 0.074112
-0.0562228 -0.038122 0.227939 0.0377691 0.994812 0.0944584
-0.0361703 -0.0350782 0.818334 -0.707154 0.707058 -0.00125186
0.000558089 -0.0373404 0.116628 0.47341 0.856344 0.206297
-0.0241191 -0.0259507 0.601389 -0.258813 0.965927 -0.000669967
-0.0399264 -0.0655957 0.33035 -0.965239 -0.258742 -0.0369625
0.123659 -0.0387854 0.163012 0.0377812 0.994811 0.0944627
0.0146084 -0.0363475 0.341235 0.707106 0.707093 -0.00453224
0.00652214 -0.027917 0.424796 0.707096 0.707116 -0.0014863
0.185332 -0.0490885 0.500671 0 1 0
0.00834166 -0.0294737 0.65492 0.70712 0.707094 -0.000337352
0.0858231 -0.0593028 0.537404 0 -1 0
-0.152142 -0.054529 0.534578 -0.34817 0.332054 0.876652
-0.111966 -0.0318103 0.183752 0.0377742 0.994812 0.0944545
-0.0155608 -0.0239724 0.382199 -0.258814 0.965925 -0.00181813
-0.070417 0.0252917 0.122063 -0.911736 0.409349 0.0342074
0.108517 -0.0353314 0.132691 0.0377802 0.99481 0.0944717
0.132181 -0.042806 0.0926965 -0.0352407 0.892884 -0.448906
-0.0247772 -0.0459642 0.187654 -0.0377589 -0.994812 -0.0944661
0.0534688 -0.0799998 0.5434 -0.198813 -0.801017 -0.564664
-0.0400291 -0.0720089 0.675438 -0.965922 -0.258834 -3.52859e-06
0.174959 -0.0593028 0.503093 0 -1 0
-0.0786489 -0.0416457 0.163713 -0.0377664 -0.994813 -0.0944481
0.0100692 -0.0402973 0.135522 0.963438 0.257935 -0.0725025
-0.0323011 -0.0802704 0.57348 -0.707103 -0.707109 0.00148634
0.0685727 -0.032377 0.185671 -0.818778 -0.569558 -0.0721552
-0.0114507 -0.0593028 0.567997 0 -1 0
0.14066 -0.0379059 0.104038 -0.013855 0.955023 -0.296206
-0.00553092 -0.0408538 0.949339 0.251961 0.941038 0.225751
-0.0300549 -0.0824367 0.611511 -0.707103 -0.707109 0.00148634
-0.315805 -0.0593028 0.455773 0 -1 0
0.0769722 -0.0291081 0.120312 0.968769 0.235775 0.0767904
-0.0179677 -0.0840589 0.864507 -0.258338 -0.963825 0.0655984
0.004668 -0.0467906 0.2122 -0.366175 0.905935 0.212597
0.011612 -0.0563431 0.588955 0.337144 0.223089 0.914639
-0.0236539 -0.0861331 0.413853 -0.258827 -0.965924 0.000670635
0.00524407 -0.0264899 0.805815 0.258844 0.965918 -0.00158297
-0.053893 -0.0376149 0.111341 -0.039763 -0.996211 -0.077347
-0.24303 -0.0593028 0.492442 0 -1 0
0.0465009 0.0252993 0.142879 0.901105 0.427072 0.0749682
-0.087653 -0.0310608 0.166139 0.0377738 0.994813 0.0944472
0.0203025 0.0875023 0.102173 0.720518 0.690177 0.0671582
-0.021293 -0.0867318 0.462729 -0.258827 -0.965924 0.000670635
-0.0105235 -0.0893328 0.522699 0.258828 -0.965922 0.00181764
0.205061 -0.0476498 0.113527 -0.0377562 -0.994812 -0.0944638
-0.0405358 -0.0440474 0.350997 -0.965751 0.258731 -0.0195909
-0.0021385 -0.0850837 0.346997 0.258287 -0.964164 -0.0606282
0.0159695 -0.0546727 0.52533 0.136053 0.764627 -0.629949
0.0450218 -0.0749388 0.563695 -0.97045 0.241278 -0.00336721
0.0655834 -0.0450125 0.141509 -0.0377628 -0.994811 -0.0944768
-0.0992537 -0.0287686 0.146637 0.0377683 0.994811 0.0944719
-0.225736 -0.0320405 0.121361 -0.0377715 -0.994812 -0.0944571
-0.0451602 -0.0500149 0.238465 -0.0377713 -0.994813 -0.094452
-0.0776912 0.0111565 0.0898141 -0.913015 0.406996 0.0275128
-0.0593541 0.0407253 0.112595 0.915477 -0.401424 -0.0275632
0.00148208 -0.0702437 0.1838 0.256455 -0.957435 -0.13247
0.0864405 -0.0501739 0.187528 -0.0377742 -0.994811 -0.0944667
-0.0178502 -0.0248439 0.835273 -0.258448 0.964698 0.0506228
-0.0584724 0.0609145 0.101088 -0.913129 0.406706 0.0280341
0.0477036 0.0201591 0.117013 -0.901617 -0.425981 -0.0750088
0.0358834 -0.0593028 0.526475 0 -1 0
0.0212461 -0.0604559 0.5936 0.965928 -0.258808 0.00090908
-0.0326335 -0.0317437 0.703902 -0.707113 0.707099 -0.00125191
0.153739 -0.0470738 0.127977 -0.037791 -0.994805 -0.0945224
-0.072373 -0.0311225 0.109479 0.0220815 0.95836 -0.284706
0.0186604 -0.0415904 0.535014 0.965928 0.258812 0.000242248
-0.213094 -0.032569 0.12187 -0.0377546 -0.994809 -0.0944939
0.0800066 -0.0527608 0.562323 0.329375 0.339887 0.880902
-0.0189805 -0.086967 0.747481 -0.258817 -0.965926 0.00090593
-0.0441091 -0.0547623 0.614601 -0.965929 0.258807 0.000239414
-0.0205834 -0.0252419 0.422703 -0.25885 0.965916 -0.00181812
0.0152343 -0.0752963 0.621796 0.707098 -0.707114 0.00148838
-0.0327502 -0.0799022 0.535045 -0.707103 -0.707109 0.00148634
-0.174746 -0.0593028 0.523729 0 -1 0
0.0615033 -0.043165 0.123686 -0.0377542 -0.994814 -0.0944491
-0.00865988 -0.0785492 0.929554 0.256779 -0.957938 0.128141
-0.0303324 -0.0683977 0.212792 -0.702277 -0.702624 -0.114567
-0.0431326 -0.0605062 0.635265 -0.965922 -0.258832 0.000906344
0.0822062 -0.0404528 0.197144 0.0377828 0.99481 0.0944743
0.0209883 -0.0524521 0.830078 0.964363 0.258567 0.0561029
0.140812 -0.0571004 0.540838 0.350238 0.20644 0.913628
0.0145473 -0.0419164 0.892237 0.964362 0.258569 0.0561025
-0.0271668 -0.0364183 0.90918 -0.690574 0.691185 0.213004
-0.0731241 -0.0593312 0.506144 -0.0155805 -0.999381 0.0315274
0.0569144 -0.00184356 0.173992 -0.900236 -0.429451 -0.07174
-0.0140751 -0.0513467 0.975607 -0.224374 0.838429 0.496682
-0.0729045 -0.0379117 0.122093 -0.037765 -0.99481 -0.0944786
-0.020379 -0.0281416 0.0360501 -0.706537 0.706491 -0.0409397
0.283851 -0.0498073 0.48712 0.309627 0.257003 0.915467
-0.00358265 -0.0569478 0.100413 0.254019 -0.948668 -0.188421
-0.0908805 -0.043238 0.185374 -0.0377766 -0.994813 -0.0944453
-0.0890754 -0.038275 0.132383 -0.0377562 -0.994811 -0.0944699
-0.052834 -0.0429195 0.166806 -0.0377623 -0.994812 -0.0944634
0.142303 -0.0593028 0.505279 0 -1 0
-0.0293619 -0.0695295 0.926553 -0.700204 -0.699777 0.141512
-0.227499 -0.0254284 0.101788 -0.184182 0.982421 0.0304386
-0.00804414 -0.0593028 0.545271 0 -1 0
-0.00900687 -0.0575015 0.517541 0.172565 0.576052 -0.79899
-0.0910514 -0.0138348 0.132167 -0.913119 0.406725 0.02809
0.200581 -0.0397025 0.0880332 0.263762 0.964384 0.0198049
0.187724 -0.0490885 0.518809 0 1 0
-0.0784601 0.0152791 0.116515 -0.910435 0.412704 0.0279938
0.0487579 -0.083514 0.581877 -0.694178 -0.719804 -0.000321125
0.124459 -0.0491765 0.505734 -0.0969555 0.706748 -0.70079
0.0363653 -0.0387265 0.197291 0.0377641 0.994812 0.0944636
-0.0318318 -0.0370601 0.0973728 0.0272091 0.90167 -0.431569
-0.1045 -0.0293156 0.154496 0.0377817 0.994812 0.0944538
0.0522521 -0.0640611 0.542907 -0.98019 -0.0946752 -0.173968
-0.0331599 -0.0326325 0.416917 -0.707103 0.707109 -0.00148631
-0.0363859 -0.0763429 0.428287 -0.707102 -0.707112 0.000335799
-0.0917688 -0.0361253 0.111006 -0.0316541 -0.993376 -0.110466
-0.00262631 -0.0523105 0.537725 0.158902 0.984443 0.0749833
-0.139731 -0.0361297 0.130042 -0.0377564 -0.994809 -0.0944935
-0.0474276 0.0680094 0.119899 0.933359 -0.349136 0.0833368
0.11877 -0.0447116 0.117082 -0.0377604 -0.994813 -0.0944544
0.0208617 -0.0498371 0.690151 0.965928 0.258811 -0.000672197
0.099401 -0.0391181 0.176214 0.0377622 0.994811 0.0944701
-0.117854 -0.0593028 0.509363 0 -1 0
0.0552382 0.00998225 0.126084 -0.898896 -0.431616 -0.0754513
0.0600634 -0.0491823 0.18763 -0.0377552 -0.994813 -0.0944539
-0.000731362 -0.0593028 0.527496 0 -1 0
-0.0997014 -0.0373963 0.0870348 -0.987136 0.157102 0.0296976
0.0165529 -0.0690078 0.316782 0.965241 -0.258735 -0.0369634
-0.185067 -0.025535 0.146887 0.037708 0.994806 0.0945492
0.274653 -0.0490885 0.480042 0 1 0
-0.0770134 0.00769808 0.163367 -0.913014 0.406993 0.0275922
-0.00747847 -0.0799011 0.24183 0.258291 -0.964163 -0.0606286
-0.0294933 -0.0593028 0.540374 0 -1 0
-0.0312325 -0.031711 0.23534 -0.7071 0.707099 -0.00453109
-0.22735 -0.0634339 0.542076 0.233189 0.938724 0.25381
0.0495507 -0.0329068 0.113645 0.0253874 0.958225 -0.284885
0.0612716 -0.00822358 0.156623 0.900612 0.42811 0.0749612
0.203708 -0.0593028 0.496013 0 -1 0
0.0328165 -0.0382973 0.0968845 0.0231398 0.896346 -0.442751
-0.0434776 -0.0525732 0.44618 -0.965922 0.258832 -0.000906351
-0.0421214 -0.04736 0.667412 -0.965923 0.258827 -0.000669693
-0.0868408 -0.0858887 0.566178 -0.241255 -0.970461 -0.00105131
-0.0708091 0.0327175 0.108322 -0.913116 0.406732 0.0280713
-0.0417117 -0.051776 0.306898 -0.965754 0.258719 -0.0195927
0.0104012 -0.074967 0.873744 0.705768 -0.705583 0.0635899
-0.233826 -0.0855211 0.535336 -0.694145 -0.719835 -0.000333168
0.0148744 -0.0358947 0.820952 0.706042 0.706211 0.0526284
-0.183692 -0.0235239 0.125164 0.0377542 0.99481 0.0944846
-0.0408716 -0.0680613 0.372292 -0.965237 -0.258751 -0.0369637
-0.138929 -0.0579982 0.494429 0.128273 0.51892 -0.845144
0.0192773 -0.0679944 0.443539 0.965928 -0.258811 -0.000242437
-0.105434 -0.0352699 0.206452 -0.491016 0.371533 0.787951
0.157647 -0.0418695 0.091309 -0.134394 0.866817 -0.480174
-0.0623316 0.0448635 0.0997165 0.913123 -0.406718 -0.028042
-0.0434991 -0.0593028 0.558966 0 -1 0
0.00594841 -0.0270916 0.631351 0.70712 0.707094 -0.000337352
-0.233103 -0.0702564 0.489667 -0.769261 -0.222317 -0.599011
0.018799 -0.0421837 0.61625 0.965928 0.258812 0.000242248
0.0153318 -0.0364299 0.676286 0.707086 0.707126 -0.00125062
0.00422411 -0.0322776 0.0863798 0.963441 0.257923 -0.0725018
0.239286 -0.067201 0.530868 0.694301 0.719678 -0.00315268
0.0241593 -0.0411409 0.208533 -0.218811 0.960509 0.171881
-0.00374156 -0.0403406 0.13895 0.47328 0.856418 0.206286
-0.0812014 -0.0117862 0.176256 0.958869 -0.222997 0.175622
0.0192551 -0.067181 0.374557 0.965241 -0.258735 -0.0369634
-0.0909074 -0.0204219 0.115548 -0.915451 0.401478 0.0276461
0.0483618 -0.0340651 0.143402 0.0377713 0.994812 0.0944547
-0.0220493 -0.0865452 0.439564 -0.258827 -0.965924 0.000670635
-0.155803 -0.0593028 0.5048 0 -1 0
-0.0102098 -0.0227137 0.505304 0.258825 0.965923 -0.00182085
0.0192127 -0.0551671 0.289355 0.965241 -0.258736 -0.0369633
-0.0487462 -0.0365445 0.206646 0.309764 0.9361 0.16662
-0.114099 -0.0282792 0.118675 -0.0122201 0.955291 -0.295416
-0.211383 -0.0518281 0.510301 -0.325475 0.27883 0.903504
-0.0335037 -0.0354751 0.1723 0.309719 0.936124 0.166573
0.0650592 -0.0176263 0.167783 -0.89626 -0.437088 -0.0753124
-0.0189767 -0.0244817 0.689525 -0.258824 0.965923 -0.00158412
0.0211691 -0.0609211 0.429924 0.965927 -0.258813 -0.000242166
-0.037983 -0.0385463 0.197882 0.309764 0.9361 0.16662
-0.0298009 -0.0825436 0.718998 -0.707113 -0.7071 0.000571403
0.183576 -0.0366419 0.116487 0.0377621 0.99481 0.0944819
-0.159426 -0.0490885 0.515445 0 1 0
0.060817 0.00193859 0.159363 0.900126 0.427588 0.0833222
0.0671787 -0.0186455 0.186478 0.804529 0.536558 0.254635
-0.0838042 -0.0172721 0.156252 0.915455 -0.401474 -0.027587
-0.000375144 -0.0271377 0.86003 0.258471 0.964692 0.050621
-0.0954416 -0.0443149 0.198537 -0.0377621 -0.994811 -0.0944742
-0.00254606 -0.079616 0.258309 0.258291 -0.964163 -0.0606286
-0.00141027 -0.0821518 0.303473 0.258291 -0.964163 -0.0606286
-0.0117584 -0.0222512 0.212374 -0.258809 0.965923 0.00325627
-0.0242613 -0.0593028 0.565301 0 -1 0
-0.00354455 -0.0427064 0.0417463 0.693624 -0.694248 -0.192107
-0.0165023 -0.0642685 0.134771 -0.254068 -0.948656 -0.18842
-0.00946852 -0.0233271 0.0210548 0.258777 0.965855 -0.012635
0.050552 0.0279865 0.133659 0.900137 0.429026 0.0754392
0.178922 -0.0379503 0.132126 0.037766 0.99481 0.0944852
-0.0189538 -0.0268847 0.86853 -0.258448 0.964698 0.0506228
-0.0392933 -0.0388384 0.382379 -0.707102 0.70711 -0.00148785
-0.0342676 -0.0498767 0.52028 0.136877 0.764309 -0.630155
0.0340466 0.0477544 0.122727 -0.89879 -0.431928 -0.0749266
-0.0391005 -0.0653813 0.307283 -0.965239 -0.258742 -0.0369625
-0.0796977 -0.00549618 0.121224 0.915464 -0.401448 -0.0276536
-0.0843786 -0.000252783 0.152163 -0.911 0.411453 0.0280359
-0.00104894 -0.0251535 0.513201 0.258832 0.965921 -0.00182041
0.0190859 -0.0430842 0.738411 0.965928 0.258811 -0.000672197
-0.0922093 -0.0282318 0.185871 -0.915464 0.401449 0.027651
0.0708195 -0.0250215 0.142152 -0.896273 -0.437064 -0.0752988
0.055161 -0.0390458 0.0965607 0.025588 0.900033 -0.43507
0.0541433 -0.0608258 0.567247 -0.264777 0.92169 0.283514
-0.00161193 -0.0501296 0.0755505 0.693624 -0.694248 -0.192107
0.0144396 -0.0694289 0.888372 0.964221 -0.258194 0.0601163
0.00401601 -0.055515 0.12086 0.697216 -0.697749 -0.164428
0.166926 -0.0593028 0.51927 0 -1 0
0.00208519 -0.0662967 0.161236 0.702282 -0.70262 -0.114562
0.0185869 -0.0538889 0.264067 0.965241 -0.258736 -0.0369633
0.00173578 -0.0256641 0.736045 0.258808 0.965927 -0.00158492
0.012374 -0.0507833 0.541333 -0.159732 0.984521 0.0721352
-0.00778563 -0.0234546 0.827674 0.258426 0.964704 0.0506209
0.111517 -0.0470501 0.144604 -0.0377433 -0.994812 -0.0944642
-0.0291768 -0.029014 0.335415 -0.707101 0.707098 -0.00453119
0.0202303 -0.0592309 0.344373 0.965241 -0.258735 -0.0369634
0.00376238 -0.0852119 0.69865 0.258808 -0.965928 0.000906532
0.0808932 -0.0346452 0.13651 0.0377727 0.994811 0.0944715
-0.302403 -0.0511235 0.467725 -0.141373 0.987724 -0.0664453
-0.0410073 -0.068359 0.730396 -0.965922 -0.258834 -3.52859e-06
0.006353 -0.0811495 0.335492 0.706076 -0.706226 -0.0519783
0.0137084 -0.04649 0.167248 0.964901 0.258405 -0.0468223
0.163486 -0.0366043 0.124123 0.0377879 0.994808 0.0944884
-0.020055 -0.0698034 0.963768 -0.690684 -0.690082 0.2162
-0.0107388 -0.0893354 0.551936 0.258808 -0.965927 0.00182017
-0.157222 -0.0257583 0.120571 0.0604052 0.9519 -0.300397
