0.0158875 -0.0671174 0.376477 0.851223 -0.524146 -0.0262763
-0.0341806 -0.0279452 0.428695 -0.70595 0.708259 -0.00203917
-0.0342529 -0.0703592 0.854927 -0.736678 -0.674553 0.0477884
-0.0385444 -0.0436208 0.225641 -0.996101 0.0791435 -0.0389864
-0.0768874 -0.0528346 0.506253 0.158904 0.4 -0.902635
-0.0049171 -0.0312071 0.0162178 0.719429 -0.633855 -0.283989
-0.0790185 0.0248611 0.141083 0.999378 0.0229744 0.026762
-0.0113297 -0.0749323 0.248254 -0.0186855 -0.99638 -0.0829346
0.0085417 -0.0246196 0.770337 0.647744 0.761836 0.00578916
0.0343939 -0.0450325 0.562187 -0.0741745 0.996692 0.0331997
-0.0105504 -0.0544118 0.57963 0.0121402 -0.999908 0.00600776
-0.0344784 -0.0326703 0.166737 0.272127 0.943738 0.1879
-0.0345653 -0.0263666 0.130927 0.128324 0.981396 0.142813
-0.0345166 -0.0307378 0.859191 -0.737492 0.673852 0.0450347
-0.15586 -0.0441789 0.50547 9.08855e-05 1 -0.000453165
-0.0164745 -0.0320649 0.0959922 0.0189575 -0.421559 -0.906603
0.230161 -0.0551711 0.500428 -0.965709 0.252627 -0.0598779
-0.0424214 -0.0418384 0.589569 -0.968981 0.247136 -0.000110102
0.0178922 -0.0428801 0.864851 0.970883 0.233182 0.0548901
-0.0895155 -0.0265762 0.157282 0.0376942 0.992865 0.113127
-0.208715 -0.0441768 0.50248 0 1 0
0.0842302 -0.0433254 0.15298 -0.0376843 -0.992865 -0.113133
-0.196927 -0.0176557 0.109246 0.101094 0.966003 -0.237945
0.00201476 -0.0208432 0.297096 0.385725 0.922613 0.00156769
-0.025873 -0.0212556 0.758814 -0.393767 0.919207 0.00263091
0.280606 -0.0538753 0.492065 0.281781 -0.462903 0.840428
-0.0425515 -0.0545568 0.561652 -6.04757e-07 -1 -4.46203e-05
0.128637 -0.0306181 0.120074 0.0376885 0.992866 0.11312
0.156582 -0.0437044 0.13451 0.0446238 -0.997828 0.0484645
-0.0413379 -0.0574245 0.84161 -0.97494 -0.219338 0.0371946
-0.142128 -0.0623087 0.545591 0.697929 0.716164 0.00204898
-0.00711951 -0.0735849 0.935593 0.207358 -0.970125 0.125936
-0.0701405 -0.0441745 0.525692 0.0011302 0.999994 -0.00339193
-0.0712488 -0.0301026 0.182145 0.0376942 0.992865 0.113127
-0.000505463 -0.0785202 0.33257 0.358089 -0.932478 -0.0475123
-0.0214011 -0.0198899 0.785743 -0.257839 0.966159 0.00747649
0.0116854 -0.0740371 0.681757 0.68328 -0.730156 0.00113667
0.00454062 -0.0388816 0.140622 -0.0442564 -0.992891 -0.110498
-0.0134236 -0.0467738 0.0649365 -0.179555 -0.959957 -0.215041
-0.0844193 -0.0564268 0.533979 0.0542893 -0.767131 -0.639189
-0.0376643 -0.0349585 0.259984 -0.927329 0.373574 -0.0224326
-0.0169144 -0.0338551 0.943333 -0.940994 0.274644 0.197739
0.170941 -0.0544404 0.493554 -0.036491 -0.981424 -0.188349
-0.00555022 -0.0636197 0.156567 0.245058 -0.957145 -0.154337
-0.078911 -0.0394178 0.173037 -0.0376853 -0.992865 -0.113132
-0.0139168 -0.0690011 0.191054 -0.0818734 -0.98949 -0.11919
-0.133486 -0.0250087 0.104154 0.0287795 0.908351 -0.417217
-0.00164032 -0.0493268 0.0898458 0.546984 -0.816946 -0.182776
-0.00573228 -0.0184691 0.738109 0.220906 0.975295 0.000318409
-0.0213063 -0.081697 0.722458 -0.290845 -0.956766 0.00265163
0.0858008 -0.0545525 0.534479 0.000212377 -1 0.000220422
0.000991775 -0.0204116 0.587961 0.312129 0.950039 -0.000999075
-0.0326416 -0.0752703 0.697561 -0.683941 -0.729537 0.00117914
-0.235833 -0.0215668 0.0956247 -0.282218 0.95935 0.000945728
-0.0368226 -0.0564174 0.907776 -0.971446 -0.20707 0.115825
-0.0291242 -0.0231886 0.587345 -0.597652 0.801755 -0.000824032
0.00783976 -0.0286521 0.130077 0.910139 0.410772 -0.0539745
-0.0410412 -0.040472 0.344609 -0.970468 0.240678 -0.0163105
0.268789 -0.0545539 0.479439 1.15416e-05 -1 -5.21358e-06
0.0848345 -0.029877 0.128176 0.0377598 0.992846 0.113273
-0.081676 0.0225489 0.100869 -0.932148 -0.00248595 -0.362069
0.130107 -0.0324228 0.135424 0.037691 0.992865 0.113132
0.143596 -0.029955 0.108004 0.012923 0.999789 -0.0159627
-0.00402648 -0.0191699 0.451704 0.258025 0.966137 -0.00125285
-0.0580144 -0.0235322 0.118898 0.0403966 0.997929 0.0500582
-0.129556 -0.0335217 0.138163 -0.03769 -0.992865 -0.113131
0.0603914 -0.0344337 0.114614 0.982162 -0.178984 0.0576469
-0.058663 -0.0273582 0.15383 0.0423689 0.992498 0.114681
-0.100329 -0.0545562 0.547414 6.95885e-05 -1 -0.000246601
0.0114444 -0.0323981 0.886391 0.751572 0.653997 0.0861866
-0.0357835 -0.0718711 0.743123 -0.772807 -0.634623 0.00473328
0.340392 -0.0517999 0.470684 0.355638 0.881931 0.309387
0.0208336 -0.0453903 0.482293 0.989128 0.147057 -0.000566192
0.0139255 -0.0480792 0.915343 0.980925 0.127863 0.146416
-0.063957 -0.0316701 0.192347 0.0639157 0.990499 0.121766
0.00498244 -0.0223609 0.381562 0.500917 0.865495 -0.000799598
-0.00935116 -0.0181553 0.437872 0.0810387 0.99671 -0.00112202
-0.0587019 -0.0442194 0.562632 0.00791175 0.999962 0.00357395
-0.00209997 -0.0814021 0.797958 0.28514 -0.958319 0.0178961
0.0567642 -0.0188541 0.141119 -0.999379 -0.0227701 -0.0268905
0.0554757 -0.00719679 0.1905 -0.981994 0.116921 0.148379
0.015882 -0.0588909 0.273804 0.915766 -0.398998 -0.0466278
0.0215896 -0.0384821 0.193668 -0.201115 0.959048 0.199448
0.020318 -0.0589488 0.661514 0.973767 -0.227548 0.000485722
0.0537188 -0.0715923 0.541351 -0.423064 -0.616335 -0.664189
-0.0137474 -0.0770898 0.906915 -0.117021 -0.988628 0.0944511
0.00490009 -0.0792621 0.631683 0.47069 -0.882298 0.00133303
-0.0227624 -0.026551 0.907768 -0.347187 0.925758 0.149779
-0.170621 -0.0441768 0.514398 0 1 0
0.0598999 9.67083e-05 0.163833 0.999377 0.0221696 0.0274519
-0.00782367 -0.0176833 0.201035 0.175431 0.984486 0.0033276
-0.0123743 -0.0175395 0.228666 -0.102436 0.994729 0.0046104
0.00373569 -0.0217885 0.231187 0.555596 0.831445 -0.00354672
-0.0927848 -0.0766659 0.576938 -0.873533 -0.486759 0.00245244
-0.0306436 -0.0242563 0.711086 -0.628356 0.777926 0.00044778
-0.0226857 -0.080386 0.388096 -0.345948 -0.937875 -0.0266539
-0.0279066 -0.0783505 0.772112 -0.529922 -0.848004 0.00851594
-0.0340039 -0.0538131 0.184525 -0.899959 -0.426331 -0.0911946
-0.0398008 -0.0397303 0.28854 -0.97129 0.23698 -0.0208723
-0.0117385 -0.0177534 0.280171 -0.0329508 0.999446 0.0047222
-0.0261736 -0.0228127 0.153252 -0.687898 0.725511 -0.0207539
-0.0835589 0.0316807 0.153434 -0.966637 0.162542 0.197974
-0.0275189 -0.0749969 0.873029 -0.540161 -0.838995 0.0656784
0.102433 -0.0303434 0.126398 0.0377598 0.992846 0.113273
-0.0276381 -0.0785625 0.412533 -0.526647 -0.849875 -0.0188257
0.013149 -0.0288959 0.650227 0.70601 0.708201 -0.000628749
-0.0217421 -0.0199838 0.323902 -0.292787 0.956172 0.00324123
0.00953574 -0.0760062 0.44191 0.636987 -0.770829 -0.0083583
0.046163 -0.0362173 0.194914 0.00606644 0.988787 0.149211
0.0211324 -0.0535379 0.737938 0.995003 -0.0997728 0.00371524
0.0184745 -0.0367102 0.56535 0.927401 0.37407 -0.000251419
-0.0313784 -0.025308 0.411848 -0.671188 0.741283 -0.00246392
0.0135832 -0.0715625 0.765061 0.770895 -0.63691 0.00811977
0.160978 -0.0709376 0.552753 0.99878 0.0493758 0.000550684
-0.0402822 -0.06545 0.604742 -0.882268 -0.470746 0.000843972
-0.0384254 -0.0589116 0.88574 -0.958866 -0.273315 0.0766487
-0.0427248 -0.0583716 0.707387 -0.973808 -0.227365 0.00185441
-0.0237364 -0.0205192 0.280267 -0.390429 0.920632 0.00152144
-0.0580272 -0.0392151 0.164305 -0.0376569 -0.992865 -0.113146
-0.0833967 -0.0449611 0.513447 0.0731948 0.923822 -0.375761
-0.293512 -0.0486013 0.483901 -0.320958 0.25003 0.913494
0.247557 -0.0441771 0.488017 -0.000355346 1 -0.000873467
-0.0137283 -0.0834648 0.58536 -0.0992205 -0.995064 0.00146853
-0.0298187 -0.0777563 0.473653 -0.583004 -0.812467 -0.00201632
0.0731666 -0.040408 0.188684 0.502208 0.280774 0.817895
0.0165731 -0.0330611 0.514174 0.843433 0.537234 -0.00100991
0.0360922 -0.0269614 0.110588 0.0247452 0.992175 -0.122376
-0.0225863 -0.0545525 0.541913 0.00014267 -1 -0.000126189
0.149528 -0.0545537 0.514793 -0.00010849 -1 -0.000305243
-0.0334156 -0.0516443 0.169361 -0.924863 -0.368405 -0.0943779
-0.020786 -0.0774969 0.884555 -0.363736 -0.928573 0.0738158
-0.072759 -0.0258372 0.145213 0.0376942 0.992865 0.113127
-0.0199048 -0.0715666 0.226382 -0.3355 -0.937879 -0.0884473
0.237381 -0.0624444 0.543214 -0.229949 -0.920163 0.316896
-0.0415952 -0.0624389 0.550501 -0.93626 -0.351308 0.000643492
0.238555 -0.0551382 0.510967 0.845306 0.528918 0.0755233
0.059962 0.0242681 0.141378 0.9994 0.022563 0.0262965
0.124555 -0.0302357 0.106676 0.00285728 0.973062 -0.230527
0.00724891 -0.0246249 0.832454 0.63849 0.769169 0.0266211
-0.301524 -0.0457106 0.47228 -0.100711 0.99378 -0.0475249
-0.0429442 -0.0568558 0.432687 -0.986086 -0.166163 -0.00489488
-0.0146374 -0.0356422 0.120278 -0.0796596 -0.992081 -0.0971055
0.00910128 -0.0549975 0.944032 0.977355 -0.107937 0.182006
0.0148706 -0.0497576 0.207238 0.975305 -0.211264 -0.0643952
-0.153432 -0.0592506 0.555172 -0.417223 0.907755 0.0436528
0.0142924 -0.0303826 0.432177 0.73034 0.68308 -0.00222078
-0.0382365 -0.0321098 0.619516 -0.80331 0.595561 -0.00053143
0.204802 -0.0351469 0.0911314 0.282693 0.959089 0.0152609
-0.0388648 -0.0338508 0.801658 -0.868278 0.495881 0.0139585
-0.197099 -0.0441768 0.511235 0 1 0
0.0503058 -0.0616407 0.575381 -0.750706 0.660561 0.00993551
-0.235329 -0.0261988 0.120915 -0.430625 -0.202368 0.879551
-0.0389878 -0.0677952 0.456697 -0.843487 -0.537133 -0.00412045
-0.0242876 -0.0215929 0.834556 -0.320533 0.946883 0.0259104
-0.0381188 -0.062094 0.301996 -0.905407 -0.422357 -0.0430313
-0.0375776 -0.0436464 0.205174 -0.998467 0.0170319 -0.0526707
-0.145283 -0.0545549 0.521897 -0.000137706 -1 0.000276858
-0.0297036 -0.0450576 0.54911 0.0697678 0.99703 0.0326195
-0.0333569 -0.0355262 0.148305 -0.981121 0.181867 -0.0657685
-0.0430145 -0.0571754 0.683264 -0.986516 -0.163664 0.000447886
-0.151797 -0.0516941 0.494481 0.135055 0.572686 -0.808573
-0.0428257 -0.0567341 0.772557 -0.986747 -0.162109 0.00716023
0.0192148 -0.0388875 0.470364 0.944233 0.329273 -0.00178461
-0.0253801 -0.0337423 0.931259 -0.684839 0.696503 0.214195
-0.0435094 -0.0482182 0.536849 -0.99561 0.093603 -0.000175341
-0.120584 -0.0325152 0.12634 -0.0376854 -0.992865 -0.113133
-0.0429153 -0.044656 0.44418 -0.981333 0.192298 -0.00273453
-0.0352548 -0.072975 0.499799 -0.729534 -0.683944 -0.000713129
-0.00479143 -0.0190097 0.406136 0.231517 0.972831 -0.00019105
0.00845635 -0.0245567 0.558067 0.627693 0.77846 -0.000788058
-0.0193067 -0.0824754 0.618392 -0.228396 -0.973567 0.0014504
0.0586602 0.0414126 0.137489 0.933787 0.198251 0.297891
4.40441e-05 -0.0544837 0.549845 -0.00854343 -0.999956 0.00392785
-0.0608164 -0.0367019 0.14318 -0.0376569 -0.992865 -0.113146
-0.0129128 -0.0823888 0.812955 -0.0402395 -0.998875 0.0251029
-0.0224029 -0.0785082 0.336863 -0.342381 -0.938349 -0.0477131
0.107607 -0.0545513 0.523988 -0.000140828 -1 -0.000374933
-0.224669 -0.061422 0.50209 0.710096 0.703389 -0.0317308
-0.0146786 -0.0175969 0.152256 -0.210898 0.977505 0.00254191
-0.034482 -0.028598 0.343436 -0.707804 0.706401 -0.00342461
-0.10758 -0.0268569 0.100922 -0.00864976 0.907066 -0.420899
0.00669914 -0.0235734 0.347701 0.591427 0.806356 -0.00166834
-0.0817851 0.053428 0.134098 0.929355 0.210724 0.303141
-0.0657136 -0.02453 0.131377 0.0378759 0.992901 0.11275
0.00101763 -0.0288361 0.918171 0.482267 0.854286 0.193946
-0.0371754 -0.0310165 0.453745 -0.770218 0.637777 -0.00225427
0.013699 -0.0544668 0.582763 -0.0142894 -0.999877 0.00653467
0.00251559 -0.0209638 0.572861 0.347483 0.937686 -0.000979617
0.0211766 -0.0478836 0.510125 0.995813 0.0914083 -0.000226414
0.167362 -0.0443874 0.502039 -0.0448261 0.971551 -0.232551
0.073684 -0.0441775 0.547594 -0.000318047 1 -0.000225702
-0.0248556 -0.0779788 0.8502 -0.420731 -0.905893 0.0484084
0.0172761 -0.0653587 0.393186 0.884232 -0.466633 -0.0196685
0.0731062 -0.0444211 0.517955 -0.0345667 0.983464 -0.177777
0.000346498 -0.0505721 0.569459 0.191628 0.977293 0.0904242
0.155509 -0.0598278 0.53613 0.805419 0.591994 0.0290431
-0.0222956 -0.0228661 0.0592727 -0.749137 0.661026 -0.0428743
0.0888985 -0.046787 0.510348 -0.103687 0.791873 -0.601819
-0.0245731 -0.0732321 0.268475 -0.45763 -0.886304 -0.0709968
0.102351 -0.0451006 0.162673 -0.0180219 -0.996595 -0.0804597
0.0149936 -0.0315885 0.152211 -0.139906 0.973999 0.178191
-0.325814 -0.0544931 0.469517 -0.00811617 -0.99996 -0.00381511
-0.179635 -0.054555 0.523072 9.25374e-05 -1 -0.000334361
0.015641 -0.051496 0.54626 0.240248 0.964069 0.113365
-0.12116 -0.0442622 0.54411 -0.0395899 0.993626 0.10555
-0.0945785 -0.0332639 0.124248 -0.0376865 -0.992865 -0.113131
0.0138772 -0.0325993 0.859738 0.821677 0.567522 0.0525956
-0.081423 -0.0279488 0.168902 0.962225 -0.262938 0.0706165
0.00902528 -0.026006 0.263127 0.693338 0.720589 -0.00579997
-0.0794394 -0.00358468 0.172861 0.993475 0.0720796 0.0883794
-0.0868173 -0.0785081 0.550166 -0.378706 -0.857891 -0.347282
0.0211441 -0.0496498 0.757677 0.99947 0.0323687 0.00357794
-0.0589818 -0.0545562 0.556204 -4.08094e-05 -1 1.47327e-05
-0.0988453 -0.0282513 0.175091 0.0376864 0.992865 0.113134
0.0520593 -0.0540673 0.511545 -0.0811313 -0.88583 -0.456861
-0.111463 -0.0278872 0.175698 0.0085729 0.985829 0.167535
0.0848045 -0.0441794 0.523436 -0.000318047 1 -0.000225702
0.149453 -0.0817262 0.530418 0.034383 -0.984388 -0.17262
0.00274321 -0.0800184 0.416331 0.413563 -0.91037 -0.0138613
-0.0479922 -0.0419398 0.184874 -0.0376569 -0.992865 -0.113146
0.158432 -0.0441803 0.520589 -0.000355346 1 -0.000873467
-0.113435 -0.0545546 0.530813 0.00010898 -1 -0.000290537
-0.0167242 -0.0183838 0.250613 -0.23029 0.973114 0.00389176
-0.0429061 -0.0502366 0.376226 -0.999474 0.0282993 -0.0158171
-0.0198637 -0.0430345 0.970588 -0.594296 0.729223 0.339185
0.0818266 -0.0305557 0.102406 0.0482863 0.942255 -0.331396
-0.108129 -0.0441768 0.522592 0 1 0
0.0179001 -0.0353045 0.690111 0.905725 0.423866 -0.000314324
-0.0609083 -0.0428991 0.197593 -0.0376989 -0.992866 -0.113116
-0.0329567 -0.0545521 0.527269 0.00014267 -1 -0.000126189
0.05632 0.0324518 0.114237 -0.999381 -0.0227153 -0.0268794
0.0127154 -0.0731361 0.463287 0.730589 -0.682807 -0.0036878
0.0555709 0.0738536 0.108847 -0.999526 0.000142206 -0.0307714
0.0606455 -0.0441838 0.537827 -0.000318047 1 -0.000225702
0.00758744 -0.0314725 0.905679 0.689122 0.710611 0.141924
0.0514568 -0.0545556 0.54901 1.53788e-05 -1 -5.70652e-05
-0.0320053 -0.0760328 0.552513 -0.632851 -0.774272 0.00118316
-0.0280928 -0.0655739 0.212477 -0.619883 -0.778663 -0.0971017
-0.230003 -0.0823283 0.519881 0.181877 -0.983 -0.0251516
-0.0374634 -0.0318277 0.366578 -0.802409 0.596751 -0.00535529
-0.126182 -0.0257014 0.16182 0.0376864 0.992865 0.113134
-0.0136894 -0.0174997 0.184203 -0.153253 0.98818 0.00362402
-0.0858891 -0.0463114 0.561187 -0.298954 0.554993 0.776279
0.00428812 -0.0243817 0.11774 0.705701 0.707931 -0.0286301
0.00794239 -0.0770976 0.42876 0.585077 -0.810874 -0.0129712
-0.0275462 -0.0449131 0.525152 0.0617355 0.975184 -0.212614
-0.00979199 -0.0173138 0.0917747 0.110319 0.993885 -0.00474672
0.00381065 -0.0728699 0.904325 0.564354 -0.819648 0.0984004
0.212567 -0.0441897 0.508129 0.00123173 0.999995 0.00288336
-0.0155251 -0.0830868 0.704879 -0.163975 -0.986461 0.00264138
-0.0722888 -0.044677 0.56416 -0.127742 0.929185 0.34684
-0.166138 -0.0250051 0.151351 -0.348495 0.466342 0.813066
0.0191342 -0.0509375 0.309622 0.99571 -0.0880092 -0.0285575
0.246272 -0.0699029 0.516978 0.995808 0.0899427 -0.0166605
0.1407 -0.0334572 0.140892 0.0573412 0.986492 0.153448
-0.0107801 -0.0564981 0.111784 -0.000574609 -0.981967 -0.189054
0.0205449 -0.0446329 0.430311 0.98023 0.197775 -0.00581987
-0.0283092 -0.0340144 0.0884836 -0.993667 0.0578897 -0.0963086
-0.00328786 -0.0786159 0.876844 0.263565 -0.962222 0.0682788
-0.229677 -0.0266706 0.111664 -0.042784 -0.992491 -0.114593
0.0226834 -0.0523048 0.528328 0.271647 0.890474 -0.365052
-0.144421 -0.0640719 0.562584 -0.640393 -0.699346 0.317508
0.1029 -0.044175 0.519689 0.000168407 1 0.000190807
-0.0416661 -0.0391718 0.711489 -0.95656 0.291532 0.0011886
-0.232873 -0.0784374 0.501563 -0.129791 -0.907539 -0.399408
0.0295388 -0.0383336 0.127391 -0.0376242 -0.992874 -0.113075
0.0641916 -0.040853 0.137957 -0.0376932 -0.992864 -0.11314
0.0178678 -0.0418111 0.284238 0.9787 0.204128 -0.0218659
-0.0807813 0.073254 0.11963 0.977295 0.18711 0.0994191
-0.0163947 -0.0188161 0.804707 -0.207086 0.978238 0.0128586
0.0604153 -0.0352512 0.183467 0.0376999 0.992864 0.113139
-0.0382095 -0.0320184 0.680075 -0.804662 0.593733 -0.000544075
0.0199622 -0.0602005 0.674077 0.957021 -0.290018 0.000567799
-0.0781989 0.0209126 0.113907 0.999381 0.0227164 0.026874
-0.022457 -0.0220745 0.862432 -0.304865 0.951021 0.0511474
-0.0815008 -0.0576007 0.575757 0.122005 0.96656 0.225557
-0.265511 -0.0441769 0.482164 0.00011978 1 5.65213e-05
-0.0196109 -0.082076 0.752116 -0.290845 -0.956756 0.00528376
-0.083304 0.0562319 0.118372 -0.99938 -0.0227237 -0.0268909
-0.0178426 -0.0401415 0.0440391 -0.527959 -0.820334 -0.219799
-0.26995 -0.0490694 0.471469 0.199336 0.605533 -0.770451
0.0188191 -0.0318746 0.0945461 0.00660014 0.837577 -0.546279
0.150352 -0.0823666 0.542963 0.0516386 -0.998662 0.00277602
-0.158145 -0.0734907 0.560398 0.921315 0.244337 0.302452
-0.037566 -0.03754 0.879027 -0.91714 0.392947 0.0666844
-0.0424825 -0.0508829 0.352852 -0.998909 -0.041867 -0.0206665
-0.0577675 -0.0299988 0.175439 0.0816078 0.988465 0.127579
0.0147208 -0.0319704 0.30474 0.841165 0.540666 -0.0110731
-0.00327723 -0.0825785 0.593602 0.227483 -0.973781 0.00145096
0.00504405 -0.0220014 0.70948 0.494295 0.869293 -0.00101943
0.00265875 -0.0805397 0.546783 0.411595 -0.911366 0.00136996
-0.13076 -0.0441768 0.521297 0 1 0
-0.0423476 -0.0599448 0.660967 -0.95706 -0.289889 0.000565828
0.0565416 -0.0060081 0.138515 -0.999379 -0.0227701 -0.0268905
-0.0476126 -0.035904 0.131783 -0.0376569 -0.992865 -0.113146
-0.0390556 -0.0624421 0.328087 -0.906591 -0.420628 -0.0341277
0.012248 -0.0737083 0.51789 0.729606 -0.683866 0.00107555
-0.127784 -0.0545564 0.541654 9.25374e-05 -1 -0.000334361
0.0574623 -0.054551 0.565359 0.000392035 -0.999999 0.00124981
-0.0138496 -0.0835283 0.465436 -0.0986748 -0.995106 -0.00520258
-0.0242158 -0.0806791 0.676961 -0.411679 -0.911328 0.00137453
-0.0138514 -0.0180184 0.762498 -0.158874 0.987296 0.00249493
-0.0807864 -0.0373052 0.112454 -0.992387 -0.122666 -0.0110147
-0.0076939 -0.0832732 0.656174 0.0991915 -0.995067 0.00152627
-0.0244637 -0.020864 0.513507 -0.347172 0.937801 -0.0012204
-0.0831479 -0.0247366 0.105904 0.01071 0.936233 -0.351215
0.0410347 -0.0449197 0.181386 -0.0376778 -0.992873 -0.113062
0.177576 -0.0321962 0.117381 0.0447953 0.992874 0.110427
0.0137412 -0.0716546 0.728465 0.771895 -0.635745 0.00248861
0.140739 -0.0732291 0.562541 0.940303 0.159153 0.300832
0.245685 -0.0746587 0.529435 0.943995 -0.329956 0.00164632
-0.0824541 -0.0244071 0.135895 0.0376913 0.992855 0.113216
-0.0867557 -0.035375 0.14017 -0.0376853 -0.992865 -0.113132
-0.0219498 -0.0197688 0.23854 -0.314839 0.949141 0.00281772
-0.0142032 -0.0182843 0.471748 -0.148285 0.988944 -0.00121954
-0.0424786 -0.0440046 0.396239 -0.982522 0.18587 -0.0101821
0.0612387 -0.00292566 0.116755 0.99938 0.0227195 0.026878
0.207711 -0.044292 0.494276 -0.0879647 0.914756 -0.394315
0.133617 -0.0441795 0.529169 3.51432e-05 1 -8.78678e-06
-0.142964 -0.0798206 0.550231 0.66482 -0.747003 0.000821309
-0.0338455 -0.0282026 0.817337 -0.706901 0.707057 0.0190044
-0.0429955 -0.0444297 0.626408 -0.980767 0.195181 -7.00637e-05
-0.226323 -0.0589056 0.521972 0.780241 0.620751 0.0767575
-0.0106635 -0.0829002 0.785275 0.0300864 -0.999465 0.0128611
-0.0403783 -0.0514252 0.876199 -0.99764 -0.0200292 0.065672
-0.0766338 -0.0314728 0.194742 -0.00336613 0.98068 0.195589
-0.0394073 -0.0371586 0.307389 -0.944362 0.328516 -0.0160293
-0.22724 -0.0510009 0.508064 -0.334122 0.25824 0.906463
0.0198278 -0.0429655 0.80585 0.98094 0.193776 0.0143782
0.170885 -0.0441862 0.524714 0.00123173 0.999995 0.00288336
-0.0219669 -0.0818321 0.490057 -0.345924 -0.938262 0.000722158
0.194768 -0.0545537 0.498825 -0.00010849 -1 -0.000305243
0.000852889 -0.0796029 0.829255 0.402262 -0.914948 0.0324876
-0.0072886 -0.0388249 0.159425 -0.613234 0.719986 0.324906
-0.00361741 -0.0319547 0.0977681 0.166324 0.867855 -0.46815
-0.000208594 -0.0311893 0.930528 0.49908 0.83646 0.226395
-0.000918451 -0.0818164 0.440645 0.292151 -0.956327 -0.00925397
0.0572371 -0.0141772 0.119584 -0.999379 -0.0227509 -0.0269245
0.0174402 -0.0666175 0.507101 0.880813 -0.473464 0.00049656
-0.232309 -0.0441812 0.487498 0.00011978 1 5.65213e-05
-0.240879 -0.063984 0.508067 -0.83488 0.548663 -0.0440853
-0.069147 -0.0329673 0.113214 -0.0374805 -0.99273 -0.114382
0.0869569 -0.0347456 0.170185 0.0376999 0.992864 0.113139
-0.0434716 -0.0542402 0.5815 -0.994925 -0.10062 0.000321948
-0.0465221 -0.0444229 0.55875 0.0258669 0.999591 0.0121682
-0.235243 -0.0531145 0.477312 0.213892 0.11942 -0.96953
0.0148923 -0.0309916 0.44623 0.742893 0.669407 -0.00190365
0.0180403 -0.065171 0.445501 0.911828 -0.410519 -0.00659831
0.0607898 -0.0820222 0.571725 0.304488 -0.952512 0.00272082
0.0515003 -0.0383587 0.120296 -0.0376881 -0.992865 -0.113129
-0.0327493 -0.0701786 0.309953 -0.721292 -0.691059 -0.0466521
-0.00546804 -0.0619254 0.146366 0.245828 -0.955428 -0.163483
0.224985 -0.0641095 0.531959 -0.816817 0.576894 -0.00178259
-0.0400799 -0.0443466 0.524899 0.0232687 0.997457 -0.0673595
0.0209747 -0.046178 0.580119 0.989411 0.145142 6.15092e-06
-0.130817 -0.0310751 0.117111 -0.03769 -0.992865 -0.113131
-0.032843 -0.0752287 0.606523 -0.683941 -0.729537 0.00117914
0.0559024 0.0541696 0.111494 -0.99938 -0.0225861 -0.0269972
0.00644803 -0.0739574 0.315911 0.591321 -0.804885 -0.0500013
-0.0320899 -0.0263507 0.321185 -0.702847 0.71133 -0.00397592
0.00815571 -0.0279572 0.143396 0.857409 0.513131 -0.0393084
-0.0326144 -0.0753671 0.653452 -0.683941 -0.729537 0.00117914
-0.00125313 -0.0394549 0.956221 0.733748 0.676425 -0.0637331
-0.00845482 -0.0332959 0.137234 -0.252081 0.943148 0.216625
-0.0348585 -0.0614808 0.242414 -0.83906 -0.540411 -0.0627235
-0.0203944 -0.0192261 0.133126 -0.411845 0.91123 -0.00669001
0.129112 -0.0441779 0.511888 0.000168407 1 0.000190807
-0.0431513 -0.056756 0.511933 -0.985995 -0.166774 0.000184405
-0.220276 -0.0676559 0.531281 0.965569 0.260146 0.00108124
0.0501329 -0.0398655 0.133975 -0.0376932 -0.992864 -0.11314
0.00569242 -0.0787307 0.669001 0.528789 -0.848752 0.00133802
0.0048561 -0.0575535 0.154501 0.693443 -0.708768 -0.129557
0.145364 -0.0565951 0.538557 -0.711944 0.681929 0.167658
-0.0307312 -0.026763 0.176741 -0.743083 0.668905 -0.0198643
-0.0114403 -0.0684824 0.971242 -0.0683988 -0.973551 0.217993
0.0174944 -0.0346423 0.749007 0.880128 0.474722 0.0036747
0.0111299 -0.0355233 0.108723 -0.0349794 -0.99364 -0.107035
0.0201539 -0.0471434 0.357899 0.994687 0.101466 -0.0174057
-0.109195 -0.0231065 0.133389 0.0376684 0.99286 0.113182
0.0689745 -0.0390923 0.120913 -0.0376881 -0.992865 -0.113129
-0.0812156 -0.0210061 0.189115 0.981289 -0.177589 0.0743907
0.125037 -0.0402317 0.112235 -0.037676 -0.992868 -0.113107
0.0115419 -0.0738934 0.753142 0.683322 -0.730101 0.00488552
-0.0301197 -0.0240844 0.482944 -0.62721 0.778849 -0.00136222
-0.213116 -0.0279034 0.116723 -0.0375207 -0.992831 -0.113486
0.0556442 0.0183728 0.151307 -0.999382 -0.022716 -0.0268238
0.0210778 -0.0469015 0.60026 0.995342 0.0964072 6.82259e-05
0.113593 -0.0312864 0.130952 0.0376885 0.992866 0.11312
0.067335 -0.0279533 0.109401 0.0337691 0.991955 -0.122002
-0.00805484 -0.0835327 0.501115 0.103859 -0.994591 0.00109823
0.00908517 -0.0417618 0.164697 -0.0508551 -0.992836 -0.108125
0.124887 -0.0334791 0.146434 0.0376908 0.992865 0.113133
-0.0344647 -0.0339065 0.109722 -0.0372019 -0.993041 -0.111741
0.0165911 -0.0673489 0.4171 0.849946 -0.526755 -0.0110233
-0.0392858 -0.0336566 0.697351 -0.87236 0.488864 -0.000397278
0.00869364 -0.0767548 0.619886 0.635063 -0.77246 0.0011927
0.109989 -0.0441786 0.539168 3.51432e-05 1 -8.78678e-06
-0.0815655 -0.0195337 0.117804 -0.99938 -0.0227368 -0.0268967
0.0150531 -0.0552951 0.234592 0.939674 -0.336913 -0.0591752
-0.049097 -0.0545551 0.5322 0.00014267 -1 -0.000126189
0.230579 -0.0470811 0.485445 -0.15967 0.667784 -0.727028
-0.201181 -0.0545265 0.515854 -0.023626 -0.997685 0.0637643
0.179844 -0.0418894 0.108527 -0.0376865 -0.992865 -0.113136
-0.00463119 -0.0183362 0.168027 0.257262 0.96634 0.00166709
-0.00795773 -0.0516474 0.567608 -0.24157 0.964232 0.109086
-0.106242 -0.0441957 0.548423 -0.00749582 0.99976 0.0205756
0.0580974 -0.0284271 0.17122 0.972286 -0.224659 0.0647163
-0.024937 -0.0464963 0.569368 0.124501 0.990479 0.0587437
0.214433 -0.0399215 0.0866727 0.22274 -0.952831 -0.206153
-0.0359521 -0.0699178 0.368152 -0.767579 -0.640318 -0.028569
0.00944265 -0.0759825 0.711476 0.635064 -0.772455 0.00267876
-0.0396695 -0.0345391 0.501612 -0.876745 0.480955 -0.00110526
0.142408 -0.0621608 0.515388 -0.838326 0.515001 -0.178841
0.00862869 -0.0245948 0.660316 0.655161 0.755489 -0.000758794
-0.0436034 -0.0502348 0.668262 -0.999439 0.0334789 0.000191084
-0.00504968 -0.0468812 0.53359 0.137978 0.988293 0.0651029
0.074929 -0.0482267 0.56661 0.325738 0.360195 0.874159
-0.0323821 -0.028077 0.198023 -0.769051 0.638939 -0.0178492
-0.0306761 -0.024622 0.439902 -0.655743 0.754982 -0.00176139
-0.236986 -0.0595694 0.525734 -0.723999 0.685215 0.0794059
0.0678991 -0.0650062 0.588867 0.901508 0.431511 0.032901
-0.0405027 -0.036099 0.652104 -0.923682 0.38316 -0.000262369
-0.000992389 -0.0430825 0.0657806 0.655899 -0.732426 -0.182616
-0.0397206 -0.0348639 0.438299 -0.900841 0.434138 -0.00305169
0.021215 -0.0484443 0.697911 0.995654 0.0931262 0.000114462
0.00707023 -0.0544931 0.562733 -0.00854343 -0.999956 0.00392785
-0.0788475 -0.027027 0.157683 0.0376942 0.992865 0.113127
0.0161793 -0.044292 0.892069 0.978641 0.184049 0.0915873
-0.0294856 -0.0463513 0.949565 -0.936772 0.285277 0.202671
-0.14095 -0.0735147 0.522767 0.880837 -0.365644 -0.300716
-0.097678 -0.0401212 0.189905 -0.155908 -0.981737 0.109015
0.0377533 -0.0330727 0.170822 0.0118885 0.992361 0.122798
0.163042 -0.0400698 0.0981536 -0.0376815 -0.992867 -0.113114
-0.042629 -0.0589673 0.462194 -0.97298 -0.23087 -0.00293461
0.0806552 -0.0394693 0.12033 -0.0376932 -0.992864 -0.11314
-0.031404 -0.025052 0.57134 -0.657955 0.753057 -0.000740291
-0.038331 -0.0516541 0.233394 -0.98248 -0.179087 -0.0515804
-0.0150992 -0.0183947 0.343342 -0.194524 0.980893 0.00294073
-0.0243418 -0.0640476 0.960937 -0.776009 -0.598949 0.197662
0.0522994 -0.0809993 0.584093 -0.456227 -0.889457 0.026894
0.0569151 -0.0280066 0.189789 0.959621 -0.271966 0.0718477
-0.0410895 -0.0377648 0.472779 -0.941801 0.336166 -0.00152703
-0.0315371 -0.0707776 0.883131 -0.693508 -0.716536 0.0749819
-0.0156088 -0.0831824 0.639631 -0.164016 -0.986457 0.00145749
0.019839 -0.040809 0.493218 0.958421 0.285356 -0.000456678
0.238863 -0.0600598 0.492148 0.841637 0.492859 -0.220767
-0.0106911 -0.0500887 0.545144 -0.182732 0.979694 0.0825164
-0.0420225 -0.058074 0.811848 -0.974743 -0.222233 0.0221157
0.0044755 -0.0275285 0.0860418 0.948857 0.307358 -0.0721209
-0.0412595 -0.0632637 0.588619 -0.93626 -0.351308 0.000643492
-0.160433 -0.0332676 0.146223 -0.0376989 -0.992866 -0.113116
0.148938 -0.042689 0.125839 -0.0376865 -0.992865 -0.113136
-0.0289461 -0.0366066 0.131736 -0.0376569 -0.992865 -0.113146
-0.19988 -0.0280358 0.113463 -0.0378148 -0.992884 -0.112922
0.189546 -0.037581 0.0800078 -0.156532 0.712654 -0.683829
0.0188664 -0.0377239 0.539282 0.944233 0.329277 -0.000516279
-0.143059 -0.0302557 0.113998 -0.03769 -0.992865 -0.113131
-0.00577159 -0.0184564 0.726529 0.220906 0.975295 0.000318409
-0.0151217 -0.0746274 0.927321 -0.182703 -0.97531 0.124059
0.0197575 -0.0610106 0.605413 0.957021 -0.290018 0.000567799
-0.152236 -0.0782378 0.520368 -0.170119 -0.855571 -0.488935
0.0208205 -0.053958 0.783676 0.994674 -0.102531 0.0104911
-0.207816 -0.0183644 0.120689 -0.0245332 0.995443 0.0921439
-0.0287354 -0.0232054 0.39588 -0.593337 0.804952 -0.00166721
-0.0719896 -0.0410935 0.185437 -0.0376989 -0.992866 -0.113116
0.0995806 -0.0312206 0.135043 0.0376885 0.992866 0.11312
-0.0216714 -0.0815102 0.739973 -0.351989 -0.93599 0.00525483
-0.0327215 -0.0280636 0.844272 -0.706963 0.706447 0.0337103
-0.123426 -0.0217547 0.114596 0.0334823 0.970459 -0.238932
-0.078099 -0.0570986 0.561722 0.850738 0.520767 0.0710336
-0.0432498 -0.0472981 0.763292 -0.995426 0.0953117 0.00653503
-0.00659813 -0.0407465 0.0419803 0.396961 -0.887646 -0.233468
-0.0901647 -0.0791322 0.590736 -0.62265 -0.77148 0.130866
-0.0395241 -0.0533795 0.265566 -0.969701 -0.240154 -0.0447903
-0.0900393 -0.0441768 0.524026 0 1 0
0.191737 -0.054555 0.511763 1.15416e-05 -1 -5.21358e-06
-0.0789791 0.00719202 0.154629 0.999382 0.0227404 0.0267949
0.0922767 -0.0384744 0.107727 -0.0376881 -0.992865 -0.113129
0.0112522 -0.0673368 0.891983 0.799414 -0.59435 0.0876632
-0.0850183 -0.037884 0.199054 -0.453224 0.236397 0.859479
0.155962 -0.0311452 0.10063 -0.0721043 0.936355 -0.343569
0.0962148 -0.0545526 0.524025 0.000212377 -1 0.000220422
0.0297294 -0.0362081 0.108712 -0.037632 -0.992785 -0.113851
-0.021606 -0.0200556 0.115862 -0.562101 0.826861 -0.0185363
-0.149686 -0.0319482 0.13106 -0.0376988 -0.992867 -0.113112
0.0142616 -0.0328088 0.250039 0.900046 0.435373 -0.0191736
0.314046 -0.0473596 0.471775 0.128061 0.989969 -0.059686
-0.235971 -0.0550634 0.49845 -0.961776 0.271571 -0.0351638
0.0563568 0.0094899 0.132279 -0.999382 -0.022716 -0.0268238
-0.0265355 -0.0605293 0.168073 -0.614195 -0.777992 -0.132261
-0.0832478 -0.0124781 0.195782 0.408507 0.565496 0.716475
0.0138998 -0.0708044 0.789162 0.76978 -0.638198 0.0119047
-0.0710971 -0.0344106 0.126491 -0.037642 -0.99287 -0.113102
-0.0435985 -0.0495099 0.50238 -0.999362 0.0357152 -0.000111475
-0.00252797 -0.0192957 0.700235 0.257952 0.966157 -0.0010442
0.0354613 -0.0545569 0.566049 -0.00010849 -1 -0.000305243
-0.0389389 -0.0677249 0.442151 -0.848256 -0.529537 -0.007153
-0.00371364 -0.0192145 0.481722 0.258025 0.966137 -0.00125285
-0.225235 -0.0795194 0.510109 0.531924 -0.824437 -0.19329
0.0202486 -0.0445325 0.392597 0.988126 0.153314 -0.0100819
-0.232618 -0.0690055 0.542112 -0.234835 0.857371 0.458004
-0.0127078 -0.0181361 0.382596 -0.0959861 0.995381 0.00154399
-0.0080917 -0.0512454 0.989988 0.423073 0.605205 0.674341
0.0608666 -0.0369817 0.105136 -0.0377457 -0.992793 -0.113744
-0.154933 -0.055276 0.5218 -0.952255 0.304657 -0.0198616
0.0196505 -0.0615134 0.48498 0.957091 -0.289785 -0.000834365
0.301044 -0.0545535 0.476953 1.15416e-05 -1 -5.21358e-06
0.109575 -0.0312853 0.102947 0.0138947 0.941149 -0.337706
0.0198053 -0.0469653 0.83597 0.995779 0.0873994 0.0280183
-0.154653 -0.0644267 0.507757 -0.725411 -0.225476 -0.650338
-0.0108355 -0.0180019 0.494919 0.0238283 0.999715 -0.00127802
0.295277 -0.0452126 0.474833 0.0686021 0.99716 -0.0310711
0.0156996 -0.0385525 0.232433 0.977704 0.207411 -0.0327878
0.244278 -0.0637718 0.531316 0.778916 0.627128 0.000899812
-0.173897 -0.0290405 0.113607 -0.0376896 -0.992865 -0.11313
0.0186094 -0.0381547 0.129457 -0.0376242 -0.992874 -0.113075
-0.0688204 -0.0385109 0.161718 -0.0376569 -0.992865 -0.113146
-0.0333996 -0.0273291 0.382293 -0.706127 0.70808 -0.00268589
-0.0402383 -0.0432495 0.194389 -0.0243271 -0.993784 -0.108635
-0.0399521 -0.0286476 0.151115 0.159898 0.975204 0.153
-0.0736101 -0.0545556 0.535731 -6.04757e-07 -1 -4.46203e-05
-0.143195 -0.0545535 0.510521 -4.08094e-05 -1 1.47327e-05
0.0108008 -0.0273697 0.316476 0.705611 0.708584 -0.00477908
-0.0749867 -0.0627924 0.546068 0.816468 0.56684 -0.109877
-0.0375733 -0.0688654 0.793612 -0.813955 -0.580807 0.0118245
0.15082 -0.0545503 0.505042 -0.000140828 -1 -0.000374933
0.0612394 -0.0270388 0.118872 0.993766 -0.101592 0.0459064
-0.178814 -0.0306516 0.12939 -0.037782 -0.992865 -0.113098
0.12005 -0.0441774 0.517024 0.000168407 1 0.000190807
-0.13683 -0.0545544 0.52964 6.95885e-05 -1 -0.000246601
-0.0297069 -0.0236896 0.524351 -0.593785 0.804623 -0.00113023
-0.0425044 -0.0449613 0.805478 -0.987849 0.154712 0.0147778
0.0144063 -0.0311223 0.330766 0.804526 0.593871 -0.00750984
0.157809 -0.0422771 0.119269 -0.0376865 -0.992865 -0.113136
0.00891438 -0.0250131 0.502583 0.659366 0.751821 -0.00126957
-0.012503 -0.0249155 0.913607 -0.136499 0.975356 0.173343
0.00229272 -0.0701496 0.930996 0.563418 -0.815171 0.134375
0.0980588 -0.0457585 0.556544 0.275608 0.612496 0.74087
-0.0721845 -0.0732258 0.592317 0.938367 -0.276517 0.207377
-0.0361302 -0.0545561 0.570141 -0.000434473 -0.999999 0.00156986
-0.163665 -0.019284 0.117609 0.0420553 0.99673 0.0690016
-0.0146738 -0.0182234 0.315663 -0.18703 0.982345 0.00423953
-0.150256 -0.0465409 0.536274 -0.322971 0.474752 0.818719
0.209385 -0.0545548 0.506539 1.15416e-05 -1 -5.21358e-06
0.00735972 -0.0778866 0.483874 0.579377 -0.815059 -0.00129863
0.0509165 -0.0442333 0.552645 -0.0165288 0.999837 0.00730782
0.0191608 -0.0480677 0.855285 0.995585 0.0822429 0.0452328
0.10316 -0.0545558 0.538211 -0.00010849 -1 -0.000305243
0.139752 -0.0773417 0.541333 -0.835129 -0.550052 0.00179775
0.0557682 0.0478454 0.12175 -0.99938 -0.0225861 -0.0269972
0.167657 -0.0312785 0.112872 0.0376843 0.992866 0.113127
-0.0368491 -0.0605794 0.89655 -0.937903 -0.332754 0.0980417
0.00775398 -0.024337 0.804535 0.648005 0.761516 0.0135214
0.0322753 -0.054555 0.550305 -0.000127064 -1 -0.000146831
-0.0353772 -0.0289121 0.56073 -0.707293 0.70692 -0.000716874
0.0381725 -0.0296582 0.141793 0.0377044 0.992847 0.113287
0.0581855 0.0166464 0.10235 0.604172 0.0662997 -0.794091
0.0901794 -0.045111 0.166668 -0.037689 -0.992865 -0.113134
-0.0444985 -0.0398804 0.16564 -0.0376569 -0.992865 -0.113146
-0.033381 -0.0268359 0.740867 -0.705607 0.708599 0.00249917
-0.0263197 -0.0479796 0.963368 -0.913361 0.298061 0.277366
-0.0113071 -0.0342001 0.952631 0.206067 0.946666 0.247711
-0.0386249 -0.0683343 0.629029 -0.84709 -0.531449 0.00087967
-0.0116772 -0.0180555 0.459328 -0.0437029 0.999044 -0.00127716
-0.029573 -0.0713321 0.286144 -0.624553 -0.778623 -0.0606552
-0.0382081 -0.0674101 0.809622 -0.85152 -0.524057 0.0166949
-0.0268354 -0.0217534 0.621932 -0.440453 0.897775 -0.000957313
0.0775585 -0.0348177 0.0933933 0.0401791 0.586354 -0.809058
-0.317921 -0.0488152 0.475153 -0.330858 0.397086 0.85607
-0.0367841 -0.0707507 0.7279 -0.772811 -0.634632 0.00253402
0.0497966 -0.0441342 0.171568 -0.0377666 -0.992863 -0.113121
-0.020433 -0.0197655 0.435531 -0.257787 0.966202 -8.16143e-05
0.0315623 -0.0370668 0.195164 -0.139906 0.973999 0.178191
0.0510394 -0.0288004 0.129983 0.0375588 0.992884 0.113012
-0.027175 -0.0517015 0.126542 -0.747815 -0.647468 -0.146825
0.0200691 -0.0559836 0.8154 0.985075 -0.170708 0.0220583
-0.0203733 -0.04588 0.0740473 -0.589984 -0.785211 -0.188052
-0.0401828 -0.0376367 0.144515 -0.0376569 -0.992865 -0.113146
-0.0938503 -0.039561 0.179272 -0.0376989 -0.992866 -0.113116
-0.0209735 -0.051949 0.102669 -0.495933 -0.850269 -0.176336
-0.0204876 -0.0276209 0.121028 0.24933 0.951367 0.180931
-0.0115492 -0.0180401 0.362804 -0.0365602 0.99933 0.00170109
0.0576731 -0.0185284 0.193609 0.97825 0.0747752 0.193484
-0.180127 -0.0215856 0.142574 -0.0205845 0.969722 0.243342
0.0105216 -0.074183 0.392279 0.687304 -0.725988 -0.023549
0.291768 -0.0542893 0.466741 -0.19206 -0.609023 -0.769548
-0.0433571 -0.034547 0.118456 -0.037642 -0.99287 -0.113102
0.104319 -0.0545493 0.552024 0.000392035 -0.999999 0.00124981
-0.0598018 -0.0441768 0.53248 0 1 0
-0.0385789 -0.0685234 0.467937 -0.843487 -0.537133 -0.00412045
-0.00868428 -0.0180005 0.30403 0.137682 0.990471 0.00336233
-0.0393947 -0.0339944 0.749042 -0.863411 0.504489 0.0036104
0.16415 -0.0441807 0.512266 3.51432e-05 1 -8.78678e-06
0.0569187 0.00614886 0.114228 -0.999379 -0.0227509 -0.0269245
0.120849 -0.0358611 0.156709 0.425118 0.565137 0.707033
-0.0383791 -0.0334353 0.352232 -0.870806 0.49155 -0.00870215
-0.0790912 0.0388039 0.131831 0.999378 0.0229744 0.026762
-0.0113197 -0.0761276 0.917293 0.0109907 -0.99385 0.110189
0.030916 -0.0468036 0.201369 -0.0328167 -0.994013 -0.104219
0.0196094 -0.0399183 0.616878 0.958421 0.285357 -0.000137832
-0.0033483 -0.0709983 0.946261 0.385565 -0.912089 0.139407
0.0787186 -0.0281334 0.112336 0.0439909 0.998038 -0.0445488
-0.00225475 -0.0819808 0.745293 0.287574 -0.957743 0.00536757
-0.038615 -0.0579602 0.27517 -0.930701 -0.362964 -0.0453092
0.127686 -0.0488884 0.502051 -0.10655 0.681644 -0.723884
-0.00123215 -0.0200939 0.0998758 0.555122 0.831568 -0.0182697
-0.0038895 -0.0822226 0.770447 0.224222 -0.974496 0.00903204
0.000288137 -0.0228267 0.0647422 0.739921 0.671408 -0.0415726
0.0741642 -0.0300786 0.133499 0.0377044 0.992847 0.113287
0.0504018 -0.0616374 0.58649 -0.670365 0.741998 0.00709861
-0.00586778 -0.0185462 0.596067 0.208313 0.978062 -0.00101252
-0.115182 -0.0545544 0.509785 -6.04757e-07 -1 -4.46203e-05
-0.0762871 -0.0769926 0.550108 0.649339 -0.691767 -0.315939
-0.0294088 -0.0240445 0.288536 -0.652988 0.757361 -0.00326244
-0.187156 -0.0179357 0.113412 0.0532822 0.998116 0.0304171
-0.0176889 -0.0187407 0.708013 -0.237869 0.971297 -0.00106469
-0.0550926 -0.0246485 0.108748 0.0365644 0.969603 -0.241937
0.0605248 -0.0545566 0.55601 -0.00010849 -1 -0.000305243
0.0464826 -0.0467621 0.196253 -0.0256724 -0.995489 -0.0913411
0.0489295 -0.0441895 0.531205 -0.00046909 1 -0.000799951
0.00516377 -0.0223598 0.460672 0.491175 0.87106 -0.00127693
0.0568585 -0.0307815 0.149567 -0.998691 -0.0454976 -0.0233747
-0.0368159 -0.0363707 0.188217 0.312083 0.92879 0.199882
-0.0822138 0.0125363 0.114784 -0.99938 -0.0227368 -0.0268967
0.0221293 -0.0538273 0.536789 0.149869 -0.986176 0.0706817
-0.276921 -0.0545531 0.484808 6.95885e-05 -1 -0.000246601
-0.011025 -0.0545281 0.554589 0.0032559 -0.999993 0.00193143
0.00501643 -0.0626216 0.952088 0.826354 -0.537055 0.169441
-0.061595 -0.0378664 0.153657 -0.0376569 -0.992865 -0.113146
-0.0900613 -0.0615071 0.58188 -0.668668 0.743521 0.0077316
-0.00294255 -0.0764958 0.284786 0.300888 -0.951299 -0.0670559
0.0157286 -0.0376936 0.873796 0.922813 0.379455 0.0665516
-0.031142 -0.0635034 0.928154 -0.850934 -0.50336 0.150131
-0.0237018 -0.0204416 0.205287 -0.450959 0.892544 -0.00124337
0.165251 -0.0545519 0.503875 -0.000140828 -1 -0.000374933
0.0217604 -0.0447613 0.216967 -0.0733751 0.769706 0.634168
0.125828 -0.0388872 0.100171 -0.0376969 -0.992863 -0.113144
0.0276075 -0.0431289 0.170134 -0.0376778 -0.992873 -0.113062
-0.186746 -0.019257 0.125441 0.0376945 0.992866 0.113124
-0.0970538 -0.0242135 0.139057 0.0376913 0.992855 0.113216
-0.078692 0.0222874 0.131101 0.999378 0.0229744 0.026762
-0.0270264 -0.0261391 0.887345 -0.584137 0.806256 0.093466
-0.150006 -0.0263912 0.159781 -0.362536 0.569219 0.737941
-0.0410807 -0.0596993 0.831358 -0.958769 -0.282642 0.0295926
-0.020275 -0.0693252 0.206551 -0.334356 -0.936442 -0.106222
0.064393 -0.0545525 0.514522 0.00219702 -0.999995 0.00235551
-0.0110006 -0.0822382 0.376557 -0.0260763 -0.999029 -0.0355111
-0.0264409 -0.0214938 0.683773 -0.440453 0.897775 -0.000957313
-0.0163171 -0.021035 0.00880824 -0.859822 0.454743 -0.232194
0.158374 -0.0766227 0.528297 0.816982 -0.554148 -0.159563
-0.042121 -0.0607131 0.650508 -0.95706 -0.289889 0.000565828
-0.00222947 -0.0198091 0.0838204 0.578332 0.815462 -0.0235545
0.0209842 -0.0556345 0.64762 0.986488 -0.163834 0.000401987
0.110357 -0.0431117 0.142401 -0.0376935 -0.992864 -0.113139
-0.0391244 -0.04147 0.248537 -0.988435 0.148844 -0.0290186
-0.00780999 -0.0180505 0.0494221 0.251605 0.967771 -0.0106754
-0.0156453 -0.0598631 0.132797 -0.200726 -0.963874 -0.175089
0.19818 -0.0445257 0.517632 0.143616 0.90091 0.409556
-0.0250518 -0.0209144 0.670463 -0.348739 0.937219 -0.000960784
-0.114241 -0.0375913 0.168778 -0.0376989 -0.992866 -0.113116
0.0111782 -0.0650142 0.257392 0.779439 -0.623555 -0.0604535
-0.0096615 -0.0370904 0.0251799 0.107051 -0.953 -0.283429
-0.0422025 -0.0410012 0.542085 -0.968981 0.247136 -0.000110102
0.176825 -0.0429754 0.119077 -0.0375333 -0.992892 -0.112943
0.241642 -0.0531723 0.478496 -0.194319 0.362753 -0.9114
-0.0524738 -0.0361124 0.208685 0.186514 0.940321 0.284621
0.00906789 -0.072855 0.861291 0.674406 -0.736195 0.0565067
0.0111461 -0.026935 0.622337 0.69263 0.721293 -0.00070254
0.0682573 -0.0748543 0.559649 0.911992 -0.398206 -0.0985018
-0.0395283 -0.0576518 0.292906 -0.95273 -0.301307 -0.0389796
-0.0429204 -0.0579589 0.490324 -0.975102 -0.221751 -0.00180813
-0.0147796 -0.0833353 0.602062 -0.0993174 -0.995055 0.0014696
-0.0874592 -0.0441768 0.542002 0 1 0
0.125375 -0.0437318 0.142839 -0.037689 -0.992865 -0.113134
0.180245 -0.0328438 0.0911359 -0.0797258 0.920034 -0.383643
0.0047094 -0.0792798 0.687299 0.470642 -0.882323 0.00133364
-0.0387082 -0.0359289 0.847328 -0.895691 0.443281 0.035206
-0.0372995 -0.0704407 0.525838 -0.812072 -0.583556 0.000946796
0.019014 -0.0387336 0.777184 0.944924 0.327228 0.00631484
0.05535 0.0701839 0.118604 -0.999386 -0.0223956 -0.0269255
-0.127593 -0.0347408 0.148209 -0.0376989 -0.992866 -0.113116
-0.021258 -0.037607 0.138521 -0.0243271 -0.993784 -0.108635
-0.00259934 -0.0784354 0.317962 0.298195 -0.952952 -0.054426
-0.00826843 -0.0213484 0.883574 0.187816 0.978892 0.0806
-0.096672 -0.0271937 0.165086 0.0376909 0.992865 0.113129
0.228782 -0.0807696 0.522371 -0.506389 -0.862305 0.00106071
-0.041383 -0.0432156 0.328304 -0.981453 0.190807 -0.0185163
-0.00920697 -0.0179998 0.586356 0.0810387 0.99671 -0.00112202
-0.0432476 -0.0462586 0.731258 -0.988901 0.148573 0.00103213
0.00909224 -0.0251931 0.488373 0.659366 0.751821 -0.00126957
-0.0319286 -0.0734029 0.351847 -0.677632 -0.734492 -0.0365647
0.0441101 -0.0545534 0.528831 -0.000127064 -1 -0.000146831
0.0386697 -0.054429 0.577717 0.0306465 -0.995677 0.0876845
0.0778797 -0.0441771 0.557653 0.000525577 0.999999 0.00129191
0.176864 -0.0545552 0.517964 1.15416e-05 -1 -5.21358e-06
0.0204371 -0.0577804 0.751474 0.973603 -0.228215 0.00397535
-0.0237262 -0.0545806 0.522817 -0.000357063 -0.999987 0.0051409
0.00315578 -0.0544905 0.538417 0.00866174 -0.999954 0.00416948
-0.116961 -0.031495 0.11618 -0.0376854 -0.992865 -0.113133
0.0781829 -0.0457989 0.176914 -0.0265698 -0.995297 -0.0931552
-0.0154684 -0.018552 0.413604 -0.195021 0.980799 -0.000332424
-0.0175565 -0.0321666 0.0188111 -0.735313 -0.617123 -0.280132
0.138445 -0.0545532 0.517279 -0.000140828 -1 -0.000374933
-0.0774992 -0.00455275 0.108041 0.999712 0.0217063 0.0102016
0.256461 -0.0441833 0.493025 2.67835e-05 1 0.000582378
0.0122003 -0.0281596 0.468499 0.704749 0.709455 -0.00110949
-0.0379576 -0.0692351 0.703838 -0.812158 -0.583433 0.00241487
-0.0217553 -0.0217044 0.0705836 -0.703344 0.709994 -0.0348593
-0.0048691 -0.035909 0.117667 -0.0445931 -0.992899 -0.110288
0.00866079 -0.0736352 0.339958 0.641513 -0.765899 -0.0431172
0.197951 -0.0466367 0.49263 -0.124124 0.75381 -0.645262
-0.026282 -0.0798626 0.558358 -0.470686 -0.8823 0.00133563
0.146482 -0.0437198 0.135704 -0.0375333 -0.992892 -0.112943
-0.033354 -0.0732419 0.816391 -0.689153 -0.724212 0.0242098
-0.0498751 -0.0545528 0.568441 -0.000434473 -0.999999 0.00156986
-0.144522 -0.0213529 0.129767 0.0376914 0.992865 0.11313
0.0183355 -0.0645162 0.687139 0.91171 -0.410835 0.000716687
-0.000697172 -0.0819528 0.513821 0.35122 -0.936292 0.00140172
-0.00198254 -0.0255602 0.0244589 0.970937 0.197032 -0.135866
-0.0361231 -0.0668304 0.319474 -0.804988 -0.591689 -0.0435764
-0.241234 -0.0746799 0.546311 -0.85482 -0.282393 0.435358
-0.0414544 -0.0452323 0.214346 0.00553185 -0.996505 -0.0833524
-0.147405 -0.0220005 0.110187 0.0548572 0.947116 -0.316167
-0.0230319 -0.0813992 0.526644 -0.353909 -0.935279 0.00140317
0.00688593 -0.0433964 0.181868 -0.107955 -0.990415 -0.0861607
0.0202326 -0.0588766 0.436555 0.974114 -0.225979 -0.00587864
-0.0907521 -0.0675675 0.542392 -0.888597 -0.154886 -0.431748
-0.0387359 -0.032863 0.5869 -0.839816 0.542871 -0.000467091
-0.0204448 -0.0762514 0.286043 -0.337922 -0.93881 -0.0666609
-0.0110743 -0.0179088 0.570448 0.0310945 0.999516 -0.00108242
-0.104519 -0.0301575 0.184628 -0.18552 0.851343 0.490711
0.0812203 -0.0441784 0.532806 -0.000318047 1 -0.000225702
-0.0273886 -0.0749305 0.31697 -0.518853 -0.853309 -0.0515258
-0.00677681 -0.0181016 0.251814 0.205089 0.978735 0.00411875
-0.0275606 -0.0706778 0.259273 -0.570805 -0.818238 -0.0683297
0.151309 -0.0672399 0.559384 0.128777 0.467156 0.874747
-0.0404066 -0.036727 0.405328 -0.9243 0.38162 -0.00591941
0.0090363 -0.0249533 0.750843 0.662693 0.748888 0.00213901
-0.228842 -0.0255101 0.101578 -0.0536228 -0.991409 -0.119305
-0.0211737 -0.0820182 0.458808 -0.289228 -0.957247 -0.00506311
-0.17106 -0.0278598 0.102299 -0.0376896 -0.992865 -0.11313
0.000830767 -0.0225885 0.867244 0.323294 0.944649 0.0558523
-0.00316743 -0.0803591 0.354319 0.235226 -0.971034 -0.041982
0.149762 -0.0392013 0.0949542 -0.0376815 -0.992867 -0.113114
0.0186136 -0.0369967 0.652222 0.927401 0.37407 -0.000251419
-0.038866 -0.0332789 0.771572 -0.837451 0.546453 0.00804602
0.139108 -0.0687847 0.522406 -0.982648 0.0605673 -0.175313
-0.0526256 -0.0335234 0.112561 -0.0376376 -0.992857 -0.11322
-0.0207191 -0.0786186 0.327041 -0.281497 -0.958351 -0.048204
0.0604654 0.0262637 0.120834 0.999381 0.0227242 0.026862
-0.253866 -0.0441785 0.486388 0.00011978 1 5.65213e-05
0.00347099 -0.0529369 0.968716 0.950509 0.0536774 0.306025
-0.0809881 -0.037511 0.156995 -0.0376853 -0.992865 -0.113132
0.233427 -0.0782265 0.501066 -0.117616 -0.908701 -0.400536
0.02131 -0.0504768 0.675563 0.999439 0.0334788 0.000191456
0.0211682 -0.0478682 0.636252 0.995654 0.0931262 0.000114462
0.210024 -0.0545541 0.495104 -2.57446e-05 -1 -0.000104208
-0.0271142 -0.0261711 0.100855 -0.858122 0.51081 -0.0519514
-0.00448616 -0.0655215 0.975444 0.502068 -0.818802 0.278373
-0.0059491 -0.018449 0.673317 0.208313 0.978062 -0.00101252
0.0175179 -0.0485963 0.883234 0.993826 0.0790481 0.0778509
-0.0833424 -0.0128938 0.17814 -0.999379 -0.0227005 -0.0269338
-0.0368892 -0.0327758 0.269624 -0.878856 0.476862 -0.0146412
0.1555 -0.0806186 0.551244 0.541394 -0.840768 0.00169593
0.00380074 -0.0799622 0.460087 0.471061 -0.882087 -0.00492274
0.0120609 -0.0277797 0.685706 0.70601 0.708201 -0.000628749
-0.0326508 -0.0418964 0.180543 -0.0125988 -0.994423 -0.10471
0.179249 -0.053442 0.52831 0.339816 -0.286785 0.8957
-0.0414509 -0.0408425 0.367406 -0.970216 0.241911 -0.0126152
-0.0540551 -0.0333752 0.19599 0.161869 0.974792 0.153554
-0.0343815 -0.0287172 0.308423 -0.713819 0.700313 -0.00497847
-0.187334 -0.0441768 0.50869 0 1 0
0.00580141 -0.0543645 0.578556 -0.0254975 -0.999609 0.0115207
0.00545866 -0.022602 0.408879 0.491175 0.87106 -0.00127693
-0.207935 -0.0198931 0.0997014 0.118012 0.907081 -0.404076
-0.0386375 -0.0328509 0.491727 -0.83747 0.546482 -0.00107102
-0.043584 -0.0520529 0.469378 -0.999417 -0.0339894 -0.00315605
0.0207925 -0.0473798 0.408058 0.995949 0.0895633 -0.00802202
-0.0720413 -0.028823 0.171178 0.0376942 0.992865 0.113127
0.0205213 -0.0438357 0.739352 0.980685 0.195563 0.00334583
-0.187865 -0.0311458 0.13674 -0.0375207 -0.992831 -0.113486
-0.0152584 -0.0181982 0.730156 -0.184977 0.982743 -6.29623e-05
0.0726336 -0.042756 0.151846 -0.0377666 -0.992863 -0.113121
0.000906984 -0.0203386 0.765482 0.313411 0.949612 0.00325885
0.00242376 -0.0209684 0.539575 0.349903 0.936785 -0.00119266
-0.0143197 -0.0829702 0.413856 -0.0969287 -0.995082 -0.0204011
0.0132948 -0.072602 0.492161 0.77233 -0.635221 -0.000738643
-0.112122 -0.0457948 0.506751 0.093619 0.825359 -0.556792
-0.0615184 -0.0420328 0.212307 -0.487707 -0.166526 0.856978
-0.0836336 0.0469186 0.140626 -0.99992 0.00240891 0.0123828
-0.151466 -0.0441768 0.519663 0 1 0
0.0253996 -0.0456584 0.558622 -0.091158 0.994986 0.0411596
-0.0731096 -0.0235299 0.125103 0.0382729 0.992568 0.115513
0.22735 -0.0782123 0.546236 -0.657179 -0.59399 0.463995
-0.0305474 -0.0244899 0.45083 -0.633134 0.774041 -0.00169452
-0.0743542 -0.0626059 0.583895 0.692911 0.720984 0.00756495
0.0104506 -0.0452772 0.199564 -0.157303 -0.985292 -0.0667538
0.0638594 -0.0728878 0.544516 0.617789 -0.552627 -0.559411
0.133709 -0.0364657 0.149279 0.505195 0.28972 0.812921
0.124043 -0.0441814 0.542182 0.000525577 0.999999 0.00129191
-0.0783782 0.00474424 0.134293 0.999382 0.0227404 0.0267949
-0.0786066 -0.000325073 0.14704 0.999396 0.0213736 0.0273926
-0.13942 -0.0230908 0.143319 0.0376878 0.992864 0.113142
0.00113879 -0.0204156 0.264073 0.391249 0.920283 0.00154666
-0.00213411 -0.0704578 0.216394 0.303124 -0.947931 -0.0976843
0.224445 -0.054554 0.49091 -2.57446e-05 -1 -0.000104208
-0.0352896 -0.0619343 0.2521 -0.839526 -0.539702 -0.0625888
