-0.0301097 -0.0845144 0.934967 -0.937182 -0.250644 0.242627
-0.0995554 -0.0611145 0.135819 0.012802 0.981681 0.190103
-0.0408109 -0.0496619 0.437399 -0.707107 0.707103 -0.00222947
-0.0785553 -0.0709167 0.595568 -0.15863 -0.718402 0.677299
0.0552057 -0.0683334 0.148255 -0.0740645 -0.975254 -0.208314
0.175898 -0.0830687 0.575046 0 -1 0
-0.263143 -0.0830687 0.561386 0 1 0
0.025614 -0.0916704 0.183562 0.696599 -0.696929 -0.170414
-0.078092 -0.0618136 0.441876 -0.322984 0.946399 -0.00306006
0.0280704 -0.0393569 0.621603 0.707123 0.70709 -0.000506927
-0.359499 -0.0782914 0.543852 0.402906 -0.153231 -0.902323
-0.00646684 -0.0293045 0.069443 -0.25875 0.965759 -0.0189492
-0.0505079 -0.0807757 0.445142 -0.965922 -0.258833 -0.000362657
-0.0137858 -0.0317917 0.4341 -0.258824 0.965921 -0.00272719
-0.00843869 -0.103917 0.952644 -0.248636 -0.927529 0.279052
0.0779014 -0.0830687 0.63671 0 -1 0
-0.0346412 -0.0439771 0.346814 -0.707101 0.70708 -0.00679741
0.00261186 -0.0738751 0.633845 -0.200331 -0.976899 -0.0744046
-0.243007 -0.0955528 0.575934 -0.193619 -0.751721 -0.630419
-0.351729 -0.0766225 0.519114 -0.24091 -0.629571 0.73865
0.0132801 -0.0319258 0.280416 0.258798 0.965911 0.00624413
-0.0411562 -0.0678572 0.628685 0 -1 0
0.0129789 -0.0343932 0.849038 0.258055 0.963153 0.075792
0.276466 -0.0830687 0.583387 0 -1 0
-0.0165101 -0.0619343 0.13444 0.0128477 0.981693 0.190035
-0.00264696 -0.112 0.92464 -0.254175 -0.948263 0.190241
0.0796712 -0.0897035 0.468933 0.612824 -0.758124 0.222922
-0.0151032 -0.124352 0.466384 -0.258806 -0.965929 0.000998187
0.0271848 -0.117269 0.642501 0.707113 -0.707097 0.00222842
0.0419797 -0.102305 0.439268 0.965928 -0.258812 -0.000362873
-0.043557 -0.057421 0.838883 -0.962475 0.258053 0.0839688
-0.0408831 -0.0844663 0.229001 -0.958368 -0.257035 -0.124351
-0.0420339 -0.0863067 0.885985 -0.962054 -0.257605 0.0899538
0.347968 -0.0830687 0.541173 0 -1 0
-0.00595897 -0.00273697 0.109085 0.996695 -0.0751618 -0.0308175
0.0274949 -0.066024 0.147292 -0.0740353 -0.975256 -0.208314
0.0468059 -0.0723127 0.4212 0.965927 0.258809 -0.00136366
0.0361896 -0.108693 0.474911 0.707105 -0.707108 0.000501276
0.13679 -0.0923605 0.624709 0.916383 0.254288 -0.309161
0.00987197 -0.0430235 0.0991592 -0.0222031 0.877006 -0.479965
-0.0870139 -0.068702 0.40792 -0.752932 0.65809 -0.00335269
0.0155505 -0.0324265 0.735987 0.258801 0.965928 -0.00237665
0.046058 -0.0867462 0.599949 0.965928 -0.258808 0.00136366
-0.00316506 -0.00395395 0.227443 -0.903527 0.307261 0.298714
-0.129498 -0.0873627 0.694322 -0.268003 0.963413 -0.00310153
-0.050271 -0.0767995 0.41938 0.959877 -0.188874 0.207277
0.187923 -0.0788151 0.626435 0.429057 0.199306 0.881015
-0.0159376 -0.0320958 0.556552 -0.258807 0.965928 -0.00100594
0.0451102 -0.0652341 0.767847 0.965924 0.258823 -0.00101064
0.149059 -0.0620015 0.0852517 -0.0740647 -0.975238 -0.208386
-0.0217478 -0.0703883 0.951544 -0.61694 0.61793 0.487388
0.0342367 -0.0608735 0.120783 -0.0740416 -0.975253 -0.208326
0.00780089 -0.0513018 0.0199451 0.678136 -0.678808 -0.281693
-0.0436487 -0.0574522 0.316183 -0.965521 0.258662 -0.0293759
0.0127199 -0.0948598 0.155084 0.253687 -0.947113 -0.196517
0.0212854 -0.0509769 0.145864 -0.389339 0.854452 0.343988
-0.00344182 0.00750324 0.16055 -0.997099 0.0694287 0.0312125
0.0440822 -0.0643437 0.82254 0.962472 0.258062 0.083969
0.00170787 0.0171154 0.107496 0.997098 -0.0694236 -0.0312377
0.135059 -0.0837456 0.635251 0.972335 0.232676 -0.0206436
0.311641 -0.0678572 0.562752 0 1 0
0.245683 -0.0830687 0.551499 0 -1 0
-0.0300178 -0.0401711 0.261773 -0.707101 0.70708 -0.00679741
-0.0362449 -0.0454234 0.363185 -0.707097 0.707084 -0.00679719
0.0376441 -0.107029 0.572799 0.707105 -0.707105 0.00223048
-0.0129803 -0.0313242 0.536514 -0.258851 0.965917 -0.00100591
0.20899 -0.0830687 0.601979 0 -1 0
-0.0115156 -0.124769 0.727162 -0.258791 -0.965932 0.00135551
0.0368324 -0.0507976 0.14571 0.0740609 0.97525 0.208331
0.243226 -0.0806174 0.567598 0.24317 -0.874457 -0.419754
0.00255886 -0.00939361 0.193652 0.9971 -0.069428 -0.03118
-0.0644254 -0.0678572 0.659182 0 -1 0
0.00629719 0.0751268 0.12507 0.997097 -0.0694369 -0.0312289
0.0366133 -0.0594749 0.199738 0.963583 0.25805 -0.0701222
-0.390598 -0.0830687 0.521678 0 1 0
0.273037 -0.0701466 0.554277 -0.238115 0.617555 -0.749618
-0.0503262 -0.0812322 0.576411 -0.965924 -0.25882 0.00136298
0.239774 -0.080608 0.597651 -0.961376 0.275232 -0.0017187
-0.0325509 -0.0440017 0.19892 -0.706946 0.706905 -0.0226325
-0.168747 -0.072403 0.574789 -0.132665 -0.704746 0.696946
0.119974 -0.0678572 0.620387 0 1 0
0.0186785 -0.11309 0.275417 0.257708 -0.961955 -0.0907155
-0.19414 -0.0830687 0.594793 0 1 0
-0.0670801 -0.0890113 0.456904 -0.318474 0.933579 0.16433
0.0798987 -0.061861 0.150283 0.564884 0.101312 0.818927
-0.00555379 -0.0492151 0.112077 0.960759 -0.277234 0.00910178
-0.00589162 -0.0451386 0.0109548 -0.486569 -0.488103 -0.724573
0.131441 -0.0673001 0.11632 -0.0740504 -0.975249 -0.208339
0.0426297 -0.0678572 0.665611 0 1 0
0.0251213 -0.0631306 0.13459 -0.0740353 -0.975258 -0.208306
0.0865502 -0.0678572 0.667253 0 1 0
-0.022864 -0.0377156 0.120641 -0.706487 0.706388 -0.0434938
0.0279243 -0.0391615 0.663275 0.707124 0.707088 -0.00187552
-0.0183456 -0.0320117 0.18912 -0.258809 0.965916 0.00487775
0.0747864 -0.0830687 0.60183 0 -1 0
-0.138739 -0.0830687 0.621129 0 1 0
0.0263857 -0.0373462 0.767645 0.707107 0.707104 -0.00187332
-0.0120504 -0.117663 0.297254 -0.257708 -0.961955 -0.0907159
-0.212355 -0.0678572 0.584814 0 -1 0
0.108063 -0.0830687 0.6455 0 -1 0
0.00166028 0.117602 0.115955 -0.95363 0.300733 -0.01222
-0.0273294 -0.0361758 0.438926 -0.707107 0.707103 -0.00223151
0.0134407 -0.123978 0.526143 0.258806 -0.965925 0.00272957
0.00649867 0.0844289 0.110816 0.997098 -0.0694284 -0.0312242
0.188417 -0.0769277 0.568559 -0.159205 0.701778 -0.694378
-0.222079 -0.0782358 0.60709 0.442076 -0.199256 -0.874566
0.00107492 0.0365728 0.10324 0.746383 -0.0256861 -0.665021
0.0246041 -0.0564791 0.0939186 0.949797 -0.254828 -0.181519
0.234635 -0.0678572 0.567005 0 1 0
-0.00818243 -0.0283986 0.204743 -0.994837 -0.082319 0.0593463
-0.00930838 -0.0595763 0.109514 0.915652 -0.400523 0.0340964
-0.042391 -0.0715254 0.213873 -0.958368 -0.257035 -0.124351
-0.0405562 -0.0541233 0.861986 -0.704862 0.704956 0.0787854
-0.0274882 -0.120088 0.526548 -0.707115 -0.707095 0.00223149
0.0444554 -0.0634838 0.431911 0.965927 0.258812 -0.00136427
0.023766 -0.0706342 0.609776 -0.164053 0.759974 -0.628908
0.0252441 -0.104246 0.237737 0.70488 -0.705045 -0.0778218
-0.0786141 -0.094456 0.415224 -0.193466 -0.981107 -0.000184187
-0.0311369 -0.0830687 0.671239 0 1 0
-0.0116789 -0.0593855 0.152253 -0.471203 -0.826932 -0.306841
0.0142143 -0.0702692 0.636181 -0.201359 0.976899 0.0715747
-0.00194409 -0.0345347 0.178049 0.960754 -0.277252 0.00910356
-0.0363476 -0.0446252 0.739658 -0.707107 0.707104 -0.00187597
0.0285524 -0.0830687 0.65875 0 -1 0
-0.000131438 -0.123087 0.327995 0.25771 -0.961954 -0.0907158
-0.0545451 -0.0830687 0.605476 0 1 0
0.0438005 -0.0954714 0.412078 0.965928 -0.258809 -0.000363414
-0.346076 -0.0830687 0.548705 0 1 0
0.0357696 -0.0470413 0.642286 0.707083 0.707131 -0.000503941
-0.0065927 0.0385985 0.13476 -0.996695 0.0751661 0.0307936
-0.0484385 -0.0861584 0.367268 -0.964416 -0.258522 -0.0553883
0.0062797 -0.0297495 0.233906 0.258815 0.965907 0.0062439
-0.00335455 -0.028064 0.106773 -0.258846 0.965902 -0.00574222
0.150798 -0.0678572 0.608364 0 1 0
0.0389673 -0.0504774 0.468454 0.707107 0.707103 -0.00223151
-0.0228453 -0.051097 0.147063 -0.471204 -0.82693 -0.306845
0.00854383 -0.116818 0.286155 0.257708 -0.961955 -0.0907155
0.00237991 0.0169802 0.129261 0.997098 -0.0694192 -0.0312419
0.00417893 -0.073191 0.647828 -0.201361 0.976899 0.0715627
0.00494906 -0.0765195 0.973468 0.535743 0.537008 0.651615
-0.24058 -0.0779724 0.591769 0.249642 0.96833 -0.00395141
-0.00133583 -0.032077 0.119673 0.9971 -0.069412 -0.0312152
-0.0714301 -0.0830687 0.601927 0 1 0
0.134519 -0.0994243 0.701871 0.416992 0.426184 0.802798
-0.0455405 -0.0825994 0.300197 -0.964416 -0.258522 -0.0553883
0.00160321 0.0792102 0.153809 0.996693 -0.075186 -0.0308179
-0.0466131 -0.051374 0.0896643 0.0171696 -0.65548 0.755018
0.0149683 -0.0321463 0.786525 0.258841 0.965917 -0.00237339
-0.0382663 -0.109153 0.576319 -0.707103 -0.707107 0.00222844
-0.187556 -0.0783387 0.56526 -0.202699 -0.513117 0.83404
-0.0245488 -0.0347532 0.406726 -0.258807 0.965925 -0.00273069
-0.00267357 -0.0375457 0.16334 0.960756 -0.277246 0.00911245
-0.0343514 -0.10487 0.870464 -0.703987 -0.703814 0.0951218
-0.0269467 -0.104301 0.906321 -0.691599 -0.6912 0.209605
-0.049575 -0.0718597 0.702786 -0.965925 0.258819 -0.001007
-0.032101 -0.0878593 0.183223 -0.696595 -0.696931 -0.170418
0.143259 -0.0983946 0.656131 0.961087 0.267226 -0.0700122
-0.229343 -0.0956269 0.609564 0.961087 0.267228 -0.0700119
0.0468596 -0.0840137 0.383315 0.965928 -0.258809 -0.000363414
0.00958421 -0.0314493 0.418269 0.25882 0.965922 -0.00272947
0.026375 -0.113335 0.84646 0.703987 -0.703813 0.0951276
0.0263498 -0.0717488 0.934175 0.927245 0.248981 0.279689
-0.00720792 -0.126323 0.548573 -0.258806 -0.965926 0.00273356
-0.0484401 -0.067699 0.568944 -0.965922 0.258834 0.000362635
-0.0452122 -0.0727943 0.867156 -0.96247 0.258069 0.083974
0.0137584 -0.0322292 0.577085 0.258837 0.965921 -0.00100363
-0.164796 -0.0730727 0.634208 0.42675 -0.320316 -0.845743
0.0435087 -0.0959813 0.713223 0.965925 -0.258824 -7.62316e-06
0.0429158 -0.0573019 0.518832 0.965927 0.258813 0.000363063
0.0131033 -0.0318796 0.691779 0.258801 0.965928 -0.00237665
-0.038667 -0.0472739 0.514837 -0.707103 0.707107 -0.00222896
0.0355484 -0.109346 0.457488 0.707094 -0.70712 0.000504429
0.0134153 -0.0830687 0.637477 0 1 0
-0.0462172 -0.0595661 0.470349 -0.965922 0.258831 -0.00136152
0.00718533 0.0848057 0.13191 0.997098 -0.0694304 -0.0312238
-0.024579 -0.0433943 0.0895013 -0.960289 0.257105 -0.108363
0.0625461 -0.0784089 0.45565 -0.560471 -0.086693 0.823624
0.0438792 -0.0947029 0.633223 0.965927 -0.25881 0.00136389
-0.00398889 -0.126768 0.73966 -0.258791 -0.965932 0.00135551
-0.116932 -0.0922319 0.674159 0.700219 0.713928 0.000685047
0.0228847 -0.120976 0.732352 0.258786 -0.965934 0.00136017
-0.038127 -0.0625468 0.17135 -0.963584 0.258045 -0.0701301
-0.037072 -0.0469688 0.288472 -0.707097 0.707084 -0.00679709
0.047841 -0.075692 0.525082 0.965927 0.258813 0.000363063
-0.208922 -0.0830687 0.576778 0 1 0
0.00524193 -0.0306574 0.0214188 0.258793 0.965747 -0.0189521
0.0351241 -0.0464318 0.591638 0.707107 0.707106 -0.000501305
0.0302976 -0.0678572 0.641846 0 1 0
0.14718 -0.0830687 0.615115 0 -1 0
0.358607 -0.0739972 0.52419 -0.230506 0.629462 -0.742055
-0.00627449 -0.0293964 0.657084 -0.258824 0.965922 -0.00237588
0.013432 -0.0889443 0.96767 0.731894 -0.194892 0.652954
-0.074453 -0.054991 0.102488 0.0128371 0.981692 0.190044
0.0355061 -0.0463576 0.808797 0.707107 0.707104 -0.00187334
-0.000988374 0.0621842 0.111496 0.996694 -0.0751709 -0.0308286
0.00188808 -0.0291517 0.501549 0.258826 0.96592 -0.00273009
0.0423593 -0.055178 0.713709 0.965928 0.258808 -0.00100817
0.0265208 -0.0381035 0.445485 0.707088 0.707122 -0.00222849
0.00122953 -0.0286706 0.816315 0.258024 0.963161 0.0757919
-0.00923289 -0.118904 0.87534 -0.257653 -0.961243 0.098116
0.0900561 -0.0678572 0.608184 0 1 0
-0.00341491 -0.100245 0.165468 -0.253693 -0.947112 -0.196514
0.105747 -0.08285 0.582821 0.0193471 -0.999307 0.0317944
0.0206001 -0.0345947 0.825649 0.258055 0.963153 0.075792
0.016995 -0.033282 0.336208 0.258829 0.965903 0.00624613
-0.328324 -0.0830687 0.528052 0 1 0
0.0449201 -0.0786675 0.847509 0.962053 -0.25761 0.0899511
-0.0129902 -0.0312377 0.622172 -0.258851 0.965917 -0.00100591
0.00353767 -0.126492 0.575454 0.258786 -0.965931 0.00273358
-0.0400181 -0.1055 0.35794 -0.704864 -0.70506 -0.0778223
-0.0100424 -0.0181122 0.161537 -0.996695 0.0751644 0.0308289
0.0537787 -0.0674547 0.400631 -0.202729 0.979229 -0.00350135
0.0448601 -0.091571 0.450824 0.965928 -0.258812 -0.000362873
-0.289921 -0.0830687 0.573384 0 1 0
-0.0163486 -0.104295 0.201683 -0.253678 -0.947116 -0.196518
-0.00546088 -0.0468446 0.155759 0.915672 -0.400477 0.0340876
0.0538696 -0.0678572 0.660927 0 1 0
0.00209364 -0.0284247 0.194868 0.258817 0.965914 0.00488374
0.232649 -0.0934952 0.636107 -0.713755 0.700395 0.000768949
0.0447852 -0.0705739 0.328635 0.965524 0.258651 -0.0293765
-0.137068 -0.0792566 0.650084 0.433159 -0.204167 -0.877889
0.233188 -0.0929815 0.618901 -0.713689 0.700454 -0.0034609
-0.0421594 -0.10506 0.639711 -0.707103 -0.707107 0.00222844
-0.00853172 -0.0706263 0.621193 -0.20033 -0.976899 -0.0744131
-0.0235913 -0.0830687 0.692883 0 1 0
-0.086859 -0.0684745 0.422256 -0.752932 0.658098 0.000820666
-0.301184 -0.077364 0.535229 -0.285934 -0.42669 0.858008
-0.0445889 -0.0830687 0.62213 0 1 0
-0.0414607 -0.049984 0.629656 -0.707085 0.707128 -0.000503916
0.0043498 -0.0625937 0.955328 0.221762 0.828553 0.514122
0.0322136 -0.112693 0.440222 0.707094 -0.70712 0.000504429
0.0206688 -0.0341269 0.53289 0.258837 0.965921 -0.00100363
0.0812671 -0.09019 0.443023 0.628439 -0.777859 0.000284888
0.0478823 -0.0796589 0.729479 0.965928 -0.258812 -9.59723e-06
0.017285 -0.117617 0.319467 0.257708 -0.961955 -0.0907155
0.017272 -0.082603 0.708695 0.414137 0.215626 0.884305
-0.0880378 -0.0854455 0.432814 -0.946399 -0.322988 0.00271915
-0.181148 -0.0830687 0.628291 0 1 0
-0.0898669 -0.0801185 0.399872 -0.946406 -0.322977 -0.00146845
-0.0929366 -0.0435546 0.124705 -0.0128457 -0.981693 -0.190037
0.0133596 -0.0354804 0.0577373 0.705856 0.705694 -0.0613486
0.0136968 -0.066501 0.0707631 0.678203 -0.67874 -0.281696
0.0229624 -0.0384783 0.158042 0.706943 0.706908 -0.0226322
0.00328771 0.00468101 0.185631 0.997098 -0.0694258 -0.0312188
0.0404716 -0.0747234 0.890006 0.927245 0.248986 0.279684
-0.0546436 -0.0689347 0.686825 0.410079 -0.344661 -0.844419
-0.0337839 -0.0658859 0.156024 0.0128519 0.9817 0.190001
0.0257412 -0.0383854 0.289484 0.707097 0.707084 -0.00679712
0.0217427 -0.0741329 0.187302 -0.0740367 -0.975258 -0.208304
0.0430534 -0.0579304 0.601016 0.965927 0.258813 0.000363063
-0.0133726 -0.0534499 0.0900307 -0.00295891 0.982704 0.185161
-0.0477707 -0.0903668 0.788839 -0.965923 -0.258831 -5.93033e-06
0.0283471 -0.0718259 0.174153 -0.0740367 -0.975258 -0.208304
0.0329879 -0.0830687 0.671709 0 -1 0
-0.0200871 -0.0608987 0.0660115 -0.678223 -0.678724 -0.281687
-0.00963939 -0.0190107 0.176776 -0.996694 0.0751908 0.03078
-0.0265221 -0.035145 0.509755 -0.707107 0.707103 -0.00223151
0.0370054 -0.0495613 0.298691 0.707097 0.707084 -0.00679712
-0.135812 -0.0983593 0.632352 -0.879775 -0.2456 -0.407034
-0.0112025 -0.0308002 0.582168 -0.258851 0.965917 -0.00100591
0.0367357 -0.0738345 0.602545 -0.149121 0.718349 -0.679513
0.297415 -0.0830687 0.575878 0 -1 0
-0.116496 -0.0952895 0.641626 0.961082 0.267245 -0.0700167
-0.126165 -0.0865823 0.632544 0.250288 -0.936183 0.246815
0.0915694 -0.0515388 0.129724 0.0740193 0.975266 0.208274
0.0384782 -0.0791033 0.220632 0.958371 -0.257031 -0.124342
0.0159011 -0.0332516 0.379477 0.258838 0.965917 -0.00272946
-0.0433349 -0.0854192 0.274956 -0.964416 -0.258521 -0.0553882
0.00896347 -0.125303 0.423128 0.258822 -0.965925 0.000999299
0.0430861 -0.0821817 0.303524 0.964418 -0.258517 -0.0553868
0.00320758 0.00953329 0.172271 0.997101 -0.0694003 -0.0311941
-0.0298844 -0.0427841 0.153658 -0.706947 0.706904 -0.0226328
-0.298293 -0.0830687 0.56029 0 1 0
-0.051173 -0.077669 0.759868 -0.965923 -0.258831 -5.93033e-06
-0.0141557 -0.0311606 0.798414 -0.258824 0.965922 -0.00237588
0.0247803 -0.119836 0.374776 0.704874 -0.705051 -0.0778207
0.002103 -0.00625769 0.172115 0.997098 -0.0694429 -0.0312096
0.0735456 -0.0678572 0.613764 0 1 0
-0.00222427 -0.126354 0.361491 -0.257708 -0.961955 -0.0907159
0.0283564 -0.115879 0.804398 0.707115 -0.707098 0.000859818
-0.157626 -0.0416765 0.0915823 0.406639 -0.912566 -0.0432099
0.0021265 -0.126498 0.761063 0.258813 -0.965926 0.00135551
-0.00356513 0.0775614 0.137647 -0.996696 0.0751532 0.0307985
0.128578 -0.112684 0.679794 -0.24957 -0.968348 0.00402188
0.00101973 -0.0830687 0.685935 0 1 0
-0.0223936 -0.0565862 0.107209 0.0128598 0.981698 0.190008
-0.0753886 -0.0471238 0.141958 -0.0128574 -0.981699 -0.190007
-0.230012 -0.106889 0.656175 0.713876 -0.700272 0.00010419
-0.0446047 -0.102181 0.745327 -0.965925 -0.258823 -4.58086e-06
-0.126899 -0.113133 0.699782 0.268156 -0.963375 0.000602944
0.0470054 -0.0726259 0.503052 0.965927 0.258809 -0.00136366
-0.00547597 0.0115367 0.200724 -0.95196 0.23108 0.200931
-0.0620172 -0.0442754 0.126339 -0.0128396 -0.981695 -0.190029
0.0216928 -0.0380035 0.141722 0.706475 0.7064 -0.0434963
-0.0044426 -0.0284757 0.0865356 -0.258786 0.965918 -0.00573311
-0.04188 -0.105799 0.420209 -0.707115 -0.707098 0.000506428
-0.00172922 -0.034871 0.145162 0.960762 -0.277224 0.00911788
-0.0273665 -0.119759 0.695165 -0.707104 -0.70711 0.000859838
0.014168 -0.073319 0.677678 -0.201359 0.976899 0.0715726
0.00141554 0.105607 0.0975001 -0.997098 0.0694154 0.0312707
0.113238 -0.0509034 0.119049 0.073998 0.975269 0.208267
-0.0886552 -0.0715806 0.460738 -0.9811 0.193493 -0.00159614
0.0541942 -0.0691168 0.461758 -0.933191 0.359376 -0.00191217
-0.0490308 -0.0704066 0.405708 -0.965924 0.258823 -0.00136298
-0.0850265 -0.087532 0.388755 -0.646336 -0.739859 -0.186706
-0.00306285 0.0274631 0.19348 -0.945571 0.257876 0.198482
-0.0763646 -0.0948517 0.430736 -0.19351 -0.98109 0.00398312
-0.0215855 -0.122312 0.604627 -0.258791 -0.96593 0.0027307
0.0103957 -0.124901 0.440773 0.258822 -0.965925 0.000999299
0.143506 -0.0678572 0.637274 0 1 0
-0.103214 -0.0681341 0.662779 0.417165 -0.329123 -0.847143
0.00761231 -0.0440234 0.113112 -0.389334 0.854457 0.343979
-0.00561059 -0.0389281 0.89928 -0.24433 0.912445 0.328249
-0.146166 -0.0678572 0.618676 0 -1 0
-0.0401874 -0.090835 0.245429 -0.964416 -0.258521 -0.0553882
0.067195 -0.0611605 0.390742 -0.154922 0.985343 -0.0714098
-0.0166945 -0.123415 0.703181 -0.258791 -0.965932 0.00135551
-0.0493094 -0.077879 0.34379 -0.964416 -0.258522 -0.0553883
0.0757147 -0.0615912 0.420158 0.359373 0.933194 0.00025957
0.390053 -0.0822622 0.536343 0.390121 0.153273 0.907917
0.255696 -0.0938683 0.634253 0.963397 0.268074 0.00162062
0.236982 -0.106507 0.659092 0.695007 0.708571 0.122034
0.00959893 -0.122863 0.828351 0.257612 -0.961254 0.0981152
0.339706 -0.0694993 0.554955 0.382275 0.249798 0.889644
-0.00971855 -0.0613049 0.100223 0.915652 -0.400523 0.0340964
-0.0100534 -0.0830687 0.665972 0 1 0
-0.045307 -0.0917326 0.338761 -0.964416 -0.258522 -0.0553883
0.14002 -0.0929998 0.637564 0.950019 0.264052 -0.166552
-0.0121102 -0.113719 0.903426 -0.254216 -0.948258 0.190213
0.0523053 -0.0430596 0.1045 0.0445863 0.982472 0.180997
0.0231433 -0.120846 0.775735 0.258786 -0.965934 0.00136017
-0.0938566 -0.0678572 0.646717 0 -1 0
0.0174998 -0.032462 0.176884 0.2588 0.965919 0.00487988
0.00233931 0.00558606 0.153313 0.9971 -0.0694093 -0.0311921
0.192565 -0.0678572 0.582654 0 1 0
-0.262218 -0.0733018 0.586128 0.400681 -0.270162 -0.875481
-0.014219 -0.124574 0.480654 -0.258806 -0.965929 0.000998187
-0.13833 -0.0930258 0.70313 -0.713843 0.700301 -0.00253857
0.118854 -0.0830687 0.657924 0 -1 0
0.0392691 -0.105045 0.739817 0.707113 -0.7071 0.000860217
-0.138234 -0.103666 0.648688 -0.954757 -0.265875 -0.133227
-0.00660767 -0.0718744 0.0707746 -0.245159 -0.915672 -0.3185
-0.0454808 -0.0726991 0.39205 0.925912 0.316427 0.206305
0.107747 -0.0613007 0.0966547 -0.0740466 -0.975256 -0.20831
-0.018411 -0.0830687 0.643102 0 1 0
0.125121 -0.0882769 0.682851 -0.268037 0.963409 0.000219235
0.103861 -0.0666443 0.123052 -0.0740565 -0.975251 -0.208328
-0.0342688 -0.0431977 0.412733 -0.70709 0.70712 -0.00222899
-0.0504226 -0.0805525 0.637128 -0.965924 -0.25882 0.00136298
0.266768 -0.0830687 0.561554 0 -1 0
-0.0148944 -0.119296 0.856629 -0.257653 -0.961243 0.098116
-0.0221779 -0.0746965 0.605265 -0.171869 -0.760339 0.626375
-0.0388755 -0.0492226 0.24163 -0.707097 0.707084 -0.00679709
-0.000753138 -0.0280689 0.731636 0.258801 0.965928 -0.00237507
0.036103 -0.0477792 0.415819 0.707107 0.707103 -0.00223153
-0.233963 -0.0699634 0.598096 0.427317 -0.320549 -0.845369
-0.144893 -0.0452314 0.0896015 -0.164542 -0.759263 0.62964
0.120551 -0.106864 0.653083 -0.687774 -0.701485 -0.186777
-0.00602332 -0.0765065 0.0837405 -0.248567 -0.928309 -0.276507
0.238928 -0.0881782 0.652546 -0.268183 0.963363 -0.00309019
0.0114348 -0.122375 0.353303 0.25771 -0.961954 -0.0907158
-0.139466 -0.096226 0.675753 -0.968364 0.249538 0.00154976
0.0425327 -0.0559855 0.493091 0.965927 0.258812 -0.00136427
0.15813 -0.0832336 0.60802 0.707098 0.707113 -0.00209182
-0.0446184 -0.10213 0.725901 -0.965925 -0.258823 -4.58086e-06
0.130204 -0.102424 0.715536 -0.67587 -0.688418 0.263211
0.00538804 0.0588196 0.132303 0.997101 -0.0694136 -0.0311802
0.0364962 -0.0809491 0.615568 -0.215968 -0.574117 0.789777
-0.118858 -0.0678572 0.608735 0 -1 0
-0.0111633 -0.0303775 0.242938 -0.258806 0.965909 0.00624514
-0.0260415 -0.0347167 0.63949 -0.258807 0.965929 -0.00100594
0.354334 -0.070722 0.536253 0.17932 0.981721 -0.0637808
0.120102 -0.107577 0.689642 -0.700272 -0.713876 0.000171065
0.206553 -0.0678572 0.608212 0 1 0
0.0831036 -0.0473668 0.113202 0.0740655 0.975236 0.208396
1.52998e-05 -0.127119 0.721193 0.258813 -0.965926 0.00135551
0.0407342 -0.0652982 0.863848 0.962475 0.258053 0.083972
-0.300871 -0.0678572 0.559441 0 -1 0
0.131056 -0.0830687 0.645516 0 -1 0
0.00642361 -0.119314 0.871455 0.257647 -0.961246 0.0981036
-0.0434314 -0.104218 0.461878 -0.707115 -0.707098 0.000506428
0.0345281 -0.0889651 0.210571 0.958371 -0.257031 -0.124342
-0.0215736 -0.0560552 0.926626 -0.671795 0.672396 0.310765
-0.0388221 -0.105159 0.344024 -0.704864 -0.70506 -0.0778223
-0.0130721 -0.124529 0.627276 -0.258791 -0.96593 0.0027307
-0.0629622 -0.0830687 0.68036 0 1 0
0.0306434 -0.0614438 0.910767 0.927245 0.248986 0.279684
-0.00784528 -0.0295699 0.757698 -0.258815 0.965924 -0.00237506
-0.0377523 -0.0404607 0.10438 0.00298012 -0.982716 -0.185093
0.0211155 -0.0350537 0.207322 0.70693 0.706922 -0.022628
-0.0305859 -0.0394701 0.820064 -0.704811 0.705006 0.0787906
0.0019732 -0.0195701 0.220247 0.960765 -0.277216 0.00911618
-0.00593527 -0.112085 0.225781 -0.253678 -0.947116 -0.196518
-0.252369 -0.0811643 0.59258 0.410357 -0.166344 -0.896625
-0.0212261 -0.0468297 0.0576915 -0.957277 0.256331 -0.133845
-0.0135455 -0.10791 0.930467 -0.254148 -0.948275 0.190219
-0.0278978 -0.0360801 0.775664 -0.707087 0.707125 -0.00187336
0.0821382 -0.0751773 0.379221 0.963933 0.15114 -0.219065
0.346506 -0.0805883 0.554766 0.38852 0.148424 0.909408
-0.0243952 -0.121448 0.37246 -0.257716 -0.961953 -0.0907145
-0.0404085 -0.0767113 0.598359 -0.158689 -0.718355 0.677336
-0.0202058 -0.0328937 0.257366 -0.258806 0.965909 0.00624513
-0.0624453 -0.0811057 0.34555 -0.536272 -0.614552 -0.578565
0.0390035 -0.0609145 0.227285 0.963583 0.25805 -0.0701222
-0.102661 -0.0446442 0.0987455 -0.0609439 -0.804776 0.590442
-0.0386308 -0.0517275 0.218083 -0.963582 0.258054 -0.0701269
-0.00892297 -0.125797 0.572059 -0.258806 -0.965926 0.00273356
-0.0502592 -0.0744503 0.542344 -0.965922 0.258834 0.000362635
0.130882 -0.113215 0.660261 0.2682 -0.963363 -0.000254097
-0.0445065 -0.103108 0.509718 -0.707115 -0.707098 0.000506428
-0.0213828 -0.0936466 0.953252 -0.895821 -0.239312 0.374478
-0.0180053 -0.122967 0.771475 -0.258819 -0.965925 0.00136015
0.0425178 -0.0998456 0.621483 0.965927 -0.25881 0.00136389
-0.0322059 -0.077022 0.14811 -0.949796 -0.254836 -0.181512
-0.0621584 -0.0640763 0.424551 0.65811 0.752921 0.000641649
0.0274937 -0.0403735 0.264961 0.707079 0.707102 -0.00679376
0.0678255 -0.0830687 0.670744 0 -1 0
0.0363456 -0.107911 0.787178 0.707115 -0.707098 0.000859818
0.0566569 -0.0893308 0.411074 -0.777851 -0.628448 -0.000862636
0.0374912 -0.074046 0.20257 0.958372 -0.257024 -0.124343
-0.0445507 -0.0711876 0.379784 0.219655 0.975573 -0.0030147
0.0918826 -0.0678572 0.620898 0 1 0
0.0122545 -0.0313623 0.809624 0.258841 0.965917 -0.00237339
0.0391124 -0.104618 0.366722 0.704874 -0.705051 -0.0778207
-0.0448831 -0.0685861 0.258725 -0.965523 0.258653 -0.0293777
0.0110777 -0.0802841 0.103446 0.248568 -0.928312 -0.276498
0.0885257 -0.0785252 0.674093 0.419949 0.205146 0.884058
-0.00595017 -0.077873 0.706108 -0.320616 -0.939692 -0.119102
0.248857 -0.0702728 0.594398 0.38828 0.270122 0.881063
-0.0355833 -0.112048 0.487031 -0.707115 -0.707098 0.000506428
-0.00448341 -0.0196067 0.198026 0.996694 -0.0751809 -0.0307966
-0.140589 -0.0676075 0.585404 0.0133362 -0.999321 -0.0343614
-0.0376854 -0.0830687 0.658855 0 1 0
0.0410319 -0.0629788 0.272147 0.965525 0.258649 -0.0293763
-0.0487791 -0.0688325 0.717453 -0.965925 0.258819 -0.001007
-0.000759745 0.0487473 0.151692 0.996693 -0.0751807 -0.0308277
-0.00714203 -0.0234894 0.121449 0.996695 -0.0751789 -0.0307903
-0.0745969 -0.0814178 0.467699 0.311762 -0.912564 0.264634
-0.0164987 -0.101675 0.189249 -0.253678 -0.947116 -0.196518
-0.393697 -0.0806525 0.509961 0.2878 -0.951718 0.106791
0.135243 -0.0879917 0.697966 0.249499 0.96837 -0.00309904
-0.0254316 -0.121389 0.566661 -0.258791 -0.96593 0.0027307
0.14373 -0.061764 0.110651 0.474373 -0.0726532 0.877321
-0.0103828 -0.00956153 0.129643 -0.996694 0.0751851 0.0307955
-0.0968157 -0.0780943 0.584156 -0.183917 -0.527578 0.829359
-0.158214 -0.0425375 0.104234 0.406684 -0.912541 -0.0433329
-0.335293 -0.0810967 0.555099 0.40132 -0.148472 -0.903824
0.0213012 -0.0340372 0.707633 0.258841 0.965917 -0.00237339
-0.0487626 -0.0686451 0.749815 -0.965925 0.258819 -0.001007
-0.234336 -0.111369 0.625574 0.713714 -0.700437 -0.000660051
-0.115266 -0.0830687 0.637355 0 1 0
0.00685478 -0.0337738 0.862016 0.258024 0.963161 0.0757919
0.0407166 -0.0678027 0.150921 -0.0740313 -0.975259 -0.208303
0.00178342 -0.12709 0.529953 0.258806 -0.965925 0.00272957
-0.0479642 -0.0903615 0.511622 -0.965922 -0.258833 -0.000362657
0.251622 -0.0903123 0.664078 0.687507 0.70115 0.189007
-0.132965 -0.111756 0.665032 -0.249535 -0.968366 -0.000182635
-0.153194 -0.0853641 0.601927 -0.965969 0.258655 -0.00123084
0.000318115 -0.00905947 0.121315 0.997099 -0.0694406 -0.0311858
-0.0454407 -0.065655 0.302856 -0.965523 0.258653 -0.0293777
-0.247856 -0.0886953 0.615837 -0.713786 0.700356 -0.00342555
-0.0388746 -0.0678572 0.656467 0 -1 0
-0.0822927 -0.0603734 0.130825 0.0128411 0.981695 0.190027
-0.00793897 -0.00451677 0.196362 -0.996348 0.0799651 0.029926
-0.122649 -0.05046 0.130333 0.447476 -0.10553 -0.888048
-0.0401947 -0.0695605 0.192885 -0.958368 -0.257035 -0.124351
0.0414668 -0.0889984 0.854856 0.962054 -0.257605 0.0899497
0.0650548 -0.0678572 0.636285 0 1 0
-0.00994498 0.000621047 0.118958 -0.996696 0.075156 0.0308069
-0.0334531 -0.11425 0.385725 -0.707084 -0.70713 0.000498246
-0.0445844 -0.053292 0.5561 -0.965925 0.258822 0.000360256
-0.0417663 -0.0984718 0.854008 -0.962051 -0.257617 0.08995
-0.0305546 -0.0863374 0.170678 -0.696595 -0.696931 -0.170418
0.00879408 -0.0644703 0.0540666 0.678203 -0.67874 -0.281696
0.0257631 -0.0732601 0.123542 0.949795 -0.254836 -0.181518
0.136527 -0.0830687 0.619303 0 -1 0
0.0183415 -0.0830687 0.648256 0 1 0
-0.00756156 0.0173184 0.155347 -0.996695 0.0751658 0.0307927
0.0475083 -0.0830687 0.62056 0 -1 0
-0.0383945 -0.0628619 0.895472 -0.927248 0.248987 0.279674
0.0593185 -0.088196 0.36316 -0.34775 -0.903261 -0.251374
-0.116764 -0.0553676 0.107294 0.0128638 0.9817 0.190002
-0.241138 -0.0867668 0.659495 0.249539 0.96836 -0.00310832
0.0429083 -0.0985158 0.597259 0.965927 -0.25881 0.00136389
0.0268538 -0.117489 0.716059 0.707115 -0.707098 0.000859818
0.152247 -0.0524621 0.0935252 0.47954 0.876584 0.0405265
-0.0551678 -0.0853068 0.389995 0.262508 -0.963961 -0.0432318
0.0754226 -0.0628676 0.469208 0.351346 0.912405 0.209937
-0.0715421 -0.0830687 0.645925 0 1 0
-0.0356799 -0.112013 0.400047 -0.707084 -0.70713 0.000498246
-0.0472402 -0.0631645 0.528516 -0.965922 0.258834 0.000362635
-0.0233417 -0.121694 0.660235 -0.258791 -0.965932 0.00135551
0.034843 -0.0540989 0.0887595 -0.0441171 -0.982488 -0.181029
0.0133416 -0.0322107 0.505146 0.258837 0.965917 -0.00272956
-0.026016 -0.0592236 0.173834 -0.471209 -0.826936 -0.30682
-0.0683137 -0.0678572 0.616099 0 -1 0
-0.320944 -0.0678572 0.538887 0 -1 0
0.041275 -0.0521953 0.782809 0.707107 0.707104 -0.00187334
-0.038845 -0.0794814 0.20299 -0.958368 -0.257035 -0.124351
0.0692411 -0.0523404 0.141413 0.0740555 0.975255 0.208309
0.0239394 -0.0351261 0.682243 0.707107 0.707104 -0.00187332
-0.0451283 -0.100836 0.433661 -0.965925 -0.25882 -0.000360068
0.322653 -0.0798538 0.531376 -0.273784 0.426799 -0.861908
-0.0376459 -0.109383 0.774589 -0.707115 -0.707098 0.00086244
-0.00566552 0.0383382 0.165398 -0.996695 0.0751659 0.0308132
0.0455234 -0.0717882 0.173654 0.554847 -0.0149749 0.831818
0.0439083 -0.0916052 0.361824 0.964419 -0.258511 -0.0553875
0.115417 -0.0830687 0.627166 0 -1 0
-0.174408 -0.0830687 0.574383 0 1 0
0.0042914 -0.0621335 0.137326 -0.0740518 -0.975256 -0.208306
-0.241219 -0.0678572 0.575821 0 -1 0
-0.00398817 0.0844562 0.107119 -0.996694 0.0751679 0.0308526
-0.0337291 -0.0585097 0.134725 -0.960289 0.257105 -0.108363
-0.0493526 -0.0844638 0.810946 -0.965923 -0.258831 -5.93033e-06
-0.032915 -0.0700298 0.679012 -0.200331 -0.976899 -0.0744034
-0.0293191 -0.0544837 0.0965522 0.0172463 0.98805 0.153163
-0.0171815 -0.0327521 0.416231 -0.258847 0.965914 -0.00272718
0.0705261 -0.0680037 0.141264 -0.0740368 -0.975258 -0.208305
0.0284455 -0.0740947 0.138749 0.949795 -0.254836 -0.181518
-0.36982 -0.0830687 0.523837 0 1 0
-0.0786259 -0.0643471 0.382528 -0.320087 0.937635 -0.135589
0.0409095 -0.0610028 0.285519 0.965525 0.258649 -0.0293763
-0.133576 -0.0885169 0.683074 -0.268122 0.963385 0.000237103
0.0181099 -0.122164 0.797492 0.258813 -0.965926 0.00135551
0.0514089 -0.0830687 0.646275 0 -1 0
-0.00773116 0.0274666 0.125087 -0.996696 0.0751727 0.0307473
-0.0448105 -0.0541686 0.579603 -0.965925 0.258822 0.000360256
0.0229459 -0.121451 0.519019 0.258806 -0.965925 0.00272957
-0.110971 -0.0397174 0.106102 -0.012848 -0.981682 -0.190094
-0.0279746 -0.0410185 0.857279 -0.704833 0.704985 0.0787849
0.074962 -0.0823219 0.365012 0.838645 -0.323827 -0.437962
-0.0293702 -0.111814 0.318704 -0.704882 -0.705043 -0.0778174
0.0967896 -0.0594397 0.091837 -0.0740408 -0.975258 -0.208304
0.0399228 -0.0536728 0.837421 0.962472 0.258062 0.083969
-0.146786 -0.0413889 0.117158 -0.0128944 -0.981704 -0.189979
0.218891 -0.0830687 0.581001 0 -1 0
-0.0928122 -0.0830687 0.642121 0 1 0
0.0423404 -0.0830687 0.679372 0 -1 0
-0.00835798 -0.0399912 0.109124 -0.997098 0.0694376 0.031201
0.0342518 -0.0696454 0.684041 -0.201362 0.976899 0.0715656
-0.0268161 -0.0355245 0.482645 -0.707107 0.707103 -0.00223151
-0.111059 -0.0678572 0.648752 0 -1 0
0.0427307 -0.0988842 0.687648 0.965925 -0.258824 -7.62316e-06
0.0420352 -0.0754014 0.253579 0.964418 -0.258517 -0.0553868
-0.23861 -0.100495 0.662732 0.929517 0.259132 0.262391
-0.0510872 -0.0786736 0.487863 -0.965922 -0.258833 -0.000362657
-0.00412406 -0.0115862 0.181217 -0.9971 0.0694142 0.0312072
-0.0385529 -0.0993388 0.880292 -0.703987 -0.703814 0.0951218
0.0520243 -0.0830687 0.666721 0 -1 0
0.012429 -0.12393 0.638764 0.258786 -0.965931 0.00273358
0.0298356 -0.114823 0.577521 0.707113 -0.707097 0.00222842
0.0188445 -0.0374737 0.104064 0.706479 0.706396 -0.0434977
-0.0737678 -0.0727416 0.458883 0.186831 0.947079 0.261026
-0.00750905 0.0128834 0.167871 -0.996695 0.0751661 0.0308025
0.0149067 -0.032177 0.251842 0.258798 0.965911 0.00624413
0.0611639 -0.0710546 0.600123 -0.149121 0.718349 -0.679513
-0.352702 -0.0699099 0.538612 0.178437 -0.981721 0.0662202
0.0463459 -0.0853956 0.807309 0.965925 -0.258824 -7.62316e-06
-0.0635944 -0.0926299 0.388242 0.322233 -0.944238 -0.0676764
-0.0313296 -0.115713 0.763265 -0.707104 -0.70711 0.000859838
-0.193287 -0.0678572 0.614866 0 -1 0
0.0296448 -0.0426736 0.832483 0.704833 0.704984 0.0787898
-0.000986584 -0.028577 0.432364 0.258826 0.96592 -0.00273009
5.85462e-05 -0.0288704 0.355774 0.258812 0.965908 0.00624416
0.160309 -0.0662651 0.101213 -0.0740864 -0.975234 -0.2084
-0.00367194 0.0126323 0.145595 0.996696 -0.0751578 -0.0307808
-0.0306023 -0.0830687 0.626725 0 -1 0
0.0427095 -0.0566714 0.618467 0.965927 0.258813 0.000363063
-0.0257289 -0.098154 0.930606 -0.691598 -0.691201 0.209604
0.254575 -0.107578 0.658399 0.713938 -0.700209 0.000109683
-0.119201 -0.0935702 0.708497 -0.687953 -0.701241 0.187036
0.257312 -0.10004 0.648141 0.968352 -0.249588 -0.000730685
-0.0349674 -0.0433751 0.69063 -0.707107 0.707104 -0.00187597
-0.0343547 -0.107931 0.328669 -0.704864 -0.70506 -0.0778223
-0.0214131 -0.081048 0.123806 -0.685764 -0.686229 -0.242524
-0.00296147 -0.036934 0.10346 0.77239 -0.0622424 -0.632091
-0.0445124 -0.102524 0.688983 -0.965925 -0.258823 -4.58086e-06
0.0789292 -0.083177 0.588862 0.0193471 -0.999307 0.0317944
-0.00606459 0.0515564 0.120226 -0.996694 0.0751773 0.0307993
-0.0339153 -0.0471454 0.170151 -0.963582 0.258054 -0.0701269
0.128711 -0.0473882 0.0970909 0.0740777 0.975233 0.208407
-0.00414823 -0.0578435 0.13036 -0.581567 0.719387 0.379818
-0.081829 -0.0830687 0.619906 0 1 0
-0.0289574 -0.0381905 0.35752 -0.70708 0.707101 -0.00679365
-0.0465553 -0.0607104 0.60139 -0.965925 0.258822 0.000360256
-0.0408355 -0.106467 0.613224 -0.707103 -0.707107 0.00222844
0.315878 -0.0812683 0.567962 0.38852 0.148424 0.909408
0.0505184 -0.0759972 0.433519 -0.966485 -0.151581 0.207195
0.0212318 -0.039295 0.877517 0.704853 0.704965 0.0787845
-0.00935094 -0.125907 0.453017 -0.258827 -0.965923 0.00100236
-0.0121689 -0.0329022 0.128813 -0.996695 0.0751699 0.0307838
0.043736 -0.060464 0.675816 0.965928 0.258808 -0.00100817
0.00941176 -0.0310616 0.307052 0.258815 0.965907 0.0062439
0.00299721 -0.0293876 0.536641 0.258826 0.965923 -0.00100363
-0.000135248 0.015745 0.209399 0.905534 0.273987 0.323944
-0.128388 -0.0830687 0.609324 0 1 0
0.0225262 -0.121168 0.664364 0.258786 -0.965934 0.00136017
-0.0452063 -0.0619186 0.328051 -0.965521 0.258662 -0.0293759
-0.0119959 -0.0830687 0.689945 0 -1 0
0.0384366 -0.0498207 0.508386 0.707107 0.707103 -0.00223151
-0.0281853 -0.114671 0.84358 -0.703999 -0.703801 0.0951271
-0.0457366 -0.0985814 0.534383 -0.965922 -0.25883 0.00136113
-0.0398094 -0.0481257 0.725159 -0.707134 0.707077 -0.00187592
0.00240796 -0.0291608 0.603042 0.25882 0.965925 -0.00100303
-0.0415655 -0.0561697 0.259005 -0.965523 0.258653 -0.0293777
-0.0123104 -0.0970952 0.161769 -0.253693 -0.947112 -0.196514
0.00426784 -0.126054 0.668197 0.258786 -0.965934 0.00136017
0.0331594 -0.101661 0.286012 0.70488 -0.705045 -0.0778218
0.00460536 -0.0298368 0.519053 0.258826 0.965923 -0.00100363
-0.0287104 -0.0652065 0.113231 -0.949787 -0.254863 -0.181522
0.0390114 -0.0826332 0.234681 0.964418 -0.258517 -0.0553868
0.0379865 -0.106355 0.716691 0.707113 -0.7071 0.000860217
0.0174537 -0.122488 0.691925 0.258786 -0.965934 0.00136017
-0.000378382 -0.0220999 0.128072 0.997099 -0.0694347 -0.0311791
-0.0508059 -0.0766136 0.661623 -0.965925 0.258819 -0.001007
-0.00582211 -0.029441 0.510799 -0.258851 0.965913 -0.00273007
-0.178619 -0.0830687 0.60119 0 1 0
0.0243849 -0.0357221 0.550538 0.707123 0.70709 -0.000506927
0.00333888 -0.0830687 0.613386 0 -1 0
-0.0983663 -0.0830687 0.608266 0 1 0
-0.231677 -0.0913836 0.637266 0.700403 0.713748 0.00073191
0.151403 -0.0734266 0.579057 -0.122718 0.704909 -0.698601
0.0332152 -0.0451203 0.366389 0.707097 0.707084 -0.00679712
-0.012601 -0.0309108 0.265838 -0.258806 0.965909 0.00624514
0.0237402 -0.0872471 0.157813 0.696599 -0.696929 -0.170414
-0.0434496 -0.101359 0.827735 -0.962051 -0.257617 0.08995
-0.0225189 -0.121313 0.816849 -0.257618 -0.961254 0.0981044
0.255058 -0.102086 0.60029 0.959625 -0.247689 -0.133307
0.127815 -0.077787 0.57915 -0.150224 0.516384 -0.843078
-0.342375 -0.0683611 0.533755 0.178429 -0.981722 0.0662152
0.0316783 -0.0434099 0.398243 0.707107 0.707103 -0.00223153
0.0415918 -0.0941687 0.333452 0.964419 -0.258511 -0.0553875
0.000918046 -0.0287416 0.622226 0.25882 0.965925 -0.00100303
0.0299666 -0.101803 0.258376 0.70488 -0.705045 -0.0778218
0.0461668 -0.0866795 0.440395 0.965928 -0.258809 -0.000363414
-0.0508691 -0.0795093 0.503294 -0.965922 -0.258833 -0.000362657
-0.034568 -0.0898756 0.912207 -0.937179 -0.250659 0.242621
0.221041 -0.0678572 0.585502 0 1 0
-0.0296943 -0.116396 0.363149 -0.704864 -0.70506 -0.0778223
-0.00740319 0.0362744 0.114204 -0.996695 0.0751636 0.0308005
0.0539925 -0.0686128 0.37368 -0.627588 0.776756 -0.052754
-0.143261 -0.0678572 0.641906 0 -1 0
0.021565 -0.121582 0.603712 0.258806 -0.965925 0.00272957
0.158248 -0.0678572 0.623253 0 1 0
0.00695862 0.106581 0.120088 0.990807 0.118086 -0.0660089
0.157419 -0.0830037 0.589774 0.258813 0.965919 0.00402329
0.0716892 -0.0466244 0.113783 0.074029 0.975257 0.208313
0.0237073 -0.0778942 0.626425 -0.320609 -0.939696 -0.119087
0.0457882 -0.0680276 0.513551 0.965927 0.258809 -0.00136366
-0.121111 -0.0720549 0.584652 -0.1522 -0.717031 0.680222
-0.10433 -0.0678572 0.627685 0 -1 0
-0.0232501 -0.0342663 0.455883 -0.258807 0.965925 -0.00273069
-0.00524791 -0.126703 0.599722 -0.258806 -0.965926 0.00273356
0.0448179 -0.0666022 0.364678 0.965524 0.258651 -0.0293765
-0.0704995 -0.0784835 0.58982 -0.195893 -0.528323 0.826136
0.085559 -0.0878557 0.643705 -0.258425 -0.966028 0.00256048
0.123438 -0.0893518 0.646851 -0.713756 0.700246 -0.0144193
-0.0484047 -0.0771733 0.844006 -0.962054 -0.257605 0.0899538
0.0252027 -0.110367 0.877094 0.703987 -0.703813 0.0951276
-0.00117575 0.0460843 0.177441 -0.899127 0.30938 0.309604
0.0303232 -0.0418343 0.468128 0.707088 0.707122 -0.00222849
0.0441692 -0.0940695 0.393947 0.965928 -0.258809 -0.000363414
-0.0294 -0.118218 0.506235 -0.707115 -0.707098 0.000506428
0.0189347 -0.073218 0.689711 -0.201362 0.976899 0.0715656
-0.0451022 -0.0549219 0.765948 -0.965922 0.25883 -0.00100518
-0.0070439 -0.107355 0.941919 -0.254148 -0.948275 0.190219
-0.010214 -0.0304461 0.292881 -0.258806 0.965909 0.00624514
0.0251415 -0.068904 0.161613 -0.0740311 -0.975259 -0.208303
-0.0501362 -0.0446075 0.127252 -0.0128757 -0.981703 -0.189982
0.00222078 -0.123969 0.836887 0.257647 -0.961246 0.0981036
-0.0130809 -0.0317212 0.392188 -0.258824 0.965921 -0.00272719
0.255971 -0.105328 0.619162 0.968331 -0.249667 -0.00157445
-0.0603181 -0.0850138 0.466432 -0.739807 0.647044 0.184444
0.040349 -0.0513505 0.75218 0.707107 0.707104 -0.00187334
0.0446757 -0.0674289 0.352725 0.965524 0.258651 -0.0293765
-0.0453193 -0.0766467 0.877768 -0.96247 0.258069 0.083974
0.126987 -0.11223 0.703377 -0.249609 -0.968347 0.000670323
-0.0341351 -0.0604869 0.907479 -0.927238 0.249007 0.279687
0.00706494 -0.0308149 0.403874 0.25882 0.965922 -0.00272947
0.144548 -0.0533936 0.110029 0.476726 0.0296743 0.878551
0.0361771 -0.0475954 0.497575 0.707107 0.707103 -0.00223151
0.0493587 -0.0678577 0.611244 -3.04081e-05 1 -0.000105984
0.000668794 -0.0288843 0.332628 0.258812 0.965908 0.00624416
-0.0271862 -0.0389532 0.189031 -0.706948 0.706903 -0.0226327
0.059669 -0.0845669 0.352529 0.137187 -0.873033 -0.467967
0.0589999 -0.092054 0.461009 -0.359405 -0.933182 0.000574637
-0.0284433 -0.0381749 0.305643 -0.70708 0.707101 -0.00679365
0.0667545 -0.0830687 0.638494 0 -1 0
0.0335784 -0.111136 0.55986 0.707105 -0.707105 0.00223048
0.073651 -0.0736172 0.462847 0.346823 0.901009 0.260572
0.217453 -0.0703231 0.609076 0.415382 0.320413 0.851348
-0.235379 -0.0862522 0.616311 0.949332 0.314267 -0.00219908
-0.018814 -0.108769 0.226425 -0.253678 -0.947116 -0.196518
-0.212735 -0.0705264 0.60904 0.427331 -0.320513 -0.845375
0.0239759 -0.0359422 0.36 0.707097 0.707084 -0.00679712
0.0325382 -0.111858 0.671812 0.707113 -0.7071 0.000860217
-1.08797e-05 -0.12724 0.647 0.258786 -0.965931 0.00273358
-0.0359886 -0.0855127 0.193441 -0.958372 -0.257024 -0.124347
0.114753 -0.0830687 0.58943 0 -1 0
0.0164032 -0.0325983 0.759045 0.258841 0.965917 -0.00237339
0.00680813 -0.117857 0.884727 0.257647 -0.961246 0.0981036
0.00858947 -0.0477889 0.123573 -0.389311 0.854479 0.343951
0.000221816 0.0650867 0.149503 -0.997099 0.0694277 0.0312079
0.0432318 -0.0976806 0.526634 0.965928 -0.258808 0.00136366
0.104314 -0.0830687 0.626261 0 -1 0
-0.026394 -0.0989291 0.205165 -0.696595 -0.696931 -0.170418
-0.0391059 -0.0487873 0.310876 -0.707097 0.707084 -0.00679709
-0.00611935 -0.0329602 0.863564 -0.258046 0.963155 0.0757936
-0.0781446 -0.0724872 0.676816 0.417165 -0.329123 -0.847143
0.0433721 -0.0592203 0.473699 0.965927 0.258812 -0.00136427
-0.0121719 -0.0265992 0.113333 -0.996694 0.0751803 0.0308032
-0.0463503 -0.0598001 0.709196 -0.965922 0.25883 -0.00100518
0.0470075 -0.0724318 0.737828 0.965924 0.258823 -0.00101064
0.0471632 -0.0727965 0.793263 0.965924 0.258823 -0.00101064
0.0316266 -0.112416 0.814396 0.703999 -0.703802 0.095122
-0.0216212 -0.11285 0.895044 -0.254178 -0.948273 0.19019
0.00730055 0.0936864 0.115844 0.997101 -0.0694095 -0.0311798
-0.0247164 -0.0485388 0.079379 -0.957295 0.256253 -0.133869
-0.0506184 -0.0758633 0.594183 -0.965922 0.258834 0.000362635
0.0376752 -0.10676 0.648164 0.707113 -0.707097 0.00222842
-0.0285903 -0.0420783 0.142799 -0.70648 0.706396 -0.0434926
0.00707878 -0.125238 0.712913 0.258813 -0.965926 0.00135551
0.112292 -0.0830687 0.608033 0 -1 0
0.241815 -0.112627 0.615233 -0.249484 -0.968379 -0.000238993
-0.0833003 -0.0645017 0.398425 -0.752932 0.65809 -0.00335269
0.0366332 -0.0479619 0.562063 0.707107 0.707106 -0.000501305
-0.255673 -0.0830687 0.547807 0 1 0
-0.254985 -0.0830687 0.568798 0 1 0
-0.0281418 -0.0767504 0.702885 0.410056 -0.344746 -0.844396
0.018313 -0.0468768 0.907855 0.671796 0.672395 0.310765
-0.0117627 -0.0461735 0.914841 -0.244308 0.912451 0.328249
0.0244922 -0.035386 0.792823 0.707107 0.707104 -0.00187332
-0.00869955 0.0100895 0.136156 -0.996697 0.0751504 0.0307964
0.0453458 -0.0739546 0.837593 0.962475 0.258053 0.083972
0.020141 -0.0566194 0.0727374 0.943257 -0.25314 -0.214909
0.0479443 -0.0794261 0.688088 0.965928 -0.258812 -9.59723e-06
-0.002581 -0.0284229 0.64679 -0.258824 0.965924 -0.00100303
-0.0498697 -0.079783 0.820864 -0.962051 -0.257617 0.08995
-0.124922 -0.0678572 0.629193 0 -1 0
-0.106286 -0.078413 0.665076 0.433173 -0.204092 -0.877899
0.0450126 -0.0735061 0.310291 0.965524 0.258651 -0.0293765
0.0456247 -0.0880843 0.720528 0.965928 -0.258812 -9.59723e-06
0.0023065 -0.115387 0.253267 0.25771 -0.961954 -0.0907158
0.0341612 -0.0457245 0.451599 0.707107 0.707103 -0.00223153
0.185423 -0.0830687 0.613942 0 -1 0
-0.0364015 -0.110746 0.677224 -0.707104 -0.70711 0.000859838
-0.273464 -0.0830687 0.543337 0 1 0
-0.132 -0.0830687 0.586696 0 1 0
-0.0370671 -0.0729069 0.175698 -0.958372 -0.257024 -0.124347
-0.00279343 0.0579003 0.158735 -0.95122 0.22501 0.211071
-0.0416847 -0.0498028 0.799914 -0.707134 0.707077 -0.00187592
0.0215233 -0.0342708 0.614489 0.258801 0.96593 -0.00100707
-0.013747 -0.114089 0.264166 -0.257708 -0.961955 -0.0907159
-0.119398 -0.0829451 0.58299 -0.00768404 0.999316 0.0361613
0.331449 -0.0678572 0.548016 0 1 0
0.0436597 -0.0598587 0.758132 0.965928 0.258808 -0.00100817
0.0122675 -0.119778 0.85156 0.257612 -0.961254 0.0981152
-0.0456529 -0.0815962 0.86077 -0.962054 -0.257605 0.0899538
-0.0161521 -0.0830687 0.626028 0 -1 0
0.0168545 -0.0333442 0.351652 0.258829 0.965903 0.00624613
-0.0299194 -0.0640365 0.924616 -0.927247 0.248994 0.279669
-0.0349089 -0.105218 0.309113 -0.704864 -0.70506 -0.0778223
-0.0122002 -0.0766542 0.611827 -0.163008 0.760348 -0.628728
0.0775876 -0.0641907 0.38595 0.356177 0.924531 -0.135571
0.0406371 -0.104294 0.406597 0.707094 -0.70712 0.000504429
-0.0607729 -0.0667482 0.363594 0.654646 0.74893 -0.102678
-0.00125226 0.0288735 0.182975 -0.997101 0.0694051 0.0311791
0.0275783 -0.0388523 0.638894 0.707123 0.70709 -0.000506927
-0.0391421 -0.0503227 0.230838 -0.965523 0.258653 -0.0293777
-0.135005 -0.0899037 0.650154 -0.713612 0.700393 -0.0144021
0.0373877 -0.0497532 0.318494 0.707097 0.707084 -0.00679712
0.0435216 -0.0601499 0.403189 0.965927 0.258812 -0.00136427
-0.0431508 -0.0773559 0.891988 -0.937179 -0.250659 0.242621
-0.0704555 -0.0678572 0.649716 0 -1 0
-0.0363033 -0.0448425 0.607764 -0.707107 0.707106 -0.000503871
0.171422 -0.0678572 0.62154 0 1 0
0.0279265 -0.105182 0.891087 0.691596 -0.691197 0.209622
-0.18518 -0.0678572 0.607704 0 -1 0
-0.0310085 -0.116101 0.707854 -0.707104 -0.70711 0.000859838
-0.0079415 -0.0319008 0.843898 -0.258034 0.963158 0.075796
0.0780595 -0.0832856 0.455507 0.491414 -0.60708 0.624474
-0.042283 -0.0629569 0.870499 -0.962475 0.258053 0.0839688
-0.241838 -0.102349 0.584234 -0.204757 -0.794853 -0.571211
-0.203357 -0.0744149 0.615254 0.427331 -0.320513 -0.845375
0.177311 -0.0753096 0.63052 0.414789 0.320252 0.851698
-0.105183 -0.0869728 0.641863 -0.254881 -0.952366 0.167436
0.0382925 -0.0977949 0.863615 0.962054 -0.257605 0.0899497
-0.061642 -0.0830687 0.650169 0 1 0
-0.0169457 -0.0667106 0.159146 0.0128729 0.981699 0.190004
0.0450979 -0.0653904 0.715953 0.965928 0.258808 -0.00100817
0.0313031 -0.113318 0.589332 0.707113 -0.707097 0.00222842
0.0408011 -0.0858041 0.280646 0.964418 -0.258517 -0.0553868
-0.254606 -0.068872 0.557197 -0.188073 -0.686982 0.701915
-0.0477308 -0.0706554 0.369036 0.104879 0.993319 -0.0481472
0.25385 -0.07638 0.55354 -0.178154 0.686972 -0.704507
-0.0726446 -0.0467147 0.0958879 0.0635387 -0.807136 0.586937
0.00299033 0.124332 0.106148 0.968307 0.23432 -0.0864672
-0.0703781 -0.0605138 0.130745 0.0128742 0.981703 0.189983
0.120523 -0.0678572 0.653586 0 1 0
0.266652 -0.0678572 0.585495 0 1 0
0.00931244 -0.124512 0.803875 0.258813 -0.965926 0.00135551
0.0783384 -0.0678572 0.64773 0 1 0
0.0342081 -0.0746096 0.91067 0.927246 0.248981 0.279686
0.341087 -0.0830687 0.532984 0 -1 0
-0.0144511 -0.0312925 0.776967 -0.258824 0.965922 -0.00237588
-0.0437373 -0.0628558 0.271517 -0.965523 0.258653 -0.0293777
-0.0437626 -0.0678572 0.618331 0 -1 0
0.113249 -0.0489801 0.0958735 -0.0237823 0.81988 -0.572041
-0.0070531 0.0292749 0.142614 -0.996693 0.0751813 0.0308208
0.0435964 -0.0596682 0.746339 0.965928 0.258808 -0.00100817
-0.117701 -0.0914902 0.687137 0.700294 0.713854 0.000704222
-0.0328232 -0.114466 0.61764 -0.707103 -0.707107 0.00222844
-0.135949 -0.109325 0.695635 -0.700344 -0.713805 0.000210764
-0.0444665 -0.0613978 0.133558 0.0128338 0.981696 0.190022
0.192974 -0.0830687 0.575978 0 -1 0
-0.0372495 -0.110336 0.5237 -0.707115 -0.707095 0.00223149
-0.0451697 -0.0555984 0.64378 -0.965925 0.258822 0.000360256
0.0710229 -0.0830687 0.61177 0 -1 0
-0.0414243 -0.105951 0.590345 -0.707103 -0.707107 0.00222844
-0.0648168 -0.048245 0.147036 -0.0128574 -0.981699 -0.190007
-0.0258629 -0.0344976 0.717078 -0.25884 0.965917 -0.00237339
0.150878 -0.0645709 0.0966341 -0.0740151 -0.975267 -0.208271
0.0467605 -0.0820041 0.366677 0.964419 -0.258511 -0.0553875
0.279103 -0.0830687 0.559608 0 -1 0
-0.0458678 -0.0578822 0.739464 -0.965922 0.25883 -0.00100518
0.0718736 -0.0568278 0.15504 0.547378 0.109019 0.829754
-0.0415575 -0.105898 0.564775 -0.707103 -0.707107 0.00222844
-0.0210112 -0.0329729 0.236251 -0.258806 0.965909 0.00624513
-0.00330986 0.0835883 0.131199 -0.996697 0.0751507 0.0307847
0.288744 -0.0830687 0.540995 0 -1 0
-0.0272091 -0.120455 0.439704 -0.707084 -0.70713 0.000498246
0.0367006 -0.107594 0.755992 0.707113 -0.7071 0.000860217
-0.00713586 0.00727236 0.192304 -0.996097 0.0797865 0.0377568
0.23235 -0.1027 0.607729 -0.954765 -0.265828 -0.133261
-0.0857999 -0.0466806 0.140372 -0.0128418 -0.9817 -0.190001
0.0270978 -0.106348 0.273566 0.70488 -0.705045 -0.0778218
0.121868 -0.0921184 0.71101 -0.700819 0.687844 0.189007
-0.0447481 -0.054459 0.399037 -0.965922 0.258831 -0.00136152
0.382624 -0.0830687 0.515834 0 -1 0
-0.0177035 -0.0705236 0.64454 -0.200331 -0.976899 -0.0744031
-0.0461831 -0.0675588 0.839938 -0.96247 0.258069 0.083974
-0.152878 -0.0678572 0.591508 0 -1 0
-0.0458676 -0.0875794 0.329136 -0.964416 -0.258522 -0.0553883
-0.00377276 -0.0266208 0.238142 0.996695 -0.0751678 -0.0307906
0.00205332 -0.00837006 0.217238 0.980318 0.0840988 0.178615
-0.00618718 -0.0218083 0.148248 0.996695 -0.0751712 -0.0308007
0.0444107 -0.093314 0.497735 0.965928 -0.258812 -0.000362873
0.130949 -0.0779064 0.628669 0.249611 0.968185 0.0176753
0.262118 -0.0678572 0.569415 0 1 0
-0.102897 -0.0589668 0.12495 0.0128743 0.981699 0.190005
