-0.00779437 -0.000692667 0.191763 -0.996097 0.0797865 0.0377568
-0.0113785 -0.0534558 0.92419 -0.24436 0.912433 0.328259
-0.0509408 -0.0748906 0.691054 0.410056 -0.344746 -0.844396
0.00383128 0.0322215 0.141727 0.997098 -0.0694322 -0.0312199
-0.0460762 -0.096689 0.725787 -0.965925 -0.258823 -4.58086e-06
-0.0203647 -0.122408 0.720141 -0.258819 -0.965925 0.00136015
-0.0358188 -0.0506052 0.872888 -0.704829 0.704988 0.0787909
-0.289353 -0.0742195 0.574037 0.393712 -0.242346 -0.886712
0.0349083 -0.0825385 0.907823 0.93718 -0.250643 0.242635
0.0819379 -0.0872972 0.388879 0.910553 -0.351177 -0.218101
0.00297602 0.108879 0.125824 0.996698 -0.0751517 -0.0307381
0.0343302 -0.0997238 0.279064 0.70488 -0.705045 -0.0778218
-0.0433467 -0.0729737 0.378757 0.946386 0.323025 -0.0027054
-0.000903253 -0.0302178 0.129365 0.997099 -0.0694347 -0.0311791
0.122095 -0.0943928 0.63071 -0.93683 0.240672 -0.253824
0.00491813 -0.0830687 0.690587 0 1 0
0.00242872 -0.12668 0.613785 0.258786 -0.965931 0.00273358
0.0639128 -0.0678777 0.611338 0.00619756 0.999978 -0.00230945
-0.115392 -0.0949617 0.695806 0.963414 0.26801 -0.00173424
-0.275817 -0.0830687 0.54192 0 1 0
0.201469 -0.0708194 0.617061 0.415382 0.320413 0.851348
0.132814 -0.0678572 0.643801 0 1 0
-0.0371958 -0.109874 0.741085 -0.707115 -0.707098 0.00086244
-0.0191681 -0.0353803 0.0985349 -0.706487 0.706388 -0.0434938
-0.115117 -0.0960148 0.662488 0.963413 0.268008 -0.002598
-0.148584 -0.0860255 0.594571 0.964783 -0.258537 -0.0485055
-0.362946 -0.0830687 0.51778 0 1 0
0.037877 -0.0521657 0.263658 0.965525 0.258649 -0.0293763
-0.0239749 -0.103551 0.214179 -0.696601 -0.696926 -0.170416
-0.168237 -0.0785814 0.5692 -0.162215 -0.516013 0.84108
-0.0371911 -0.110176 0.592813 -0.707103 -0.707107 0.00222844
0.0807997 -0.0895028 0.466513 0.612824 -0.758124 0.222922
-0.0103625 -0.00258945 0.11328 -0.996696 0.075161 0.0307831
0.00938771 -0.125173 0.438645 0.258806 -0.965929 0.00100237
0.104005 -0.0650969 0.133712 0.575071 -0.020349 0.81785
-0.045848 -0.0975418 0.790559 -0.965923 -0.258831 -5.93033e-06
-0.120353 -0.0678572 0.632858 0 -1 0
0.118235 -0.103255 0.68025 -0.963419 -0.267986 0.00262557
0.0697902 -0.0678572 0.662728 0 1 0
-0.090125 -0.0592257 0.125426 0.0128436 0.981696 0.190021
-0.0476744 -0.0648058 0.543438 -0.965922 0.258834 0.000362635
0.0360254 -0.108238 0.781735 0.707115 -0.707098 0.000859818
-0.0121278 -0.0306406 0.0786521 -0.258759 0.965756 -0.0189496
-0.144816 -0.0830687 0.645966 0 1 0
0.0179606 -0.033316 0.614707 0.258801 0.96593 -0.00100707
-0.0195479 -0.0330805 0.539865 -0.258807 0.965928 -0.00100594
0.013098 -0.065193 0.170691 -0.581548 0.71943 0.379767
-0.0240045 -0.116311 0.861948 -0.257653 -0.961243 0.098116
0.00125387 0.0867344 0.134317 -0.997096 0.0694398 0.0312759
0.0654348 -0.0678572 0.639135 0 1 0
6.50715e-05 -0.0719501 0.619317 -0.201358 0.9769 0.0715614
-0.0365792 -0.0451238 0.600009 -0.707085 0.707128 -0.000503916
0.00685869 0.0920887 0.105277 0.997099 -0.0694335 -0.0311753
-0.402856 -0.0830687 0.524098 0 1 0
0.0474742 -0.0811847 0.804505 0.965925 -0.258824 -7.62316e-06
-0.046455 -0.0403252 0.10352 0.00298012 -0.982716 -0.185093
-0.0702031 -0.0678572 0.656843 0 -1 0
-0.126346 -0.0871587 0.630209 0.255338 -0.952199 0.167686
0.236314 -0.0678572 0.589912 0 1 0
-0.133538 -0.0515618 0.0887667 0.0128526 0.981686 0.190072
-0.0241392 -0.0365544 0.84789 -0.258026 0.963161 0.0757909
-0.0308169 -0.10699 0.288097 -0.704882 -0.705043 -0.0778174
-0.0116576 -0.0830687 0.703161 0 -1 0
-0.0887022 -0.0834563 0.445495 -0.946407 -0.322976 -0.000599888
0.0158256 -0.100629 0.186895 0.253687 -0.947113 -0.196517
-0.130113 -0.0587118 0.125473 0.0128247 0.981688 0.190064
0.0435321 -0.0958936 0.699867 0.965925 -0.258824 -7.62316e-06
-0.00561202 -0.010196 0.138518 0.996696 -0.0751628 -0.0307945
-0.00867675 -0.0450677 0.171447 -0.980283 -0.182047 0.0768395
-0.0442335 -0.0527511 0.637368 -0.707103 0.707111 -0.000505943
-0.09426 -0.0491877 0.0937865 -0.0221372 -0.649459 0.760074
0.362247 -0.0720124 0.538643 0.179328 0.981721 -0.0637601
-0.0608052 -0.0678572 0.61462 0 -1 0
-0.156232 -0.0830687 0.595175 0 1 0
0.0304558 -0.0729084 0.183582 0.543623 -0.00439679 0.839318
-0.0359139 -0.0568864 0.109675 0.0128588 0.981697 0.190014
-0.161757 -0.0533746 0.100041 0.0128392 0.981694 0.190029
0.0479492 -0.0761442 0.503824 0.965927 0.258809 -0.00136366
0.0615654 -0.0864346 0.356979 0.141885 -0.902821 -0.405936
-0.121018 -0.0882794 0.653159 0.977369 0.206598 -0.045469
0.0235176 -0.108478 0.26044 0.704874 -0.705051 -0.0778207
0.00192147 -0.0293762 0.425279 0.258826 0.96592 -0.00273009
-0.0526984 -0.0551192 0.10168 0.0128415 0.981693 0.190037
-0.00332769 0.0231687 0.12935 -0.997098 0.0694312 0.031215
0.0494303 -0.0676506 0.147112 -0.0740645 -0.975254 -0.208314
-0.00422834 -0.0841095 0.982095 -0.731882 0.197334 0.652233
-0.0119805 -0.0570718 0.100857 -0.980278 -0.182073 0.0768366
-0.00166414 -0.106992 0.948458 -0.248636 -0.927529 0.279052
-0.0497752 -0.0828863 0.800334 -0.965923 -0.258831 -5.93033e-06
0.0305828 -0.0416715 0.719315 0.707124 0.707088 -0.00187552
-0.00399096 -0.102476 0.961396 -0.248636 -0.927529 0.279052
0.00110761 -0.0222595 0.175905 0.9971 -0.0694133 -0.031213
0.030885 -0.0966084 0.225303 0.696593 -0.696934 -0.170413
-0.131782 -0.0678572 0.641757 0 -1 0
0.0681064 -0.0676507 0.158634 0.556336 -0.0157818 0.830807
0.0534067 -0.0501812 0.136934 0.0740366 0.975255 0.208316
0.0153672 -0.0328647 0.339141 0.258829 0.965903 0.00624613
-0.018417 -0.0542264 0.148696 -0.471203 -0.826932 -0.306841
-0.131349 -0.105005 0.634531 -0.224205 -0.871093 -0.436955
-0.0359297 -0.0454658 0.325988 -0.707097 0.707084 -0.00679719
0.0178397 -0.0425331 0.11377 0.0740304 0.975254 0.208324
-0.0512165 -0.0780032 0.512114 -0.965924 0.258823 -0.00136298
-0.0183631 -0.0327111 0.589782 -0.258807 0.965928 -0.00100594
-0.0354145 -0.0439009 0.660929 -0.707107 0.707104 -0.00187597
-0.106549 -0.0404045 0.109352 -0.0128747 -0.981705 -0.189975
-0.144952 -0.0678572 0.624488 0 -1 0
-0.0634262 -0.0629862 0.413844 0.658054 0.752963 -0.00355692
0.231303 -0.0986311 0.627568 -0.968399 0.249391 -0.0025977
-0.0320946 -0.115409 0.549518 -0.707115 -0.707095 0.00223149
0.00730572 -0.10974 0.219809 0.253679 -0.947116 -0.196515
-0.0307108 -0.0694958 0.12972 -0.949796 -0.254836 -0.181512
-0.0119496 -0.0480939 0.92004 -0.244304 0.912452 0.328248
-0.0888557 -0.0830194 0.45222 -0.946389 -0.323029 -0.000621733
0.130404 -0.0640181 0.11767 0.474373 -0.0726532 0.877321
-0.0784486 -0.0778014 0.466912 -0.946941 0.187218 0.261251
-0.0467071 -0.0614144 0.466534 -0.965922 0.258831 -0.00136152
-0.0409227 -0.0500788 0.365528 -0.707097 0.707084 -0.00679719
-0.0723423 -0.0414251 0.112312 -0.0128639 -0.981709 -0.189954
-0.244896 -0.0836852 0.624151 -0.262269 0.94295 0.205086
-0.323083 -0.0830687 0.542418 0 1 0
0.0464662 -0.0719603 0.371678 0.965524 0.258651 -0.0293765
-0.0152873 -0.112848 0.255391 -0.257708 -0.961955 -0.0907159
0.157224 -0.0830687 0.628113 0 -1 0
0.00327788 -0.0329701 0.863979 0.25801 0.963165 0.0757944
0.0348879 -0.0471134 0.333055 0.707125 0.707056 -0.00679623
0.0141907 -0.0830687 0.700851 0 -1 0
-0.00435497 0.0172589 0.112193 0.996696 -0.0751655 -0.0307809
0.00247755 -0.108106 0.205704 0.253679 -0.947116 -0.196515
-0.0239166 -0.0775505 0.951302 -0.868328 0.233518 0.437579
-0.13652 -0.0718578 0.647803 0.418059 -0.327661 -0.847269
-0.0184917 -0.047302 0.91297 -0.244304 0.912452 0.328248
-0.129725 -0.0678572 0.603684 0 -1 0
0.000441103 0.0567148 0.171514 -0.899127 0.30938 0.309604
0.246122 -0.112688 0.642886 0.267991 -0.963413 0.00401902
0.0403035 -0.0922593 0.302109 0.964419 -0.258511 -0.0553875
-0.0237535 -0.0536502 0.155339 -0.47121 -0.826938 -0.306814
0.0276849 -0.0850966 0.165143 0.696599 -0.696929 -0.170414
-0.374631 -0.0830687 0.536033 0 1 0
-0.0153322 -0.0696809 0.174382 0.0128482 0.981695 0.190025
-0.120158 -0.0830687 0.615981 0 1 0
-0.0576549 -0.0622672 0.170702 0.495168 -0.168828 -0.852235
-0.0405492 -0.0678572 0.645286 0 -1 0
0.00539726 -0.0297916 0.701227 0.25882 0.965923 -0.00237664
-0.104912 -0.0461183 0.13876 -0.0128467 -0.981691 -0.190044
-0.00119472 -0.105114 0.954792 0.248642 -0.927528 0.279051
0.0421314 -0.0986126 0.820215 0.962053 -0.25761 0.0899511
0.028547 -0.0518153 0.129116 0.960292 0.257089 -0.108374
-0.134308 -0.0830687 0.620703 0 1 0
-0.122625 -0.0678572 0.599681 0 -1 0
0.253852 -0.107158 0.608322 0.701136 -0.688118 -0.186824
0.0420358 -0.0540429 0.814339 0.962472 0.258062 0.083969
-0.0435983 -0.0638397 0.258288 -0.965523 0.258653 -0.0293777
-0.0171396 -0.0320492 0.762212 -0.258807 0.965926 -0.00237589
0.0367297 -0.0483569 0.431348 0.707107 0.707103 -0.00223153
0.0262132 -0.11808 0.756741 0.707115 -0.707098 0.000859818
-0.0807467 -0.0830687 0.671418 0 1 0
-0.0477355 -0.0649972 0.51505 -0.965922 0.258831 -0.00136152
-0.0301959 -0.0568763 0.909763 -0.671808 0.672388 0.310756
0.0559788 -0.0830687 0.62634 0 -1 0
-0.000717252 -0.0291919 0.211207 0.960761 -0.277227 0.00912745
0.0977036 -0.0830687 0.612671 0 -1 0
0.0215947 -0.0345792 0.449591 0.258837 0.965917 -0.00272956
-0.0223577 -0.0338918 0.503788 -0.258807 0.965925 -0.00273069
0.117323 -0.0678572 0.611167 0 1 0
-0.024005 -0.034396 0.237017 -0.707101 0.70708 -0.00679741
-0.0181648 -0.096411 0.166029 -0.253678 -0.947116 -0.196518
0.0790637 -0.0785179 0.588759 -0.174884 0.517314 -0.837736
-0.05045 -0.0752838 0.629026 -0.965922 0.258834 0.000362635
0.305474 -0.0830687 0.556177 0 -1 0
-0.0186279 -0.0326661 0.673537 -0.258807 0.965926 -0.00237589
0.00311065 -0.0775224 0.702443 -0.322256 0.939697 0.114545
-0.229339 -0.0678572 0.576437 0 -1 0
-0.0664869 -0.047481 0.143202 -0.0128187 -0.981691 -0.190046
0.0327452 -0.0830687 0.638967 0 -1 0
-0.00990021 -0.117511 0.887234 -0.257653 -0.961243 0.098116
-0.030972 -0.116067 0.766463 -0.707104 -0.70711 0.000859838
-0.0114259 -0.0830687 0.657276 0 1 0
-0.0166772 -0.123766 0.555512 -0.258806 -0.965926 0.00273356
0.038255 -0.105972 0.811578 0.707115 -0.707098 0.000859818
-0.0484787 -0.0678563 0.498743 -0.965922 0.258831 -0.00136152
-0.0818814 -0.0850185 0.374081 -0.850495 -0.291174 -0.438037
-0.00601149 0.0532274 0.117865 -0.996695 0.0751782 0.0307812
0.237802 -0.0885068 0.647874 -0.268183 0.963363 -0.00309019
0.0814069 -0.0678572 0.616449 0 1 0
0.135214 -0.112005 0.674387 0.268201 -0.963355 0.00392085
0.0316557 -0.0522722 0.154454 0.0740557 0.975253 0.20832
-0.042649 -0.0513877 0.473034 -0.707107 0.707103 -0.00222947
0.0766263 -0.0678572 0.628574 0 1 0
-0.00409911 -0.0240984 0.221423 0.996696 -0.0751614 -0.0307911
-0.149965 -0.0507213 0.085537 0.0128376 0.981692 0.190043
0.120328 -0.0678572 0.640458 0 1 0
0.0473914 -0.048425 0.0924791 0.0440635 0.830384 -0.555446
0.12317 -0.110647 0.659065 -0.700272 -0.713876 -0.000691134
0.00163481 -0.0287052 0.733038 0.258801 0.965928 -0.00237507
-0.0932822 -0.067886 0.602126 -0.0102553 -0.999314 0.0355733
0.0268481 -0.105097 0.259977 0.70488 -0.705045 -0.0778218
0.00587224 -0.11971 0.309242 0.25771 -0.961954 -0.0907158
-0.0450699 -0.055123 0.569967 -0.965925 0.258822 0.000360256
-0.00256343 0.0150248 0.17188 -0.997098 0.0694335 0.0312135
-0.0311934 -0.0671199 0.162224 0.0128458 0.981695 0.190027
-0.0485198 -0.0677403 0.749435 -0.965922 0.25883 -0.00100518
0.0122358 -0.0676518 0.160338 -0.0740504 -0.975256 -0.208309
-0.0418512 -0.10579 0.472623 -0.707115 -0.707098 0.000506428
0.0336784 -0.0446405 0.76711 0.707124 0.707088 -0.00187552
-0.0195586 -0.033057 0.565221 -0.258807 0.965928 -0.00100594
-0.0120953 -0.0305052 0.22244 -0.258808 0.965916 0.00488375
0.253794 -0.091601 0.622983 0.700585 0.713561 -0.00342869
-0.0382565 -0.0408505 0.106441 0.00298012 -0.982716 -0.185093
-0.0450719 -0.0554384 0.442516 -0.965922 0.258831 -0.00136152
-0.00705879 0.0429581 0.109038 -0.996696 0.0751498 0.0308096
0.0509568 -0.0678572 0.617383 0 1 0
0.0199451 -0.0676595 0.157633 -0.0740504 -0.975256 -0.208309
0.0305007 -0.114045 0.613363 0.707113 -0.707097 0.00222842
-0.0792353 -0.0635308 0.469011 -0.315639 0.925373 0.209897
-0.0483826 -0.0812502 0.343386 -0.964416 -0.258522 -0.0553883
-0.0266166 -0.0404865 0.136594 -0.70648 0.706396 -0.0434926
0.231818 -0.0966885 0.637737 -0.96835 0.249593 0.00163893
-0.0344143 -0.0473819 0.140522 -0.0128667 -0.981695 -0.190025
0.0110075 -0.124792 0.387639 0.258822 -0.965925 0.000999299
0.00220703 0.00681667 0.146348 0.997098 -0.0694276 -0.0312297
-0.00809411 -0.0362629 0.109261 -0.9971 0.0694137 0.0312054
0.140603 -0.0997696 0.705452 -0.949989 -0.264072 0.166691
-0.188409 -0.0678572 0.597192 0 -1 0
0.147074 -0.0678572 0.604717 0 1 0
-0.0055115 -0.0347258 0.00622548 -0.833778 0.222666 -0.505207
-0.0138768 -0.124488 0.374807 -0.257716 -0.961953 -0.0907145
0.0135559 -0.0699161 0.0786525 0.678203 -0.67874 -0.281696
-0.046023 -0.0886816 0.336988 -0.964416 -0.258522 -0.0553883
0.032948 -0.0825668 0.638419 -0.32061 -0.939697 -0.119077
-0.028371 -0.0830687 0.663637 0 1 0
0.0283575 -0.116384 0.551117 0.707105 -0.707105 0.00223048
-0.0216642 -0.0726506 0.68313 -0.200331 -0.976899 -0.0744034
-0.0002559 0.109003 0.114422 -0.976905 0.213623 0.00477952
-0.0971947 -0.059101 0.125259 0.0128319 0.981689 0.190059
0.0946438 -0.0830687 0.63664 0 -1 0
-0.00413351 0.0777662 0.103233 -0.785578 -0.0219104 -0.618375
0.129527 -0.0713243 0.585189 -0.142585 0.717041 -0.682291
-0.0338442 -0.0492071 0.878042 -0.704829 0.704988 0.0787909
0.0136827 -0.0413169 0.897861 0.244344 0.91244 0.328253
0.0249625 -0.0367312 0.821199 0.704833 0.704984 0.0787898
0.0381052 -0.0496322 0.463112 0.707107 0.707103 -0.00223151
-0.0181961 -0.0936001 0.152523 -0.253693 -0.947112 -0.196514
-0.0392557 -0.107753 0.371448 -0.704864 -0.70506 -0.0778223
0.0797203 -0.0678572 0.636227 0 1 0
-0.131546 -0.109547 0.709334 0.247996 0.962508 0.109893
0.281516 -0.0770153 0.545925 -0.17814 0.687001 -0.704483
-0.247401 -0.0944562 0.580256 -0.850545 -0.237646 -0.469146
0.0253719 -0.119109 0.633797 0.707113 -0.707097 0.00222842
-0.00932002 -0.0438976 0.106889 -0.471204 -0.826933 -0.306837
-0.0307749 -0.0830687 0.689012 0 1 0
-0.112297 -0.0830687 0.633555 0 1 0
-0.0480763 -0.0898581 0.532806 -0.965922 -0.25883 0.00136113
-0.0839358 -0.0830687 0.60916 0 1 0
0.00156988 -0.0290259 0.516705 0.258826 0.965923 -0.00100363
0.232666 -0.106403 0.616479 -0.963419 -0.267994 -0.00154864
0.0245234 -0.0376016 0.244313 0.707079 0.707102 -0.00679376
-0.0402658 -0.0478243 0.143203 -0.0128479 -0.981692 -0.19004
-0.0059736 -0.0795103 0.693193 -0.322261 0.939697 0.114534
-0.0768645 -0.0809406 0.46744 -0.635082 -0.726189 0.263286
0.0430486 -0.0983737 0.480637 0.965928 -0.258812 -0.000362873
-0.0429752 -0.104058 0.771045 -0.707115 -0.707098 0.00086244
-0.0010272 -0.030228 0.212361 0.960761 -0.277227 0.00912745
-0.032006 -0.0406674 0.49754 -0.707107 0.707103 -0.00223151
0.0247074 -0.0359466 0.662446 0.707124 0.707088 -0.00187552
-0.148115 -0.0854455 0.621543 0.965969 -0.258658 8.2665e-05
0.000102688 0.0569181 0.163871 -0.997098 0.0694356 0.03121
0.137707 -0.10173 0.699446 0.82966 -0.212897 0.51608
0.0400493 -0.0677435 0.216525 0.963583 0.25805 -0.0701222
0.0342464 -0.0515768 0.196279 0.963585 0.258045 -0.0701215
-0.0374077 -0.0463113 0.420711 -0.707103 0.707107 -0.00222896
0.0113296 -0.0830687 0.687817 0 -1 0
-0.232287 -0.0913686 0.593935 0.699326 0.712863 -0.0526287
-0.00896402 -0.0300286 0.0666406 -0.258759 0.965756 -0.0189496
0.196883 -0.0804638 0.564342 -0.190939 0.513062 -0.836845
-0.103718 -0.075197 0.665275 0.417161 -0.32914 -0.847139
-0.0253261 -0.0550065 0.0814933 -0.943248 -0.253175 -0.214909
0.0769329 -0.0885843 0.376997 0.617207 -0.764339 -0.186656
0.113583 -0.0678572 0.656235 0 1 0
-0.0385868 -0.108492 0.733675 -0.707115 -0.707098 0.00086244
0.142633 -0.104496 0.667075 0.968365 -0.249534 -0.00163742
0.286784 -0.0830687 0.565238 0 -1 0
0.0226828 -0.0682363 0.63226 -0.20136 0.976899 0.0715732
-0.0249275 -0.0696771 0.652875 -0.200329 -0.976899 -0.0744039
-0.0430474 -0.0518379 0.456602 -0.707107 0.707103 -0.00222947
0.0376117 -0.0543553 0.235659 0.965525 0.258649 -0.0293763
0.0463164 -0.0855041 0.754841 0.965928 -0.258812 -9.59723e-06
-0.150336 -0.0829616 0.618557 0.259228 0.965814 -0.00228834
-0.161746 -0.0544828 0.105765 0.0128514 0.981694 0.190032
-0.037386 -0.0618612 0.135474 0.0128449 0.981698 0.19001
0.252553 -0.0962892 0.656974 -0.950038 -0.263901 0.166682
-0.0053628 -0.0362322 0.210139 0.996696 -0.0751536 -0.0307932
-0.107074 -0.0830687 0.601275 0 1 0
0.0141529 -0.0830687 0.666712 0 -1 0
-0.134574 -0.0830687 0.640452 0 1 0
-0.0239454 -0.0852928 0.142978 -0.685764 -0.686229 -0.242524
-0.213934 -0.0762639 0.56048 -0.168979 -0.701786 0.692057
0.0330059 -0.111302 0.744392 0.707115 -0.707098 0.000859818
-0.137175 -0.0775226 0.57584 -0.162215 -0.516013 0.84108
-0.00447526 -0.0201198 0.188978 -0.9971 0.0694175 0.0311919
0.244441 -0.0678572 0.586554 0 1 0
-0.0393827 -0.0489799 0.319638 -0.707097 0.707084 -0.00679719
-0.0300905 -0.0435073 0.143959 -0.70648 0.706396 -0.0434926
0.14337 -0.100132 0.654944 0.959667 -0.247531 -0.133293
-0.0310215 -0.0397929 0.462701 -0.707107 0.707103 -0.00223151
-0.00825098 -0.10707 0.204601 -0.253678 -0.947116 -0.196518
0.0423122 -0.0550515 0.520676 0.965927 0.258813 0.000363063
0.00529221 -0.126171 0.522701 0.258806 -0.965925 0.00272957
-0.0378769 -0.046753 0.429443 -0.707103 0.707107 -0.00222896
-0.0357207 -0.111321 0.763415 -0.707115 -0.707098 0.00086244
0.0467778 -0.0838043 0.648421 0.965927 -0.25881 0.00136389
-0.00167329 -0.127383 0.743283 -0.258791 -0.965932 0.00135551
0.00558604 -0.0830687 0.699123 0 -1 0
-0.250068 -0.0830687 0.557025 0 1 0
-0.000739891 -0.12735 0.700815 0.258813 -0.965926 0.00135551
0.0135201 -0.113797 0.268267 0.257708 -0.961955 -0.0907155
-0.0459998 -0.0974678 0.559364 -0.965922 -0.25883 0.00136113
0.00666176 -0.0302678 0.634621 0.25882 0.965925 -0.00100303
0.0563303 -0.0694063 0.473858 0.914907 -0.352016 0.19756
0.292748 -0.0777735 0.577291 0.397681 0.166258 0.902335
-0.00626226 -0.0730827 0.614606 -0.163008 0.760348 -0.628728
0.0183415 -0.074941 0.105637 0.685765 -0.686228 -0.242525
0.0406334 -0.0988869 0.338787 0.964419 -0.258511 -0.0553875
0.00242634 0.116884 0.104715 -0.9971 0.0694115 0.0312049
0.0457087 -0.0675527 0.746075 0.965924 0.258823 -0.00101064
0.083468 -0.0830687 0.604835 0 -1 0
0.255306 -0.0969096 0.666621 0.943928 0.262845 0.19978
-0.073066 -0.0678572 0.639731 0 -1 0
0.124838 -0.0968096 0.698067 -0.559703 0.550079 0.619795
-0.0197904 -0.0333688 0.44546 -0.258847 0.965914 -0.00272718
-0.0496146 -0.0678572 0.635723 0 -1 0
0.241464 -0.0830687 0.573313 0 -1 0
-0.00389147 0.00153549 0.16557 0.996695 -0.0751665 -0.030794
-0.0217349 -0.052711 0.0630272 -0.943248 -0.253175 -0.214909
-0.00170667 -0.0305843 0.848396 -0.258046 0.963155 0.0757936
-0.0169851 -0.0752703 0.094937 -0.685785 -0.68621 -0.242516
-0.0469748 -0.0692092 0.835936 -0.96247 0.258069 0.083974
0.0883479 -0.0762222 0.588768 -0.145552 0.713125 -0.685761
0.213509 -0.0830687 0.59167 0 -1 0
0.133027 -0.0658007 0.108737 -0.0740716 -0.975245 -0.208351
-0.241516 -0.073626 0.556052 -0.188096 -0.686937 0.701953
-0.00696455 -0.0160431 0.109015 0.996696 -0.0751547 -0.0308189
-0.00368865 -0.0595238 0.134246 -0.581529 0.719439 0.379777
0.0672258 -0.060926 0.39391 -0.154922 0.985343 -0.0714098
0.0138611 -0.123429 0.707805 0.258786 -0.965934 0.00136017
-0.0305594 -0.117103 0.442665 -0.707084 -0.70713 0.000498246
0.0811492 -0.0767146 0.375123 0.887783 0.138751 -0.43885
0.0283335 -0.116526 0.507354 0.707105 -0.707108 0.000501276
0.0314026 -0.0436562 0.330117 0.707079 0.707102 -0.00679376
0.0341843 -0.0557537 0.0968328 -0.0740461 -0.975252 -0.208328
0.133846 -0.0817283 0.618949 0.994912 0.081095 -0.0597827
-0.0111991 -0.0460345 0.129722 -0.994839 -0.0823023 0.0593455
0.231123 -0.100778 0.645472 -0.963423 -0.267984 -0.000687321
-0.0475615 -0.0644394 0.497628 -0.965922 0.258831 -0.00136152
-0.0231058 -0.121654 0.733501 -0.258819 -0.965925 0.00136015
0.000580803 -0.127021 0.683456 0.258813 -0.965926 0.00135551
-0.0556253 -0.0554018 0.103338 0.0128415 0.981693 0.190037
-0.0156709 -0.0312478 0.12637 -0.258828 0.965906 -0.00573194
-0.0413569 -0.047784 0.143069 -0.0128479 -0.981692 -0.19004
-0.0284279 -0.0398956 0.198383 -0.706948 0.706903 -0.0226327
-0.00732399 -0.0227737 0.113811 0.996695 -0.075177 -0.0307799
-0.00228833 -0.0350387 0.198992 0.960762 -0.277223 0.00912552
0.0546539 -0.0680366 0.437428 -0.933187 0.359388 0.00137785
0.0307096 -0.0420682 0.52005 0.707088 0.707126 -0.000501344
-0.00856216 -0.0330012 0.191997 -0.994836 -0.0823318 0.0593546
0.236774 -0.0892337 0.660579 -0.71379 0.700355 -0.00257125
0.300147 -0.0678572 0.559099 0 1 0
0.0316614 -0.10434 0.873891 0.703987 -0.703813 0.0951276
-0.0101659 -0.0830687 0.657139 0 -1 0
-0.0299245 -0.117559 0.556118 -0.707115 -0.707095 0.00223149
0.0215618 -0.0613583 0.932165 0.671771 0.67242 0.310764
-0.00851086 0.0144701 0.131573 -0.996696 0.0751538 0.0307968
-0.046246 -0.0594422 0.519746 -0.965922 0.258834 0.000362635
-0.00943783 -0.029611 0.186404 -0.258842 0.965907 0.00487827
0.241812 -0.0678572 0.577994 0 1 0
0.112021 -0.0821818 0.663766 0.420726 0.204129 0.883924
0.290182 -0.0830687 0.571392 0 -1 0
0.0398672 -0.0830687 0.61199 0 -1 0
0.256325 -0.103862 0.6454 0.968352 -0.249588 -0.000730685
-0.190337 -0.0771166 0.565377 -0.168979 -0.701786 0.692057
0.0113927 -0.0505875 0.925335 0.24434 0.912434 0.328271
-0.00344937 -0.0231767 0.228561 -0.997099 0.0694328 0.0311908
-0.00825198 0.00779975 0.156236 -0.996695 0.0751716 0.0308015
0.288999 -0.0830687 0.568296 0 -1 0
-0.079203 -0.0678572 0.673068 0 -1 0
-0.22836 -0.0981802 0.629557 0.963359 0.268211 0.00149363
-0.0017347 -0.0841701 0.984675 -0.196097 0.733088 0.651252
-0.0411343 -0.0492799 0.789536 -0.707134 0.707077 -0.00187592
0.00281934 -0.0567508 0.138959 -0.581567 0.719387 0.379818
0.0149009 -0.123671 0.4631 0.258822 -0.965925 0.000999299
0.0419128 -0.0578245 0.82737 0.962472 0.258062 0.083969
-0.0467307 -0.0611606 0.724458 -0.965922 0.25883 -0.00100518
0.129415 -0.086862 0.611248 -0.707296 -0.706918 0.000646725
-0.0254115 -0.121464 0.542185 -0.258791 -0.96593 0.0027307
-0.0427398 -0.0521251 0.341693 -0.707097 0.707084 -0.00679709
-0.045958 -0.0971294 0.683921 -0.965925 -0.258823 -4.58086e-06
-0.0893321 -0.0406418 0.109414 -0.0128232 -0.981684 -0.190086
-0.252914 -0.0715026 0.589831 0.400657 -0.270215 -0.875476
-0.0403176 -0.0489485 0.817817 -0.704862 0.704956 0.0787854
0.131984 -0.0757754 0.652559 0.40605 0.32768 0.853082
-0.125388 -0.0799316 0.653866 0.244215 0.94779 0.20507
0.0397349 -0.0576462 0.276467 0.965525 0.258649 -0.0293763
-0.00276391 -0.0285756 0.546886 -0.258824 0.965924 -0.00100303
0.0481866 -0.0771616 0.653045 0.965928 0.258811 0.000363393
-0.0256149 -0.121587 0.416342 -0.258806 -0.965929 0.000998187
0.0412326 -0.0678572 0.660056 0 1 0
-0.00459495 -0.00888753 0.168242 0.996696 -0.075164 -0.0307944
-0.0983418 -0.0830687 0.656023 0 1 0
0.110232 -0.0678572 0.657428 0 1 0
0.00233822 -0.0830687 0.691972 0 1 0
-0.252222 -0.0678572 0.578663 0 -1 0
0.169149 -0.0830687 0.590391 0 -1 0
0.00313056 0.00274882 0.184909 0.997098 -0.0694258 -0.0312188
0.231295 -0.101475 0.634449 -0.963419 -0.267986 0.00256188
-0.0496436 -0.0660873 0.17574 0.514071 -0.0443398 -0.856601
-0.0752885 -0.060758 0.160037 0.515703 -0.0435912 -0.855658
-0.125768 -0.0780382 0.620126 0.249405 0.968237 0.0177065
0.0030881 -0.0565054 0.138905 -0.581567 0.719387 0.379818
-0.0393926 -0.108279 0.430795 -0.707115 -0.707098 0.000506428
-0.0345324 -0.0430514 0.636096 -0.707107 0.707106 -0.000503882
-0.0530065 -0.0733511 0.426826 0.925894 0.316484 0.206296
-0.00491568 -0.00553976 0.0990638 0.572518 -0.0335874 -0.819204
0.0474771 -0.0818638 0.493526 0.965928 -0.258809 -0.000363414
0.166803 -0.0642219 0.0978649 0.478849 -0.0677868 0.875276
-0.0324438 -0.0988772 0.906068 -0.691621 -0.691171 0.209626
0.0105453 -0.124902 0.400637 0.258822 -0.965925 0.000999299
0.0677374 -0.0604765 0.413042 -0.155295 0.98786 -0.00398467
0.0306081 -0.113504 0.813877 0.703999 -0.703802 0.095122
-0.0470424 -0.0930976 0.650384 -0.965924 -0.25882 0.00136298
0.0473888 -0.0818561 0.585422 0.965928 -0.258808 0.00136366
-0.0699445 -0.061012 0.409302 0.193471 0.981098 -0.00398611
0.0411333 -0.052456 0.570343 0.707083 0.707131 -0.000503941
0.0328947 -0.0870475 0.194417 0.696599 -0.696929 -0.170414
-0.00553186 -0.0364934 0.191646 -0.997099 0.069432 0.0311998
-0.00550712 -0.119427 0.880003 -0.257653 -0.961243 0.098116
0.0367638 -0.107574 0.720164 0.707113 -0.7071 0.000860217
-0.195658 -0.0830687 0.57115 0 1 0
-0.00934358 -0.0592403 0.114406 0.915652 -0.400523 0.0340964
-0.0732359 -0.0955145 0.404233 -0.193459 -0.981108 -0.000187214
0.142874 -0.0830687 0.612783 0 -1 0
0.326905 -0.079624 0.562983 0.38852 0.148424 0.909408
-0.00378901 -0.0288502 0.547007 -0.258824 0.965924 -0.00100303
0.0725644 -0.0678572 0.651473 0 1 0
-0.0444304 -0.0445912 0.12678 -0.0128715 -0.9817 -0.190001
-0.0128667 -0.117144 0.883042 -0.257653 -0.961243 0.098116
-0.235913 -0.109771 0.603816 0.261534 -0.940487 -0.216987
-0.00392607 0.0202885 0.116633 -0.9971 0.0694312 0.031173
0.00444279 0.0550669 0.157741 0.967624 0.138774 0.210821
-0.0379195 -0.0830687 0.688817 0 1 0
0.00278064 -0.00112531 0.182348 0.997098 -0.0694258 -0.0312188
-0.0181118 -0.0513694 0.0455447 -0.943248 -0.253175 -0.214909
0.0515509 -0.0842848 0.398345 -0.383811 -0.923411 0.000208069
-0.00475825 0.0694192 0.118901 -0.996696 0.075163 0.0307823
-0.231745 -0.108721 0.617912 0.713876 -0.700272 -0.000764808
-0.0745986 -0.0678572 0.613424 0 -1 0
0.000160764 -0.0259703 0.216626 0.960758 -0.27724 0.00910991
0.0292786 -0.101529 0.89867 0.691596 -0.691197 0.209622
0.00703757 -0.0830687 0.666416 0 -1 0
0.0410172 -0.0518922 0.799919 0.707107 0.707104 -0.00187334
0.401631 -0.0830687 0.52583 0 -1 0
-0.0579595 -0.0680864 0.385324 0.657971 0.752902 -0.0145591
0.000213154 0.111205 0.111863 -0.976909 0.213605 0.00460933
-0.0449682 -0.101293 0.564007 -0.965922 -0.25883 0.00136113
-0.0492387 -0.0712257 0.397531 -0.965924 0.258823 -0.00136298
0.0918771 -0.0558995 0.0881515 -0.00533052 0.665744 -0.746161
0.082834 -0.0678572 0.608931 0 1 0
0.00227317 -0.0547824 0.133797 -0.389339 0.854453 0.343984
-0.0885563 -0.0839874 0.406155 -0.946406 -0.322977 -0.00146845
0.0389912 -0.050947 0.361125 0.707097 0.707084 -0.00679712
0.0436192 -0.059532 0.803104 0.965924 0.258823 -0.00101064
-0.127212 -0.110393 0.70696 0.248117 0.962472 0.109934
0.0430062 -0.0580043 0.445373 0.965927 0.258812 -0.00136427
0.000968469 0.069734 0.1564 0.996693 -0.075186 -0.0308179
-0.00516939 0.0539845 0.14327 -0.996695 0.0751728 0.0308001
0.136931 -0.0884578 0.68358 0.249538 0.968365 0.000199537
-0.0405406 -0.062591 0.139457 0.0128338 0.981696 0.190022
-0.240696 -0.0846387 0.576115 -0.226086 -0.879036 -0.41974
-0.00548416 0.0633157 0.110303 -0.996695 0.0751697 0.0307977
-0.00309896 -0.126978 0.759544 -0.258791 -0.965932 0.00135551
0.0612552 -0.0493923 0.0929315 0.100518 0.81236 -0.574427
-0.046652 -0.0946394 0.634306 -0.965924 -0.25882 0.00136298
0.0628059 -0.0612483 0.41389 -0.155295 0.98786 -0.00398489
0.0471452 -0.0511537 0.143712 0.0740332 0.975258 0.208307
-0.0463545 -0.0604719 0.395624 -0.965924 0.258823 -0.00136298
-0.00831798 -0.035098 0.0995158 -0.9971 0.0694203 0.0311938
-0.0175628 -0.112982 0.263266 -0.257708 -0.961955 -0.0907159
-0.0170001 -0.0757843 0.964085 -0.868348 0.233483 0.437559
0.00627143 -0.0302782 0.523922 0.258826 0.965923 -0.00100363
-0.00945546 -0.0830687 0.630556 0 1 0
-0.0438204 -0.0543355 0.826381 -0.962475 0.258053 0.0839688
0.0481223 -0.079486 0.515673 0.965928 -0.258808 0.00136366
0.00621387 0.0732498 0.126583 0.997099 -0.0694314 -0.0311768
-0.0449062 -0.0546039 0.635982 -0.965925 0.258822 0.000360256
-0.251613 -0.0924364 0.655286 -0.714006 0.700135 -0.00257883
-0.00574737 -0.0322471 0.23919 -0.980288 -0.182023 0.0768323
-0.0488361 -0.0869778 0.418792 -0.965925 -0.25882 -0.000360068
0.00993868 -0.0336318 0.0396434 0.705834 0.705716 -0.0613446
0.00356908 0.0282205 0.142252 0.997099 -0.069434 -0.0311894
0.0548806 -0.0677172 0.376505 -0.628359 0.777786 -0.0146055
-0.119706 -0.0830687 0.594272 0 1 0
-0.0112763 -0.0830687 0.645817 0 -1 0
-0.157951 -0.0543367 0.104754 0.0128862 0.981709 0.189951
0.00049467 -0.12591 0.822399 0.257647 -0.961246 0.0981036
-0.00657563 -0.0526381 0.115679 0.960759 -0.277234 0.00910178
0.0466785 -0.0710687 0.772432 0.965924 0.258823 -0.00101064
0.00347229 0.0431737 0.105898 0.997099 -0.0694337 -0.0311862
-0.0776651 -0.0946421 0.409705 -0.193466 -0.981107 -0.000184187
-0.0185536 -0.0328779 0.501866 -0.258807 0.965925 -0.00273069
-0.0332707 -0.0422805 0.387095 -0.70709 0.70712 -0.00222899
-0.0879682 -0.0857082 0.425815 -0.946399 -0.322988 0.00271915
0.0361632 -0.0474145 0.658024 0.707083 0.707128 -0.0018756
0.263513 -0.0830687 0.549915 0 -1 0
0.247332 -0.106904 0.593068 0.24089 -0.866693 -0.436824
-0.179553 -0.0830687 0.575655 0 1 0
-0.0587465 -0.0631328 0.143488 0.0128748 0.981698 0.190008
-0.0306714 -0.116447 0.701024 -0.707104 -0.70711 0.000859838
0.0652765 -0.0830687 0.670608 0 -1 0
-0.195485 -0.0681542 0.573182 -0.171206 -0.697824 0.695507
0.0482076 -0.0766921 0.793755 0.965924 0.258823 -0.00101064
-0.153687 -0.0830687 0.624192 0 1 0
0.0237879 -0.0400641 0.142285 0.70648 0.706395 -0.0434977
0.338583 -0.0678572 0.547567 0 1 0
0.011737 -0.0817725 0.109036 0.248568 -0.928312 -0.276498
-0.0890057 -0.0734234 0.413263 -0.981105 0.193462 -0.00246214
-0.00894123 -0.0579794 0.123278 -0.581571 0.719402 0.379783
0.00663588 -0.0775362 0.0902272 0.248568 -0.928312 -0.276498
0.256388 -0.103658 0.660152 0.968346 -0.249611 -0.000721134
-0.0219353 -0.0566615 0.927156 -0.671795 0.672396 0.310765
-0.283169 -0.0830687 0.545902 0 1 0
0.0254242 -0.098214 0.922318 0.691609 -0.691187 0.209614
0.0388982 -0.0599217 0.868369 0.962472 0.258062 0.083969
0.000795302 -0.0108086 0.140452 0.9971 -0.0694115 -0.0312177
-0.171282 -0.0830687 0.607647 0 1 0
-0.0473087 -0.063409 0.520431 -0.965922 0.258834 0.000362635
-0.00306748 0.0269822 0.194083 -0.945571 0.257876 0.198482
-0.138981 -0.0579658 0.122218 0.0128085 0.981682 0.190097
-0.00757431 -0.0742112 0.665685 -0.200331 -0.976899 -0.0744039
-0.00533187 0.0605249 0.122047 -0.996695 0.0751758 0.0307945
-0.011296 -0.0308077 0.599065 -0.258851 0.965917 -0.00100591
0.0443844 -0.0909433 0.818082 0.962053 -0.25761 0.0899511
-0.00567251 -0.126829 0.514599 -0.258806 -0.965929 0.000998187
-0.0623014 -0.0644488 0.377171 0.658057 0.752828 -0.0145325
0.0435872 -0.0593782 0.811856 0.965924 0.258823 -0.00101064
0.0163915 -0.122714 0.73394 0.258786 -0.965934 0.00136017
-0.0509408 -0.079125 0.42014 -0.965922 -0.258833 -0.000362657
0.0457472 -0.0813907 0.365308 -0.298362 -0.954216 -0.021231
-0.0245636 -0.040344 0.105561 -0.706513 0.706362 -0.0435033
0.0987545 -0.0586717 0.0875426 -0.0740356 -0.975259 -0.208301
-0.0318877 -0.0831976 0.597964 -0.00617995 0.999978 -0.00229526
0.0417728 -0.0593429 0.833641 0.962472 0.258062 0.083969
0.0346748 -0.0459401 0.651507 0.707083 0.707131 -0.000503941
-0.0485063 -0.0828928 0.39423 0.368278 -0.929716 0.000221984
0.00208454 0.0984149 0.134881 -0.997101 0.0694034 0.0311948
-0.0362766 -0.103774 0.308415 -0.704864 -0.70506 -0.0778223
0.0239547 -0.116217 0.334514 0.704874 -0.705051 -0.0778207
0.177081 -0.0830687 0.603544 0 -1 0
0.00651355 -0.0306214 0.0406169 0.258793 0.965747 -0.0189521
0.00212787 0.022296 0.109388 0.997098 -0.0694236 -0.0312377
0.298722 -0.0678572 0.562464 0 1 0
-0.00978744 -0.0267006 0.1802 -0.994839 -0.0822871 0.0593707
-0.0487692 -0.0704704 0.369856 -0.965521 0.258662 -0.0293759
-0.0234338 -0.0342582 0.334604 -0.258839 0.9659 0.00624695
-0.000712892 -0.0284664 0.49745 0.258826 0.96592 -0.00273009
0.0211195 -0.121678 0.611903 0.258806 -0.965925 0.00272957
0.244851 -0.113083 0.632961 0.267991 -0.963413 0.00401902
-0.0121622 -0.0310237 0.614581 -0.258851 0.965917 -0.00100591
-0.0828931 -0.0639377 0.422756 -0.752951 0.658076 0.000807791
0.00933081 -0.0311044 0.517724 0.258826 0.965923 -0.00100363
-0.046171 -0.0830687 0.622015 0 1 0
0.0461481 -0.0861325 0.756535 0.965928 -0.258812 -9.59723e-06
-0.0026786 0.00779057 0.184296 -0.997099 0.0694332 0.0312037
0.082446 -0.0642398 0.119406 -0.0740579 -0.975251 -0.208331
-0.0108304 -0.0379052 0.147176 -0.99484 -0.0822759 0.0593659
0.0277984 -0.039112 0.58366 0.707123 0.70709 -0.000506927
0.16493 -0.0830687 0.629938 0 -1 0
-0.010365 -0.125351 0.373987 -0.257716 -0.961953 -0.0907145
0.0232933 -0.104542 0.226715 0.696593 -0.696934 -0.170413
-0.0449066 -0.0611995 0.324534 -0.965521 0.258662 -0.0293759
-0.00817555 -0.0830687 0.68649 0 1 0
-0.0477245 -0.0652075 0.467257 -0.965922 0.258831 -0.00136152
0.256219 -0.104342 0.615602 0.968351 -0.249586 -0.00161241
0.0403688 -0.051604 0.663998 0.707083 0.707128 -0.0018756
-0.0403803 -0.107181 0.531103 -0.707115 -0.707095 0.00223149
-0.0341656 -0.0423612 0.770519 -0.707107 0.707104 -0.00187597
0.0473668 -0.0735029 0.80696 0.965924 0.258823 -0.00101064
0.249618 -0.107406 0.654452 -0.708435 0.695146 0.122033
-0.097755 -0.0402528 0.105141 -0.0252485 -0.811281 0.584111
-0.0428451 -0.0791083 0.378405 0.981115 -0.193416 -0.00169804
-0.0444879 -0.0531802 0.487758 -0.707107 0.707103 -0.00222947
-0.0447292 -0.0729778 0.873255 -0.96247 0.258069 0.083974
-0.0450887 -0.10083 0.566548 -0.965922 -0.25883 0.00136113
-0.0502848 -0.0747217 0.474945 -0.965924 0.258823 -0.00136298
-0.0479452 -0.0655758 0.754655 -0.965922 0.25883 -0.00100518
-0.188251 -0.0830687 0.60167 0 1 0
-0.00845565 -0.0559653 0.936141 -0.934389 -0.353042 -0.0477345
0.0357334 -0.0821949 0.205867 0.958371 -0.257031 -0.124342
-0.0441944 -0.0653506 0.855945 -0.962475 0.258053 0.0839688
-0.0833773 -0.0830687 0.61148 0 1 0
0.032589 -0.0457211 0.23871 0.707125 0.707056 -0.00679623
-0.0736784 -0.040649 0.108484 -0.000539523 -0.974567 -0.224094
0.0158272 -0.0460353 0.0938958 0.0334018 0.836451 -0.547023
0.0400937 -0.0671778 0.219217 0.963583 0.25805 -0.0701222
-0.0484818 -0.06934 0.370363 -0.965521 0.258662 -0.0293759
0.0906253 -0.0828729 0.674104 0.419967 0.205041 0.884073
0.227435 -0.0830687 0.574574 0 -1 0
0.00294524 -0.0830687 0.653884 0 -1 0
-0.0501371 -0.0818194 0.598895 -0.965924 -0.25882 0.00136298
-0.00179378 0.0307006 0.161601 -0.997099 0.0694193 0.0312162
0.0152268 -0.0710048 0.649071 -0.201361 0.976899 0.0715627
-0.0504463 -0.0809927 0.53677 -0.965924 -0.25882 0.00136298
0.014306 -0.0429866 0.0352768 0.957305 0.256218 -0.133867
-0.0251162 -0.0830687 0.617423 0 -1 0
0.256235 -0.0973155 0.607441 0.961051 0.267362 -0.0699907
-0.0495419 -0.0833039 0.390804 0.368278 -0.929716 0.000221984
-0.0500957 -0.0816886 0.724459 -0.965923 -0.258831 -5.93033e-06
0.041197 -0.0602409 0.301676 0.965525 0.258649 -0.0293763
0.0887557 -0.0678572 0.632974 0 1 0
-0.0166213 -0.0347105 0.850053 -0.258057 0.963152 0.0757961
-0.185695 -0.0683133 0.62186 0.42675 -0.320316 -0.845743
-0.0232631 -0.0402279 0.0863258 -0.706513 0.706362 -0.0435033
0.0529837 -0.0676348 0.396299 -0.202729 0.979229 -0.00350135
0.14172 -0.0957711 0.645024 0.961082 0.267244 -0.0700173
-0.00849641 -0.0354172 0.886693 -0.258046 0.963155 0.0757936
0.0646568 -0.0527825 0.145113 0.0740555 0.975255 0.208309
-0.0228635 -0.068441 0.63109 -0.20033 -0.9769 -0.0743952
-0.0669289 -0.0615723 0.437606 0.193471 0.981106 0.000184204
-0.10408 -0.0830687 0.63758 0 1 0
0.0390095 -0.105865 0.486789 0.707094 -0.70712 0.000504429
0.00149555 0.0138875 0.204875 0.969322 0.146608 0.197283
-0.177158 -0.0830687 0.599062 0 1 0
0.150261 -0.0678572 0.632202 0 1 0
-0.0475017 -0.0917993 0.571411 -0.965922 -0.25883 0.00136113
0.255662 -0.102661 0.605705 0.959644 -0.2476 -0.133331
-0.0013093 -0.0279693 0.816046 0.25801 0.963165 0.0757944
-0.0447301 -0.0537949 0.512509 -0.965922 0.258831 -0.00136152
-0.0493573 -0.071177 0.669493 -0.965925 0.258819 -0.001007
0.0241099 -0.0378081 0.214824 0.70693 0.706922 -0.022628
0.0445802 -0.0788134 0.403761 -0.966498 -0.151482 0.207208
0.313634 -0.0830687 0.549264 0 -1 0
-0.029077 -0.118324 0.582089 -0.707115 -0.707095 0.00223149
-0.0466835 -0.0949755 0.393037 -0.965925 -0.25882 -0.000360068
-0.0304384 -0.0388692 0.681872 -0.707107 0.707104 -0.00187597
0.035821 -0.056029 0.888782 0.927245 0.248986 0.279684
0.0446484 -0.091727 0.694099 0.965928 -0.258812 -9.59723e-06
0.000721092 -0.114682 0.910159 0.254176 -0.948268 0.190215
-0.34319 -0.0830687 0.549624 0 1 0
-0.0317612 -0.0403027 0.60446 -0.707107 0.707106 -0.000503882
-0.0141007 -0.0474867 0.916751 -0.244304 0.912452 0.328248
0.128392 -0.112663 0.663438 -0.249448 -0.968388 -0.000255416
-0.253621 -0.102676 0.639635 -0.963382 -0.26812 0.00262736
0.0339689 -0.0585353 0.166858 0.963585 0.258045 -0.0701215
-0.0097025 -0.108855 0.215081 -0.253678 -0.947116 -0.196518
-0.0275263 -0.120153 0.418045 -0.707084 -0.70713 0.000498246
0.0378716 -0.103594 0.346201 0.70488 -0.705045 -0.0778218
0.0100395 -0.116759 0.886997 0.257647 -0.961246 0.0981036
-0.0867525 -0.0884216 0.421068 -0.65809 -0.752931 0.00354962
-0.0180969 -0.0680192 0.0783766 -0.678223 -0.678724 -0.281687
0.0160661 -0.0330938 0.450985 0.258838 0.965917 -0.00272946
0.0201463 -0.0341896 0.450109 0.258837 0.965917 -0.00272956
-0.233277 -0.0830687 0.576374 0 1 0
0.0157023 -0.0374815 0.879011 0.258053 0.963153 0.0757916
0.235609 -0.105777 0.662673 0.695007 0.708571 0.122034
-0.229128 -0.103697 0.61104 0.959652 -0.247602 -0.133274
0.0184126 -0.0830687 0.628212 0 -1 0
-0.0638275 -0.0873384 0.356929 -0.17668 -0.896681 -0.405892
-0.0433238 -0.0810784 0.594605 -0.195983 -0.528051 0.826288
-0.0166285 -0.0830687 0.625097 0 1 0
0.0266575 -0.118282 0.393762 0.707094 -0.70712 0.000504429
-0.0469738 -0.0622533 0.67676 -0.965925 0.258819 -0.001007
-0.0316116 -0.0401881 0.555206 -0.707107 0.707106 -0.000503871
0.00458816 -0.126471 0.427121 0.258806 -0.965929 0.00100237
-0.0658407 -0.0750863 0.455513 0.537006 0.184777 0.823093
-0.0494374 -0.0712079 0.738328 -0.965925 0.258819 -0.001007
-0.0062454 -0.0294091 0.642643 -0.258824 0.965924 -0.00100303
0.102904 -0.0663435 0.134456 0.575067 -0.0203323 0.817854
-0.0653117 -0.061835 0.456856 0.193455 0.981104 -0.00312513
-0.0781438 -0.0830687 0.634459 0 1 0
0.0258161 -0.116264 0.351801 0.704874 -0.705051 -0.0778207
-0.119161 -0.0903894 0.64422 0.700223 0.713777 -0.0145053
-0.27163 -0.0830687 0.553195 0 1 0
0.0464273 -0.0857293 0.456024 0.965928 -0.258809 -0.000363414
0.0469634 -0.0837837 0.52088 0.965928 -0.258808 0.00136366
-0.0719543 -0.0678572 0.651153 0 -1 0
0.0381631 -0.0771417 0.697563 0.398133 0.344615 0.850136
-0.0398853 -0.0484885 0.5178 -0.707103 0.707111 -0.000505943
-0.00167074 0.0101235 0.212182 -0.997111 0.0732747 0.0199993
-0.0313471 -0.115948 0.615626 -0.707103 -0.707107 0.00222844
0.0268778 -0.0381038 0.667487 0.707124 0.707088 -0.00187552
-0.173756 -0.0830687 0.592665 0 1 0
-0.0503591 -0.0812869 0.41373 -0.965922 -0.258833 -0.000362657
-0.0151313 -0.118768 0.861184 -0.257653 -0.961243 0.098116
-0.0267875 -0.0901392 0.170827 -0.696601 -0.696926 -0.170416
-0.115116 -0.0544724 0.102558 0.0128344 0.981685 0.190081
-0.00663031 -0.0339851 0.223013 -0.994837 -0.082319 0.0593463
0.00374273 -0.0291631 0.776511 0.258801 0.965928 -0.00237507
-0.0648479 -0.0779494 0.455356 0.556645 -0.10808 0.82369
0.0366427 -0.107774 0.654939 0.707113 -0.7071 0.000860217
0.0240561 -0.108017 0.894509 0.691596 -0.691197 0.209622
0.0466817 -0.0841409 0.756788 0.965928 -0.258812 -9.59723e-06
-0.0454824 -0.0910659 0.338703 -0.964416 -0.258522 -0.0553883
-0.00191741 0.0181783 0.188837 0.996694 -0.075174 -0.0308158
-0.0391864 -0.0578901 0.203041 -0.963582 0.258054 -0.0701269
0.00670752 -0.125355 0.700741 0.258786 -0.965934 0.00136017
0.0369291 -0.0642117 0.135455 -0.0740305 -0.975259 -0.208301
-0.0288709 -0.0450679 0.096706 -0.00647295 -0.826327 0.563154
-0.290827 -0.0678572 0.548195 0 -1 0
-0.00495741 -0.126583 0.686417 -0.258791 -0.965932 0.00135551
0.00244948 -0.0830687 0.632482 0 -1 0
-0.0864535 -0.0473418 0.143833 -0.0128433 -0.9817 -0.19
-0.154611 -0.0830687 0.612844 0 1 0
-0.0871844 -0.0879881 0.401879 -0.946406 -0.322977 -0.00146845
-0.0461776 -0.0592663 0.68071 -0.965925 0.258819 -0.001007
-0.0426434 -0.104995 0.47648 -0.707115 -0.707098 0.000506428
-0.045961 -0.0580494 0.785969 -0.965922 0.25883 -0.00100518
0.0340647 -0.0454246 0.518091 0.707088 0.707126 -0.000501344
-0.0113944 -0.0394021 0.135648 -0.994838 -0.082309 0.0593439
-0.0484063 -0.067754 0.466877 -0.965922 0.258831 -0.00136152
-0.074584 -0.0839036 0.459112 0.311762 -0.912564 0.264634
-0.254867 -0.0830687 0.558885 0 1 0
-0.0101606 -0.089861 0.132295 -0.248612 -0.928301 -0.276496
0.0479978 -0.053603 0.154876 0.0740367 0.975258 0.208301
-0.0131115 -0.124785 0.532957 -0.258806 -0.965926 0.00273356
0.0329986 -0.11131 0.744048 0.707115 -0.707098 0.000859818
0.119152 -0.0632992 0.124187 0.498404 -0.054506 0.86523
-0.0143243 -0.0587963 0.118081 0.0128554 0.981697 0.190013
-0.0101384 -0.0118534 0.143153 -0.996694 0.0751907 0.0307818
0.255738 -0.0939652 0.658776 0.963422 0.267982 -0.00172286
0.0897475 -0.0830687 0.641148 0 -1 0
-0.364305 -0.0721399 0.536816 0.178422 -0.981721 0.0662469
-0.00169033 0.0411464 0.140125 0.996697 -0.0751614 -0.0307636
-0.0227439 -0.0826608 0.598475 -0.195983 -0.528051 0.826288
-0.0152406 -0.0830687 0.62243 0 1 0
-0.0211052 -0.107478 0.915119 -0.691599 -0.6912 0.209605
-0.0211014 -0.120769 0.825902 -0.257618 -0.961254 0.0981044
0.0112795 -0.0489146 0.0247681 0.943257 -0.25314 -0.214909
-0.32441 -0.0678572 0.537797 0 -1 0
-0.0131345 -0.12487 0.475392 -0.258806 -0.965929 0.000998187
0.232381 -0.0678572 0.579387 0 1 0
0.0792784 -0.0830687 0.63557 0 -1 0
-0.0467132 -0.062357 0.817876 -0.96247 0.258069 0.083974
0.127657 -0.104598 0.703312 -0.67587 -0.688418 0.263211
0.0428423 -0.0957419 0.362569 0.964419 -0.258511 -0.0553875
-0.165105 -0.0786204 0.635946 0.441445 -0.199268 -0.874882
-0.114808 -0.0830687 0.618508 0 1 0
0.0366555 -0.0822704 0.21313 0.958371 -0.257031 -0.124342
-0.0489956 -0.06265 0.140333 0.0128748 0.981698 0.190008
-0.0283195 -0.0830687 0.620487 0 1 0
0.0206961 -0.0339209 0.688967 0.258801 0.965928 -0.00237665
-0.366571 -0.0830687 0.522567 0 1 0
-0.0225657 -0.0341777 0.193863 -0.706953 0.706899 -0.0226341
-0.019818 -0.0830687 0.663953 0 1 0
-0.104544 -0.0399976 0.104885 -0.0609354 -0.804785 0.59043
0.0347039 -0.0921328 0.898701 0.93718 -0.250643 0.242635
-0.391668 -0.0830687 0.528076 0 1 0
0.060394 -0.0909279 0.375383 -0.354416 -0.920558 -0.164203
-0.0101147 -0.0202062 0.164302 -0.996695 0.0751644 0.0308289
-0.0085817 -0.030259 0.0496783 -0.258759 0.965756 -0.0189496
-0.012866 -0.0830687 0.672303 0 1 0
0.0850293 -0.0829797 0.592258 -0.00717345 -0.999316 -0.0362672
-0.0415314 -0.0523054 0.836995 -0.704862 0.704956 0.0787854
-0.0483586 -0.0888322 0.470558 -0.965922 -0.258833 -0.000362657
0.0201816 -0.0893178 0.151735 0.696599 -0.696929 -0.170414
0.0470954 -0.0657203 0.172526 0.545691 0.110573 0.83066
-0.0241171 -0.0340304 0.716824 -0.25884 0.965917 -0.00237339
-0.00429849 0.0775839 0.113852 -0.996696 0.0751633 0.0307843
0.0430737 -0.0583112 0.434901 0.965927 0.258812 -0.00136427
-0.12354 -0.0678572 0.617306 0 -1 0
0.0237635 -0.121119 0.474879 0.707105 -0.707108 0.000501276
0.0469309 -0.083788 0.412041 0.965928 -0.258809 -0.000363414
-0.0473588 -0.0919036 0.777893 -0.965923 -0.258831 -5.93033e-06
0.0205435 -0.0481938 0.0699155 0.957305 0.256218 -0.133867
0.00408881 0.0470409 0.116999 0.9971 -0.069413 -0.0311871
-0.0977899 -0.0830687 0.607542 0 1 0
0.0992224 -0.0613155 0.0997543 -0.074047 -0.975256 -0.20831
0.0755022 -0.074358 0.593485 -0.149046 0.71841 -0.679465
-0.0452592 -0.055343 0.808418 -0.965922 0.25883 -0.00100518
-0.0483082 -0.0672721 0.488892 -0.965922 0.258831 -0.00136152
0.0215667 -0.116724 0.856967 0.703987 -0.703813 0.0951276
-0.0276292 -0.0364733 0.439649 -0.707107 0.707103 -0.00223151
-0.0454645 -0.0989734 0.800159 -0.965923 -0.258831 -5.93033e-06
0.384534 -0.0777311 0.516237 0.289249 0.951719 -0.102791
0.0783647 -0.0678572 0.615173 0 1 0
0.041878 -0.053553 0.66976 0.965928 0.258808 -0.00100817
-0.233326 -0.0952789 0.656332 -0.688024 -0.701171 0.187037
-0.0141953 -0.124031 0.741007 -0.258819 -0.965925 0.00136015
-0.00736143 -0.125923 0.698046 -0.258791 -0.965932 0.00135551
0.000990105 0.0806964 0.130339 0.996697 -0.0751618 -0.030765
0.0324122 -0.0458028 0.224447 0.706975 0.706876 -0.0226322
-0.0420701 -0.10535 0.576036 -0.707103 -0.707107 0.00222844
-0.0467237 -0.070711 0.375692 0.219655 0.975573 -0.0030147
-0.0650783 -0.0527301 0.0911491 0.000534962 0.974608 0.223919
-0.0668321 -0.0501312 0.156917 -0.0128414 -0.981692 -0.19004
0.1316 -0.112964 0.685743 0.268029 -0.963403 0.00400134
0.0192147 -0.122507 0.470483 0.258822 -0.965925 0.000999299
-0.010536 -0.0436318 0.144172 -0.994838 -0.082309 0.0593439
-0.184379 -0.0830687 0.596183 0 1 0
-0.0388012 -0.101335 0.309185 -0.704864 -0.70506 -0.0778223
0.00593637 0.0770665 0.109229 0.997099 -0.0694187 -0.0312145
-0.00379084 -0.0282293 0.212408 -0.258808 0.965916 0.00488375
-0.0257879 -0.120853 0.792337 -0.258819 -0.965925 0.00136015
0.00932719 -0.124812 0.620676 0.258786 -0.965931 0.00273358
0.00744287 0.0898597 0.130571 0.956745 0.0951845 0.274915
-0.0117374 -0.0542211 0.0298186 -0.678172 -0.678768 -0.281703
0.00709359 -0.0304393 0.580916 0.258826 0.965923 -0.00100363
0.0466263 -0.0843692 0.648517 0.965927 -0.25881 0.00136389
0.233287 -0.0830687 0.575135 0 -1 0
-0.000270274 0.0501202 0.164182 0.996697 -0.0751509 -0.0307815
0.0307519 -0.0699382 0.91797 0.927246 0.248981 0.279686
0.0416242 -0.0565556 0.826779 0.962472 0.258062 0.083969
-0.0587754 -0.0849131 0.353321 0.307193 -0.900798 -0.306911
0.041111 -0.0662422 0.246011 0.965525 0.258649 -0.0293763
0.011722 -0.124574 0.41347 0.258822 -0.965925 0.000999299
-0.0303247 -0.116787 0.706533 -0.707104 -0.70711 0.000859838
0.0235845 -0.120704 0.760942 0.707115 -0.707098 0.000859818
0.0564715 -0.0830687 0.666241 0 -1 0
0.0452215 -0.0658705 0.71113 0.965928 0.258808 -0.00100817
0.0264115 -0.0420697 0.153604 0.706948 0.706904 -0.0226327
-0.00844379 -0.0511332 0.146796 0.996695 -0.075176 -0.030791
-0.0138811 -0.0310553 0.811329 -0.258815 0.965924 -0.00237506
-0.00896409 -0.00774646 0.101691 -0.863284 0.0737703 -0.499298
0.0337828 -0.051139 0.148393 0.0740557 0.975253 0.20832
0.0158911 -0.105296 0.930418 0.691613 -0.691182 0.209618
-0.0899635 -0.0782848 0.452299 -0.981108 0.193455 -0.00161109
-0.00284459 -0.127103 0.718976 -0.258791 -0.965932 0.00135551
0.0224771 -0.0368983 0.192233 0.70693 0.706922 -0.022628
-0.0131635 -0.0306527 0.194972 -0.258823 0.965912 0.00487885
-0.00317032 -0.0170015 0.223736 -0.997099 0.0694328 0.0311908
0.00738067 -0.110019 0.924504 0.254176 -0.948268 0.190215
0.121368 -0.1023 0.703479 0.953445 0.265603 0.142817
-0.00180464 -0.0283518 0.515246 -0.258851 0.965913 -0.00273007
-0.0635772 -0.0858644 0.456344 -0.739784 0.647072 0.184436
-0.00372276 -0.00372642 0.183875 0.996694 -0.075182 -0.0307917
-0.0231698 -0.0344533 0.375708 -0.258839 0.9659 0.00624695
0.13349 -0.0839329 0.621387 0.707192 0.707021 -0.000648822
-0.0280954 -0.0368637 0.463686 -0.707107 0.707103 -0.00223151
-0.163914 -0.067858 0.583655 -6.42772e-05 -1 0.000267279
-0.00608739 -0.0226917 0.153634 0.996695 -0.0751692 -0.0307946
-0.0148587 -0.0310171 0.128561 -0.258828 0.965906 -0.00573194
0.00408337 -0.0496751 0.123158 -0.389311 0.854479 0.343951
-0.00854824 -0.0779402 0.673068 -0.322265 0.939693 0.114558
0.0384297 -0.106108 0.615788 0.707105 -0.707105 0.00223048
-0.0479478 -0.0897039 0.694691 -0.965925 -0.258823 -4.58086e-06
-0.0432823 -0.0779383 0.239123 -0.964416 -0.258521 -0.0553882
-0.252937 -0.105141 0.659049 -0.963424 -0.267982 -0.000687321
0.0282106 -0.0607155 0.916402 0.671771 0.672421 0.310763
-0.00502972 -0.110324 0.929812 -0.254175 -0.948263 0.190241
-0.292076 -0.078289 0.537804 -0.285908 -0.426796 0.857964
0.000718632 -0.0290604 0.422977 0.258826 0.96592 -0.00273009
0.0701888 -0.0678572 0.678315 0 1 0
0.0109403 -0.0313874 0.656277 0.25882 0.965923 -0.00237664
-0.0031357 -0.0308891 0.847404 -0.258046 0.963155 0.0757936
0.093484 -0.0830687 0.61537 0 -1 0
0.07843 -0.0626046 0.450911 0.359439 0.933163 -0.00302888
-0.0363211 -0.0450219 0.485045 -0.70709 0.70712 -0.00222899
0.0411175 -0.0448867 0.116515 0.0740254 0.975262 0.20829
0.0135125 -0.0415137 0.0324214 0.957305 0.256218 -0.133867
