-0.0578517 -0.0678474 0.432407 0.658082 0.752946 0.000617959
0.00677637 -0.125863 0.448262 0.258806 -0.965929 0.00100237
-0.0228939 -0.0830687 0.616762 0 -1 0
-0.015957 -0.0399076 0.033263 -0.957277 0.256331 -0.133845
0.0836513 -0.0857313 0.393511 0.910553 -0.351177 -0.218101
0.0275592 -0.038853 0.61122 0.707123 0.70709 -0.000506927
-0.0674991 -0.0614296 0.448726 0.193455 0.981104 -0.00312513
-0.0310212 -0.0438753 0.855588 -0.704811 0.705006 0.0787906
-0.0082012 -0.0988527 0.164935 -0.253693 -0.947112 -0.196514
-0.0456054 -0.0735233 0.334855 -0.858324 -0.293472 -0.420896
0.144472 -0.0830687 0.610334 0 -1 0
-0.0355763 -0.111606 0.651295 -0.707103 -0.707107 0.00222844
0.00190573 -0.0285957 0.807089 0.258801 0.965928 -0.00237507
-0.0521388 -0.0830687 0.644752 0 1 0
0.110292 -0.0830687 0.626392 0 -1 0
0.0660425 -0.0809851 0.590004 -0.184221 0.528324 -0.828816
0.303768 -0.0711181 0.543715 -0.238122 0.61754 -0.749628
-0.0631432 -0.0661498 0.167632 0.515703 -0.0435912 -0.855658
-0.0552012 -0.0693792 0.417244 0.529465 0.838847 0.1265
-0.00468596 -0.126683 0.666966 -0.258791 -0.965932 0.00135551
0.00866914 -0.124723 0.776787 0.258813 -0.965926 0.00135551
-0.0350731 -0.0436792 0.515105 -0.707107 0.707103 -0.00223151
0.0134531 -0.074622 0.0909117 0.685765 -0.686228 -0.242525
0.0257989 -0.119136 0.400115 0.707105 -0.707108 0.000501276
0.010037 -0.125016 0.422095 0.258822 -0.965925 0.000999299
0.314858 -0.0830687 0.55811 0 -1 0
-0.150548 -0.0858375 0.631772 0.961215 -0.257491 0.0988111
0.0786732 -0.0678572 0.616387 0 1 0
0.0390384 -0.0501325 0.717245 0.707107 0.707104 -0.00187334
0.0033754 0.0165287 0.162071 0.997097 -0.0694419 -0.0312254
0.0932874 -0.0495261 0.119692 0.0740383 0.975261 0.208289
0.0328021 -0.0708356 0.696208 -0.201358 0.976899 0.0715723
-0.0458687 -0.0718248 0.856653 -0.96247 0.258069 0.083974
0.0663865 -0.0476349 0.120399 0.0740495 0.975257 0.208306
-0.118298 -0.099557 0.634662 0.926658 -0.239299 -0.289899
-0.0671373 -0.0503809 0.158227 -0.0128414 -0.981692 -0.19004
-0.0252605 -0.0711769 0.182781 0.0128434 0.981694 0.190031
-0.326356 -0.0830687 0.540607 0 1 0
-0.0688525 -0.0628478 0.471244 0.189594 0.9616 0.198444
-0.152674 -0.0858294 0.592214 -0.960227 -0.256987 -0.10919
0.012056 -0.0314058 0.250707 0.258798 0.965911 0.00624413
0.0147552 -0.0612929 0.0607625 0.678203 -0.67874 -0.281696
0.0433016 -0.0967565 0.796048 0.965925 -0.258824 -7.62316e-06
0.00465607 -0.104957 0.950098 0.248626 -0.92753 0.279058
-0.0474671 -0.0638281 0.745251 -0.965922 0.25883 -0.00100518
-0.0896233 -0.076651 0.40578 -0.981108 0.193443 -0.0024707
-0.250477 -0.0678572 0.571405 0 -1 0
-0.142296 -0.0390265 0.0977626 -0.164518 -0.759297 0.629604
-0.0388073 -0.108208 0.785625 -0.707115 -0.707098 0.00086244
0.00748869 -0.0304684 0.295002 0.258815 0.965907 0.0062439
-0.0419868 -0.0514015 0.824833 -0.704862 0.704956 0.0787854
-0.0270079 -0.0689154 0.10953 -0.949787 -0.254863 -0.181522
-0.00859684 -0.0819566 0.705883 -0.322256 0.939697 0.114545
-0.00486822 -0.00994976 0.16199 0.996695 -0.0751668 -0.0308013
0.0207091 -0.121908 0.569397 0.258806 -0.965925 0.00272957
-0.133951 -0.0516958 0.0894866 0.0128526 0.981686 0.190072
-0.045791 -0.0577688 0.537416 -0.965922 0.258834 0.000362635
-0.00690995 -0.0255826 0.123341 -0.9971 0.0694208 0.0311929
0.0408203 -0.0742264 0.228602 0.958371 -0.257031 -0.124342
0.00315511 -0.0652142 0.960067 0.221716 0.828564 0.514124
0.0366974 -0.10728 0.814861 0.703999 -0.703802 0.095122
0.199726 -0.0830687 0.594656 0 -1 0
0.0460752 -0.0864041 0.749605 0.965928 -0.258812 -9.59723e-06
0.0116216 -0.0707419 0.635339 -0.201359 0.976899 0.0715747
0.0015716 -0.00590765 0.218608 0.970947 0.137655 0.195738
-0.0259792 -0.0347965 0.546792 -0.258807 0.965929 -0.00100594
0.135564 -0.0830687 0.635922 0 -1 0
0.032594 -0.0830687 0.670372 0 -1 0
-0.317555 -0.0754716 0.5313 -0.248672 -0.61754 0.746195
-0.0259835 -0.0872347 0.155663 -0.696601 -0.696926 -0.170416
-0.0455498 -0.0794676 0.867969 -0.962054 -0.257605 0.0899538
-0.0200163 -0.0495157 0.915843 -0.671797 0.672398 0.310757
-0.0471479 -0.0928592 0.620914 -0.965924 -0.25882 0.00136298
0.00349117 0.123728 0.123921 -0.953624 0.300757 -0.0121137
-0.0293323 -0.10906 0.29341 -0.704882 -0.705043 -0.0778174
-0.00517087 -0.126581 0.650166 -0.258791 -0.96593 0.0027307
-0.00138874 0.0178344 0.20831 0.996622 -0.0722461 -0.0390577
-0.0036398 -0.0276503 0.248571 -0.925895 0.253107 0.280456
-0.0416298 -0.0990568 0.853792 -0.962051 -0.257617 0.08995
-0.0366801 -0.110998 0.420626 -0.707084 -0.70713 0.000498246
-0.0141739 -0.0777443 0.655635 -0.322256 0.939699 0.114532
0.0314167 -0.0428371 0.496906 0.707088 0.707122 -0.00222849
-0.0206095 -0.122858 0.484098 -0.258806 -0.965929 0.000998187
0.0333858 -0.0678576 0.612833 2.29192e-05 1 -8.14538e-06
0.01228 -0.031059 0.12956 0.258809 0.965911 -0.00573232
-0.00199757 -0.0774077 0.691794 -0.320616 -0.939696 -0.119068
0.0140568 -0.0320725 0.717206 0.258801 0.965928 -0.00237665
-0.0390582 -0.108041 0.716961 -0.707115 -0.707098 0.00086244
-0.0339486 -0.0709976 0.694502 -0.200325 -0.976899 -0.0744163
0.0204746 -0.121799 0.372875 0.25771 -0.961954 -0.0907158
-0.0093328 -0.0526439 0.10613 -0.997098 0.0694412 0.0311958
0.00134024 -0.0830687 0.71309 0 -1 0
0.0418199 -0.0790205 0.59664 -0.184221 0.528324 -0.828816
-0.00502357 -0.0443734 0.101573 -0.471204 -0.826933 -0.306837
0.0857885 -0.0831788 0.420601 0.933163 -0.359442 0.00277945
-0.0297226 -0.074411 0.934505 -0.92724 0.249007 0.279681
-0.278679 -0.0678572 0.555094 0 -1 0
0.141307 -0.0491581 0.1009 0.0741192 0.975212 0.20849
-0.0052545 -0.0391379 0.206397 -0.997099 0.0694243 0.0312004
-0.00859742 -0.113087 0.91127 -0.254216 -0.948258 0.190213
-0.270724 -0.0678572 0.562152 0 -1 0
-0.0473479 -0.0669416 0.354213 -0.965521 0.258662 -0.0293759
-0.116593 -0.0928702 0.649534 0.961082 0.267245 -0.0700167
0.00613457 -0.0600627 0.126976 -0.0740531 -0.975256 -0.208307
-0.102685 -0.0871014 0.62109 0.707144 -0.707069 0.000647626
-0.0251041 -0.0630568 0.0913433 -0.949787 -0.254863 -0.181522
-0.0160495 -0.0320982 0.58306 -0.258807 0.965928 -0.00100594
0.0462343 -0.0697919 0.593674 0.965928 0.258811 0.000363393
0.00746554 -0.0759601 0.694872 -0.201362 0.976899 0.0715656
-0.0365544 -0.0468813 0.832987 -0.704829 0.704988 0.0787909
-0.0252633 -0.0814275 0.135767 -0.685764 -0.686229 -0.242524
-0.152002 -0.0834 0.627967 -0.705571 0.705284 0.0688803
0.0322339 -0.0434502 0.671237 0.707124 0.707088 -0.00187552
-0.138801 -0.106094 0.68351 -0.963399 -0.26806 0.00259115
0.0533518 -0.0830687 0.684684 0 -1 0
0.0802564 -0.0830687 0.625222 0 -1 0
-0.00915423 -0.0303242 0.514247 -0.258851 0.965913 -0.00273007
-0.0196516 -0.122686 0.657934 -0.258791 -0.965932 0.00135551
-0.00365334 0.0618724 0.151096 -0.951642 0.214658 0.21977
0.0469513 -0.0831355 0.779968 0.965925 -0.258824 -7.62316e-06
0.0289373 -0.0492476 0.0902498 0.0100478 0.682195 -0.731101
-0.162217 -0.0475715 0.0835508 -0.186499 -0.593512 0.782918
0.0396928 -0.0514331 0.395519 0.707107 0.707103 -0.00223153
-0.027669 -0.0639672 0.924936 0.308245 0.942071 0.132239
0.0229724 -0.0353044 0.321962 0.707097 0.707084 -0.00679712
-0.00732951 -0.0369336 0.148197 0.996695 -0.0751704 -0.0308008
0.00295765 -0.0830687 0.692725 0 1 0
-0.0438812 -0.0528524 0.399266 -0.707107 0.707103 -0.00222947
-0.0128926 -0.122975 0.825841 -0.257618 -0.961254 0.0981044
-0.0339731 -0.105896 0.86567 -0.703987 -0.703814 0.0951218
-0.0762168 -0.0830687 0.629727 0 1 0
0.0558148 -0.0713232 0.34652 -0.147532 0.939057 -0.310495
0.155136 -0.0677572 0.585987 0.0128508 0.99932 0.0345477
-0.0316431 -0.0481807 0.0922348 -0.00884565 -0.667365 0.744678
0.0421698 -0.100979 0.737165 0.965925 -0.258824 -7.62316e-06
-0.36902 -0.0830687 0.519111 0 1 0
0.0707446 -0.0830687 0.606208 0 -1 0
0.0634991 -0.0937887 0.458019 -0.359405 -0.933182 0.000574637
0.0656602 -0.0946449 0.436243 -0.359409 -0.933172 0.00388552
0.0268949 -0.117501 0.672298 0.707113 -0.7071 0.000860217
0.0796306 -0.0802325 0.455215 0.765952 -0.293915 0.571779
0.118351 -0.0830687 0.602788 0 -1 0
-0.401841 -0.0827696 0.513034 0.28774 -0.951727 0.10687
-0.215714 -0.0756426 0.609474 0.427317 -0.320549 -0.845369
-0.0601689 -0.0830687 0.603724 0 1 0
-0.0437994 -0.102479 0.364825 -0.704864 -0.70506 -0.0778223
-0.0338417 -0.113243 0.728242 -0.707104 -0.70711 0.000859838
-0.0283245 -0.0416403 0.110447 -0.012863 -0.981711 -0.189943
-0.0777229 -0.0473874 0.0955126 0.0635387 -0.807136 0.586937
0.00324021 0.116909 0.114772 0.996698 -0.0751522 -0.0307324
0.0384089 -0.0497628 0.526466 0.707107 0.707106 -0.000501305
-0.172487 -0.0830687 0.578947 0 1 0
-0.0292075 -0.0374848 0.739761 -0.707087 0.707125 -0.00187336
0.0414753 -0.0925527 0.323882 0.964419 -0.258511 -0.0553875
-0.0317902 -0.115848 0.477801 -0.707115 -0.707098 0.000506428
-0.256888 -0.0678572 0.561514 0 -1 0
-0.223368 -0.0696178 0.564837 -0.188096 -0.686937 0.701953
0.0415399 -0.0528707 0.558952 0.707083 0.707131 -0.000503941
0.0564412 -0.0663578 0.381755 -0.628359 0.777786 -0.0146055
-0.125695 -0.0678572 0.613505 0 -1 0
0.0405751 -0.0518924 0.578016 0.707083 0.707131 -0.000503941
0.0378969 -0.0491129 0.671283 0.707083 0.707128 -0.0018756
0.0282719 -0.0405603 0.326506 0.707097 0.707084 -0.00679712
0.116958 -0.081827 0.661334 0.420726 0.204129 0.883924
-0.00997004 -0.00640325 0.103629 -0.863343 0.0737496 -0.499199
0.0829199 -0.0731716 0.468282 -0.981673 -0.154121 0.112095
-0.032828 -0.0750858 0.92481 -0.92724 0.249007 0.279681
0.111319 -0.0827896 0.581329 0.0193471 -0.999307 0.0317944
-0.00183227 -0.0288245 0.825605 -0.258046 0.963155 0.0757936
-0.0504342 -0.0804239 0.653382 -0.965925 -0.258823 -4.58086e-06
-0.00583479 -0.00542554 0.119661 0.996695 -0.0751716 -0.0307917
-0.0885309 -0.0710817 0.444808 -0.9811 0.193493 -0.00159614
-0.0359619 -0.0444734 0.646471 -0.707107 0.707106 -0.000503871
0.0852684 -0.0845322 0.41573 0.933163 -0.35945 -0.00139162
-0.0158777 -0.123837 0.373596 -0.257716 -0.961953 -0.0907145
-0.0277411 -0.119362 0.713709 -0.707104 -0.70711 0.000859838
-0.00953885 -0.00327247 0.141607 -0.996695 0.0751829 0.0307587
-0.00301547 -0.0745043 0.657257 -0.200329 -0.976899 -0.0744039
0.0439449 -0.0730041 0.337722 0.846274 -0.326692 -0.420824
-0.0451461 -0.0554881 0.627986 -0.965925 0.258822 0.000360256
-0.0488914 -0.0496646 0.0912218 0.0201955 -0.66394 0.747513
0.053959 -0.0859975 0.41525 -0.777821 -0.628486 -0.000877374
-0.00647777 -0.0378668 0.216556 -0.980287 -0.18203 0.0768293
-0.125057 -0.110126 0.646548 0.261521 -0.940492 -0.216982
-0.0507161 -0.0800957 0.515905 -0.965922 -0.25883 0.00136113
0.0021262 -0.0799402 0.978608 0.535743 0.537008 0.651615
-0.0492121 -0.0701805 0.786301 -0.965922 0.25883 -0.00100518
-0.0453494 -0.0807474 0.392992 0.959885 -0.188825 0.207283
0.0149036 -0.0322431 0.262211 0.258798 0.965911 0.00624413
-0.0280929 -0.0496035 0.151096 -0.471204 -0.82693 -0.306845
-0.00404076 -0.0287717 0.667731 -0.258824 0.965922 -0.00237588
-0.116807 -0.107305 0.706349 0.696153 -0.682452 0.222779
0.0351808 -0.109145 0.730249 0.707113 -0.7071 0.000860217
0.043127 -0.0701128 0.278192 0.965524 0.258651 -0.0293765
-0.016544 -0.123407 0.73765 -0.258819 -0.965925 0.00136015
0.0017032 0.0918175 0.13737 -0.997101 0.0694034 0.0311948
-0.0497264 -0.0830687 0.809442 -0.965923 -0.258831 -5.93033e-06
-0.0442661 -0.0920393 0.322068 -0.964416 -0.258521 -0.0553882
-0.0189773 -0.0546789 0.0966474 0.0172463 0.98805 0.153163
-0.0148585 -0.0576719 0.0456475 -0.678223 -0.678724 -0.281687
-0.00162707 -0.126887 0.817089 -0.257618 -0.961254 0.0981044
0.00128975 -0.126684 0.787823 0.258813 -0.965926 0.00135551
-0.00396957 -0.126858 0.679146 -0.258791 -0.965932 0.00135551
-0.00187413 0.0319002 0.156747 0.996694 -0.0751768 -0.0308284
-0.00491072 -0.0112019 0.155229 -0.9971 0.0694138 0.0312073
0.00437448 -0.10496 0.950341 0.248626 -0.92753 0.279058
-0.0991245 -0.0678572 0.619357 0 -1 0
-0.0265702 -0.0350899 0.635004 -0.707107 0.707106 -0.000503882
0.000681132 -0.126912 0.742167 0.258813 -0.965926 0.00135551
0.201576 -0.0678572 0.596205 0 1 0
-0.000551192 0.0549265 0.143363 0.996696 -0.0751615 -0.03078
-0.038179 -0.0678574 0.617533 -3.19013e-05 -1 0.000105551
0.0215979 -0.104166 0.218248 0.696593 -0.696934 -0.170413
-0.0478619 -0.0675692 0.365581 -0.965521 0.258662 -0.0293759
-0.0487672 -0.0872189 0.54438 -0.965922 -0.25883 0.00136113
0.0441307 -0.09427 0.43428 0.965928 -0.258812 -0.000362873
-0.392293 -0.0830687 0.523664 0 1 0
0.00779963 -0.113143 0.245081 0.257708 -0.961955 -0.0907155
-0.0483386 -0.082333 0.361221 0.288109 -0.957421 -0.0183695
0.0224489 -0.0344398 0.668937 0.258841 0.965917 -0.00237339
0.0325434 -0.0455992 0.246644 0.707125 0.707056 -0.00679623
0.000676387 -0.0640972 0.149593 -0.581545 0.719411 0.379806
-0.0125625 -0.0616908 0.158792 -0.653745 -0.677647 -0.336767
-0.00517526 -0.117842 0.89214 -0.254216 -0.948258 0.190213
0.0794158 -0.0664381 0.385928 0.763961 0.616858 -0.189341
-0.138982 -0.0677193 0.588877 0.00761407 -0.999312 -0.0362941
-0.00416782 0.0816504 0.108153 -0.996696 0.0751699 0.0307812
0.131858 -0.0792167 0.577554 -0.150224 0.516384 -0.843078
0.0806186 -0.056512 0.0876457 -0.00254459 0.671045 -0.741412
0.127782 -0.087464 0.621942 -0.706502 0.692745 -0.144771
0.389192 -0.0830687 0.528653 0 -1 0
-0.00139613 0.00968649 0.101554 0.75468 -0.0476029 -0.654364
-0.128812 -0.0845753 0.620932 -0.965964 0.258677 0.000319148
-0.157256 -0.0830687 0.632695 0 1 0
-0.0643531 -0.0627217 0.390476 0.193008 0.978598 -0.0713708
-0.30815 -0.0678572 0.542224 0 -1 0
0.0120298 -0.0751823 0.62565 -0.200329 -0.976899 -0.074408
-0.118036 -0.108821 0.698513 0.713865 -0.700283 0.000150953
-0.0476574 -0.0648732 0.4832 -0.965922 0.258831 -0.00136152
0.0641109 -0.0678572 0.614894 0 1 0
-0.035239 -0.0436798 0.678111 -0.707107 0.707104 -0.00187597
-0.0121627 -0.0709909 0.964441 -0.616941 0.617931 0.487386
0.0552566 -0.0871887 0.377524 -0.777823 -0.628371 -0.0118685
-0.0028528 -0.0228826 0.246052 0.936902 0.178425 0.300632
-0.104774 -0.07202 0.663521 0.417161 -0.32914 -0.847139
0.0247882 -0.0363054 0.466283 0.707088 0.707122 -0.00222849
0.0829825 -0.0830872 0.585119 -0.174884 0.517314 -0.837736
0.0384832 -0.0498424 0.519013 0.707107 0.707106 -0.000501305
-0.0484535 -0.0830687 0.686626 0 1 0
0.0599194 -0.0678057 0.355398 -0.150263 0.955189 -0.255019
-0.16005 -0.0830687 0.596293 0 1 0
-0.0458423 -0.0577348 0.752845 -0.965922 0.25883 -0.00100518
-0.0176545 -0.123566 0.53362 -0.258806 -0.965926 0.00273356
-0.0429949 -0.104706 0.3891 -0.707115 -0.707098 0.000506428
-0.0328262 -0.0830687 0.679647 0 1 0
0.205322 -0.0830687 0.566035 0 -1 0
0.179584 -0.0678572 0.619395 0 1 0
0.19827 -0.0830687 0.576312 0 -1 0
-0.380505 -0.0783408 0.508636 -0.278783 -0.437791 0.854763
0.0143329 -0.123331 0.68713 0.258786 -0.965934 0.00136017
0.123672 -0.0890261 0.651072 -0.713743 0.70026 -0.0144136
-0.0450313 -0.0610124 0.33028 -0.965521 0.258662 -0.0293759
0.119139 -0.0959256 0.648535 -0.966031 0.24878 -0.0699403
-0.0940674 -0.0830687 0.620531 0 1 0
-0.00930331 -0.116722 0.279467 -0.257708 -0.961955 -0.0907159
0.236952 -0.0678572 0.594813 0 1 0
-0.00380231 0.00567237 0.15836 0.996695 -0.0751643 -0.0308171
0.0577429 -0.0906646 0.403532 -0.777857 -0.628441 -0.000860878
0.011857 -0.124546 0.40553 0.258822 -0.965925 0.000999299
-0.123514 -0.102912 0.703734 0.934455 -0.240274 0.262798
-0.0597487 -0.0701375 0.470455 -0.927909 -0.316208 0.197479
-0.0476146 -0.0915018 0.393846 -0.965925 -0.25882 -0.000360068
0.00392375 0.0144425 0.183794 0.997122 -0.0731045 -0.0200941
0.0101126 -0.0309406 0.259291 0.258798 0.965911 0.00624413
-0.00917843 -0.0741376 0.623169 -0.20136 0.976899 0.071573
-0.023002 -0.0340093 0.536729 -0.258807 0.965928 -0.00100594
0.00417932 0.0485951 0.116434 0.997099 -0.0694273 -0.0311844
-0.0205402 -0.101057 0.191486 -0.253678 -0.947116 -0.196518
-0.00598837 -0.0288278 0.214312 -0.258808 0.965916 0.00488375
-0.0411677 -0.0678573 0.616997 -3.19013e-05 -1 0.000105551
-0.0310752 -0.106717 0.28797 -0.704882 -0.705043 -0.0778174
-0.0467354 -0.0948658 0.45337 -0.965925 -0.25882 -0.000360068
0.0307129 -0.113651 0.699154 0.707113 -0.7071 0.000860217
-0.0359491 -0.0468825 0.215086 -0.706946 0.706905 -0.0226325
-0.00270548 0.0427179 0.103433 0.996696 -0.0751664 -0.0307637
0.0429783 -0.0981788 0.376311 0.964419 -0.258511 -0.0553875
-0.011594 -0.0309245 0.563589 -0.258851 0.965917 -0.00100591
-0.0335837 -0.109863 0.8392 -0.703999 -0.703801 0.0951271
-0.015895 -0.0978481 0.956782 -0.67137 -0.670773 0.315159
-0.0115988 -0.0830687 0.650112 0 -1 0
-0.0193879 -0.0690845 0.63018 -0.20033 -0.9769 -0.0743952
-0.154863 -0.0413207 0.110069 0.406605 -0.912585 -0.0431456
0.0413082 -0.0837588 0.279929 0.964418 -0.258517 -0.0553868
0.00553927 0.0648048 0.123815 0.9971 -0.0694167 -0.0311773
-0.00287575 -0.0272061 0.102608 0.772311 -0.0622157 -0.632191
-0.00805122 -0.126285 0.423748 -0.258827 -0.965923 0.00100236
0.402384 -0.0817608 0.529156 0.289238 0.951723 -0.102786
-0.0199547 -0.0540093 0.0567434 -0.943248 -0.253175 -0.214909
-0.00620382 -0.0297308 0.348454 -0.258815 0.965907 0.00624415
0.0137366 -0.0830687 0.650602 0 -1 0
0.0117269 -0.124605 0.38219 0.258822 -0.965925 0.000999299
-0.00273277 0.0239087 0.14671 -0.997099 0.0694238 0.0312046
0.00567632 -0.126059 0.525746 0.258806 -0.965925 0.00272957
0.00154498 -0.0701299 0.0639835 0.245162 -0.915678 -0.31848
-0.19482 -0.0678572 0.595148 0 -1 0
-0.0286452 -0.0407635 0.848998 -0.704833 0.704985 0.0787849
-0.0578149 -0.0871626 0.374632 0.752016 -0.657253 -0.0499004
-0.00718672 -0.0464379 0.0961927 -0.0658405 -0.863748 0.499605
0.0454694 -0.0886628 0.685167 0.965928 -0.258812 -9.59723e-06
-0.0837762 -0.0862697 0.6429 -0.965894 -0.258934 0.00123904
-0.0590953 -0.0499839 0.155632 -0.01287 -0.981697 -0.190013
-0.000141663 -0.0281396 0.251034 0.258812 0.965908 0.00624416
0.00060888 -0.127546 0.377378 0.25771 -0.961954 -0.0907158
0.123271 -0.0775749 0.657347 0.420733 0.20409 0.883929
-0.132576 -0.0678572 0.647614 0 -1 0
0.0328935 -0.0492512 0.139871 0.0740535 0.975252 0.208326
-0.00413692 -0.028753 0.28287 -0.258815 0.965907 0.00624415
0.0180154 -0.122606 0.577733 0.258806 -0.965925 0.00272957
-0.0474976 -0.0917873 0.576594 -0.965922 -0.25883 0.00136113
0.0568022 -0.088656 0.370973 -0.776869 -0.627675 -0.0499858
-0.366335 -0.0830687 0.51813 0 1 0
0.0513668 -0.067858 0.606065 2.29192e-05 1 -8.14538e-06
0.18132 -0.0830687 0.582442 0 -1 0
-0.0425878 -0.0989793 0.325237 -0.964416 -0.258521 -0.0553882
-0.046108 -0.0590758 0.62636 -0.965925 0.258822 0.000360256
-0.00125479 0.0944369 0.134206 -0.946684 0.191235 0.259266
0.0566325 -0.0678572 0.637465 0 1 0
-0.0071655 -0.08774 0.978145 -0.731909 -0.194852 0.652949
0.00376884 -0.0754191 0.651002 -0.200329 -0.976899 -0.0744129
0.009524 -0.0900943 0.134986 0.248605 -0.9283 -0.276504
2.39827e-06 -0.0287906 0.450529 0.258826 0.96592 -0.00273009
0.264708 -0.0699174 0.557097 -0.17814 0.687001 -0.704483
0.0445549 -0.0632895 0.735057 0.965928 0.258808 -0.00100817
0.270927 -0.0709666 0.554271 -0.238115 0.617555 -0.749618
0.0416714 -0.0801813 0.38526 -0.383811 -0.923411 0.000208069
-0.0548795 -0.081226 0.353663 0.980278 -0.193365 -0.0407973
0.0442837 -0.0701059 0.31627 0.965524 0.258651 -0.0293765
0.0113108 -0.114973 0.274451 0.257708 -0.961955 -0.0907155
-0.0084303 -0.0278608 0.201334 -0.994837 -0.082319 0.0593463
-0.0768618 -0.0578064 0.117194 0.012835 0.981693 0.190036
0.0746853 -0.0652908 0.127085 -0.0740526 -0.975253 -0.208319
0.0438572 -0.0937802 0.815596 0.962053 -0.25761 0.0899511
0.0250024 -0.0678573 0.617792 2.29192e-05 1 -8.14538e-06
-0.0296311 -0.117821 0.565975 -0.707115 -0.707095 0.00223149
0.00162131 0.0709506 0.157996 0.903246 0.233018 0.360346
-0.122291 -0.0839336 0.653908 0.94936 0.314183 -0.00219834
-0.0309031 -0.050744 0.128106 -0.960292 0.25709 -0.108369
0.0305961 -0.0436762 0.244104 0.707125 0.707056 -0.00679623
0.000225301 -0.0626064 0.957128 0.221733 0.828562 0.514119
-0.0426582 -0.0526196 0.326181 -0.965521 0.258662 -0.0293759
-0.0357765 -0.111838 0.510916 -0.707115 -0.707098 0.000506428
0.0475992 -0.0812816 0.403452 0.965928 -0.258809 -0.000363414
0.139283 -0.0906883 0.663214 0.700315 0.713826 -0.00347525
-0.0477553 -0.0867612 0.358187 -0.964416 -0.258522 -0.0553883
-0.026219 -0.120964 0.642371 -0.258791 -0.96593 0.0027307
0.0368063 -0.0481529 0.536776 0.707107 0.707106 -0.000501305
0.0323354 -0.0470637 0.093332 0.0335261 0.836469 -0.546987
-0.16443 -0.0678572 0.597039 0 -1 0
0.037493 -0.0830687 0.652752 0 -1 0
-0.0474334 -0.0923037 0.484085 -0.965922 -0.258833 -0.000362657
0.137304 -0.0612589 0.0859538 -0.0740176 -0.975267 -0.20827
0.138589 -0.0967178 0.630367 0.884277 -0.228607 -0.407178
-0.0168519 -0.0321265 0.277709 -0.258806 0.965909 0.00624513
-0.0123759 -0.0306823 0.798983 -0.258815 0.965924 -0.00237506
-0.0231917 -0.0339641 0.628893 -0.258807 0.965929 -0.00100594
0.015143 -0.0727566 0.188149 -0.581559 0.719427 0.379755
-0.00560678 -0.0488924 0.127463 0.960763 -0.27722 0.00913118
0.0247621 -0.0830687 0.64968 0 1 0
0.0300812 -0.0481977 0.135939 0.074043 0.975258 0.208299
-0.000490196 -0.0283857 0.601634 0.25882 0.965925 -0.00100303
0.0275417 -0.0584468 0.912939 0.671771 0.672421 0.310763
-0.0375376 -0.10502 0.331126 -0.704864 -0.70506 -0.0778223
-0.00414226 0.0200772 0.110193 -0.997099 0.0694184 0.0312046
-0.0252978 -0.121393 0.578076 -0.258791 -0.96593 0.0027307
0.0579019 -0.0795203 0.592747 -0.184221 0.528324 -0.828816
-0.0239574 -0.0732833 0.697612 -0.200325 -0.976899 -0.0744163
-0.00250629 0.0423225 0.11085 0.996694 -0.0751679 -0.0308291
0.0822511 -0.0481607 0.0974903 0.0161633 0.825982 -0.563465
-0.0125689 -0.124538 0.690322 -0.258791 -0.965932 0.00135551
0.140784 -0.0606078 0.0816682 -0.0740341 -0.975267 -0.208265
-0.00858813 -0.0114222 0.100518 -0.713088 0.0656418 -0.697995
-0.0102646 -0.125493 0.552384 -0.258806 -0.965926 0.00273356
-0.109407 -0.0830687 0.663552 0 1 0
-0.0678546 -0.042123 0.115614 -0.0128778 -0.981708 -0.189958
-0.0355723 -0.0493606 0.184767 -0.963582 0.258054 -0.0701269
-0.00809304 0.0281569 0.111688 -0.996696 0.0751601 0.0307777
0.202218 -0.0755402 0.566797 -0.159205 0.701778 -0.694378
-0.0566363 -0.0699326 0.686264 0.410079 -0.344661 -0.844419
0.0680387 -0.0757459 0.593655 -0.149121 0.718349 -0.679513
0.00403304 -0.0859302 0.116069 0.248605 -0.9283 -0.276504
-0.0152418 -0.0316548 0.715808 -0.258807 0.965926 -0.00237589
-0.00713862 -0.00839989 0.214663 -0.964885 0.185093 0.186378
-0.00131492 -0.0830687 0.654305 0 -1 0
-0.0469246 -0.0935219 0.669253 -0.965925 -0.258823 -4.58086e-06
-0.0574649 -0.0872279 0.395294 0.752855 -0.658079 -0.0118431
-0.2054 -0.0678572 0.584955 0 -1 0
0.0198448 -0.0430867 0.115649 0.0740304 0.975254 0.208324
0.038443 -0.1065 0.390625 0.707094 -0.70712 0.000504429
-0.124499 -0.0830687 0.589322 0 1 0
-0.247028 -0.0743709 0.553846 -0.188096 -0.686937 0.701953
0.0169854 -0.032568 0.225159 0.2588 0.965919 0.00487988
-0.0245448 -0.105454 0.910445 -0.691599 -0.6912 0.209605
-0.0693419 -0.0611638 0.401181 0.193471 0.981098 -0.00398611
0.0151479 -0.0830687 0.623916 0 1 0
-0.028725 -0.061221 0.131581 0.0128321 0.981689 0.190056
-0.00831053 -0.0433444 0.1802 -0.980286 -0.182022 0.0768586
0.0330072 -0.107702 0.339366 0.704874 -0.705051 -0.0778207
-0.0296169 -0.0830687 0.637827 0 -1 0
-0.109828 -0.0761767 0.582884 -0.15522 -0.71311 0.683653
0.0368123 -0.0523643 0.855075 0.7048 0.705018 0.0787827
-0.135608 -0.0830687 0.627016 0 1 0
-0.011398 -0.0601164 0.153363 -0.653759 -0.677636 -0.336761
-0.0337678 -0.0587542 0.906105 -0.671783 0.672409 0.310763
0.0357885 -0.0470541 0.650887 0.707083 0.707131 -0.000503941
-0.0462551 -0.0960305 0.651405 -0.965924 -0.25882 0.00136298
0.0218904 -0.118559 0.838244 0.257612 -0.961254 0.0981152
-0.00330094 0.0322033 0.109829 0.996696 -0.0751632 -0.0307723
-0.0105268 -0.0304061 0.709852 -0.258824 0.965922 -0.00237588
-0.0407568 -0.0939808 0.270027 -0.964416 -0.258521 -0.0553882
0.00158107 0.0788308 0.154019 0.996693 -0.075186 -0.0308179
-0.0749159 -0.0631829 0.144841 0.0128311 0.981696 0.190024
0.043787 -0.0719782 0.283459 0.965524 0.258651 -0.0293765
-0.0474363 -0.063649 0.761748 -0.965922 0.25883 -0.00100518
-0.225082 -0.0678572 0.597647 0 -1 0
-0.00549435 -0.0317111 0.194849 0.996696 -0.0751504 -0.0308022
-0.0135236 -0.0306168 0.13573 -0.258828 0.965906 -0.00573194
0.000544401 -0.000500416 0.109499 0.9971 -0.0694099 -0.0312169
0.0450039 -0.0755846 0.341452 0.895854 0.139985 -0.421722
-0.00614606 -0.029513 0.517074 -0.258851 0.965917 -0.00100591
0.0039494 0.124346 0.116918 0.968321 0.23421 -0.0865966
-0.210234 -0.0811815 0.613749 0.442076 -0.199256 -0.874566
0.0562432 -0.0698312 0.154898 -0.0740487 -0.975258 -0.208301
0.0465369 -0.0846802 0.723116 0.965928 -0.258812 -9.59723e-06
0.0038318 0.0766924 0.100784 0.639155 -0.143769 -0.755521
0.0524933 -0.0748248 0.343862 -0.80668 0.309492 -0.50347
0.00917961 -0.0751991 0.633546 -0.200331 -0.976899 -0.0744046
0.00675016 -0.0303128 0.614054 0.25882 0.965925 -0.00100303
0.0311842 -0.113751 0.399969 0.707094 -0.70712 0.000504429
0.0193762 -0.122106 0.625845 0.258806 -0.965925 0.00272957
-0.102165 -0.0847341 0.630049 0.965742 0.259504 0.000199217
-0.0413307 -0.0408537 0.102748 -0.00637068 -0.826351 0.563119
-0.125293 -0.112722 0.681144 0.268029 -0.963403 0.00400134
0.00272383 -0.126329 0.76697 0.258813 -0.965926 0.00135551
-0.0837122 -0.0648872 0.432727 -0.752951 0.658076 0.000807791
0.0927525 -0.0679607 0.601194 -0.00975173 0.999315 -0.0357132
-0.0500075 -0.0750735 0.370026 -0.965521 0.258662 -0.0293759
-0.193717 -0.0830687 0.60362 0 1 0
-0.00138177 0.0507053 0.126782 0.996694 -0.075165 -0.0308356
0.016573 -0.123222 0.463439 0.258822 -0.965925 0.000999299
0.0451126 -0.065582 0.499152 0.965927 0.258809 -0.00136366
-0.00455364 -0.0408355 0.0071576 -0.486569 -0.488103 -0.724573
-0.0419019 -0.0519058 0.307609 -0.965521 0.258662 -0.0293759
0.0113442 -0.0314373 0.680014 0.258801 0.965928 -0.00237665
0.00450159 -0.113603 0.240587 0.257708 -0.961955 -0.0907155
0.0417096 -0.0678572 0.639189 0 1 0
-0.0457324 -0.063443 0.331919 -0.965521 0.258662 -0.0293759
-0.122116 -0.101416 0.701403 0.624298 0.1753 0.761263
0.0413539 -0.0527321 0.510265 0.707107 0.707103 -0.00223151
0.059572 -0.069195 0.351202 0.31708 0.823083 -0.471162
-0.120442 -0.111328 0.677559 0.713875 -0.700265 0.00343135
0.0214389 -0.121865 0.515071 0.258806 -0.965929 0.00100237
0.346075 -0.0691292 0.537549 0.17933 0.981721 -0.0637593
-0.382833 -0.0830687 0.531201 0 1 0
-0.067598 -0.0614992 0.403269 0.193471 0.981098 -0.00398611
-0.0408581 -0.0650363 0.152112 0.0128519 0.9817 0.190001
0.0276368 -0.0405189 0.264716 0.707079 0.707102 -0.00679376
0.0310738 -0.0423962 0.571175 0.707088 0.707126 -0.000501344
-0.00934073 -0.055149 0.0984154 0.594547 -0.0522871 -0.802359
0.0582395 -0.0682472 0.469609 0.617505 -0.763974 0.187165
-0.00218844 -0.0284144 0.553613 -0.258824 0.965924 -0.00100303
0.0242783 -0.117679 0.829835 0.703987 -0.703813 0.0951276
-0.032705 -0.106886 0.86773 -0.703987 -0.703814 0.0951218
-0.311896 -0.0678572 0.556237 0 -1 0
-0.045306 -0.0995627 0.686256 -0.965925 -0.258823 -4.58086e-06
0.0436069 -0.059587 0.777201 0.965924 0.258823 -0.00101064
-0.0885641 -0.0579704 0.118835 0.0128436 0.981696 0.190021
0.0351351 -0.0486767 0.219746 0.706975 0.706876 -0.0226322
-0.00725577 0.0394048 0.111333 -0.996696 0.0751617 0.0307774
-0.309387 -0.0830687 0.530092 0 1 0
0.0238176 -0.0499931 0.0915313 0.960297 0.257069 -0.108372
-0.0477 -0.064896 0.539697 -0.965922 0.258834 0.000362635
-0.123125 -0.112088 0.691721 0.268029 -0.963411 0.000654552
0.0183984 -0.0336237 0.484644 0.258837 0.965917 -0.00272956
-0.0254649 -0.0576147 0.168651 -0.471211 -0.826919 -0.306864
-0.0480838 -0.0898438 0.46059 -0.965922 -0.258833 -0.000362657
-0.358425 -0.0830687 0.513942 0 1 0
0.00288285 0.121453 0.115335 -0.95363 0.300733 -0.01222
-0.0172511 -0.123264 0.70438 -0.258791 -0.965932 0.00135551
-0.0264121 -0.0559374 0.104129 0.0128598 0.981698 0.190008
0.0595795 -0.087827 0.361473 -0.34775 -0.903261 -0.251374
0.0205649 -0.0341013 0.530751 0.258837 0.965921 -0.00100363
0.0415359 -0.0622425 0.845268 0.962472 0.258062 0.083969
0.0427475 -0.0838515 0.855899 0.962053 -0.25761 0.0899511
-0.0495763 -0.0720453 0.644754 -0.965925 0.258822 0.000360256
-0.0222255 -0.0339889 0.343038 -0.258839 0.9659 0.00624695
-0.026185 -0.0356213 0.336381 -0.70708 0.707101 -0.00679365
0.0437904 -0.06056 0.703256 0.965928 0.258808 -0.00100817
0.0513476 -0.0715873 0.601714 -0.149121 0.718349 -0.679513
-0.00266555 0.00310235 0.195145 -0.997099 0.0694169 0.0312093
-0.0887399 -0.0494936 0.0936831 -0.0200012 -0.655062 0.75531
-0.0452568 -0.0783838 0.874206 -0.962054 -0.257605 0.0899538
-0.155372 -0.067727 0.583141 0.0133362 -0.999321 -0.0343614
-0.0229461 -0.0957807 0.178196 -0.696601 -0.696926 -0.170416
0.121429 -0.0911046 0.672528 -0.713785 0.700356 -0.0034259
-0.0285743 -0.0373377 0.465231 -0.707107 0.707103 -0.00223151
-0.0317634 -0.0748257 0.602465 -0.172902 -0.759971 0.626538
-0.0107754 -0.0302831 0.244412 -0.258806 0.965909 0.00624514
0.151492 -0.0678572 0.59175 0 1 0
0.0178591 -0.0334751 0.154907 0.706943 0.706908 -0.0226322
0.0356238 -0.048672 0.247466 0.707125 0.707056 -0.00679623
0.0535871 -0.0849318 0.374169 -0.776868 -0.627676 -0.0499963
0.0422671 -0.0788728 0.27382 0.964418 -0.258517 -0.0553868
0.0136916 -0.0320026 0.705882 0.258801 0.965928 -0.00237665
0.0387649 -0.0821797 0.229201 0.958371 -0.257031 -0.124342
-0.00749136 -0.0308846 0.116556 -0.9971 0.0694141 0.0312075
-0.00652792 0.0284948 0.161518 -0.996693 0.0751851 0.0308355
0.0208824 -0.0906639 0.160104 0.696599 -0.696929 -0.170414
0.0299894 -0.0663148 0.917272 0.927246 0.248981 0.279686
0.253229 -0.0824116 0.595563 0.397647 0.166443 0.902316
0.0141216 -0.0715799 0.653811 -0.201361 0.976899 0.0715654
-0.00678375 -0.126339 0.583138 -0.258806 -0.965926 0.00273356
-0.0064255 -0.0292698 0.232987 -0.994837 -0.0823184 0.0593489
-0.0283849 -0.118829 0.641571 -0.707103 -0.707107 0.00222844
-0.00489437 -0.0283677 0.193938 -0.997099 0.0694279 0.0311899
0.318352 -0.0678572 0.551103 0 1 0
0.0160588 -0.0816979 0.677035 -0.320614 -0.939697 -0.119067
0.183252 -0.0806237 0.629119 0.429057 0.199306 0.881015
0.105755 -0.0678572 0.601138 0 1 0
0.0834112 -0.0692379 0.392929 0.763997 0.616818 -0.189325
-0.308022 -0.0830687 0.540281 0 1 0
0.0289468 -0.115971 0.424611 0.707105 -0.707108 0.000501276
0.0166643 -0.0328883 0.669615 0.258801 0.965928 -0.00237665
0.0420789 -0.0946078 0.832245 0.962053 -0.25761 0.0899511
-0.0040965 -0.043543 0.130959 0.960765 -0.277212 0.00913856
0.3258 -0.0830687 0.562536 0 -1 0
-0.0149311 -0.124476 0.390808 -0.258827 -0.965923 0.00100236
-0.0985181 -0.0678572 0.652356 0 -1 0
-0.00133323 0.0636124 0.1031 -0.997099 0.0694294 0.0312115
-0.00413836 -0.0285231 0.779463 -0.258815 0.965924 -0.00237506
0.0124123 -0.124397 0.40597 0.258822 -0.965925 0.000999299
-0.13406 -0.0830687 0.611649 0 1 0
0.234031 -0.0735247 0.561336 -0.178154 0.686972 -0.704507
0.00148787 -0.0107035 0.22144 0.980318 0.0840988 0.178615
-0.121421 -0.0678572 0.623304 0 -1 0
0.0180907 -0.0830687 0.624203 0 1 0
-0.00797062 0.00364576 0.175478 -0.996696 0.0751606 0.0307856
-0.00553698 -0.0317212 0.193494 0.996696 -0.0751504 -0.0308022
0.144803 -0.0483565 0.0927936 0.47947 0.876627 0.0404221
-0.0503939 -0.0816957 0.349948 -0.216111 -0.959283 -0.181856
0.0168289 -0.0327723 0.264265 0.258798 0.965911 0.00624413
0.0193399 -0.0337108 0.590511 0.258801 0.96593 -0.00100707
-0.0920194 -0.0830687 0.665109 0 1 0
-0.00729586 0.0219314 0.152687 -0.996696 0.0751629 0.0307933
0.0098983 -0.118079 0.30338 0.25771 -0.961954 -0.0907158
0.126766 -0.112182 0.691155 -0.249449 -0.968388 0.000606081
0.0112495 -0.0994558 0.175335 0.253687 -0.947113 -0.196517
0.254511 -0.0707053 0.558907 -0.17814 0.687001 -0.704483
0.0354608 -0.0467642 0.597619 0.707107 0.707106 -0.000501305
0.384692 -0.0766587 0.530231 0.179328 0.981721 -0.0637601
-0.25856 -0.0830687 0.589597 0 1 0
-0.0108314 -0.0183333 0.136543 -0.996695 0.0751701 0.0307856
0.0458624 -0.0692441 0.375747 0.965524 0.258651 -0.0293765
-0.0449678 -0.0554817 0.37689 -0.965521 0.258662 -0.0293759
-0.319728 -0.0712828 0.534103 -0.24091 -0.629571 0.73865
0.0329683 -0.0556702 0.169895 0.0740308 0.975254 0.208325
-0.0115537 -0.0830687 0.632609 0 -1 0
-0.0195599 -0.122669 0.687946 -0.258791 -0.965932 0.00135551
0.0268777 -0.0968276 0.209818 0.696593 -0.696934 -0.170413
0.00416644 -0.12594 0.769246 0.258813 -0.965926 0.00135551
-0.027185 -0.109035 0.889924 -0.691599 -0.6912 0.209605
0.28778 -0.0678572 0.568931 0 1 0
-0.0323862 -0.0407542 0.70555 -0.707107 0.707104 -0.00187597
0.0414207 -0.0731217 0.232239 0.964418 -0.258517 -0.0553868
0.0414286 -0.101379 0.819809 0.962054 -0.257605 0.0899497
0.0291411 -0.0452312 0.859874 0.704833 0.704984 0.0787898
-0.0879992 -0.0830687 0.629939 0 1 0
-0.0339314 -0.0828789 0.642171 -0.322256 0.939699 0.114532
0.291051 -0.0765269 0.577721 0.388282 0.270118 0.881064
-0.117334 -0.0830687 0.587138 0 1 0
-0.0602167 -0.0904385 0.406015 0.752887 -0.658149 -0.000812365
0.030086 -0.114481 0.606434 0.707113 -0.707097 0.00222842
0.00859548 -0.0730365 0.0777677 0.245162 -0.915678 -0.31848
-0.316858 -0.0746064 0.532249 -0.248635 -0.617625 0.746137
-0.0325624 -0.0619656 0.135687 0.0128449 0.981698 0.19001
-0.0026934 -0.0282218 0.744557 -0.258815 0.965924 -0.00237506
-0.205231 -0.0678572 0.580688 0 -1 0
-0.0554347 -0.0522741 0.167216 -0.0128602 -0.981693 -0.190035
-0.0435432 -0.0495768 0.152478 -0.01285 -0.981696 -0.190019
-0.00814064 -0.0375952 0.00929985 -0.833778 0.222666 -0.505207
0.000512887 0.0813345 0.11334 0.996696 -0.0751658 -0.0307758
0.0423258 -0.0554345 0.451099 0.965927 0.258812 -0.00136427
-0.38256 -0.0763889 0.52302 0.178436 -0.98172 0.0662218
0.0269882 -0.037895 0.7879 0.707107 0.707104 -0.00187332
-0.0365982 -0.0451318 0.615432 -0.707085 0.707128 -0.000503916
-0.00892489 -0.0988577 0.165893 -0.253693 -0.947112 -0.196514
-0.00287246 0.00814082 0.177322 -0.997099 0.0694332 0.0312037
-0.0988918 -0.0401326 0.105258 -0.0252485 -0.811281 0.584111
-0.0290867 -0.106905 0.27166 -0.704882 -0.705043 -0.0778174
-0.00380508 -0.029053 0.343021 -0.258815 0.965907 0.00624415
-0.16281 -0.0678572 0.601456 0 -1 0
-0.0485482 -0.076977 0.326326 -0.964416 -0.258522 -0.0553883
-0.0358707 -0.0451665 0.350986 -0.707097 0.707084 -0.00679719
0.0476169 -0.0813279 0.483407 0.965928 -0.258809 -0.000363414
0.0262375 -0.118177 0.657364 0.707113 -0.7071 0.000860217
-0.0175851 -0.123506 0.561375 -0.258806 -0.965926 0.00273356
0.0360429 -0.108613 0.578316 0.707105 -0.707105 0.00223048
0.156794 -0.0591566 0.0748025 -0.174471 0.623437 -0.762159
0.00080077 -0.106769 0.197096 0.253679 -0.947116 -0.196515
-0.0371731 -0.109832 0.793835 -0.707115 -0.707098 0.00086244
0.00366585 -0.0534249 0.110653 -0.653734 -0.677661 -0.33676
-0.116869 -0.0970009 0.711908 -0.950044 -0.263876 0.166689
-0.127866 -0.107435 0.637587 -0.224461 -0.871096 -0.436817
-0.00291593 0.00628422 0.185555 0.996696 -0.0751579 -0.0307962
-0.0866304 -0.0713122 0.389805 -0.957344 0.188327 -0.219146
-0.265435 -0.0709553 0.583932 0.400681 -0.270162 -0.875481
-0.0802086 -0.0437065 0.12463 -0.012849 -0.981699 -0.190004
0.0481293 -0.0787394 0.782494 0.965928 -0.258812 -9.59723e-06
-0.333997 -0.0678572 0.543767 0 -1 0
0.0196728 -0.0680863 0.621744 -0.201358 0.9769 0.0715614
0.00196399 -0.00303144 0.160493 0.997101 -0.0694151 -0.0311774
-0.150678 -0.0830687 0.638424 0 1 0
0.0216958 -0.0342148 0.678376 0.258841 0.965917 -0.00237339
-0.197802 -0.0701547 0.616447 0.427331 -0.320513 -0.845375
0.0283116 -0.116199 0.624316 0.707113 -0.707097 0.00222842
-0.172486 -0.0830687 0.572457 0 1 0
-0.0203585 -0.0830687 0.631702 0 1 0
0.0325156 -0.0594538 0.179633 -0.389291 0.85448 0.343971
-0.0954662 -0.0580578 0.147247 0.533907 -0.0403695 -0.844579
-0.177738 -0.0678572 0.617202 0 -1 0
0.015732 -0.0327578 0.57735 0.258837 0.965921 -0.00100363
0.0422854 -0.0694624 0.606361 -0.164053 0.759974 -0.628908
0.138985 -0.0736997 0.648429 0.40605 0.32768 0.853082
-0.271302 -0.0678572 0.565017 0 -1 0
0.0184808 -0.122707 0.467478 0.258822 -0.965925 0.000999299
-0.0444278 -0.0528641 0.679734 -0.707085 0.707126 -0.00187115
-0.0719326 -0.0620606 0.382539 -0.320075 0.93764 -0.135583
0.0292957 -0.0558126 0.126268 0.960292 0.257089 -0.108374
-0.0105843 -0.117962 0.881016 -0.257653 -0.961243 0.098116
0.0331716 -0.0673905 0.155519 0.958372 -0.257024 -0.124343
-0.00764159 -0.0293852 0.810596 -0.258815 0.965924 -0.00237506
-0.344772 -0.0703613 0.548305 0.394794 -0.249824 -0.884153
-0.010953 -0.0625354 0.101019 -0.980278 -0.182073 0.0768366
-0.0494513 -0.084317 0.610661 -0.965924 -0.25882 0.00136298
-0.00356353 -0.0331229 0.24704 -0.997098 0.0694261 0.0312264
-0.0457154 -0.0765918 0.87306 -0.96247 0.258069 0.083974
-0.00332795 -0.047575 0.0947354 -0.0658405 -0.863748 0.499605
0.0395227 -0.0830687 0.642248 0 -1 0
0.00204572 0.0975432 0.142112 -0.881733 0.250761 0.399582
0.283368 -0.0678572 0.576605 0 1 0
-0.263406 -0.0830687 0.577646 0 1 0
-0.127341 -0.0830687 0.649545 0 1 0
-0.139069 -0.0677246 0.589006 0.00761407 -0.999312 -0.0362941
-0.0175154 -0.123627 0.525258 -0.258806 -0.965926 0.00273356
-0.0242781 -0.0345504 0.452815 -0.258807 0.965925 -0.00273069
0.0478341 -0.0798401 0.763933 0.965928 -0.258812 -9.59723e-06
0.0449399 -0.0723391 0.318177 0.965524 0.258651 -0.0293765
0.0266058 -0.0830687 0.659187 0 1 0
-0.0192969 -0.0326228 0.253129 -0.258806 0.965909 0.00624513
-0.0438833 -0.078091 0.250299 -0.964416 -0.258521 -0.0553882
-0.00413637 -0.092846 0.136901 -0.248612 -0.928301 -0.276496
0.266837 -0.0768252 0.588484 0.388282 0.270118 0.881064
-0.00785588 -0.0402401 0.125728 -0.997098 0.069441 0.0311891
-0.0456988 -0.0983295 0.609086 -0.965922 -0.25883 0.00136113
-0.0478788 -0.0653886 0.738978 -0.965922 0.25883 -0.00100518
-0.0604471 -0.0678572 0.626822 0 -1 0
0.00157942 0.094849 0.114871 0.996693 -0.0751787 -0.0308261
-0.00908678 -0.125725 0.581876 -0.258806 -0.965926 0.00273356
0.0733527 -0.0670667 0.368539 0.717035 0.578592 -0.388705
-0.00539732 -0.0349747 0.192567 -0.997099 0.0694279 0.0311899
-0.0240028 -0.034398 0.332648 -0.258839 0.9659 0.00624695
-0.00342617 0.0118442 0.151394 -0.997099 0.0694287 0.0312125
-0.00624161 -0.0290303 0.802403 -0.258815 0.965924 -0.00237506
-0.0492103 -0.071105 0.400307 -0.965924 0.258823 -0.00136298
-0.137469 -0.0678572 0.645417 0 -1 0
-0.00523653 -0.0231301 0.171357 -0.997099 0.0694218 0.0312224
-0.0016305 0.0539167 0.110895 0.996694 -0.0751679 -0.0308291
-0.288654 -0.0830687 0.553548 0 1 0
-0.00163346 -0.112442 0.92379 -0.254175 -0.948263 0.190241
0.019662 -0.0736966 0.69829 -0.201358 0.976899 0.0715723
-0.033178 -0.0429363 0.827892 -0.704811 0.705006 0.0787906
0.0480038 -0.0792066 0.754741 0.965928 -0.258812 -9.59723e-06
-0.0453633 -0.0996804 0.590238 -0.965922 -0.25883 0.00136113
-0.0100445 -0.0302816 0.707917 -0.258824 0.965922 -0.00237588
0.394552 -0.0830687 0.525772 0 -1 0
0.238663 -0.0678572 0.586602 0 1 0
-0.16377 -0.0830687 0.585754 0 1 0
0.022553 -0.120975 0.796335 0.258786 -0.965934 0.00136017
0.044671 -0.0640221 0.639657 0.965928 0.258811 0.000363393
0.147943 -0.0606628 0.0793808 -0.0740358 -0.975259 -0.208298
-0.0034857 -0.0348634 0.243479 0.915641 -0.40055 0.0340752
0.334783 -0.0830687 0.526218 0 -1 0
-0.00273755 0.00361707 0.191701 -0.997099 0.0694169 0.0312093
0.0773543 -0.0650653 0.382082 0.763961 0.616858 -0.189341
-0.00481023 -0.0290948 0.198247 -0.997099 0.0694279 0.0311899
0.00302696 0.119783 0.11745 -0.997094 0.0694482 0.0313061
-0.0319669 -0.115681 0.463613 -0.707084 -0.70713 0.000498246
0.122633 -0.073652 0.656195 0.406072 0.327608 0.853099
0.28754 -0.0790517 0.579822 0.397681 0.166258 0.902335
0.00240291 0.109991 0.119297 -0.997101 0.0694012 0.0311787
-0.0455746 -0.0989007 0.588596 -0.965922 -0.25883 0.00136113
-0.0364622 -0.11052 0.813031 -0.707115 -0.707098 0.00086244
-0.25242 -0.0737685 0.590756 0.400657 -0.270215 -0.875476
0.0565161 -0.0678572 0.664406 0 1 0
0.0023481 -0.0295613 0.400235 0.25882 0.965922 -0.00272947
-0.014344 -0.124637 0.387164 -0.258827 -0.965923 0.00100236
0.0237773 -0.0351834 0.501559 0.707088 0.707122 -0.00222849
-0.0461629 -0.0970236 0.468725 -0.965925 -0.25882 -0.000360068
0.0397254 -0.0508576 0.70287 0.707107 0.707104 -0.00187334
0.0625581 -0.0876882 0.455917 0.764361 0.61783 0.184494
-0.0595147 -0.0749445 0.463856 -0.927871 -0.316318 0.197478
0.00401573 -0.0301288 0.0316141 0.258755 0.965757 -0.0189524
-0.0215253 -0.12211 0.710796 -0.258819 -0.965925 0.00136015
0.0348941 -0.0462523 0.520337 0.707107 0.707106 -0.000501305
0.0174028 -0.0830687 0.651514 0 -1 0
-0.115638 -0.0992594 0.644879 0.959667 -0.247532 -0.133293
-0.0392957 -0.0754623 0.198156 -0.958368 -0.257035 -0.124351
-0.0911253 -0.0580041 0.119182 0.0128433 0.981696 0.190021
-0.295611 -0.0830687 0.547041 0 1 0
0.176294 -0.0678572 0.622541 0 1 0
-0.0357637 -0.062522 0.183314 0.481437 -0.184213 -0.856904
0.00618698 -0.126082 0.38899 0.258822 -0.965925 0.000999299
0.0434423 -0.0630318 0.825843 0.962472 0.258062 0.083969
0.0973605 -0.0609922 0.0989022 -0.074047 -0.975256 -0.20831
0.204569 -0.0830687 0.576601 0 -1 0
0.124517 -0.0658889 0.120934 0.498387 -0.0544446 0.865243
-0.0557087 -0.0831298 0.431367 0.660545 -0.738548 0.135005
-0.0606586 -0.0909468 0.408278 0.752887 -0.658149 -0.000812365
0.0453034 -0.0663733 0.633278 0.965928 0.258811 0.000363393
-0.00360829 -0.0256355 0.24106 0.996695 -0.0751678 -0.0307906
-0.0213688 -0.122094 0.751957 -0.258819 -0.965925 0.00136015
0.0427331 -0.0562402 0.799201 0.965924 0.258823 -0.00101064
-0.0109828 -0.0479574 0.130681 -0.994839 -0.0823023 0.0593455
0.111901 -0.0812447 0.580224 -0.172192 0.527584 -0.831868
-0.0135008 -0.0307675 0.109315 -0.258828 0.965906 -0.00573194
0.0259112 -0.118626 0.615868 0.707113 -0.707097 0.00222842
0.0258991 -0.0890059 0.935941 0.937173 -0.250669 0.242637
-0.051272 -0.0437851 0.123079 -0.0128715 -0.9817 -0.190001
-0.0137384 -0.0706199 0.0741491 -0.678223 -0.678724 -0.281687
-0.0737258 -0.0623938 0.140684 0.0128411 0.981695 0.190027
-0.1367 -0.103144 0.706611 0.953465 0.265553 0.14278
-0.00685601 -0.06815 0.0602583 -0.245159 -0.915672 -0.3185
0.0447015 -0.0641396 0.481743 0.965927 0.258809 -0.00136366
0.158498 -0.0841718 0.587263 0.961494 0.257892 -0.0949805
0.0372208 -0.048503 0.627415 0.707083 0.707131 -0.000503941
-0.0447958 -0.054154 0.608601 -0.965925 0.258822 0.000360256
0.040357 -0.0689224 0.691348 -0.201358 0.976899 0.0715743
0.000896936 0.0787 0.15241 -0.897354 0.293927 0.329186
-0.00150184 -0.0277629 0.801324 -0.258815 0.965924 -0.00237506
-0.133419 -0.111589 0.68542 -0.249378 -0.968398 0.00394887
0.0403021 -0.0687312 0.216365 0.963583 0.25805 -0.0701222
0.000168354 0.0796682 0.106248 0.996696 -0.0751772 -0.0307628
-0.0447825 -0.0566578 0.82249 -0.96247 0.258069 0.083974
-0.0262402 -0.0387816 0.164842 -0.706948 0.706903 -0.0226327
-0.069634 -0.0954105 0.408647 0.323003 -0.946398 -0.000255309
0.0862424 -0.0537722 0.142074 0.0740272 0.975254 0.208324
-0.0485323 -0.0681559 0.479812 -0.965922 0.258831 -0.00136152
0.157612 -0.0832977 0.581779 0.706069 0.706097 -0.0537948
-0.031594 -0.0673701 0.922032 -0.927238 0.249007 0.279687
0.123153 -0.11063 0.659141 -0.700272 -0.713876 -0.000691134
-0.0252801 -0.0341845 0.780976 -0.25884 0.965917 -0.00237339
-0.0518685 -0.0675003 0.165586 0.0128631 0.981695 0.190023
0.0281054 -0.0720025 0.69892 -0.201358 0.976899 0.0715723
-0.173584 -0.0678572 0.606247 0 -1 0
-0.0679419 -0.0867201 0.357354 -0.176637 -0.896686 -0.405899
0.00504804 -0.048123 0.0962118 -0.471209 -0.826928 -0.306843
0.0233154 -0.120792 0.781707 0.258786 -0.965934 0.00136017
0.0302609 -0.0963734 0.911483 0.937184 -0.250632 0.24263
0.00353269 0.0331489 0.130129 0.997099 -0.0694121 -0.0312341
0.0406286 -0.0566915 0.171954 0.0740434 0.975251 0.208332
-0.0466524 -0.0641221 0.356181 -0.965521 0.258662 -0.0293759
-0.29719 -0.0830687 0.534756 0 1 0
0.13196 -0.0829727 0.596306 0.258439 0.966019 0.00403364
-0.0436859 -0.0894181 0.859407 -0.962054 -0.257605 0.0899538
0.055018 -0.0841145 0.354443 -0.347734 -0.903264 -0.251388
0.0361081 -0.105405 0.346636 0.704874 -0.705051 -0.0778207
0.165161 -0.0830687 0.597061 0 -1 0
0.0387178 -0.106099 0.527102 0.707105 -0.707105 0.00223048
0.0170658 -0.0333094 0.469481 0.258837 0.965917 -0.00272956
-0.0142117 -0.124079 0.703803 -0.258791 -0.965932 0.00135551
-0.00733928 -0.0742867 0.630379 -0.201359 0.976899 0.071573
-0.0429947 -0.0802069 0.3577 0.980924 -0.193365 0.0199444
-0.0483005 -0.0671937 0.498307 -0.965922 0.258831 -0.00136152
0.0135478 -0.123521 0.701799 0.258786 -0.965934 0.00136017
-0.00269392 -0.0286462 0.32616 -0.258815 0.965907 0.00624415
0.174163 -0.0805121 0.63352 0.429057 0.199306 0.881015
-0.311361 -0.0830687 0.548986 0 1 0
-0.0194191 -0.0958283 0.16484 -0.253678 -0.947116 -0.196518
-0.0236881 -0.121913 0.546571 -0.258791 -0.96593 0.0027307
-0.0371127 -0.0568237 0.109432 0.0128548 0.981696 0.190019
-0.0374512 -0.0513815 0.203148 -0.963582 0.258054 -0.0701269
0.0798522 -0.0675832 0.135981 -0.0740368 -0.975258 -0.208305
-0.00461324 -0.0288757 0.216444 0.996696 -0.0751583 -0.0308025
0.0240403 -0.05557 0.0995785 -0.0740317 -0.975259 -0.208302
-0.000254216 -0.122715 0.855674 0.257647 -0.961246 0.0981036
0.00341657 0.116242 0.122109 0.996698 -0.0751517 -0.0307381
0.0346819 -0.1102 0.475161 0.707105 -0.707108 0.000501276
0.00626838 -0.119404 0.870982 0.257647 -0.961246 0.0981036
-0.0751028 -0.0645022 0.151669 0.0128553 0.981695 0.190026
0.00151428 -0.0284897 0.236543 0.258815 0.965907 0.0062439
-0.0174243 -0.0698965 0.0812805 -0.678223 -0.678724 -0.281687
-0.00361189 -0.017183 0.220314 0.996695 -0.0751761 -0.0307992
0.143297 -0.101219 0.656442 0.959652 -0.247602 -0.133274
0.0796229 -0.0915893 0.424119 0.628441 -0.777849 0.00358541
0.0239191 -0.120961 0.477851 0.707105 -0.707108 0.000501276
-0.0384196 -0.108736 0.670339 -0.707104 -0.70711 0.000859838
0.0261883 -0.0376793 0.474575 0.707088 0.707122 -0.00222849
-0.00962258 -0.125839 0.448254 -0.258827 -0.965923 0.00100236
-0.0897435 -0.0772625 0.441062 -0.981108 0.193455 -0.00161109
0.0824523 -0.0760692 0.460202 -0.981671 -0.154139 0.112089
-0.047308 -0.0742588 0.847636 -0.96247 0.258069 0.083974
-0.00299762 -0.0298977 0.250666 0.936902 0.178425 0.300632
-0.027136 -0.0594434 0.122291 0.0128509 0.981693 0.190036
0.0765743 -0.0830687 0.625843 0 -1 0
0.0287699 -0.075545 0.929532 0.927245 0.248981 0.279689
0.0311016 -0.103516 0.284179 0.70488 -0.705045 -0.0778218
0.0211887 -0.0344885 0.443187 0.258837 0.965917 -0.00272956
0.0299685 -0.0409603 0.755825 0.707107 0.707104 -0.00187332
-0.0496524 -0.0725704 0.435346 -0.965924 0.258823 -0.00136298
-0.0419871 -0.105091 0.73398 -0.707115 -0.707098 0.00086244
-0.0577238 -0.0451795 0.130719 -0.0128396 -0.981695 -0.190029
-0.360546 -0.0762146 0.542915 0.394794 -0.249824 -0.884153
-0.00187335 0.0530736 0.109288 -0.997099 0.06942 0.031208
0.00617625 -0.0718723 0.635448 -0.201359 0.976899 0.071573
-0.0393199 -0.0830687 0.619922 0 1 0
0.0127938 -0.123715 0.707171 0.258786 -0.965934 0.00136017
-0.141896 -0.0571846 0.11838 0.0128311 0.981688 0.190066
-0.0378852 -0.0612031 0.132107 0.0128449 0.981698 0.19001
0.0445786 -0.063811 0.457065 0.965927 0.258812 -0.00136427
0.000451067 0.0630996 0.165174 -0.896754 0.311722 0.314105
-0.11563 -0.106072 0.699275 0.968345 -0.249613 -0.00072031
-0.0434106 -0.10424 0.459754 -0.707115 -0.707098 0.000506428
-0.0194219 -0.0332614 0.448493 -0.258847 0.965914 -0.00272718
-0.0441584 -0.103247 0.580768 -0.707103 -0.707107 0.00222844
-0.047984 -0.0660643 0.617249 -0.965925 0.258822 0.000360256
-0.0570065 -0.0841195 0.468324 0.964264 -0.1897 0.184954
-0.00285815 0.0915671 0.126343 -0.996696 0.075162 0.0307825
-0.00852665 -0.0336259 0.101374 0.996696 -0.0751547 -0.0308189
-0.146751 -0.0404613 0.112365 -0.012937 -0.981735 -0.189811
0.0856387 -0.0878912 0.637309 -0.258425 -0.966031 0.00108406
-0.30885 -0.0830687 0.561787 0 1 0
0.125339 -0.111136 0.708302 -0.243123 -0.942586 0.228959
0.0755188 -0.0821606 0.459314 0.606438 -0.750267 0.26331
-0.00721204 -0.0279103 0.129975 0.996695 -0.0751758 -0.0307971
0.0371988 -0.0484928 0.610882 0.707083 0.707131 -0.000503941
0.00182152 -0.126776 0.637252 0.258786 -0.965931 0.00273358
0.138612 -0.110092 0.658218 0.713876 -0.700272 -0.000764808
