0.0421544 -0.108761 0.338028 0.453655 -0.89032 -0.0390682
-0.0614608 -0.0960084 0.486843 -0.706346 -0.706365 0.046089
0.21658 -0.060992 0.392549 -0.105765 -0.994361 -0.00775344
-0.0508441 0.00235182 0.136867 -0.892377 0.410182 -0.188188
0.0434735 -0.0994161 0.254592 0.451419 -0.885932 -0.106517
-0.0559155 -0.0824565 0.596006 -0.696586 -0.696564 0.171948
-0.0318664 0.000584263 0.0757311 -0.721556 0.596805 -0.35097
0.0473313 0.0388746 0.309756 0.451391 0.885945 -0.106521
0.127908 -0.0414577 0.0947215 0.116066 0.992941 -0.0244459
0.0138651 0.106684 0.0303921 -0.990115 0.118352 -0.0752596
-0.0580389 -0.0392834 0.641837 -0.918138 -0.145403 0.36862
-0.0275233 -0.0252327 0.0532802 0.98741 -0.156397 0.0236987
0.100545 -0.0585849 0.0999735 -0.151421 -0.988349 -0.0154412
-0.236531 -0.0463366 0.370355 -0.163087 0.986293 -0.0250599
0.0387048 -0.100793 0.245838 0.451419 -0.885932 -0.106517
0.0414756 0.0268992 0.607845 0.422054 0.828247 0.368616
0.405032 -0.0750967 0.334769 0.162813 0.986443 -0.0205478
-5.63846e-05 0.0495884 0.363203 -0.347045 0.201377 -0.915973
-0.167061 -0.0305326 0.379245 -0.299325 0.953875 -0.0229423
-0.0260195 -0.0556296 0.0489668 -0.639192 -0.639192 -0.42763
0.0022964 -0.0247773 0.893834 0.15649 0.987592 0.0131676
-0.131038 -0.000195476 0.0824308 0.23906 0.969968 -0.0448451
0.0325483 0.027617 0.168145 0.448518 0.880289 -0.154672
-0.0300154 0.0459024 0.294829 -0.451399 0.885942 -0.106521
-0.071962 -0.0108659 0.108758 0.151422 0.988349 -0.0154353
-0.0997082 -0.0279284 0.154744 -0.857998 0.13404 0.495855
0.303913 -0.0579569 0.351527 0.163086 0.986293 -0.0250628
0.0248571 -0.0193907 0.0434002 -0.890279 -0.453662 0.0399276
0.0117396 -0.004919 0.692263 0.386012 0.757808 0.526044
-0.0677922 -0.0112497 0.12509 0.151422 0.988349 -0.0154353
-0.189754 -0.0388046 0.418114 -0.325344 0.944744 0.0401121
-0.0136969 -0.120446 0.38685 -0.156367 -0.986925 -0.0390842
0.0102385 0.100975 0.47507 0.144896 0.989217 -0.0213121
0.0897818 -0.0572522 0.120219 -0.151421 -0.988349 -0.0154412
-0.0220968 -0.110324 0.263493 -0.155556 -0.982066 -0.106529
0.110578 -0.0142782 0.503109 0.325861 0.944999 0.0281232
-0.0103367 0.0881411 0.413011 -0.485644 0.791933 -0.370123
-0.032631 -0.117743 0.435245 -0.453503 -0.890062 0.0460898
0.0190058 0.0299901 0.135874 0.980031 -0.195574 -0.0359074
-0.12348 -0.0213496 0.3209 -0.0176163 0.00278993 -0.999841
0.0358369 -0.114636 0.398542 0.453637 -0.89033 -0.0390732
0.00711302 -0.0611535 0.0422483 0.120065 -0.758101 -0.640989
-0.0454426 0.0491775 0.446521 -0.971907 0.117225 -0.204096
-0.158442 -0.0491035 0.403669 0.248284 -0.968516 -0.0182014
0.00429782 -0.115489 0.55162 0.154091 -0.972979 0.171954
0.004355 -0.0875059 0.09035 0.1649 -0.939168 -0.301282
-0.307401 -0.0706049 0.321774 0.102272 -0.994706 0.0100315
-0.333918 -0.0732032 0.365851 0.105931 -0.994298 -0.0122596
0.0574396 0.0214378 0.250516 0.703107 0.703059 -0.106529
-0.0192726 -0.0827783 0.654229 -0.421998 -0.828275 0.368615
-0.219185 -0.0442836 0.338274 -0.163087 0.986293 -0.0250599
0.0377459 -0.110834 0.334085 0.453655 -0.89032 -0.0390682
-0.110038 -0.0264604 0.119931 -0.11606 -0.992941 -0.0244445
0.0174777 -0.10354 0.195866 0.154693 -0.976621 -0.149271
0.416615 -0.0786124 0.359714 0.744856 0.661627 0.086252
0.0267185 0.073585 0.108934 0.980031 -0.195574 -0.0359074
-0.0781615 -0.0104393 0.0752556 0.151422 0.988349 -0.0154353
-0.022694 -0.0868033 0.10688 -0.485125 -0.858889 -0.164204
-0.0239363 0.0236509 0.122491 -0.485912 0.860288 -0.154254
-0.0156151 -0.117742 0.32621 -0.156301 -0.986937 -0.0390678
0.11833 -0.0283536 0.501459 0.667089 0.105663 0.737447
0.00952167 -0.0173447 0.125511 -0.00869453 -0.0170663 -0.999817
0.0849091 -0.0576127 0.498036 0.986638 -0.156272 0.0460901
-0.0804 0.00897291 0.438736 -0.890058 0.453511 0.0460844
-0.00655462 0.0346971 0.616683 -0.328812 0.320637 0.888299
0.138883 -0.0382458 0.321123 0.0176722 0.0034375 -0.999838
-0.0772951 0.0139938 0.415545 -0.890325 0.453647 -0.0390702
0.0261426 0.0365203 0.609202 0.742157 0.244444 0.624059
0.315047 -0.071323 0.376417 -0.105931 -0.994298 -0.0122596
-0.239042 -0.0468592 0.383723 -0.173667 0.984339 0.0302705
-0.334739 -0.0641656 0.302519 -0.162812 0.986444 -0.0205219
0.407641 -0.0811959 0.293538 -0.102272 -0.994706 0.0100315
0.0903336 -0.0525037 0.166806 0.857584 -0.135836 0.496083
-0.0588762 0.0140513 0.596959 -0.696598 0.696547 0.171971
-0.249486 -0.0643888 0.360556 0.102034 -0.994761 0.00633932
-0.033095 -0.102859 0.579775 -0.447192 -0.877752 0.171963
-0.0186081 -0.058094 0.0892064 0.70588 0.705934 -0.0582347
0.167825 -0.052127 0.340391 -0.239315 -0.970828 0.0148686
-0.172149 -0.0338877 0.448619 -0.32586 0.945 0.0281211
-0.0701108 -0.0533962 0.606202 -0.918138 -0.145404 0.368621
-0.0294488 -0.111041 0.547496 -0.447192 -0.877752 0.171963
0.14685 -0.0566849 0.0444901 0.896247 -0.140011 -0.420878
-0.302398 -0.0702387 0.307072 0.102272 -0.994706 0.0100315
0.0382519 -0.0897409 0.168663 0.447953 -0.879245 -0.16207
0.0122222 0.0647937 0.165467 0.127136 0.802775 0.582571
0.00178941 0.0468725 0.148621 -0.990219 0.137979 -0.0206797
-0.0232779 -0.0272226 0.125397 0.0189173 -0.00299641 -0.999817
-0.148471 -0.0133062 0.066414 -0.857998 0.13404 0.495855
0.312783 -0.0641797 0.404129 0.27347 0.053194 0.960409
-0.0614391 0.00446598 0.608541 -0.828256 0.422043 0.368609
-0.164361 -0.0297957 0.374653 -0.299325 0.953875 -0.0229423
0.248073 -0.0491712 0.333911 0.163086 0.986293 -0.0250628
0.0108508 0.104466 0.099004 -0.990219 0.137979 -0.0206797
-0.00410125 -0.0412521 0.781669 -0.45392 -0.890945 0.0131674
0.0364542 -0.00854311 0.074347 0.862048 0.363318 -0.353375
0.0445886 -0.0960518 0.231336 0.451419 -0.885932 -0.106517
-0.272299 -0.0535853 0.315719 -0.162812 0.986444 -0.0205219
-0.0357847 -0.068462 0.088852 -0.696016 -0.627847 -0.348382
-0.0494708 0.0259926 0.227982 -0.703109 0.703058 -0.106523
0.0876661 -0.040761 0.360251 0.986934 -0.156319 -0.0390724
-0.0401555 0.0484394 0.440291 -0.453523 0.890052 0.046095
0.00575383 0.0445485 0.234404 0.155573 0.982064 -0.106529
-0.0502673 -0.0103443 0.106459 -0.892377 0.410182 -0.188188
0.0253738 0.0625981 0.132075 0.980031 -0.195574 -0.0359074
-0.146777 -0.00758885 0.044646 -0.896238 0.140014 -0.420897
0.0675915 -0.0639992 0.59779 0.877736 -0.447228 0.17195
0.120549 -0.0401534 0.374183 -0.236314 -0.971632 0.00935561
0.00638731 -0.0511812 0.125481 -0.0086953 0.0170653 -0.999817
-0.0737295 -0.0163308 0.592694 -0.972977 0.154097 0.171957
-0.129747 -0.0427216 0.467055 0.248531 -0.968554 -0.0116098
-0.010839 0.097408 0.455356 -0.425372 0.893581 -0.143429
0.205731 -0.0411487 0.374095 0.163086 0.986293 -0.0250628
-0.0295081 0.0506102 0.352014 -0.453626 0.890335 -0.0390774
0.0231892 0.10953 0.101428 0.127156 0.80277 0.582574
0.0552546 -0.088485 0.574263 0.696583 -0.696566 0.171953
-0.259737 -0.0575023 0.418864 -0.273468 0.0531794 0.96041
-0.0658578 -0.070472 0.222903 -0.885927 -0.451427 -0.106524
-0.0387499 -0.106621 0.545867 -0.44724 -0.87773 0.171946
0.0642395 -0.00254073 0.186775 0.875055 0.44586 -0.18838
-0.0371481 0.0440581 0.309715 -0.45139 0.885946 -0.106523
-0.0802817 -0.0682397 0.499493 -0.890057 -0.453514 0.0460877
0.341436 -0.0719605 0.39653 0.280581 0.24923 0.926908
-0.0874798 -0.0527443 0.459524 -0.986638 -0.156272 0.0460893
0.357027 -0.0759109 0.390027 -0.105765 -0.994361 -0.00775344
-0.0861452 -0.0104001 0.0525143 0.222085 0.971655 -0.0810182
0.0146759 -0.122108 0.434728 0.15632 -0.98663 0.0461033
-0.0378561 0.0332178 0.222557 -0.451399 0.885942 -0.106521
0.13152 -0.0187464 0.405582 0.299323 0.953876 -0.0229422
-0.00372832 -0.0243186 0.819017 -0.453838 0.890987 0.0131676
0.0193215 -0.0535682 0.0445601 -0.702344 0.7024 0.115528
-0.0303433 0.0055055 0.080968 -0.721556 0.596805 -0.35097
0.0237247 -0.0133284 0.0715222 -0.920105 -0.387758 0.055226
-0.0472845 -0.0889232 0.199055 -0.696735 -0.696714 -0.170736
0.0614351 -0.0208318 0.631368 0.918134 0.14543 0.368619
0.021512 0.038582 0.199559 0.127136 0.802775 0.582571
-0.0944291 -0.00774554 0.0881569 0.151422 0.988349 -0.0154353
0.0291333 0.0935979 0.0658401 0.980031 -0.195574 -0.0359074
-0.173142 -0.0532966 0.426266 0.248284 -0.968516 -0.0182014
0.181717 -0.0557025 0.437466 -0.24853 -0.968555 -0.0116097
-0.0248158 0.0199036 0.642639 -0.422051 0.82824 0.368633
-0.265303 -0.0660918 0.381972 0.105931 -0.994298 -0.0122596
0.00841468 0.0821911 0.0789255 -0.990192 0.133929 -0.0397881
0.0926158 -0.0303916 0.320331 0.017626 0.00279147 -0.999841
-0.262024 -0.0509464 0.384777 -0.173667 0.984339 0.0302705
-0.41354 -0.0814584 0.34739 0.105931 -0.994298 -0.0122596
-0.0252036 -0.105456 0.227408 -0.451419 -0.885931 -0.106528
-0.0107181 -0.107158 0.217693 -0.155556 -0.982066 -0.106529
0.0277716 -0.0419423 0.089658 -0.991513 0.129896 0.00542378
0.327284 -0.072822 0.304626 -0.102272 -0.994706 0.0100315
-0.233861 -0.0629907 0.328442 0.102034 -0.994761 0.00633932
-0.00101484 0.058846 0.602636 -0.250245 0.675603 0.693497
-0.0404274 0.0456145 0.36495 -0.453626 0.890335 -0.0390774
0.0743464 0.0010497 0.275648 0.885939 0.451403 -0.106527
0.0258306 0.0581773 0.162359 0.968367 -0.243113 -0.0562362
0.125536 -0.0611892 0.0215956 -0.151421 -0.988349 -0.0154412
-0.0799952 -0.0741761 0.446606 -0.890063 -0.453503 0.0460841
0.0865922 -0.0501556 0.370709 0.986937 -0.1563 -0.0390677
0.0655783 0.0288538 0.453561 0.706348 0.706362 0.0460889
-0.00850397 0.0891311 0.544005 -0.273486 0.925057 0.26358
0.417654 -0.0812521 0.370989 0.744856 0.661627 0.086252
0.021962 0.0497291 0.305832 0.155573 0.982064 -0.106529
-0.245351 -0.0642924 0.315108 0.102272 -0.994706 0.0100315
-0.127519 -0.0023738 0.0540751 0.23906 0.969968 -0.0448451
-0.0113057 0.0869012 0.548924 -0.273486 0.925057 0.26358
0.104591 -0.0468121 0.143717 0.858001 -0.134037 0.495851
0.0641048 -0.0962928 0.424199 0.706565 -0.706569 -0.0390727
-0.00105222 -0.024738 0.905665 -0.156486 0.987592 0.0131618
0.36369 -0.0684957 0.371011 0.173515 0.984503 0.0254103
-0.0807046 -0.0310023 0.165153 -0.11606 -0.992941 -0.0244445
0.334296 -0.0629079 0.354398 0.163086 0.986293 -0.0250628
0.107073 -0.0364061 0.428738 -0.248283 -0.968517 -0.0182013
0.0956087 -0.0577405 0.0943306 -0.151421 -0.988349 -0.0154412
-0.0603061 -0.0127073 0.105194 0.151422 0.988349 -0.0154353
0.0731432 0.0124886 0.314113 0.885939 0.451403 -0.106527
0.0881261 -0.0360739 0.353118 0.986934 -0.156319 -0.0390724
0.0279317 -0.116859 0.357406 0.453655 -0.89032 -0.0390682
0.0048715 0.0450891 0.580481 0.154091 0.972977 0.171964
0.0184227 0.0524324 0.334896 0.156343 0.986929 -0.0390784
0.0956273 -0.0344746 0.509434 -0.24853 -0.968555 -0.0116097
-0.0444297 -0.102791 0.286713 -0.451372 -0.885956 -0.106517
-0.132342 -0.0199736 0.442322 -0.32586 0.945 0.0281211
0.0320028 0.0966568 0.102291 0.968367 -0.243113 -0.0562362
-0.0512144 0.0237596 0.588672 -0.696598 0.696547 0.171971
-0.0581217 -0.00108515 0.622351 -0.828256 0.422043 0.368609
0.0326198 0.105123 0.0763179 0.968367 -0.243113 -0.0562362
0.034903 -0.107992 0.548868 0.44724 -0.877727 0.171962
-0.0766966 -0.00666044 0.262517 -0.885939 0.451403 -0.106527
-0.0619533 -0.061974 0.17451 -0.875044 -0.445882 -0.188383
-0.0937826 -0.0333164 0.45231 0.248531 -0.968554 -0.0116098
-0.391199 -0.079358 0.308153 0.102272 -0.994706 0.0100315
-0.00820696 -0.0268327 0.753856 -0.890867 0.454074 0.0131669
-0.0487531 -0.107109 0.376982 -0.453655 -0.89032 -0.0390729
0.331758 -0.0732535 0.393921 -0.105765 -0.994361 -0.00775344
0.0821397 0.0030199 0.398537 0.890333 0.453631 -0.0390728
-0.0445854 0.0546739 0.447243 -0.905976 0.383522 -0.179216
0.019495 -0.0886059 0.107085 0.485915 -0.860288 -0.154247
-0.0162635 -0.111589 0.562965 -0.15409 -0.972978 0.171962
-0.34713 -0.0658868 0.318098 -0.162812 0.986444 -0.0205219
-0.0498016 -0.0841 0.608401 -0.657324 -0.657304 0.368613
0.0198184 -0.120424 0.410786 0.156367 -0.986926 -0.0390682
0.0562079 -0.0220369 0.121079 0.969106 0.138459 -0.204114
0.0669243 -0.0930453 0.416459 0.706565 -0.706569 -0.0390727
-0.0249748 -0.0166377 0.0935083 0.921371 -0.388301 -0.01723
0.123696 -0.0185368 0.32176 0.304479 0.951951 -0.0328806
0.00329131 0.0452268 0.0823831 -0.990366 0.131855 -0.0423008
-0.394983 -0.0795973 0.322999 0.102272 -0.994706 0.0100315
-0.400115 -0.0801189 0.323602 0.102272 -0.994706 0.0100315
-0.0457337 -0.105636 0.532726 -0.44724 -0.87773 0.171946
-0.0123205 -0.109962 0.245879 -0.155556 -0.982066 -0.106529
0.0797846 -0.0205968 0.562251 0.972975 0.154114 0.171956
0.0106788 0.00878489 0.0617428 0.16084 0.840198 -0.517878
-0.0622047 0.0323148 0.412087 -0.706562 0.706572 -0.0390683
-0.0245811 -0.116188 0.322836 -0.156301 -0.986937 -0.0390678
-0.0197823 -0.0373241 0.707978 -0.839996 -0.133028 0.526032
-0.0453036 0.0575609 0.473143 -0.930196 0.363977 -0.0474937
-0.0650775 -0.0958227 0.434262 -0.706345 -0.706366 0.0460896
0.137034 -0.0443853 0.351071 -0.236314 -0.971632 0.00935561
-0.0282869 -0.117447 0.483698 -0.45352 -0.890054 0.0460844
-0.00121974 0.052387 0.608855 -0.250274 0.675588 0.693501
-0.0414442 0.0474979 0.445791 -0.453523 0.890052 0.046095
-0.0786602 0.0116132 0.446355 -0.890058 0.453511 0.0460844
0.0121828 0.0532786 0.520687 0.156297 0.986634 0.046083
0.410296 -0.0812776 0.360762 -0.105931 -0.994298 -0.0122596
0.115672 -0.0394441 0.494914 -0.24853 -0.968555 -0.0116097
0.049979 -0.0336757 0.0694976 0.108176 0.993149 -0.0441848
-0.313964 -0.0600181 0.381783 -0.173667 0.984339 0.0302705
-0.0201812 0.0228281 0.106074 -0.485912 0.860288 -0.154254
0.0526446 -0.0998403 0.305954 0.703082 -0.703086 -0.106521
-0.129692 -0.0425383 0.452953 0.248531 -0.968554 -0.0116098
0.0370161 -0.0909354 0.171728 0.447953 -0.879245 -0.16207
-0.0749435 -0.0354789 0.209828 -0.982071 -0.155529 -0.106525
0.0134761 0.116512 0.0684916 -0.990192 0.133929 -0.0397881
0.00499636 -0.0251086 0.828733 0.453838 0.890987 0.0131631
-0.00524887 0.0441425 0.585498 -0.154132 0.972971 0.171963
-0.108054 -0.0116841 0.445196 -0.32586 0.945 0.0281211
-0.0836608 -0.0115296 0.0351801 0.15678 0.986942 -0.0369507
0.0775764 -0.0144308 0.256443 0.98207 0.155533 -0.106525
0.101805 -0.0108691 0.345416 0.299323 0.953876 -0.0229422
0.0856293 -0.0600991 0.386164 0.986937 -0.1563 -0.0390677
0.274463 -0.0533885 0.339668 0.163086 0.986293 -0.0250628
-0.0673831 0.0201901 0.307907 -0.703077 0.703088 -0.106533
0.0555472 0.0595551 0.489473 0.925348 0.371271 0.076736
0.0239058 -0.0514565 0.0856552 -0.921383 0.388273 -0.0172345
0.394573 -0.0740631 0.375832 0.173515 0.984503 0.0254103
0.0788878 -0.0704726 0.350489 0.890323 -0.453649 -0.039071
-0.000573205 0.0587045 0.421916 -0.156344 0.98693 -0.039067
0.105694 -0.0368279 0.490258 -0.24853 -0.968555 -0.0116097
-0.0787294 -0.00858075 0.275609 -0.982069 0.155537 -0.106525
-0.159459 -0.0293947 0.444691 -0.32586 0.945 0.0281211
0.0768761 -0.00877189 0.568111 0.972978 0.154097 0.17195
-0.102766 -0.0195141 0.147179 -0.857998 0.13404 0.495855
0.082073 -0.0643419 0.35189 0.890329 -0.453638 -0.039068
-0.371092 -0.0770998 0.360671 0.105931 -0.994298 -0.0122596
0.054394 -0.0661348 0.628424 0.828264 -0.422021 0.368614
0.101356 -0.0353511 0.388115 -0.236314 -0.971632 0.00935561
-0.183464 -0.0560544 0.335666 0.239316 -0.970828 0.0148685
-0.0666954 -0.0934561 0.445737 -0.706345 -0.706366 0.0460896
0.0770918 0.00795344 0.512644 0.89007 0.453487 0.0460897
0.0440729 0.00964599 0.130479 0.730072 0.658574 -0.182414
0.0413257 0.0115645 0.636579 0.657286 0.657341 0.368617
-0.117716 -0.0392613 0.435922 0.248531 -0.968554 -0.0116098
0.00889195 0.0761943 0.150484 0.127156 0.80277 0.582574
0.0581309 0.0334276 0.497602 0.706357 0.706354 0.0460853
0.126481 -0.0417746 0.0750732 0.116066 0.992941 -0.0244459
0.345611 -0.0745952 0.315648 -0.102272 -0.994706 0.0100315
-0.396169 -0.0799958 0.379966 0.105765 -0.994361 -0.00775344
-0.0880911 -0.0439457 0.383707 -0.986937 -0.1563 -0.0390725
0.102788 -0.00937644 0.420293 0.299323 0.953876 -0.0229422
0.0573802 -0.102613 0.41689 0.706565 -0.706569 -0.0390727
0.168331 -0.0324789 0.331441 0.304479 0.951951 -0.0328806
0.0694042 -0.00398374 0.213217 0.885938 0.451405 -0.106527
-0.183742 -0.036937 0.345073 -0.304478 0.951952 -0.0328752
-0.0225146 -0.0897634 0.121833 -0.485125 -0.858889 -0.164204
-0.0569291 0.035825 0.380161 -0.706562 0.706572 -0.0390684
0.0512053 -0.0864634 0.208159 0.70309 -0.703077 -0.106519
0.0618991 -0.0929879 0.526412 0.706352 -0.706359 0.0460896
-0.282798 -0.0553188 0.315697 -0.162812 0.986444 -0.0205219
0.0296526 -0.0868485 0.129204 0.447953 -0.879245 -0.16207
-0.369652 -0.0743787 0.297218 0.150589 -0.13373 -0.97951
-0.0501677 0.0310178 0.478648 -0.991205 0.117189 -0.0614829
0.407046 -0.0759928 0.307704 0.162813 0.986443 -0.0205478
0.00782686 -0.0336644 0.908527 0.987604 -0.156414 0.0131661
-0.0217359 0.0903354 0.445912 -0.510925 0.856318 -0.0753343
-0.0173368 0.0477348 0.28069 -0.155573 0.982064 -0.106521
0.107884 -0.0367841 0.439733 -0.24853 -0.968555 -0.0116097
-0.303323 -0.058891 0.306823 -0.162812 0.986444 -0.0205219
-0.0235377 0.0903606 0.494586 -0.545416 0.835235 0.0700287
-0.256578 -0.065186 0.384816 0.105765 -0.994361 -0.00775344
-0.366805 -0.0693716 0.382783 -0.173667 0.984339 0.0302705
0.103311 -0.0587946 0.0862682 -0.151421 -0.988349 -0.0154412
0.0603545 0.0143265 0.222822 0.703107 0.703059 -0.106529
0.160145 -0.0282225 0.385062 0.299323 0.953876 -0.0229422
0.407396 -0.0763577 0.292958 0.162813 0.986443 -0.0205478
0.0062959 -0.0272667 0.883465 0.707195 0.706896 0.0131652
0.0597935 0.02764 0.538199 0.696575 0.696571 0.171964
0.115451 -0.0147683 0.361326 0.299323 0.953876 -0.0229422
0.000762994 -0.108116 0.596506 0.154091 -0.972979 0.171954
-0.163997 -0.0300202 0.36249 -0.304478 0.951952 -0.0328752
-0.0115629 -0.0478388 0.710127 -0.601389 -0.601353 0.526028
-0.296112 -0.0693476 0.332872 0.102034 -0.994761 0.00633932
0.00923036 0.046455 0.257056 0.155573 0.982064 -0.106529
-0.00775649 -0.00966061 0.702016 -0.386133 0.757753 0.526034
-0.0685214 -0.0290587 0.0592834 -0.108166 -0.993151 -0.0441807
-0.0718168 -0.077603 0.540844 -0.877732 -0.447234 0.171956
0.0186112 0.0460124 0.266674 0.155531 0.982071 -0.10652
-0.371297 -0.0699579 0.37575 -0.173509 0.984505 0.0253793
0.0955645 -0.057537 0.0817399 -0.151421 -0.988349 -0.0154412
0.418544 -0.0818905 0.339203 -0.105931 -0.994298 -0.0122596
0.404611 -0.0751765 0.327602 0.162813 0.986443 -0.0205478
-0.05546 -0.0576962 0.135618 -0.890733 -0.409429 -0.197388
0.00875192 -0.0949934 0.130544 0.171082 -0.974375 -0.146032
-0.00548559 -0.0250178 0.805722 -0.454068 0.89087 0.0131636
-0.034964 -0.0506182 0.677173 -0.757764 -0.386111 0.526035
0.174994 -0.0327988 0.396377 0.325345 0.944744 0.0401183
0.0538923 -0.105659 0.408893 0.706565 -0.706569 -0.0390727
0.392641 -0.0728627 0.342517 0.173515 0.984503 0.0254103
0.0506237 -0.107011 0.396479 0.453637 -0.89033 -0.0390732
0.021741 0.092604 0.526065 0.410395 0.887699 0.208726
0.0424902 0.0415066 0.581575 0.903098 0.183626 0.388194
-0.0927824 -0.0280567 0.166762 -0.857998 0.13404 0.495855
-0.126446 -0.0075034 0.102956 -0.857585 0.135821 0.496085
-0.00947115 -0.0319711 0.790271 -0.987605 0.156406 0.0131655
0.088125 -0.00561632 0.472213 0.325861 0.944999 0.0281232
-0.0893552 -0.032161 0.528216 -0.667088 0.105648 0.73745
0.374082 -0.0704273 0.313691 0.162813 0.986443 -0.0205478
-0.330664 -0.0728438 0.364815 0.105931 -0.994298 -0.0122596
0.407374 -0.0810319 0.36608 -0.105931 -0.994298 -0.0122596
0.028441 0.0500123 0.326008 0.453628 0.890335 -0.0390685
0.05328 0.0124186 0.177429 0.696747 0.696701 -0.170736
-0.0330156 0.0365674 0.229903 -0.451399 0.885942 -0.106521
-0.0850096 -0.00655744 0.528479 -0.667088 0.105648 0.73745
0.0767743 0.0111386 0.370535 0.890333 0.453631 -0.0390728
-0.065307 -0.0112911 0.146821 0.151422 0.988349 -0.0154353
-0.0528315 0.027642 0.566395 -0.696569 0.69658 0.171956
-0.0376432 -0.0626882 0.663335 -0.601364 -0.601374 0.526032
-0.108132 -0.0370147 0.386481 0.236315 -0.971631 0.00935566
0.276428 -0.0542078 0.31858 0.162813 0.986443 -0.0205478
-0.0746506 -0.0542851 0.234584 -0.982071 -0.155529 -0.106525
-0.365168 -0.0723039 0.389663 -0.273468 0.0531794 0.96041
0.162257 -0.0303389 0.44398 0.325861 0.944999 0.0281232
0.0205529 0.00496083 0.671561 0.386135 0.757757 0.526027
0.026607 -0.118212 0.477674 0.156254 -0.986641 0.0460839
0.0902746 -0.0359237 0.140821 0.116066 0.992941 -0.0244459
0.403077 -0.0802781 0.342073 -0.105931 -0.994298 -0.0122596
0.0640238 -0.0769637 0.235161 0.885939 -0.451404 -0.106522
0.252119 -0.0500421 0.325942 0.162813 0.986443 -0.0205478
-0.383026 -0.0786058 0.299404 0.102272 -0.994706 0.0100315
0.244064 -0.0476814 0.381446 0.173515 0.984503 0.0254103
0.00266768 0.000722583 0.686868 0.133034 0.839993 0.526037
0.0317983 0.0910663 0.501498 0.54544 0.835219 0.0700297
-0.123944 -0.0232908 0.0638626 -0.106312 -0.993274 -0.0458653
0.00477622 0.0487891 0.272069 0.155573 0.982064 -0.106529
0.0490349 -0.0978727 0.26914 0.70309 -0.703077 -0.106519
0.0413031 0.0821122 0.45643 0.756202 0.639891 -0.136742
0.0212131 0.0453423 0.112501 0.980031 -0.195574 -0.0359074
0.0881954 -0.0333502 0.343973 0.986934 -0.156319 -0.0390724
-0.0137589 -0.0986148 0.619187 -0.14543 -0.918136 0.368615
0.143785 -0.045916 0.362626 -0.236314 -0.971632 0.00935561
0.0299246 -0.0217741 0.689704 0.757784 0.386077 0.526031
-0.0442851 -0.108275 0.351681 -0.453655 -0.89032 -0.0390729
-0.16106 -0.0505112 0.337015 0.239316 -0.970828 0.0148685
-0.319294 -0.0717375 0.330989 0.102034 -0.994761 0.00633932
-0.108901 -0.00564299 0.0808113 0.151422 0.988349 -0.0154353
0.0796806 -0.0136286 0.277014 0.98207 0.155533 -0.106525
-0.158079 -0.0499893 0.323111 0.239316 -0.970828 0.0148685
0.0198597 0.0912738 0.0230939 -0.1014 -0.529691 -0.842108
-0.00869651 -0.119833 0.351356 -0.156301 -0.986937 -0.0390678
0.0593731 -0.0317107 0.640796 0.91814 0.145412 0.368612
0.110353 -0.0379852 0.487072 -0.24853 -0.968555 -0.0116097
0.0385797 0.0243681 0.616848 0.422054 0.828247 0.368616
-0.0122378 0.0515051 0.36876 -0.763851 0.157816 -0.6258
0.0203459 0.0559539 0.0559044 0.97696 -0.204549 -0.060907
0.250357 -0.0491374 0.350104 0.163086 0.986293 -0.0250628
0.022727 0.0452824 0.154146 0.980031 -0.195574 -0.0359074
-0.116828 -0.0393657 0.361982 0.236315 -0.971631 0.00935566
0.0290354 0.0383691 0.228021 0.451391 0.885945 -0.106521
0.0196093 0.0549528 0.403297 0.156299 0.986937 -0.0390673
0.124239 -0.0406629 0.109582 0.116066 0.992941 -0.0244459
-0.265206 -0.0662429 0.402656 0.105765 -0.994361 -0.00775344
0.0550198 -0.0140861 0.121082 0.967547 0.153262 -0.200905
0.0189589 0.0246708 0.111971 0.448518 0.880289 -0.154672
-0.262853 -0.065768 0.359275 0.102034 -0.994761 0.00633932
-0.00838066 -0.0346957 0.854745 -0.98761 -0.156376 0.0131661
0.00872994 -0.0715249 0.0572811 0.133764 -0.844678 -0.518292
-0.0835515 -0.0156363 0.309763 -0.98207 0.155533 -0.106525
0.0800756 -0.00729736 0.289899 0.98207 0.155533 -0.106525
0.0796015 -0.0610646 0.544117 0.877736 -0.447228 0.17195
-0.0288696 0.0863926 0.475582 -0.790957 0.611219 -0.0282522
-0.0572193 0.0339252 0.35105 -0.706562 0.706572 -0.0390684
0.307839 -0.0591098 0.387369 0.173672 0.984338 0.0302741
-0.0604438 0.0160514 0.582508 -0.696598 0.696547 0.171971
0.062412 -0.0264113 0.147568 0.969106 0.138459 -0.204114
-0.0571834 -0.00300228 0.154717 -0.873776 0.445238 -0.195647
0.118652 -0.0393047 0.320762 0.0176722 0.0034375 -0.999838
0.126545 -0.0413498 0.401382 -0.236314 -0.971632 0.00935561
0.181389 -0.0369789 0.322081 0.304479 0.951951 -0.0328806
0.0203934 -0.114317 0.297816 0.15553 -0.98207 -0.106528
-0.376397 -0.0777969 0.312042 0.102272 -0.994706 0.0100315
0.0518618 -0.0426342 0.0615484 -0.657704 0.0861618 -0.748332
0.0598864 -0.055886 0.152406 0.873789 -0.445213 -0.195647
0.322127 -0.0618932 0.395901 0.173672 0.984338 0.0302741
-0.0886214 -0.0521871 0.436976 -0.986638 -0.156272 0.0460893
-0.151495 -0.0253345 0.392272 -0.299325 0.953875 -0.0229423
0.000254308 0.0756697 0.580339 -0.168245 0.859546 0.482571
0.00233297 0.0550719 0.177302 -0.990219 0.137979 -0.0206797
-0.0243316 0.0496898 0.30893 -0.155573 0.982064 -0.106521
-0.0554332 -0.096544 0.3026 -0.703075 -0.703093 -0.10652
-0.025225 -0.0180494 0.69374 -0.757778 0.386084 0.526033
0.00959312 -0.119288 0.341161 0.156301 -0.986936 -0.0390847
0.0746933 -0.051683 0.231183 0.982067 -0.155554 -0.106525
0.0969918 -0.033954 0.436788 -0.24853 -0.968555 -0.0116097
0.0823725 -0.000594168 0.361881 0.890328 0.45364 -0.0390703
-0.304278 -0.0703762 0.399772 0.105765 -0.994361 -0.00775344
-0.12434 -0.0038016 0.105582 -0.857585 0.135821 0.496085
-0.0604946 -0.051818 0.147977 -0.967551 -0.153229 -0.20091
-0.0282855 -0.0301005 0.0553156 0.991412 -0.12989 0.0152182
0.0109874 -0.122129 0.418508 0.156367 -0.986926 -0.0390682
0.0771735 -0.0568159 0.261544 0.982067 -0.155554 -0.106525
0.333468 -0.0634136 0.328594 0.162813 0.986443 -0.0205478
0.036624 0.0200936 0.628691 0.422054 0.828247 0.368616
-0.0400527 -0.112715 0.403721 -0.453639 -0.890329 -0.0390683
0.287641 -0.0683682 0.373579 -0.105931 -0.994298 -0.0122596
-0.0369308 0.0706423 0.442719 -0.905981 0.383501 -0.179236
-0.0847759 -0.00053089 0.41737 -0.890325 0.453647 -0.0390702
0.0255487 0.0702719 0.0950507 0.980031 -0.195574 -0.0359074
-0.0279411 -0.112444 0.297121 -0.451419 -0.885931 -0.106528
-0.400691 -0.0750519 0.372402 -0.173509 0.984505 0.0253793
0.0760034 -0.0342359 0.141618 0.116066 0.992941 -0.0244459
-0.0187232 0.0235738 0.641368 -0.422013 0.828267 0.368617
-0.111663 -0.0377571 0.440019 0.248531 -0.968554 -0.0116098
-0.0755041 -0.0369078 0.217082 -0.982071 -0.155529 -0.106525
0.0237193 -0.0160673 0.0522022 -0.920105 -0.387758 0.055226
-0.0120588 -0.00345734 0.0961939 0.522549 -0.848192 -0.0866797
0.205523 -0.0599402 0.408502 -0.105765 -0.994361 -0.00775344
-0.0321342 -0.117196 0.413881 -0.453639 -0.890329 -0.0390683
-0.313847 -0.0712228 0.378661 0.105931 -0.994298 -0.0122596
-0.0530589 -0.0920221 0.257081 -0.703075 -0.703093 -0.10652
-0.00283778 0.0865103 0.557884 -0.0966827 0.950429 0.295529
0.0347747 -0.0613547 0.668139 0.601362 -0.601378 0.526031
0.319723 -0.0719865 0.395598 -0.105765 -0.994361 -0.00775344
0.287721 -0.060396 0.411056 0.27347 0.053194 0.960409
0.091494 -0.0105183 0.320366 0.017626 0.00279147 -0.999841
0.000156244 0.0549296 0.526128 0.156297 0.986634 0.046083
0.0471123 -0.0298893 0.0875152 0.917761 0.131124 -0.374862
0.125964 -0.019266 0.321652 0.304479 0.951951 -0.0328806
-0.00347475 0.0440126 0.587823 -0.154132 0.972971 0.171963
0.0278114 0.0507389 0.517341 0.45349 0.890068 0.0460957
-0.0290436 0.0648902 0.405494 -0.835286 0.436213 -0.334688
0.050597 -0.106395 0.382137 0.453637 -0.89033 -0.0390732
0.0691391 -0.0867568 0.342794 0.706565 -0.706569 -0.0390727
0.0857544 -0.0612079 0.462976 0.890066 -0.453496 0.0460897
0.276293 -0.0672195 0.347816 -0.102034 -0.994761 0.0063394
0.0676521 -0.0891709 0.496742 0.706352 -0.706359 0.0460896
-0.105181 -0.0265947 0.102327 -0.11606 -0.992941 -0.0244445
-0.0423238 0.0385945 0.552647 -0.965794 0.147272 0.213429
-0.0810367 -0.0653803 0.340319 -0.890323 -0.453649 -0.0390678
0.13777 -0.0446112 0.347391 -0.239315 -0.970828 0.0148686
-0.0410382 -0.0976232 0.229362 -0.451372 -0.885956 -0.106517
-0.0826015 -0.0698918 0.43843 -0.890063 -0.453503 0.0460841
0.380655 -0.0740828 0.295548 -0.14308 -0.0278311 -0.98932
0.0236012 0.0422076 0.193006 0.968367 -0.243113 -0.0562362
0.0196743 0.0323894 0.141054 0.980031 -0.195574 -0.0359074
0.386517 -0.0790056 0.384641 -0.105765 -0.994361 -0.00775344
-0.0601387 -0.0123182 0.131753 0.151422 0.988349 -0.0154353
0.153952 -0.027487 0.444388 0.325861 0.944999 0.0281232
0.0211552 -0.118305 0.494165 0.156254 -0.986641 0.0460839
0.0552151 -0.0685842 0.623775 0.828264 -0.422021 0.368614
0.0346518 0.0480957 0.354443 0.453659 0.890318 -0.0390772
0.0158955 0.0177737 0.0850366 0.498666 0.809499 -0.30991
0.00830292 0.0882619 0.112888 -0.990219 0.137979 -0.0206797
-0.050412 0.02706 0.578554 -0.696569 0.69658 0.171956
0.116279 -0.048923 0.122923 0.858001 -0.134037 0.495851
0.152648 -0.026138 0.42074 0.325345 0.944744 0.0401183
0.145741 -0.0595807 0.0430918 0.896247 -0.140011 -0.420878
0.0216427 0.0533535 0.0805924 0.980031 -0.195574 -0.0359074
0.0245299 -0.085221 0.104068 0.485915 -0.860288 -0.154247
0.125065 -0.0177793 0.361578 0.299323 0.953876 -0.0229422
0.0190033 -0.110091 0.25683 0.15553 -0.98207 -0.106528
-0.0249693 0.072138 0.404772 -0.835286 0.43622 -0.334678
-0.399458 -0.0743641 0.354151 -0.173509 0.984505 0.0253793
-0.031842 0.0775356 0.439257 -0.756203 0.63989 -0.136742
-0.0878235 -0.0421127 0.369615 -0.986937 -0.1563 -0.0390725
0.0412279 0.0158073 0.142074 0.696747 0.696701 -0.170736
-0.0909523 -0.0326232 0.408622 0.236315 -0.971631 0.00935566
-0.00461784 -0.0223638 0.737069 -0.445577 0.87421 0.19292
-0.355431 -0.0754009 0.337768 0.102034 -0.994761 0.00633932
0.00851821 0.0718512 0.0459569 -0.990115 0.118352 -0.0752596
0.134031 -0.0438402 0.33755 -0.239315 -0.970828 0.0148686
-0.0809592 -0.0189291 0.184717 -0.857585 0.135821 0.496085
0.105179 -0.0101358 0.419919 0.299323 0.953876 -0.0229422
-0.0103476 -0.121741 0.457264 -0.15632 -0.986631 0.0460844
0.088343 -0.045328 0.466178 0.986638 -0.156272 0.0460901
0.00836137 -0.0317642 0.871045 0.987597 0.156459 0.0131653
0.00801088 -0.0365119 0.831418 0.890944 -0.453922 0.013167
-0.230345 -0.0464298 0.32643 -0.163087 0.986293 -0.0250599
-0.0892183 -0.0328048 0.345969 0.236315 -0.971631 0.00935566
0.0623323 -0.0327874 0.135541 0.116066 0.992941 -0.0244459
0.0260084 0.0547438 0.42362 0.156343 0.986929 -0.0390784
-0.0868957 -0.045065 0.357991 -0.986937 -0.1563 -0.0390725
-0.00901014 -0.0319919 0.825101 -0.987605 0.156406 0.0131655
-0.37902 -0.0711352 0.318811 -0.162812 0.986444 -0.0205219
-0.0429423 0.029905 0.555844 -0.965794 0.147274 0.21343
0.0341419 -0.108791 0.546772 0.44724 -0.877727 0.171962
-0.0299216 -0.107252 0.262337 -0.451419 -0.885931 -0.106528
0.0555359 0.040143 0.440689 0.971905 0.117225 -0.204105
0.231688 -0.0626666 0.401224 -0.105765 -0.994361 -0.00775344
-0.0627817 -0.0971572 0.448993 -0.706345 -0.706366 0.0460896
0.0692031 -0.0507173 0.609518 0.91814 -0.145404 0.368616
0.0223068 0.0568954 0.0794255 0.980031 -0.195574 -0.0359074
-0.282579 -0.0681401 0.313109 0.102272 -0.994706 0.0100315
-0.114772 -0.0250175 0.0837954 -0.11606 -0.992941 -0.0244445
-0.0279279 -0.00385799 0.0620137 -0.652765 0.652772 -0.384429
0.042072 -0.0967213 0.22624 0.451419 -0.885932 -0.106517
0.0589064 -0.0314144 0.12753 0.969106 0.138459 -0.204114
0.0897733 -0.0335976 0.475335 0.986638 -0.156275 0.0460893
0.0329445 0.0910205 0.460346 0.510919 0.856321 -0.0753328
0.0828299 -0.0567261 0.15472 -0.151421 -0.988349 -0.0154412
-0.0644571 -0.0113364 0.152254 0.151422 0.988349 -0.0154353
0.0121207 -0.0909844 0.107741 0.171082 -0.974375 -0.146032
0.162598 -0.0294247 0.367077 0.299323 0.953876 -0.0229422
-0.140288 -0.0448145 0.388678 0.236315 -0.971631 0.00935566
0.14275 -0.0231596 0.430868 0.325345 0.944744 0.0401183
0.33471 -0.0637536 0.32211 0.162813 0.986443 -0.0205478
0.123909 -0.0169517 0.43848 0.325861 0.944999 0.0281232
0.089003 -0.0563221 0.0683246 -0.151421 -0.988349 -0.0154412
0.12601 -0.0188928 0.479362 0.325861 0.944999 0.0281232
0.0701261 0.0206371 0.509793 0.706348 0.706362 0.0460889
-0.0156572 0.0248502 0.10571 -0.17108 0.974374 -0.146035
0.05209 -0.0712851 0.150892 0.892379 -0.410175 -0.188192
-0.0343314 0.0422841 0.283025 -0.45139 0.885946 -0.106523
-0.0363995 0.0489205 0.467955 -0.453523 0.890052 0.046095
0.00113213 0.0338768 0.0975561 -0.990366 0.131855 -0.0423008
-0.0761259 0.000102212 0.286427 -0.885939 0.451403 -0.106527
-0.0747176 -0.0821186 0.390669 -0.890329 -0.453638 -0.0390709
-0.182064 -0.0478838 0.446886 -0.666147 0.12954 0.734485
0.00989778 -0.0297944 0.742182 0.969132 0.153474 0.192947
0.0232697 0.0553128 0.427036 0.156299 0.986937 -0.0390673
-0.140666 -0.0455852 0.330401 0.239316 -0.970828 0.0148685
0.310434 -0.0589695 0.365585 0.173515 0.984503 0.0254103
0.0201622 0.0973413 0.452255 0.425354 0.893591 -0.143423
-0.101839 -0.0354572 0.389299 0.236315 -0.971631 0.00935566
-0.285772 -0.0683125 0.387541 0.105765 -0.994361 -0.00775344
0.0856108 -0.0547475 0.492728 0.986638 -0.156272 0.0460901
0.032746 -0.115959 0.468559 0.453501 -0.890063 0.0460845
0.0561882 0.0501719 0.526586 0.989375 0.12677 0.0711785
0.0592003 0.017471 0.581794 0.696575 0.696571 0.171964
-0.0367675 0.0756381 0.496711 -0.785136 0.614499 0.0771552
-0.0887384 -0.0516076 0.436435 -0.986638 -0.156272 0.0460893
-0.0508203 0.0163676 0.184359 -0.695609 0.695558 -0.179799
-0.00978704 -0.11368 0.276463 -0.15553 -0.982071 -0.106523
-0.0622065 -0.000830899 0.612881 -0.828256 0.422043 0.368609
-0.0773094 -0.00815935 0.263133 -0.982069 0.155537 -0.106525
0.00810603 0.031076 0.627222 0.145406 0.918139 0.368617
-0.0108969 0.0519547 0.536234 -0.154132 0.972971 0.171963
0.0760098 0.0145345 0.468788 0.89007 0.453487 0.0460897
0.0639006 -0.09438 0.474403 0.706353 -0.706357 0.0460904
0.0356168 -0.0188181 0.0595517 0.879741 0.370775 -0.297626
0.075524 -0.0783612 0.36543 0.890323 -0.453649 -0.039071
-0.0453591 -0.107772 0.352687 -0.453655 -0.89032 -0.0390729
0.0481643 0.0318188 0.572958 0.903098 0.183626 0.388194
-0.334775 -0.0735057 0.385104 0.105765 -0.994361 -0.00775344
0.0847474 -0.0639694 0.408511 0.890329 -0.453638 -0.039068
0.0488969 -0.106358 0.361542 0.453637 -0.89033 -0.0390732
-0.128874 -0.00269639 0.0974424 -0.857585 0.135821 0.496085
-0.0596614 -0.0996909 0.405293 -0.706556 -0.706577 -0.0390722
0.0384621 0.0446476 0.320186 0.451391 0.885945 -0.106521
-0.0968967 -0.00752496 0.434717 -0.32586 0.945 0.0281211
0.0535731 -0.104779 0.473303 0.706353 -0.706357 0.0460904
0.0827944 -0.0374534 0.0649251 0.108176 0.993149 -0.0441848
-0.0465837 0.0373438 0.54626 -0.447219 0.877739 0.171954
0.0417946 0.0342105 0.586645 0.903099 0.183631 0.38819
-0.412852 -0.0814391 0.322545 0.102272 -0.994706 0.0100315
0.0775999 -0.073286 0.353806 0.890323 -0.453649 -0.039071
-0.0700869 -0.0896342 0.452334 -0.706345 -0.706366 0.0460896
-0.0347479 0.0398274 0.564364 -0.447211 0.877744 0.171951
0.0123619 -0.0755072 0.669125 0.133069 -0.839995 0.526024
0.292142 -0.0643851 0.410018 0.27347 0.053194 0.960409
-0.105204 -0.00875627 0.0178481 0.15678 0.986942 -0.0369507
-0.0527942 0.0210175 0.59338 -0.696598 0.696547 0.171971
-0.0266793 -0.0200432 0.0729292 0.920895 -0.3881 0.0364825
-0.00467381 0.09941 0.495591 -0.179618 0.980636 0.0780475
-0.050332 0.0207721 0.199508 -0.695609 0.695558 -0.179799
0.0605556 0.0320593 0.483199 0.991205 0.117186 -0.0614879
0.40971 -0.0765069 0.304133 0.162813 0.986443 -0.0205478
0.0391533 -0.0102102 0.0792176 0.862048 0.363318 -0.353375
-0.370324 -0.0728087 0.388223 -0.273468 0.0531794 0.96041
-0.0483008 -0.0216399 0.0645706 0.6577 -0.0861646 -0.748336
-0.0455813 0.0539447 0.513451 -0.92535 0.371267 0.0767383
0.0780441 -0.0413513 0.575022 0.972979 -0.154089 0.171957
0.00966035 0.100885 0.468847 0.0937099 0.994893 -0.0374971
-0.00225335 0.0346614 0.6206 -0.145406 0.918139 0.368616
0.190865 -0.0572135 0.379122 -0.239315 -0.970828 0.0148686
0.028307 0.0847437 0.417076 0.665675 0.702248 -0.252437
0.0259863 0.0764093 0.0735663 0.980031 -0.195574 -0.0359074
0.164592 -0.0303755 0.423662 0.325345 0.944744 0.0401183
0.0344136 0.0642309 0.392721 0.663164 0.531012 -0.527484
-0.223925 -0.0443397 0.366912 -0.163087 0.986293 -0.0250599
0.0776163 -0.0454833 0.57374 0.972979 -0.154089 0.171957
-0.0190602 0.0426315 0.236157 -0.155573 0.982064 -0.106521
0.336312 -0.0640899 0.385953 0.173672 0.984338 0.0302741
0.385056 -0.078421 0.340698 -0.102034 -0.994761 0.0063394
0.0815772 -0.0528496 0.544725 0.972977 -0.154111 0.17195
0.00667579 0.0688957 0.0774476 -0.990192 0.133929 -0.0397881
-0.0112515 -0.0648966 0.0477209 -0.348428 -0.683895 -0.641003
0.0837668 -0.0632911 0.480864 0.890066 -0.453496 0.0460897
0.181558 -0.035929 0.354037 0.304479 0.951951 -0.0328806
0.382445 -0.0784784 0.306117 -0.102272 -0.994706 0.0100315
0.0445423 0.0322734 0.577446 0.44721 0.877742 0.171969
-0.255124 -0.0498445 0.3533 -0.163087 0.986293 -0.0250599
0.210152 -0.0421299 0.364254 0.163086 0.986293 -0.0250628
-0.0738459 -0.0388018 0.20456 -0.982071 -0.155529 -0.106525
0.112158 -0.0146537 0.32734 0.304479 0.951951 -0.0328806
-0.070925 0.0215654 0.483326 -0.70635 0.706361 0.0460845
0.00745561 0.0720049 0.0685063 -0.990192 0.133929 -0.0397881
0.0868703 -0.0397541 0.336119 0.986937 -0.1563 -0.0390677
-0.295093 -0.056587 0.348046 -0.163087 0.986293 -0.0250599
0.0734307 -0.0206602 0.209125 0.982066 0.155562 -0.106519
-0.367919 -0.076914 0.313156 0.102272 -0.994706 0.0100315
0.00790231 -0.113151 0.268828 0.155556 -0.982067 -0.106523
-0.263762 -0.0508807 0.370896 -0.173509 0.984505 0.0253793
-0.310772 -0.0589329 0.361861 -0.173509 0.984505 0.0253793
0.0562064 0.0109707 0.183823 0.730072 0.658574 -0.182414
-0.117737 -0.0154876 0.361249 -0.299325 0.953875 -0.0229423
0.147443 -0.0240624 0.392309 0.299323 0.953876 -0.0229422
0.00996227 0.0548398 0.361848 0.156299 0.986937 -0.0390673
0.00659836 0.0562184 0.476686 0.156297 0.986634 0.046083
-0.0161387 -0.0298027 0.714282 -0.839994 0.133045 0.526031
0.050333 0.022314 0.209394 0.703107 0.703059 -0.106529
0.0626136 -0.020575 0.152703 0.967547 0.153262 -0.200905
0.27027 -0.0530959 0.323164 0.162813 0.986443 -0.0205478
-0.0136026 -0.0448608 0.125504 0.0135426 0.0135436 -0.999817
0.266048 -0.0522082 0.402706 0.173672 0.984338 0.0302741
0.0706487 0.0218445 0.48328 0.706348 0.706362 0.0460889
0.0129175 -0.0997375 0.166264 0.154693 -0.976621 -0.149271
-0.00805809 -0.0336429 0.89145 -0.987604 -0.156414 0.0131655
0.289836 -0.055772 0.382115 0.173672 0.984338 0.0302741
-0.135581 -0.0167836 0.0177521 -0.895616 0.141798 -0.421623
0.353796 -0.0664173 0.358045 0.173515 0.984503 0.0254103
0.0379822 0.0378678 0.261765 0.451398 0.885942 -0.106523
0.0893018 -0.0430203 0.453478 0.986638 -0.156272 0.0460901
-0.0552409 0.0231232 0.24713 -0.703109 0.703058 -0.106523
0.0296877 -0.111888 0.542548 0.44724 -0.877727 0.171962
-0.0545189 0.0378552 0.485107 -0.70635 0.706361 0.0460846
-0.178418 -0.0549792 0.447755 0.248531 -0.968554 -0.0116098
-0.017445 0.0666324 0.386664 -0.66317 0.53101 -0.527479
0.0798051 -0.0550116 0.0746361 -0.151421 -0.988349 -0.0154412
0.15149 -0.0303821 0.321369 0.017626 0.00279147 -0.999841
-0.0714124 -0.0286551 0.609604 -0.918136 0.145411 0.368622
-0.0224725 -0.113418 0.547054 -0.15409 -0.972978 0.171962
-0.0281353 -0.0249117 0.116748 0.991512 -0.129903 0.00542199
0.0445626 0.0727151 0.434028 0.90597 0.383528 -0.179232
-0.0741031 0.00112943 0.273957 -0.885939 0.451403 -0.106527
-0.0211862 -0.013392 0.041357 -0.542716 0.542811 -0.640948
0.0247417 -0.0771168 0.0832335 0.495495 -0.804412 -0.327728
0.03326 0.0197503 0.12845 0.485123 0.85889 -0.164204
0.136511 -0.0221182 0.336742 0.304479 0.951951 -0.0328806
-0.313626 -0.0713837 0.308012 0.102272 -0.994706 0.0100315
0.0281389 -0.0471689 0.0450908 0.683919 -0.348436 -0.640974
0.0178306 -0.0584943 0.0444665 0.348443 -0.683886 -0.641005
-0.119004 -0.0147053 0.424358 -0.325344 0.944744 0.0401121
0.0847752 -0.00488955 0.490633 0.890066 0.453495 0.0460924
-0.0385824 -0.0403834 0.0661607 -0.957974 -0.125498 -0.257944
-0.119571 -0.0197052 0.118151 -0.857998 0.13404 0.495855
-0.00885915 0.0535199 0.526793 -0.156297 0.986634 0.0460964
0.316076 -0.0643867 0.403203 0.27347 0.053194 0.960409
0.0105566 -0.0625586 0.0448487 0.348432 -0.683905 -0.640991
-0.0075986 0.0959672 0.438823 -0.287414 0.936663 -0.200139
-0.0718431 0.0221665 0.460041 -0.70635 0.706361 0.0460845
-0.0121395 0.0468426 0.609648 -0.742167 0.244441 0.624049
-0.100958 -0.0065242 0.102314 0.151422 0.988349 -0.0154353
0.00791315 -0.112606 0.263825 0.155556 -0.982067 -0.106523
-0.055822 -0.0456866 0.120953 -0.969107 -0.138449 -0.204114
0.0236359 0.0356311 0.187912 0.448518 0.880289 -0.154672
-0.0492657 0.0440156 0.491597 -0.989377 0.126761 0.0711706
0.0451864 0.071667 0.434938 0.90597 0.383528 -0.179232
0.0317011 0.0867834 0.530554 0.500169 0.854232 0.14184
0.196005 -0.0587431 0.361966 -0.239315 -0.970828 0.0148686
-0.119461 -0.0400094 0.361638 0.236315 -0.971631 0.00935566
-0.00479141 0.019683 0.656054 -0.133034 0.839996 0.526032
0.0228227 0.0661857 0.0588922 0.965499 -0.2425 -0.0949009
0.025086 -0.0448704 0.695621 0.757769 -0.386103 0.526033
0.309931 -0.0599539 0.402811 0.173672 0.984338 0.0302741
0.0430993 -0.0995747 0.570519 0.447192 -0.877756 0.171943
-0.131884 -0.0128965 0.0950047 -0.857998 0.13404 0.495855
-0.055317 -0.0132919 0.116709 0.151422 0.988349 -0.0154353
-0.241586 -0.063724 0.337705 0.102034 -0.994761 0.00633932
-0.0852221 -0.0517863 0.511108 -0.986641 -0.156253 0.0460838
0.0208133 0.0549597 0.0667403 0.97696 -0.204549 -0.060907
0.0858337 -0.0558383 0.0684361 -0.151421 -0.988349 -0.0154412
0.262592 -0.0659338 0.329049 -0.102034 -0.994761 0.0063394
0.00540177 0.0441982 0.585047 0.154091 0.972977 0.171964
-0.214396 -0.0426216 0.372517 -0.163087 0.986293 -0.0250599
0.0330842 0.0522382 0.430624 0.453659 0.890318 -0.0390772
0.28849 -0.0685078 0.341992 -0.102034 -0.994761 0.0063394
0.0200685 -0.0458205 0.702151 0.757769 -0.386103 0.526033
0.040664 0.0461949 0.478637 0.453523 0.890052 0.046085
0.387911 -0.0789546 0.314631 -0.102272 -0.994706 0.0100315
-0.407496 -0.0811688 0.294744 0.102272 -0.994706 0.0100315
0.0138366 -0.118532 0.339041 0.156301 -0.986936 -0.0390847
0.0262353 -0.0811663 0.64988 0.421997 -0.828274 0.368621
0.136266 -0.0221538 0.333444 0.304479 0.951951 -0.0328806
-0.414325 -0.0770358 0.31528 -0.162812 0.986444 -0.0205219
0.0588006 0.0468275 0.49623 0.989375 0.12677 0.0711785
0.152763 -0.0485988 0.328344 -0.239315 -0.970828 0.0148686
-0.0531502 -0.0381024 0.103271 -0.917762 -0.131114 -0.374863
-0.00935245 0.0353952 0.168238 -0.154668 0.976624 -0.149278
0.0440306 0.0777758 0.509862 0.785135 0.6145 0.0771552
-0.0954812 -0.00873123 0.491656 -0.32586 0.945 0.0281211
0.0718539 -0.0343836 0.115917 0.116066 0.992941 -0.0244459
0.0495876 0.0154286 0.174643 0.696747 0.696701 -0.170736
0.115442 -0.0395807 0.11177 0.116066 0.992941 -0.0244459
0.25493 -0.0504875 0.326728 0.163086 0.986293 -0.0250628
0.220682 -0.0449881 0.319478 0.162813 0.986443 -0.0205478
0.249548 -0.0498483 0.420635 0.173672 0.984338 0.0302741
-0.114845 -0.0234023 0.0451862 -0.106312 -0.993274 -0.0458653
-0.0809022 -0.0278678 0.26748 -0.98207 0.155533 -0.106525
-0.0609492 0.0239242 0.29009 -0.703077 0.703088 -0.106533
0.0182683 0.050915 0.607827 0.250271 0.675598 0.693492
-0.134519 -0.0435366 0.433774 0.248284 -0.968516 -0.0182014
0.0741174 -0.0819813 0.375412 0.890323 -0.453649 -0.039071
0.315272 -0.060613 0.393605 0.173672 0.984338 0.0302741
0.0406076 -0.0387929 0.0718819 -0.657704 0.0861618 -0.748332
0.0720133 -0.0586735 0.224101 0.885934 -0.451413 -0.106524
-0.0254824 0.0506951 0.319878 -0.155573 0.982064 -0.106521
0.0278346 -0.119162 0.410989 0.156367 -0.986926 -0.0390682
0.0577172 0.0375892 0.527743 0.989375 0.126775 0.0711759
-0.0757254 0.0126841 0.364568 -0.890328 0.45364 -0.0390682
0.0730055 -0.0543517 0.591882 0.972977 -0.154111 0.17195
-0.272148 -0.0531717 0.399058 -0.173667 0.984339 0.0302705
0.0120778 0.0325126 0.622077 0.145406 0.918139 0.368617
-0.00416691 -0.0664378 0.68568 -0.133068 -0.839989 0.526033
0.0776531 -0.0555579 0.130711 -0.151421 -0.988349 -0.0154412
-0.0759189 -0.0487182 0.238149 -0.982071 -0.155529 -0.106525
0.058011 -0.082624 0.227739 0.70309 -0.703077 -0.106519
-0.0853257 -0.00565929 0.347013 -0.299325 0.953875 -0.0229423
-0.249745 -0.048742 0.383541 -0.173667 0.984339 0.0302705
0.0761838 -0.0218383 0.583738 0.972978 0.154097 0.17195
-0.0801392 -0.03114 0.16806 -0.11606 -0.992941 -0.0244445
0.135062 -0.0204936 0.379155 0.299323 0.953876 -0.0229422
0.0791366 -0.0344659 0.147152 0.116066 0.992941 -0.0244459
0.0460986 0.0409823 0.325248 0.453628 0.890335 -0.0390685
-0.181196 -0.0357485 0.415546 -0.325344 0.944744 0.0401121
0.0546818 -0.0797175 0.192105 0.695589 -0.695576 -0.179803
0.141199 -0.0454462 0.449198 -0.24853 -0.968555 -0.0116097
0.0140494 -0.097885 0.155317 0.154693 -0.976621 -0.149271
-0.206498 -0.0412621 0.388426 -0.173667 0.984339 0.0302705
-0.0556395 0.0393309 0.420244 -0.706562 0.706572 -0.0390684
-0.0494159 -0.00788424 0.649696 -0.828271 0.422 0.368625
0.314204 -0.0710546 0.361935 -0.105931 -0.994298 -0.0122596
0.0296658 0.0530984 0.453537 0.45349 0.890068 0.0460957
-0.183997 -0.0376126 0.327868 -0.304478 0.951952 -0.0328752
-0.05559 -0.00503019 0.632556 -0.828271 0.422 0.368625
0.0038004 0.0516882 0.0910851 -0.990192 0.133929 -0.0397881
0.020102 0.015427 0.0856754 0.498666 0.809499 -0.30991
-0.0272438 0.0432558 0.261072 -0.451399 0.885942 -0.106521
0.0659854 -0.0701149 0.590083 0.877736 -0.447228 0.17195
0.0168408 0.0332258 0.0760117 0.97696 -0.204549 -0.060907
-0.0391367 0.0347959 0.241108 -0.45139 0.885946 -0.106523
0.00105084 -0.110814 0.580982 0.154091 -0.972979 0.171954
-0.0701217 -0.0547319 0.605648 -0.918138 -0.145404 0.368621
-0.354973 -0.0671152 0.321272 -0.162812 0.986444 -0.0205219
0.0808524 -0.0509056 0.550569 0.972977 -0.154111 0.17195
-0.0392758 -0.108699 0.314011 -0.451419 -0.885931 -0.106528
0.238307 -0.0633829 0.338462 -0.102034 -0.994761 0.0063394
0.0348404 -0.0918099 0.616113 0.421986 -0.828281 0.368616
0.120398 -0.0157782 0.383886 0.299323 0.953876 -0.0229422
-0.227622 -0.0623415 0.415004 0.105765 -0.994361 -0.00775344
0.206181 -0.0599736 0.356354 -0.102034 -0.994761 0.0063394
0.0682753 -0.0312018 0.172157 0.969106 0.138459 -0.204114
0.0287794 -0.0348922 0.0967577 -0.987638 0.156417 0.0102826
-0.100972 -0.0355448 0.484318 0.248531 -0.968554 -0.0116098
-0.0895308 -0.0413777 0.454159 -0.986638 -0.156272 0.0460893
-0.000544194 -0.0890753 0.648162 -0.145448 -0.918135 0.368609
-0.0767728 -0.0473914 0.576806 -0.972979 -0.154089 0.171957
-0.117469 -0.0399367 0.320738 -0.0176624 0.00343467 -0.999838
0.322757 -0.0714828 0.402056 0.280581 0.24923 0.926908
0.01487 0.0553754 0.395014 0.156299 0.986937 -0.0390673
-0.090716 -0.0398368 0.433576 -0.986934 -0.156319 -0.0390678
-0.0568633 -0.0136021 0.639508 -0.828271 0.422 0.368625
-0.123053 -0.0407782 0.448226 0.248531 -0.968554 -0.0116098
-0.0365196 -0.102582 0.251457 -0.451372 -0.885956 -0.106517
0.0884283 -0.0529744 0.428367 0.986934 -0.156319 -0.0390724
0.0122623 0.0719187 0.586223 0.168251 0.859535 0.482588
-0.0207881 -0.0918606 0.12855 -0.448492 -0.880304 -0.154664
-0.11098 -0.0239589 0.0482787 -0.106312 -0.993274 -0.0458653
-0.0884328 -0.0288209 0.113235 -0.11606 -0.992941 -0.0244445
0.0284496 -0.0358708 0.0725193 -0.991413 0.129883 0.0152182
-0.00830485 -0.107102 0.595486 -0.154117 -0.972975 0.171953
-0.0698035 -0.0894593 0.403669 -0.706558 -0.706576 -0.0390726
0.0421615 0.0815529 0.498799 0.785138 0.614496 0.0771593
0.0228782 0.0546031 0.45607 0.156252 0.986641 0.0460962
-0.0621959 -0.0955098 0.375513 -0.706556 -0.706577 -0.0390722
0.0445949 -0.11111 0.419898 0.453637 -0.89033 -0.0390732
-0.145428 -0.0172305 0.0385654 -0.896238 0.140014 -0.420897
-0.00807166 -0.019115 0.715405 -0.38602 0.757822 0.526017
-0.0368615 -0.00547261 0.667603 -0.601426 0.601303 0.526043
0.0154871 0.0755053 0.57871 0.168308 0.85954 0.482559
-0.395676 -0.0798649 0.372512 0.105931 -0.994298 -0.0122596
-0.0315161 -0.115061 0.358055 -0.453639 -0.890329 -0.0390683
-0.0246986 0.0900303 0.462537 -0.510925 0.856318 -0.0753343
0.251702 -0.0494061 0.348281 0.163086 0.986293 -0.0250628
0.0302166 0.0904838 0.12614 0.127136 0.802775 0.582571
0.118782 -0.0631914 0.108347 -0.239088 -0.969961 -0.0448599
0.000294859 0.0266699 0.641278 0.14541 0.918139 0.368616
0.0743538 -0.011467 0.584799 0.972978 0.154097 0.17195
-0.361638 -0.0682766 0.318324 -0.162812 0.986444 -0.0205219
-0.128094 -0.000930952 0.0822192 0.23906 0.969968 -0.0448451
-0.0306309 0.0841073 0.475451 -0.790957 0.611219 -0.0282522
-0.0556836 -0.0539865 0.128932 -0.890733 -0.409429 -0.197388
0.0709106 -0.0246744 0.189534 0.967547 0.153262 -0.200905
-0.095427 -0.0275117 0.522057 -0.667088 0.105648 0.73745
-0.0969514 -0.00847166 0.465897 -0.32586 0.945 0.0281211
0.0358269 -0.0315404 0.683282 0.839993 0.133052 0.526031
0.0683987 -0.0368319 0.0486973 0.0866332 0.993121 -0.0787793
-0.0657699 0.00114071 0.204704 -0.885925 0.451429 -0.106533
0.00764093 -0.0266195 0.776463 0.707195 0.706896 0.0131652
0.0762012 -0.0779299 0.375855 0.890323 -0.453649 -0.039071
0.0833477 -0.0484294 0.538669 0.972977 -0.154111 0.17195
