0.0439217 0.0242118 0.438843 0.571708 0.81916 -0.0461243
-0.111253 -0.104991 0.542222 -0.0681278 -0.997677 0
0.0295087 -0.044049 0.153736 0.575999 -0.792796 -0.199244
0.134671 0.0826165 0.0475565 0.0659148 0.992406 0.103857
-0.0157629 -0.100026 0.752167 -0.546212 -0.787724 0.284857
-0.23121 -0.0967999 0.510486 -0.0681247 -0.997677 0
0.0965304 -0.102009 0.426353 0.053054 -0.997676 -0.0427557
-0.108542 -0.105176 0.518255 -0.0681278 -0.997677 0
-0.144607 0.0649641 0.0202152 0.0317289 -0.999369 0.0159385
-0.237451 -0.0963738 0.502526 -0.0681247 -0.997677 0
-0.0138083 -0.0541344 0.152075 -0.532667 -0.82777 -0.176249
-0.0608407 -0.00593684 0.386304 -0.926612 0.375942 -0.00757519
-0.145825 -0.102282 0.493892 -0.053054 -0.997676 -0.0427557
0.0210471 0.0228996 0.270149 0.375809 0.926635 -0.0107198
0.205316 -0.0779677 0.411679 -0.0187069 0.998971 0.041312
0.257668 -0.0949933 0.510248 0.0681247 -0.997677 0
-0.334116 -0.0897732 0.462089 -0.0681247 -0.997677 0
0.0566053 0.0141432 0.620537 0.968699 0.247936 0.0122921
0.376601 -0.0718127 0.334094 -0.0178902 0.999246 0.034454
0.238879 -0.0941166 0.416993 0.0535806 -0.997711 -0.0412602
0.0740262 0.0862155 0.0501336 0.0587727 0.995167 0.0786602
-0.00965755 0.123762 0.040473 -0.998327 -0.0163383 -0.0554709
0.0188177 -0.083163 0.302325 0.511888 -0.836209 -0.196787
0.00549052 -0.10897 0.660489 0 -1 0
0.126449 -0.0794911 0.415601 -0.0169766 0.999002 0.0413132
-0.175349 0.0815716 0.0303771 -0.0781727 0.986 0.147287
-0.0149157 0.142159 0.110531 0 0.848415 0.529332
0.166006 -0.083043 0.593527 0.428839 0.155825 0.88984
0.113872 -0.104415 0.504005 0.053054 -0.997676 -0.0427557
-0.173203 -0.0801974 0.352909 0.133011 -0.0109176 -0.991054
-0.254557 -0.075241 0.366948 0.0173049 0.999094 0.0388727
-0.0566388 0.0673387 0.0846401 0.0581076 -0.995388 -0.0763275
0.307966 -0.0815831 0.524747 0.437397 0.0990022 0.893802
0.0104448 -0.0478669 0.113248 0 -0.982966 -0.183787
-0.36028 -0.0879866 0.434025 -0.0681255 -0.997677 0
0.265363 -0.0787834 0.498625 -0.0330172 0.999455 0
-0.113367 0.0804193 0.0854727 -0.0767764 0.99204 0.099808
0.0324297 -0.12876 0.522584 0.58696 -0.807906 -0.0525911
-0.0400706 -0.0735021 0.758028 -0.895781 -0.378589 0.23291
0.0474673 0.0242695 0.633566 0.630546 0.776143 0.00374504
0.00323753 -0.0306744 0.824112 0 0.861792 0.507262
-0.246403 -0.121243 0.562198 -0.808916 -0.582386 0.0804995
0.0933018 -0.106217 0.606149 0.0681278 -0.997677 0
0.288159 -0.0780303 0.529252 -0.0330172 0.999455 0
-0.0732628 -0.0309998 0.638921 -0.964895 0.260653 -0.0322026
-0.0149594 0.0135149 0.110839 -0.508462 0.859216 -0.0566951
0.0854749 -0.101323 0.39663 0.053054 -0.997676 -0.0427557
0.137138 -0.125513 0.634326 0.0716442 -0.000102653 0.99743
-0.162499 0.0850591 0.00827357 -0.0575014 0.988655 0.138762
0.0371585 0.0316352 0.494142 0.171562 0.984249 -0.0426639
0.0851809 0.064548 0.125774 -0.0409786 -0.999114 -0.00954374
0.396008 -0.0744675 0.417969 -0.0330173 0.999455 0
0.260888 -0.0947734 0.526548 0.0681247 -0.997677 0
0.0117877 0.0274917 0.213586 0.285944 0.839554 0.461937
-0.315747 -0.0906409 0.43277 -0.0535806 -0.997711 -0.0412601
-0.0147968 0.0121309 0.0884057 -0.508462 0.859216 -0.0566951
0.251027 -0.112774 0.569956 0.0717102 -5.55821e-05 0.997425
-0.0537384 0.00738549 0.359834 -0.910098 0.369241 -0.188104
0.183174 0.0729451 0.00642211 -0.155942 -0.366925 -0.917087
-0.0477365 -0.118241 0.589519 -0.587773 -0.809026 0
-0.183089 0.0782114 0.0521769 -0.0847665 0.98919 0.11966
0.264181 -0.0785952 0.453508 -0.0187069 0.998971 0.041312
0.0197325 0.0322491 0.437807 0.383582 0.923478 0.0073075
-0.197146 -0.081037 0.568992 0.0330172 0.999455 0
0.32597 -0.0738441 0.362837 -0.0173049 0.999094 0.0388727
-0.0145716 -0.129245 0.495987 -0.00356864 -0.997882 -0.0649577
-0.0437542 -0.0600207 0.265121 -0.494939 -0.856705 -0.145229
-0.379111 -0.0852177 0.381662 -0.0544455 -0.997762 -0.0388208
-0.0458263 0.0179773 0.701097 -0.703068 0.672022 0.232554
0.199699 -0.0989516 0.490584 0.0681278 -0.997677 0
0.194341 -0.0938873 0.353867 0.0518265 -0.997803 -0.041264
0.0502524 0.00911053 0.346354 0.910098 0.369241 -0.188104
0.105708 -0.125002 0.56167 -0.794671 -0.56468 -0.22279
0.0629917 -0.0807044 0.417442 -0.018187 0.998918 0.0428074
-0.00397224 0.00431169 0.748855 0 0.703463 0.710732
0.112229 0.0644167 0.0758414 -0.0670165 -0.99488 -0.075649
-0.0363229 0.0255854 0.369052 -0.571708 0.81916 -0.0461243
0.0336502 -0.121106 0.418625 0.58696 -0.807906 -0.0525911
0.0276229 -0.00812814 0.0631208 0.931863 0.345272 -0.111438
0.0106819 0.0889425 0.0605051 0.0548875 0.996375 0.0649895
-0.0549081 -0.018634 0.740768 -0.449615 0.74677 0.490083
0.25116 -0.114915 0.569946 0.0717101 5.5591e-05 0.997425
0.139458 0.0655264 0.0452173 -0.0317289 -0.999369 0.0159385
0.343975 -0.0761865 0.47084 -0.0330173 0.999455 0
-0.0382689 0.00515124 0.20596 -0.584648 0.808078 -0.0720867
0.175012 -0.0817682 0.502162 -0.0330168 0.999455 0
-0.0558412 0.0064749 0.390726 -0.926612 0.375942 -0.00757519
-0.0527533 -0.0120154 0.243178 -0.868735 0.495182 0.00974211
-0.0563317 -0.0774366 0.638633 -0.866823 -0.498616 0
0.402192 -0.0851247 0.419106 0.0681255 -0.997677 0
0.0667317 -0.0108511 0.657549 0.91219 0.400387 0.0871779
-0.0655488 -0.0493308 0.370464 -0.903006 -0.429186 -0.0194563
0.00352527 -0.0473617 0.110546 0 -0.982966 -0.183787
-0.199468 -0.0942405 0.368849 -0.0518265 -0.997803 -0.041264
0.067309 -0.057055 0.588467 0.900966 -0.432704 -0.032051
-0.295908 -0.0923821 0.464345 -0.0681247 -0.997677 0
0.192457 0.0776471 0.0502049 0.0847665 0.98919 0.11966
-0.18199 -0.0815377 0.545463 0.0330168 0.999455 0
0.135901 -0.114824 0.587416 0.799736 0.586612 -0.127705
0.161203 -0.0822244 0.521865 -0.0330168 0.999455 0
0.358983 -0.0724966 0.344108 -0.0195541 0.999053 0.0388711
0.067638 -0.057781 0.649154 0.866823 -0.498616 0
-0.0529045 -0.0233325 0.748491 -0.834436 0.174802 0.522647
0.3841 -0.0810265 0.48766 0.433668 0.0975849 0.895773
0.375912 -0.0840187 0.346358 0.0544455 -0.997762 -0.0388208
-0.0419264 -0.0183818 0.133511 -0.834373 -0.5397 -0.11201
0.0467219 -0.0926786 0.649118 0.0187282 -0.0257775 0.999492
-0.0165253 -0.00893786 0.0627926 0 0 -1
0.48052 -0.077466 0.317134 0.0527622 -0.998014 -0.0344114
0.394004 -0.0719341 0.346653 -0.0178902 0.999246 0.034454
-0.162295 -0.0978474 0.409377 -0.0518265 -0.997803 -0.041264
-0.384361 -0.0748523 0.483936 0.0330172 0.999455 0
-0.0238936 -0.0970397 0.368894 0.0163979 0.0267873 -0.999507
-0.0624549 -0.0854865 0.624544 0.0330168 0.999455 0
0.0558848 0.0137587 0.466305 0.968978 0.245087 -0.0318508
0.0309639 -0.00274719 0.748017 0.36055 0.57477 0.734604
-0.114981 -0.0776022 0.365213 0.0169766 0.999002 0.0413132
0.123241 -0.137389 0.60586 0.308 -0.951121 -0.0224927
-0.0353932 -0.0656572 0.269877 -0.494939 -0.856705 -0.145229
-0.060402 0.0020873 0.513921 -0.968978 0.245087 -0.0318508
0.075963 -0.0397547 0.649293 0.961675 0.259783 0.0877158
0.132313 -0.0831787 0.570216 -0.0330168 0.999455 0
0.123003 -0.109846 0.555321 0.278785 0.918268 -0.281181
-0.00190774 0.0408253 0.577467 -0.171638 0.984682 -0.0306927
0.123845 -0.13628 0.627927 0.31473 -0.943151 0.106824
0.129535 -0.0771567 0.360419 -0.0169766 0.999002 0.0413132
0.0503189 0.0218988 0.504894 0.654602 0.755301 -0.0318825
-0.220692 -0.0975181 0.549585 -0.0681247 -0.997677 0
-0.341333 -0.0892804 0.488055 -0.0681247 -0.997677 0
0.115914 -0.0837205 0.599844 -0.0330168 0.999455 0
0.256847 -0.0950494 0.515005 0.0681247 -0.997677 0
-0.155672 -0.0824071 0.533153 0.0330168 0.999455 0
0.0384804 0.0881407 0.0493205 0.0548875 0.996375 0.0649895
0.057493 -0.0603346 0.350947 0.891638 -0.429214 -0.144072
-0.011999 0.0912371 0.0914498 -0.997753 -0.0220997 -0.0632482
0.126596 -0.125054 0.547834 0.762607 -0.569036 -0.307619
0.0580345 -0.0744763 0.649891 0.866823 -0.498617 0
0.236295 -0.1175 0.571014 0.0717398 6.10584e-06 0.997423
0.0813698 -0.0782653 0.367435 -0.0169766 0.999002 0.0413132
-0.350708 -0.0758276 0.425557 0.0195541 0.999053 0.0388711
0.392688 -0.0721933 0.353269 -0.0195541 0.999053 0.0388711
-0.375566 -0.0751429 0.455981 0.0330172 0.999455 0
-0.141261 0.0812596 0.0558173 -0.0778848 0.991672 0.102573
0.0188229 0.0371685 0.694196 0.17806 0.926324 0.331993
-0.119013 -0.100529 0.419709 -0.053054 -0.997676 -0.0427557
0.0255981 -0.104662 0.662715 0.587779 -0.809022 0
-0.114988 -0.0837511 0.545925 0.0330168 0.999455 0
0.0603455 -0.0621915 0.412661 0.903006 -0.429186 -0.0194563
0.0710393 -0.0518644 0.62325 0.900966 -0.432704 -0.032051
0.196158 -0.0990633 0.481241 0.053054 -0.997676 -0.0427557
0.0367182 -0.0941425 0.725232 0.53181 -0.806698 0.257714
0.0114116 0.0952071 0.0802903 0.997716 -0.0279862 -0.0614742
-0.100267 -0.0800387 0.417745 0.018187 0.998918 0.0428074
-0.322312 -0.0769021 0.504281 0.0330172 0.999455 0
0.0955264 -0.10237 0.433521 0.053054 -0.997676 -0.0427557
-0.232327 -0.0798748 0.5511 0.0330172 0.999455 0
-0.194365 -0.0993158 0.533134 -0.0681278 -0.997677 0
0.0712743 -0.0433833 0.505002 0.903006 -0.429186 -0.0194563
0.406348 -0.0848408 0.435321 0.0681255 -0.997677 0
0.104113 -0.117542 0.602574 -0.998895 0 0.0469982
0.0172945 -0.131525 0.642121 0 -1 0
0.00849098 -0.0577906 0.166324 0 -0.982966 -0.183787
-0.448881 -0.0723553 0.385699 0.0195541 0.999053 0.0388711
0.0192481 0.00756035 0.0644946 0.751575 0.657629 -0.0515647
0.133636 0.0796297 0.077729 0.0767765 0.99204 0.099808
0.318283 -0.0872588 0.520327 0.437397 0.0990022 0.893802
-0.107358 -0.0995234 0.380906 -0.0518265 -0.997803 -0.041264
0.16915 -0.0788815 0.418407 -0.0169766 0.999002 0.0413132
0.449861 -0.0707196 0.340431 -0.0178902 0.999246 0.034454
-0.439163 -0.0730419 0.398599 0.0330173 0.999455 0
-0.014966 -0.0904845 0.333544 0 -0.976371 -0.216099
-0.0103224 -0.0736184 0.250978 0 -0.982965 -0.183794
0.165481 0.0617258 0.0783487 -0.0417585 -0.999066 -0.0111314
-0.409384 -0.0846336 0.420949 -0.0681255 -0.997677 0
0.227737 -0.096562 0.461657 0.0535806 -0.997711 -0.0412602
-0.107755 -0.127105 0.628721 0.794182 -0.584537 0.166107
-0.0517688 -0.0335879 0.2344 -0.917617 -0.357464 -0.173777
0.107321 -0.0790509 0.361575 -0.130657 -0.0230557 -0.991159
0.27856 -0.0862296 0.539652 0.437397 0.0990022 0.893802
0.0152916 0.108285 0.128079 0.995646 -0.0492072 -0.0791682
-0.221884 -0.0784155 0.43001 0.0187069 0.998971 0.041312
-0.0189406 -0.0163412 0.780898 -0.508855 0.811189 0.288166
-0.0452313 -0.03233 0.768622 -0.948385 0.155611 0.276319
0.150131 -0.0993171 0.42964 0.0518265 -0.997803 -0.041264
0.0975712 -0.0843264 0.613518 -0.0330168 0.999455 0
-0.207089 -0.0783109 0.420781 0.0187069 0.998971 0.041312
-0.478592 -0.0717393 0.386644 0.0330173 0.999455 0
-0.129487 -0.135294 0.602773 -0.308033 -0.95111 -0.0224793
0.382235 -0.0739782 0.393884 -0.0195541 0.999053 0.0388711
-0.194357 -0.0922391 0.350202 0.133011 -0.0109176 -0.991054
0.0102214 -0.0319595 0.0627926 0 0 -1
0.32921 -0.0761748 0.424182 -0.0173049 0.999094 0.0388727
0.47687 -0.0695002 0.319092 -0.0178902 0.999246 0.034454
0.0521971 -0.0821894 0.481464 0.901474 -0.432436 -0.0185315
-0.119049 0.0634376 0.0972516 0.0408745 -0.999101 -0.011211
-0.0294412 0.0359683 0.612306 -0.233684 0.972269 -0.00920707
-0.263504 -0.0945948 0.524353 -0.0681247 -0.997677 0
0.0409752 -0.0170593 0.120876 0.82836 -0.53581 -0.163486
0.246801 -0.120731 0.536715 0.807418 -0.587941 -0.0490077
0.00349635 -0.0450127 0.0979828 0 -0.982966 -0.183787
0.247782 -0.0747156 0.350428 -0.0173049 0.999094 0.0388727
-0.0722068 -0.0435593 0.543946 -0.900966 -0.432704 -0.032051
-0.0731264 -0.107595 0.601627 -0.0681278 -0.997677 0
0.0525631 -0.0826476 0.50996 0.901474 -0.432436 -0.0185315
0.477614 -0.0717716 0.387723 -0.0330173 0.999455 0
-0.0292189 0.0110592 0.199018 -0.670419 0.73909 -0.0654574
-0.065268 -0.0525146 0.427665 -0.903006 -0.429186 -0.0194563
0.0358885 -0.0250322 0.775662 0.495356 0.816508 0.296544
0.178264 -0.0968904 0.406292 0.0518265 -0.997803 -0.041264
0.0373596 -0.12578 0.542924 0.587773 -0.809026 0
-0.339536 -0.0881231 0.401012 -0.0521607 -0.997884 -0.0388256
0.00867141 0.095363 0.0315077 0.998261 -0.0194834 -0.0556317
0.02342 -0.0709165 0.259811 0.530236 -0.829288 -0.176441
-0.191005 0.0611849 0.0490445 0.0754427 -0.992468 -0.096513
0.0157694 0.0357028 0.501969 0.171562 0.984249 -0.0426639
0.124904 -0.0881159 0.634796 -0.0717273 2.68286e-05 -0.997424
0.344086 -0.079218 0.506835 0.433668 0.0975849 0.895773
-0.343893 -0.0891055 0.503621 -0.0681255 -0.997677 0
0.0542642 -0.0810308 0.647974 0.866823 -0.498616 0
0.218487 -0.104031 0.554361 -0.808084 0.587914 0.0368576
0.176203 -0.0787551 0.418249 -0.0169766 0.999002 0.0413132
-0.358846 -0.0880845 0.469578 -0.0681255 -0.997677 0
0.0777016 -0.107282 0.532319 0.0681278 -0.997677 0
-0.112112 -0.104933 0.587251 -0.0681278 -0.997677 0
0.0176314 0.0234611 0.225818 0.674738 0.7367 -0.0447421
-0.215065 -0.1081 0.518191 0.809873 0.585106 -0.041911
-0.313157 -0.0912043 0.494864 -0.0681247 -0.997677 0
-0.105303 -0.117573 0.562881 0.977076 0 -0.212891
0.0908895 -0.100592 0.386066 0.0518265 -0.997803 -0.041264
-0.0622906 0.0839782 0.0871042 -0.062479 0.995965 0.0644253
-0.0728566 -0.0386456 0.573068 -0.968897 0.244741 -0.0366054
-0.0558402 0.0125782 0.455866 -0.968978 0.245087 -0.0318508
0.0526331 -0.0745326 0.729182 0.76081 -0.436448 0.480293
-0.400425 -0.0852453 0.435311 -0.0681255 -0.997677 0
0.182012 -0.0884419 0.586649 0.433377 0.136349 0.890839
-0.0577565 -0.110961 0.5515 -0.587773 -0.809026 0
0.272183 -0.0940022 0.51253 0.0681247 -0.997677 0
0.00923817 0.0605246 0.0546919 0.998365 -0.0198471 -0.0536073
-0.0555763 0.00945328 0.423791 -0.968978 0.245087 -0.0318508
-0.270713 -0.0941025 0.463159 -0.0681247 -0.997677 0
0.137845 -0.101824 0.473294 0.053054 -0.997676 -0.0427557
-0.051618 0.0200834 0.48856 -0.654602 0.755301 -0.0318825
0.16175 -0.0794989 0.430296 -0.0169766 0.999002 0.0413132
-0.0777144 -0.107281 0.548177 -0.0681278 -0.997677 0
-0.243942 -0.0757195 0.374522 0.0173049 0.999094 0.0388727
0.00754513 0.0401548 0.193628 0.167928 0.840502 0.515128
0.197799 -0.0977243 0.450994 0.0518265 -0.997803 -0.041264
-0.0151483 0.119537 0.119282 -0.995646 -0.0492071 -0.0791682
0.06503 0.0743176 0.13281 0.389415 0.527205 0.755255
-0.0241367 -0.122963 0.400008 -0.00356864 -0.997882 -0.0649577
-0.268201 -0.0750712 0.368659 0.0173049 0.999094 0.0388727
0.358837 -0.0853486 0.356592 0.0544455 -0.997762 -0.0388208
0.207112 -0.0955054 0.409324 0.0535806 -0.997711 -0.0412602
-0.0126773 -0.0181071 0.797482 -0.534047 0.79758 0.280463
-0.0382664 -0.122591 0.492959 -0.58696 -0.807906 -0.0525911
0.0447982 -0.051092 0.776273 0.895781 -0.378589 0.23291
0.20454 -0.0756501 0.355198 -0.0173049 0.999094 0.0388727
-0.11741 -0.136176 0.580861 0.313252 -0.947208 -0.0683396
-0.169378 0.0642907 0.0377122 0.0744624 -0.988165 -0.134111
0.292746 -0.0778788 0.47725 -0.0330172 0.999455 0
-0.0146437 0.0658134 0.143921 -0.997201 -0.0336491 -0.0667636
0.0256743 -0.101406 0.725285 0.53181 -0.806698 0.257714
-0.0285543 -0.12551 0.43938 -0.00356864 -0.997882 -0.0649577
-0.301309 -0.0775959 0.494251 0.0330172 0.999455 0
0.102266 0.070526 0.116258 0.389409 0.527207 0.755257
0.034061 -0.0247512 0.111052 0.82836 -0.53581 -0.163486
0.198729 0.0631223 0.0451023 0.987817 -0.0725239 -0.137689
0.0709622 -0.0806052 0.418514 -0.018187 0.998918 0.0428074
0.015514 0.0154293 0.132625 0.514689 0.852327 -0.0929201
0.00938955 0.153679 0.0246754 0.998584 -0.0188041 -0.0497555
-0.0705938 -0.0373293 0.510056 -0.969098 0.246196 -0.0153906
-0.03676 -0.071697 0.773293 -0.853509 -0.440904 0.277715
0.0327482 -0.119504 0.383343 0.521742 -0.852321 -0.0365265
-0.210974 -0.0939546 0.37684 -0.0535806 -0.997711 -0.0412601
-0.0550557 -0.016693 0.244707 -0.981562 0.124175 -0.145318
-0.0696061 -0.100955 0.368111 -0.0518265 -0.997803 -0.041264
0.292995 -0.092581 0.516217 0.0681247 -0.997677 0
-0.111856 -0.0791933 0.402402 0.0169766 0.999002 0.0413132
-0.175026 -0.0776803 0.391774 0.0169766 0.999002 0.0413132
-0.117599 0.0808019 0.0144306 0.155974 -0.367032 -0.917038
-0.130011 -0.100647 0.436108 -0.053054 -0.997676 -0.0427557
-0.0414889 -0.051842 0.218269 -0.910247 -0.367449 -0.190871
0.186055 0.0635249 0.0340949 -0.0744624 -0.988165 -0.134111
0.0531937 0.0865199 0.0617437 0.0548875 0.996375 0.0649895
0.197406 -0.09666 0.424764 0.0518265 -0.997803 -0.041264
0.276982 -0.0783996 0.457749 -0.0330172 0.999455 0
-0.0632488 -0.0563286 0.41808 -0.903006 -0.429186 -0.0194563
0.0554778 -0.0102373 0.31809 0.826497 0.554428 -0.0975346
-0.125488 -0.106894 0.573088 -0.301374 0.948129 -0.101115
0.00987125 0.0389551 0.0744775 0.998312 -0.0211409 -0.0540858
-0.117524 0.0845205 0.0390777 -0.0587727 0.995167 0.0786602
-0.0492697 -0.0874638 0.709781 -0.587779 -0.809022 0
0.176103 -0.0815701 0.485698 -0.018187 0.998918 0.0428074
0.329264 -0.0766724 0.470804 -0.0330172 0.999455 0
0.0293883 -0.128483 0.485098 0.00356866 -0.997882 -0.0649577
0.0184789 0.0380592 0.581395 0.171638 0.984682 -0.0306928
0.141321 -0.101654 0.473641 0.053054 -0.997676 -0.0427557
0.00340138 0.0422885 0.658303 0.233584 0.97185 0.030756
0.145686 -0.10264 0.578745 0.0681278 -0.997677 0
-0.0579581 -0.0741407 0.679711 -0.884284 -0.463706 0.0549333
0.25552 -0.111957 0.569633 0.0717102 -5.55821e-05 0.997425
-0.131392 -0.0832091 0.524296 0.0330168 0.999455 0
-0.388644 -0.0747108 0.466648 0.0330172 0.999455 0
-0.385073 -0.0754699 0.324726 0.131487 0.0134239 -0.991227
-0.0679221 -0.0292598 0.47091 -0.969098 0.246196 -0.0153906
-0.0367064 -0.0645082 0.267574 -0.494939 -0.856705 -0.145229
-0.182525 -0.0995425 0.475508 -0.053054 -0.997676 -0.0427557
-0.0154566 0.0624866 0.157818 -0.997251 -0.0400131 -0.0623654
-0.0261838 -0.00091329 0.748942 -0.372801 0.555825 0.743019
-0.0891426 -0.10478 0.481838 -0.053054 -0.997676 -0.0427557
0.133975 -0.0831238 0.601003 -0.0330168 0.999455 0
0.0965504 -0.0843601 0.561792 -0.0330168 0.999455 0
0.0551669 0.0146404 0.451251 0.968978 0.245087 -0.0318508
-0.0147471 0.03234 0.710153 -0.13209 0.947891 0.289923
-0.00933404 0.0525124 0.0593716 -0.998357 -0.0190934 -0.0540263
-0.0167824 -0.0810188 0.290557 0 -0.982965 -0.183794
-0.375303 -0.0869607 0.485789 -0.0681255 -0.997677 0
-0.428368 -0.0819908 0.367808 -0.0544455 -0.997762 -0.0388208
-0.0159961 -0.05938 0.182976 -0.516843 -0.828038 -0.217315
-0.118416 -0.103853 0.606447 0.308852 0.951054 0.010346
-0.0119249 0.150167 0.0698232 -0.997596 -0.0200553 -0.0663383
0.475117 -0.080145 0.409418 0.0681255 -0.997677 0
-0.356802 -0.0882241 0.46224 -0.0681255 -0.997677 0
0.146454 -0.113774 0.632696 0.154465 0.987964 -0.00826818
0.00916344 0.02765 0.264165 0.375809 0.926635 -0.0107198
0.0597105 -0.00866969 0.357213 0.910098 0.369241 -0.188104
-0.0790875 -0.107188 0.558368 -0.0681278 -0.997677 0
0.188213 -0.0997359 0.554518 0.0681278 -0.997677 0
0.0648586 0.0873445 0.041861 0.0485213 0.995664 0.07936
0.0108834 0.0494163 0.0890988 0.998357 -0.019093 -0.0540254
-0.0915092 -0.0805645 0.363694 0.130657 -0.0230557 -0.991159
-0.293375 -0.077858 0.50317 0.0330172 0.999455 0
-0.00301066 -0.124096 0.416261 -0.00357079 -0.997882 -0.0649573
0.0457163 -0.111099 0.372454 0.521742 -0.852321 -0.0365265
0.306241 -0.0911687 0.526653 0.437397 0.0990022 0.893802
-0.0175639 0.0334266 0.456674 -0.171562 0.984249 -0.0426639
0.0551583 -0.106175 0.392436 0.521742 -0.852321 -0.0365265
-0.0366084 -0.126326 0.572946 -0.587773 -0.809026 0
0.00651333 -0.131525 0.621855 0 -1 0
0.104392 0.0792079 0.107012 0.0776381 0.993373 0.0847497
0.0638301 -0.0633177 0.575222 0.900966 -0.432704 -0.032051
0.128565 -0.0831605 0.502614 -0.018187 0.998918 0.0428074
0.269335 -0.0904077 0.365417 0.0521607 -0.997884 -0.0388256
-0.228306 -0.0921432 0.3549 -0.0521607 -0.997884 -0.0388256
0.359118 -0.0732069 0.3282 -0.131487 0.0134239 -0.991227
0.0551431 -0.0263697 0.23737 0.917617 -0.357464 -0.173777
-0.397172 -0.0744291 0.429239 0.0330173 0.999455 0
0.0659709 -0.0224769 0.422864 0.981955 0.18906 -0.00464614
-0.0103309 0.128226 0.0512758 -0.998327 -0.0163383 -0.0554709
-0.172974 -0.100777 0.557249 -0.0681278 -0.997677 0
-0.0538368 -0.110683 0.478736 -0.521742 -0.852321 -0.0365265
0.0563001 -0.0765848 0.706646 0.887609 -0.460597 0
-0.384202 -0.0732227 0.324872 0.131487 0.0134239 -0.991227
0.074887 0.0658947 0.0894851 -0.0670165 -0.99488 -0.075649
-0.145458 0.0668229 0.0152869 0.155982 -0.367032 -0.917037
-0.000186581 -0.0611228 0.184146 0 -0.982966 -0.183785
-0.0699237 -0.0206677 0.622499 -0.964895 0.260653 -0.0322026
-0.0192066 0.0784551 0.0321037 0.155983 -0.366927 -0.917079
0.0282976 0.0336796 0.505674 0.171562 0.984249 -0.0426639
-0.0156939 -0.0212263 0.800608 -0.534047 0.79758 0.280463
0.0212093 0.0303647 0.349561 0.381864 0.919341 -0.094822
-0.39552 -0.0722838 0.357019 0.0195541 0.999053 0.0388711
0.103435 -0.105525 0.584923 0.0681278 -0.997677 0
0.0205056 -0.131525 0.596187 0 -1 0
-0.445146 -0.0710873 0.348649 0.0178902 0.999246 0.034454
-0.0740023 -0.0375703 0.610583 -0.968897 0.244741 -0.0366054
0.291849 -0.0897199 0.377985 0.0521607 -0.997884 -0.0388256
-0.137119 -0.08302 0.558879 0.0330168 0.999455 0
0.468103 -0.0791131 0.345864 0.0527622 -0.998014 -0.0344114
-0.030061 -0.0502158 0.81728 -0.839585 0.279204 0.465985
0.38283 -0.0749029 0.433257 -0.0330173 0.999455 0
0.0534441 0.0108828 0.694182 0.905739 0.396681 0.149265
-0.0680903 -0.102264 0.397023 -0.053054 -0.997676 -0.0427557
-0.328866 -0.0766856 0.489582 0.0330172 0.999455 0
0.245252 -0.0794478 0.528459 -0.0330172 0.999455 0
0.248564 -0.095615 0.535344 0.0681247 -0.997677 0
0.0307911 0.0693372 0.0629576 -0.0333812 -0.999391 0.0101956
0.014061 0.0400341 0.152418 0.996389 -0.0589593 -0.0611036
-0.000424921 0.0412978 0.195527 -0.285945 0.839554 0.461936
-0.271523 -0.0940472 0.511042 -0.0681247 -0.997677 0
0.472115 -0.0719533 0.411217 -0.0330173 0.999455 0
-0.0224538 0.033485 0.702898 -0.13209 0.947891 0.289923
0.1739 0.06399 0.0196399 -0.0328176 -0.99921 0.0224233
0.00875459 0.0276523 0.25003 0.375809 0.926635 -0.0107198
-0.0498276 -0.0617527 0.307732 -0.891638 -0.429214 -0.144072
0.430844 -0.0733167 0.446987 -0.0330173 0.999455 0
0.0368194 -0.0732382 0.30834 0.527369 -0.824805 -0.203906
0.112465 0.0762226 0.107023 0.389408 0.527192 0.755268
-0.0794462 -0.104548 0.464395 -0.053054 -0.997676 -0.0427557
0.207157 -0.0971792 0.449856 0.0535806 -0.997711 -0.0412602
0.24134 -0.0824702 0.557053 0.430715 0.135212 0.892302
0.0476379 0.0208776 0.425691 0.571708 0.81916 -0.0461243
0.12483 -0.102994 0.484456 0.053054 -0.997676 -0.0427557
0.135887 -0.103309 0.566818 0.0681278 -0.997677 0
-0.377319 -0.0741991 0.397089 0.0195541 0.999053 0.0388711
-0.319943 -0.0875553 0.360095 -0.0521607 -0.997884 -0.0388256
-0.274041 -0.0938753 0.500451 -0.0681247 -0.997677 0
-0.116659 0.063591 0.0922934 0.0408745 -0.999101 -0.011211
0.00181189 0.0479428 0.18279 0.167928 0.840502 0.515128
-0.0979234 -0.103613 0.465522 -0.053054 -0.997676 -0.0427557
0.0349798 -0.0863361 0.35785 0.511888 -0.836209 -0.196787
-0.0653875 -0.0176471 0.496078 -0.981955 0.18906 -0.00464614
0.0103559 -0.127563 0.469923 0.00357079 -0.997882 -0.0649573
-0.015668 0.0624614 0.161214 -0.997251 -0.0400131 -0.0623654
-0.093348 -0.106214 0.603358 -0.0681278 -0.997677 0
0.160524 -0.0822468 0.567264 -0.0330168 0.999455 0
-0.119904 -0.0843204 0.635155 0.0716193 0 -0.997432
0.0147708 0.0223876 0.188071 0.996839 -0.0664804 -0.0435115
0.119958 -0.114824 0.623151 0.0716695 2.68185e-05 0.997428
-0.11532 -0.107836 0.56125 0.316021 0.915549 -0.248798
0.0673829 -0.101434 0.644276 0.428839 0.155825 0.88984
0.0692453 -0.0459794 0.728814 0.76081 -0.436448 0.480293
0.0258205 -0.0306571 0.0886548 0.82836 -0.53581 -0.163486
-0.00769415 -0.0575541 0.165059 0 -0.982966 -0.183787
-0.20683 -0.0947729 0.391244 -0.0535806 -0.997711 -0.0412601
0.329153 -0.0901121 0.503909 0.0681247 -0.997677 0
-0.0124738 0.0171857 0.131896 -0.514693 0.852324 -0.0929191
0.0605858 -0.0797707 0.394632 -0.018187 0.998918 0.0428074
0.202884 -0.0877182 0.576411 0.430715 0.135212 0.892302
-0.0597764 -0.0888913 0.645746 -0.428839 0.155825 0.88984
0.227451 -0.0925545 0.364323 0.0521607 -0.997884 -0.0388256
0.403863 -0.0741435 0.409014 -0.0195541 0.999053 0.0388711
-0.435377 -0.0808849 0.347075 -0.0527622 -0.998014 -0.0344114
-0.0108791 -0.0707771 0.823709 -0.545758 -0.670421 0.502677
0.0404385 -0.0609639 0.259385 0.494939 -0.856705 -0.145229
0.410665 -0.0831695 0.373273 0.0544455 -0.997762 -0.0388208
-0.125539 -0.121106 0.62275 -0.0717074 -1.44087e-05 0.997426
-0.0487551 0.0193638 0.412734 -0.654602 0.755301 -0.0318825
-0.195203 0.0615612 0.0746 -0.389388 0.527197 0.755275
-0.0753638 -0.0441272 0.652875 -0.884284 -0.463706 0.0549333
-0.0703209 -0.107786 0.564005 -0.0681278 -0.997677 0
0.0633598 -0.0787269 0.371196 -0.0169766 0.999002 0.0413132
0.0495328 -0.0558646 0.28605 0.882674 -0.454086 -0.121214
-0.0100545 0.119015 0.0490148 -0.998327 -0.0163383 -0.0554709
0.07632 0.081328 0.107879 0.0776381 0.993373 0.0847497
-0.0710508 -0.0470674 0.558813 -0.900966 -0.432704 -0.032051
0.178763 -0.0816063 0.487674 -0.018187 0.998918 0.0428074
0.128024 -0.122774 0.549102 0.948171 0 -0.317761
-0.222415 -0.126971 0.517897 0.313257 -0.947205 -0.0683597
-0.0683592 -0.0310725 0.469436 -0.969098 0.246196 -0.0153906
-0.0103516 0.0280385 0.284231 -0.374046 0.922288 -0.0973393
-0.142369 -0.0806172 0.449132 0.018187 0.998918 0.0428074
-0.00877503 0.0102901 0.742906 -0.0260627 0.708368 0.705362
-0.125538 -0.104016 0.60758 -0.0681278 -0.997677 0
-0.0192052 0.0211817 0.731583 -0.0260627 0.708368 0.705362
-0.111872 -0.0782187 0.378843 0.0169766 0.999002 0.0413132
0.286417 -0.0780879 0.520054 -0.0330172 0.999455 0
0.218815 -0.107142 0.566529 -0.689212 0.52571 0.498614
0.420136 -0.0721308 0.365469 -0.0195541 0.999053 0.0388711
-0.079859 -0.0796208 0.399323 0.018187 0.998918 0.0428074
-0.0839607 -0.106855 0.627804 -0.0681278 -0.997677 0
-0.0315701 -0.0407252 0.811449 -0.851215 0.119894 0.510939
0.020935 -0.0502836 0.155528 0.532666 -0.82777 -0.17625
0.0120472 -0.0639857 0.831213 0.330888 -0.492284 0.80509
-0.0581694 -0.0791324 0.378709 0.018187 0.998918 0.0428074
-0.122764 -0.129971 0.628934 0.308418 0.95111 0.0163712
-0.0435774 -0.121263 0.577177 -0.587773 -0.809026 0
0.299159 -0.0910276 0.420578 0.0535806 -0.997711 -0.0412602
0.0799654 0.0648102 0.120723 -0.0409786 -0.999114 -0.00954374
0.0586582 -0.10862 0.499476 0.521742 -0.852321 -0.0365265
-0.224596 -0.098936 0.51541 0.313289 0.947194 -0.068359
0.124735 -0.104071 0.550446 0.0681278 -0.997677 0
0.416046 -0.0717277 0.352112 -0.0178902 0.999246 0.034454
0.00482697 -0.00834027 0.0627926 0 0 -1
0.0691181 -0.0839643 0.496114 -0.018187 0.998918 0.0428074
-0.129957 -0.100698 0.437239 -0.053054 -0.997676 -0.0427557
0.0768698 -0.0850103 0.620533 -0.0330168 0.999455 0
-0.377262 -0.086827 0.459988 -0.0681255 -0.997677 0
0.0637112 -0.108238 0.641016 0.0681278 -0.997677 0
0.0483033 -0.117829 0.607555 0.587773 -0.809026 0
-0.410866 -0.0845324 0.415388 -0.0681255 -0.997677 0
0.355187 -0.0758161 0.496377 -0.0330173 0.999455 0
-0.0660473 -0.0226933 0.430203 -0.981955 0.18906 -0.00464614
-0.134504 -0.101935 0.611826 -0.433377 0.136349 0.890839
0.0337065 0.0345581 0.571644 0.233684 0.972269 -0.00920706
0.131902 -0.110533 0.582082 0.799736 0.586612 -0.127705
0.0490492 0.0128855 0.347943 0.910098 0.369241 -0.188104
-0.0120019 0.0479847 0.109597 -0.997821 -0.0341391 -0.056464
0.30966 -0.0760492 0.412251 -0.0173049 0.999094 0.0388727
0.0426149 -0.121962 0.635498 0.587773 -0.809026 0
0.129124 0.0655304 0.0243673 -0.0338071 -0.999298 0.016114
0.26135 -0.078916 0.518903 -0.0330172 0.999455 0
-0.34926 -0.0886573 0.50533 -0.444038 0.0165737 0.895854
0.0581494 0.00790757 0.490176 0.968978 0.245087 -0.0318508
0.0111591 -0.120755 0.367162 0.0548583 0.0331407 -0.997944
0.0346025 -0.0596355 0.231746 0.469467 -0.864298 -0.180529
-0.0320676 0.0842647 0.11047 -0.0709262 0.993826 0.0853148
0.0717676 -0.0284627 0.614654 0.964895 0.260653 -0.0322026
-0.285033 -0.0781336 0.530359 0.0330172 0.999455 0
-0.117851 -0.105981 0.629897 0.241912 0.847439 0.472574
0.0581402 -0.0382448 0.282723 0.882674 -0.454086 -0.121214
-0.42248 -0.073593 0.440477 0.0330172 0.999455 0
-0.213626 -0.0942329 0.387013 -0.0535806 -0.997711 -0.0412601
0.273752 -0.093895 0.480499 0.0681247 -0.997677 0
0.00867701 0.0573304 0.0454236 0.998365 -0.0198471 -0.0536073
0.0344634 0.0315586 0.481537 0.171562 0.984249 -0.0426639
-0.0126601 0.0396145 0.672478 -0.233583 0.97185 0.030756
0.194148 -0.0802458 0.461708 -0.0187069 0.998971 0.041312
0.0420917 -0.0624008 0.7683 0.895781 -0.378589 0.23291
0.047152 0.0214724 0.682126 0.71942 0.687039 0.102041
0.0721037 -0.0500177 0.635082 0.866823 -0.498616 0
0.0775718 -0.0795278 0.39618 -0.018187 0.998918 0.0428074
-0.0374855 -0.0810186 0.341772 -0.511888 -0.836209 -0.196787
-0.00818118 0.0386671 0.543309 -0.171638 0.984682 -0.0306927
-0.035028 -0.0162589 0.0933043 -0.880751 -0.428083 -0.202542
-0.313649 -0.0880945 0.365496 -0.0521607 -0.997884 -0.0388256
0.198528 -0.0990316 0.510183 0.0681278 -0.997677 0
0.125372 -0.152995 0.636244 0.0716327 0 0.997431
0.0373456 0.0334199 0.578837 0.660403 0.750795 0.0132091
-0.0142077 -0.121762 0.381006 -0.00357079 -0.997882 -0.0649573
-0.380288 -0.0856315 0.393949 -0.0544455 -0.997762 -0.0388208
0.00344134 -0.0876728 0.320513 0.0183317 -0.975209 -0.220527
-0.0214603 0.0320742 0.441143 -0.171562 0.984249 -0.0426639
0.130873 0.0656538 0.0356852 -0.0338071 -0.999298 0.016114
0.140846 -0.102329 0.488813 0.053054 -0.997676 -0.0427557
-0.0516079 0.0686843 0.0671178 0.0333813 -0.999391 0.0101957
-0.00139566 0.113028 0.134586 -0.216079 0.573374 0.790286
-0.155274 -0.0782167 0.39663 0.0169766 0.999002 0.0413132
0.014097 0.111979 0.11076 0.995646 -0.0492072 -0.0791682
-0.122116 -0.0820501 0.473962 0.018187 0.998918 0.0428074
-0.285374 -0.0931014 0.502608 -0.0681247 -0.997677 0
0.215982 -0.114046 0.570993 -0.0716827 8.05788e-05 -0.997427
-0.0666105 -0.011066 0.659804 -0.91219 0.400387 0.0871779
-0.309958 -0.0914227 0.518729 -0.0681247 -0.997677 0
-0.219849 -0.124895 0.544705 0.808097 -0.587896 0.0368409
-0.393864 -0.0721977 0.353974 0.0195541 0.999053 0.0388711
0.216803 -0.105243 0.536764 -0.808074 0.587928 0.0368493
0.380452 -0.0749814 0.470964 -0.0330173 0.999455 0
0.0315087 0.0859832 0.0859599 0.062479 0.995965 0.0644252
0.051409 -0.107415 0.368164 -0.0163979 0.0267877 -0.999507
-0.477098 -0.0717887 0.387475 0.0330173 0.999455 0
-0.449054 -0.0727151 0.448418 0.0330172 0.999455 0
0.354049 -0.0733251 0.36292 -0.0195541 0.999053 0.0388711
-0.0668366 -0.0518624 0.486078 -0.903006 -0.429186 -0.0194563
0.177945 0.0847571 0.00402397 0.0575014 0.988655 0.138762
0.148108 -0.0826569 0.580022 -0.0330168 0.999455 0
0.174831 -0.0967309 0.398125 0.0518265 -0.997803 -0.041264
-0.101621 -0.105649 0.545717 -0.0681278 -0.997677 0
-0.0385923 -0.124058 0.519138 -0.58696 -0.807906 -0.0525911
0.17197 -0.0779105 0.396085 -0.0169766 0.999002 0.0413132
-0.149381 -0.0826149 0.505992 0.0330168 0.999455 0
0.294003 -0.0774254 0.438724 -0.0187069 0.998971 0.041312
0.0469018 0.023784 0.668327 0.71942 0.687039 0.102041
0.0214187 0.0744465 0.0333313 -0.155983 -0.366927 -0.917079
0.0886616 -0.106031 0.510435 0.053054 -0.997676 -0.0427557
-0.0391819 -0.00186392 0.743223 -0.585163 0.304493 0.751577
-0.0764613 -0.0850238 0.578197 0.0330168 0.999455 0
-0.160545 -0.0822461 0.583988 0.0330168 0.999455 0
-0.0652274 -0.0600918 0.57095 -0.900966 -0.432704 -0.032051
0.0306106 -0.00476449 0.0985262 0.931863 0.345272 -0.111438
0.272804 -0.0785376 0.502674 -0.0330172 0.999455 0
-0.0763266 -0.104353 0.455979 -0.053054 -0.997676 -0.0427557
0.1779 -0.0963749 0.393371 0.0518265 -0.997803 -0.041264
0.0704663 -0.039406 0.468807 0.969098 0.246196 -0.0153906
0.00635932 -0.0927513 0.789634 0 -0.966323 0.257334
0.0389893 -0.12413 0.524678 0.58696 -0.807906 -0.0525911
0.0345556 0.0253198 0.357364 0.557046 0.822406 -0.115533
0.066208 -0.0240311 0.409718 0.981955 0.18906 -0.00464614
-0.217719 -0.115572 0.491765 0.977078 0 -0.212881
-0.191189 -0.0809638 0.477815 0.0169766 0.999002 0.0413132
-0.158678 -0.121014 0.632778 -0.0716469 -5.0619e-05 0.99743
0.436042 -0.0717899 0.364298 -0.0178902 0.999246 0.034454
0.310443 -0.0910187 0.435016 0.0535806 -0.997711 -0.0412602
0.120313 -0.0926706 0.636608 0.0717085 2.98535e-05 0.997426
0.00822777 -0.113425 0.367245 0.0548583 0.0331407 -0.997944
-0.21893 -0.0800691 0.468659 0.0187069 0.998971 0.041312
-0.063408 -0.0849239 0.3675 0.130657 -0.0230557 -0.991159
0.0564183 -0.0849666 0.514109 -0.018187 0.998918 0.0428074
-0.472276 -0.0803391 0.393359 -0.0681255 -0.997677 0
0.361047 -0.0845638 0.33952 0.0544455 -0.997762 -0.0388208
0.235857 -0.107176 0.558637 0.0716695 3.35581e-05 0.997428
0.431076 -0.0814834 0.464644 0.444038 0.0165737 0.895854
0.0439603 -0.0370975 0.20167 0.910247 -0.367449 -0.190871
-0.0358527 -0.122226 0.460423 -0.58696 -0.807906 -0.0525911
0.0134962 0.0462135 0.137245 0.996389 -0.0589593 -0.0611036
-0.0396752 -0.118537 0.446412 -0.58696 -0.807906 -0.0525911
0.0545596 -0.112067 0.513141 0.58696 -0.807906 -0.0525911
-0.128241 -0.103831 0.613753 -0.0681278 -0.997677 0
0.178184 0.0764835 0.0715966 0.0845699 0.991484 0.0990316
-0.00553401 -0.104437 0.741375 -0.0391873 -0.987051 0.155545
-0.105917 -0.121893 0.63657 -0.071681 -7.65718e-05 0.997428
0.367844 -0.0768221 0.326993 -0.131487 0.0134239 -0.991227
0.0778244 -0.0803848 0.416285 -0.018187 0.998918 0.0428074
-0.0235989 -0.131525 0.574661 0 -1 0
-0.00492782 -0.131459 0.52947 -0.00356864 -0.997882 -0.0649577
-0.00248052 -0.0117771 0.0627926 0 0 -1
-0.115224 -0.0837433 0.524629 0.0330168 0.999455 0
0.0617201 -0.0680691 0.595858 0.866823 -0.498616 0
-0.150673 0.0815532 0.0458323 -0.0778848 0.991672 0.102573
-0.0689117 -0.0177284 0.615967 -0.964895 0.260653 -0.0322026
-0.000344466 0.0806028 0.0327885 0 -0.391841 -0.920033
0.0252506 0.088628 0.0530225 0.0548875 0.996375 0.0649895
-0.142224 -0.0827333 0.498449 0.018187 0.998918 0.0428074
0.0486671 0.0661567 0.111996 -0.0402214 -0.999145 -0.00960183
-0.281666 -0.074398 0.35735 0.0173049 0.999094 0.0388727
-0.0453052 0.00787099 0.319985 -0.910098 0.369241 -0.188104
0.428565 -0.0833238 0.433169 0.0681255 -0.997677 0
0.264267 -0.0919538 0.397664 0.0535806 -0.997711 -0.0412602
-0.0944774 -0.0795696 0.404337 0.018187 0.998918 0.0428074
-0.255647 -0.0776053 0.425708 0.0187069 0.998971 0.041312
-0.437643 -0.0718153 0.365866 0.0178902 0.999246 0.034454
0.0868405 -0.0846809 0.55223 -0.0330168 0.999455 0
-0.212328 -0.0755969 0.357296 0.0173049 0.999094 0.0388727
-0.133085 -0.0831532 0.565007 0.0330168 0.999455 0
0.0334791 -0.124532 0.469356 0.58696 -0.807906 -0.0525911
0.235963 -0.0964754 0.524841 0.0681247 -0.997677 0
-0.0127751 0.0273879 0.287379 -0.374046 0.922288 -0.0973393
0.29536 -0.0776308 0.444305 -0.0187069 0.998971 0.041312
-0.162258 -0.0802063 0.44761 0.0169766 0.999002 0.0413132
-0.473589 -0.0706031 0.349373 0.0178902 0.999246 0.034454
0.0404118 0.0242582 0.699316 0.703068 0.672022 0.232554
-0.46822 -0.0709031 0.313741 0.13693 0.0630914 -0.988569
-0.320178 -0.0845757 0.333276 0.134331 0.012411 -0.990859
-0.0580478 0.0107405 0.575497 -0.968699 0.247936 0.0122921
-0.0518275 -0.0106229 0.254958 -0.868735 0.495182 0.00974211
0.0197222 0.0671648 0.128935 -0.0404091 -0.999148 -0.00837507
0.235658 -0.107407 0.481585 0.76262 0.569039 -0.307581
0.396165 -0.0713795 0.33169 -0.0178902 0.999246 0.034454
0.0436643 -0.0534976 0.776724 0.895781 -0.378589 0.23291
0.0104957 0.138711 0.0511567 0.998327 -0.0163379 -0.0554699
0.0635203 -0.0120587 0.410257 0.926612 0.375942 -0.00757519
0.0295581 -0.01416 0.0650829 0.880751 -0.428083 -0.202543
-0.000502055 -0.0788621 0.279022 0 -0.982965 -0.183794
0.103863 0.0640319 0.0996613 -0.0408745 -0.999101 -0.011211
-0.0754687 0.0650225 0.117746 0.0402214 -0.999145 -0.00960183
-0.235359 -0.0965166 0.53791 -0.0681247 -0.997677 0
-0.19108 0.0609924 0.0522398 0.0417717 -0.999037 -0.013408
0.0776077 0.0673504 0.0291499 -0.0338071 -0.999298 0.016114
-0.130483 -0.12567 0.558611 -0.762607 -0.569036 -0.307619
-0.267701 -0.0787062 0.536495 0.0330172 0.999455 0
0.0360268 -0.125561 0.513596 0.58696 -0.807906 -0.0525911
-0.0461409 -0.087492 0.726605 -0.53181 -0.806698 0.257714
0.225492 -0.0971904 0.477003 0.0681247 -0.997677 0
0.0232205 0.0687787 0.0926502 -0.0616678 -0.996143 -0.0624241
-0.113211 -0.103359 0.47856 -0.053054 -0.997676 -0.0427557
-0.0660483 -0.00747413 0.646618 -0.919027 0.393237 -0.0274665
0.15538 -0.0983171 0.412049 0.0518265 -0.997803 -0.041264
-0.244683 -0.0944376 0.432292 -0.0535806 -0.997711 -0.0412601
0.149883 -0.0825983 0.601078 -0.0330168 0.999455 0
0.371206 -0.0728486 0.359304 -0.0195541 0.999053 0.0388711
-0.21555 -0.115533 0.54988 0.998895 0 0.046998
-0.0990383 -0.102035 0.629094 -0.433377 0.136349 0.890839
0.0214875 0.023086 0.729586 0.0260627 0.708368 0.705362
-0.121396 -0.110778 0.550686 -0.278785 0.918268 -0.281181
-0.131932 -0.108022 0.5959 -0.80735 0.588035 -0.0490041
0.131997 0.0781485 0.094141 0.0776381 0.993373 0.0847497
0.026878 0.0883664 0.0556596 0.0548875 0.996375 0.0649895
-0.0184378 -0.0348961 0.0792638 -0.578984 -0.796915 -0.172346
-0.0552845 0.0179411 0.513088 -0.654602 0.755301 -0.0318825
-0.233554 -0.151707 0.570802 0.0718291 0 -0.997417
0.0358362 0.0336562 0.64652 0.630546 0.776143 0.00374504
-0.0670741 -0.106168 0.486852 -0.053054 -0.997676 -0.0427557
-0.120292 -0.102269 0.4619 -0.053054 -0.997676 -0.0427557
-0.154272 -0.0778225 0.386686 0.0169766 0.999002 0.0413132
-0.00368083 0.0395378 0.546079 -0.171638 0.984682 -0.0306927
0.0153468 0.0286296 0.309129 0.381864 0.919341 -0.094822
-0.0556086 -0.0786936 0.560967 -0.866823 -0.498616 0
-0.202678 -0.0842203 0.34901 0.130967 -0.0100805 -0.991336
0.0147591 0.0341355 0.460477 0.383582 0.923478 0.0073075
0.0445374 -0.0402957 0.210579 0.910247 -0.367449 -0.190871
0.118539 0.0634344 0.0993996 -0.0408745 -0.999101 -0.011211
-0.412158 -0.0727426 0.377182 0.0195541 0.999053 0.0388711
-0.234894 -0.120046 0.558706 -0.0717222 -1.51316e-05 0.997425
0.00727758 0.0636032 0.0400284 0 -0.391821 -0.920042
-0.292047 -0.0926458 0.454336 -0.0681247 -0.997677 0
-0.237962 -0.0783613 0.435981 0.0187069 0.998971 0.041312
0.0525059 -0.0174673 0.741194 0.449617 0.746768 0.490083
-0.000303713 0.124203 0.126777 -0.216079 0.573374 0.790286
-0.0800735 0.078362 0.122231 -0.389409 0.527207 0.755257
-0.0310501 -0.011217 0.0799095 -0.838862 0.526229 -0.139265
0.0233032 -0.123592 0.409631 0.00356866 -0.997882 -0.0649577
-0.0265267 -0.011791 0.757098 -0.585163 0.304493 0.751577
-0.365555 -0.0747093 0.404285 0.0195541 0.999053 0.0388711
-0.265294 -0.0787857 0.47823 0.0330172 0.999455 0
-0.34095 -0.0762864 0.440242 0.0330172 0.999455 0
0.241435 -0.0988756 0.536959 0.307995 0.951123 -0.0224616
0.30208 -0.0775705 0.480619 -0.0330172 0.999455 0
-0.0175936 -0.10897 0.652898 0 -1 0
0.00977512 -0.0906292 0.334113 0.0183317 -0.975209 -0.220527
0.200365 -0.0989061 0.551871 0.0681247 -0.997677 0
0.0144675 0.105685 0.119331 0.995646 -0.0492072 -0.0791682
0.243458 -0.113662 0.5705 0.0717101 5.5591e-05 0.997425
-0.246559 -0.0794046 0.467883 0.0330172 0.999455 0
0.20249 -0.0808604 0.551242 -0.0330172 0.999455 0
0.318007 -0.0886407 0.385392 0.0521607 -0.997884 -0.0388256
-0.159776 -0.0784828 0.404914 0.0169766 0.999002 0.0413132
-0.147652 -0.0779504 0.387057 0.0169766 0.999002 0.0413132
0.0114943 -0.050917 0.129971 0.532666 -0.82777 -0.17625
-0.111769 0.068607 0.112698 -0.389409 0.527207 0.755257
-0.339778 -0.0893865 0.452935 -0.0681247 -0.997677 0
0.0689919 -0.0382666 0.394193 0.969098 0.246196 -0.0153906
-0.0488294 0.0883572 0.0389559 -0.0485214 0.995664 0.07936
0.0192149 0.0882985 0.0631717 0.0548875 0.996375 0.0649895
0.0129176 0.139778 0.114268 0.0815556 0.551535 0.830155
-0.027323 0.0857396 0.0937849 -0.062479 0.995965 0.0644253
0.0703138 -0.0789074 0.378419 -0.0169766 0.999002 0.0413132
-0.0249803 -0.092393 0.357576 -0.511888 -0.836209 -0.196787
0.139417 -0.120214 0.63268 -0.0717102 5.55732e-05 -0.997425
-0.116919 -0.079201 0.40467 0.0169766 0.999002 0.0413132
0.063548 -0.0648914 0.644011 0.866823 -0.498616 0
0.0108387 0.0625164 0.0836419 0.998357 -0.019093 -0.0540254
-0.148656 -0.0826388 0.575781 0.0330168 0.999455 0
0.0431211 -0.112813 0.375386 0.521742 -0.852321 -0.0365265
0.436063 -0.0828118 0.400228 0.0681255 -0.997677 0
-0.0114446 0.0435286 0.102443 -0.997821 -0.0341391 -0.056464
-0.0517326 -0.0801244 0.410685 -0.901474 -0.432436 -0.0185316
-0.12727 -0.134891 0.584536 -0.301345 -0.948142 -0.10108
-0.230676 -0.0972303 0.560607 0.297385 0.944502 0.139565
-0.0841476 0.0859104 0.0464307 -0.0587727 0.995167 0.0786602
0.0637685 -0.0039072 0.657241 0.915247 0.39162 0.0946419
-0.389214 -0.0720174 0.346581 0.0178902 0.999246 0.034454
0.196727 -0.0777352 0.402169 -0.0187069 0.998971 0.041312
0.00831209 0.037464 0.37825 0.383582 0.923478 0.0073075
-0.198243 0.073647 0.0360741 -0.987817 -0.0725239 -0.137689
0.0460042 -0.118121 0.510654 0.58696 -0.807906 -0.0525911
0.138776 0.0642442 0.0584114 -0.0754426 -0.992468 -0.096513
-0.0481338 0.0687684 0.0639868 0.0333813 -0.999391 0.0101957
-0.0399681 -0.019697 0.125261 -0.834373 -0.5397 -0.11201
-0.0114519 0.0297642 0.30481 -0.374046 0.922288 -0.0973393
-0.0891319 0.0645482 0.108793 0.0409786 -0.999114 -0.00954373
0.196424 -0.110661 0.57388 0.0716574 -5.58665e-05 0.997429
-0.292715 -0.0742759 0.359131 0.0173049 0.999094 0.0388727
0.176974 -0.0996111 0.470219 0.053054 -0.997676 -0.0427557
0.0223491 -0.0412303 0.121693 0.578989 -0.796911 -0.172348
-0.283742 -0.0771536 0.427506 0.0187069 0.998971 0.041312
0.225189 -0.079504 0.457827 -0.0187069 0.998971 0.041312
-0.238346 -0.0963126 0.551253 -0.0681247 -0.997677 0
0.0661596 0.0653641 0.121195 -0.0402214 -0.999145 -0.00960183
-0.0185035 -0.0446502 0.124313 -0.576002 -0.792795 -0.199244
-0.0639792 -0.0948822 0.644769 -0.428839 0.155825 0.88984
0.0537451 0.0135648 0.39972 0.968978 0.245087 -0.0318508
-0.041369 0.0217419 0.36571 -0.56855 0.814636 -0.114536
0.31795 -0.0756084 0.404612 -0.0173049 0.999094 0.0388727
0.40226 -0.0741821 0.409199 -0.0195541 0.999053 0.0388711
-0.0554702 0.0820176 0.11719 -0.0709262 0.993826 0.0853148
-0.0392063 -0.0420985 0.188626 -0.910247 -0.367449 -0.190871
0.102588 -0.0841607 0.519901 -0.0330168 0.999455 0
-0.0714363 -0.0373613 0.544061 -0.968897 0.244741 -0.0366054
-0.0783077 0.082275 0.0949581 -0.0776381 0.993373 0.0847497
-0.382586 -0.0727526 0.362561 0.0195541 0.999053 0.0388711
0.0137327 0.0473088 0.140046 0.996389 -0.0589593 -0.0611036
-0.0447234 -0.0341746 0.199682 -0.910247 -0.367449 -0.190871
0.0541842 -0.108474 0.432174 0.521742 -0.852321 -0.0365265
-0.12806 -0.0987654 0.614476 -0.433377 0.136349 0.890839
0.0183816 -0.0897804 0.330363 0 -0.976371 -0.216099
0.16875 0.0640722 0.0157648 -0.0328176 -0.99921 0.0224233
-0.0652297 -0.0162809 0.508998 -0.969098 0.246196 -0.0153906
0.0149825 -0.10897 0.694593 0 -1 0
0.0372877 -0.115274 0.648712 0.0187282 -0.0257775 0.999492
0.215151 -0.118118 0.514125 -0.999493 0 -0.0318295
-0.320137 -0.0907277 0.447606 -0.0681247 -0.997677 0
0.0628198 -0.00201021 0.616818 0.919027 0.393237 -0.0274665
0.0633815 -0.012551 0.368847 0.926612 0.375942 -0.00757519
-0.227096 -0.128342 0.515444 0.313317 -0.947187 -0.0683343
-0.423848 -0.0827413 0.380758 -0.0544455 -0.997762 -0.0388208
-0.0366622 0.0874667 0.0611895 -0.0548876 0.996375 0.0649895
0.0648706 -0.0120225 0.54209 0.919027 0.393237 -0.0274665
0.451243 -0.071199 0.355054 -0.0178902 0.999246 0.034454
-0.307833 -0.0737343 0.351942 0.0173049 0.999094 0.0388727
0.0155091 0.0460677 0.170209 0.996389 -0.0589593 -0.0611036
0.00861353 -0.0389864 0.0657518 0 -0.982966 -0.183787
-0.0121552 -0.0417136 0.0896813 -0.578991 -0.79691 -0.172348
0.0481489 -0.115045 0.487336 0.58696 -0.807906 -0.0525911
0.0321571 0.0828799 0.128079 0.0725431 0.994597 0.0742591
0.227214 -0.109979 0.478106 -0.0716234 -1.02202e-06 -0.997432
0.293109 -0.0778668 0.491383 -0.0330172 0.999455 0
0.212614 -0.0980324 0.477574 0.0535806 -0.997711 -0.0412602
0.274651 -0.0755541 0.38394 -0.0173049 0.999094 0.0388727
0.0132832 0.0266529 0.151578 0.998098 -0.0422223 -0.0449084
0.0418608 -0.11337 0.370382 0.521742 -0.852321 -0.0365265
0.117543 -0.102688 0.636807 0.0716059 -4.47626e-05 0.997433
-0.034697 -0.122447 0.450908 -0.58696 -0.807906 -0.0525911
-0.280811 -0.0895722 0.359361 -0.0521607 -0.997884 -0.0388256
0.0215382 -0.0947941 0.75556 0.546214 -0.787723 0.284856
0.00678297 0.132231 0.119885 0.0815556 0.551535 0.830155
-0.27125 -0.089772 0.35165 -0.0521607 -0.997884 -0.0388256
0.0253749 0.0126842 0.178088 0.664254 0.744708 -0.064622
0.00253525 0.0766968 0.034452 0 -0.391841 -0.920033
0.0273456 -0.103392 0.671395 0.587779 -0.809022 0
-0.0249644 0.0853867 0.101528 -0.062479 0.995965 0.0644253
0.088251 -0.100016 0.368824 0.0518265 -0.997803 -0.041264
0.0916124 -0.106332 0.609487 0.0681278 -0.997677 0
-0.143559 -0.100661 0.453263 -0.053054 -0.997676 -0.0427557
0.380919 -0.074966 0.452521 -0.0330173 0.999455 0
-0.0656652 -0.0564961 0.71497 -0.903399 -0.424872 0.0579132
0.0462668 -0.00079943 0.223201 0.82455 0.565435 0.0200016
0.319991 -0.0769788 0.494621 -0.0330172 0.999455 0
-0.0812756 -0.107038 0.537702 -0.0681278 -0.997677 0
0.00221763 -0.128286 0.480575 0.00357079 -0.997882 -0.0649573
0.343776 -0.0734891 0.361969 -0.0195541 0.999053 0.0388711
-0.109124 -0.0839448 0.517771 0.0330168 0.999455 0
0.224866 -0.0801213 0.484956 -0.0330172 0.999455 0
0.205553 -0.0949979 0.395029 0.0535806 -0.997711 -0.0412602
-0.203215 -0.0808365 0.520251 0.0330172 0.999455 0
0.00458163 -0.0654194 0.833405 0.330888 -0.492284 0.80509
0.0353915 0.0846971 0.102076 0.062479 0.995965 0.0644252
0.127325 -0.098809 0.38871 0.0518265 -0.997803 -0.041264
0.253897 -0.0933755 0.418576 0.0535806 -0.997711 -0.0412602
-0.366854 -0.0754307 0.434656 0.0330173 0.999455 0
0.114845 0.0659592 0.0569907 -0.0641553 -0.993153 -0.0976261
0.0286245 -0.0447287 0.153884 0.575999 -0.792796 -0.199244
0.0333693 -0.0807571 0.329954 0.511888 -0.836209 -0.196787
-0.130114 -0.0979968 0.372573 -0.0518265 -0.997803 -0.041264
0.0325172 -0.0341706 0.136392 0.89015 -0.418995 -0.179101
0.0118792 0.0402954 0.656895 0.233584 0.97185 0.030756
-0.273725 -0.0785072 0.538575 0.0330172 0.999455 0
-0.0473052 -0.0220652 0.752971 -0.449615 0.74677 0.490083
0.0464189 0.086974 0.0605036 0.0548875 0.996375 0.0649895
-0.0511243 0.0173478 0.413618 -0.654602 0.755301 -0.0318825
0.023182 0.0668993 0.143911 -0.0404091 -0.999148 -0.00837507
-0.0562542 0.0175655 0.543497 -0.630546 0.776143 0.00374504
-0.161335 0.0620104 0.0690592 0.0417717 -0.999037 -0.013408
0.206356 -0.106962 0.573166 0.0716988 8.85191e-05 0.997426
-0.00314488 -0.0982784 0.76888 8.45168e-05 -0.966316 0.257358
0.199661 -0.0989542 0.5273 0.0681278 -0.997677 0
-0.236661 -0.0779605 0.425699 0.0187069 0.998971 0.041312
0.0234354 -0.076626 0.286692 0.530236 -0.829288 -0.176441
-0.069982 -0.0204659 0.625881 -0.964895 0.260653 -0.0322026
-0.111907 -0.0819261 0.466733 0.018187 0.998918 0.0428074
-0.0728989 0.0810179 0.114347 -0.0709262 0.993826 0.0853148
-0.144811 -0.0830581 0.603744 -0.428839 0.155825 0.88984
-0.240762 -0.0795961 0.515017 0.0330172 0.999455 0
0.228023 -0.0976938 0.516918 -0.313249 0.947209 -0.0683466
0.0403586 -0.000229176 0.176104 0.582228 0.806076 -0.106075
0.275951 -0.0937449 0.51966 0.0681247 -0.997677 0
-0.0686606 -0.027702 0.693738 -0.961786 0.259371 0.0877191
-0.45461 -0.0815453 0.399953 -0.0681255 -0.997677 0
-0.0411386 -0.101052 0.368503 0.0163979 0.0267877 -0.999507
0.00873262 0.127031 0.0215619 0.998584 -0.0188041 -0.0497555
-0.122358 -0.130953 0.630975 0.241823 0.847464 0.472574
-0.219439 -0.11439 0.570744 0.0716827 8.05752e-05 -0.997427
0.078663 -0.0790553 0.385426 -0.0169766 0.999002 0.0413132
0.0654748 -0.0615417 0.598228 0.866823 -0.498616 0
0.10159 -0.078704 0.386352 -0.0169766 0.999002 0.0413132
0.265148 -0.112372 0.568941 0.0716469 5.0609e-05 0.99743
-0.371556 -0.086751 0.410475 -0.0544455 -0.997762 -0.0388208
-0.478454 -0.0799172 0.427846 -0.0681255 -0.997677 0
0.0661386 -0.0201442 0.504425 0.969098 0.246196 -0.0153906
0.0303977 -0.0808851 0.322768 0.511888 -0.836209 -0.196787
-0.0285934 -0.0715609 0.798608 -0.853509 -0.440904 0.277715
0.00739602 -0.122278 0.388566 0.00357079 -0.997882 -0.0649573
-0.0115603 -0.00365343 0.0627926 0 0 -1
0.0577696 -0.084276 0.498566 -0.018187 0.998918 0.0428074
0.0676083 -0.054793 0.689279 0.887609 -0.460597 0
