0.164381 -0.0783067 0.402547 -0.0169766 0.999002 0.0413132
0.0662014 -0.0204946 0.502779 0.969098 0.246196 -0.0153906
-0.0628785 -0.0199171 0.332407 -0.867029 0.486596 -0.107165
-0.447973 -0.0819985 0.415365 -0.0681255 -0.997677 0
-0.0585823 -0.064227 0.375728 -0.903006 -0.429186 -0.0194563
0.0567285 0.0134595 0.624625 0.968699 0.247936 0.0122921
0.215777 -0.112274 0.554665 -0.984336 0 0.1763
0.000115772 -0.129234 0.495026 0.00357079 -0.997882 -0.0649573
-0.0181099 -0.131525 0.585775 0 -1 0
0.0800483 -0.107122 0.582401 0.0681278 -0.997677 0
0.224492 -0.0801336 0.51758 -0.0330172 0.999455 0
0.321565 -0.0769268 0.448767 -0.0330172 0.999455 0
-0.108599 -0.0839621 0.588896 0.0330168 0.999455 0
-0.0074349 0.0854222 0.152767 -0.228134 0.566887 0.791577
0.0622496 -0.0671485 0.658537 0.866823 -0.498617 0
0.113432 0.0635127 0.112849 -0.0409786 -0.999114 -0.00954374
-0.242281 -0.12737 0.541897 -0.807392 -0.587975 -0.0490251
0.0889204 -0.0839817 0.504934 -0.018187 0.998918 0.0428074
-0.283803 -0.0770324 0.424605 0.0187069 0.998971 0.041312
-0.0803218 -0.107103 0.577952 -0.0681278 -0.997677 0
0.000539152 0.02926 0.217335 0.285944 0.839554 0.461937
0.0213648 0.0378866 0.609891 0.233684 0.972269 -0.00920706
-0.219521 -0.102343 0.550103 0.808084 0.587914 0.0368576
0.286761 -0.0780765 0.524153 -0.0330172 0.999455 0
-0.271194 -0.0940697 0.462359 -0.0681247 -0.997677 0
0.061177 -0.0941007 0.368008 -0.130657 -0.0230557 -0.991159
-0.0551668 -0.0402147 0.268451 -0.882674 -0.454086 -0.121214
-0.045556 -0.0539621 0.768693 -0.895781 -0.378589 0.23291
0.0743532 -0.0345535 0.651539 0.961675 0.259783 0.0877158
-0.0433877 0.0662549 0.123883 0.0402214 -0.999145 -0.00960183
-0.198402 0.0635096 0.0425553 -0.987817 -0.0725239 -0.137689
-0.191652 -0.0787844 0.425305 0.0169766 0.999002 0.0413132
-0.238336 -0.0936503 0.405013 -0.0535806 -0.997711 -0.0412601
0.4185 -0.0840111 0.416345 0.0681255 -0.997677 0
-0.395155 -0.0845445 0.386859 -0.0544455 -0.997762 -0.0388208
0.437959 -0.0824015 0.391813 0.0544455 -0.997762 -0.0388208
-0.0505981 -0.108578 0.383365 -0.521742 -0.852321 -0.0365265
0.0244895 0.00397253 0.0953926 0.753378 0.6556 -0.0510927
-0.00842999 0.143082 0.00942099 -0.998584 -0.0188045 -0.0497563
0.0865872 -0.0846893 0.565401 -0.0330168 0.999455 0
-0.48115 -0.078593 0.350786 -0.0527622 -0.998014 -0.0344114
0.183046 0.0763837 0.0684431 0.0845699 0.991484 0.0990316
-0.154945 -0.0796983 0.43232 0.0169766 0.999002 0.0413132
0.0676383 -0.0332322 0.72133 0.961918 0.258986 0.0874062
-0.242256 -0.0772617 0.411335 0.0187069 0.998971 0.041312
0.0691792 -0.0536161 0.594614 0.900966 -0.432704 -0.032051
0.102238 -0.0841722 0.605107 -0.0330168 0.999455 0
0.0179062 0.0705263 0.0354972 -0.155983 -0.366927 -0.917079
-0.0692027 -0.0482606 0.516975 -0.901474 -0.432436 -0.0185316
-0.115749 -0.104684 0.604619 -0.0681278 -0.997677 0
-0.00520738 -0.0685559 0.223902 0 -0.982966 -0.183785
0.0582229 0.0664928 0.0945492 -0.0616678 -0.996143 -0.0624241
0.0329327 0.0302668 0.44558 0.171562 0.984249 -0.0426639
0.0382155 0.0264903 0.408581 0.571708 0.81916 -0.0461243
0.163955 -0.0811299 0.470266 -0.018187 0.998918 0.0428074
0.0750383 -0.106261 0.4989 0.053054 -0.997676 -0.0427557
-0.0698359 -0.105179 0.467189 -0.053054 -0.997676 -0.0427557
-0.0114256 0.0563154 0.0957931 -0.997968 -0.0214989 -0.0599758
-0.0125823 0.0401903 0.630255 -0.233684 0.972269 -0.00920707
0.0433646 0.0021954 0.258182 0.82455 0.565435 0.0200016
0.122943 -0.101406 0.445065 0.053054 -0.997676 -0.0427557
0.0282782 0.00389175 0.135663 0.754552 0.650086 -0.0896615
0.0140374 0.0414017 0.150713 0.996389 -0.0589593 -0.0611036
0.0405133 -0.122897 0.648455 0.0187277 -0.0257773 0.999492
0.0206626 -0.131525 0.564047 0 -1 0
0.0389594 0.020335 0.715478 0.668163 0.716696 0.199763
0.0150356 0.0231398 0.192988 0.996839 -0.0664804 -0.0435115
-0.380243 -0.0720109 0.341734 0.0178902 0.999246 0.034454
-0.0972423 -0.101782 0.42195 -0.053054 -0.997676 -0.0427557
-0.0720446 -0.0274653 0.631027 -0.964895 0.260653 -0.0322026
-0.429806 -0.0823641 0.379418 -0.0544455 -0.997762 -0.0388208
0.0557981 -0.109175 0.471579 0.521742 -0.852321 -0.0365265
-0.136975 -0.125801 0.593274 -0.998249 0 -0.0591519
-0.0168698 0.0387828 0.682932 -0.188772 0.981992 -0.00758215
-0.0212155 -0.0449492 0.133343 -0.576002 -0.792795 -0.199244
0.0152732 0.126605 0.116462 0.995646 -0.0492072 -0.0791682
0.267025 -0.0752145 0.371818 -0.0173049 0.999094 0.0388727
0.0290134 -0.123657 0.410946 0.00356866 -0.997882 -0.0649577
-0.0691158 -0.0435382 0.408236 -0.903006 -0.429186 -0.0194563
-0.165028 -0.082098 0.547887 0.0330168 0.999455 0
0.157779 -0.101814 0.525459 0.0681278 -0.997677 0
0.377461 -0.0866523 0.41622 0.0544455 -0.997762 -0.0388208
-0.339847 -0.0762127 0.429992 0.0195541 0.999053 0.0388711
-0.059461 -0.00213025 0.40645 -0.926612 0.375942 -0.00757519
-0.114711 -0.0837602 0.545097 0.0330168 0.999455 0
0.0662275 -0.0249442 0.376692 0.981955 0.18906 -0.00464614
-0.276803 -0.0784055 0.499347 0.0330172 0.999455 0
-0.168312 -0.0981248 0.423643 -0.0518265 -0.997803 -0.041264
0.0274693 0.0694657 0.0646813 -0.0333812 -0.999391 0.0101956
-0.0618595 -0.0112369 0.70389 -0.867641 0.489709 0.085927
0.195532 -0.0777314 0.401535 -0.0187069 0.998971 0.041312
0.162397 -0.0821849 0.562817 -0.0330168 0.999455 0
-0.033655 -0.00155426 0.133664 -0.66436 0.735123 -0.13498
0.061438 -0.00563418 0.474382 0.926612 0.375942 -0.00757519
-0.343687 -0.0891196 0.458052 -0.0681255 -0.997677 0
0.199707 -0.0794705 0.445478 -0.0187069 0.998971 0.041312
-0.193842 -0.0993515 0.520322 -0.0681278 -0.997677 0
-0.0325334 0.00623102 0.178448 -0.670419 0.73909 -0.0654574
-0.162921 0.0617087 0.0894869 0.0417585 -0.999066 -0.0111314
-0.0128496 0.100425 0.101437 -0.9979 -0.0215834 -0.0610732
-0.415215 -0.0761284 0.472063 -0.433668 0.0975849 0.895773
-0.0621605 0.0810431 0.123371 -0.0725431 0.994597 0.0742591
-0.245398 -0.079443 0.49942 0.0330172 0.999455 0
0.0159604 0.060596 0.167682 0.243663 0.55477 0.795525
0.0701412 -0.0329714 0.53913 0.968897 0.244741 -0.0366054
-0.0394566 -0.124256 0.558141 -0.587773 -0.809026 0
-0.0349822 0.0685867 0.0848515 0.0581076 -0.995388 -0.0763275
0.0480364 -0.0370347 0.761644 0.948385 0.155611 0.276319
-0.454429 -0.0799167 0.348205 -0.0527622 -0.998014 -0.0344114
-0.0215718 0.0335884 0.476523 -0.171562 0.984249 -0.0426639
0.025504 -0.0170956 0.771384 0.512835 0.80866 0.288218
-0.150864 -0.0972013 0.379397 -0.0518265 -0.997803 -0.041264
0.0534674 -0.0087272 0.309638 0.826497 0.554428 -0.0975346
-0.12863 -0.110489 0.563214 -0.762638 0.569003 -0.307601
-0.265523 -0.0898443 0.345816 -0.0521607 -0.997884 -0.0388256
0.0659501 -0.0513668 0.434002 0.903006 -0.429186 -0.0194563
0.0451893 -0.0131912 0.180677 0.981893 0.124207 -0.143033
-0.0557392 -0.0857083 0.568595 0.0330168 0.999455 0
0.0712139 -0.0405204 0.498057 0.969098 0.246196 -0.0153906
-0.148248 -0.102465 0.51556 -0.0681278 -0.997677 0
0.234494 -0.138441 0.570735 -0.0718291 0 -0.997417
-0.000819513 -0.0255568 0.815418 -4.26784e-05 0.861785 0.507273
0.0223661 -0.10701 0.699615 0.587779 -0.809022 0
0.0898436 0.0839342 0.0649887 0.0683564 0.994532 0.0789523
-0.479108 -0.0798725 0.423597 -0.0681255 -0.997677 0
-0.186345 -0.0813675 0.485322 0.018187 0.998918 0.0428074
-0.216732 -0.0799206 0.464072 0.0187069 0.998971 0.041312
-0.310685 -0.0900673 0.412219 -0.0521607 -0.997884 -0.0388256
0.00365658 0.0392948 0.391264 0.383582 0.923478 0.0073075
0.234841 -0.0757698 0.371764 -0.0173049 0.999094 0.0388727
-0.0165358 0.0376109 0.556147 -0.171638 0.984682 -0.0306927
-0.0394389 -0.0492367 0.203477 -0.910247 -0.367449 -0.190871
0.203317 -0.0984699 0.476079 0.0535806 -0.997711 -0.0412602
-0.062364 -0.0660645 0.676961 -0.884284 -0.463706 0.0549333
0.437141 -0.0799706 0.323263 0.0527622 -0.998014 -0.0344114
0.0119571 0.0918835 0.0905642 0.997753 -0.0220927 -0.0632503
-0.291235 -0.0779287 0.466329 0.0330172 0.999455 0
-0.0722326 -0.0820026 0.451662 0.018187 0.998918 0.0428074
-0.0103972 0.0709232 0.16211 -0.241628 0.565055 0.788878
-0.205942 -0.0807464 0.569052 0.0330172 0.999455 0
0.149182 -0.0771521 0.368382 -0.0169766 0.999002 0.0413132
-0.0666344 -0.0243822 0.467851 -0.969098 0.246196 -0.0153906
-0.0126855 -0.0920246 0.340502 0 -0.976371 -0.216099
-0.172631 -0.0891072 0.591315 -0.433377 0.136349 0.890839
-0.0743162 -0.0429576 0.595121 -0.900966 -0.432704 -0.032051
0.0375823 -0.0650525 0.27377 0.494939 -0.856705 -0.145229
0.133674 -0.115189 0.571791 0.799736 0.586612 -0.127705
-0.244628 -0.115422 0.50516 -0.990455 0 -0.137837
0.0483528 -0.0556903 0.755127 0.895781 -0.378589 0.23291
0.0455154 -0.0742541 0.33494 0.527369 -0.824805 -0.203906
-0.0816788 -0.106459 0.511774 -0.053054 -0.997676 -0.0427557
-0.125911 0.0659104 0.041191 0.0338071 -0.999298 0.016114
0.0517061 -0.0854779 0.538544 0.866823 -0.498616 0
0.120875 -0.104334 0.526926 0.0681278 -0.997677 0
0.0510244 0.0182217 0.432269 0.654602 0.755301 -0.0318825
0.0538711 -0.0812657 0.710779 0.887609 -0.460597 0
-0.0390355 -0.123572 0.516612 -0.58696 -0.807906 -0.0525911
-0.398946 -0.0853463 0.443058 -0.0681255 -0.997677 0
0.0203766 -0.051452 0.159328 0.532666 -0.82777 -0.17625
0.163233 -0.0999831 0.46185 0.053054 -0.997676 -0.0427557
0.0163685 -0.0941602 0.768469 0.647156 -0.726172 0.232085
-0.00645506 -0.00703534 0.0627926 0 0 -1
-0.0505442 -0.0865378 0.654838 -0.587779 -0.809022 0
-0.178364 -0.0768944 0.374142 0.0169766 0.999002 0.0413132
-0.373593 -0.075208 0.427455 0.0330173 0.999455 0
0.294908 -0.0924504 0.479773 0.0681247 -0.997677 0
-0.0622025 -0.0672304 0.624428 -0.866823 -0.498616 0
0.152153 -0.0996751 0.440834 0.0518265 -0.997803 -0.041264
0.0693092 -0.0223914 0.590136 0.964895 0.260653 -0.0322026
-0.0560533 -0.0593634 0.339144 -0.891638 -0.429214 -0.144072
-0.215466 -0.0869975 0.347348 0.130967 -0.0100805 -0.991336
-0.0878638 -0.0785089 0.375994 0.0169766 0.999002 0.0413132
-0.0375337 0.0325291 0.620068 -0.660403 0.750795 0.0132091
-0.0420779 -0.0891179 0.7299 -0.53181 -0.806698 0.257714
0.0395885 -0.0346608 0.173314 0.898785 -0.410312 -0.154367
-0.0851961 0.0671949 0.0253858 0.155938 -0.366934 -0.917084
-0.00988879 -0.10897 0.687401 0 -1 0
0.0557192 0.0179124 0.561676 0.630546 0.776143 0.00374504
-0.00087148 -0.0454073 0.100093 0 -0.982966 -0.183787
0.125425 -0.118198 0.636274 0.577338 0.754964 0.310984
0.217112 -0.0954459 0.420871 0.0535806 -0.997711 -0.0412602
0.38714 -0.0725971 0.360856 -0.0195541 0.999053 0.0388711
0.250431 -0.0941421 0.432612 0.0535806 -0.997711 -0.0412602
0.0149337 0.0379557 0.558248 0.171638 0.984682 -0.0306928
-0.0129882 0.0304316 0.141468 -0.998099 -0.0422204 -0.0449066
0.130539 0.0642255 0.0643152 -0.0641553 -0.993153 -0.0976261
0.320639 -0.0870372 0.347713 0.0521607 -0.997884 -0.0388256
0.139666 -0.0829358 0.60577 -0.0330168 0.999455 0
0.313229 -0.0772021 0.501636 -0.0330172 0.999455 0
0.198231 -0.0990518 0.522474 0.0681278 -0.997677 0
0.0222913 0.0204855 0.247097 0.674738 0.7367 -0.0447421
-0.180515 -0.0994988 0.471994 -0.053054 -0.997676 -0.0427557
-0.0306636 0.0169669 0.279051 -0.552709 0.830367 -0.0707357
-0.290897 -0.0904255 0.394841 -0.0521607 -0.997884 -0.0388256
-0.0256166 -0.0701656 0.262883 -0.530236 -0.829288 -0.176441
0.0572022 0.00303816 0.38664 0.926612 0.375942 -0.00757519
0.0809693 -0.0848749 0.601292 -0.0330168 0.999455 0
0.128257 -0.0833127 0.524033 -0.0330168 0.999455 0
0.063194 -0.00114007 0.651347 0.915247 0.39162 0.0946419
0.250538 -0.0792732 0.487373 -0.0330172 0.999455 0
0.0351598 0.0880167 0.0255646 -0.155985 -0.366932 -0.917077
0.238806 -0.100269 0.570438 0.987177 -0.150865 -0.0521733
-0.0407052 0.00627468 0.238312 -0.584648 0.808078 -0.0720867
-0.0741777 0.0843625 0.0731564 -0.0683564 0.994532 0.0789523
-0.00917189 0.0355326 0.0629054 -0.998312 -0.0211413 -0.0540867
-0.11645 -0.0801391 0.426962 0.018187 0.998918 0.0428074
-0.263732 -0.0945792 0.513331 -0.0681247 -0.997677 0
0.285805 -0.0914432 0.413287 0.0535806 -0.997711 -0.0412602
-0.0271977 -0.122787 0.397467 -0.00356864 -0.997882 -0.0649577
0.0739697 0.0653796 0.13444 0.389415 0.527204 0.755256
-0.246441 -0.0918468 0.371647 -0.0521607 -0.997884 -0.0388256
-0.0123526 0.156301 0.0744005 -0.997596 -0.0200553 -0.0663383
-0.155479 -0.101971 0.559015 -0.0681278 -0.997677 0
0.117119 -0.100271 0.411254 0.0518265 -0.997803 -0.041264
-0.0286294 -0.103735 0.368637 0.0163979 0.0267877 -0.999507
0.21467 -0.114148 0.529222 -0.999493 0 -0.0318295
0.178922 -0.0768197 0.372566 -0.0169766 0.999002 0.0413132
-0.425987 -0.073398 0.400983 0.0195541 0.999053 0.0388711
0.0124178 -0.0616275 0.186845 0 -0.982966 -0.183785
0.378154 -0.0867661 0.480038 0.0681255 -0.997677 0
-0.250967 -0.0754782 0.371448 0.0173049 0.999094 0.0388727
-0.097186 0.0799164 0.10531 -0.0776381 0.993373 0.0847497
-0.00369599 0.0303309 0.721756 -0.13209 0.947891 0.289923
-0.0298146 0.0828623 0.130603 -0.0725431 0.994597 0.0742591
0.00536995 -0.131525 0.648271 0 -1 0
-0.0267249 0.0691887 0.0369536 0.034364 -0.999331 0.0125096
0.13398 -0.103014 0.49628 0.053054 -0.997676 -0.0427557
0.0254655 -0.127921 0.476254 0.00356866 -0.997882 -0.0649577
-0.355849 -0.0882891 0.481329 -0.0681255 -0.997677 0
0.378735 -0.083889 0.346984 0.0544455 -0.997762 -0.0388208
0.29009 -0.0925269 0.445055 0.0535806 -0.997711 -0.0412602
0.0156727 0.0892281 0.0519118 0.0548875 0.996375 0.0649895
-0.0362473 -0.126588 0.619125 -0.587773 -0.809026 0
0.103847 -0.119591 0.591015 -0.999494 0 -0.0317947
-0.0277618 -0.023098 0.0761621 -0.880751 -0.428083 -0.202542
0.0878489 -0.0892099 0.632273 0.428839 0.155825 0.88984
-0.0361032 -0.0306455 0.79076 -0.495354 0.816509 0.296543
0.373957 -0.075196 0.439871 -0.0330173 0.999455 0
0.201918 -0.0934598 0.353114 0.0535806 -0.997711 -0.0412602
0.000263566 0.0358158 0.319156 0.374046 0.922288 -0.0973393
0.0212281 -0.103534 0.728547 0.560749 -0.793515 0.236421
-0.0770892 -0.085003 0.583887 0.0330168 0.999455 0
0.0689222 -0.0437981 0.404983 0.903006 -0.429186 -0.0194563
-0.119999 -0.117875 0.625131 0.571899 0.763812 -0.299203
-0.0711769 -0.0427657 0.710689 -0.961786 0.259371 0.0877191
-0.0601387 0.00287761 0.597089 -0.919027 0.393237 -0.0274665
0.0474286 0.0240694 0.658205 0.630493 0.776078 0.0134578
-0.121155 -0.0824016 0.481756 0.018187 0.998918 0.0428074
0.0412844 0.0297268 0.504847 0.654602 0.755301 -0.0318825
0.0733516 0.0825631 0.0959709 0.0709262 0.993826 0.0853148
0.0637417 -0.0645546 0.622931 0.866823 -0.498616 0
0.028788 -0.0905867 0.359806 0.511888 -0.836209 -0.196787
0.200096 0.0651442 0.0695761 0.389388 0.527204 0.75527
-0.0556561 0.0168115 0.649961 -0.915247 0.39162 0.0946419
-0.129245 0.0762808 0.0142591 0.155974 -0.367032 -0.917038
-0.0265857 -0.125401 0.437594 -0.00356864 -0.997882 -0.0649577
-0.141805 -0.0828652 0.538124 0.0330168 0.999455 0
0.0192788 -0.131289 0.52765 0.00356866 -0.997882 -0.0649577
0.112638 0.0715911 0.0189607 -0.155938 -0.366934 -0.917084
0.148778 -0.0969161 0.36988 0.0518265 -0.997803 -0.041264
-0.222798 -0.0956739 0.433768 -0.0535806 -0.997711 -0.0412601
-0.195383 0.0605112 0.0751886 0.0417585 -0.999066 -0.0111314
-0.305256 -0.0884836 0.364221 -0.0521607 -0.997884 -0.0388256
0.232542 -0.0786211 0.439807 -0.0187069 0.998971 0.041312
-0.391668 -0.0835104 0.355391 -0.0544455 -0.997762 -0.0388208
-0.036101 0.0301677 0.456034 -0.171562 0.984249 -0.0426639
0.344869 -0.0875306 0.393084 0.0544455 -0.997762 -0.0388208
0.242682 -0.122478 0.513608 0.799779 -0.586553 -0.127709
0.130596 -0.106338 0.621162 0.31473 0.943151 0.106822
-0.123962 -0.103623 0.498055 -0.053054 -0.997676 -0.0427557
0.0157414 0.0431276 0.178619 0.996839 -0.0664804 -0.0435115
0.0285387 -0.131525 0.620653 0 -1 0
-0.0136626 0.0209221 0.164921 -0.996839 -0.0664804 -0.0435115
-0.00441965 -0.0796774 0.283383 0 -0.982965 -0.183794
-0.0509511 0.0213658 0.505247 -0.654602 0.755301 -0.0318825
0.332595 -0.0759408 0.419674 -0.0173049 0.999094 0.0388727
0.3351 -0.0897059 0.490055 0.0681247 -0.997677 0
-0.195061 -0.0811058 0.53257 0.0330172 0.999455 0
0.00554807 0.0461907 0.0475209 0 -0.407343 -0.913275
-0.0470532 0.0212188 0.424504 -0.571708 0.81916 -0.0461243
-0.053074 0.0712795 0.0292143 0.155983 -0.366927 -0.917079
0.054899 -0.10698 0.407514 0.521742 -0.852321 -0.0365265
0.0593365 0.00485146 0.592723 0.968699 0.247936 0.0122921
0.0346411 0.0313167 0.476671 0.171562 0.984249 -0.0426639
0.0107077 0.0430022 0.0886374 0.998564 -0.0272523 -0.0461283
0.445333 -0.0728381 0.421761 -0.0330173 0.999455 0
-0.294695 -0.092465 0.513736 -0.0681247 -0.997677 0
-0.0470658 -0.047591 0.238371 -0.917617 -0.357464 -0.173777
0.0688818 -0.0829837 0.473131 -0.018187 0.998918 0.0428074
-0.0389714 0.0325998 0.54417 -0.660403 0.750795 0.0132091
0.404002 -0.0736273 0.32224 -0.131487 0.0134239 -0.991227
-0.20558 -0.0936525 0.362529 -0.0535806 -0.997711 -0.0412601
-0.109442 -0.0787067 0.389645 0.0169766 0.999002 0.0413132
-0.132659 0.0781641 0.0933527 -0.0776381 0.993373 0.0847497
0.0107139 0.0339335 0.341896 0.381864 0.919341 -0.094822
0.277113 -0.0783952 0.504568 -0.0330172 0.999455 0
0.0765731 0.0676098 0.0654353 -0.0670165 -0.99488 -0.075649
-0.0700359 -0.0309098 0.550129 -0.968897 0.244741 -0.0366054
-0.126901 -0.0833575 0.50909 0.0330168 0.999455 0
0.234268 -0.110426 0.558751 0.0716993 -7.66883e-06 0.997426
-0.241174 -0.0961195 0.482656 -0.0681247 -0.997677 0
0.0653725 -0.0591014 0.696168 0.887609 -0.460597 0
0.0753238 0.0806178 0.0216938 -0.155938 -0.366934 -0.917084
0.470843 -0.0704654 0.343955 -0.0178902 0.999246 0.034454
0.0525316 -0.0958272 0.648928 0.0187277 -0.0257773 0.999492
0.164637 0.0641853 0.0147841 -0.0328176 -0.99921 0.0224233
0.254232 -0.0952279 0.522471 0.0681247 -0.997677 0
-0.0107441 0.0333554 0.0951226 -0.998564 -0.0272528 -0.0461291
0.153627 0.077706 0.0803271 0.0845699 0.991484 0.0990316
0.105158 -0.0788092 0.390363 -0.0169766 0.999002 0.0413132
0.0126326 0.0393859 0.125943 0.997821 -0.0341407 -0.0564664
0.0879377 -0.10316 0.442557 0.053054 -0.997676 -0.0427557
-0.167923 -0.0972538 0.402094 -0.0518265 -0.997803 -0.041264
0.0631499 -0.0591851 0.477462 0.901474 -0.432436 -0.0185315
0.0635919 -0.0224143 0.329238 0.980521 0.188784 -0.0542125
0.0129121 0.134332 0.0904779 0.9979 -0.0215834 -0.0610732
0.0290244 -0.126082 0.448188 0.00356866 -0.997882 -0.0649577
-0.18304 0.0781498 0.0527209 -0.0847665 0.98919 0.11966
0.250888 -0.0767743 0.403458 -0.0187069 0.998971 0.041312
-0.0451128 -0.0161888 0.746028 -0.449615 0.74677 0.490083
-0.212756 -0.0771755 0.395892 0.0187069 0.998971 0.041312
0.134986 -0.0786376 0.398471 -0.0169766 0.999002 0.0413132
-0.123795 -0.130956 0.555031 -0.27887 -0.918227 -0.281231
0.179733 0.0824601 0.0202451 0.0648783 0.992852 0.100181
0.0437221 -0.112155 0.368627 0.521742 -0.852321 -0.0365265
-0.125785 -0.0848817 0.613232 -0.428839 0.155825 0.88984
-0.332081 -0.088262 0.394565 -0.0521607 -0.997884 -0.0388256
0.0575681 -0.0669949 0.389714 0.903006 -0.429186 -0.0194563
0.46977 -0.0797108 0.365757 0.0527622 -0.998014 -0.0344114
0.0234069 0.0815208 0.149243 0.389415 0.527205 0.755255
0.312692 -0.0740526 0.362285 -0.0173049 0.999094 0.0388727
0.0173849 0.0134114 0.124479 0.514689 0.852327 -0.0929201
-0.278728 -0.0739826 0.345366 0.0173049 0.999094 0.0388727
-0.370438 -0.0848648 0.360428 -0.0544455 -0.997762 -0.0388208
0.2756 -0.0937688 0.471458 0.0681247 -0.997677 0
-0.0717239 -0.0277992 0.66036 -0.961675 0.259783 0.0877158
0.0960003 -0.081943 0.460368 -0.018187 0.998918 0.0428074
0.228176 -0.092442 0.362405 0.0521607 -0.997884 -0.0388256
0.00872009 0.12468 0.022199 0.998584 -0.0188041 -0.0497555
-0.0638524 -0.0564185 0.448076 -0.903006 -0.429186 -0.0194563
0.0146284 -0.037609 0.0790111 0.578985 -0.796914 -0.172347
-0.0347651 0.0285612 0.4136 -0.171562 0.984249 -0.0426639
-0.164245 0.0852877 0.00592125 -0.0575014 0.988655 0.138762
0.413229 -0.0826618 0.36382 0.0544455 -0.997762 -0.0388208
-0.0494197 0.00560024 0.335435 -0.910098 0.369241 -0.188104
0.049757 -0.116773 0.566849 0.587773 -0.809026 0
-0.00593709 -0.10897 0.666784 0 -1 0
-0.100167 -0.102849 0.450479 -0.053054 -0.997676 -0.0427557
0.181202 -0.0955587 0.37778 0.0518265 -0.997803 -0.041264
0.0361207 0.067877 0.0942943 -0.0616678 -0.996143 -0.0624241
-0.0575197 0.0869811 0.0510189 -0.0548876 0.996375 0.0649895
0.0433344 0.00271648 0.288823 0.826497 0.554428 -0.0975346
0.0884195 -0.100343 0.376944 0.0518265 -0.997803 -0.041264
0.195378 -0.0810954 0.494921 -0.0330172 0.999455 0
-0.444761 -0.0725584 0.388848 0.0195541 0.999053 0.0388711
-0.146738 -0.0767553 0.357784 0.0169766 0.999002 0.0413132
-0.226102 -0.0971487 0.513934 -0.0681247 -0.997677 0
0.0453076 -0.0333542 0.200889 0.910247 -0.367449 -0.190871
0.0105268 0.129069 0.054556 0.998327 -0.0163379 -0.0554699
-0.0212677 0.025851 0.306035 -0.381864 0.919341 -0.094822
0.17346 -0.100743 0.572356 0.0681278 -0.997677 0
0.414427 -0.0842892 0.451268 0.0681255 -0.997677 0
-0.00905674 0.0934625 0.0391038 -0.99822 -0.0243906 -0.0544185
-0.118267 -0.0987277 0.375365 -0.0518265 -0.997803 -0.041264
-0.0798277 0.0675559 0.0513007 0.0327488 -0.999387 0.012404
-0.0552318 0.0160129 0.466326 -0.654602 0.755301 -0.0318825
0.146699 0.0623007 0.0972114 -0.0417585 -0.999066 -0.0111314
-0.012759 -0.0730127 0.818691 -0.548335 -0.667249 0.504091
-0.0583076 -4.63054e-06 0.37085 -0.926612 0.375942 -0.00757519
-0.223248 -0.108636 0.571952 -0.0716485 -3.96753e-07 0.99743
0.106745 -0.105299 0.62272 0.0681278 -0.997677 0
-0.0533712 -0.0825833 0.596095 -0.866823 -0.498616 0
-0.0683909 -0.107918 0.602534 -0.0681278 -0.997677 0
0.292807 -0.0759604 0.402467 -0.0173049 0.999094 0.0388727
0.1373 -0.116799 0.598761 0.998249 0 -0.0591519
-0.132131 -0.102034 0.471103 -0.053054 -0.997676 -0.0427557
-0.150139 -0.0825898 0.59681 0.0330168 0.999455 0
0.214065 -0.0804781 0.551466 -0.0330172 0.999455 0
-0.00951999 0.135491 0.0341654 -0.998584 -0.0188045 -0.0497563
-0.0193675 -0.039881 0.826436 -0.395332 0.767163 0.505147
-0.393254 -0.0824003 0.326437 -0.0527622 -0.998014 -0.0344114
0.0602421 -0.00925513 0.708927 0.867641 0.489709 0.0859269
0.33532 -0.0872999 0.374189 0.0521607 -0.997884 -0.0388256
-0.0287271 -0.102389 0.706535 -0.587779 -0.809022 0
-0.0231088 0.0321579 0.706939 -0.13209 0.947891 0.289923
0.0647771 -0.0156499 0.448345 0.981955 0.18906 -0.00464614
0.372766 -0.0853802 0.37694 0.0544455 -0.997762 -0.0388208
-0.0364392 -0.123441 0.48563 -0.58696 -0.807906 -0.0525911
-0.123014 -0.0834859 0.561263 0.0330168 0.999455 0
-0.188808 -0.0996953 0.498026 -0.0681278 -0.997677 0
-0.284764 -0.0759165 0.397756 0.0173049 0.999094 0.0388727
0.0479712 -0.0522411 0.261105 0.882674 -0.454086 -0.121214
0.0704039 -0.10733 0.518086 0.053054 -0.997676 -0.0427557
0.294435 -0.0768572 0.425181 -0.0187069 0.998971 0.041312
-0.125816 0.0633583 0.0796481 0.0408745 -0.999101 -0.011211
0.0109139 -0.131525 0.58994 0 -1 0
0.124234 -0.0834456 0.579632 -0.0330168 0.999455 0
0.0207309 -0.0684655 0.237948 0.469467 -0.864298 -0.180529
-0.104579 -0.124274 0.612466 0.998895 0 0.0469982
0.134678 -0.099702 0.419537 0.0518265 -0.997803 -0.041264
0.0198257 0.0376616 0.57617 0.171638 0.984682 -0.0306928
0.0594906 0.00406372 0.5014 0.968978 0.245087 -0.0318508
-0.182861 0.0637009 0.0198707 0.0328176 -0.99921 0.0224233
0.270361 -0.0918865 0.403949 0.0535806 -0.997711 -0.0412602
0.0679521 -0.107948 0.601647 0.0681278 -0.997677 0
-0.440568 -0.0825042 0.437236 -0.0681255 -0.997677 0
-0.0259916 0.0879691 0.0624992 -0.0548876 0.996375 0.0649895
0.263884 -0.0780858 0.441056 -0.0187069 0.998971 0.041312
-0.183937 -0.0814733 0.510336 0.0330168 0.999455 0
-0.130583 -0.13506 0.618854 -0.314731 -0.943151 0.106822
-0.152399 -0.0999243 0.447033 -0.053054 -0.997676 -0.0427557
-0.0590387 -0.0845302 0.505038 0.018187 0.998918 0.0428074
0.354548 -0.0847859 0.336115 0.0544455 -0.997762 -0.0388208
-0.312651 -0.0772212 0.5064 0.0330172 0.999455 0
-0.00228641 -0.00596735 0.76095 0 0.960937 0.276769
-0.177316 -0.10048 0.57012 -0.0681278 -0.997677 0
-0.0398854 -0.0697624 0.30221 -0.527369 -0.824805 -0.203906
-0.000120485 -0.131525 0.560035 0 -1 0
-0.435954 -0.0708154 0.335989 0.0178902 0.999246 0.034454
-0.0358998 -0.0657769 0.785336 -0.853509 -0.440904 0.277715
-0.183801 -0.0954845 0.37925 -0.0518265 -0.997803 -0.041264
-0.0281027 0.0360254 0.584368 -0.233684 0.972269 -0.00920707
-0.246628 -0.0957471 0.531828 -0.0681247 -0.997677 0
0.171144 0.0632834 0.0441535 -0.0744624 -0.988165 -0.134111
-0.0849285 -0.0827374 0.474203 0.018187 0.998918 0.0428074
-0.0382095 -0.0808442 0.753252 -0.895781 -0.378589 0.23291
-0.0660911 -0.0557685 0.536861 -0.900966 -0.432704 -0.032051
0.0661357 0.0865428 0.0511382 0.0485213 0.995664 0.07936
-0.378857 -0.0740319 0.393566 0.0195541 0.999053 0.0388711
0.0328607 0.0356248 0.67433 0.630493 0.776078 0.0134578
-0.343873 -0.0741465 0.378914 0.0195541 0.999053 0.0388711
0.37814 -0.074161 0.396523 -0.0195541 0.999053 0.0388711
-0.362128 -0.0875833 0.418642 -0.0544455 -0.997762 -0.0388208
0.334766 -0.0896347 0.433135 0.0535806 -0.997711 -0.0412602
-0.0181432 0.0209365 0.199998 -0.573854 0.813601 -0.0935192
-0.0476097 -0.011702 0.198586 -0.981893 0.124207 -0.143033
-0.0907883 -0.104898 0.486653 -0.053054 -0.997676 -0.0427557
-0.232325 -0.0798748 0.546584 0.0330172 0.999455 0
0.245929 -0.122048 0.56113 0.808916 -0.582386 0.0804995
-0.150098 0.078369 0.0767039 -0.0845699 0.991484 0.0990316
-0.00471051 -0.0563978 0.158875 0 -0.982966 -0.183787
0.193767 -0.0805261 0.468315 -0.0187069 0.998971 0.041312
-0.395507 -0.0744841 0.468643 0.0330172 0.999455 0
-0.148095 0.0641865 0.0517204 0.0754427 -0.992468 -0.096513
-0.0354467 -0.0281941 0.132522 -0.834373 -0.5397 -0.11201
-0.0199362 0.00687259 0.0657522 -0.751575 0.657629 -0.0515647
-0.179437 -0.0798496 0.446044 0.0169766 0.999002 0.0413132
-0.17702 0.0817279 0.0284439 -0.0781727 0.986 0.147287
0.349745 -0.0759958 0.502383 -0.0330173 0.999455 0
0.0449093 -0.112473 0.392985 0.521742 -0.852321 -0.0365265
-0.0693653 -0.0335945 0.492447 -0.969098 0.246196 -0.0153906
-0.217655 -0.121678 0.547927 0.808097 -0.587896 0.0368409
0.0793609 -0.084928 0.526921 -0.0330168 0.999455 0
-0.0398275 -0.0747836 0.322371 -0.527369 -0.824805 -0.203906
-0.185986 -0.0779078 0.401779 0.0169766 0.999002 0.0413132
0.0169838 0.0673278 0.122852 -0.0402214 -0.999145 -0.00960183
-0.06061 -0.0682792 0.696623 -0.887609 -0.460597 0
0.141591 -0.0805805 0.447943 -0.018187 0.998918 0.0428074
-0.0401495 0.0296662 0.676327 -0.71942 0.687039 0.102041
0.233175 -0.104351 0.484417 0.278786 0.918271 -0.28117
-0.354208 -0.0843989 0.502499 -0.433668 0.0975849 0.895773
-0.0539617 -0.113718 0.639787 -0.587773 -0.809026 0
0.21467 -0.0863864 0.57052 0.430715 0.135212 0.892302
0.112151 -0.0986649 0.366167 0.0518265 -0.997803 -0.041264
0.145131 -0.101817 0.482177 0.053054 -0.997676 -0.0427557
-0.002615 0.0391786 0.460623 -0.383582 0.923478 0.0073075
0.00573985 0.154335 0.012276 -0.000331012 0.990684 -0.136181
-0.0558369 0.0661735 0.102002 0.0616679 -0.996143 -0.0624242
-0.0641776 -0.031759 0.307291 -0.980521 0.188784 -0.0542125
-0.0249953 0.0673636 0.113478 0.0616679 -0.996143 -0.0624242
-0.0596866 -0.0855388 0.368005 0.130657 -0.0230557 -0.991159
-0.037549 0.0237304 0.36089 -0.56855 0.814636 -0.114536
0.24142 -0.0936843 0.40984 0.0535806 -0.997711 -0.0412602
-0.325554 -0.0862631 0.334423 -0.0521607 -0.997884 -0.0388256
-0.420783 -0.0736491 0.430026 0.0330173 0.999455 0
0.0638097 -0.00980009 0.526119 0.968978 0.245087 -0.0318508
0.147847 -0.102492 0.576918 0.0681278 -0.997677 0
0.384523 -0.0863312 0.452423 0.0681255 -0.997677 0
-0.0195545 -0.131525 0.606484 0 -1 0
-0.0655982 -0.102665 0.403273 -0.053054 -0.997676 -0.0427557
0.258532 -0.0790091 0.514918 -0.0330172 0.999455 0
-0.0483394 -0.112647 0.446061 -0.521742 -0.852321 -0.0365265
-0.0634371 -0.0113849 0.433525 -0.926612 0.375942 -0.00757519
0.110857 -0.0838875 0.51716 -0.0330168 0.999455 0
0.0838196 0.0798152 0.118741 0.0776381 0.993373 0.0847497
-0.012479 0.0398744 0.122932 -0.997821 -0.0341391 -0.056464
-0.0754778 0.0666656 0.0788238 0.0670165 -0.99488 -0.075649
0.0122022 -0.0182891 0.798904 0.534045 0.797581 0.280464
0.0592151 -0.0282636 0.740065 0.834436 0.174802 0.522647
0.0563668 -0.0715992 0.437176 0.901474 -0.432436 -0.0185315
-0.0857132 -0.0813161 0.44137 0.018187 0.998918 0.0428074
0.0194446 -0.0811727 0.800528 0.647156 -0.726172 0.232085
0.339792 -0.0723593 0.330835 -0.0178902 0.999246 0.034454
0.366957 -0.0754272 0.459995 -0.0330173 0.999455 0
-0.056178 0.017695 0.525603 -0.654602 0.755301 -0.0318825
-0.0416989 0.0701826 0.147726 -0.389415 0.527204 0.755256
0.0791691 -0.104532 0.463675 0.053054 -0.997676 -0.0427557
-0.115322 -0.100099 0.40482 -0.0518265 -0.997803 -0.041264
0.0490551 0.00245287 0.327493 0.910098 0.369241 -0.188104
-0.263861 -0.075759 0.384404 0.0173049 0.999094 0.0388727
-0.309361 -0.0914635 0.484705 -0.0681247 -0.997677 0
-0.00262209 0.0423023 0.663784 -0.233583 0.97185 0.030756
-0.217338 -0.117603 0.494757 0.794686 -0.564661 -0.222782
0.459629 -0.0812026 0.403438 0.0681255 -0.997677 0
0.193017 -0.0811734 0.542941 -0.0330168 0.999455 0
0.238673 -0.0851265 0.344264 -0.130967 -0.0100805 -0.991336
-0.0224147 -0.100565 0.7357 -0.560747 -0.793516 0.236422
-0.040659 0.0294383 0.491224 -0.571708 0.81916 -0.0461243
-0.439462 -0.0717339 0.364449 0.0178902 0.999246 0.034454
0.0466588 0.0250442 0.609128 0.630546 0.776143 0.00374504
-0.147529 -0.0822401 0.489194 0.018187 0.998918 0.0428074
-0.139481 -0.0996552 0.424439 -0.0518265 -0.997803 -0.041264
0.0125512 -0.0831235 0.300286 0 -0.976371 -0.216099
-0.11347 -0.116039 0.542466 0.0717424 -2.92698e-05 -0.997423
0.0295902 -0.0600227 0.808077 0.769261 -0.404811 0.494332
-0.315158 -0.0771384 0.47237 0.0330172 0.999455 0
-0.0984484 -0.105866 0.605832 -0.0681278 -0.997677 0
0.039463 -0.00390466 0.159336 0.974088 0.225051 -0.0224705
0.0203812 -0.0649395 0.220157 0.469467 -0.864298 -0.180529
0.0334266 0.00685538 0.191892 0.582228 0.806076 -0.106075
0.17653 -0.0983484 0.43937 0.0518265 -0.997803 -0.041264
0.447651 -0.0801326 0.344075 0.0527622 -0.998014 -0.0344114
-0.111463 0.0809571 0.0815922 -0.0767764 0.99204 0.099808
0.349568 -0.0760017 0.436651 -0.0330173 0.999455 0
0.275517 -0.0937745 0.519847 0.0681247 -0.997677 0
-0.394666 -0.0729274 0.373131 0.0195541 0.999053 0.0388711
-0.09986 0.0840153 0.0562846 -0.0659148 0.992406 0.103857
0.0184113 0.00147263 0.0627926 0 0 -1
-0.020827 0.0866302 0.0863164 -0.062479 0.995965 0.0644253
0.34706 -0.0880621 0.409818 0.0544455 -0.997762 -0.0388208
-0.066006 -0.0140583 0.679872 -0.91219 0.400387 0.0871779
0.103313 -0.082797 0.483404 -0.018187 0.998918 0.0428074
-0.0663382 -0.0250687 0.395021 -0.981955 0.18906 -0.00464614
0.00989464 -0.0891089 0.327329 0 -0.976371 -0.216099
0.2326 -0.095953 0.539563 0.308008 0.951119 -0.0224686
0.429383 -0.073365 0.463273 -0.0330173 0.999455 0
-0.047077 0.011123 0.721377 -0.668163 0.716696 0.199763
-0.0215281 -0.0846481 0.783844 -0.647157 -0.726171 0.232085
0.114038 -0.104801 0.56618 0.0681278 -0.997677 0
0.0377903 0.00790995 0.233002 0.584646 0.808079 -0.0720874
0.430932 -0.0719269 0.365618 -0.0178902 0.999246 0.034454
-0.46343 -0.0799131 0.361903 -0.0527622 -0.998014 -0.0344114
0.247887 -0.0956612 0.500465 0.0681247 -0.997677 0
-0.0938928 0.0670725 0.122986 -0.389409 0.527207 0.755257
0.206508 -0.0984867 0.544774 0.0681247 -0.997677 0
0.421253 -0.0736336 0.437347 -0.0330173 0.999455 0
0.0511415 -0.0767248 0.360469 0.891638 -0.429214 -0.144072
-0.23406 -0.114182 0.477615 0.0716366 -5.33452e-06 -0.997431
-0.0543855 -0.0096651 0.312087 -0.826497 0.554428 -0.0975346
-0.0449408 -0.02931 0.768047 -0.954647 0.134463 0.265649
0.133047 -0.101815 0.467136 0.053054 -0.997676 -0.0427557
-0.0591235 0.00659581 0.574321 -0.968699 0.247936 0.0122921
0.0110457 -0.10247 0.750512 0.0618037 -0.967471 0.245316
0.143193 0.0653026 0.038622 -0.0317289 -0.999369 0.0159385
0.189031 0.063307 0.0340485 -0.0744624 -0.988165 -0.134111
-0.239456 -0.0796393 0.472223 0.0330172 0.999455 0
-0.355181 -0.0883347 0.440264 -0.0681255 -0.997677 0
0.250981 -0.0915589 0.370345 0.0521607 -0.997884 -0.0388256
0.149458 0.0803253 0.0585257 0.0847665 0.98919 0.11966
0.0206193 0.0199083 0.212456 0.664254 0.744708 -0.064622
-0.408892 -0.0830535 0.367804 -0.0544455 -0.997762 -0.0388208
0.0975211 0.0811629 0.0903916 0.0776381 0.993373 0.0847497
-0.0560814 -0.070538 0.398871 -0.903006 -0.429186 -0.0194563
0.0582481 -0.073242 0.68263 0.884284 -0.463706 0.0549333
0.173952 -0.0818032 0.58908 -0.0330168 0.999455 0
0.0633617 -0.0271443 0.308603 0.980521 0.188784 -0.0542125
-0.452925 -0.0791446 0.323507 -0.0527622 -0.998014 -0.0344114
-0.272442 -0.0932657 0.440004 -0.0535806 -0.997711 -0.0412601
-0.0568914 -0.0713466 0.456803 -0.901474 -0.432436 -0.0185316
0.253072 -0.0745507 0.348545 -0.0173049 0.999094 0.0388727
-0.068341 -0.0440513 0.383595 -0.903006 -0.429186 -0.0194563
0.0468011 -0.11892 0.608487 0.587773 -0.809026 0
-0.148468 -0.10245 0.536644 -0.0681278 -0.997677 0
-0.412114 -0.0844471 0.414275 -0.0681255 -0.997677 0
-0.351107 -0.0731289 0.356397 0.0195541 0.999053 0.0388711
-0.284405 -0.0931676 0.490136 -0.0681247 -0.997677 0
0.104329 -0.100307 0.396037 0.0518265 -0.997803 -0.041264
-0.266131 -0.0784643 0.451226 0.0187069 0.998971 0.041312
-0.305836 -0.0842545 0.526085 -0.437398 0.099002 0.893802
0.255447 -0.0950787 0.551943 0.437397 0.0990022 0.893802
-0.098414 -0.0907669 0.363021 0.130657 -0.0230557 -0.991159
-0.0432644 -0.0323244 0.188506 -0.898785 -0.410312 -0.154367
0.0659864 -0.0275952 0.354506 0.980521 0.188784 -0.0542125
0.210248 -0.0785215 0.427304 -0.0187069 0.998971 0.041312
-0.0443173 -0.0910619 0.675528 -0.587779 -0.809022 0
0.453383 -0.0719977 0.378774 -0.0195541 0.999053 0.0388711
0.215408 -0.11341 0.506057 -0.999493 0 -0.0318295
0.124009 -0.10412 0.549678 0.0681278 -0.997677 0
0.0896268 -0.106468 0.560719 0.0681278 -0.997677 0
-0.0203786 -0.129936 0.50692 -0.00356864 -0.997882 -0.0649577
-0.0944551 -0.101464 0.631235 -0.428839 0.155825 0.88984
-0.109207 -0.083942 0.524661 0.0330168 0.999455 0
0.018736 0.028395 0.721234 0.132091 0.947891 0.289923
0.082109 -0.0784369 0.371887 -0.0169766 0.999002 0.0413132
0.349858 -0.0886983 0.475105 0.0681255 -0.997677 0
0.400719 -0.0851991 0.411489 0.0544455 -0.997762 -0.0388208
0.29533 -0.0924216 0.505837 0.0681247 -0.997677 0
0.0705413 -0.0518241 0.665534 0.884284 -0.463706 0.0549333
0.1176 -0.0994212 0.391298 0.0518265 -0.997803 -0.041264
0.269406 -0.0937626 0.448077 0.0535806 -0.997711 -0.0412602
-0.0640343 -0.0493792 0.358792 -0.891638 -0.429214 -0.144072
0.115048 0.0852066 0.0323801 0.0518559 0.993501 0.101324
0.282858 -0.0782055 0.482292 -0.0330172 0.999455 0
0.456626 -0.0790219 0.325625 0.0527622 -0.998014 -0.0344114
-0.180817 -0.100241 0.538311 -0.0681278 -0.997677 0
-0.0422415 -0.115179 0.418032 -0.521742 -0.852321 -0.0365265
0.218455 -0.0772847 0.401112 -0.0187069 0.998971 0.041312
-0.256189 -0.0745063 0.348791 0.0173049 0.999094 0.0388727
-0.0347061 -0.0126468 0.0965287 -0.838862 0.526229 -0.139265
-0.171444 -0.081886 0.570842 0.0330168 0.999455 0
-0.133847 -0.0802263 0.436389 0.018187 0.998918 0.0428074
0.059069 0.0881649 0.0214386 -0.155985 -0.366932 -0.917077
0.0559744 -0.017353 0.288192 0.867029 0.486596 -0.107165
0.0496022 -0.0161973 0.208295 0.981562 0.124175 -0.145318
-0.0215781 -0.131525 0.567672 0 -1 0
-0.170387 -0.0761796 0.353579 0.0169766 0.999002 0.0413132
-0.078221 -0.0846509 0.516005 0.018187 0.998918 0.0428074
-0.0534067 0.0147546 0.399045 -0.654602 0.755301 -0.0318825
0.0579019 0.00177324 0.409462 0.926612 0.375942 -0.00757519
-0.0603335 -0.109089 0.572161 -0.587773 -0.809026 0
0.164658 -0.0821102 0.541683 -0.0330168 0.999455 0
-0.0900164 -0.084576 0.564948 0.0330168 0.999455 0
0.0399008 -0.120004 0.471461 0.58696 -0.807906 -0.0525911
-0.180725 0.07347 0.0737512 -0.389388 0.527204 0.75527
0.0545746 -0.0335462 0.24913 0.917617 -0.357464 -0.173777
0.0569999 -0.076275 0.599194 0.866823 -0.498616 0
0.173473 -0.0800531 0.448514 -0.0169766 0.999002 0.0413132
0.0109038 0.154804 0.0530676 0.997596 -0.0200553 -0.0663382
-0.0673907 -0.107802 0.525362 -0.053054 -0.997676 -0.0427557
-0.30296 -0.0738187 0.35194 0.0173049 0.999094 0.0388727
0.120805 0.082471 0.0577474 0.0659148 0.992406 0.103857
-0.299567 -0.0763719 0.415771 0.0187069 0.998971 0.041312
0.026411 0.0873197 0.0717189 0.0590712 0.995067 0.0797066
-0.214754 -0.109053 0.526577 0.999493 0 -0.0318295
0.0344054 -0.0154647 0.0889184 0.880751 -0.428083 -0.202543
-0.406853 -0.0711812 0.331487 0.0178902 0.999246 0.034454
-0.264543 -0.0788105 0.469294 0.0330172 0.999455 0
0.104115 -0.0841102 0.58138 -0.0330168 0.999455 0
0.0149146 0.145683 0.104839 0.992057 -0.0440264 -0.117831
-0.366156 -0.0754537 0.47139 0.0330172 0.999455 0
0.208709 -0.0983364 0.497469 0.0681247 -0.997677 0
0.0390609 -0.0682775 0.294071 0.527369 -0.824805 -0.203906
-0.284836 -0.0781401 0.51969 0.0330172 0.999455 0
-0.000501787 -0.123308 0.404003 -0.00357079 -0.997882 -0.0649573
-0.103709 -0.105158 0.508747 -0.053054 -0.997676 -0.0427557
0.0987806 -0.101724 0.422488 0.053054 -0.997676 -0.0427557
-0.100706 -0.100254 0.390226 -0.0518265 -0.997803 -0.041264
-0.273316 -0.0902538 0.366811 -0.0521607 -0.997884 -0.0388256
-0.0509136 -0.00843064 0.225021 -0.868735 0.495182 0.00974211
0.115777 -0.135882 0.584274 -0.313256 -0.947207 -0.0683378
-0.0512193 0.0215863 0.557926 -0.630546 0.776143 0.00374504
-0.0128635 0.0262344 0.271517 -0.375809 0.926635 -0.0107197
0.0134737 -0.0941093 0.34981 0.0183317 -0.975209 -0.220527
-0.132388 -0.113104 0.630256 -0.0715998 -0.000123316 0.997433
0.17408 0.0850229 0.00373248 0.0575014 0.988655 0.138762
0.312202 -0.072979 0.334473 -0.0173049 0.999094 0.0388727
0.0632094 -0.0579754 0.452577 0.903006 -0.429186 -0.0194563
0.0335365 -0.0988944 0.657144 0.587779 -0.809022 0
0.00930804 0.0275857 0.263681 0.375809 0.926635 -0.0107198
-0.0575111 -0.0856498 0.636174 0.0330168 0.999455 0
0.0190972 -0.032427 0.815262 0.469597 0.74048 0.4808
0.0709637 -0.0519995 0.639843 0.866823 -0.498616 0
0.177626 0.0640119 0.0819515 0.389388 0.527197 0.755275
-0.00682994 -0.127545 0.469446 -0.00357079 -0.997882 -0.0649573
-0.476071 -0.0718226 0.405607 0.0330173 0.999455 0
0.0704834 -0.0852213 0.547342 -0.0330168 0.999455 0
-0.439696 -0.0730243 0.453412 0.0330172 0.999455 0
0.0681549 -0.0326537 0.43128 0.969098 0.246196 -0.0153906
0.456414 -0.072472 0.438839 -0.0330173 0.999455 0
-0.0445988 0.0687829 0.0538352 0.0333813 -0.999391 0.0101957
-0.036364 -0.0618145 0.250517 -0.494939 -0.856705 -0.145229
0.127239 -0.0982641 0.375425 0.0518265 -0.997803 -0.041264
0.0699607 -0.107811 0.643372 0.0681278 -0.997677 0
-0.0665008 -0.0312935 0.350932 -0.980521 0.188784 -0.0542125
0.0373044 0.029105 0.694705 0.703068 0.672022 0.232554
-0.400919 -0.0743053 0.427986 0.0330173 0.999455 0
-0.00348135 0.115724 0.13206 -0.216079 0.573374 0.790286
-0.0396418 0.0897226 0.0241197 0.155985 -0.366932 -0.917077
-0.249252 -0.0794513 0.552777 -0.430715 0.135212 0.892302
0.0480793 0.0687386 0.0608933 -0.0333812 -0.999391 0.0101956
0.0078967 -0.131525 0.607606 0 -1 0
0.153711 -0.0824718 0.522703 -0.0330168 0.999455 0
0.190935 -0.0995501 0.57974 0.0681278 -0.997677 0
-0.191284 -0.0910913 0.582543 -0.433377 0.136349 0.890839
-0.167468 -0.101153 0.525732 -0.0681278 -0.997677 0
-0.334999 -0.0890237 0.418062 -0.0521607 -0.997884 -0.0388256
0.0428206 -0.019246 0.151236 0.974088 0.225051 -0.0224705
-0.241976 -0.0943192 0.425914 -0.0535806 -0.997711 -0.0412601
-0.10833 -0.109737 0.581531 0.809905 0.58506 -0.0419285
0.13308 -0.130165 0.587471 0.799742 -0.586614 -0.127661
0.0637714 -0.00339724 0.628798 0.919027 0.393237 -0.0274665
-0.0514173 -0.0617551 0.317578 -0.891638 -0.429214 -0.144072
0.0679341 -0.0845735 0.509827 -0.018187 0.998918 0.0428074
0.364891 -0.0876717 0.432974 0.0681255 -0.997677 0
-0.0205598 -0.0293855 0.809149 -0.469595 0.74048 0.480801
-0.136766 -0.103249 0.607946 -0.0681278 -0.997677 0
-0.0792563 -0.10311 0.430613 -0.053054 -0.997676 -0.0427557
0.014681 0.062581 0.146107 0.997201 -0.0336491 -0.0667636
-0.000898247 0.0399666 0.544274 -0.171638 0.984682 -0.0306927
0.0137013 0.0215471 0.164855 0.996839 -0.0664804 -0.0435115
-0.00455365 -0.048985 0.119228 0 -0.982966 -0.183787
0.101861 0.0874436 0.0171949 0.0518559 0.993501 0.101324
0.0912715 0.0654932 0.0802512 -0.0670165 -0.99488 -0.075649
-0.244172 -0.124089 0.564025 -0.808916 -0.582386 0.0804995
-0.0141236 0.130884 0.120058 -0.0815553 0.551535 0.830155
0.063049 -0.00793198 0.682676 0.91219 0.400387 0.0871779
0.0548541 -0.0161178 0.264361 0.868735 0.495182 0.00974211
-0.328353 -0.0754525 0.405235 0.0173049 0.999094 0.0388727
0.31534 -0.0910552 0.490202 0.0681247 -0.997677 0
-0.0524511 -0.0524816 0.749508 -0.76081 -0.436448 0.480293
0.197659 0.0798665 0.0299502 0.0781727 0.986 0.147287
0.0147922 0.0344517 0.469177 0.171562 0.984249 -0.0426639
0.0687756 -0.0181172 0.664046 0.961807 0.259394 0.0874154
-0.147868 0.0850717 0.0149991 -0.0648783 0.992852 0.100181
-0.0588829 -0.00941073 0.351643 -0.826497 0.554428 -0.0975346
0.0103155 0.106302 0.057459 0.998327 -0.0163379 -0.0554699
0.357841 -0.0854249 0.357157 0.0544455 -0.997762 -0.0388208
-0.369273 -0.0719549 0.32687 0.131487 0.0134239 -0.991227
0.0129853 0.111051 0.0999016 0.9979 -0.0215834 -0.0610732
-0.131728 -0.110537 0.580975 -0.799736 0.586612 -0.127705
-0.000904962 0.15425 0.0914109 -0.0500158 0.859245 0.509113
0.11539 -0.0912168 0.619351 0.428839 0.155825 0.88984
0.0716409 -0.085183 0.626702 -0.0330168 0.999455 0
0.0322745 -0.129474 0.545416 0.587773 -0.809026 0
0.0561713 -0.0777154 0.558418 0.866823 -0.498616 0
-0.0358589 0.011642 0.259173 -0.584648 0.808078 -0.0720867
-0.0613715 -0.00545174 0.475299 -0.926612 0.375942 -0.00757519
-0.0999942 0.0668131 0.0447019 0.0327488 -0.999387 0.012404
-0.0952369 0.0855742 0.0163239 0.155974 -0.367032 -0.917038
-0.0371961 -0.0117136 0.115053 -0.838862 0.526229 -0.139265
-0.481302 -0.0775808 0.321662 -0.0527622 -0.998014 -0.0344114
-0.0668455 0.0832338 0.0935667 -0.0709262 0.993826 0.0853148
0.0431237 -0.115049 0.427598 0.521742 -0.852321 -0.0365265
-0.143031 0.0625963 0.0844391 0.0417585 -0.999066 -0.0111314
0.196565 -0.0766737 0.376426 -0.0187069 0.998971 0.041312
0.0915587 -0.079774 0.407868 -0.018187 0.998918 0.0428074
0.133623 -0.131258 0.625915 0.808919 -0.582392 0.0804325
0.00791271 -0.0771209 0.818525 0.548334 -0.66725 0.504091
0.0279553 0.0302389 0.424922 0.171562 0.984249 -0.0426639
-0.0311888 0.00507466 0.157628 -0.66436 0.735123 -0.13498
-0.0137763 0.0886851 0.118897 -0.996639 -0.0276674 -0.077104
0.0731902 -0.0396593 0.575119 0.968897 0.244741 -0.0366054
0.0130283 0.0349998 0.442108 0.383582 0.923478 0.0073075
0.156495 -0.0986009 0.420314 0.0518265 -0.997803 -0.041264
-0.192705 -0.0761548 0.36215 0.0169766 0.999002 0.0413132
0.0731269 -0.103384 0.4294 0.053054 -0.997676 -0.0427557
0.390897 -0.0828919 0.337083 0.0527622 -0.998014 -0.0344114
-0.134354 0.083949 0.0348309 -0.0518559 0.993501 0.101324
-0.0665306 -0.0101555 0.624363 -0.919027 0.393237 -0.0274665
-0.0121701 0.123448 0.0821987 -0.9979 -0.0215834 -0.0610732
0.0590188 -0.000354004 0.440507 0.926612 0.375942 -0.00757519
-0.200634 -0.0967218 0.430324 -0.0535806 -0.997711 -0.0412601
-0.145592 -0.0827401 0.556979 0.0330168 0.999455 0
0.0526868 -0.0837731 0.666613 0.866823 -0.498617 0
0.394048 -0.0745323 0.453074 -0.0330173 0.999455 0
0.418428 -0.0830988 0.382345 0.0544455 -0.997762 -0.0388208
0.0489303 -0.114704 0.490815 0.58696 -0.807906 -0.0525911
-0.278 -0.0919997 0.416608 -0.0535806 -0.997711 -0.0412601
-0.0522087 0.0205762 0.600666 -0.630546 0.776143 0.00374504
0.177603 0.061433 0.0613931 -0.0417717 -0.999037 -0.013408
0.0377132 -0.0140414 0.109372 0.838862 0.526228 -0.139266
0.0521416 -0.0816882 0.46707 0.901474 -0.432436 -0.0185315
0.228866 -0.117696 0.570245 0 -1 0
-0.180977 -0.0805194 0.462873 0.0169766 0.999002 0.0413132
0.13545 -0.0799225 0.429732 -0.0169766 0.999002 0.0413132
0.24275 -0.114743 0.496366 0.948171 0 -0.317761
0.186662 -0.0790165 0.428867 -0.0169766 0.999002 0.0413132
0.112102 0.0792403 0.09957 0.0776381 0.993373 0.0847497
0.0487281 0.0184844 0.396701 0.571708 0.81916 -0.0461243
-0.0731711 -0.0396641 0.574581 -0.968897 0.244741 -0.0366054
0.032408 0.0841688 0.111304 0.0709262 0.993826 0.0853148
0.0677643 -0.0143667 0.608799 0.964895 0.260653 -0.0322026
0.252943 -0.0791937 0.465125 -0.0330172 0.999455 0
0.0100238 0.103619 0.139053 0.216079 0.573374 0.790286
0.0524258 0.0672614 0.144235 0.389415 0.527204 0.755256
0.038263 0.0317275 0.637643 0.630546 0.776143 0.00374504
-0.0599934 -0.0254553 0.280686 -0.868735 0.495182 0.00974211
-0.223871 -0.0938349 0.390693 -0.0535806 -0.997711 -0.0412601
-0.163651 0.0791778 0.0579575 -0.0847665 0.98919 0.11966
-0.220413 -0.094898 0.411909 -0.0535806 -0.997711 -0.0412601
-0.237448 -0.0746643 0.344509 0.0173049 0.999094 0.0388727
0.0668758 -0.0244075 0.482651 0.969098 0.246196 -0.0153906
-0.0535566 -0.0857804 0.616166 0.0330168 0.999455 0
-0.160934 -0.100308 0.466579 -0.053054 -0.997676 -0.0427557
-0.0211472 0.0121093 0.137345 -0.573724 0.81531 -0.0781695
0.116552 0.0661465 0.0361932 -0.0338071 -0.999298 0.016114
-0.00849149 0.0368744 0.700557 -0.17806 0.926324 0.331993
-0.125408 -0.0813721 0.45954 0.018187 0.998918 0.0428074
0.101262 -0.105674 0.580415 0.0681278 -0.997677 0
0.359366 -0.0742961 0.390552 -0.0195541 0.999053 0.0388711
0.0324419 -0.0819597 0.770143 0.546214 -0.787723 0.284856
-0.0186467 0.0329506 0.406155 -0.383582 0.923478 0.0073075
0.141382 -0.0828791 0.588096 -0.0330168 0.999455 0
0.397568 -0.085372 0.481325 0.444038 0.0165737 0.895854
-0.0673226 -0.0545825 0.555469 -0.900966 -0.432704 -0.032051
0.0164724 0.0904334 0.0327578 0.0548875 0.996375 0.0649895
0.000425018 -0.111418 0.649122 0 -0.0338987 0.999425
-0.16612 -0.0785607 0.409405 0.0169766 0.999002 0.0413132
0.159845 -0.0886913 0.354795 -0.133011 -0.0109175 -0.991054
-0.0269274 0.0149374 0.225659 -0.674735 0.736702 -0.0447418
-0.0449156 -0.0134926 0.178839 -0.956507 0.222258 -0.18893
-0.0067319 0.0359416 0.345329 -0.381864 0.919341 -0.094822
-0.168244 -0.0819918 0.49787 0.0330168 0.999455 0
0.274491 -0.0743666 0.353348 -0.0173049 0.999094 0.0388727
-0.0295698 -0.123939 0.416616 -0.58696 -0.807906 -0.0525911
0.0104859 0.0689458 0.0748105 0.998365 -0.0198471 -0.0536073
0.302661 -0.0774497 0.443234 -0.0187069 0.998971 0.041312
-0.343767 -0.0761933 0.447933 0.0330172 0.999455 0
0.400201 -0.082814 0.349088 0.0527622 -0.998014 -0.0344114
0.0719892 -0.0441806 0.705966 0.961786 0.259371 0.0877191
0.104426 -0.115741 0.609224 -0.998895 0 0.0469982
-0.0257856 -0.0738161 0.280548 -0.530236 -0.829288 -0.176441
0.384919 -0.0748339 0.424866 -0.0330173 0.999455 0
-0.0610247 -0.0652555 0.515732 -0.901474 -0.432436 -0.0185316
0.0132314 0.0294123 0.308314 0.374046 0.922288 -0.0973393
0.0590134 0.00682683 0.578338 0.968699 0.247936 0.0122921
-0.232242 -0.0965463 0.559316 0.297385 0.944502 0.139565
0.0386767 -0.0284372 0.78038 0.495356 0.816508 0.296544
-0.0578153 -0.110918 0.621259 -0.587773 -0.809026 0
-0.229498 -0.0961457 0.453876 -0.0535806 -0.997711 -0.0412601
-0.300213 -0.0913127 0.428841 -0.0535806 -0.997711 -0.0412601
-0.00969142 0.0215761 0.0792949 -0.998564 -0.0272528 -0.0461291
-0.0111906 0.146503 0.0598892 -0.997596 -0.0200553 -0.0663383
-0.0277815 -0.103076 0.68659 -0.587779 -0.809022 0
0.15082 -0.102289 0.508835 0.0681278 -0.997677 0
0.0696681 -0.0811611 0.430936 -0.018187 0.998918 0.0428074
-0.00916233 0.101099 0.141118 -0.216079 0.573374 0.790286
0.210522 -0.0805951 0.532504 -0.0330172 0.999455 0
0.424951 -0.0734683 0.402268 -0.0195541 0.999053 0.0388711
-0.107829 -0.105225 0.55645 -0.0681278 -0.997677 0
-0.00945665 0.112561 0.0401562 -0.998327 -0.0163383 -0.0554709
-0.281772 -0.0933474 0.527165 -0.0681247 -0.997677 0
0.123767 0.0866129 0.0141293 0.0518559 0.993501 0.101324
-0.115171 -0.101115 0.428624 -0.053054 -0.997676 -0.0427557
-0.00334365 -0.0645604 0.202532 0 -0.982966 -0.183785
-0.284685 -0.0889862 0.349504 -0.0521607 -0.997884 -0.0388256
-0.106575 -0.07952 0.408133 0.0169766 0.999002 0.0413132
0.0127039 0.0259238 0.139387 0.998098 -0.0422223 -0.0449084
-0.0327093 0.0347434 0.565899 -0.233684 0.972269 -0.00920707
0.115451 -0.115272 0.623475 0.0717518 0 0.997422
-0.0114527 -0.0412751 0.0852938 -0.578991 -0.79691 -0.172348
-0.243965 -0.0959289 0.509769 -0.0681247 -0.997677 0
