-0.0116032 0.0260928 0.364606 -0.287539 0.957104 -0.035676
-0.0977992 0.0113413 0.349502 -0.115062 0.992263 -0.0466414
-0.0585253 -0.0219946 0.562339 -0.961807 0.259394 0.0874146
-0.257899 -0.00950502 0.344465 -0.147735 0.989002 0.0070809
-0.0377288 0.020902 0.413214 -0.114533 0.992666 -0.0386769
-0.333067 -0.0205753 0.306858 -0.157256 0.987484 0.0120959
0.04489 0.00321297 0.590917 0.905737 0.396687 0.149268
0.312609 -0.0743064 0.353413 -0.564459 0.776606 0.279767
0.034412 0.0209763 0.405298 0.114533 0.992666 -0.0386769
0.312592 -0.0321075 0.268321 -0.156742 -0.987589 -0.0100084
0.258694 -0.0251265 0.361563 0.505801 0.112393 0.855297
-0.300944 -0.0552261 0.295558 0.571397 0.820062 -0.0316733
0.0338778 -0.0850287 0.564949 0.587787 -0.809016 0
-0.30116 -0.0790515 0.336251 -0.952111 0.283995 -0.113276
0.0593571 -0.014633 0.463378 0.99327 0.10126 -0.0562329
0.349846 -0.0231669 0.300302 0.157256 0.987484 0.0120959
0.0175954 0.000795419 0.0666552 0.751576 0.657628 -0.0515621
0.422118 -0.0328175 0.251114 0.904081 -0.0945299 0.416775
0.233216 -0.0204902 0.332359 -0.173039 -0.984703 -0.0204437
0.299677 -0.0518483 0.257145 -0.101429 -0.711878 -0.69494
-0.160643 -0.00971056 0.369946 0.145555 -0.989339 0.00468205
0.118756 -0.0403462 0.330136 -0.552608 0.796119 -0.246615
-0.126416 -0.0294754 0.419328 0.540656 0.816532 0.202403
0.0218134 -0.0930709 0.606583 0.531819 -0.806693 0.257711
0.440864 -0.0416422 0.135976 0.988366 -0.129549 -0.079679
-0.149646 -0.0676916 0.394852 -0.556297 -0.828251 -0.0673319
0.0746106 0.0777761 0.0472404 0.0537763 0.990387 0.127444
0.0552301 -0.0517303 0.422965 0.91763 -0.393793 -0.0536892
-0.0971327 0.0777599 0.0372703 -0.0416507 0.996946 0.0660646
0.397234 -0.0443993 0.167499 -0.161416 -0.986698 -0.0192869
-0.29696 -0.0707835 0.348451 -0.152301 0.988329 -0.0032027
0.0039818 0.00847719 0.0499208 0 -0.407344 -0.913275
-0.0128811 -0.0975355 0.479275 0 -1 0
-0.00509421 0.0271569 0.513304 -0.175226 0.979696 -0.0974291
-0.0726972 0.0688837 0.0330382 0.0335854 -0.995621 -0.0872397
-0.074117 0.0027111 0.383108 0.13979 -0.99018 0.00123157
-0.024453 -0.0691718 0.668927 -0.853507 -0.440903 0.277724
0.426327 -0.0486073 0.13845 -0.162447 -0.986485 -0.0214144
0.0607195 -0.0477012 0.539399 0.866446 -0.498398 -0.0294962
-0.0333583 0.0199596 0.529843 -0.73287 0.680228 0.0138396
0.298039 -0.0306379 0.292468 -0.185148 -0.981756 -0.0433074
0.057722 -0.0257022 0.582179 0.961807 0.259394 0.0874146
-0.0570086 0.0140831 0.300332 -0.119718 0.991712 -0.0466332
0.0595808 0.0179441 0.443245 0.135389 0.990791 0.00191024
-0.0253858 0.0166955 0.277723 -0.335976 0.935499 -0.109365
-0.0486893 -0.068474 0.483566 -0.883774 -0.467798 -0.0104296
0.144221 -0.0319085 0.403199 0.614313 0.788355 -0.0333998
-0.135683 -0.0378127 0.438707 0.0213994 0 -0.999771
0.0797588 0.0772735 0.0482131 0.0821739 0.98877 0.124824
0.0529358 -0.0517655 0.307718 0.893795 -0.423969 -0.146222
0.00595824 0.0139201 0.617319 0.0260466 0.708366 0.705365
-0.303539 -0.016655 0.264343 -0.1094 0.991897 -0.0645862
-0.0306702 -0.0235378 0.0929172 -0.828362 -0.53581 -0.163476
-0.138026 -0.0122011 0.364988 -0.991947 -0.0659551 -0.108123
0.107156 -0.0521214 0.380763 -0.961501 -0.272562 -0.035003
-0.0284936 -0.0325168 0.114709 -0.890147 -0.418997 -0.179109
0.0264962 -0.0481745 0.689133 0.839621 0.279085 0.465992
0.133426 -0.00319527 0.441324 0.0214747 0 0.999769
0.307089 -0.0176908 0.254449 0.1094 0.991897 -0.0645862
-0.0537511 -0.0594258 0.532814 -0.866446 -0.498398 -0.0294962
0.235988 -0.0220863 0.370043 -0.186269 -0.982241 -0.022483
-0.214137 -0.0165765 0.232487 0.139243 -0.990239 -0.0061228
-0.0283535 -0.0598038 0.215286 -0.494942 -0.856703 -0.145231
-0.0292392 0.0681248 0.065196 0.0454186 -0.995341 -0.0850514
0.0531898 -0.0260581 0.619456 0.834429 0.17479 0.522663
0.302999 -0.0338559 0.332951 -0.199499 -0.978778 -0.0468375
-0.00187121 0.0285278 0.432574 -0.233215 0.971826 0.0341387
-0.351305 -0.028229 0.180482 -0.112935 0.990771 -0.0749606
-0.136675 0.00498786 0.31024 -0.115065 0.992263 -0.0466353
0.296757 -0.0162345 0.338769 0.489619 0.10935 0.865053
0.0563519 -0.0333073 0.287433 0.989592 0.127225 -0.0672395
0.0180287 -0.0965438 0.524074 0.587786 -0.809017 0
-0.00192831 -0.0975355 0.51272 0 -1 0
0.138845 -0.0646656 0.438639 -0.0214727 -3.10203e-05 -0.999769
0.0318657 -0.00520953 0.133854 0.670634 0.739196 -0.0619568
0.0383839 -0.0221299 0.141265 0.922711 0.215438 -0.319672
-0.0576082 0.0155555 0.337582 -0.118898 0.992155 -0.0386173
0.115806 -0.0344629 0.396705 -0.557329 0.828585 0.0532158
-0.126607 -0.0793106 0.438902 0.0215038 8.35629e-06 -0.999769
0.0322694 0.020949 0.538873 0.73287 0.680228 0.0138396
-0.0445555 -0.0758736 0.417604 -0.91763 -0.393793 -0.0536892
-0.00045369 0.0232383 0.603245 -0.178071 0.926321 0.331995
-0.305421 -0.032025 0.292353 0.185148 -0.981756 -0.0433074
-0.145212 -0.00714515 0.283171 0.139535 -0.990215 -0.00220267
-0.0199196 0.067991 0.0731278 0.0565645 -0.996293 -0.0648138
-0.26018 -0.0136138 0.233968 -0.122944 0.990283 -0.0649912
0.161165 0.00340072 0.333295 0.110476 0.992784 -0.0466425
0.0445992 0.079852 0.0371531 0.0398175 0.997589 0.0568372
0.0831692 0.0784287 0.035981 0.0416507 0.996946 0.0660646
0.0360554 -0.0221097 0.121783 0.834373 -0.539698 -0.112017
-0.0607282 -0.0398164 0.590953 -0.961786 0.25937 0.0877224
0.17989 -0.0123973 0.350803 -0.148853 -0.988718 -0.0167062
-0.0585362 -0.0342307 0.378272 -0.994616 0.103451 -0.00609075
0.242808 -0.00861702 0.281114 0.116094 0.991123 -0.0647884
-0.0245695 0.0179666 0.286089 -0.335976 0.935499 -0.109365
0.197356 -0.0147534 0.334625 -0.148853 -0.988718 -0.0167062
-0.0519902 -0.0277206 0.621928 -0.834429 0.17479 0.522663
0.139357 -0.0401825 0.337437 0.563342 0.757849 -0.329105
-0.0164715 -0.062424 0.193263 -0.469471 -0.864295 -0.180531
0.0304819 -0.087496 0.600856 0.587787 -0.809016 0
0.00015146 0.0445711 0.145681 0.25628 0.562526 0.786056
-0.0157995 0.070373 0.0418995 0.041589 -0.99697 -0.0657293
0.363041 -0.0275592 0.206404 0.105565 0.990442 -0.0887724
-0.047746 -0.070007 0.595808 -0.887609 -0.460598 0
0.142913 -0.0457781 0.437083 -0.150754 0.988566 0.00322877
0.424545 -0.0526075 0.235926 -0.225307 -0.968792 -0.103333
-0.251074 -0.00826911 0.310763 -0.146665 0.989163 0.00679259
-0.0488474 -0.0637366 0.378732 -0.911857 -0.410397 -0.00957773
-0.123686 -0.012204 0.334051 0.0767174 -0.694672 -0.715224
-0.0122042 0.0235822 0.137138 -0.996388 -0.0589583 -0.0611058
0.0992334 0.00855994 0.291275 0.119718 0.991712 -0.0466332
0.122488 -0.0134977 0.350029 -0.999029 -0.0024027 0.0439853
-0.0503707 0.00604 0.350375 0.137829 -0.990455 0.00136231
0.0710349 0.0767863 0.0564406 0.0537763 0.990387 0.127444
0.340803 -0.0212872 0.264631 0.155843 0.987714 0.0115936
-0.014884 -0.0656383 0.689414 -0.545653 -0.670541 0.50263
-0.352062 -0.0760564 0.346066 0.0214826 -3.95209e-05 -0.999769
0.33203 -0.0869823 0.307041 0.935181 -0.33388 -0.118157
-0.0801937 0.0151443 0.39119 -0.114533 0.992666 -0.0386769
0.224918 -0.0137127 0.225415 -0.425483 -0.299791 -0.853867
-0.445028 -0.048815 0.187051 -0.995316 -0.0401715 -0.0879298
-0.444025 -0.0216521 0.142688 -0.988366 -0.129549 -0.079679
-0.172911 0.00257551 0.379844 -0.13593 0.990714 0.0029735
-0.252424 -0.024677 0.365212 -0.505797 0.112343 0.855306
-0.0156927 -0.0975355 0.517596 0 -1 0
0.000119382 0.12905 0.0656879 0 0.999698 0.0245643
-0.0141386 0.00744507 0.112383 -0.514688 0.852327 -0.0929247
0.0404772 -0.0614912 0.63039 0.834975 -0.370837 0.406566
-0.308449 -0.0165767 0.273861 -0.1094 0.991897 -0.0645862
-0.303108 -0.0157912 0.276878 -0.1094 0.991897 -0.0645862
-0.429352 -0.0133663 0.156409 -0.10552 0.990439 -0.088856
0.0973985 0.0119804 0.362111 0.115062 0.992263 -0.0466414
0.442393 -0.0292888 0.207935 0.904076 -0.0946634 0.416756
-0.0115734 0.0279042 0.122681 -0.996388 -0.0589583 -0.0611058
0.297527 -0.0311947 0.245602 -0.995941 -0.0110834 0.0893185
0.32157 -0.0298516 0.325491 0.51449 0.0487547 0.856109
0.0301724 -0.0877209 0.493594 0.587786 -0.809017 0
0.160414 0.00317398 0.326689 0.110476 0.992784 -0.0466425
0.00512651 -0.0828253 0.670952 0 -0.96632 0.257342
0.0566024 -0.0401013 0.29579 0.88718 -0.439764 -0.139713
-0.444198 -0.0416181 0.174364 -0.995316 -0.0401715 -0.0879298
-0.342934 -0.0230527 0.236041 -0.106131 0.991548 -0.0746235
-0.321272 -0.0185633 0.28831 -0.147663 0.988999 0.00871904
0.424464 -0.0483855 0.142365 -0.162447 -0.986485 -0.0214144
0.443381 -0.0396763 0.163998 0.98837 -0.129548 -0.079633
-0.437889 -0.0164771 0.133564 -0.11215 0.989144 -0.0949545
-0.0488051 -0.0671325 0.468353 -0.901902 -0.431941 0
0.322052 -0.0306993 0.351012 0.987721 0.154739 -0.0215387
-0.285591 -0.0760546 0.300965 0.936878 0.333798 0.10411
0.0404776 0.0205577 0.438477 0.134867 0.990863 0.0008826
-0.306732 -0.0193837 0.230954 -0.116099 0.991122 -0.0647875
-0.377934 -0.0370751 0.154564 0.460866 -0.174172 -0.870211
0.0278367 0.000266763 0.15456 0.670416 0.739093 -0.0654572
-0.1558 0.00233287 0.30094 -0.115065 0.992263 -0.0466353
0.0102962 0.0366019 0.0928574 0.998026 -0.027888 -0.0562622
0.410661 -0.00644477 0.254525 0.160629 0.98688 0.0162877
-0.133026 -0.00459816 0.268626 0.423231 -0.36299 -0.830129
-0.209294 -0.0165639 0.335399 0.148853 -0.988718 -0.0167062
-0.141617 -0.00688488 0.375559 0.145555 -0.989339 0.00468205
-0.321866 -0.0305434 0.325352 -0.51449 0.0487547 0.856109
0.0161639 -0.0975355 0.418496 0 -1 0
-0.133904 -0.041312 0.441314 -0.0214754 -1.23633e-05 0.999769
0.436478 -0.0514265 0.192795 -0.166964 -0.985782 -0.0189074
0.0580287 -0.0286898 0.38951 0.994616 0.103451 -0.00609075
-0.286744 -0.0711507 0.27161 0.943124 0.332197 0.0127617
0.042577 -0.0499665 0.63659 0.834975 -0.370837 0.406566
-0.0580724 0.0159402 0.348893 -0.118898 0.992155 -0.0386173
-0.156546 -0.00877337 0.297124 0.139535 -0.990215 -0.00220267
0.0460704 0.077447 0.0673211 0.0656009 0.994135 0.0859828
-0.321498 -0.0705597 0.330745 -0.118074 0.000407726 0.993005
-0.0172606 0.0236608 0.318561 -0.337802 0.940583 -0.0345583
-0.288365 -0.0663141 0.265539 0.943124 0.332197 0.0127617
0.0467054 -0.0699022 0.401216 0.918737 -0.394268 -0.0218072
0.0086195 0.0676104 0.0514213 0.998353 -0.019173 -0.0540656
0.154064 -0.0501399 0.381537 0.947143 0.277155 -0.161573
0.0784694 0.00211054 0.336332 -0.137829 -0.990455 0.00136231
0.146971 -0.00762868 0.422413 -0.153913 -0.988075 0.00431209
0.108822 -0.045867 0.365939 -0.939466 0.341928 -0.0221064
0.14107 -0.00661671 0.308025 -0.139535 -0.990215 -0.00220267
-0.00286725 -0.0973021 0.414145 0 -0.996488 -0.0837299
0.113958 -0.0564402 0.335104 -0.935563 -0.255836 -0.243453
-0.10931 -0.0511353 0.419455 0.916746 0.334399 0.218529
0.234239 -0.0060972 0.30836 0.114092 0.991908 -0.055691
0.310089 -0.032723 0.289212 -0.184014 -0.980909 -0.0628942
0.333308 -0.0828079 0.305366 0.935162 -0.333925 -0.118179
-0.00219645 0.0585794 0.0280055 0 -0.391847 -0.92003
0.329383 -0.0345686 0.250089 -0.155994 -0.987658 -0.0140296
-0.0627624 -0.0391684 0.501527 -0.995405 0.0957341 -0.00208327
-0.317295 -0.0734392 0.349381 -0.0214195 -0.000111525 0.999771
-0.0743656 0.0159456 0.431907 -0.135389 0.990791 0.00191024
-0.311612 -0.0337455 0.304125 0.197835 -0.977909 -0.0674945
0.0048015 0.021796 0.604937 0.178071 0.926321 0.331995
-0.318011 -0.0753076 0.244993 -0.870809 0.270169 -0.410731
0.268471 -0.0814137 0.350429 0.0214687 -1.00248e-05 0.99977
0.0126187 0.0787758 0.106525 0.996313 -0.0450984 -0.0729829
0.0323184 -0.0861617 0.537718 0.587786 -0.809017 0
-0.055254 -0.0192418 0.590162 -0.961919 0.258981 0.087406
0.121043 -0.0304179 0.388571 -0.557331 0.828583 0.0532174
0.0194114 0.00722334 0.14721 0.664255 0.744708 -0.0646223
0.177617 -0.0117251 0.289318 -0.139535 -0.990215 -0.00220267
-0.411327 -0.00854117 0.242486 0.543214 0.799991 -0.254819
-0.225856 -0.00922252 0.236725 -0.120481 0.991147 -0.0557798
0.384211 -0.0284582 0.285325 0.159453 0.987082 0.0156367
-0.0419366 0.00679381 0.354508 -0.797555 0.601528 0.0455053
-0.0216253 -0.0775187 0.654107 -0.546213 -0.78772 0.284866
0.0478569 0.0791649 0.0469313 0.0398175 0.997589 0.0568372
0.287363 -0.0309268 0.338339 -0.199499 -0.978778 -0.0468375
-0.0358693 -0.0301545 0.142778 -0.82851 -0.462048 -0.316358
0.286739 -0.0799157 0.305649 -0.952928 -0.283962 0.106273
0.158691 -0.00926279 0.353524 -0.141575 -0.989925 -0.00229741
-0.0212234 0.081607 0.0201219 -0.0319583 0.997838 0.0574184
0.311164 -0.0353209 0.328786 -0.199499 -0.978778 -0.0468375
-0.20725 -0.0168058 0.370587 0.157238 -0.987397 -0.0179948
0.215754 -0.00450573 0.298898 0.110747 0.99229 -0.0556408
-0.0269827 0.0184981 0.603601 -0.703067 0.672027 0.232545
0.389391 -0.0285 0.229732 0.106131 0.991548 -0.0746235
0.0122229 0.0836451 0.0981129 0.996313 -0.0450984 -0.0729829
-0.134243 -0.0616464 0.420698 -0.0729232 -0.0235837 0.997059
-0.0470027 -0.0397522 0.232005 -0.890267 -0.439381 -0.119871
0.0255143 0.067935 0.0694064 -0.0454185 -0.995341 -0.0850514
0.0463328 0.00590353 0.509848 0.80952 0.586924 0.0140397
0.184805 -0.013196 0.354274 -0.148853 -0.988718 -0.0167062
-0.444329 -0.0283057 0.157274 -0.988366 -0.129549 -0.079679
-0.186257 -0.0132233 0.342956 0.148853 -0.988718 -0.0167062
0.0519378 -0.0605914 0.436354 0.901902 -0.431941 0
-0.0960344 0.0686633 0.025159 0.0344632 -0.994017 -0.103647
0.00795437 0.113608 0.023503 0.998584 -0.0188043 -0.0497565
0.332661 -0.0299061 0.318828 0.51449 0.0487547 0.856109
-0.14072 -0.0053864 0.265048 0.423231 -0.36299 -0.830129
0.0999262 0.0646653 0.0675124 0.494268 0.497818 0.712655
-0.258289 -0.00933547 0.310282 -0.146665 0.989163 0.00679259
0.0570461 -0.0538293 0.53504 0.866446 -0.498398 -0.0294962
0.0874849 0.0142209 0.389787 0.135029 0.99084 0.00187233
0.278246 -0.0287065 0.330776 -0.199499 -0.978778 -0.0468375
-0.0533765 -0.0075555 0.421097 -0.705756 0.705525 -0.0643593
-0.324059 -0.043765 0.349082 -0.987725 0.154869 -0.0203807
0.0133065 0.0501262 0.133897 0.997201 -0.033642 -0.0667701
0.0469568 0.0188199 0.387103 0.114533 0.992666 -0.0386769
0.00130916 0.028274 0.51773 0.175226 0.979696 -0.0974293
-0.139849 -0.0757247 0.414014 -0.561534 -0.823277 0.0830292
-0.314799 -0.0199209 0.328936 -0.49978 0.0476444 0.864841
0.0573459 -0.0525185 0.504737 0.880068 -0.474848 0
0.0501946 -0.0613876 0.394276 0.918737 -0.394268 -0.0218072
-0.0489365 -0.0681042 0.500881 -0.880068 -0.474848 0
-0.319892 -0.0928912 0.268174 -0.548137 -0.82013 -0.164112
-0.134214 -0.00576181 0.353359 0.141575 -0.989925 -0.0022974
-0.0513968 -0.00498275 0.428927 -0.737491 0.674738 -0.0289095
0.302287 -0.030151 0.240383 -0.155994 -0.987658 -0.0140296
0.313532 -0.123655 0.351321 0.0216497 0 0.999766
-0.382737 -0.0320413 0.177448 -0.112935 0.990771 -0.0749606
0.047059 -0.0707785 0.459341 0.901902 -0.431941 0
-0.21152 -0.0168794 0.33424 0.148853 -0.988718 -0.0167062
0.33066 -0.0235804 0.21022 0.118384 0.990115 -0.0752184
0.0660217 0.00382006 0.306853 -0.13744 -0.990508 -0.00210788
-0.181488 -0.0130876 0.391674 0.157238 -0.987397 -0.0179948
-0.349286 -0.0369624 0.193742 0.161497 -0.986776 -0.0138645
-0.0488743 -0.0370316 0.235933 -0.890267 -0.439381 -0.119871
-0.378518 -0.0416067 0.183786 0.161497 -0.986776 -0.0138645
0.146132 0.00526951 0.337463 0.110476 0.992784 -0.0466425
-0.122967 -0.0177882 0.360612 0.999007 -0.00251866 0.0444788
-0.325933 -0.0819916 0.346627 0.021499 -0.000114183 -0.999769
-0.0411176 0.0142157 0.544835 -0.628245 0.7746 -0.0728226
-0.441585 -0.0109002 0.205003 -0.785894 0.510045 0.349606
0.426385 -0.0497711 0.195608 -0.166964 -0.985782 -0.0189074
0.0239847 0.0233263 0.390179 0.287539 0.957104 -0.035676
-0.113928 -0.00281755 0.39691 0.137867 -0.990438 0.00502202
0.0483278 -0.0217201 0.185999 0.923531 0.383204 -0.0156618
0.231357 -0.0194482 0.277718 -0.154053 -0.988012 -0.0100166
0.316287 -0.0328369 0.282253 0.992452 -0.0234483 -0.120369
-0.299471 -0.058095 0.324013 0.563204 0.824176 0.0594525
-0.255651 -0.0233432 0.290695 0.154891 -0.98791 -0.00645467
0.0309373 -0.0346372 0.131814 0.890147 -0.418997 -0.179109
0.00669678 -0.02659 0.688563 0.481176 0.718619 0.502051
0.0251183 -0.0469846 0.148315 0.516841 -0.82804 -0.217314
0.127807 -0.0643803 0.439759 -0.988098 0.152362 0.0211626
-0.375295 -0.0292584 0.202019 -0.105565 0.990442 -0.0887724
-0.0770972 0.0739592 0.0171517 0.0632589 -0.381848 -0.922058
-0.00838554 0.0993686 0.0363977 -0.998341 -0.0164667 -0.0551732
-0.301135 -0.0890751 0.237052 0.0607522 -0.95218 -0.299437
0.212981 -0.017187 0.339421 -0.148853 -0.988718 -0.0167062
0.134939 -0.00575228 0.307783 -0.139535 -0.990215 -0.00220267
-0.00271344 0.0224154 0.252541 -0.374049 0.922287 -0.0973388
-0.0354762 0.0176615 0.489873 -0.797629 0.60296 0.0150579
-0.332543 -0.0638396 0.319847 -0.951252 0.283971 -0.120332
-0.423465 -0.0218816 0.250674 -0.904081 -0.0945299 0.416775
0.122315 -0.0145476 0.346037 -0.999029 -0.0024027 0.0439853
0.136316 -0.0575804 0.325537 0.869997 -0.317825 -0.376951
0.0296082 0.0189285 0.310458 0.337802 0.940583 -0.0345583
0.0780425 0.0144765 0.367679 0.114533 0.992666 -0.0386769
-0.061093 -0.0344754 0.571124 -0.961676 0.25978 0.0877127
-0.0153492 -0.0631992 0.692163 -0.545653 -0.670541 0.50263
-0.424099 -0.0341961 0.246505 -0.904081 -0.0945299 0.416775
-0.231307 -0.0210689 0.364373 0.186269 -0.982241 -0.022483
-0.00934559 0.0968103 0.0538318 -0.99759 -0.0203339 -0.0663432
-0.0394639 -0.0546807 0.64014 -0.895779 -0.378588 0.232918
-0.0587649 -0.0348034 0.405892 -0.994616 0.103451 -0.00609075
0.403232 -0.0375497 0.141928 0.112973 0.989576 -0.0893115
-0.226285 -0.0188153 0.30237 0.154891 -0.98791 -0.00645467
-0.148641 -0.00183668 0.421026 -0.476104 0.275283 0.835191
-0.0722431 0.00299294 0.347937 0.137829 -0.990455 0.00136231
0.426396 -0.0489376 0.153813 -0.164248 -0.986234 -0.0190901
0.301479 -0.0766446 0.333128 0.118074 0.000407726 0.993005
-0.0809889 0.00176618 0.340875 0.137829 -0.990455 0.00136231
0.432055 -0.0511388 0.22694 0.905238 -0.0365358 0.423332
0.322272 -0.0414785 0.351134 0.021396 -2.47846e-05 0.999771
-0.247109 -0.00921868 0.279616 -0.116094 0.991123 -0.0647884
0.0266457 -0.0243811 0.0755815 0.880752 -0.428084 -0.202532
-0.0212855 0.077471 0.0853227 -0.0772803 0.990546 0.113338
-0.0585592 -0.032666 0.408603 -0.994616 0.103451 -0.00609075
-0.0563241 -0.0243463 0.303979 -0.989592 0.127225 -0.0672395
0.0581722 -0.0350937 0.605015 0.961919 0.258981 0.087406
0.0437435 -0.0379136 0.190931 0.854556 -0.513171 -0.0799343
0.127675 -0.0652798 0.440073 -0.988098 0.152362 0.0211626
-0.304527 -0.0653028 0.342399 -0.118033 0.000452501 0.99301
-0.0455968 -0.0745203 0.56708 -0.866823 -0.498615 0
0.320216 -0.0225157 0.207797 0.118384 0.990115 -0.0752184
0.301043 -0.038649 0.282887 -0.99311 0.0182169 0.115757
-0.0462108 0.0197125 0.407803 -0.114533 0.992666 -0.0386769
0.117865 0.0100392 0.371717 0.114533 0.992666 -0.0386769
-0.248591 -0.0117127 0.241583 -0.120481 0.991147 -0.0557798
-0.0561165 -0.0452027 0.308131 -0.893795 -0.423969 -0.146222
0.337994 -0.0236234 0.221335 0.111175 0.990977 -0.0748644
-0.154325 -0.0547204 0.38433 -0.9363 -0.341104 -0.0836149
-0.241124 -0.0208335 0.263434 0.152301 -0.988314 -0.00639905
-0.288511 -0.0851916 0.257334 0.942751 -0.270608 -0.194914
-0.203817 -0.0151715 0.239955 0.139243 -0.990239 -0.0061228
-0.0373567 -0.0634501 0.259758 -0.52689 -0.824053 -0.208143
0.376533 -0.0447732 0.267164 -0.225311 -0.968792 -0.10333
-0.0925964 0.0134901 0.385462 -0.114533 0.992666 -0.0386769
-0.0272365 -0.0588858 0.206064 -0.494942 -0.856703 -0.145231
-0.189965 -0.0140636 0.371157 0.157238 -0.987397 -0.0179948
0.141424 0.0057218 0.422649 0.476104 0.275283 0.835192
-0.116207 0.0102921 0.397552 -0.135029 0.99084 0.00187234
-0.00245115 -0.0454155 0.0923811 0 -0.982968 -0.183779
0.132879 -0.029495 0.349859 -0.0767174 -0.694672 -0.715224
-0.0482548 -0.0668403 0.411133 -0.918737 -0.394268 -0.0218071
0.0586309 -0.0113005 0.464807 0.765486 0.642694 -0.0312324
-0.0330599 0.0195372 0.580642 -0.719418 0.68704 0.102044
-0.146558 0.00227705 0.276949 -0.115065 0.992263 -0.0466353
-0.144266 0.00641079 0.41821 -0.135775 0.990738 0.00195118
-0.387663 -0.042767 0.16409 0.161416 -0.986698 -0.0192869
0.0744961 0.00263181 0.312663 -0.13744 -0.990508 -0.00210788
-0.134819 -0.036478 0.338199 -0.56331 0.757869 -0.329114
-0.0237763 0.0182285 0.607775 -0.132086 0.947894 0.289913
-0.297508 -0.0329509 0.337429 0.199499 -0.978778 -0.0468375
0.290046 -0.0142123 0.327617 0.148927 0.98882 0.007412
0.299198 -0.0168397 0.254153 0.1094 0.991897 -0.0645862
-0.1368 -0.0363572 0.341868 -0.563342 0.757849 -0.329105
-0.320637 -0.0204492 0.237577 -0.111175 0.990977 -0.0748644
0.346872 -0.0223541 0.273935 0.155843 0.987714 0.0115936
-0.147795 -0.00772519 0.360258 0.148853 -0.988718 -0.0167062
0.0878078 0.0107095 0.307657 0.119718 0.991712 -0.0466332
0.052044 -0.0603698 0.451566 0.901902 -0.431941 0
0.120797 -0.0313144 0.36825 -0.561304 0.826724 -0.0382822
0.0122892 -0.0209565 0.672159 0.534047 0.797579 0.280467
0.0278593 0.0069667 0.223648 0.552703 0.830371 -0.0707371
0.155428 -0.0559848 0.426282 0.937617 -0.341168 0.0669309
-0.0305755 0.0220679 0.446425 -0.203768 0.979018 0.00133351
-0.269694 -0.0160342 0.215086 -0.122944 0.990283 -0.0649912
-0.0606539 0.0761228 0.0690619 -0.0985509 0.981627 0.163389
0.299318 -0.0156027 0.32682 0.148927 0.98882 0.007412
-0.326198 -0.0192707 0.285118 -0.147663 0.988999 0.00871904
-0.0241022 0.0208868 0.309936 -0.337802 0.940583 -0.0345583
-0.123719 0.00920709 0.428111 -0.135775 0.990738 0.00195118
0.101384 -0.00111924 0.350612 -0.139536 -0.990215 -0.00220514
-0.0506473 -0.0576899 0.33112 -0.903464 -0.428556 -0.00966128
0.0610955 0.00453563 0.341695 -0.137829 -0.990455 0.00136231
-0.128677 -0.0646297 0.428032 -0.61485 0.788204 -0.0263598
-0.0358676 -0.083583 0.599107 -0.587786 -0.809017 0
-0.399587 -0.00809489 0.267369 0.549571 0.788431 -0.276311
0.0136169 0.0258835 0.427608 0.233215 0.971826 0.0341386
0.318434 -0.0544709 0.326111 0.0426481 0.989421 0.138661
-0.0169477 0.0039495 0.626926 -0.0260466 0.708366 0.705365
-0.0152427 0.0252159 0.370413 -0.287539 0.957104 -0.035676
-0.0849677 0.0015437 0.419383 0.134464 -0.990576 0.0260399
0.263461 -0.0129875 0.251049 0.120481 0.991147 -0.0557798
-0.0268683 0.022984 0.509814 -0.176044 0.984271 -0.0148043
-0.061661 0.00480071 0.422931 0.134464 -0.990576 0.0260399
-0.305131 -0.0208495 0.205987 -0.118384 0.990115 -0.0752184
-0.00200829 0.129408 0.0511405 0 0.999698 0.0245643
-0.308795 -0.0937698 0.351423 -0.0216461 -5.77517e-05 0.999766
-0.328905 -0.0385382 0.319898 0.22275 -0.971925 -0.0757926
-0.0442466 0.0728182 0.0198769 0.0632905 -0.381652 -0.922137
-0.00437201 0.0196976 0.231523 -0.375812 0.926634 -0.0107196
0.0191455 0.0249321 0.415586 0.233351 0.972392 0
0.253962 -0.0224758 0.221014 -0.15126 -0.988443 -0.0100206
0.192551 -0.0144462 0.361241 -0.145555 -0.989339 0.00468205
0.0352567 0.0177705 0.501657 0.7329 0.679158 -0.0400209
0.123635 -0.0118973 0.373349 -0.997112 0.0262503 0.0712693
0.317068 -0.0501122 0.292041 0.992469 -0.0232256 -0.120274
-0.0584817 -0.0363213 0.342564 -0.993207 0.116211 -0.00597824
0.0157896 0.0136637 0.185999 0.674738 0.7367 -0.0447414
-0.119146 -0.0642725 0.339729 0.607768 -0.743514 -0.278934
-0.0313459 0.00458303 0.229591 -0.724333 0.68906 -0.0231853
-0.27749 -0.0122856 0.323221 -0.148808 0.988824 0.0091269
0.10849 -0.00156906 0.443094 -0.142106 -0.989494 0.0265959
0.416776 -0.048032 0.18979 -0.164243 -0.986235 -0.0190967
-0.240216 -0.0068064 0.335089 -0.146712 0.989166 0.00513106
-0.431823 -0.00929412 0.220546 -0.156642 0.987539 0.0151861
0.156047 -0.056107 0.41698 0.937626 -0.341147 0.0669078
-0.0134207 0.0762658 0.0205662 0.0632574 -0.381858 -0.922054
0.279425 -0.0141661 0.261721 0.1094 0.991897 -0.0645862
0.212427 -0.00270292 0.331677 0.135546 0.990767 0.00290045
-0.0282074 -0.065664 0.245303 -0.530236 -0.829288 -0.176441
-0.336289 -0.0239431 0.214305 -0.118384 0.990115 -0.0752184
-0.329899 -0.0926529 0.337232 -0.573542 -0.815616 0.0762927
-0.141921 -0.00695835 0.369471 0.145555 -0.989339 0.00468205
-0.0619903 -0.0313722 0.490862 -0.995405 0.0957341 -0.00208327
0.322947 -0.0236596 0.197038 0.118384 0.990115 -0.0752184
0.0135383 -0.0975355 0.469568 0 -1 0
0.053642 -0.0570331 0.460716 0.901902 -0.431941 0
0.109055 0.0111958 0.43801 0.135227 0.990814 0.000885786
-0.100288 0.00890016 0.301217 -0.119718 0.991712 -0.0466332
0.0441141 0.0196502 0.399993 0.114533 0.992666 -0.0386769
0.137823 -0.036942 0.342273 0.563342 0.757849 -0.329105
0.347667 -0.0696032 0.348276 0.154723 0.987952 -0.00337395
0.252552 -0.00850176 0.312734 0.146665 0.989163 0.00679259
-0.010391 0.0266839 0.370692 -0.287539 0.957104 -0.035676
-0.0240879 0.0714285 0.0228588 0.0329377 -0.996628 -0.0751453
0.202546 -0.0152225 0.282387 -0.139535 -0.990215 -0.00220267
0.134675 -0.0101667 0.332671 0.993012 -0.0558374 -0.103964
0.0450577 0.0782894 0.0583542 0.0656009 0.994135 0.0859828
-0.115967 -0.00316229 0.345265 0.139536 -0.990215 -0.00220516
-0.300472 -0.0265158 0.19184 0.424655 -0.234136 -0.874556
0.1883 -0.00260881 0.275983 0.115065 0.992263 -0.0466353
0.0700366 0.0656156 0.0666476 -0.0646209 -0.994396 -0.0836736
0.0846685 0.0751259 0.0588021 0.136952 0.977441 0.160787
-0.431488 -0.01147 0.179488 -0.103212 0.990286 -0.0931666
-0.316569 -0.0754989 0.356999 -0.575712 0.776788 0.255258
0.0205964 -0.0701828 0.24367 0.530236 -0.829288 -0.176441
-0.0240562 -0.0567126 0.683985 -0.76928 -0.404822 0.494294
-0.015418 0.0125538 0.168287 -0.57386 0.813597 -0.0935193
-0.300732 -0.016105 0.268036 -0.1094 0.991897 -0.0645862
0.096483 -0.000415057 0.344513 -0.139536 -0.990215 -0.00220514
0.0502497 0.0063093 0.421394 -0.134464 -0.990576 0.0260399
-0.317963 -0.0571211 0.285393 -0.589927 0.789414 -0.169739
-0.0593606 -0.0291259 0.43695 -0.993377 0.101271 -0.0542734
-0.349088 -0.0224982 0.256437 -0.155843 0.987714 0.0115936
-0.0444921 0.018572 0.373441 -0.114533 0.992666 -0.0386769
0.300642 -0.0156408 0.309247 0.148808 0.988824 0.0091269
-0.0284286 -0.0309976 0.107796 -0.834373 -0.539698 -0.112017
-0.34203 -0.0732745 0.34885 -0.0214375 3.63376e-05 0.99977
0.0132931 0.0205894 0.165053 0.996839 -0.0664796 -0.0435127
0.31696 -0.0327578 0.264075 -0.156742 -0.987589 -0.0100084
0.0889579 0.0103653 0.303288 0.119718 0.991712 -0.0466332
0.00665708 0.0517828 0.13853 0.241657 0.565039 0.788881
0.281918 -0.0872286 0.349597 -0.156685 -0.987643 0.00341666
0.23202 -0.00576187 0.363081 0.147818 0.989 0.005349
0.0863262 -0.0529683 0.440477 0.0214686 -4.93095e-06 0.99977
0.0151237 -0.0975355 0.556478 0 -1 0
0.0273644 -0.0259061 0.0839285 0.828362 -0.535809 -0.163478
0.155758 -0.0087265 0.313948 -0.14143 -0.989929 -0.0061703
0.0511504 -0.0137676 0.601878 0.867637 0.489717 0.0859261
0.220132 -0.00857223 0.235916 0.120481 0.991147 -0.0557798
-0.0320628 0.0217581 0.446631 -0.203768 0.979018 0.00133351
-0.0552365 0.00610924 0.304228 0.428439 -0.367457 -0.825479
0.0305182 -0.00158297 0.156399 0.582229 0.806076 -0.106074
-0.409217 -0.0470124 0.202148 0.164243 -0.986235 -0.0190967
0.135212 0.00588972 0.426135 0.476104 0.275283 0.835192
-0.115942 0.010308 0.409288 -0.135389 0.990791 0.00191024
0.031387 -0.0194287 0.0857323 0.880752 -0.428084 -0.202532
0.0160957 -0.0417303 0.0992115 0.578991 -0.796912 -0.17234
-0.42537 -0.0248124 0.131173 0.438322 0.0117453 -0.898741
0.307852 -0.0308713 0.227988 -0.154051 -0.988012 -0.010012
-0.0152964 -0.00524777 0.63574 -0.37283 0.5558 0.743024
0.0105033 0.0969312 0.0712535 0.997609 -0.0204249 -0.0660286
-0.337625 -0.0211219 0.292229 -0.157256 0.987484 0.0120959
-0.121468 -0.0338104 0.423599 0.540656 0.816532 0.202403
0.0296541 -0.0880974 0.560747 0.587786 -0.809017 -2.15385e-06
0.0347934 0.0777616 0.0706536 0.0569537 0.99621 0.0657354
0.137755 -0.0283561 0.371855 0.993012 -0.0558374 -0.103964
0.211009 -0.00254765 0.344917 0.135546 0.990767 0.00290045
-0.108638 0.00774193 0.298023 -0.119718 0.991712 -0.0466332
-0.196481 -0.000566753 0.347217 -0.135546 0.990767 0.00290046
-0.230513 -0.00881587 0.254009 -0.120481 0.991147 -0.0557798
0.0121594 -0.00206168 0.63314 0.0260466 0.708366 0.705365
0.119707 -0.00344322 0.421653 -0.145556 -0.989339 0.00468238
0.0221303 0.0102578 0.6204 0.0260466 0.708366 0.705365
-0.0138523 0.026194 0.417161 -0.233215 0.971826 0.0341387
-0.0507953 -0.00272206 0.327721 -0.743594 0.668462 0.0150614
0.0229201 0.0644991 0.116964 -0.0788747 -0.994149 -0.0737967
0.0488746 -0.00184011 0.383401 0.743594 0.668462 0.0150626
0.0986671 -0.000726622 0.317067 -0.137829 -0.990455 0.00136231
0.0180967 -0.0902606 0.341757 0.554885 -0.829006 -0.0696542
0.0102111 0.0168892 0.194658 0.239225 0.969561 -0.0521865
-0.2862 -0.0814993 0.281505 0.959115 -0.282624 0.0149184
0.0267725 0.0251603 0.566151 0.188773 0.98199 -0.00774701
-0.0565894 -0.0293739 0.605487 -0.961919 0.258981 0.087406
0.34852 -0.0387477 0.267044 -0.207017 -0.97579 -0.0705566
0.241912 -0.00734488 0.301857 0.114092 0.991908 -0.055691
-0.112776 -0.0394918 0.415974 0.937328 0.341443 0.0695204
0.0293863 0.0198462 0.333265 0.337802 0.940583 -0.0345583
0.447758 -0.0256495 0.195496 0.988346 -0.129691 -0.0796985
0.125748 -0.0306425 0.422252 -0.540656 0.816532 0.202403
0.0112133 -0.0975355 0.496073 0 -1 0
0.029879 -0.0864818 0.39964 0.586432 -0.807154 -0.067821
-0.311962 -0.032597 0.281768 0.184014 -0.980909 -0.0628942
0.364901 -0.04315 0.277308 -0.225311 -0.968792 -0.10333
0.146802 0.00264444 0.285366 0.115065 0.992263 -0.0466353
-0.0114614 -0.0975355 0.565213 0 -1 0
-0.0851893 0.014525 0.394429 -0.135029 0.99084 0.00187234
-0.212459 -0.0172859 0.349933 0.148853 -0.988718 -0.0167062
0.333389 -0.0255561 0.188508 0.118384 0.990115 -0.0752184
0.336895 -0.0780359 0.328814 0.959188 0.281175 0.0299847
-0.301375 -0.0322013 0.284721 0.99311 0.0182169 0.115757
-0.444106 -0.0394896 0.202176 -0.905238 -0.0365358 0.423332
0.299126 -0.0973311 0.265146 -0.0375183 -0.994827 -0.0944035
-0.0608617 0.0173267 0.389953 -0.114533 0.992666 -0.0386769
0.128491 -0.0200302 0.405996 0.0752543 0.730382 0.678881
-0.422411 -0.0344284 0.13249 0.438322 0.0117458 -0.898741
0.412789 -0.0469055 0.16553 -0.161416 -0.986698 -0.0192869
0.0207529 -0.0945646 0.585447 0.587787 -0.809016 0
-0.117197 -0.0337895 0.400789 0.557329 0.828585 0.0532158
-0.00318274 0.027951 0.440034 -0.233215 0.971826 0.0341387
-0.0777225 0.0748324 0.0665025 -0.136952 0.977441 0.160787
-0.0309125 0.067495 0.113398 -0.494276 0.497804 0.712659
0.00399069 -0.0025461 0.63374 0 0.703464 0.710731
0.294065 -0.0711364 0.341355 -0.909537 0.330429 0.25211
0.122185 0.00902806 0.360449 0.115062 0.992263 -0.0466414
-0.0606207 0.00459359 0.364711 0.13979 -0.99018 0.00123157
-0.0325774 -0.0394945 0.673563 -0.954647 0.134462 0.265647
0.154366 -0.0465429 0.396792 0.958461 0.276334 -0.0706577
0.028298 -0.0890827 0.553797 0.587786 -0.809017 -2.15385e-06
-0.280117 -0.0125876 0.311471 -0.14774 0.989001 0.00709104
0.31304 -0.0924576 0.348763 -0.0214017 0 -0.999771
-0.0130295 -0.0975355 0.479468 0 -1 0
0.0963635 0.0691077 0.0207871 -0.0344632 -0.994017 -0.103647
0.301943 -0.06668 0.235274 -0.118023 -0.00039387 -0.993011
0.06089 -0.0358242 0.452295 0.99327 0.10126 -0.0562329
-0.114343 -0.0674437 0.413755 0.615365 -0.788006 0.0192983
0.301466 -0.0603723 0.340134 -0.539739 0.815755 0.20791
-0.0614448 -0.0257632 0.493382 -0.995041 0.099323 -0.00534071
-0.00928742 0.0210971 0.0840547 -0.998564 -0.0272542 -0.0461254
0.010911 0.126488 0.068275 0.997589 -0.0203344 -0.0663448
-0.000271783 0.0266506 0.283287 -0.374049 0.922287 -0.0973388
0.050855 -0.0645486 0.497871 0.880068 -0.474848 0
-0.00388576 -0.0975355 0.4764 0 -1 0
-0.434994 -0.029459 0.223947 -0.904062 -0.0945255 0.416817
-0.0410394 -0.0370256 0.171372 -0.793368 -0.571192 -0.210493
-0.411784 -0.0368494 0.160505 -0.112973 0.989576 -0.0893115
0.114229 -0.0358353 0.366916 -0.561317 0.826714 -0.038288
0.340796 -0.037719 0.275482 -0.207017 -0.97579 -0.0705566
0.279417 -0.0155209 0.241099 0.116099 0.991122 -0.0647875
-0.223247 -0.00828489 0.379705 -0.492606 0.183412 0.850705
0.0691797 0.01501 0.356949 0.115062 0.992263 -0.0466414
-0.404574 -0.0129157 0.250601 0.913554 0.096934 -0.394998
-0.128569 -0.0754698 0.412456 0.0363659 -0.998945 -0.0280273
-0.101664 -0.00114074 0.319221 0.137829 -0.990455 0.00136231
0.152729 -0.00153635 0.257242 -0.423231 -0.36299 -0.830129
0.0305069 -0.0121543 0.632258 0.585156 0.304527 0.751569
0.0350763 -0.0549901 0.209802 0.494942 -0.856703 -0.145232
-0.0281253 0.0145505 0.272245 -0.559563 0.815191 -0.149506
-0.414628 -0.0290436 0.150217 0.989131 0.129309 0.0699914
-0.350981 -0.0250871 0.220455 -0.106131 0.991548 -0.0746235
-0.00849034 -0.0975355 0.496006 0 -1 0
0.0423213 0.0102785 0.577686 0.719418 0.68704 0.102044
-0.0311207 0.01444 0.602817 -0.703067 0.672027 0.232545
0.339134 -0.0210513 0.26697 0.155843 0.987714 0.0115936
0.0118368 0.0230261 0.131684 0.996389 -0.0589596 -0.0611028
0.265314 -0.0251098 0.303277 -0.172357 -0.984215 -0.040159
0.00984425 0.0173208 0.0963962 0.997821 -0.0341452 -0.0564659
0.0281833 0.00874491 0.240807 0.559563 0.815191 -0.149506
0.367539 -0.0398536 0.186904 -0.161497 -0.986776 -0.0138645
0.133056 0.00804272 0.371193 0.13539 0.990791 0.00191064
0.109892 -0.0459273 0.408696 -0.937328 0.341443 0.0695204
0.0177077 0.0666626 0.123138 0.494276 0.497801 0.712661
0.00304672 0.0279392 0.517488 0.175226 0.979696 -0.0974293
-0.0200639 0.0239516 0.456745 -0.203648 0.97844 0.0343762
0.0198473 0.0116314 0.213729 0.674738 0.7367 -0.0447414
-0.0580071 -0.0143168 0.439997 -0.993063 0.10329 -0.0561889
0.126913 0.00658013 0.319839 0.110476 0.992784 -0.0466425
0.311424 -0.0316475 0.244138 -0.155994 -0.987658 -0.0140296
-0.0883913 0.0787155 0.0283606 -0.0416507 0.996946 0.0660646
-0.331873 -0.0238203 0.208972 -0.118384 0.990115 -0.0752184
0.0496294 -0.0277145 0.188378 0.854556 -0.513171 -0.0799343
-0.0319879 0.0774826 0.0773132 -0.0569538 0.99621 0.0657353
-0.413201 -0.0472385 0.179556 0.164243 -0.986235 -0.0190967
0.120077 -0.070942 0.419387 -0.598105 -0.783443 0.168778
-0.0431526 -0.00729719 0.239123 -0.726256 0.675878 -0.125461
0.17695 0.0021074 0.346463 0.135546 0.990767 0.00290045
0.0478062 -0.0701992 0.513617 0.880068 -0.474848 0
0.109902 -0.0583174 0.353576 -0.961523 -0.272488 -0.0349678
0.152948 -0.00840698 0.33868 -0.141575 -0.989925 -0.00229741
-0.286323 -0.0748835 0.260075 0.927466 0.317847 -0.196926
0.313196 -0.0478077 0.265235 0.987853 -0.0485546 -0.147613
-0.315036 -0.125901 0.351288 -0.0216497 0 0.999766
-0.132227 -0.0270741 0.41316 -0.0752533 0.730382 0.67888
0.136081 -0.0592325 0.420621 0.0729232 -0.0235837 0.997059
-0.203383 -0.00206267 0.317845 -0.110747 0.99229 -0.0556408
0.13757 -0.0120743 0.441235 0.0214055 2.09986e-05 0.999771
-0.395115 -0.0294892 0.236594 -0.156169 0.987627 0.0143129
0.0443717 0.00116535 0.415202 0.706698 0.706466 0.0385198
-0.10737 -0.048598 0.385394 0.939443 0.341994 -0.022078
-0.0381982 -0.0574034 0.234677 -0.494942 -0.856703 -0.145231
-0.127683 0.00545502 0.430569 -0.476104 0.275283 0.835191
-0.0519763 -0.00457952 0.351852 -0.743594 0.668462 0.0150614
-0.00808421 -0.0607533 0.174413 0 -0.982966 -0.183788
-0.0131369 0.09376 0.104339 -0.996313 -0.045099 -0.0729799
0.410161 -0.00656917 0.267 0.160629 0.98688 0.0162877
-0.0473387 0.0109122 0.475983 -0.469168 0.390102 0.792276
0.0540269 -0.0536402 0.415657 0.918737 -0.394268 -0.0218072
0.00621793 -0.0945219 0.381057 0 -0.996488 -0.0837299
0.135783 -0.00592111 0.414354 -0.153913 -0.988075 0.00431209
-0.44326 -0.0440263 0.164154 -0.996664 -0.0168849 -0.0798497
0.237502 -0.0112385 0.227262 0.122944 0.990283 -0.0649912
-0.0506075 -0.0208351 0.621832 -0.834429 0.17479 0.522663
0.0536956 -0.023726 0.266468 0.989592 0.127225 -0.0672395
-0.0286372 -0.0129934 0.0815124 -0.895552 0.416331 -0.157022
-0.129738 -0.005106 0.346647 0.141575 -0.989925 -0.0022974
0.00310621 0.0285934 0.331507 0.287722 0.957714 0
-0.283363 -0.0722635 0.347541 0.0214477 7.42517e-05 -0.99977
0.0153842 0.0249048 0.348784 0.287722 0.957714 0
-0.305723 -0.0630682 0.245709 0.0112301 0.951925 -0.306125
0.0130751 -0.0975355 0.460232 0 -1 0
-0.231125 -0.00636867 0.297145 -0.114092 0.991908 -0.055691
0.00935952 0.0388057 0.0754607 0.997968 -0.0214916 -0.059976
0.0713974 0.0163212 0.453921 0.135227 0.990814 0.000885786
0.35971 -0.0240561 0.248003 0.156169 0.987627 0.0143129
-0.0266701 0.0181138 0.293802 -0.335976 0.935499 -0.109365
0.314111 -0.0339612 0.299093 -0.185148 -0.981756 -0.0433074
-0.0727466 0.0139601 0.3432 -0.118898 0.992155 -0.0386173
0.316241 -0.0538872 0.28761 0.987853 -0.0485546 -0.147613
0.0109256 0.0788261 0.0752007 0.0569537 0.99621 0.0657354
0.0530308 0.00577383 0.415385 -0.134464 -0.990576 0.0260399
0.0263898 -0.078761 0.293713 0.511453 -0.8355 -0.200888
0.401515 -0.0319666 0.202983 0.105565 0.990442 -0.0887724
0.0491186 -0.0385982 0.24349 0.890267 -0.439381 -0.119871
0.326587 -0.064536 0.2811 0.935894 0.282385 -0.210623
-0.122094 -0.0699134 0.42976 0.490059 -0.688355 0.534799
0.123798 0.00912658 0.366523 0.115062 0.992263 -0.0466414
-0.0126319 0.0280606 0.562625 -0.233817 0.971794 0.0307518
-0.410368 -0.0346649 0.183405 -0.105565 0.990442 -0.0887724
0.154893 -0.0085098 0.283357 -0.139535 -0.990215 -0.00220267
0.298153 -0.0317294 0.339206 0.49978 0.0476444 0.864841
-0.069983 0.0801965 0.017138 -0.0324824 0.997226 0.0669674
0.0813888 0.00168189 0.309611 -0.13744 -0.990508 -0.00210788
0.285133 -0.0178743 0.21534 0.116099 0.991122 -0.0647875
0.3097 -0.110616 0.351403 0.021515 3.8662e-05 0.999769
0.0634651 -0.0370307 0.541355 0.96395 0.260394 -0.0547335
0.195617 -0.0142597 0.288037 -0.14143 -0.989929 -0.0061703
0.0631978 -0.0438655 0.551256 0.884284 -0.463706 0.0549296
-0.251502 -0.00838269 0.30302 -0.114092 0.991908 -0.055691
0.0166906 -0.0654516 0.687702 0.545651 -0.670543 0.50263
-0.332499 -0.0342175 0.189084 0.153081 -0.988113 -0.0141225
-0.0113286 0.0217876 0.60181 -0.132086 0.947894 0.289913
-0.367186 -0.0433574 0.27427 0.225311 -0.968792 -0.10333
-0.182356 -0.0120136 0.246333 0.430808 -0.303544 -0.849862
-0.016157 -0.0875785 0.636775 -0.546213 -0.78772 0.284866
-0.299302 -0.0524636 0.262758 0.995941 -0.0110834 0.0893185
0.292106 -0.0926732 0.275681 -0.613267 -0.789447 -0.0260152
-0.0443388 -0.0716875 0.332395 -0.911664 -0.41031 -0.0226967
0.0524193 -0.0535628 0.313761 0.903464 -0.428556 -0.00966127
-0.00852788 0.0693047 0.12558 -0.218713 0.558006 0.800496
-0.0396536 -0.0808324 0.565946 -0.587786 -0.809017 0
0.211856 -0.0166172 0.294049 -0.14143 -0.989929 -0.0061703
-0.0260641 -0.0571913 0.193157 -0.469471 -0.864295 -0.180531
0.0567357 0.0103693 0.470685 0.469168 0.390102 0.792276
-0.12469 -0.0245617 0.392767 0.997112 0.0262503 0.0712692
-0.0465552 -0.0358609 0.207811 -0.854556 -0.513171 -0.0799343
0.421625 -0.0515353 0.249357 0.903728 -0.0693909 0.422446
0.134671 -0.0536259 0.449088 0.0158028 -0.669147 0.742962
0.204196 -0.0153786 0.264819 -0.139243 -0.990239 -0.0061228
-0.123127 -0.0215939 0.364 0.999007 -0.00251866 0.0444788
-0.314375 -0.0306508 0.298376 -0.097918 0.746713 0.6579
-0.0581241 0.00630638 0.466986 0.142106 -0.989494 0.0265959
-0.242614 -0.0207858 0.225605 0.15126 -0.988443 -0.0100207
-0.245339 -0.0236446 0.360651 0.186269 -0.982241 -0.022483
0.326941 -0.0680774 0.277924 0.935894 0.282385 -0.210623
-0.31095 -0.119643 0.348808 0.0214046 -2.01402e-05 -0.999771
-0.134483 -0.0355208 0.430897 -0.0729275 -0.0236615 0.997056
-0.0134069 0.0427949 0.140167 -0.997251 -0.040012 -0.0623677
0.00172404 -0.0975355 0.487809 0 -1 0
-0.259941 -0.0256182 0.341549 0.185143 -0.981757 -0.0433032
-0.0537033 -0.00751656 0.302394 -0.923929 0.352597 -0.148426
-0.0548087 -0.0168357 0.295887 -0.989592 0.127225 -0.0672395
0.294035 -0.0169156 0.244847 0.111175 0.990977 -0.0748644
0.0158676 -0.0975355 0.44227 0 -1 0
0.00722 0.121245 0.0058782 0.998584 -0.0188043 -0.0497565
-0.0343916 -0.0137155 0.122781 -0.974088 0.22505 -0.0224728
-0.241452 -0.0210766 0.284503 0.154891 -0.98791 -0.00645467
0.275851 -0.0176845 0.201588 0.122944 0.990283 -0.0649912
0.379244 -0.0310261 0.185604 0.112935 0.990771 -0.0749606
0.0478325 -0.0680593 0.415382 0.918737 -0.394268 -0.0218072
0.071424 0.0689012 0.0333295 -0.0335854 -0.995621 -0.0872397
0.158365 -0.00936832 0.371449 -0.145555 -0.989339 0.00468205
-0.0330841 -0.000705475 0.179772 -0.584647 0.808079 -0.0720883
0.0108113 0.0396062 0.100506 0.998026 -0.027888 -0.0562622
-0.0537014 -0.0575134 0.466894 -0.882613 -0.467184 -0.0522768
0.0434092 -0.00842882 0.229785 0.890255 0.453942 -0.0371749
0.0562077 -0.00807198 0.471851 0.765486 0.642694 -0.0312324
-0.0153581 0.024926 0.50206 -0.176044 0.984271 -0.0148043
-0.360833 -0.024709 0.283981 -0.15777 0.987362 0.015006
0.309758 -0.127183 0.348939 -0.426977 -0.904215 0.00931443
0.00649979 0.0761302 0.0210018 0.0747241 -0.381137 -0.921494
0.15049 -0.0368964 0.400769 0.614306 0.788361 -0.0333945
0.350079 -0.0232828 0.306676 0.159453 0.987082 0.0156367
0.319196 -0.0336274 0.276674 -0.184014 -0.980909 -0.0628942
0.0264659 0.00871447 0.233278 0.552703 0.830371 -0.0707371
-0.0228014 -0.00169989 0.0867035 -0.619393 0.780794 -0.0819355
0.178043 -0.0119916 0.336777 -0.141575 -0.989925 -0.00229741
-0.408141 -0.0457879 0.147253 0.161416 -0.986698 -0.0192869
-0.109657 0.00244586 0.277614 0.428439 -0.367457 -0.825479
0.0711433 0.0123017 0.298735 0.119718 0.991712 -0.0466332
-0.195827 -0.00324602 0.280998 -0.115065 0.992263 -0.0466353
-0.102839 0.0108054 0.350535 -0.115062 0.992263 -0.0466414
0.0492714 -0.0393416 0.246847 0.88718 -0.439764 -0.139713
-0.0380195 -0.0480823 0.65642 -0.895779 -0.378588 0.232918
0.195552 -0.0140758 0.2507 -0.139243 -0.990239 -0.0061228
0.296288 -0.0642417 0.248566 -0.571637 0.784792 -0.239443
0.075187 0.0158199 0.438915 0.135389 0.990791 0.00191024
0.33275 -0.0764982 0.292436 0.935837 0.282529 -0.210679
-0.353138 -0.0704605 0.348155 -0.154723 0.987952 -0.00337396
-0.0532982 -0.00563735 0.454313 -0.73592 0.673833 -0.0661129
-0.288576 -0.0741667 0.321771 0.936878 0.333798 0.10411
-0.0161422 0.0252754 0.514255 -0.175226 0.979696 -0.0974291
-0.346813 -0.0364142 0.183527 0.161497 -0.986776 -0.0138645
-0.137548 -0.0634555 0.339575 -0.508037 -0.781836 -0.361429
-0.264035 -0.084267 0.350369 0.903921 -0.427294 0.0186516
-0.000126411 -0.0226964 0.0515106 0 0 -1
0.00240019 0.101762 0.103868 0.215933 0.573379 0.790322
-0.0569431 -0.0217021 0.366793 -0.993138 0.116203 -0.0132116
-0.0507388 -0.0111647 0.275274 -0.923929 0.352597 -0.148426
-0.308657 -0.0201139 0.223233 -0.116099 0.991122 -0.0647875
-0.350486 -0.0230488 0.246834 -0.106131 0.991548 -0.0746235
-0.0570719 -0.0221057 0.372921 -0.993138 0.116203 -0.0132116
0.0131184 0.082328 0.111151 0.996313 -0.0450984 -0.0729829
-0.233278 -0.00574106 0.328098 -0.146712 0.989166 0.00513106
-0.243399 -0.0210524 0.243109 0.152301 -0.988314 -0.00639905
-0.269849 -0.0111417 0.323711 -0.146665 0.989163 0.00679259
-0.270854 -0.0153843 0.227183 -0.122944 0.990283 -0.0649912
-0.319216 -0.0182104 0.283105 -0.147663 0.988999 0.00871904
0.0180534 0.000912879 0.0748292 0.751576 0.657628 -0.0515621
-0.0530129 0.00568572 0.37927 0.13979 -0.99018 0.00123157
0.0587525 -0.0438948 0.425699 0.91763 -0.393793 -0.0536892
0.368696 -0.0260356 0.28943 0.157256 0.987484 0.0120959
-0.0971949 -0.0599158 0.439562 0.15669 -0.987642 0.00335589
0.0603834 0.0178338 0.443562 0.135389 0.990791 0.00191024
0.248692 -0.00889154 0.288198 0.114092 0.991908 -0.055691
0.255739 -0.0231608 0.268934 -0.154053 -0.988012 -0.0100166
0.0913272 0.073626 0.0622485 0.136952 0.977441 0.160787
0.13952 -0.0275688 0.389753 0.996621 -0.0312776 -0.0759429
-0.0564388 -0.0242373 0.591925 -0.961919 0.258981 0.087406
0.0567583 -0.0348497 0.290495 0.989592 0.127225 -0.0672395
-0.349078 -0.0257606 0.209752 -0.112935 0.990771 -0.0749606
0.240226 -0.00781715 0.28999 0.114092 0.991908 -0.055691
-0.138437 -0.00679076 0.366987 -0.996622 -0.0312765 -0.0759423
0.303743 -0.0303497 0.238177 -0.155994 -0.987658 -0.0140296
-0.0128473 0.0127343 0.154083 -0.57386 0.813597 -0.0935193
-0.295431 -0.0207299 0.192739 0.424655 -0.234136 -0.874556
0.300021 -0.015344 0.283032 0.147663 0.988999 0.00871904
0.0988279 -0.000747971 0.314339 -0.13744 -0.990508 -0.00210788
0.0215097 0.067721 0.0758912 -0.0565644 -0.996293 -0.0648138
0.152358 -0.0382439 0.40332 0.614306 0.788361 -0.0333945
-0.122733 0.00704491 0.432868 -0.476104 0.275283 0.835191
-0.145712 -0.00742785 0.388113 0.145555 -0.989339 0.00468205
-0.406229 -0.00597338 0.260212 0.549607 0.788399 -0.276334
0.108009 -0.00200329 0.305593 -0.13744 -0.990508 -0.00210788
-0.123359 -0.00417555 0.332516 0.139536 -0.990215 -0.00220516
-0.353597 -0.0420582 0.29247 0.22275 -0.971925 -0.0757926
-0.0462478 0.0066279 0.3689 0.13979 -0.99018 0.00123157
0.363955 -0.0306837 0.300066 0.51449 0.0487547 0.856109
-0.315967 -0.0747155 0.355934 -0.00570035 0.963221 0.268649
0.290134 -0.0876532 0.315413 -0.952923 -0.283975 0.106279
-0.00956843 0.060684 0.0706362 -0.997692 -0.0243338 -0.0633995
-0.430422 -0.0190317 0.236228 -0.904081 -0.0945299 0.416775
-0.119097 0.00983768 0.429562 -0.135775 0.990738 0.00195118
0.00274547 -0.0880664 0.651271 0.000137716 -0.966331 0.257302
0.022228 -0.0777848 0.279057 0.511453 -0.8355 -0.200888
0.296949 -0.015056 0.305053 0.14774 0.989001 0.00709105
0.0434875 -0.0780469 0.417339 0.587786 -0.809017 0
0.0978076 1.53445e-05 0.444965 -0.142106 -0.989494 0.0265959
-0.247796 -0.0233093 0.34113 0.185143 -0.981757 -0.0433032
0.342687 -0.0219575 0.294645 0.157256 0.987484 0.0120959
0.0317397 0.00720227 0.248807 0.702527 0.697121 -0.143103
0.307123 -0.0375969 0.30734 0.0979181 0.746713 0.6579
-0.33288 -0.0735288 0.299646 -0.951257 0.283948 -0.120345
-0.400634 -0.0091987 0.277633 -0.45531 0.658092 0.599674
-0.242992 -0.0209971 0.244238 0.152301 -0.988314 -0.00639905
-0.0469508 0.0041857 0.570984 -0.915246 0.39162 0.0946438
-0.315935 -0.0523171 0.285046 -0.987853 -0.0485546 -0.147613
-0.334348 -0.0844961 0.318366 -0.935162 -0.333925 -0.118179
-0.0221659 0.0234502 0.464652 -0.173232 0.98488 0.00113473
0.39207 -0.0197916 0.277833 -0.91356 0.0969159 -0.394987
0.332694 -0.0873471 0.338609 0.863482 -0.28595 0.415489
0.165903 0.00219252 0.319132 0.110747 0.99229 -0.0556408
-0.135915 -0.0158125 0.347542 -0.993012 -0.0558374 -0.103964
-0.376393 -0.0408127 0.158436 0.161416 -0.986698 -0.0192869
-0.150234 -0.00789397 0.301696 0.139535 -0.990215 -0.00220267
0.00677114 -0.053676 0.707263 0.449072 -0.375116 0.810939
-0.0580497 0.00572628 0.442391 0.145556 -0.989339 0.00468237
0.109149 -0.00197523 0.410388 -0.134464 -0.990576 0.0260399
0.131835 0.00813286 0.408786 0.135775 0.990738 0.00195118
-0.011186 -0.0975355 0.554213 0 -1 0
0.0244425 -0.0918839 0.459942 0.587786 -0.809017 0
-0.178398 -0.00270571 0.253295 -0.115659 0.991726 -0.0557089
0.0182356 0.012311 0.200613 0.674738 0.7367 -0.0447414
-0.019563 -0.00242257 0.0542924 -0.751576 0.657628 -0.0515621
0.285599 -0.0787725 0.294525 -0.959115 -0.282624 0.0149184
0.133202 -0.0508368 0.42103 0.0729007 -0.0235661 0.997061
-0.115238 -0.0444349 0.330759 0.914456 0.3322 -0.231113
0.107294 -0.00198835 0.370548 -0.13979 -0.99018 0.00123157
-0.0279311 -0.0893493 0.457817 -0.587786 -0.809017 0
0.3855 -0.0327511 0.172667 0.112973 0.989576 -0.0893115
-0.239932 -0.0066545 0.316228 -0.146665 0.989163 0.00679259
0.0359855 -0.0730669 0.629056 0.834975 -0.370837 0.406566
-0.120834 -0.0640788 0.335533 0.607807 -0.74349 -0.278915
0.0338043 -0.0584007 0.225585 0.494942 -0.856703 -0.145232
0.0554952 -0.0490651 0.382986 0.911857 -0.410397 -0.00957773
-0.309162 -0.074955 0.340213 0.587915 0.808758 0.016328
-0.0581189 -0.0343947 0.603531 -0.961786 0.25937 0.0877224
-0.0614323 -0.0286 0.516613 -0.993886 0.095588 0.0552552
0.0601339 -0.0233877 0.547593 0.96395 0.260394 -0.0547335
-0.0477159 0.00653687 0.416967 0.134464 -0.990576 0.0260399
-0.0234136 -0.0692196 0.672046 -0.853507 -0.440903 0.277724
0.0894045 0.0636426 0.0755241 0.494268 0.497818 0.712655
-0.132421 -0.00545858 0.333218 0.141575 -0.989925 -0.0022974
-0.00733143 0.0255471 0.0432422 -0.998312 -0.0211407 -0.0540855
-0.0407526 0.00729341 0.445443 -0.705756 0.705525 -0.0643593
0.0203133 0.0758671 0.103112 0.0865648 0.99259 0.0852678
0.0416421 -0.0458308 0.214474 0.890267 -0.439381 -0.119871
0.31377 -0.0241187 0.329762 0.49978 0.0476444 0.864841
0.0389987 -0.0813081 0.526286 0.587786 -0.809017 0
-0.038726 -0.0343469 0.156383 -0.82851 -0.462048 -0.316358
0.0382167 -0.0474306 0.192943 0.854556 -0.513171 -0.0799343
