0.305378 -0.0987293 0.335459 -0.581438 -0.785033 0.213666
-0.113591 0.00976025 0.354825 -0.115062 0.992263 -0.0466414
-0.243034 -0.0222988 0.336374 0.173039 -0.984703 -0.0204437
0.179238 0.00173 0.372307 0.13539 0.990791 0.00191064
0.276293 -0.0274017 0.312071 -0.185148 -0.981756 -0.0433074
0.0440126 -0.0449825 0.228969 0.890267 -0.439381 -0.119871
0.0305467 -0.0759108 0.292442 0.511453 -0.8355 -0.200888
0.158708 0.00128268 0.285768 0.115065 0.992263 -0.0466353
0.0368827 -0.0180036 0.139713 0.922711 0.215438 -0.319672
0.294861 -0.0149988 0.335805 0.148927 0.98882 0.007412
0.108125 -0.047191 0.375066 -0.939466 0.341928 -0.0221064
0.0535981 -0.0604061 0.544884 0.866446 -0.498398 -0.0294962
-0.315211 -0.0176037 0.28211 -0.147663 0.988999 0.00871904
0.0215665 -0.0682237 0.678433 0.769282 -0.404819 0.494294
-0.227696 -0.00489357 0.324297 -0.146712 0.989166 0.00513106
-0.140359 0.00542319 0.32706 -0.110475 0.992784 -0.0466425
0.0515926 -0.0572248 0.362303 0.911664 -0.41031 -0.0226967
-0.418945 -0.048237 0.181331 0.166964 -0.985782 -0.0189074
0.0272934 0.0233499 0.514948 0.175226 0.979696 -0.0974293
-0.0293696 0.0239505 0.544901 -0.73287 0.680228 0.0138396
0.123777 0.00922754 0.413671 0.135775 0.990738 0.00195118
0.288507 -0.0706534 0.256616 -0.927466 0.317847 -0.196926
-0.0299231 -0.0387192 0.136323 -0.890147 -0.418997 -0.179109
0.0131996 0.026359 0.403851 0.233351 0.972392 0
0.412795 -0.0481293 0.268807 0.903728 -0.0693909 0.422446
-0.135972 -0.0545195 0.447941 -0.397133 -0.546805 0.737082
-0.0373953 0.0703931 0.0307579 0.0329377 -0.996628 -0.0751453
0.283272 -0.0874491 0.347916 -0.156685 -0.987643 0.00341666
-0.010117 0.0204261 0.262143 -0.374049 0.922287 -0.0973388
-0.0371232 0.0171261 0.314863 -0.118898 0.992155 -0.0386173
-0.0108415 0.112367 0.0715872 -0.997609 -0.0204234 -0.0660301
-0.442408 -0.0336239 0.142097 -0.988366 -0.129549 -0.0796791
-0.0247937 -0.0542542 0.175792 -0.469471 -0.864295 -0.180531
-0.111027 -0.0472174 0.420664 0.916746 0.334399 0.218529
0.0203022 0.00937397 0.18342 0.674738 0.7367 -0.0447414
-0.23648 -0.0201195 0.263691 0.152301 -0.988314 -0.00639905
0.102973 0.0105497 0.345425 0.115062 0.992263 -0.0466414
0.309139 -0.0818497 0.234424 -0.118127 -0.000375585 -0.992998
0.237067 -0.0202791 0.271855 -0.154053 -0.988012 -0.0100166
-0.0169865 0.0248272 0.511266 -0.175226 0.979696 -0.0974291
0.0484615 -0.0661899 0.408084 0.918737 -0.394268 -0.0218072
-0.0390341 0.00770164 0.413384 0.13979 -0.99018 0.00123157
0.0101834 0.120321 0.0592246 0.997589 -0.0203344 -0.0663448
-0.312893 -0.0465604 0.262797 -0.987853 -0.0485546 -0.147613
0.00422224 -0.00269587 0.0515106 0 0 -1
0.0245656 -0.0877057 0.362882 0.554885 -0.829006 -0.0696542
0.0070326 -0.0950256 0.617606 0 -0.98509 0.172042
0.00731449 -0.0262076 0.687424 0.481176 0.718619 0.502051
-0.0499569 -0.0647275 0.462239 -0.901902 -0.431941 0
-0.366024 -0.0443493 0.298587 -0.521046 -0.0146635 0.853403
0.25555 -0.0128377 0.237035 0.122944 0.990283 -0.0649912
-0.0584876 -0.0320273 0.407768 -0.994616 0.103451 -0.00609075
0.420379 -0.0140706 0.147511 -0.619428 0.784942 -0.0132094
0.334145 -0.0288156 0.317874 0.51449 0.0487547 0.856109
-0.0315337 0.0218166 0.410519 -0.287539 0.957104 -0.035676
0.0527488 -0.0610386 0.517882 0.880068 -0.474848 0
0.0612737 0.00451228 0.359864 -0.139536 -0.990215 -0.00220514
0.153481 -0.00856133 0.359084 -0.148853 -0.988718 -0.0167062
-0.20062 -0.0149696 0.287245 0.14143 -0.989929 -0.0061703
0.137736 0.00734905 0.397357 0.13593 0.990714 0.0029735
0.182029 -0.0127439 0.352258 -0.148853 -0.988718 -0.0167062
0.0755096 0.015765 0.44827 0.135227 0.990814 0.000885786
-0.252275 -0.0222958 0.228718 0.15126 -0.988443 -0.0100207
0.0586638 -0.0421354 0.387726 0.911857 -0.410397 -0.00957773
-0.00987875 0.12931 0.0551225 0 0.999698 0.0245643
0.00890098 0.0191365 0.245251 0.374049 0.922287 -0.0973388
0.0577762 -0.0254738 0.402912 0.994616 0.103451 -0.00609075
-0.0129072 -0.0661793 0.690838 -0.545653 -0.670541 0.50263
-0.257162 -0.0232713 0.257947 0.154053 -0.988012 -0.0100166
0.0283165 0.0140861 0.612749 0.668171 0.716688 0.199764
-0.2391 -0.022061 0.372748 -0.505797 0.112343 0.855306
0.0162489 -0.0909749 0.338843 0 -0.996489 -0.0837263
-0.177328 -0.011664 0.280155 0.139535 -0.990215 -0.00220267
0.00140923 -0.0802688 0.677588 0 -0.84894 0.528489
-0.0151938 0.0223615 0.29488 -0.335976 0.935499 -0.109365
-0.334333 -0.0353331 0.248875 0.155994 -0.987658 -0.0140296
0.0484162 0.0741992 0.0946493 0.104009 0.988317 0.111409
-0.0594762 -0.0492264 0.528649 -0.866446 -0.498398 -0.0294962
0.0521067 -0.039874 0.266527 0.88718 -0.439764 -0.139713
-0.00690007 -0.0975355 0.555368 0 -1 0
-0.0446153 -0.0131973 0.200441 -0.890255 0.453942 -0.0371749
-0.0851099 0.00116686 0.322073 0.137829 -0.990455 0.00136231
0.0280239 -0.0424566 0.137001 0.575999 -0.792794 -0.199253
-0.0631126 -0.0392959 0.563257 -0.961676 0.25978 0.0877127
-0.346741 -0.0227449 0.306213 -0.157256 0.987484 0.0120959
-0.0468478 -0.0262002 0.165755 -0.82851 -0.462048 -0.316358
-0.379999 -0.0277314 0.281337 -0.15777 0.987362 0.015006
-0.0491704 0.0193516 0.457406 -0.135227 0.990814 0.000885786
0.131828 -0.0726735 0.367008 -0.0428696 -0.99195 -0.119154
0.000508512 -0.0462029 0.710905 0 0.580046 0.814584
0.0655365 0.0171706 0.411862 0.134867 0.990863 0.0008826
-0.0185249 -0.0652653 0.214008 -0.494942 -0.856703 -0.145231
-0.185945 -0.00322827 0.259663 -0.115659 0.991726 -0.0557089
0.32361 -0.0187231 0.266824 0.147663 0.988999 0.00871904
-0.00789585 0.0845071 0.0319725 -0.998341 -0.0164667 -0.0551732
0.419014 -0.0194143 0.194389 -0.989145 0.129169 0.0700579
0.0204802 -0.0284393 0.057348 0.828362 -0.535809 -0.163478
-0.135402 -0.00579886 0.299373 0.139535 -0.990215 -0.00220267
-0.0163647 -0.084883 0.64383 -0.546213 -0.78772 0.284866
-0.0761044 0.00243883 0.389776 0.13979 -0.99018 0.00123157
-0.013357 -0.0975355 0.456999 0 -1 0
-0.303288 -0.0310863 0.283585 0.184014 -0.980909 -0.0628942
-0.395092 -0.0335391 0.176265 -0.112935 0.990771 -0.0749606
0.212654 -0.018001 0.38488 -0.186269 -0.982241 -0.022483
-0.0100149 0.0126211 0.103659 -0.998098 -0.0422217 -0.044911
0.0422933 -0.0723672 0.61674 0.834975 -0.370837 0.406566
0.000214715 0.100616 0.105296 0.215933 0.573379 0.790322
0.0440665 0.0182067 0.363002 0.115062 0.992263 -0.0466414
0.303301 -0.0503771 0.304103 -0.993099 0.0182133 0.115855
-0.0737139 0.078643 0.0384615 -0.0324824 0.997226 0.0669674
0.0505899 -0.000412473 0.488361 0.764969 0.642593 -0.0435398
-0.050905 -0.0117409 0.59416 -0.905737 0.396687 0.149268
0.123378 -0.00683025 0.367879 -0.997112 0.0262503 0.0712693
-0.419488 -0.01601 0.260633 -0.904081 -0.0945299 0.416775
0.288801 -0.0903025 0.281634 -0.613267 -0.789447 -0.0260152
-9.70437e-05 -0.0167323 0.665453 0 0.960934 0.276777
-0.324665 -0.0579082 0.331167 -0.615183 0.785209 0.0706841
0.16277 0.00245345 0.31755 0.110747 0.99229 -0.0556408
0.0419991 0.00552727 0.439751 0.705756 0.705525 -0.0643594
-0.00849021 0.0557977 0.0533907 -0.99836 -0.0201212 -0.0536014
0.0911972 0.0657459 0.0521221 -0.0794908 -0.989761 -0.11855
0.0489862 -0.00202444 0.386075 0.743594 0.668462 0.0150626
-0.00133797 -0.0973061 0.414193 0 -0.996488 -0.0837299
-0.176381 -0.0123009 0.401539 0.153913 -0.988075 0.00431211
-0.149024 -0.00784591 0.338716 0.141575 -0.989925 -0.0022974
-0.285537 -0.0133087 0.299126 -0.14774 0.989001 0.00709104
-0.0204428 0.0224465 0.316618 -0.337802 0.940583 -0.0345583
-0.0184011 -0.00803441 0.636284 -0.360553 0.574783 0.734592
-0.162229 -0.00961899 0.308792 0.14143 -0.989929 -0.0061703
0.0377931 0.0172231 0.549427 0.629866 0.776597 0.0128817
-0.019799 0.0245013 0.424723 -0.233215 0.971826 0.0341387
-0.0568754 -0.0458605 0.377068 -0.911857 -0.410397 -0.00957773
0.337191 -0.0848896 0.348954 0.0214974 0.000107019 0.999769
0.219985 -0.0183396 0.34076 -0.173039 -0.984703 -0.0204437
0.324269 -0.0364203 0.305781 -0.197835 -0.977909 -0.0674945
-0.299439 -0.045114 0.250281 0.101429 -0.711878 -0.69494
-0.201542 -0.00131959 0.368762 -0.13593 0.990714 0.0029735
0.0279458 -0.0209426 0.0739673 0.880752 -0.428084 -0.202532
-0.0458772 0.0661191 0.0793223 0.0646209 -0.994396 -0.0836736
-0.422633 -0.0118678 0.172749 0.619403 0.784964 -0.0131274
-0.00803302 0.0685529 0.0402565 -0.998353 -0.019173 -0.0540656
-0.0130384 0.0256095 0.356152 -0.287722 0.957714 0
0.112951 0.00987414 0.43764 0.469168 0.390102 0.792276
0.105915 0.0112097 0.366725 0.115062 0.992263 -0.0466414
0.3084 -0.100661 0.299946 -0.0268376 -0.999634 -0.00350774
-0.33252 -0.0704407 0.304093 -0.951257 0.283948 -0.120345
0.0250405 0.0229904 0.454623 0.203648 0.97844 0.0343762
-0.0045971 -0.0834533 0.287136 0 -0.975372 -0.220565
0.0478472 -0.0612728 0.304179 0.893795 -0.423969 -0.146222
-0.0295995 0.0688884 0.0556866 0.041589 -0.99697 -0.0657293
-0.0189478 -0.0728323 0.250303 -0.52689 -0.824053 -0.208143
-0.124047 -0.0042207 0.397981 0.137867 -0.990438 0.00502202
-0.0250369 -0.0720379 0.262572 -0.52689 -0.824053 -0.208143
-0.427415 -0.0378987 0.238754 -0.906885 -0.0552141 0.417744
0.00895679 0.114307 0.0937978 0.0500107 0.85926 0.509088
-0.00423413 -0.0587811 0.163865 0 -0.982966 -0.183788
0.0789336 0.0121145 0.314833 0.118898 0.992155 -0.0386172
0.414024 -0.0345506 0.189028 0.105565 0.990442 -0.0887724
0.113468 0.0106612 0.399699 0.135029 0.99084 0.00187233
0.0372879 -0.0602273 0.246825 0.52689 -0.824053 -0.208143
0.153576 -0.0416993 0.420454 0.95956 0.269974 0.0797385
-0.0474119 0.00715838 0.439039 0.134464 -0.990576 0.0260399
0.0480366 -0.0687372 0.470243 0.901902 -0.431941 0
0.119295 -0.0652413 0.341986 -0.607768 -0.743514 -0.278934
-0.233685 -0.019852 0.283462 0.154891 -0.98791 -0.00645467
0.302346 -0.0338638 0.335899 -0.199499 -0.978778 -0.0468375
0.00273781 -0.0482511 0.107547 0 -0.982965 -0.183793
0.334425 -0.0757767 0.306559 0.951257 0.283948 -0.120345
-0.0297815 -0.0308164 0.117 -0.834373 -0.539698 -0.112017
0.313537 -0.0570249 0.270456 0.589927 0.789414 -0.169739
0.197274 -0.00356989 0.277677 0.115065 0.992263 -0.0466353
0.050538 -0.0104752 0.593023 0.905737 0.396687 0.149268
-0.022909 -0.092998 0.594148 -0.587786 -0.809017 0
0.00875227 -0.0975355 0.496909 0 -1 0
0.00968479 0.0144628 0.0953067 0.997821 -0.0341452 -0.0564659
0.355819 -0.0259837 0.304688 0.51449 0.0487547 0.856109
-0.029979 -0.0863335 0.39874 -0.586432 -0.807154 -0.067821
-0.0582696 -0.0239251 0.426973 -0.993063 0.10329 -0.0561889
-0.0834557 0.00137436 0.368366 0.13979 -0.99018 0.00123157
-0.297115 -0.0290504 0.2135 0.154051 -0.988012 -0.010012
-0.336132 -0.0376203 0.287801 0.207017 -0.97579 -0.0705566
-0.431852 -0.00923635 0.216487 -0.156642 0.987539 0.0151861
-0.271546 -0.0262947 0.305568 0.172357 -0.984215 -0.040159
0.0994373 0.012537 0.422911 0.135389 0.990791 0.00191024
-0.0330635 0.0209234 0.487058 -0.797629 0.60296 0.0150579
-0.0288562 -0.0824821 0.334892 -0.554885 -0.829006 -0.0696542
-0.0140921 -0.0936399 0.37056 0 -0.996488 -0.0837299
0.0217324 -0.0350158 0.0871002 0.578987 -0.796915 -0.172339
-0.0714451 0.0163861 0.400731 -0.135029 0.99084 0.00187234
-0.23178 -0.00961834 0.242487 -0.120481 0.991147 -0.0557798
0.198512 -0.0148986 0.328021 -0.141575 -0.989925 -0.00229741
-0.178528 -0.0121882 0.350564 0.148853 -0.988718 -0.0167062
0.263965 -0.0240661 0.226883 -0.15126 -0.988443 -0.0100206
0.289867 -0.0784548 0.33195 -0.925399 -0.281058 0.254249
0.253443 -0.0241329 0.335656 -0.185143 -0.981757 -0.0433032
-0.0684083 0.00348766 0.319638 0.137829 -0.990455 0.00136231
0.17821 -0.000649022 0.292787 0.115065 0.992263 -0.0466353
-0.276935 -0.016818 0.216808 -0.116099 0.991122 -0.0647875
0.135575 -0.0402211 0.330873 0.56331 0.757869 -0.329114
0.300624 -0.0442271 0.278456 -0.995901 -0.011175 0.089753
0.0349404 0.017697 0.322809 0.118898 0.992155 -0.0386172
0.0252356 0.0222253 0.370723 0.287539 0.957104 -0.035676
0.426039 -0.0488762 0.153708 -0.164248 -0.986234 -0.0190901
0.109693 -0.0557003 0.41628 -0.938677 -0.276775 0.205622
-0.0376758 -0.0188259 0.141448 -0.922711 0.215438 -0.319672
-0.152055 -0.0485472 0.372489 -0.947143 0.277155 -0.161573
-0.396473 -0.049936 0.271477 0.242817 -0.963714 -0.110887
-0.00621694 0.0276589 0.337156 -0.287722 0.957714 0
0.384528 -0.0431132 0.213116 -0.164243 -0.986235 -0.0190967
-0.315219 -0.0338576 0.301891 -0.097918 0.746713 0.6579
0.0922119 0.0134132 0.38235 0.114533 0.992666 -0.0386769
-0.107652 0.00158438 0.279038 0.428439 -0.367457 -0.825479
-0.0488684 -0.000425154 0.57152 -0.915246 0.39162 0.0946438
-0.0812208 0.00226549 0.431457 0.145556 -0.989339 0.00468237
-0.377727 -0.0302208 0.193963 -0.112935 0.990771 -0.0749606
-0.305851 -0.0473436 0.350211 0.98834 -0.150728 0.021552
0.138768 -0.015869 0.375065 0.996621 -0.0312776 -0.0759429
0.369374 -0.0257587 0.261521 0.155843 0.987714 0.0115936
0.0417687 0.0674407 0.0665106 -0.0454185 -0.995341 -0.0850514
-0.443918 -0.0380784 0.168066 -0.98837 -0.129548 -0.079633
0.401579 -0.00531694 0.271332 -0.549607 0.788399 -0.276334
0.0582372 -0.0332419 0.361794 0.993207 0.116211 -0.00597824
-0.117619 -0.0583896 0.327374 0.607807 -0.74349 -0.278915
-0.413791 -0.0469406 0.158944 0.161416 -0.986698 -0.0192869
-0.0761534 0.0138762 0.350032 -0.115062 0.992263 -0.0466414
0.142501 -0.0312678 0.422124 0.618951 0.776722 0.11663
-0.130506 -0.0340874 0.341518 -0.0119235 0.958738 -0.284041
0.0441029 -0.00963247 0.232622 0.923531 0.383204 -0.0156618
0.439649 -0.015394 0.146926 0.11215 0.989144 -0.0949545
0.000969789 -0.0681598 0.214025 0 -0.982965 -0.183793
-0.4041 -0.031614 0.209991 -0.105565 0.990442 -0.0887724
0.264566 -0.0247451 0.29134 -0.154891 -0.987911 -0.00645467
-0.293009 -0.0892523 0.331454 0.925401 -0.280992 0.254316
-0.341437 -0.035742 0.19831 0.161497 -0.986776 -0.0138645
0.0389261 -0.0801989 0.400775 0.55565 -0.830148 -0.0459159
-0.0436475 0.0069815 0.354675 0.137829 -0.990455 0.00136231
-0.160345 -0.00923794 0.26895 0.139243 -0.990239 -0.0061228
-0.0703501 0.0657225 0.065135 0.0646209 -0.994396 -0.0836736
0.0369508 -0.0762238 0.311909 0.521516 -0.851939 -0.0471259
0.122791 -0.0257708 0.356219 -0.999007 -0.00251866 0.0444788
0.140065 -0.00644268 0.293408 -0.139535 -0.990215 -0.00220267
0.0199266 -0.0951649 0.602765 0.587787 -0.809016 0
0.0126652 0.017523 0.155353 0.996839 -0.0664796 -0.0435127
0.0521633 0.0147549 0.302178 0.119718 0.991712 -0.0466332
-0.0391102 -0.0511858 0.215298 -0.890267 -0.439381 -0.119871
-0.293117 -0.0875806 0.246089 0.611699 -0.755687 -0.234012
0.226508 -0.00499428 0.373486 0.147818 0.989 0.005349
0.339752 -0.0266598 0.183818 0.112935 0.990771 -0.0749606
0.0535562 -0.00749742 0.403351 0.743594 0.668462 0.0150626
-0.151375 -0.0627756 0.429018 -0.0727755 -0.0235159 0.997071
0.389172 -0.0353926 0.148694 -0.446682 -0.0597415 -0.892696
0.0861539 0.0120067 0.334294 0.118898 0.992155 -0.0386172
-0.136989 -0.0136531 0.356359 -0.991947 -0.0659551 -0.108123
0.280242 -0.0269873 0.269524 -0.154053 -0.988012 -0.0100166
0.122111 -0.0147096 0.341391 -0.999029 -0.0024027 0.0439853
0.0652302 0.015126 0.349674 0.115062 0.992263 -0.0466414
0.0946024 0.000293053 0.430681 -0.145556 -0.989339 0.00468238
0.0616167 0.0053405 0.449712 -0.142106 -0.989494 0.0265959
0.0255289 -0.0910945 0.471297 0.587786 -0.809017 0
0.150207 -0.00180954 0.420124 0.476104 0.275283 0.835192
0.209864 -0.00264627 0.320338 0.110747 0.99229 -0.0556408
-0.416627 -0.0503719 0.232231 0.225307 -0.968792 -0.103333
0.000636178 0.0276392 0.466878 0.203648 0.97844 0.0343762
0.00961459 -0.0975355 0.462427 0 -1 0
0.42951 -0.0262097 0.23658 0.904081 -0.0945299 0.416775
0.406618 -0.0365729 0.157033 0.112973 0.989576 -0.0893115
0.143523 -0.00701586 0.320083 -0.141575 -0.989925 -0.00229741
0.0470449 -0.024365 0.6287 0.834429 0.17479 0.522663
-0.0375326 -0.0823733 0.55715 -0.587786 -0.809017 0
0.00712553 -0.0735397 0.242798 0 -0.982965 -0.183793
0.0215311 -0.0939991 0.532703 0.587786 -0.809017 0
0.0169609 0.0776921 0.086339 0.0772801 0.990546 0.113338
0.222491 -0.00801914 0.250839 0.120481 0.991147 -0.0557798
-0.0143181 0.0792893 0.0652425 -0.0569538 0.99621 0.0657353
0.141404 -0.0309119 0.382421 0.604656 0.786695 -0.124504
-0.00913426 0.0293141 0.0758837 -0.998564 -0.0272542 -0.0461254
-0.311625 -0.0988602 0.276292 0.0375181 -0.994827 -0.0944036
0.0455263 0.0198857 0.4214 0.134867 0.990863 0.0008826
0.0450431 -0.0753202 0.505792 0.880068 -0.474848 0
-0.0485145 -0.0690084 0.540908 -0.866446 -0.498398 -0.0294962
-0.14015 -0.0191304 0.394556 -0.996622 -0.0312765 -0.0759423
-0.051751 -0.0035168 0.318788 -0.797555 0.601528 0.0455053
-0.19994 -0.00108313 0.329696 -0.110475 0.992784 -0.0466425
0.0329896 -0.0408534 0.672769 0.954647 0.134462 0.265647
0.372817 -0.0326878 0.157324 0.112973 0.989576 -0.0893115
-0.0402892 0.0124399 0.503358 -0.7329 0.679158 -0.0400209
-0.331201 -0.0906143 0.33914 -0.543129 -0.706889 0.453121
-0.109748 -0.0434385 0.364154 0.939466 0.341928 -0.0221064
0.0773563 0.0155526 0.422251 0.134867 0.990863 0.0008826
-0.406249 -0.0313112 0.240833 -0.156169 0.987627 0.0143129
0.168865 0.00310902 0.387013 0.13593 0.990714 0.0029735
-0.0303933 0.0759387 0.0925038 -0.0772803 0.990546 0.113338
-0.0131653 0.0661266 0.105465 0.0788748 -0.994149 -0.0737965
-0.36204 -0.0402899 0.25033 0.209765 -0.972966 -0.0966216
-0.322586 -0.0517148 0.351127 -0.0213106 3.71607e-05 0.999773
0.0673098 0.0788388 0.0390267 0.0398175 0.997589 0.0568372
0.306123 -0.0306957 0.236071 -0.155994 -0.987658 -0.0140296
-0.125274 -0.0317379 0.425405 0.540656 0.816532 0.202403
0.0434441 -0.0140537 0.169367 0.877669 0.448064 -0.170106
0.0398459 -0.0050157 0.20987 0.724333 0.68906 -0.0231853
0.15061 0.00443805 0.330373 0.110476 0.992784 -0.0466425
-0.223313 -0.0196165 0.367146 0.186269 -0.982241 -0.022483
0.115663 -0.00301051 0.279853 -0.13744 -0.990508 -0.00210788
-0.0287909 -0.0887245 0.500838 -0.587786 -0.809017 0
-0.224402 -0.0186115 0.31637 0.154891 -0.98791 -0.00645467
-0.437899 -0.0112932 0.18847 -0.103212 0.990286 -0.0931666
-0.213531 -0.00485797 0.288193 -0.110747 0.99229 -0.0556408
0.130167 -0.0219654 0.441395 0.021505 0 0.999769
0.00140938 0.0270464 0.291409 0.374049 0.922287 -0.0973388
-0.0520295 -0.00194918 0.509659 -0.80952 0.586924 0.0140397
0.286342 -0.0163934 0.24016 0.116099 0.991122 -0.0647875
0.00947611 0.0691005 0.0651871 -0.0565644 -0.996293 -0.0648138
-0.00877986 0.00705371 0.0788752 -0.351889 0.931572 -0.0913646
0.0367389 -0.00186067 0.622453 0.360555 0.574781 0.734593
-0.172954 0.00124627 0.31629 -0.110747 0.99229 -0.0556408
0.0285569 0.0209003 0.353848 0.337802 0.940583 -0.0345583
0.0430364 -0.00327921 0.260096 0.726256 0.675878 -0.125461
-0.427864 -0.0136805 0.151139 -0.10552 0.990439 -0.088856
-0.00905573 0.0250043 0.593703 -0.178071 0.926321 0.331995
0.0119412 0.0373812 0.120203 0.997251 -0.0400166 -0.0623645
0.336186 -0.0797024 0.33373 0.943283 -0.33043 0.032132
-0.310033 -0.0657655 0.242479 -0.539808 0.75536 -0.371535
-0.15222 -0.0627875 0.393667 -0.9363 -0.341104 -0.0836149
0.349073 -0.0711614 0.348699 0.0214818 4.25711e-05 0.999769
0.0350445 -0.0813559 0.374721 0.55565 -0.830148 -0.0459159
0.0536318 -0.00538438 0.464024 0.765486 0.642694 -0.0312324
0.409198 -0.0148749 0.239425 -0.913573 0.096871 -0.394969
0.0106339 0.0397359 0.0972955 0.998026 -0.027888 -0.0562622
-0.0478732 0.00576245 0.526757 -0.806824 0.58614 -0.0739976
0.321159 -0.0332324 0.247476 -0.155994 -0.987658 -0.0140296
-0.393476 -0.0291953 0.226305 -0.106131 0.991548 -0.0746235
0.0358541 0.0211568 0.471099 0.135227 0.990814 0.000885786
0.310679 -0.0648478 0.245283 0.539808 0.75536 -0.371535
0.146514 -0.0699674 0.396965 0.556297 -0.828251 -0.0673319
-0.0628183 0.00472121 0.425883 0.134464 -0.990576 0.0260399
-0.194153 -0.0150886 0.397104 0.153913 -0.988075 0.00431211
-0.0530432 -0.0604931 0.509785 -0.880068 -0.474848 0
-0.0112629 0.0550661 0.134793 -0.230075 0.556582 0.798299
0.00853402 0.0347585 0.151951 0.167947 0.840501 0.515124
-0.0296572 -0.0880951 0.435151 -0.587786 -0.809017 0
0.0327507 -0.0594481 0.228174 0.494942 -0.856703 -0.145232
-0.046157 0.000227218 0.399655 -0.706698 0.706466 0.0385199
-0.278665 -0.0126235 0.344334 -0.148927 0.98882 0.00741179
-0.215595 -0.0168695 0.246715 0.139243 -0.990239 -0.0061228
0.327546 -0.0234378 0.207196 0.118384 0.990115 -0.0752184
0.359903 -0.0435408 0.292947 -0.22275 -0.971925 -0.0757926
-0.0645791 0.00404901 0.340344 0.137829 -0.990455 0.00136231
0.374809 -0.0297272 0.196089 0.112935 0.990771 -0.0749606
0.290327 -0.0842723 0.247271 -0.942841 -0.270367 -0.194816
-0.116946 0.0101996 0.393192 -0.135029 0.99084 0.00187234
-0.127082 -0.0108974 0.440286 0.987722 0.154781 0.0211545
0.0982771 0.0629067 0.0638406 -0.121749 -0.982924 -0.137977
0.0607425 -0.0361475 0.579941 0.961807 0.259394 0.0874146
0.042086 0.00844852 0.46099 -0.142106 -0.989494 0.0265959
0.0306527 0.0657748 0.0938597 -0.0706257 -0.992705 -0.0977155
-0.152962 -0.00836738 0.320786 0.141575 -0.989925 -0.0022974
-0.0643941 0.00410654 0.401437 0.13979 -0.99018 0.00123157
-0.0588149 -0.0399205 0.612244 -0.961919 0.258981 0.087406
0.419006 -0.0499235 0.222841 -0.225307 -0.968792 -0.103333
-0.123921 -0.0726509 0.369665 0.0428627 -0.99195 -0.119157
-0.349819 -0.0870311 0.34843 -0.154736 -0.98795 -0.0033742
-0.30571 -0.0213931 0.199744 -0.118384 0.990115 -0.0752184
0.302694 -0.0371517 0.296818 -0.99311 0.0182169 0.115757
-0.381828 -0.0425155 0.205472 0.164243 -0.986235 -0.0190967
0.0119401 0.0165132 0.221578 0.375812 0.926634 -0.0107196
0.0484418 -0.042192 0.250551 0.88718 -0.439764 -0.139713
-0.0145133 -0.0167834 0.656218 -0.508848 0.811191 0.288171
-0.0188099 -0.0323686 0.0650405 -0.578986 -0.796916 -0.172338
0.0347023 0.0807894 0.0268285 0.0319582 0.997839 0.0574184
-0.0845051 0.0712887 0.073581 -0.494272 0.497934 0.712571
-0.136107 -0.075354 0.398549 0.0363659 -0.998945 -0.0280273
0.0604738 -0.0465051 0.496778 0.883774 -0.467798 -0.0104296
0.259048 -0.023695 0.270732 -0.154053 -0.988012 -0.0100166
0.139386 -0.0483621 0.431517 0.587829 0.808936 -0.00892109
0.016412 -0.0443983 0.703378 0.44329 0.154789 0.882912
0.319737 -0.0753736 0.330956 0.118075 0.000405194 0.993005
-0.0440782 -0.00499907 0.256862 -0.726256 0.675878 -0.125461
0.0119256 0.00950778 0.119046 0.514685 0.852329 -0.0929241
-0.00591667 0.0713813 0.0229435 -0.0500903 -0.370571 -0.927452
0.118246 -0.0331926 0.402481 -0.557329 0.828585 0.0532158
0.315571 -0.0348675 0.276747 0.992469 -0.0232256 -0.120274
0.348801 -0.036996 0.201789 -0.161497 -0.986776 -0.0138645
-0.000346407 0.00772438 0.623574 0 0.703464 0.710731
-0.059679 0.0174748 0.390253 -0.114533 0.992666 -0.0386769
0.103492 -0.045985 0.440108 0.0214757 2.95918e-05 0.999769
0.0496072 0.00613302 0.340749 -0.137829 -0.990455 0.00136231
-0.323653 -0.0329596 0.196963 0.153081 -0.988113 -0.0141225
0.0690144 0.00340363 0.319864 -0.137829 -0.990455 0.00136231
-0.107148 -0.0525751 0.388778 0.959476 -0.276055 0.0565552
-0.309536 -0.0652803 0.338075 -0.562456 -0.824149 -0.0664947
-0.0645876 -0.0403233 0.545459 -0.96395 0.260394 -0.0547335
-0.211512 -0.0164622 0.27369 0.139243 -0.990239 -0.0061228
-0.312566 -0.0835401 0.352343 0.558612 -0.784323 0.269796
-0.240701 -0.00672827 0.310367 -0.146665 0.989163 0.00679259
-0.0350366 -0.0372198 0.663574 -0.954647 0.134462 0.265647
0.259657 -0.0148122 0.214718 0.122944 0.990283 -0.0649912
0.254857 -0.00960729 0.288082 0.114092 0.991908 -0.055691
-0.286346 -0.0304508 0.332725 0.199499 -0.978778 -0.0468375
0.0058323 -0.0975355 0.564992 0 -1 0
-0.127115 -0.0877438 0.439283 0.987414 -0.156738 0.0211478
-0.0328431 -0.00169529 0.168306 -0.582229 0.806076 -0.106074
0.408854 -0.0494035 0.2401 -0.225307 -0.968792 -0.103333
0.231078 -0.0208506 0.356861 -0.185143 -0.981757 -0.0433032
0.128717 -0.0824565 0.438856 -0.0215038 8.35629e-06 -0.999769
0.0581283 -0.041815 0.326522 0.903464 -0.428556 -0.00966127
0.287199 -0.0137155 0.319843 0.148808 0.988824 0.0091269
0.156841 -0.00877399 0.278749 -0.139535 -0.990215 -0.00220267
0.289301 -0.0696058 0.347652 0.152301 0.988329 -0.0032027
-0.0991935 -0.000412882 0.424244 0.145556 -0.989339 0.00468237
0.0813487 0.0751318 0.0615937 0.136952 0.977441 0.160787
-0.0305613 -0.00983553 0.101472 -0.896082 0.430478 -0.108285
-0.0621372 0.0176298 0.415769 -0.134867 0.990863 0.0008826
-0.303405 -0.0539593 0.305553 0.993099 0.0182133 0.115855
0.0160788 0.0213052 0.601223 0.132087 0.947894 0.289913
-0.0374436 -0.0223784 0.636339 -0.449626 0.746748 0.490106
-0.0607587 -0.0343893 0.452559 -0.99327 0.10126 -0.0562329
0.0623204 -0.0329342 0.553101 0.961676 0.25978 0.0877127
-0.129744 -0.0479647 0.433563 0.587592 0.808992 0.0163459
-0.409602 -0.0105435 0.240277 0.630728 0.712738 -0.306899
0.15401 -0.00843726 0.30673 -0.139535 -0.990215 -0.00220267
0.0517096 -0.0623688 0.588876 0.887609 -0.460598 0
-0.371388 -0.0285832 0.29548 -0.51449 0.0487547 0.856109
0.122424 -0.0721069 0.422296 -0.598105 -0.783443 0.168778
0.398825 -0.0303725 0.25718 0.15777 0.987362 0.015006
0.016976 -0.0638528 0.201415 0.46947 -0.864295 -0.180532
-0.327157 -0.0228006 0.215282 -0.116099 0.991122 -0.0647875
0.391704 -0.0167206 0.281156 -0.65221 0.119685 0.74853
0.133863 0.00632057 0.330775 0.110476 0.992784 -0.0466425
-0.0534683 -0.0523756 0.349982 -0.911664 -0.41031 -0.0226967
-0.0359594 0.0211688 0.442771 -0.134867 0.990863 0.0008826
-0.120848 0.00963076 0.412758 -0.135775 0.990738 0.00195118
0.0803144 0.0697461 0.0200014 -0.0344632 -0.994017 -0.103647
-0.145136 0.00640488 0.365265 -0.135546 0.990767 0.00290046
-0.0083514 0.108952 0.0329198 -0.998341 -0.0164667 -0.0551732
0.192958 -0.000966713 0.31664 0.110747 0.99229 -0.0556408
-0.0551321 -0.0326653 0.270696 -0.989592 0.127225 -0.0672395
-0.429463 -0.0502792 0.194917 0.166964 -0.985782 -0.0189074
0.113286 0.00725547 0.299611 0.119718 0.991712 -0.0466332
0.010803 0.0854079 0.0793459 0.997609 -0.0204249 -0.0660286
0.0217039 -0.0777825 0.277714 0.511453 -0.8355 -0.200888
-0.280613 -0.0752381 0.347599 0.0214477 7.42517e-05 -0.99977
0.048746 0.00170977 0.56387 0.915246 0.39162 0.0946438
0.307919 -0.0312811 0.259948 -0.156742 -0.987589 -0.0100084
0.322929 -0.0974767 0.309358 0.56158 -0.824144 -0.0735773
0.0458092 -0.0737393 0.598978 0.887609 -0.460598 0
-0.0355872 -0.070724 0.632012 -0.834975 -0.370837 0.406566
-0.0572537 -0.0529349 0.570385 -0.884284 -0.463706 0.0549296
0.0187102 0.0810454 0.0316445 0.0384716 0.998005 0.050062
0.2779 -0.0125065 0.344109 0.148927 0.98882 0.007412
0.0444158 0.0084178 0.511584 0.73287 0.680228 0.0138396
0.269756 -0.0247916 0.211032 -0.15126 -0.988443 -0.0100206
0.180387 -0.0128022 0.385631 -0.157238 -0.987397 -0.0179948
-0.0909738 0.0796313 0.0151148 -0.0332018 0.996233 0.0801085
-0.0458753 -0.0143878 0.220785 -0.923531 0.383204 -0.0156618
0.0521299 -0.0480422 0.291996 0.893795 -0.423969 -0.146222
0.0176373 0.0245211 0.502242 0.176044 0.984271 -0.0148043
-0.0584443 0.00585373 0.451856 0.142106 -0.989494 0.0265959
-0.363235 -0.0246972 0.243062 -0.106131 0.991548 -0.0746235
0.00352435 0.0305946 0.551796 0.233817 0.971794 0.0307518
-0.00174751 -0.044449 0.0872116 0 -0.982968 -0.183779
0.334505 -0.0204724 0.27987 0.155843 0.987714 0.0115936
0.3872 -0.0429048 0.175052 -0.161497 -0.986776 -0.0138645
-0.142417 -0.0173375 0.438563 0.0214023 -2.04907e-05 -0.999771
-0.306085 -0.102712 0.350223 0.988097 0.152319 0.0215467
0.0604727 -0.0439904 0.595235 0.903399 -0.424872 0.057916
-0.159216 -0.00961899 0.403413 0.153913 -0.988075 0.00431211
0.295213 -0.0274139 0.194561 -0.430275 -0.16261 -0.887931
0.140225 -0.0723449 0.429607 0.0730082 -0.0236382 0.997051
0.160251 -0.00975982 0.408069 -0.153913 -0.988075 0.00431209
-0.326146 -0.0720725 0.338235 0.756058 -0.243435 0.607549
0.240601 -0.0205636 0.234203 -0.152301 -0.988314 -0.00639905
0.317812 -0.0968281 0.280906 0.548062 -0.82019 -0.164063
0.418846 -0.0458819 0.256232 0.903728 -0.0693909 0.422446
0.0160437 0.00916843 0.621718 0.0260466 0.708366 0.705365
0.0189778 -0.0265477 0.675753 0.512832 0.808661 0.288222
-0.31014 -0.03167 0.263548 0.156742 -0.987589 -0.0100084
0.311317 -0.0456201 0.315821 0.0979815 0.746695 0.657911
0.125116 -0.0432709 0.429073 0.55684 -0.828429 -0.0602822
-0.255068 -0.0237425 0.313741 0.172357 -0.984215 -0.040159
0.127427 0.00596349 0.308182 0.115065 0.992263 -0.0466353
0.100156 0.078469 0.0257634 0.0332018 0.996233 0.0801085
-0.121726 -0.0585787 0.430856 -0.86033 0.224855 0.457464
0.0145251 0.0670956 0.0916002 -0.0565644 -0.996293 -0.0648138
-0.306864 -0.0537007 0.325656 -0.0979815 0.746695 0.657911
0.300744 -0.0555344 0.291176 -0.571397 0.820062 -0.0316733
-0.189338 -0.0045283 0.243564 -0.115659 0.991726 -0.0557089
-0.109775 0.072537 0.054085 -0.148326 0.948109 0.281228
-0.424157 -0.0311583 0.131682 0.438322 0.0117458 -0.898741
-0.244868 -0.00902254 0.278601 -0.116094 0.991123 -0.0647884
-0.01518 0.0246748 0.468298 -0.173232 0.98488 0.00113473
-0.0464167 -0.0722347 0.475463 -0.882613 -0.467184 -0.0522768
0.0608761 -0.0197352 0.499533 0.995041 0.099323 -0.00534071
0.189888 0.000315457 0.353949 0.135546 0.990767 0.00290045
0.225213 -0.00455563 0.330163 0.146712 0.989166 0.00513109
0.126116 -0.0193467 0.405524 0.0752543 0.730382 0.678881
-0.0997185 -0.00087305 0.315045 0.13744 -0.990508 -0.00210788
0.140903 -0.0065215 0.275778 -0.139535 -0.990215 -0.00220267
0.00908292 0.0847825 0.0533708 0.998341 -0.0164666 -0.0551732
0.363247 -0.0398047 0.229219 -0.16409 -0.986349 -0.0137808
-0.0511153 -0.00157069 0.480498 -0.764969 0.642593 -0.0435398
-0.347447 -0.0223528 0.2661 -0.155843 0.987714 0.0115936
0.403224 -0.0338915 0.276455 0.507556 -0.0177122 0.861437
-0.0801757 0.00273417 0.451908 0.142106 -0.989494 0.0265959
0.0942974 0.00987068 0.306478 0.119718 0.991712 -0.0466332
0.00933934 0.0261658 0.457257 0.203648 0.97844 0.0343762
-0.00486585 0.0179679 0.190196 -0.239226 0.96956 -0.0521862
0.0134238 0.062021 0.128183 0.99683 -0.0431302 -0.0668505
-0.0465163 -0.0701309 0.397382 -0.918737 -0.394268 -0.0218071
0.13904 -0.0548731 0.441204 0.0214797 0 0.999769
-0.444844 -0.0205413 0.151038 -0.988366 -0.129549 -0.079679
-0.355085 -0.0418923 0.28692 0.225311 -0.968792 -0.10333
-0.0104107 -0.0900862 0.328265 0 -0.996489 -0.0837263
0.0283736 -0.082872 0.335689 0.554885 -0.829006 -0.0696542
-0.320366 -0.0185188 0.299479 -0.148808 0.988824 0.0091269
0.443093 -0.0520056 0.16786 -0.165335 -0.98601 -0.0211639
-0.164732 0.00373772 0.360567 -0.135546 0.990767 0.00290046
0.298909 -0.0299516 0.269868 -0.156742 -0.987589 -0.0100084
-0.0312306 -0.00407964 0.140244 -0.670416 0.739093 -0.0654572
0.0618634 -0.0338586 0.473639 0.993588 0.0991779 -0.0542888
-0.400043 -0.0355744 0.15978 -0.112973 0.989576 -0.0893115
0.169785 -0.0436866 0.438685 0.0214668 -6.74125e-05 0.99977
0.0263382 0.0690012 0.0560397 -0.0415889 -0.99697 -0.0657293
0.0539311 -0.00457 0.538705 0.91606 0.391968 0.0848266
-0.0431964 -0.00100368 0.273281 -0.726256 0.675878 -0.125461
-0.282407 -0.0277062 0.292835 0.185148 -0.981756 -0.0433074
0.4002 -0.0457822 0.217048 -0.16409 -0.986349 -0.0137808
-0.0979003 0.0127866 0.397701 -0.135029 0.99084 0.00187234
-0.0328515 -0.0563891 0.662793 -0.895779 -0.378588 0.232918
-0.281952 -0.0128846 0.314668 -0.14774 0.989001 0.00709104
-0.0493975 -0.0242234 0.187825 -0.923531 0.383204 -0.0156618
0.052984 -0.0568548 0.422164 0.91763 -0.393793 -0.0536892
-0.0621797 -0.0338765 0.479417 -0.995041 0.099323 -0.00534071
-0.0521494 -0.0298845 0.22925 -0.854556 -0.513171 -0.0799343
0.153327 0.00524828 0.383925 0.13539 0.990791 0.00191064
-0.321346 -0.0909113 0.263135 -0.548137 -0.82013 -0.164112
-0.0202528 0.00328299 0.115068 -0.619348 0.780896 -0.0812981
-0.0274028 -0.0121671 0.0766632 -0.895552 0.416331 -0.157022
0.0243344 0.0208624 0.311542 0.337802 0.940583 -0.0345583
0.25607 -0.0105756 0.361192 0.492617 0.183416 0.850698
-0.0567982 -0.0201581 0.36948 -0.993138 0.116203 -0.0132116
-0.0383042 0.00854498 0.599222 -0.668171 0.716688 0.199764
0.313742 -0.0938719 0.257572 0.499715 -0.784983 -0.366178
0.126934 -0.029515 0.42041 0.0459135 0.985479 0.163475
0.117519 -0.0701362 0.405097 -0.615365 -0.788006 0.0192983
-0.370695 -0.0280619 0.209897 -0.105565 0.990442 -0.0887724
0.055335 -0.00976281 0.349395 0.991757 0.127503 -0.0127032
-0.262358 -0.0257894 0.335097 0.185143 -0.981757 -0.0433032
-0.0264801 -0.0874445 0.381159 -0.55565 -0.830148 -0.0459159
-0.0540417 -0.0226165 0.613503 -0.961919 0.258981 0.087406
0.11207 -0.0377879 0.35641 -0.561317 0.826714 -0.038288
-0.405031 -0.0193401 0.275755 -0.506977 -0.0223145 0.86167
0.332482 -0.0372479 0.29284 -0.22275 -0.971925 -0.0757926
0.0584979 -0.0509208 0.528544 0.866446 -0.498398 -0.0294962
-0.299488 -0.0981105 0.309847 0.6054 -0.793248 0.0651747
-0.00548209 -0.0391134 0.0586734 0 -0.982968 -0.183779
-0.303876 -0.0864759 0.342368 -0.579218 0.680731 0.448455
0.0238403 0.0238055 0.415048 0.233351 0.972392 0
-0.400857 -0.04592 0.219087 0.16409 -0.986349 -0.0137808
0.121145 -0.00376627 0.404201 -0.134464 -0.990576 0.0260399
0.0561392 -0.0231245 0.30357 0.989592 0.127225 -0.0672395
-0.109494 0.0111102 0.374418 -0.114533 0.992666 -0.0386769
-0.0280945 -0.0622256 0.22869 -0.494942 -0.856703 -0.145231
0.388704 -0.0305831 0.203185 0.105565 0.990442 -0.0887724
0.0191785 0.00921949 0.16782 0.664255 0.744708 -0.0646223
0.00688168 -0.0942561 0.377895 0 -0.996488 -0.0837299
-0.330946 -0.0328876 0.178248 0.430275 -0.16261 -0.887931
-0.293904 -0.0764914 0.236234 0.118014 -0.000423731 -0.993012
-0.0429229 0.0164967 0.475848 -0.469168 0.390102 0.792276
-0.00482628 0.0229989 0.17352 -0.285954 0.839551 0.461935
0.00738173 0.0404564 0.0384346 0.998365 -0.0198454 -0.053604
0.0302036 0.0783222 0.0662868 0.0458926 0.995108 0.087481
-0.019791 0.064401 0.12163 0.0788748 -0.994149 -0.0737965
0.31185 -0.0829149 0.333012 -0.57563 -0.776888 -0.255137
-0.0123807 -0.0934415 0.626677 0 -0.98509 0.172042
-0.00862118 0.125412 0.0324233 -0.998584 -0.0188043 -0.0497565
-0.14136 -0.0540477 0.3342 -0.869987 -0.317871 -0.376936
-0.23283 -0.00583496 0.3549 -0.147735 0.989002 0.0070809
-0.0264705 -0.0381277 0.685883 -0.851234 0.119896 0.510907
0.0728834 0.0657536 0.0633684 -0.0524827 -0.991283 -0.120842
-0.00744235 0.00965777 0.0515002 -0.998312 -0.0211407 -0.0540855
-0.0100811 0.0974951 0.0646995 -0.997609 -0.0204234 -0.0660301
-0.00598974 0.0188322 0.213427 -0.375812 0.926634 -0.0107196
0.0382062 -0.0638575 0.263521 0.52689 -0.824053 -0.208143
-0.0953603 -0.0596298 0.438057 0.15669 -0.987642 0.0033618
0.217428 -0.0034999 0.349224 0.146712 0.989166 0.00513109
-0.431889 -0.0509611 0.22731 -0.905238 -0.0365358 0.423332
0.0475365 -0.0697814 0.455168 0.901902 -0.431941 0
-0.28655 -0.0723317 0.288039 0.943111 0.332232 0.0127753
0.181115 0.00140124 0.397674 0.135775 0.990738 0.00195118
-0.127887 0.00710698 0.333361 -0.110475 0.992784 -0.0466425
-0.0222375 0.0680747 0.0698192 0.0565645 -0.996293 -0.0648138
0.0301541 -0.0155262 0.633899 0.585156 0.304527 0.751569
-0.252822 -0.0137695 0.217677 -0.122944 0.990283 -0.0649912
0.0330831 -0.0847446 0.60939 0.531819 -0.806693 0.257711
-0.0442928 -0.0765544 0.431521 -0.901902 -0.431941 0
0.14716 -0.0628065 0.361616 0.92509 -0.337299 -0.174465
-0.0551179 -0.0556294 0.473972 -0.882613 -0.467184 -0.0522768
0.345385 -0.0235027 0.233548 0.106131 0.991548 -0.0746235
-0.445202 -0.0491579 0.189178 -0.995316 -0.0401715 -0.0879298
-0.00255886 -0.0975355 0.598196 0 -1 0
0.0304318 0.0168925 0.597813 0.703067 0.672027 0.232545
-0.421198 -0.0355513 0.25259 -0.906465 -0.0698532 0.416464
0.437806 -0.0148227 0.220515 0.730982 0.613907 0.297964
0.0132985 -0.0789331 0.669914 0.647175 -0.726156 0.232083
-0.00304437 0.028796 0.378305 -0.233351 0.972392 0
-0.236307 -0.0218291 0.356693 0.185143 -0.981757 -0.0433032
-0.206132 -0.0162442 0.344656 0.148853 -0.988718 -0.0167062
-0.253832 -0.0248177 0.34952 0.185143 -0.981757 -0.0433032
0.0445712 -0.0761948 0.488443 0.880068 -0.474848 0
-0.04572 -0.0562471 0.276605 -0.893795 -0.423969 -0.146222
-0.405072 -0.0460248 0.186793 0.164243 -0.986235 -0.0190967
0.00786144 0.0658854 0.0380349 0.998353 -0.019173 -0.0540656
-0.32986 -0.0347991 0.263468 0.156742 -0.987589 -0.0100084
0.00935758 0.040814 0.0747089 0.997968 -0.0214916 -0.059976
0.0535515 -0.00643892 0.448963 0.73592 0.673833 -0.0661129
-0.418262 -0.0305963 0.2044 0.989136 0.129266 0.0699945
-0.441326 -0.048843 0.142263 -0.996603 0.025365 -0.078348
-0.00623917 0.0311669 0.0398006 0 -0.407344 -0.913275
-0.337168 -0.0400867 0.315474 0.22275 -0.971925 -0.0757926
0.278678 -0.0286177 0.327079 -0.199499 -0.978778 -0.0468375
-0.297397 -0.031316 0.24414 0.995941 -0.0110834 0.0893185
-0.306589 -0.0592958 0.257408 0.0112301 0.951925 -0.306125
0.0755224 0.0154027 0.383987 0.114533 0.992666 -0.0386769
0.225759 -0.0186905 0.295902 -0.154891 -0.987911 -0.00645467
-0.26682 -0.0106393 0.315951 -0.146665 0.989163 0.00679259
-0.168296 0.000827721 0.299554 -0.110747 0.99229 -0.0556408
-0.0113536 0.100887 0.0815527 -0.992853 -0.0369468 -0.113485
-0.068653 0.00347616 0.358185 0.139536 -0.990215 -0.00220516
0.0107362 0.0760348 0.120256 0.215933 0.573379 0.790322
0.425738 -0.0128684 0.246094 0.730977 0.613934 0.297922
-0.0614719 0.0676261 0.0529645 0.0524827 -0.991283 -0.120842
-0.20636 -0.00203514 0.38314 -0.147818 0.989 0.00534898
-0.0261929 0.0117054 0.2495 -0.559563 0.815191 -0.149506
0.0599177 -0.0181576 0.466933 0.99327 0.10126 -0.0562329
-0.00872046 0.0435303 0.0621228 -0.998357 -0.0190863 -0.0540249
0.0376198 -0.08231 0.473742 0.587786 -0.809017 0
0.0460403 -0.0568473 0.624263 0.76082 -0.436445 0.480281
0.0403195 0.02058 0.43753 0.134867 0.990863 0.0008826
-0.0560072 -0.0111212 0.389501 -0.993138 0.116203 -0.0132116
0.0678118 0.0168285 0.39775 0.114533 0.992666 -0.0386769
0.340326 -0.0211838 0.262232 0.155843 0.987714 0.0115936
-0.296948 -0.0724299 0.347249 0.0214867 -5.95198e-06 -0.999769
-0.0842681 0.00128979 0.351882 0.139536 -0.990215 -0.00220516
0.121651 0.00941837 0.367434 0.115062 0.992263 -0.0466414
-0.0427949 0.0184606 0.365556 -0.114533 0.992666 -0.0386769
0.447509 -0.0235656 0.198138 0.904076 -0.0946634 0.416756
-0.305438 -0.0165287 0.327392 -0.148927 0.98882 0.00741179
-0.00509831 0.0319401 0.15767 -0.167946 0.840501 0.515124
-0.0418477 0.0082736 0.303648 -0.702527 0.697121 -0.143103
0.383132 -0.0439951 0.24185 -0.209765 -0.972966 -0.0966216
-0.00948418 0.0184977 0.089321 -0.997821 -0.0341443 -0.0564645
0.044926 -0.00254603 0.274984 0.726256 0.675878 -0.125461
0.308555 -0.0659775 0.338413 0.562451 -0.824153 -0.0664877
-0.135363 -0.07129 0.357746 -0.546928 -0.82208 -0.158283
0.0913029 0.000322254 0.341209 -0.139536 -0.990215 -0.00220514
0.0173065 -0.0152952 0.647097 0.508852 0.811189 0.28817
-0.446599 -0.024756 0.179663 -0.988346 -0.129691 -0.0796985
-0.140272 -0.0534836 0.432901 -0.950802 -0.309033 -0.0217597
0.444516 -0.0139418 0.184626 0.78499 0.610729 -0.103929
0.0526697 0.077734 0.0589683 0.0656009 0.994135 0.0859828
0.435108 -0.0526572 0.214846 -0.21608 -0.970354 -0.108268
-0.110547 -0.0559614 0.34771 0.935568 -0.255823 -0.243447
-0.0591018 -0.0199989 0.543652 -0.993886 0.095588 0.0552552
0.148158 -0.0396277 0.364947 0.947128 0.277196 -0.161588
0.0588115 0.0153187 0.335202 0.118898 0.992155 -0.0386172
-0.271276 -0.0258616 0.354408 -0.489628 0.109302 0.865054
0.41599 -0.012138 0.224388 -0.913573 0.096871 -0.394969
0.0261924 -0.0507921 0.685736 0.725411 -0.576492 0.37608
0.0350791 -0.0841559 0.441984 0.587786 -0.809017 0
0.323357 -0.0678578 0.262293 0.935894 0.282385 -0.210623
-0.180091 0.001359 0.334663 -0.110475 0.992784 -0.0466425
0.323104 -0.0558832 0.350232 0.988358 -0.150771 -0.0203939
0.0667468 0.0730852 0.0846407 0.494183 0.497845 0.712695
0.0576709 -0.0223722 0.419246 0.993063 0.10329 -0.0561889
0.0410838 -0.0469927 0.214586 0.890267 -0.439381 -0.119871
0.0282585 0.00704957 0.22774 0.552703 0.830371 -0.0707371
-0.0506936 -0.0656597 0.557125 -0.866823 -0.498615 0
0.0295075 0.00373492 0.200541 0.584647 0.808079 -0.0720883
-0.123616 -0.0290361 0.376121 0.561304 0.826724 -0.0382822
0.35709 -0.0416831 0.280586 -0.225311 -0.968792 -0.10333
-0.326819 -0.0366006 0.30092 0.197835 -0.977909 -0.0674945
0.00661872 0.122161 0.080845 0 0.848431 0.529306
0.00813696 0.0288513 0.571813 0.233817 0.971794 0.0307518
-0.03629 -0.0832762 0.417906 -0.587786 -0.809017 0
0.328451 -0.0633746 0.292763 0.589971 0.789385 -0.169723
0.106742 -0.00183155 0.307502 -0.13744 -0.990508 -0.00210788
0.0306614 0.0721672 0.0210792 -0.0633308 -0.381651 -0.922134
-0.143332 0.00655332 0.410769 -0.135775 0.990738 0.00195118
0.431643 -0.0156068 0.135253 0.11215 0.989144 -0.0949545
0.260588 -0.00967905 0.310676 0.146665 0.989163 0.00679259
-0.00887563 -0.0975355 0.541866 0 -1 0
-0.448487 -0.0203815 0.195953 -0.988346 -0.129691 -0.0796985
0.322063 -0.109221 0.351138 0.0213959 2.51196e-05 0.999771
-0.0124667 0.0936656 0.095247 -0.996313 -0.045099 -0.0729799
0.0515752 -0.0641271 0.559013 0.866823 -0.498615 0
0.110059 0.0637704 0.0550138 0.999791 -0.00927149 -0.0182188
-0.0533812 -0.01234 0.57894 -0.912188 0.400391 0.0871771
-0.151889 0.0016533 0.276831 -0.115065 0.992263 -0.0466353
0.0877141 0.0789132 0.0143717 -0.0632589 -0.381848 -0.922058
0.42757 -0.0091708 0.200617 0.0978126 0.991206 -0.0891285
0.046374 0.0635743 0.104617 -0.0938068 -0.990939 -0.0961233
-0.00968335 0.0285311 0.577009 -0.188773 0.98199 -0.00774702
-0.0128995 0.0402166 0.133707 -0.997251 -0.040012 -0.0623677
0.289123 -0.0314848 0.342502 -0.199499 -0.978778 -0.0468375
-0.0260892 0.0224629 0.383976 -0.287539 0.957104 -0.035676
0.109906 -0.0614619 0.377951 -0.961523 -0.272488 -0.0349678
0.104689 0.00657392 0.278243 -0.420083 -0.41685 -0.806081
0.00672838 -0.0900437 0.32776 0 -0.996489 -0.0837263
-0.205315 -0.0157375 0.30284 0.14143 -0.989929 -0.0061703
-0.0345229 -0.08456 0.526752 -0.587786 -0.809017 0
0.0692804 0.00344171 0.405665 -0.137867 -0.990438 0.00502202
0.138916 0.00713509 0.422695 0.135775 0.990738 0.00195118
0.05155 0.00588574 0.374038 -0.13979 -0.99018 0.00123157
-0.135863 -0.0292416 0.416254 -0.0459135 0.985479 0.163475
0.310305 -0.0826552 0.349531 0.0214195 -1.73933e-05 0.999771
0.283073 -0.0129674 0.302861 0.14774 0.989001 0.00709105
0.292867 -0.0288584 0.256622 -0.156742 -0.987589 -0.0100084
-0.149772 -0.0491375 0.358096 -0.947143 0.277155 -0.161573
-0.288797 -0.0284029 0.27542 0.156742 -0.987589 -0.0100084
0.0443561 -0.0766773 0.556967 0.866823 -0.498615 0
0.00305549 -0.0650811 0.197559 0 -0.982966 -0.183788
-0.188495 -0.002386 0.281204 -0.115065 0.992263 -0.0466353
-0.0546383 -0.0198739 0.287631 -0.989592 0.127225 -0.0672395
-0.320101 -0.0331413 0.252815 0.155994 -0.987658 -0.0140296
-0.417552 -0.00885834 0.228218 0.543214 0.799991 -0.254819
0.142664 -0.00883489 0.438835 0.987729 0.154737 -0.021155
-0.0281541 0.0244857 0.581911 -0.719418 0.68704 0.102044
-0.0527008 -0.024512 0.25578 -0.923929 0.352597 -0.148426
-0.297178 -0.0233897 0.33931 -0.49978 0.0476444 0.864841
0.311344 -0.0351048 0.324606 -0.197835 -0.977909 -0.0674945
0.0456064 -0.00950006 0.24728 0.923929 0.352597 -0.148426
0.145615 0.00562957 0.343903 0.110476 0.992784 -0.0466425
-0.285742 -0.0740702 0.273537 0.943124 0.332197 0.0127617
-0.0243313 -0.0260127 0.664726 -0.512829 0.808662 0.288223
0.0581567 -0.0117696 0.52634 0.91606 0.391968 0.0848266
0.233447 -0.0204404 0.328006 -0.173039 -0.984703 -0.0204437
-0.0782491 0.0154334 0.419607 -0.134867 0.990863 0.0008826
-0.0583789 -0.0366703 0.318698 -0.993207 0.116211 -0.00597824
0.0262879 -0.0877887 0.384143 0.586432 -0.807154 -0.067821
0.165244 0.00364216 0.372345 0.13539 0.990791 0.00191064
-0.1852 0.000922793 0.368377 -0.13539 0.990791 0.00191063
-0.00661064 -0.0279009 0.690522 -0.481179 0.718618 0.502051
0.285592 -0.0785699 0.297945 -0.959115 -0.282624 0.0149184
-0.347008 -0.036386 0.179248 0.161497 -0.986776 -0.0138645
-0.0159208 0.0204431 0.280703 -0.335976 0.935499 -0.109365
-0.0111819 0.0289847 0.114211 -0.998098 -0.0422217 -0.044911
0.29064 -0.0634392 0.268766 -0.571315 0.820121 -0.0316436
-0.0964294 0.0783921 0.0282633 -0.0332018 0.996233 0.0801085
0.189149 -0.0135872 0.338729 -0.148853 -0.988718 -0.0167062
0.385522 -0.0299256 0.286966 0.507629 -0.0177452 0.861393
-0.124622 -0.0281569 0.393135 0.997112 0.0262503 0.0712692
-0.0451729 0.0753797 0.0187532 0.0632905 -0.381652 -0.922137
0.0431149 0.00789371 0.479494 0.765486 0.642694 -0.0312324
-0.0233988 0.0710179 0.0286069 0.0329377 -0.996628 -0.0751453
-0.252291 -0.0227733 0.284091 0.154891 -0.98791 -0.00645467
-0.268813 -0.024997 0.247451 0.152301 -0.988314 -0.00639905
0.194563 -0.0140376 0.267017 -0.139243 -0.990239 -0.0061228
-0.0467474 -0.0496988 0.26342 -0.88718 -0.439764 -0.139713
0.36447 -0.0394771 0.195859 -0.161497 -0.986776 -0.0138645
-0.0313111 0.00271186 0.2037 -0.584647 0.808079 -0.0720883
0.0566411 -0.0162343 0.392183 0.993138 0.116203 -0.0132116
0.0344858 -0.084587 0.532411 0.587786 -0.809017 0
0.0330253 0.0210257 0.484985 0.797629 0.60296 0.0150579
-0.00900866 0.0273647 0.410189 -0.233351 0.972392 0
-0.267801 -0.0110689 0.354506 -0.489628 0.109302 0.865054
-0.0900005 0.0678953 0.0355544 0.0456177 -0.995242 -0.0860905
-0.0600495 -0.0228283 0.460849 -0.99327 0.10126 -0.0562329
0.334384 -0.0701379 0.319539 0.951252 0.283971 -0.120332
-0.30165 -0.015629 0.287779 -0.147663 0.988999 0.00871904
0.0222257 -0.0833014 0.301996 0.511453 -0.8355 -0.200888
-0.13148 0.00429933 0.282773 -0.115065 0.992263 -0.0466353
-0.0421337 0.0785152 0.057833 -0.0458926 0.995108 0.087481
-0.0403127 0.0692594 0.0445146 0.0329377 -0.996628 -0.0751453
0.00549461 0.0872733 0.113534 0.215933 0.573379 0.790322
-0.0454878 -0.00298282 0.603756 -0.905737 0.396687 0.149268
-0.0521212 0.00584747 0.408095 0.13979 -0.99018 0.00123157
-0.133116 0.0039534 0.427968 -0.476104 0.275283 0.835191
-0.203583 -0.00154095 0.348072 -0.135546 0.990767 0.00290046
0.297195 -0.0195473 0.211361 0.116099 0.991122 -0.0647875
-0.39944 -0.0355664 0.27865 -0.507556 -0.0177122 0.861437
-0.299633 -0.045647 0.267277 0.995901 -0.011175 0.089753
-0.128445 -0.00492995 0.349476 0.139536 -0.990215 -0.00220516
-0.0563536 -0.0246366 0.594045 -0.961919 0.258981 0.087406
-0.0336687 -0.0225983 0.10636 -0.834373 -0.539698 -0.112017
-0.357483 -0.0270804 0.20497 -0.112935 0.990771 -0.0749606
0.320617 -0.0989812 0.338548 -0.00886197 -0.989302 0.145614
0.25249 -0.00855625 0.322016 0.146665 0.989163 0.00679259
0.311535 -0.0209628 0.215404 0.116099 0.991122 -0.0647875
0.0609102 0.00452588 0.308465 -0.13744 -0.990508 -0.00210788
-0.00419701 -0.0649011 0.701659 -0.330614 -0.492397 0.805133
-0.0282306 -0.0494569 0.165137 -0.516843 -0.828039 -0.217314
0.263509 -0.0253632 0.317233 -0.172357 -0.984215 -0.040159
0.0902666 0.000455433 0.32656 -0.137829 -0.990455 0.00136231
0.201623 -0.0159443 0.372487 -0.157238 -0.987397 -0.0179948
0.0543841 -0.0579421 0.574312 0.884284 -0.463706 0.0549296
0.215388 -0.00782991 0.238872 0.115659 0.991726 -0.0557089
0.168775 -0.0103998 0.265144 -0.139243 -0.990239 -0.0061228
-0.132524 0.00782271 0.359577 -0.110475 0.992784 -0.0466425
0.0657516 0.00388056 0.373831 -0.13979 -0.99018 0.00123157
-0.0266674 -0.0810049 0.634799 -0.546213 -0.78772 0.284866
-0.439177 -0.0101794 0.202258 -0.156642 0.987539 0.0151861
0.0371762 -0.0441552 0.659946 0.948379 0.155631 0.276327
-0.135249 -0.00812699 0.337031 -0.991947 -0.0659551 -0.108123
-0.0678706 0.0035658 0.305778 0.13744 -0.990508 -0.00210788
0.015665 -0.0895479 0.632272 0.546215 -0.787719 0.284865
0.237722 -0.0101196 0.246414 0.120481 0.991147 -0.0557798
0.332477 -0.0340678 0.178848 -0.153081 -0.988113 -0.0141226
-0.398841 -0.0489704 0.257873 0.225311 -0.968792 -0.10333
0.316629 -0.0859161 0.24662 0.855482 -0.318104 -0.408607
0.269189 -0.0146261 0.235585 0.122944 0.990283 -0.0649912
0.111908 -0.0026383 0.371654 -0.13979 -0.99018 0.00123157
0.044526 -0.0327947 0.173033 0.793368 -0.571192 -0.210493
0.0179891 -0.0965726 0.583642 0.587787 -0.809016 0
0.0826716 0.00150981 0.306836 -0.13744 -0.990508 -0.00210788
0.0374103 -0.0535782 0.64983 0.895779 -0.378588 0.232918
-0.352625 -0.0251062 0.222538 -0.106131 0.991548 -0.0746235
0.0335282 0.00674909 0.25576 0.787908 0.594252 -0.16145
-0.230458 -0.00868696 0.256181 -0.120481 0.991147 -0.0557798
-0.195594 -0.0149549 0.370879 0.157238 -0.987397 -0.0179948
0.311192 -0.0446714 0.250793 0.987853 -0.0485546 -0.147613
0.135145 -0.0190821 0.341948 0.993012 -0.0558374 -0.103964
0.127747 -0.00865697 0.438877 -0.0215038 -8.24481e-06 -0.999769
0.177026 0.000636994 0.313529 0.110747 0.99229 -0.0556408
