0.397954 -0.0837828 0.256981 -0.0616862 -0.998092 -0.00250869
-0.0417304 -0.085719 0.275805 -0.530226 -0.829297 -0.176431
0.0218697 -0.00012673 0.286932 0.381862 0.919342 -0.0948229
-0.0523116 -0.0199688 0.340932 -0.910096 0.369244 -0.188104
-0.277044 -0.0763951 0.290688 0.0621599 -0.998058 -0.00415296
-0.453208 -0.0878983 0.369246 0.0631456 -0.997978 -0.00730497
-0.0306926 0.00228021 0.345799 -0.381862 0.919342 -0.0948229
-0.194359 -0.0299771 0.419962 -0.135224 0.99001 -0.0399284
4.32357e-05 -0.12875 0.643548 0 -1 0
-0.108605 0.0710181 0.0348381 -0.0416495 0.996946 0.0660663
-0.0527297 -0.0999011 0.519471 -0.901901 -0.431944 0
-0.19133 -0.0304758 0.354831 -0.145387 0.989275 -0.0140381
-0.0229431 0.0739365 0.0395143 -0.0384701 0.998005 0.0500639
-0.0326582 -0.00712682 0.284633 -0.557043 0.822408 -0.115534
0.192933 -0.0306283 0.360676 0.145387 0.989275 -0.0140381
-0.0127047 0.030016 0.120197 -0.998026 -0.0278994 -0.056262
-0.0526933 -0.0315461 0.310454 -0.826497 0.554427 -0.097536
0.139789 -0.0689767 0.481968 -0.0616435 -0.998089 -0.00433529
-0.0114479 -0.0387487 0.76012 -0.534051 0.797575 0.28047
-0.398784 -0.0843875 0.36221 0.0636393 -0.997939 -0.00828046
-0.0529147 0.0648886 0.112254 -0.494223 0.497948 0.712594
-0.00563688 0.0140182 0.481329 -0.233215 0.971826 0.0341356
-0.157419 -0.101183 0.505205 0.619024 -0.782058 -0.0720757
0.00818763 0.0774574 0.0223281 0.998341 -0.0164667 -0.0551742
-0.132049 -0.0484084 0.546951 -0.47772 0.0224784 0.878224
0.0148911 0.014033 0.169577 0.996838 -0.0664827 -0.0435123
0.353038 -0.0548338 0.301189 0.146947 0.98911 -0.00829362
0.202424 -0.0322569 0.344204 0.145387 0.989275 -0.0140381
0.113354 -0.0182155 0.413438 0.145548 0.989274 -0.0123856
-0.0461702 -0.0863356 0.717311 -0.834977 -0.37084 0.40656
-0.0755684 -0.0641518 0.358345 0.0623505 -0.998026 -0.00745629
-0.370879 -0.08309 0.41584 0.064328 -0.99787 -0.0108334
-0.215125 -0.0335381 0.386433 -0.145381 0.989292 -0.0128555
0.0478547 -0.0302147 0.215364 0.890933 0.454118 0.0039391
-0.418525 -0.0804078 0.393419 -0.456531 -0.210705 0.864398
-0.102172 -0.0668346 0.522979 0.0614074 -0.998105 -0.00388036
0.311834 -0.06233 0.451667 0.453882 -0.111081 0.884111
0.415249 -0.0848691 0.263899 -0.0616862 -0.998092 -0.00250869
0.302003 -0.0470158 0.333179 0.146173 0.989196 -0.0111762
-0.145993 -0.0695974 0.516203 0.066244 -0.9977 -0.014376
0.163149 -0.0704772 0.495246 -0.0616435 -0.998089 -0.00433529
0.179213 -0.0411925 0.317427 -0.281332 -0.0875179 -0.955611
0.100669 -0.0393774 0.340342 -0.282458 -0.103122 -0.953721
-0.170286 -0.120361 0.554565 0.987416 -0.156701 0.0213172
0.117187 0.0705098 0.0371077 0.0332024 0.996233 0.0801072
0.215535 -0.0730592 0.379955 -0.0623929 -0.998023 -0.00760327
0.0868007 -0.056161 0.571674 0.470429 0.0452439 0.881277
0.0193605 0.0626563 0.0375582 -0.0415903 -0.99697 -0.0657327
0.116393 -0.0287713 0.334538 -0.282458 -0.103122 -0.953721
-0.26198 -0.0757951 0.357939 0.0623929 -0.998023 -0.00760327
0.389094 -0.0833597 0.294641 -0.0619228 -0.998075 -0.00331815
0.433758 -0.0691965 0.387915 0.454054 0.0186882 0.890778
0.0187668 -0.0880146 0.215737 0.46947 -0.864296 -0.180528
-0.203226 -0.0320902 0.364264 -0.145387 0.989275 -0.0140381
0.0004721 0.0102141 0.0484772 0 -0.407343 -0.913275
-0.0370541 0.00798343 0.516669 -0.153375 0.988136 -0.00790447
0.000679394 -0.00820247 0.0566914 0 -0.407343 -0.913275
-0.292108 -0.0780047 0.405322 0.0618947 -0.998068 -0.00548394
-0.0481698 0.0735683 0.0309066 -0.0398184 0.997589 0.0568358
-0.0108299 -0.0767269 0.1435 0 -0.982966 -0.183788
0.0295531 -0.0480943 0.0899804 0.82836 -0.535809 -0.163487
0.380908 -0.0805849 0.412892 0.468484 -0.114654 0.876
0.0870835 0.0723694 0.0280144 0.0416495 0.996946 0.0660663
0.167082 -0.0595766 0.513847 -0.99711 0.0262436 0.0712932
-0.466333 -0.0717766 0.264359 -0.14602 0.989278 -0.00249833
-0.289722 -0.0597658 0.286706 0.277265 -0.0367074 -0.960092
-0.0603757 -0.0452844 0.703272 -0.834436 0.174798 0.522649
0.147789 -0.0698413 0.524852 -0.066244 -0.9977 -0.014376
-0.0370894 0.00600637 0.599644 -0.671734 0.740793 -0.000528184
0.367642 -0.0565666 0.340556 0.144809 0.989355 -0.0144183
0.273141 -0.0736562 0.291649 -0.274826 -0.00995214 -0.961442
-0.114071 -0.0187439 0.383946 -0.144609 0.989345 -0.0168984
-0.00508424 -0.0838727 0.181719 0 -0.982967 -0.183784
0.319497 -0.0792104 0.331574 -0.0616372 -0.998086 -0.00498299
0.0521998 -0.0951107 0.373504 0.911662 -0.410313 -0.0226944
0.0404041 0.0726049 0.0526429 0.0384701 0.998005 0.0500639
-0.0571488 -0.00839967 0.534833 -0.158166 0.987233 0.0188443
0.0787675 -0.0319525 0.574116 0.474094 0.259181 0.841463
-0.09071 0.0689222 0.0624278 -0.0821822 0.988767 0.12484
-0.0825437 -0.0124848 0.474667 -0.135845 0.989964 -0.0389414
0.0378787 -0.114987 0.657816 0.587796 -0.809009 0
-0.0512203 -0.103053 0.535242 -0.901901 -0.431944 0
-0.218617 -0.0348796 0.326006 -0.14371 0.989558 -0.0110487
-0.0937608 -0.0141828 0.53045 -0.158299 0.987206 0.0191335
0.0690401 -0.069955 0.652568 0.884283 -0.463708 0.0549366
-0.0324545 -0.0196978 0.160514 -0.670423 0.739086 -0.0654584
-0.0401072 -0.00785266 0.316379 -0.568552 0.814635 -0.114536
-0.302553 -0.0785265 0.383914 0.0619509 -0.998059 -0.00637697
0.130373 -0.0683516 0.471498 -0.0611397 -0.99812 -0.00432412
-0.311808 -0.0488166 0.293406 -0.144483 0.989474 -0.00817594
-0.136429 -0.0228176 0.335421 -0.142933 0.989635 -0.0139011
0.176243 -0.0496179 0.552734 -0.0215784 0 -0.999767
0.0333867 0.0559739 0.117027 -0.0788735 -0.99415 -0.0737921
0.0935848 -0.0536135 0.343332 -0.278707 -0.0536599 -0.958876
-0.175935 -0.0270721 0.429485 -0.135481 0.989975 -0.039935
-0.0961599 -0.0154196 0.434702 -0.145548 0.989274 -0.0123856
-0.0209271 -0.00578122 0.704663 -0.0260653 0.708383 0.705347
-0.349169 -0.05423 0.30463 -0.146947 0.98911 -0.00829362
-0.434089 -0.0860606 0.274697 0.0616862 -0.998092 -0.00250869
-0.0972505 -0.0435225 0.341702 0.278707 -0.0536599 -0.958876
0.230531 -0.0741639 0.402048 -0.0624142 -0.998022 -0.00753553
-0.165485 -0.0255124 0.522807 -0.157774 0.98729 0.0191188
0.416254 -0.0630723 0.39114 0.154651 0.987887 0.0127766
0.0170201 0.0112678 0.538518 0.153375 0.988136 -0.00790447
0.0174496 -0.0230711 0.721783 0.372818 0.555835 0.743003
-0.289407 -0.0435238 0.419306 -0.15441 0.987949 0.0107047
-0.0321175 0.0610637 0.0536408 0.0415904 -0.99697 -0.0657326
0.0582987 -0.0487759 0.273841 0.867027 0.4866 -0.107166
0.384857 -0.0625851 0.259782 -0.273005 0.00861464 -0.961974
0.38049 -0.0577661 0.361665 0.134493 0.989998 -0.0426151
0.0446886 -0.0706933 0.224676 0.852589 -0.515626 -0.0849839
-0.00256999 -0.12875 0.550259 0 -1 0
-0.444705 -0.0685607 0.273689 -0.14602 0.989278 -0.00249833
-0.00164862 -0.0317635 0.738249 -8.01798e-06 0.960935 0.276773
0.11704 -0.0216796 0.333579 -0.282458 -0.103122 -0.953721
0.030184 0.0554468 0.127552 -0.0788735 -0.99415 -0.0737921
0.422025 -0.0651136 0.290293 0.147733 0.989012 -0.00542131
0.0312574 -0.00557052 0.288958 0.557043 0.822408 -0.115534
-0.226677 -0.0733779 0.317118 0.0624046 -0.998039 -0.00497854
0.270032 -0.0687888 0.473132 0.473811 -0.0522817 0.879073
-0.266607 -0.0765453 0.427166 0.0623396 -0.998039 -0.00572313
0.108666 -0.0662863 0.36584 -0.0628814 -0.997999 -0.00663935
0.0270963 -0.0463977 0.0736874 0.880749 -0.428086 -0.202543
-0.155636 -0.0231425 0.45821 -0.135452 0.990001 -0.0393804
-0.0495166 -0.0178463 0.690069 -0.905739 0.396683 0.149265
0.428557 -0.0662098 0.260749 0.14602 0.989278 -0.00249833
0.0341154 -0.00374592 0.315844 0.568552 0.814635 -0.114536
0.0462145 -0.000869278 0.550756 0.685025 0.727193 0.043948
0.440625 -0.0676551 0.384382 0.454054 0.0186882 0.890778
-0.0348462 0.00648964 0.45133 -0.296729 0.954047 -0.0417955
-0.161229 -0.0256235 0.385184 -0.145708 0.989244 -0.0128596
0.108237 -0.0166767 0.539352 0.158299 0.987206 0.0191335
-0.0257169 -0.123823 0.663063 -0.587794 -0.80901 0
-0.0600469 -0.0788177 0.700493 -0.760818 -0.436451 0.480277
0.0105596 0.0959717 0.0590774 0.99759 -0.0203339 -0.0663441
-0.433681 -0.0669191 0.278555 -0.147733 0.989012 -0.00542131
-0.0264318 0.0115589 0.658041 -0.188769 0.981992 -0.00758423
0.0092174 -0.0145559 0.713908 0.0260655 0.708383 0.705347
0.134522 -0.0205052 0.519748 0.157774 0.98729 0.0191188
-0.0296279 -0.120981 0.537506 -0.587796 -0.809009 0
0.0102548 0.0107205 0.0862895 0.998564 -0.0272518 -0.0461296
0.066224 -0.071725 0.505645 0.901901 -0.431944 0
-0.151321 -0.0250443 0.330016 -0.142933 0.989635 -0.0139011
-0.00865358 0.11252 0.0184673 -0.998584 -0.0188042 -0.0497556
0.137227 -0.0687249 0.460528 -0.0613661 -0.998106 -0.00431039
-0.374754 -0.0824613 0.29201 0.0619228 -0.998075 -0.00331815
-0.154473 -0.0245186 0.393641 -0.145708 0.989244 -0.0128596
-0.0186052 -0.108288 0.308409 -0.51146 -0.835493 -0.200897
0.0377752 -0.0388168 0.106203 0.895538 0.416357 -0.157029
0.410534 -0.0846571 0.288376 -0.0611568 -0.998123 -0.00332173
0.175452 -0.0961084 0.535607 0.0729017 -0.0235779 0.99706
0.00545998 0.00367611 0.20545 0.285957 0.839551 0.461933
-0.145276 -0.022221 0.445741 -0.135452 0.990001 -0.0393804
0.0339584 -0.0110612 0.268142 0.826497 0.554427 -0.097536
-0.123904 -0.0585236 0.551641 -0.47772 0.0224784 0.878224
-0.05345 -0.0412132 0.232708 -0.869175 0.49448 -0.00493649
0.028205 -0.0688937 0.156384 0.532681 -0.82776 -0.176249
-0.0265348 -0.123229 0.598018 -0.587794 -0.80901 0
-0.155521 -0.0966154 0.49186 0.961509 -0.272536 -0.0349919
0.245596 -0.075427 0.458499 -0.0656101 -0.997771 -0.0121847
-0.0612702 -0.0698845 0.336624 -0.893796 -0.423968 -0.146221
-0.348347 -0.0810834 0.343055 0.0624729 -0.998017 -0.00768479
0.0363708 -0.0379153 0.100584 0.895538 0.416357 -0.157029
-0.299112 -0.078039 0.347722 0.0624201 -0.99802 -0.0076853
0.248935 -0.0751955 0.386288 -0.0623929 -0.998023 -0.00760327
-0.217632 -0.0916894 0.551071 -0.903991 -0.427107 -0.0195155
0.0732603 -0.0105955 0.514642 0.158166 0.987233 0.0188443
0.022755 0.00855922 0.391442 0.296988 0.954881 0
-0.0361889 0.00338187 0.396578 -0.571129 0.818327 -0.0644446
0.0150271 -0.118643 0.353478 0 -0.996489 -0.0837184
0.21044 -0.0900173 0.551881 0.021494 -8.28527e-05 0.999769
-0.461831 -0.0839442 0.263938 -0.889964 -0.455436 -0.0232852
0.25121 -0.0755522 0.419839 -0.0616087 -0.998085 -0.00550521
-0.0295799 -0.104295 0.738419 -0.546187 -0.787737 0.284868
0.0698083 -0.0620707 0.659522 0.961808 0.259391 0.0874167
0.0102269 0.0803532 0.0583621 0.998341 -0.0164667 -0.0551742
0.0633198 -0.00928358 0.488986 0.135845 0.989964 -0.0389414
0.38236 -0.0586174 0.347658 0.144809 0.989355 -0.0144183
0.34603 -0.0810318 0.355197 -0.0624729 -0.998017 -0.00768479
-0.0420302 -0.11197 0.622484 -0.587794 -0.80901 0
0.00965102 -0.0298404 0.0585338 0 0 -1
0.115141 -0.0672161 0.437394 -0.0623615 -0.998025 -0.0074942
-0.219548 -0.0740661 0.486438 0.0656904 -0.997751 -0.0133595
0.0242728 -0.124872 0.499747 0.587796 -0.809009 0
0.0257043 0.0092225 0.567475 0.15001 0.988019 0.0362806
0.330915 -0.0802972 0.385505 -0.0622806 -0.998038 -0.00634912
0.0257079 0.00830298 0.427845 0.296729 0.954047 -0.0417955
-0.0202188 -0.127818 0.662637 -0.587794 -0.80901 0
0.0172406 0.00964965 0.37031 0.382941 0.921941 -0.0581461
-0.470396 -0.0711903 0.333423 -0.146984 0.989074 -0.0112931
-0.208441 -0.0335569 0.312114 -0.14371 0.989558 -0.0110487
0.257479 -0.0512606 0.295467 -0.279747 -0.0664999 -0.957768
0.0928836 -0.048514 0.343251 -0.278707 -0.0536599 -0.958876
-0.0937993 -0.0655687 0.395546 0.0623505 -0.998026 -0.00745629
0.462058 -0.0699585 0.369015 0.154298 0.987969 0.0104764
0.178813 -0.0755343 0.489887 0.604666 0.786687 -0.124507
0.00706969 -0.0713014 0.805608 0.443291 0.155087 0.88286
-0.0564653 0.0620849 0.02792 0.033586 -0.995621 -0.0872383
-0.0530517 -0.0520514 0.197382 -0.793365 -0.571193 -0.210502
0.0205806 0.00923552 0.407715 0.296988 0.954881 0
0.0152914 0.0399243 0.154273 0.997251 -0.0400093 -0.0623673
0.177122 -0.0577324 0.490827 0.991949 -0.0659259 -0.108128
-0.285549 -0.0775272 0.392703 0.0619509 -0.998059 -0.00637697
0.21119 -0.0322215 0.49151 0.157166 0.98741 0.0178889
0.208143 -0.0727851 0.404867 -0.0624142 -0.998022 -0.00753553
0.292207 -0.0444661 0.455229 0.156466 0.987546 0.0164556
-0.148251 -0.0695963 0.504273 0.0616435 -0.998089 -0.00433528
-0.272084 -0.0554667 0.472593 -0.465759 0.177266 0.866975
-0.192048 -0.029494 0.509152 -0.157732 0.98732 0.0179066
-0.161342 -0.0252521 0.415338 -0.14555 0.989273 -0.0123857
-0.237136 -0.0746886 0.420754 0.0616087 -0.998085 -0.00550521
-0.0405684 -0.113033 0.558354 -0.587796 -0.809009 0
-0.0776338 -0.0655782 0.55365 0.0667075 -0.997656 -0.0152454
0.233839 -0.0352491 0.422952 0.135224 0.99001 -0.0399284
0.0582155 -0.0827639 0.391935 0.911662 -0.410313 -0.0226944
0.20621 -0.0308295 0.438965 0.135224 0.99001 -0.0399284
0.180384 -0.0714916 0.483729 -0.0616435 -0.998089 -0.00433529
0.249281 -0.0752945 0.396488 -0.0624142 -0.998022 -0.00753553
0.0748539 -0.0649599 0.473593 -0.0611397 -0.99812 -0.00432412
0.233079 -0.0371349 0.312124 0.14371 0.989558 -0.0110487
-0.395848 -0.0839837 0.333734 0.0625317 -0.998012 -0.00782824
-0.0835835 -0.0653728 0.454691 0.0623823 -0.998024 -0.00745593
-0.177421 -0.027635 0.413957 -0.14555 0.989273 -0.0123857
0.143713 -0.0697337 0.536166 -0.066244 -0.9977 -0.014376
0.0147235 0.0030843 0.695307 0.13209 0.947891 0.289922
0.0366553 0.00640163 0.601944 0.671734 0.740793 -0.000528184
0.275327 -0.0773537 0.456531 -0.0650633 -0.997807 -0.0121857
-0.371809 -0.0829796 0.417445 -0.468484 -0.114654 0.876
0.00177782 -0.0394999 0.0585338 0 0 -1
-0.0442535 0.0579052 0.0868288 0.0454173 -0.995342 -0.085041
0.0417356 -0.112185 0.668809 0.587796 -0.809009 0
0.196259 -0.03027 0.419135 0.135224 0.99001 -0.0399284
-0.445315 -0.068214 0.321735 -0.144306 0.989407 -0.0158139
-0.211357 -0.0728093 0.381449 0.0624142 -0.998022 -0.00753553
0.382015 -0.0591028 0.304793 0.145262 0.989379 -0.00531322
-0.0485092 -0.00435879 0.444626 -0.613356 0.789709 -0.0124025
-0.00533859 0.00596194 0.201371 -0.285957 0.839552 0.461933
-0.0108474 0.0202836 0.0923503 -0.997821 -0.0341385 -0.0564651
0.394934 -0.0777532 0.256533 -0.267498 0.0600327 -0.961686
-0.0393514 0.00429827 0.616415 -0.630137 0.77564 -0.0361959
-0.181245 -0.098567 0.55462 -0.0213589 -1.90894e-05 0.999772
-0.0754894 -0.0111131 0.523047 -0.158166 0.987233 0.0188443
-0.225856 -0.0745277 0.496601 -0.4738 -0.0522804 0.879079
-0.0508562 -0.0738284 0.281812 -0.880117 -0.455743 -0.133017
0.0563896 -0.0339266 0.328244 0.826497 0.554427 -0.097536
-0.384234 -0.0830942 0.305486 0.0619228 -0.998075 -0.00331815
-0.00908232 0.0380178 0.0529124 -0.998365 -0.0198478 -0.0536084
0.0732424 -0.055756 0.578891 0.470429 0.0452439 0.881277
0.115439 -0.029906 0.334943 -0.282458 -0.103122 -0.953721
-0.236014 -0.0372177 0.342496 -0.145387 0.989275 -0.0140381
0.0587981 -0.0674635 0.312553 0.880117 -0.455743 -0.133017
0.332975 -0.0799765 0.314922 -0.0613943 -0.998105 -0.00415696
0.433461 -0.0655981 0.346619 0.13413 0.990049 -0.042576
0.0549394 -0.0681296 0.289304 0.880117 -0.455743 -0.133017
0.227048 -0.0353691 0.3805 0.145535 0.989261 -0.0134943
-0.0105941 0.0552494 0.0742602 -0.997691 -0.0243325 -0.0634007
-0.0568765 -0.00974673 0.424975 -0.145936 0.989221 -0.012028
-0.0919771 0.0591575 0.0467715 0.0456166 -0.995243 -0.0860892
-0.266953 -0.0421035 0.309548 -0.146173 0.989196 -0.0111762
0.0453228 -0.0220752 0.706256 0.585177 0.304513 0.751558
-0.384398 -0.058009 0.369192 -0.151222 0.988499 -0.000889937
-0.176542 -0.0739054 0.552728 0.02154 0 -0.999768
0.0683942 -0.0642139 0.42664 -0.0623823 -0.998024 -0.00745593
0.0631303 -0.0715093 0.367216 0.903464 -0.428554 -0.00966212
0.051835 -0.0992975 0.438976 0.918736 -0.39427 -0.0218066
-0.162662 -0.0971659 0.543966 -0.0728297 -0.0235945 0.997065
-0.0206941 -0.117937 0.359081 -0.554891 -0.829003 -0.0696473
-0.00869717 -0.12875 0.685478 0 -1 0
0.143595 -0.0936332 0.553316 0.0214361 -0.000106041 0.99977
-0.00896725 0.0996815 0.0296146 -0.998584 -0.0188042 -0.0497556
-0.241095 -0.0742307 0.307348 0.0624046 -0.998039 -0.00497854
-0.0724988 0.0681046 0.0197076 0.0632242 -0.381847 -0.92206
-0.00540983 0.0743119 0.134279 -0.216117 0.573368 0.79028
0.180921 -0.028691 0.373645 0.144608 0.989345 -0.0168983
0.355269 -0.0812731 0.297 -0.0613943 -0.998105 -0.00415696
0.147163 -0.0412651 0.538488 0.475 0.226262 0.8504
0.0116055 0.0964865 0.0746665 0.997608 -0.0204232 -0.0660318
0.176212 -0.108302 0.519669 -0.0363407 -0.998946 -0.0280235
-0.390716 -0.0602863 0.318483 -0.146947 0.98911 -0.00829362
-0.0177003 -0.0555709 0.0656014 -0.578984 -0.796915 -0.172348
-0.0399044 -0.0992087 0.325121 -0.526878 -0.82406 -0.208144
0.0804829 -0.0129114 0.45081 0.145548 0.989274 -0.0123856
0.0116012 0.0202998 0.105661 0.997821 -0.0341385 -0.0564651
-0.0163534 -0.12875 0.539038 0 -1 0
-0.00996406 0.00288774 0.0846223 -0.998564 -0.027251 -0.0461284
0.219932 -0.0735848 0.413164 -0.0616087 -0.998085 -0.00550521
0.059956 -0.0552782 0.278465 0.880117 -0.455743 -0.133017
-0.391819 -0.0607871 0.259204 -0.145262 0.989379 -0.00531321
-0.0152063 0.00700532 0.187533 -0.996838 -0.0664827 -0.0435123
0.416526 -0.085588 0.370701 -0.0631456 -0.997978 -0.00730497
0.169271 -0.0973794 0.536029 0.0729092 -0.0235838 0.99706
0.0397357 0.00360148 0.59231 0.671734 0.740793 -0.000528184
-0.187256 -0.0713338 0.385601 0.0623771 -0.998024 -0.00753584
-0.0328115 -0.0213602 0.144848 -0.670641 0.73919 -0.0619578
0.0998292 -0.0146888 0.505582 0.158383 0.987235 0.0168014
0.259562 -0.0761431 0.433372 -0.0620103 -0.998059 -0.00574877
0.324392 -0.0796001 0.345137 -0.0624201 -0.99802 -0.00768531
0.0588118 -0.0872018 0.504391 0.901901 -0.431944 0
0.0567797 0.0708449 0.0644 0.0656048 0.994134 0.0859912
0.0429566 -0.0859892 0.28051 0.526877 -0.824061 -0.208144
0.0265766 0.0592892 0.134434 0.49423 0.497946 0.712591
0.142952 -0.0226518 0.40692 0.14555 0.989273 -0.0123857
-0.050351 -0.10483 0.691999 -0.903398 -0.424875 0.0579115
0.338411 -0.0806669 0.370086 -0.0622806 -0.998038 -0.00634912
-0.43144 -0.0653739 0.385277 -0.154651 0.987887 0.0127766
0.451407 -0.087119 0.269942 -0.0616862 -0.998092 -0.00250869
0.0375342 -0.0873778 0.270991 0.530224 -0.829297 -0.176431
-0.0216566 -0.00275947 0.260985 -0.552704 0.83037 -0.070735
-0.0271871 0.0745416 0.0259583 -0.0319597 0.997839 0.0574169
0.0608448 -0.0841383 0.680104 0.903398 -0.424875 0.0579115
-0.225127 -0.0341604 0.420442 -0.135224 0.99001 -0.0399284
0.116305 -0.0680374 0.545372 -0.0667075 -0.997656 -0.0152454
-0.010931 0.0390471 0.08605 -0.997968 -0.0215037 -0.0599758
-0.0108374 -0.12875 0.577933 0 -1 0
0.0328396 -0.0880212 0.758095 0.853507 -0.440903 0.277722
-0.402407 -0.0618532 0.32815 -0.144306 0.989407 -0.0158139
-0.263071 -0.0394036 0.418984 -0.155905 0.987714 0.0106685
0.333972 -0.0663482 0.439797 0.453882 -0.111081 0.884111
0.0189151 -0.074343 0.799593 0.44906 -0.375319 0.810852
-0.173938 -0.0706367 0.40352 0.0623771 -0.998024 -0.00753584
0.0618518 -0.0508926 0.307366 0.980522 0.188781 -0.0542121
0.0716632 -0.0364441 0.348615 -0.282458 -0.103122 -0.953721
0.381466 -0.0829608 0.315305 -0.0613943 -0.998105 -0.00415696
-0.0629127 -0.0829676 0.641361 -0.884283 -0.463708 0.0549366
0.0645469 -0.070212 0.428387 0.911855 -0.4104 -0.00957673
-0.177185 -0.064117 0.495297 -0.991949 -0.0659259 -0.108128
-0.0316589 -0.0684638 0.164804 -0.532683 -0.827759 -0.17625
-0.424813 -0.0717152 0.248361 0.273016 0.00861499 -0.961971
-0.0602315 -0.00924819 0.552846 -0.158292 0.987186 0.0201692
0.275332 -0.0487355 0.469472 0.465759 0.177266 0.866975
0.014568 0.114514 0.102105 0 0.848412 0.529336
0.018308 -0.12875 0.533679 0 -1 0
-0.0245183 -0.00398936 0.26772 -0.557043 0.822408 -0.115534
0.0296772 -0.0639798 0.140734 0.576002 -0.792797 -0.199236
0.462628 -0.0712445 0.258469 0.14602 0.989278 -0.00249833
-0.383615 -0.0828876 0.411143 -0.468484 -0.114654 0.876
-0.0084207 0.117919 0.011753 -0.998584 -0.0188042 -0.0497556
0.0325486 -0.030465 0.0985405 0.895538 0.416357 -0.157029
0.458899 -0.0831084 0.238151 -0.258523 0.132298 -0.956903
-0.0914918 -0.0171176 0.340529 0.27925 -0.113297 -0.953511
0.0757914 0.0660987 0.0908319 0.10401 0.988318 0.111398
0.167761 -0.070628 0.466293 -0.0616587 -0.998085 -0.0049626
0.085078 0.056732 0.0956473 0.49422 0.497829 0.712681
-0.00736611 0.0158205 0.634071 -0.233583 0.97185 0.0307552
0.271179 -0.041071 0.451423 0.156466 0.987546 0.0164556
-0.127909 -0.0212927 0.353145 -0.144608 0.989345 -0.0168983
-0.233565 -0.0740251 0.357102 0.0618758 -0.998067 -0.00581845
0.0482926 -0.090353 0.316646 0.893796 -0.423968 -0.146221
0.114164 -0.067562 0.520299 -0.0614074 -0.998105 -0.00388036
-0.142692 -0.0482626 0.328739 0.277802 -0.0431041 -0.959671
0.165149 -0.0692789 0.480523 -0.999029 -0.00242855 0.0439789
-0.175499 -0.0713156 0.498632 0.0662088 -0.997716 -0.013358
0.0564604 -0.0467719 0.205927 0.869175 0.49448 -0.00493649
0.00544913 -0.0565693 0.796594 0.481182 0.718614 0.502053
-0.13237 -0.0681034 0.412189 0.0623946 -0.998023 -0.00749395
-0.0835591 -0.0657201 0.530854 0.0614074 -0.998105 -0.00388036
0.118376 -0.0195073 0.376098 0.144609 0.989345 -0.0168984
-0.0307713 0.00606597 0.411606 -0.296988 0.954881 0
0.173409 -0.114455 0.552795 -0.0214079 -4.76593e-05 -0.999771
-0.414364 -0.0854638 0.372419 0.0631456 -0.997978 -0.00730497
-0.0104656 0.0441127 0.0764161 -0.998359 -0.0201213 -0.0536058
0.177543 -0.0706804 0.502488 0.993012 -0.0558301 -0.103977
-0.408378 -0.0630127 0.301701 -0.147733 0.989012 -0.00542131
0.0204035 0.0625477 0.0385451 -0.0415903 -0.99697 -0.0657327
-0.241723 -0.0372402 0.400599 -0.135228 0.989981 -0.0406274
-0.021797 -0.0612101 0.105438 -0.578988 -0.796912 -0.17235
0.0447704 -0.000737186 0.602849 0.630137 0.77564 -0.0361959
-0.266617 -0.0453949 0.292441 0.27377 -0.0650792 -0.959591
0.418011 -0.0853144 0.326349 -0.0625317 -0.998012 -0.00782824
0.0156344 -0.0374415 0.748483 0.50885 0.811188 0.288176
0.376947 -0.0826314 0.302253 -0.0619228 -0.998075 -0.00331815
-0.160604 -0.0250655 0.421569 -0.14555 0.989273 -0.0123857
0.20911 -0.0315577 0.472716 0.157072 0.98745 0.0164768
-0.0498901 -0.00802077 0.655787 -0.719421 0.687037 0.102044
0.0143898 0.0199426 0.153669 0.996388 -0.0589622 -0.061105
-0.174163 -0.107524 0.538511 0.0250761 -0.992211 0.122018
-0.0496413 -0.10635 0.483841 -0.901901 -0.431944 0
-0.394551 -0.0609639 0.30094 -0.145262 0.989379 -0.00531321
0.00455755 -0.124884 0.708861 0.0391743 -0.987047 0.155571
0.0524601 -0.0839655 0.707833 0.760818 -0.436451 0.480277
0.064874 -0.0404427 0.649635 0.961808 0.259391 0.0874167
-0.442886 -0.0669203 0.349341 -0.146984 0.989074 -0.0112931
-0.0614382 -0.0764841 0.407855 -0.911662 -0.410313 -0.0226944
0.0463478 -0.00290129 0.430537 0.613356 0.789709 -0.0124025
-0.00552276 0.011062 0.32958 -0.381862 0.919342 -0.0948229
0.112882 -0.0532359 0.337662 -0.28166 -0.0437028 -0.958518
-0.0621426 -0.0156365 0.577963 -0.466911 0.28 0.838805
-0.168745 -0.0749376 0.478461 -0.0119333 0.958737 -0.284045
-0.0373463 -0.0461355 0.735212 -0.495368 0.816499 0.296545
-0.105396 -0.0164303 0.549914 -0.158292 0.987186 0.0201692
0.212395 -0.0330731 0.391342 0.145381 0.989292 -0.0128555
0.13976 -0.0899031 0.551404 -0.0214383 0.000106892 -0.99977
0.122811 -0.0189264 0.451295 0.135452 0.990001 -0.0393804
0.000768943 0.117048 0.00276276 0.0765863 -0.390615 -0.917363
0.0658709 -0.0587307 0.692842 0.961919 0.258984 0.0874048
0.438006 -0.0661853 0.350203 0.146984 0.989074 -0.0112931
-0.0271791 -0.0600275 0.782035 -0.469591 0.740478 0.480808
0.00815747 0.103881 0.0117762 0.998584 -0.0188046 -0.0497569
-0.346517 -0.0600153 0.432986 -0.462492 0.113836 0.879285
0.0422719 -0.0728584 0.213567 0.852589 -0.515626 -0.0849839
-0.0407855 0.0680284 0.103899 -0.0772741 0.990548 0.113327
-0.0745935 -0.0432084 0.577525 -0.470429 0.0452439 0.881277
-0.320848 -0.0532384 0.277468 0.277265 -0.0367074 -0.960092
-0.0501567 -0.10541 0.602533 -0.880066 -0.474851 0
0.460268 -0.0696051 0.340437 0.146984 0.989074 -0.0112931
0.0195093 -0.112112 0.736111 0.546189 -0.787736 0.284867
-0.104605 -0.0151599 0.488241 -0.158383 0.987235 0.0168014
0.457895 -0.0693116 0.369314 0.154298 0.987969 0.0104764
0.0419346 0.00376685 0.534321 0.659324 0.751849 0.00394554
0.0386674 0.0707466 0.0768946 0.0458923 0.995108 0.0874898
-0.0922942 0.0708302 0.0475343 -0.0732251 0.971091 0.227202
-0.0500363 -0.10182 0.407892 -0.911662 -0.410313 -0.0226944
0.112393 -0.0185405 0.381505 0.144609 0.989345 -0.0168984
-0.0120335 0.0162544 0.115745 -0.997821 -0.0341385 -0.0564651
0.467783 -0.0831936 0.354801 0.764129 -0.645029 -0.00666632
-0.33271 -0.0511638 0.360447 -0.144809 0.989355 -0.0144183
0.0167905 0.0042919 0.309318 0.381862 0.919342 -0.0948229
0.072474 -0.0122212 0.410708 0.145936 0.989221 -0.012028
-0.275726 -0.0765998 0.350105 0.0616372 -0.998086 -0.00498299
0.0392205 0.00604643 0.543657 0.684167 0.728953 0.0232986
-0.0669706 -0.0747028 0.597006 -0.866443 -0.498404 -0.0294992
0.0604351 -0.0863606 0.570278 0.880066 -0.474851 0
-0.301854 -0.075663 0.455572 -0.473811 -0.0522817 0.879073
-0.115228 -0.0666211 0.354022 0.0628813 -0.997999 -0.00663934
0.106866 -0.0175845 0.390175 0.144609 0.989345 -0.0168984
0.184844 -0.093453 0.482998 0.925093 -0.337278 -0.17449
-0.0136384 0.0030877 0.157678 -0.996388 -0.058961 -0.0611076
-0.0361504 0.00704913 0.632425 -0.630493 0.776079 0.0134564
-0.249431 -0.0681181 0.484275 -0.4738 -0.0522804 0.879079
0.0418487 -0.112102 0.606725 0.587796 -0.809009 0
-0.167774 -0.0699955 0.367764 0.0621189 -0.998047 -0.00664461
0.280616 -0.077118 0.378563 -0.0624372 -0.99802 -0.00760287
-0.300923 -0.0520636 0.456404 -0.465759 0.177266 0.866975
0.0787907 -0.0112032 0.499098 0.158383 0.987235 0.0168014
0.315474 -0.0671671 0.449191 0.453882 -0.111081 0.884111
-0.0527851 -0.0830496 0.708151 -0.760818 -0.436451 0.480277
0.260853 -0.043588 0.476251 0.475375 0.181407 0.860877
0.37841 -0.0826683 0.286074 -0.0619228 -0.998075 -0.00331815
-0.171526 -0.0464612 0.320172 0.281332 -0.0875179 -0.955611
-0.473351 -0.0719415 0.344298 -0.904295 -0.409032 -0.122242
0.0375036 -0.111399 0.416451 0.555655 -0.830144 -0.0459144
0.271819 -0.0428107 0.310598 0.146173 0.989196 -0.0111762
-0.0738808 -0.064239 0.384129 0.0623505 -0.998026 -0.00745629
0.3681 -0.0826355 0.385283 -0.0628699 -0.997999 -0.00676865
-0.209018 -0.0311432 0.444118 -0.155905 0.987714 0.0106685
-0.0610259 -0.0379922 0.6799 -0.86764 0.489712 0.0859258
0.260837 -0.0754688 0.308093 -0.0624046 -0.998039 -0.00497854
0.254532 -0.0754412 0.372601 -0.0623929 -0.998023 -0.00760327
-0.0957802 0.0611175 0.0233578 0.0344622 -0.994017 -0.103646
-0.279297 -0.0435339 0.344398 -0.146173 0.989196 -0.0111762
-0.0136893 -0.12875 0.480309 0 -1 0
-0.324464 -0.0553403 0.276504 0.277265 -0.0367074 -0.960092
-0.0473762 -0.101102 0.352033 -0.521524 -0.851934 -0.0471203
-0.0726028 -0.0642268 0.393183 0.0623505 -0.998026 -0.00745629
-0.0202862 -0.121555 0.398897 -0.554891 -0.829003 -0.0696473
-0.0449453 -0.0227921 0.29456 -0.826497 0.554427 -0.097536
-0.157619 -0.0788428 0.483042 0.56129 0.826733 -0.0382813
-0.357518 -0.0539964 0.403046 -0.15538 0.987772 0.0128089
-0.381065 -0.0832969 0.365103 0.0622806 -0.998038 -0.00634913
-0.200861 -0.0638362 0.312434 0.276587 -0.0290469 -0.96055
0.0632972 -0.0778361 0.507463 0.901901 -0.431944 0
0.058576 -0.044488 0.705879 0.834436 0.174798 0.522649
-0.0527703 0.0609496 0.0445327 0.0433041 -0.996288 -0.0744011
-0.054033 0.0709268 0.0655487 -0.0656048 0.994134 0.0859912
0.00916521 0.109167 0.0300032 0.998584 -0.0188046 -0.0497569
-0.160753 -0.0237283 0.461081 -0.135452 0.990001 -0.0393804
-0.0239827 0.00948471 0.442571 -0.296729 0.954047 -0.0417955
-0.371154 -0.0822244 0.287956 0.0619228 -0.998075 -0.00331815
-0.187085 -0.0286475 0.506196 -0.157732 0.98732 0.0179066
0.0540748 -0.090177 0.699631 0.760818 -0.436451 0.480277
0.0816264 -0.0125113 0.544603 0.158299 0.987206 0.0191335
-0.20444 -0.0659191 0.508329 -0.466013 -0.00890004 0.884733
-0.178808 -0.0722584 0.517087 -0.614303 0.788364 -0.0333813
-0.434438 -0.0769997 0.386405 -0.405899 -0.348104 0.845027
0.173466 -0.0260977 0.485351 0.15722 0.987421 0.0167963
0.0148626 -0.01275 0.0797894 0.508462 0.859216 -0.0566944
0.0654318 -0.00995968 0.546857 0.158292 0.987186 0.0201692
-0.00120781 -0.0865411 0.195991 0 -0.982967 -0.183784
0.174078 -0.108044 0.534267 -0.0250161 -0.992221 0.121948
-0.0060668 -0.125512 0.704501 -0.0391744 -0.987047 0.155571
0.223839 -0.034333 0.411912 0.135228 0.989981 -0.0406274
-0.0103662 0.00542729 0.294793 -0.374048 0.922287 -0.0973388
-0.0470267 -0.0147311 0.692627 -0.668163 0.716696 0.199763
0.323323 -0.0798794 0.394208 -0.0618947 -0.998068 -0.00548394
-0.238151 -0.0745639 0.3919 0.0624142 -0.998022 -0.00753553
-0.111898 -0.0673654 0.506183 0.0613876 -0.998104 -0.00435099
0.462405 -0.06983 0.349077 0.14911 0.98882 -0.000720578
-0.237265 -0.0549019 0.301623 0.279747 -0.0664999 -0.957768
-0.361106 -0.0562286 0.268343 -0.145262 0.989379 -0.00531321
0.0973524 0.0535619 0.0852257 -0.121749 -0.982921 -0.138001
0.377849 -0.0829985 0.351971 -0.0624152 -0.998022 -0.00753935
-0.408919 -0.0845294 0.279737 0.0611568 -0.998123 -0.00332173
-0.308897 -0.0527279 0.452256 -0.465759 0.177266 0.866975
-0.189259 -0.0280937 0.449387 -0.135452 0.990001 -0.0393804
0.351103 -0.0810612 0.307633 -0.0613943 -0.998105 -0.00415696
0.163769 -0.0638098 0.323275 -0.280992 -0.0295095 -0.959256
0.357897 -0.0815085 0.314706 -0.0613943 -0.998105 -0.00415696
-0.184563 -0.103484 0.540322 -0.561556 -0.823261 0.0830381
-0.050116 -0.0370284 0.188043 -0.877671 0.448058 -0.170113
-0.0236974 -0.12529 0.646532 -0.587794 -0.80901 0
0.0683677 -0.0595246 0.667795 0.961787 0.259369 0.087718
-0.245633 -0.0388215 0.324354 -0.14371 0.989558 -0.0110487
-0.0619999 -0.045421 0.696007 -0.961919 0.258984 0.0874048
0.0199623 -0.0015384 0.265669 0.374048 0.922287 -0.0973388
-0.0646874 -0.0688672 0.395622 -0.903464 -0.428554 -0.00966212
-0.392316 -0.0594284 0.39982 -0.15538 0.987772 0.0128089
0.00965361 0.00911307 0.32732 0.381862 0.919342 -0.0948229
0.152139 -0.0919996 0.553133 0.0214361 -0.000106041 0.99977
0.464973 -0.0782895 0.27925 0.924661 -0.379965 -0.0250704
-0.448128 -0.0875959 0.371512 0.0634537 -0.997942 -0.009215
-0.013694 0.00031108 0.212854 -0.239224 0.969561 -0.0521858
-0.0590245 -0.0890732 0.652412 -0.884283 -0.463708 0.0549366
0.29069 -0.0453853 0.329526 0.146173 0.989196 -0.0111762
0.0932956 -0.0143143 0.541084 0.158299 0.987206 0.0191335
0.0371385 0.00597598 0.579596 0.671104 0.740733 0.030561
0.0441136 -0.0484189 0.165532 0.828498 -0.462078 -0.316347
-0.386518 -0.0832399 0.306688 0.0619228 -0.998075 -0.00331815
-0.0142692 -0.12568 0.437238 0 -0.996488 -0.0837331
0.0136541 -0.0693233 0.115597 0.57899 -0.79691 -0.17235
0.0436933 -0.106382 0.404777 0.554891 -0.829003 -0.0696473
0.22741 -0.0347877 0.412717 0.135228 0.989981 -0.0406274
-0.0712164 -0.0628634 0.583256 -0.993886 0.0955878 0.0552549
0.159476 -0.0701463 0.472355 -0.0616587 -0.998085 -0.0049626
-0.0613794 -0.0328573 0.654562 -0.912189 0.400389 0.0871792
0.0620688 -0.0759976 0.440375 0.911855 -0.4104 -0.00957673
0.448203 -0.0677084 0.349526 0.146984 0.989074 -0.0112931
0.0109434 -0.0818471 0.170885 0 -0.982966 -0.183788
-0.114076 0.068326 0.051768 -0.0821822 0.988767 0.12484
-0.0121316 -0.0892392 0.210422 0 -0.982967 -0.183784
0.00554409 -0.12875 0.506233 0 -1 0
0.0389694 0.00330549 0.432075 0.662788 0.747841 -0.038009
0.0420107 -0.0647314 0.748838 0.94838 0.155624 0.276326
0.167617 -0.0957129 0.460611 -0.0729748 0.0235748 -0.997055
0.318209 -0.0495322 0.319924 0.144483 0.989474 -0.00817594
0.0672139 0.0693914 0.0732435 0.0656048 0.994134 0.0859912
-0.305721 -0.0783083 0.321235 0.0621599 -0.998058 -0.00415296
0.188035 -0.0299952 0.355062 0.142933 0.989635 -0.0139011
-0.291624 -0.0779207 0.395497 0.0618947 -0.998068 -0.00548394
-0.0965691 -0.0140645 0.499627 -0.158383 0.987235 0.0168014
-0.201213 -0.0718454 0.327245 0.0618758 -0.998067 -0.00581845
-0.313519 -0.0487296 0.332101 -0.146173 0.989196 -0.0111762
-0.452283 -0.0874263 0.321617 0.0630603 -0.997968 -0.00916109
0.0371224 -0.115536 0.617008 0.587796 -0.809009 0
0.250766 -0.0388999 0.377465 0.145535 0.989261 -0.0134943
0.405198 -0.0614356 0.354374 0.13413 0.990049 -0.042576
-0.294494 -0.0462832 0.294046 -0.144483 0.989474 -0.00817594
0.0796825 -0.0116409 0.515504 0.158166 0.987233 0.0188443
0.130955 -0.0199015 0.518009 0.157774 0.98729 0.0191188
0.160923 -0.100736 0.479257 -0.607825 -0.74347 -0.278928
0.0334674 -0.118192 0.665361 0.587796 -0.809009 0
0.458591 -0.070639 0.262315 0.14602 0.989278 -0.00249833
0.0530129 -0.0069003 0.543712 0.684167 0.728953 0.0232986
-0.0472943 -0.0041555 0.408812 -0.61269 0.788852 -0.0482051
-0.0650282 -0.0673813 0.36159 -0.903464 -0.428554 -0.00966212
-0.0256183 -0.0938896 0.770475 -0.769255 -0.404816 0.494338
0.32017 -0.0501525 0.279519 0.144483 0.989474 -0.00817594
0.0414501 -0.0677975 0.752489 0.94838 0.155624 0.276326
-0.0637162 -0.0759837 0.695139 -0.903398 -0.424875 0.0579115
-0.433759 -0.0668146 0.299728 -0.147733 0.989012 -0.00542131
0.187717 -0.101488 0.538789 0.56157 -0.823254 0.0830201
-0.0243745 -0.124798 0.612578 -0.587794 -0.80901 0
0.163149 -0.0257096 0.400322 0.145708 0.989244 -0.0128596
0.0360476 -0.0639539 0.167099 0.828498 -0.462078 -0.316347
-0.0649746 -0.0755771 0.678491 -0.903398 -0.424875 0.0579115
-0.0109183 0.102289 0.0625347 -0.99759 -0.0203339 -0.0663441
-0.0452382 0.000351933 0.545114 -0.684167 0.728953 0.0232986
0.0083736 0.0129055 0.494309 0.233215 0.971826 0.0341356
0.387044 -0.0832056 0.286562 -0.0619228 -0.998075 -0.00331815
-0.267481 -0.0404455 0.408195 -0.134944 0.990021 -0.0406144
0.434632 -0.0656556 0.367158 0.154298 0.987969 0.0104764
-0.199863 -0.0304912 0.495516 -0.157166 0.98741 0.0178889
-0.246301 -0.0375983 0.479815 -0.157166 0.98741 0.0178889
-0.00910322 0.0367273 0.0537795 -0.998365 -0.0198478 -0.0536084
0.0537558 -0.0288523 0.70122 0.86764 0.489712 0.0859258
0.459458 -0.0876785 0.294596 -0.0616862 -0.998092 -0.00250869
0.182279 -0.0795766 0.481178 0.604666 0.786687 -0.124507
-0.0396941 -0.113668 0.656603 -0.587794 -0.80901 0
0.131948 -0.0684101 0.462721 -0.0611397 -0.99812 -0.00432412
0.191926 -0.0416468 0.513587 0.475 0.226262 0.8504
0.372857 -0.0646726 0.263169 -0.273005 0.00861464 -0.961974
0.146249 -0.0542835 0.539523 0.468694 0.0220537 0.883085
-0.314248 -0.0513589 0.449102 -0.465759 0.177266 0.866975
-0.134583 -0.0211672 0.42715 -0.14555 0.989273 -0.0123857
-0.175038 -0.0920193 0.53368 0.0165919 -0.640794 -0.767533
0.381997 -0.0576454 0.369416 0.134595 0.990033 -0.0414535
-0.44571 -0.0682429 0.323526 -0.144306 0.989407 -0.0158139
-0.288333 -0.0777229 0.396657 0.0618947 -0.998068 -0.00548394
0.237871 -0.0371893 0.363789 0.145535 0.989261 -0.0134943
-0.012002 0.101903 0.0789823 -0.997608 -0.0204225 -0.0660345
0.441517 -0.0666765 0.362022 0.154298 0.987969 0.0104764
-0.437354 -0.0863543 0.304583 0.0611568 -0.998123 -0.00332173
0.0434739 -0.0039674 0.667599 0.703068 0.672023 0.232554
0.0882041 0.0577853 0.061298 -0.0794881 -0.989762 -0.118548
0.452494 -0.0763887 0.240523 -0.253582 0.0793544 -0.964053
0.059034 0.0622815 0.0246871 -0.033586 -0.995621 -0.0872383
-0.0103185 0.0881374 0.0576979 -0.998341 -0.0164663 -0.055173
0.049102 -0.0548392 0.723844 0.817087 0.0780769 0.571204
0.430227 -0.0663957 0.279916 0.147733 0.989012 -0.00542131
0.0345811 -0.0580128 0.148655 0.890143 -0.419011 -0.179095
-0.0320583 -0.119216 0.681885 -0.587794 -0.80901 0
0.0434437 0.0605229 0.0551179 -0.0329386 -0.996628 -0.07515
0.117341 0.0719118 0.0196078 0.0332024 0.996233 0.0801072
0.0735314 0.0659325 0.0944159 0.10401 0.988318 0.111398
-0.328044 -0.0506372 0.349615 -0.145286 0.989284 -0.0144322
-0.0202033 -0.0777544 0.79442 -0.725368 -0.576558 0.376061
0.0569399 -0.0928385 0.574575 0.880066 -0.474851 0
0.057547 -0.0175187 0.626309 0.915246 0.39162 0.0946441
-0.0643998 -0.0466749 0.67331 -0.961919 0.258984 0.0874048
0.120814 -0.0676195 0.443928 -0.0623823 -0.998024 -0.00745593
0.00332826 0.0146451 0.479254 0.233215 0.971826 0.0341356
0.162671 -0.0699572 0.406784 -0.0623771 -0.998024 -0.00753584
-0.348728 -0.0525485 0.389482 -0.152239 0.988326 0.00601741
-0.0720654 -0.0608401 0.610216 -0.963949 0.260397 -0.0547353
-0.233123 -0.0744047 0.414206 0.0616087 -0.998085 -0.00550521
0.055734 -0.0936282 0.50299 0.901901 -0.431944 0
-0.464846 -0.0748395 0.240257 -0.953655 -0.298431 -0.0384754
-0.0599364 -0.0246061 0.632529 -0.915246 0.39162 0.0946441
0.0142484 0.0889014 0.109117 0.996313 -0.0450948 -0.0729831
-0.0119883 0.031247 0.106877 -0.998026 -0.0278994 -0.056262
0.143217 -0.0684441 0.364325 -0.0621189 -0.998047 -0.00664461
-0.0424984 -0.0228269 0.246888 -0.824553 0.565432 0.0200024
0.205902 -0.0729167 0.452367 -0.0619458 -0.998067 -0.00494294
0.0321684 0.0551397 0.129568 -0.0788735 -0.99415 -0.0737921
0.107853 -0.0157898 0.49464 0.158383 0.987235 0.0168014
0.0349589 -0.0840763 0.243373 0.49494 -0.856705 -0.14523
-0.202112 -0.0718669 0.321365 0.0618758 -0.998067 -0.00581845
-0.252284 -0.0750574 0.332827 0.0624046 -0.998039 -0.00497854
-0.00280592 0.0226343 0.173198 -0.16798 0.840503 0.51511
0.0826609 0.0647521 0.0917211 0.49422 0.497829 0.712681
-0.348605 -0.0541941 0.298926 -0.146947 0.98911 -0.00829362
0.0112361 -0.12875 0.478122 0 -1 0
0.0636759 -0.0803542 0.588284 0.880066 -0.474851 0
0.157482 -0.0805656 0.531052 -0.937303 0.341514 0.0695065
0.435384 -0.065974 0.383939 0.154651 0.987887 0.0127766
0.0553892 -0.0803777 0.706454 0.760818 -0.436451 0.480277
-0.0505136 -0.0144955 0.342977 -0.910096 0.369244 -0.188104
0.118026 -0.0672415 0.416767 -0.0623615 -0.998025 -0.0074942
-0.100455 -0.0153527 0.535431 -0.158299 0.987206 0.0191335
-0.00253981 0.0915315 0.122571 -0.216117 0.573368 0.79028
0.0438406 -0.000111818 0.44978 0.662788 0.747841 -0.038009
0.00849578 0.0297151 0.0450644 0.998365 -0.0198474 -0.0536075
-0.187776 -0.0710989 0.343333 0.0626418 -0.998019 -0.00581358
0.0746536 -0.0641783 0.369539 -0.0623505 -0.998026 -0.00745629
0.365933 -0.082539 0.391186 -0.0628699 -0.997999 -0.00676865
-0.30826 -0.0468691 0.387177 -0.134908 0.98999 -0.0414761
0.0341434 -0.00267025 0.323634 0.568552 0.814635 -0.114536
-0.00895545 0.0833793 0.0344533 -0.998341 -0.0164663 -0.055173
0.05362 -0.00811509 0.604871 0.848142 0.52922 -0.0241232
0.0231657 -0.111664 0.334057 0.51146 -0.835493 -0.200898
-0.0322317 -0.0778633 0.773308 -0.769255 -0.404816 0.494338
-0.0152734 -0.00364578 0.177486 -0.573848 0.813605 -0.0935204
-0.0278297 -0.00994929 0.224816 -0.552704 0.83037 -0.070735
0.0270303 0.0714146 0.0764745 0.0569539 0.99621 0.0657402
-0.0251536 0.00953183 0.451959 -0.296729 0.954047 -0.0417955
-0.0594522 -0.0216503 0.624981 -0.915246 0.39162 0.0946441
0.0369831 -0.115637 0.630215 0.587796 -0.809009 0
-0.170005 -0.0258218 0.500842 -0.157732 0.98732 0.0179066
0.213909 -0.0319493 0.447271 0.155905 0.987714 0.0106684
0.167048 -0.0698939 0.359292 -0.0621189 -0.998047 -0.00664461
-0.23463 -0.0352111 0.426571 -0.135224 0.99001 -0.0399284
0.153179 -0.089318 0.49938 -0.961505 -0.272549 -0.0349979
-0.221429 -0.0733249 0.366039 0.0618758 -0.998067 -0.00581845
-0.185972 -0.0297109 0.354083 -0.142933 0.989635 -0.0139011
0.301265 -0.0782097 0.352406 -0.0624201 -0.99802 -0.00768531
0.0005482 -0.0770778 0.145377 0 -0.982966 -0.183788
-0.0967816 0.0659169 0.0756712 -0.136937 0.977444 0.160786
-0.0212087 0.00433633 0.327542 -0.381862 0.919342 -0.0948229
-0.0271882 -0.102899 0.746864 -0.546187 -0.787737 0.284868
-0.0357272 0.0556946 0.118288 0.0788737 -0.99415 -0.0737923
0.019108 0.0687876 0.0230894 -0.0632588 -0.381858 -0.922054
0.352996 -0.0538478 0.365952 0.134595 0.990033 -0.0414535
-0.0535491 -0.041895 0.192938 -0.877671 0.448058 -0.170113
0.0342245 0.0614173 0.0472972 -0.0329386 -0.996628 -0.07515
0.211976 -0.0320608 0.475541 0.157072 0.98745 0.0164768
0.257578 -0.0763725 0.471395 -0.0656101 -0.997771 -0.0121847
-0.0533823 -0.0243848 0.337444 -0.910096 0.369244 -0.188104
-0.00897688 0.104417 0.0280178 -0.998584 -0.0188042 -0.0497556
0.275449 -0.0430154 0.33996 0.146173 0.989196 -0.0111762
0.061142 -0.0110869 0.577001 0.466911 0.28 0.838805
0.178876 -0.0713935 0.51856 0.996625 -0.0312242 -0.0759243
-0.00912035 -0.00383358 0.0703288 -0.998564 -0.027251 -0.0461284
-0.0617563 -0.032849 0.650581 -0.912189 0.400389 0.0871792
0.333252 -0.0504811 0.424516 0.156304 0.987598 0.0148061
-0.0434392 0.000241107 0.589328 -0.671734 0.740793 -0.000528184
-0.0701145 -0.0679995 0.558863 -0.883772 -0.467802 -0.0104278
0.0111624 0.0360272 0.0909843 0.997968 -0.0214998 -0.059978
-0.165945 -0.0683052 0.498503 0.999009 -0.00253802 0.0444447
0.00365214 0.0113883 0.325474 0.374048 0.922287 -0.0973388
-0.215838 -0.0323529 0.454184 -0.156 0.987656 0.0141523
-0.0214065 -0.126955 0.672167 -0.587794 -0.80901 0
-0.263004 -0.0409465 0.359371 -0.145144 0.989319 -0.0134867
-0.0364681 0.00160495 0.672677 -0.703068 0.672023 0.232554
0.418051 -0.0851801 0.307129 -0.0611568 -0.998123 -0.00332173
0.0461222 -0.105492 0.413961 0.555655 -0.830144 -0.0459144
-0.0530503 -0.0928535 0.36686 -0.911662 -0.410313 -0.0226944
-0.116418 -0.0675817 0.49203 0.0613876 -0.998104 -0.00435099
-0.00925239 0.0787951 0.0411945 -0.998341 -0.0164663 -0.055173
0.200003 -0.0920926 0.552105 0.0214698 -2.38014e-06 0.99977
-0.0542892 -0.010084 0.585206 -0.848142 0.52922 -0.0241232
-0.144734 -0.022282 0.527235 -0.157774 0.98729 0.0191188
0.0530401 -0.0611671 0.250663 0.852589 -0.515626 -0.0849839
-0.453232 -0.0697608 0.292903 -0.147733 0.989012 -0.00542131
-0.234708 -0.047587 0.491531 -0.475375 0.181407 0.860877
-0.123008 0.0597645 0.0401937 -0.989796 -0.0599615 -0.12926
-0.0133673 0.0146787 0.622158 -0.233424 0.971187 -0.0480443
-0.171033 -0.110701 0.55484 -0.0215414 9.30651e-06 0.999768
-0.0397696 -0.082018 0.743742 -0.89578 -0.378588 0.232917
0.323639 -0.0794048 0.31656 -0.0621599 -0.998058 -0.00415296
0.313917 -0.0477798 0.447664 0.156466 0.987546 0.0164556
0.254348 -0.0380908 0.42491 0.155905 0.987714 0.0106684
0.0396836 -0.0951996 0.722647 0.89578 -0.378588 0.232917
0.209803 -0.0723772 0.327119 -0.0618758 -0.998067 -0.00581844
0.0896615 0.0536918 0.0910856 -0.121749 -0.982921 -0.138001
0.171814 -0.0584854 0.554823 0.0215413 -9.18242e-06 0.999768
0.345151 -0.0806774 0.303392 -0.0613943 -0.998105 -0.00415696
0.197754 -0.0294193 0.4488 0.156 0.987656 0.0141523
-0.227045 -0.035354 0.381587 -0.145535 0.989261 -0.0134943
-0.111274 0.068037 0.0559014 -0.0821822 0.988767 0.12484
0.394433 -0.0610397 0.283624 0.145262 0.989379 -0.00531322
0.104445 -0.0668938 0.503147 -0.0613876 -0.998104 -0.00435098
0.0604992 -0.00838455 0.505903 0.158383 0.987235 0.0168014
-0.225122 -0.0736486 0.378639 0.0623929 -0.998023 -0.00760327
0.364482 -0.0556073 0.361292 0.134493 0.989998 -0.0426151
0.190853 -0.0299732 0.38624 0.145708 0.989244 -0.0128596
-0.115741 -0.0670154 0.405666 0.0623615 -0.998025 -0.0074942
0.0880259 -0.0468532 0.570542 0.470429 0.0452439 0.881277
-0.453964 -0.069982 0.252038 -0.14602 0.989278 -0.00249833
-0.270194 -0.0767154 0.418006 0.0618947 -0.998068 -0.00548394
0.0106491 -0.0121017 0.0697739 0.351884 0.931573 -0.0913711
0.0836579 0.0687351 0.0682849 0.0656048 0.994134 0.0859912
-0.0592704 -0.0462675 0.293092 -0.867027 0.4866 -0.107166
-0.25517 -0.0574506 0.481694 -0.466013 -0.00890004 0.884733
0.07331 -0.0650964 0.624849 0.884283 -0.463708 0.0549366
-0.100625 -0.0168167 0.381719 -0.144609 0.989345 -0.0168984
0.0125457 0.00420824 0.136375 0.998099 -0.0422213 -0.0449059
0.348826 -0.0527773 0.377979 0.134595 0.990033 -0.0414535
0.0747403 0.0664213 0.0889506 0.10401 0.988318 0.111398
-0.00948021 0.0885076 0.123146 -0.0815324 0.551518 0.830169
-0.00187005 0.0150549 0.400248 -0.296988 0.954881 0
-0.00713328 0.00543755 0.201213 -0.285957 0.839552 0.461933
-0.208438 -0.0442435 0.309194 0.276217 -0.0859269 -0.957246
0.444591 -0.0677596 0.382363 0.454054 0.0186882 0.890778
0.00291664 0.0163443 0.609439 0.209449 0.975377 -0.0690768
-0.0902048 -0.0129894 0.496452 -0.158383 0.987235 0.0168014
0.0331597 -0.109882 0.353435 0.521524 -0.851934 -0.0471203
0.303014 -0.0489567 0.454646 0.465759 0.177266 0.866975
0.145245 -0.0228003 0.422008 0.14555 0.989273 -0.0123857
0.0069697 -0.12875 0.601053 0 -1 0
-0.00388363 -0.12875 0.647002 0 -1 0
-0.416215 -0.0642317 0.292856 -0.147733 0.989012 -0.00542131
0.0170824 -0.119356 0.720732 0.546189 -0.787736 0.284867
-0.0881245 -0.0273196 0.342727 0.27925 -0.113297 -0.953511
-0.0200476 -0.127942 0.516187 -0.587796 -0.809009 0
-0.263477 -0.0758349 0.348404 0.0616372 -0.998086 -0.00498299
0.298698 -0.0454526 0.389885 0.134908 0.98999 -0.0414761
0.0146004 -0.0673458 0.109633 0.57899 -0.79691 -0.17235
0.165151 -0.0725628 0.509869 -0.557355 0.828566 0.0532305
0.168917 -0.0544225 0.512624 0.0752885 0.730384 0.678875
-0.321785 -0.0794548 0.347433 0.0624201 -0.99802 -0.0076853
0.00843605 0.090446 0.0224447 0.998584 -0.0188046 -0.0497569
0.0761107 -0.016827 0.344999 -0.27925 -0.113297 -0.953511
0.174819 -0.120534 0.554758 0.0215738 0 0.999767
0.00289412 0.0145157 0.667408 0.178068 0.92632 0.331999
0.0551125 -0.0949259 0.485624 0.901901 -0.431944 0
-0.365671 -0.0551344 0.385547 -0.152239 0.988326 0.00601741
-0.127607 -0.0188174 0.48662 -0.15722 0.987421 0.0167963
-0.0297305 0.00892897 0.501191 -0.171622 0.984577 -0.0339772
0.310225 -0.0476322 0.375353 0.134908 0.98999 -0.0414761
0.0329247 -0.00942035 0.269592 0.557043 0.822408 -0.115534
0.0340206 -0.0451064 0.737935 0.49537 0.816498 0.296545
-0.0551769 -0.0317385 0.330406 -0.826497 0.554427 -0.097536
0.00730412 0.0506041 0.0311351 0.0500775 -0.37057 -0.927454
-0.338667 -0.0521484 0.352719 -0.144809 0.989355 -0.0144183
-0.35932 -0.0557578 0.302296 -0.146947 0.98911 -0.00829362
-0.442198 -0.0668065 0.364252 -0.154298 0.987969 0.0104764
-0.0195654 -0.119485 0.368518 -0.554891 -0.829003 -0.0696473
0.0134209 0.0982295 0.0967259 0.992853 -0.036941 -0.113478
-0.0021805 -0.0770622 0.145294 0 -0.982966 -0.183788
0.380251 -0.0590084 0.274115 0.145262 0.989379 -0.00531322
-0.0776151 -0.0112318 0.511427 -0.158166 0.987233 0.0188443
0.0487223 0.061674 0.037189 -0.0433041 -0.996288 -0.0744011
0.0307074 -0.115983 0.701155 0.531829 -0.806692 0.257694
0.335082 -0.0522909 0.286311 0.146947 0.98911 -0.00829362
0.358578 -0.0542706 0.411033 0.155635 0.987704 0.0147799
0.0803826 -0.0137635 0.387245 0.144609 0.989345 -0.0168984
-0.27305 -0.0772503 0.460222 0.0650633 -0.997807 -0.0121857
-0.00655232 0.0155855 0.647676 -0.233583 0.97185 0.0307552
-0.151153 -0.0225603 0.486262 -0.15722 0.987421 0.0167963
0.294522 -0.0775475 0.306029 -0.0621599 -0.998058 -0.00415296
0.160166 -0.0247969 0.432388 0.135481 0.989975 -0.039935
0.00888408 0.12914 0.0579469 0 0.999699 0.0245427
0.137553 -0.0466657 0.543948 0.468694 0.0220537 0.883085
0.164345 -0.0681633 0.529992 0.476384 -0.00909812 0.87919
0.0503087 -0.034899 0.200349 0.890933 0.454118 0.0039391
0.0211004 0.00659714 0.680917 0.13209 0.947891 0.289922
0.418272 -0.06341 0.392816 0.154651 0.987887 0.0127766
0.0529984 -0.014169 0.656435 0.915246 0.39162 0.0946441
0.0153764 0.00226214 0.198679 0.996838 -0.0664827 -0.0435123
0.0598649 -0.00857929 0.494838 0.135845 0.989964 -0.0389414
0.11941 -0.0176201 0.493237 0.158383 0.987235 0.0168014
-0.0531439 -0.0996108 0.671464 -0.887608 -0.4606 0
-0.0256755 -0.0797145 0.193965 -0.469471 -0.864295 -0.180528
0.055187 -0.024716 0.345526 0.910096 0.369244 -0.188104
0.00939464 0.00197326 0.0728365 0.998564 -0.0272518 -0.0461296
0.037746 -0.115083 0.570418 0.587796 -0.809009 0
0.179844 -0.102541 0.489828 0.546947 -0.822074 -0.158249
-0.0131837 0.0102437 0.190032 -0.16798 0.840503 0.51511
0.198842 -0.0717902 0.34299 -0.0618758 -0.998067 -0.00581844
0.0258813 0.00107188 0.314708 0.381862 0.919342 -0.0948229
-0.272935 -0.0770981 0.448373 0.0650633 -0.997807 -0.0121857
0.178103 -0.0704859 0.342336 -0.0626418 -0.998019 -0.00581358
0.360956 -0.0547993 0.421326 0.155635 0.987704 0.0147799
-0.0981364 -0.0165633 0.375255 -0.144609 0.989345 -0.0168984
0.249052 -0.0681471 0.484478 0.4738 -0.0522805 0.879079
-0.0632405 -0.0811613 0.584998 -0.880066 -0.474851 0
-0.0793248 0.0724533 0.0309142 -0.0324809 0.997226 0.0669691
0.120882 -0.0597483 0.335608 -0.28166 -0.0437028 -0.958518
0.000846127 0.013966 0.532049 0.171709 0.985075 0.0119426
-0.347282 -0.080728 0.283349 0.0619228 -0.998075 -0.00331815
0.0557596 -0.0834334 0.342225 0.893796 -0.423968 -0.146221
0.35043 -0.054079 0.338387 0.144809 0.989355 -0.0144183
