0.0553072 -0.0921194 0.616703 0.866823 -0.498617 0
0.0594625 -0.00829883 0.516334 0.968979 0.245084 -0.0318515
0.338864 -0.089702 0.491497 -0.0330167 0.999455 0
-0.104146 -0.024972 0.196933 -0.178216 0.970265 0.163782
0.0472422 -0.130332 0.50744 0.586963 -0.807904 -0.0525908
-0.451031 -0.0943102 0.371658 -0.0544468 -0.997762 -0.0388237
0.181017 -0.0465704 0.107592 -0.1303 -0.982444 -0.133511
-0.211175 -0.0896754 0.369925 0.0187071 0.998971 0.0413124
0.264915 -0.106567 0.427411 0.0535792 -0.997711 -0.0412564
0.210433 -0.111438 0.560442 0.0681221 -0.997677 0
0.0060438 -0.137853 0.421465 0.00356897 -0.997882 -0.0649575
0.0996373 -0.115418 0.429831 0.0530532 -0.997676 -0.042759
0.0140357 0.0810422 0.118199 0.996639 -0.0276686 -0.077107
-0.0625512 -0.0229848 0.246965 -0.194932 0.975744 0.0996219
-0.194083 -0.0341083 0.11308 -0.95329 0.118959 0.277644
0.0697688 -0.0377566 0.661562 0.961807 0.259394 0.087417
0.0374171 -0.0154922 0.145516 0.0495667 0.996879 -0.0614485
-0.00933783 0.0376868 0.0583031 -0.998357 -0.0190933 -0.0540255
0.0035763 0.0232095 0.341227 0.374047 0.922287 -0.0973395
-0.189599 -0.0946331 0.532475 0.0330162 0.999455 0
0.0107613 0.0259934 0.669327 0.233585 0.97185 0.0307548
0.190846 -0.0945919 0.50374 -0.0330162 0.999455 0
0.391284 -0.0879703 0.422413 -0.0330166 0.999455 0
-0.318695 -0.0903683 0.460976 0.0330176 0.999455 0
-0.179357 -0.111368 0.433252 -0.05182 -0.997804 -0.0412603
0.0736396 -0.0600817 0.649035 0.884284 -0.463706 0.0549335
-0.074249 -0.0196881 0.198163 -0.178216 0.970265 0.163782
-0.094439 -0.116496 0.448546 -0.0530532 -0.997676 -0.042759
0.0091441 0.0653553 0.0445838 0.998353 -0.0191742 -0.0540694
0.0096094 0.0370222 0.0635579 0.998357 -0.0190929 -0.0540246
0.152659 -0.0275083 0.148735 0.260092 0.914831 0.30893
0.0603153 -0.0201317 0.690969 0.905739 0.396682 0.149268
-0.134474 -0.116625 0.511592 -0.0681279 -0.997677 0
-0.150329 -0.0253819 0.1444 -0.260092 0.914831 0.30893
-0.0679698 -0.041002 0.521605 -0.969098 0.246196 -0.0153907
-0.266269 -0.0918018 0.446292 0.0187071 0.998971 0.0413124
-0.240301 -0.106431 0.39214 -0.0535792 -0.997711 -0.0412564
-0.104553 -0.0912666 0.363794 0.0169768 0.999002 0.0413137
0.0368764 0.0181675 0.500417 0.171565 0.984249 -0.0426636
0.401319 -0.095867 0.340942 0.0527625 -0.998014 -0.0344117
0.130327 -0.0417688 0.121494 -0.124113 -0.985194 -0.118276
-0.0681262 -0.0986458 0.570067 0.0330162 0.999455 0
-0.397059 -0.085422 0.347332 0.0178896 0.999246 0.0344543
0.460241 -0.0845007 0.353417 -0.0178896 0.999246 0.0344543
0.0482299 -0.101385 0.646148 0.587793 -0.809012 -1.80018e-06
-0.34133 -0.101421 0.400546 -0.0544468 -0.997762 -0.0388237
0.239206 -0.104869 0.351947 0.0521631 -0.997883 -0.0388284
0.101619 -0.0389022 0.12774 -0.124113 -0.985193 -0.118285
-0.0607099 -0.0764649 0.458352 -0.901474 -0.432436 -0.0185314
-0.123987 -0.0431588 0.152092 0.119237 -0.990932 -0.0619422
-0.0443745 0.00973661 0.680016 -0.71942 0.687038 0.102043
-0.15622 -0.11514 0.527631 -0.0681279 -0.997677 0
-0.00403576 -0.119256 0.72612 -0.0391705 -0.987048 0.155572
0.117916 -0.117756 0.570465 0.0681279 -0.997677 0
0.0350225 0.0199791 0.539718 0.233686 0.972269 -0.00920663
0.281988 -0.0873736 0.343081 -0.0173049 0.999094 0.0388726
0.257844 -0.090151 0.402557 -0.0187071 0.998971 0.0413124
0.0579111 -0.00223688 0.540691 0.968699 0.247934 0.0122923
0.0865892 -0.115052 0.405105 0.0530532 -0.997676 -0.042759
0.0650922 -0.0676678 0.72177 0.760811 -0.436455 0.480285
-0.409178 -0.0862225 0.374328 0.0195533 0.999053 0.038871
0.0238975 -0.085903 0.800474 0.769266 -0.404809 0.494328
0.0286772 7.99783e-05 0.226003 0.5527 0.830373 -0.070736
0.389614 -0.0988503 0.402205 0.0544468 -0.997762 -0.0388237
-0.119159 -0.09696 0.504511 0.0330162 0.999455 0
0.161731 -0.112244 0.432285 0.05182 -0.997804 -0.0412603
0.0869826 -0.0980229 0.543402 -0.0330162 0.999455 0
-0.304032 -0.105047 0.454745 -0.0681221 -0.997677 0
0.305541 -0.103031 0.393832 0.0521631 -0.997883 -0.0388284
0.39325 -0.0989553 0.45425 0.0681279 -0.997677 0
0.0326237 -0.0309096 0.0831571 0.880749 -0.428088 -0.20254
-0.162905 -0.110506 0.391744 -0.05182 -0.997804 -0.0412603
-0.288385 -0.106116 0.527092 -0.0681221 -0.997677 0
-0.0665976 -0.0408221 0.431855 -0.981955 0.189057 -0.00464574
-0.35335 -0.101624 0.422633 -0.0544468 -0.997762 -0.0388237
-0.0203895 -0.121613 0.68075 -0.587793 -0.809012 0
-0.0110338 0.0952981 0.0671837 -0.997596 -0.0200552 -0.066336
0.356695 -0.089113 0.43693 -0.0330167 0.999455 0
-0.0250093 0.0115803 0.314614 -0.381863 0.919342 -0.0948231
0.185398 -0.051333 0.134635 -0.191426 -0.963547 -0.186904
0.460456 -0.0856853 0.386497 -0.0330166 0.999455 0
-0.114801 -0.097104 0.541303 0.0330162 0.999455 0
-0.361846 -0.1011 0.459984 -0.0681279 -0.997677 0
0.316618 -0.0903619 0.434271 -0.0187071 0.998971 0.0413124
0.180818 -0.0258352 0.0947076 0.04364 0.996195 -0.0754358
0.259955 -0.108057 0.465834 0.0681221 -0.997677 0
0.242486 -0.107272 0.415334 0.0535792 -0.997711 -0.0412564
-0.227014 -0.110306 0.495949 -0.0681221 -0.997677 0
-0.178305 -0.0950061 0.49253 0.0330162 0.999455 0
-0.0528642 -0.00106587 0.369002 -0.926612 0.375944 -0.00757491
-0.068943 -0.0630602 0.537818 -0.900967 -0.432703 -0.0320512
-0.159492 -0.0956276 0.5333 0.0330162 0.999455 0
0.135389 -0.113721 0.60575 0.433381 0.136315 0.890842
-0.476987 -0.0915576 0.331978 -0.0527625 -0.998014 -0.0344117
0.0137374 -0.130014 0.363591 0.0548302 0.0331299 -0.997946
-0.235667 -0.105266 0.357385 -0.0521631 -0.997883 -0.0388284
0.14124 -0.0384037 0.192888 0.662319 0.417543 0.622086
0.355999 -0.0860935 0.344264 -0.0195533 0.999053 0.038871
-0.0608974 -0.119272 0.470809 -0.521756 -0.852312 -0.0365289
-0.271689 -0.104255 0.379806 -0.0521631 -0.997883 -0.0388284
-0.373063 -0.0993338 0.391421 -0.0544468 -0.997762 -0.0388237
0.0439662 -0.0694663 0.76481 0.895781 -0.378591 0.232908
-0.00826217 -0.0249067 0.773092 0 0.960939 0.276762
-0.0629619 -0.0213702 0.52858 -0.968699 0.247934 0.0122923
0.102897 -0.11772 0.487589 0.0530532 -0.997676 -0.042759
-0.392669 -0.0956349 0.320947 -0.0527625 -0.998014 -0.0344117
-0.261319 -0.0903267 0.408379 0.0187071 0.998971 0.0413124
-0.0127027 0.136394 0.0798569 -0.997596 -0.0200552 -0.066336
-0.0354884 -0.000990142 0.278147 -0.8265 0.554423 -0.0975364
0.0955228 -0.119285 0.624085 0.0681279 -0.997677 0
-0.174462 -0.113895 0.551758 -0.0681279 -0.997677 0
-0.0224638 -0.0138139 0.744299 -0.372822 0.555825 0.743008
-0.105759 -0.118586 0.62048 -0.0681279 -0.997677 0
0.0995521 -0.0357228 0.103426 -0.124114 -0.985194 -0.118276
-0.32726 -0.0867964 0.348399 0.0173049 0.999094 0.0388726
0.120507 -0.0431728 0.158997 -0.10011 -0.994544 -0.0293398
0.280429 -0.106659 0.492144 0.0681221 -0.997677 0
0.0111477 0.0157011 0.104073 0.997821 -0.034139 -0.0564658
0.0668551 -0.0390871 0.482052 0.969098 0.246196 -0.0153907
0.160468 -0.0955954 0.523214 -0.0330162 0.999455 0
0.0267796 -0.0712719 0.199834 0.46947 -0.864295 -0.180534
-0.179876 -0.0949543 0.578439 0.0330162 0.999455 0
0.206734 -0.10903 0.411417 0.0535792 -0.997711 -0.0412564
0.0518702 0.00175396 0.389527 0.654599 0.755304 -0.0318828
-0.00323437 -0.142878 0.498511 -0.00356897 -0.997882 -0.0649575
-0.0571059 -0.0695833 0.33397 -0.891638 -0.429215 -0.14407
-0.424055 -0.0942245 0.328166 -0.0527625 -0.998014 -0.0344117
0.306013 -0.0907873 0.450024 -0.0330176 0.999455 0
0.453183 -0.0948626 0.409461 0.0681279 -0.997677 0
0.0705864 -0.0551502 0.460046 0.969098 0.246196 -0.0153907
0.182125 -0.0298685 0.0660476 0.0529402 0.987637 -0.147548
-0.0314479 -0.103501 0.361526 -0.51188 -0.836215 -0.196782
-0.183233 -0.0291349 0.0713558 -0.0529401 0.987637 -0.147548
-0.164459 -0.0915862 0.396139 0.0169768 0.999002 0.0413137
-0.0949236 -0.0930682 0.403295 0.0181866 0.998918 0.0428072
0.453929 -0.0927028 0.329839 0.0527625 -0.998014 -0.0344117
0.0572476 -0.039475 0.219589 -0.151518 -0.986919 -0.0550729
-0.051666 -0.126934 0.504601 -0.586963 -0.807904 -0.0525908
0.00239935 -0.144649 0.576784 0 -1 0
-0.0928154 -0.113474 0.375485 -0.05182 -0.997804 -0.0412603
0.146374 -0.0235457 0.105016 0.04364 0.996195 -0.0754358
0.104327 -0.0964783 0.486867 -0.0181866 0.998918 0.0428072
0.283246 -0.0915394 0.525901 -0.0330176 0.999455 0
-0.0238934 -0.101635 0.76291 -0.546213 -0.787726 0.284851
-0.24082 -0.0891723 0.370985 0.0173049 0.999094 0.0388726
0.198558 -0.112249 0.522541 0.0681279 -0.997677 0
-0.195921 -0.108414 0.382614 -0.05182 -0.997804 -0.0412603
0.0208231 -0.144291 0.521189 0.00356899 -0.997882 -0.0649575
0.00766712 -0.144649 0.632891 0 -1 0
-0.0153735 -0.100945 0.785559 -0.647148 -0.726179 0.232085
-0.195988 -0.094422 0.508646 0.0330176 0.999455 0
-0.0657347 -0.0931794 0.39349 0.0181866 0.998918 0.0428072
0.0746585 -0.0240372 0.233583 0.194932 0.975744 0.0996219
-0.0142847 0.122941 0.100725 -0.992057 -0.0440244 -0.11783
0.15021 -0.115551 0.5063 0.0681279 -0.997677 0
-0.0218435 -0.0589815 0.822828 -0.839581 0.279235 0.465974
0.432458 -0.095243 0.369584 0.0544468 -0.997762 -0.0388237
0.0577046 -0.086927 0.678939 0.884284 -0.463706 0.0549335
0.151611 -0.0450301 0.128854 -0.119237 -0.990932 -0.0619422
-0.0809552 -0.0990189 0.361314 0.130658 -0.0230171 -0.99116
0.0103248 0.142666 0.0409467 0.998584 -0.0188042 -0.049756
0.135346 -0.110511 0.357244 0.05182 -0.997804 -0.0412603
-0.0607874 -0.0164513 0.160221 -0.0810251 0.996708 -0.00299065
0.380068 -0.0867066 0.372129 -0.0195533 0.999053 0.038871
0.0230205 -0.103263 0.338592 0.51188 -0.836215 -0.196782
0.120649 -0.0936351 0.427455 -0.0181866 0.998918 0.0428072
0.00864655 -0.0728088 0.171629 0 -0.982965 -0.183791
0.161611 -0.0533327 0.180988 -0.19236 -0.976521 -0.0969737
0.0318715 -0.0729741 0.221224 0.46947 -0.864295 -0.180534
-0.0162966 -0.137316 0.413781 -0.00356897 -0.997882 -0.0649575
-0.170795 -0.0936923 0.449668 0.0169768 0.999002 0.0413137
0.0443775 -0.130643 0.480241 0.586963 -0.807904 -0.0525908
0.0692636 -0.0986082 0.579032 -0.0330162 0.999455 0
0.168731 -0.0953224 0.58519 -0.0330162 0.999455 0
-0.451558 -0.0949538 0.388938 -0.0544468 -0.997762 -0.0388237
0.0424622 -0.0528403 0.1967 0.910245 -0.367454 -0.190872
-0.113416 -0.117458 0.494524 -0.0530532 -0.997676 -0.042759
0.00336522 0.0253031 0.401899 0.383581 0.923478 0.00730671
0.134608 -0.114831 0.459543 0.0530532 -0.997676 -0.042759
0.0788361 -0.098292 0.606016 -0.0330162 0.999455 0
-0.140412 -0.11249 0.411468 -0.05182 -0.997804 -0.0412603
0.0462257 -0.01667 0.271031 0.824553 0.565431 0.0200021
-0.0422913 -0.0402087 0.165912 -0.898782 -0.410319 -0.154365
-0.0137073 0.0859264 0.11148 -0.995646 -0.0492053 -0.0791681
0.0308975 0.006462 0.7249 0.372823 0.555826 0.743008
0.0493385 0.00157952 0.357934 0.568552 0.814635 -0.114535
0.0300004 -0.140874 0.476939 0.586963 -0.807904 -0.0525908
0.23327 -0.0931904 0.532276 -0.0330176 0.999455 0
0.0181674 0.0156681 0.326692 0.381863 0.919342 -0.0948231
-0.0260961 -0.144649 0.621543 0 -1 0
-0.295305 -0.0878318 0.360785 0.0173049 0.999094 0.0388726
0.0663346 -0.0183044 0.12322 0.0495667 0.996879 -0.0614485
-0.10327 -0.0415746 0.163635 0.10011 -0.994544 -0.0293398
-0.0656803 -0.0713609 0.689227 -0.887609 -0.460597 0
-0.0471257 -0.1317 0.579357 -0.587776 -0.809023 0
0.175603 -0.112475 0.455315 0.05182 -0.997804 -0.0412603
-0.010669 0.0447081 0.0804203 -0.998357 -0.0190933 -0.0540255
0.203276 -0.110467 0.441659 0.0535792 -0.997711 -0.0412564
-0.0226148 -0.0378795 0.0604908 0 0 -1
0.00416217 -0.0535299 0.0685198 0 -0.982966 -0.183789
0.0838619 -0.116897 0.444786 0.0530532 -0.997676 -0.042759
-0.0551771 0.0042336 0.558652 -0.630542 0.776146 0.00374479
-0.272044 -0.107232 0.506349 -0.0681221 -0.997677 0
-0.0071206 0.0900584 0.136597 -0.215993 0.573338 0.790335
-0.458492 -0.0835176 0.323999 0.0178896 0.999246 0.0344543
-0.0860365 -0.117692 0.466018 -0.0530532 -0.997676 -0.042759
0.0140344 -0.139155 0.441918 0.00356897 -0.997882 -0.0649575
-0.0203203 -0.0845387 0.24776 -0.494943 -0.856703 -0.145232
0.00370504 -0.057988 0.0923632 0 -0.982966 -0.183789
-0.152509 -0.0248062 0.0919189 -0.04364 0.996195 -0.0754358
0.2901 -0.091313 0.466564 -0.0330176 0.999455 0
-0.0223414 -0.140158 0.45777 -0.00356897 -0.997882 -0.0649575
0.0119041 0.124207 0.0715316 0.997596 -0.0200544 -0.0663387
-0.0276062 -0.134792 0.375628 -0.00356897 -0.997882 -0.0649575
-0.0349669 -0.0489896 0.798075 -0.469593 0.74048 0.480803
-0.084992 -0.0960597 0.468884 0.0181866 0.998918 0.0428072
-0.419418 -0.0953064 0.352434 -0.0527625 -0.998014 -0.0344117
0.059483 -0.0777329 0.428323 0.903007 -0.429186 -0.0194561
-0.0662429 -0.0423066 0.357717 -0.980522 0.188781 -0.0542115
0.109051 -0.0910782 0.361085 -0.0169768 0.999002 0.0413137
-0.373391 -0.0885614 0.454889 0.0330167 0.999455 0
0.0239143 -0.00681412 0.738335 0.372823 0.555826 0.743008
-0.333131 -0.0898914 0.488218 0.0330176 0.999455 0
-0.015507 0.035711 0.165218 -0.99725 -0.0400174 -0.0623716
-0.00219787 0.0213532 0.318341 -0.374047 0.922287 -0.0973395
-0.282969 -0.106486 0.477559 -0.0681221 -0.997677 0
0.108997 -0.0972957 0.556178 -0.0330162 0.999455 0
-0.281155 -0.104956 0.40954 -0.0535792 -0.997711 -0.0412564
-0.0201174 0.00561441 0.200668 -0.66425 0.744712 -0.0646207
-0.029195 0.0193547 0.694784 -0.132091 0.947891 0.289922
0.00600868 0.0239045 0.439889 0.383581 0.923478 0.00730671
0.0676658 -0.0675346 0.68705 0.887609 -0.460597 0
-0.0474206 -0.0152516 0.197913 -0.0810251 0.996708 -0.00299065
-0.00896874 0.131557 0.017929 -0.998584 -0.0188045 -0.0497568
-0.433184 -0.094199 0.341424 -0.0527625 -0.998014 -0.0344117
0.352599 -0.0887877 0.411797 -0.0195533 0.999053 0.038871
-0.125315 -0.0492104 0.211474 0.19236 -0.976521 -0.0969737
-0.18366 -0.048185 0.117631 0.119237 -0.990932 -0.0619422
0.273015 -0.107165 0.515738 0.0681221 -0.997677 0
0.259463 -0.0889986 0.374819 -0.0173049 0.999094 0.0388726
-0.195352 -0.112407 0.478341 -0.0530532 -0.997676 -0.042759
-0.414098 -0.0869045 0.394334 0.0195533 0.999053 0.038871
-0.266279 -0.107625 0.529657 -0.0681221 -0.997677 0
0.0712186 -0.0551267 0.500227 0.969098 0.246196 -0.0153907
0.130579 -0.0965827 0.544385 -0.0330162 0.999455 0
0.0917048 -0.0956502 0.462181 -0.0181866 0.998918 0.0428072
0.0494212 -0.124074 0.418928 0.521756 -0.852312 -0.0365289
0.136021 -0.0385718 0.0888885 -0.124113 -0.985194 -0.118276
-0.077242 -0.0983447 0.621639 0.0330162 0.999455 0
0.0415132 -0.0759491 0.269316 0.494943 -0.856703 -0.145232
0.334364 -0.102976 0.471189 0.0681221 -0.997677 0
-0.289721 -0.0895934 0.40351 0.0187071 0.998971 0.0413124
0.0760198 -0.0442254 0.253071 -0.151518 -0.986919 -0.0550729
0.0551226 -0.12589 0.541362 0.587776 -0.809023 0
0.0398715 0.0158984 0.664579 0.63049 0.776081 0.0134548
0.0631077 -0.0370225 0.31941 0.980522 0.188781 -0.0542115
0.252132 -0.105013 0.373004 0.0521631 -0.997883 -0.0388284
-0.125347 -0.0944288 0.447971 0.0181866 0.998918 0.0428072
0.229298 -0.11015 0.529489 0.0681221 -0.997677 0
-0.0550382 -0.119617 0.395174 -0.521756 -0.852312 -0.0365289
-0.392952 -0.0943162 0.477966 -0.433665 0.097576 0.895775
-0.290533 -0.103661 0.389845 -0.0521631 -0.997883 -0.0388284
0.0616638 -0.0459377 0.284635 0.880118 -0.45574 -0.133016
-0.0555592 -0.0305443 0.113375 0.356267 -0.560051 -0.747942
-0.199026 -0.0283688 0.0938321 -0.908362 0.206956 0.363384
-0.42711 -0.0867868 0.425488 0.0330166 0.999455 0
0.129152 -0.0976081 0.606099 0.428843 0.155791 0.889844
-0.0651821 -0.0685228 0.490575 -0.901474 -0.432436 -0.0185314
0.111395 -0.0954831 0.466647 -0.0181866 0.998918 0.0428072
-0.0622552 -0.0179424 0.125802 -0.0495667 0.996879 -0.0614485
-0.26855 -0.0920249 0.470853 0.0330176 0.999455 0
0.0555503 -0.0733264 0.335495 0.891638 -0.429215 -0.14407
-0.0211818 0.0212582 0.508608 -0.171565 0.984249 -0.0426637
-0.383556 -0.0879557 0.405986 0.0195533 0.999053 0.038871
-0.280825 -0.106445 0.445108 -0.0535792 -0.997711 -0.0412564
0.447166 -0.0952735 0.429015 0.0681279 -0.997677 0
-0.412624 -0.0976323 0.447779 -0.0681279 -0.997677 0
0.23339 -0.109341 0.453549 0.0535792 -0.997711 -0.0412564
-0.0469694 -0.0710139 0.271927 -0.882674 -0.454085 -0.121217
-0.0125428 0.00672506 0.139508 -0.998098 -0.0422175 -0.0449123
-0.00152189 0.0247824 0.196443 -0.285967 0.839551 0.461927
-0.247118 -0.108318 0.446629 -0.0535792 -0.997711 -0.0412564
0.0592308 -0.122905 0.614577 0.587776 -0.809023 0
0.0678056 -0.121178 0.588609 0.0681279 -0.997677 0
-0.0674812 -0.0169371 0.179661 -0.0810251 0.996708 -0.00299065
-0.0574676 -0.0215017 0.719751 -0.86764 0.489712 0.0859274
0.014563 0.0413572 0.146502 0.997251 -0.0400158 -0.0623692
-0.183108 -0.105989 0.347823 0.133014 -0.0108701 -0.991054
0.00922161 0.104657 0.0327009 0.998327 -0.0163374 -0.0554718
0.060191 -0.00981255 0.619981 0.919026 0.393238 -0.027467
-0.459295 -0.0944453 0.412034 -0.0681279 -0.997677 0
0.00999976 0.0177701 0.0786863 0.998564 -0.0272511 -0.0461289
0.186341 -0.092132 0.418327 -0.0169768 0.999002 0.0413137
0.0712994 -0.0385201 0.169183 -0.10011 -0.994544 -0.0293398
-0.0608916 -0.0373583 0.165313 0.10011 -0.994544 -0.0293398
-0.360385 -0.0860333 0.344921 0.0195533 0.999053 0.038871
0.134852 -0.0946581 0.457361 -0.0181866 0.998918 0.0428072
0.206865 -0.093271 0.454918 -0.0187071 0.998971 0.0413124
-0.052517 -0.0928556 0.442281 -0.901474 -0.432436 -0.0185314
0.179936 -0.112105 0.583831 0.433381 0.136315 0.890842
-0.0194026 -0.08361 0.809036 -0.545747 -0.670432 0.502673
-0.177024 -0.0446435 0.0964375 0.124113 -0.985194 -0.118276
-0.00892904 0.00327967 0.730288 -0.0260673 0.708377 0.705353
-0.0601179 -0.038591 0.286347 -0.867025 0.486603 -0.107165
0.0400979 0.0110003 0.402457 0.571709 0.819159 -0.0461238
-0.358918 -0.0868636 0.365524 0.0195533 0.999053 0.038871
0.0319285 -0.113229 0.684257 0.587794 -0.809011 0
-0.175635 -0.113815 0.530716 -0.0681279 -0.997677 0
-0.13883 -0.0403265 0.100556 0.124113 -0.985194 -0.118276
-0.0127733 0.0398504 0.118896 -0.998026 -0.0279026 -0.0562605
-0.216198 -0.0904029 0.389791 0.0187071 0.998971 0.0413124
-0.0994357 -0.0213825 0.104719 -0.0515246 0.995735 -0.0765301
-0.145786 -0.0481818 0.160511 0.19236 -0.976521 -0.0969737
-0.112588 -0.0936951 0.42543 0.0181866 0.998918 0.0428072
0.129007 -0.0924091 0.401468 -0.0169768 0.999002 0.0413137
-0.0673938 -0.0456056 0.405482 -0.981955 0.189057 -0.00464574
-0.00872335 0.00403994 0.060031 -0.998313 -0.0211411 -0.0540859
0.392847 -0.0971002 0.361762 0.0544468 -0.997762 -0.0388237
0.10585 -0.0268894 0.206439 0.178216 0.970265 0.163782
0.0597833 -0.0166364 0.442624 0.926612 0.375944 -0.00757491
0.00276353 -0.0429155 0.815584 2.25835e-05 0.861786 0.507272
9.03551e-05 0.118628 0.117793 0.215993 0.573338 0.790336
-0.197776 -0.0937453 0.462272 0.0187071 0.998971 0.0413124
-0.00495716 -0.0300332 0.790892 0 0.960936 0.27677
-0.176729 -0.112789 0.464161 -0.0530532 -0.997676 -0.042759
0.035469 -0.140169 0.543482 0.587776 -0.809023 0
0.413788 -0.0869035 0.394151 -0.0195533 0.999053 0.038871
-0.43787 -0.0959084 0.453575 -0.0681279 -0.997677 0
-0.194808 -0.112505 0.515833 -0.0681279 -0.997677 0
-0.00386087 -0.144649 0.557561 0 -1 0
0.018601 0.0216907 0.508205 0.171565 0.984249 -0.0426636
-0.255605 -0.0924525 0.52864 0.0330176 0.999455 0
0.0690781 -0.0424897 0.543128 0.968897 0.244741 -0.0366051
0.0271198 -0.144649 0.636733 0 -1 0
0.0401087 -0.098812 0.364128 0.51188 -0.836215 -0.196782
-0.0268935 0.00393363 0.257304 -0.5527 0.830373 -0.070736
-0.0821724 -0.120197 0.60946 -0.0681279 -0.997677 0
-0.0536979 -0.0503128 0.249184 -0.917616 -0.357468 -0.173777
0.0406018 -0.13644 0.579079 0.587776 -0.809023 0
0.0621754 -0.0186696 0.559575 0.919026 0.393238 -0.027467
-0.0681989 -0.0342184 0.668336 -0.961807 0.259394 0.087417
-0.144173 -0.0961337 0.507691 0.0330162 0.999455 0
-0.0499991 -0.0029929 0.346022 -0.910097 0.369244 -0.188102
-0.0596622 -0.0175572 0.382116 -0.926612 0.375944 -0.00757491
0.0257878 0.0154746 0.709023 0.132092 0.947891 0.289922
-0.00906095 0.0158141 0.715534 -0.132091 0.947891 0.289922
0.301959 -0.0909212 0.508463 -0.0330176 0.999455 0
-0.0443827 -0.0781149 0.29028 -0.527367 -0.824807 -0.203904
0.0856927 -0.0939655 0.420313 -0.0181866 0.998918 0.0428072
-0.412706 -0.0872627 0.413341 0.0330166 0.999455 0
0.122832 -0.0230221 0.0983121 0.04364 0.996195 -0.0754358
0.0555326 -0.0917274 0.6603 0.866823 -0.498617 0
0.205302 -0.107773 0.379146 0.0535792 -0.997711 -0.0412564
0.0603392 -0.0814616 0.544391 0.900967 -0.432703 -0.0320512
0.388802 -0.0980503 0.380507 0.0544468 -0.997762 -0.0388237
-0.03781 -0.071469 0.785231 -0.895781 -0.378591 0.232908
0.425339 -0.0941565 0.328162 0.0527625 -0.998014 -0.0344117
0.0671015 -0.0426785 0.440116 0.969098 0.246196 -0.0153907
0.0534814 -0.0991296 0.550915 -0.0330162 0.999455 0
0.390717 -0.0991282 0.435514 0.0681279 -0.997677 0
0.0322255 -0.142526 0.603499 0.587776 -0.809023 0
0.0508388 -0.072695 0.304454 0.891638 -0.429215 -0.14407
0.281904 -0.105625 0.426692 0.0535792 -0.997711 -0.0412564
0.0809716 -0.0200582 0.19304 0.178216 0.970265 0.163782
-0.0454411 -0.00113472 0.327616 -0.910097 0.369244 -0.188102
-0.0624886 -0.0796347 0.589463 -0.866823 -0.498617 0
0.0142651 -0.0683825 0.15435 0.532662 -0.827771 -0.176253
-0.33462 -0.0881496 0.386457 0.0173049 0.999094 0.0388726
0.118163 -0.041613 0.137027 -0.100865 -0.992998 -0.0614848
0.0561431 -0.0365969 0.157758 -0.100865 -0.992998 -0.0614848
0.0116562 0.105457 0.0736733 0.9979 -0.021583 -0.0610719
-0.0128282 -0.0560709 0.0933098 -0.578992 -0.796909 -0.172349
0.373058 -0.100334 0.468213 0.0681279 -0.997677 0
0.112581 -0.11812 0.514101 0.0681279 -0.997677 0
-0.143911 -0.0321201 0.181219 -0.263173 0.949564 0.170494
-0.0652012 -0.121356 0.622662 -0.0681279 -0.997677 0
0.330594 -0.103234 0.494864 0.0681221 -0.997677 0
-0.130533 -0.0965842 0.569462 0.0330162 0.999455 0
-0.139015 -0.0442599 0.140781 0.119237 -0.990932 -0.0619422
0.303013 -0.101769 0.357983 0.0521631 -0.997883 -0.0388284
0.0834194 -0.113053 0.361281 -0.133014 -0.01087 -0.991054
0.134124 -0.116649 0.515105 0.0681279 -0.997677 0
0.194214 -0.112546 0.57552 0.0681279 -0.997677 0
-0.00949813 0.0221948 0.355059 -0.381863 0.919342 -0.0948231
0.0968026 -0.119198 0.561461 0.0681279 -0.997677 0
0.179522 -0.0295336 0.132117 0.260092 0.914831 0.30893
-0.237434 -0.107906 0.424087 -0.0535792 -0.997711 -0.0412564
-0.0413757 0.0161126 0.553238 -0.660402 0.750796 0.0132095
-0.132941 -0.11673 0.551586 -0.0681279 -0.997677 0
-0.155276 -0.112516 0.430775 -0.05182 -0.997804 -0.0412603
-0.207462 -0.111641 0.493363 -0.0681221 -0.997677 0
0.156883 -0.115095 0.553258 0.0681279 -0.997677 0
-0.365785 -0.100831 0.48609 -0.0681279 -0.997677 0
-0.0724242 -0.0985038 0.542042 0.0330162 0.999455 0
0.431533 -0.085077 0.355225 -0.0178896 0.999246 0.0344543
-0.107261 -0.118484 0.549148 -0.0681279 -0.997677 0
0.0690433 -0.054394 0.374977 0.969098 0.246196 -0.0153907
-0.055151 -0.114807 0.364404 0.0164174 0.0268185 -0.999506
0.239747 -0.0915212 0.427495 -0.0187071 0.998971 0.0413124
0.0222321 0.000315942 0.164154 0.573852 0.813602 -0.0935185
0.238618 -0.0902611 0.396514 -0.0187071 0.998971 0.0413124
0.0590796 -0.0129489 0.468905 0.968979 0.245084 -0.0318515
-0.00174283 0.028545 0.626772 -0.171641 0.984681 -0.0306917
-0.0582113 -0.00740462 0.660033 -0.915246 0.391621 0.094644
-0.122225 -0.117462 0.583582 -0.0681279 -0.997677 0
0.191524 -0.0910191 0.393547 -0.0169768 0.999002 0.0413137
0.0589724 -0.0814175 0.489399 0.901474 -0.432436 -0.0185314
-0.294537 -0.102634 0.368849 -0.0521631 -0.997883 -0.0388284
-0.124854 -0.0261936 0.177628 -0.263173 0.949564 0.170494
-0.0588193 -0.00743967 0.574062 -0.968699 0.247934 0.0122923
0.16605 -0.095411 0.550868 -0.0330162 0.999455 0
-0.0105302 0.0108581 0.094252 -0.998564 -0.0272533 -0.0461275
-0.0249921 -0.0555346 0.130066 -0.576001 -0.792793 -0.199252
-0.217707 -0.0918519 0.425513 0.0187071 0.998971 0.0413124
-0.0668502 -0.0306196 0.566107 -0.964896 0.260649 -0.0322033
0.0458538 -0.0169478 0.128707 0.0495667 0.996879 -0.0614485
0.104514 -0.0466514 0.21815 -0.151518 -0.986919 -0.0550729
0.217698 -0.0919818 0.428648 -0.0187071 0.998971 0.0413124
0.149061 -0.112341 0.41874 0.05182 -0.997804 -0.0412603
-0.3194 -0.100352 0.343591 -0.0521631 -0.997883 -0.0388284
0.115847 -0.0442787 0.176627 -0.140946 -0.985036 -0.0991923
0.158309 -0.114517 0.481619 0.0530532 -0.997676 -0.042759
-0.45196 -0.0921801 0.311661 -0.0527625 -0.998014 -0.0344117
0.0297627 0.0146247 0.365725 0.383581 0.923478 0.00730671
0.0209295 -0.0967329 0.305402 0.51188 -0.836215 -0.196782
0.429435 -0.0964843 0.44367 0.0681279 -0.997677 0
-0.121047 -0.0928918 0.355886 0.130658 -0.0230171 -0.99116
-0.0106175 -0.126218 0.643794 0 -0.0339397 0.999424
-0.315522 -0.0904731 0.482351 0.0330176 0.999455 0
-0.0572622 0.000421724 0.516499 -0.968979 0.245084 -0.0318515
-0.0581591 -0.0392794 0.213576 0.151518 -0.986919 -0.0550729
-0.0596692 -0.0778761 0.721083 -0.760811 -0.436455 0.480285
-0.00802597 0.0266572 0.601345 -0.171641 0.984681 -0.0306917
0.341432 -0.0989673 0.337642 0.0544468 -0.997762 -0.0388237
-0.261076 -0.105502 0.396668 -0.0535792 -0.997711 -0.0412564
-0.0137242 0.0302728 0.141248 -0.996388 -0.0589553 -0.0611102
0.272493 -0.103953 0.37313 0.0521631 -0.997883 -0.0388284
0.00176668 -0.105217 0.335329 0.0183347 -0.97521 -0.220522
0.0895794 -0.113892 0.381539 0.05182 -0.997804 -0.0412603
-0.00124375 0.0905325 0.0204676 -0.0765859 -0.390614 -0.917363
-0.0410956 -0.101076 0.730126 -0.531825 -0.806689 0.257711
0.0504688 0.00376663 0.677245 0.719421 0.687038 0.102043
-0.121148 -0.111625 0.366344 -0.05182 -0.997804 -0.0412603
0.0703587 -0.0384047 0.608219 0.964896 0.260649 -0.0322033
-0.0193329 0.00905852 0.241573 -0.674734 0.736704 -0.0447414
-0.0217525 0.0176369 0.405532 -0.383581 0.923478 0.00730671
0.10918 -0.115707 0.448417 0.0530532 -0.997676 -0.042759
0.0655303 -0.074347 0.617568 0.866823 -0.498617 0
-0.047552 0.00920799 0.661173 -0.71942 0.687038 0.102043
-0.0645463 -0.0298241 0.44584 -0.981955 0.189057 -0.00464574
-0.0232145 0.0189198 0.462835 -0.171565 0.984249 -0.0426637
0.0365828 0.0153396 0.435952 0.571709 0.819159 -0.0461238
0.32852 -0.0873692 0.363682 -0.0173049 0.999094 0.0388726
-0.0622847 -0.0530241 0.313022 -0.880118 -0.455741 -0.133016
0.0663468 -0.0360826 0.498104 0.969098 0.246196 -0.0153907
0.217601 -0.110949 0.473757 0.0681221 -0.997677 0
0.0150898 -0.0873494 0.249397 0 -0.982965 -0.18379
-0.276189 -0.087683 0.348451 0.0173049 0.999094 0.0388726
-0.150911 -0.110095 0.366743 -0.05182 -0.997804 -0.0412603
0.0665897 -0.0282707 0.577312 0.964896 0.260649 -0.0322033
-0.0162072 -0.00330671 0.0753562 -0.351886 0.931573 -0.0913692
0.0197211 0.0184821 0.405351 0.383581 0.923478 0.00730671
0.329231 -0.0883185 0.388397 -0.0173049 0.999094 0.0388726
-0.0727852 -0.0471899 0.609825 -0.968897 0.244741 -0.0366051
0.0158532 0.0588377 0.155938 0.99683 -0.0431363 -0.0668477
0.232704 -0.109918 0.510852 0.0681221 -0.997677 0
-0.304635 -0.0908328 0.465786 0.0330176 0.999455 0
0.0390897 -0.0084098 0.214023 0.584649 0.808077 -0.0720874
0.117172 -0.0970256 0.517931 -0.0330162 0.999455 0
-0.153309 -0.113961 0.462433 -0.0530532 -0.997676 -0.042759
-0.102187 -0.0975206 0.581653 0.0330162 0.999455 0
-0.125182 -0.0213836 0.12131 -0.04364 0.996195 -0.0754358
-0.035443 -0.13436 0.437617 -0.586963 -0.807904 -0.0525908
0.0105386 0.0249683 0.561209 0.171641 0.984681 -0.0306918
0.00911931 0.129634 0.0216789 0.998584 -0.0188042 -0.049756
0.0228011 -0.144649 0.573563 0 -1 0
0.0770686 -0.118811 0.480998 0.0530532 -0.997676 -0.042759
-0.0644988 -0.0189704 0.633009 -0.919026 0.393238 -0.027467
0.0574215 -0.0025557 0.498436 0.968979 0.245084 -0.0318515
-0.147664 -0.0936275 0.438598 0.0169768 0.999002 0.0413137
-0.0313959 0.02011 0.523192 -0.171565 0.984249 -0.0426637
0.067461 -0.093176 0.394144 -0.0181866 0.998918 0.0428072
-0.0698779 -0.0476051 0.689565 -0.961786 0.259371 0.0877185
-0.0251229 -0.0271835 0.755794 -0.512833 0.808663 0.288214
0.284752 -0.106364 0.529062 0.0681221 -0.997677 0
0.0633083 -0.0413349 0.236244 -0.151518 -0.986919 -0.0550729
-0.174722 -0.0920508 0.411591 0.0169768 0.999002 0.0413137
-0.0108427 0.128161 0.0543746 -0.997596 -0.0200552 -0.066336
-0.0520039 -0.0928944 0.381006 0.0181866 0.998918 0.0428072
0.365909 -0.100822 0.488626 0.0681279 -0.997677 0
0.010492 -0.0760433 0.188928 0 -0.982966 -0.18379
-0.00852563 0.0562897 0.036378 -0.998353 -0.0191746 -0.0540703
-0.0607955 -0.121044 0.643145 -0.428843 0.155791 0.889844
-0.15742 -0.0336298 0.168775 -0.263173 0.949564 0.170494
0.36122 -0.0871199 0.373268 -0.0195533 0.999053 0.038871
-0.0927373 -0.018782 0.140254 -0.0815181 0.996563 0.0147401
0.24582 -0.109022 0.537234 0.0681221 -0.997677 0
-0.390446 -0.0991467 0.439748 -0.0681279 -0.997677 0
-0.0686775 -0.0465452 0.477495 -0.969098 0.246196 -0.0153907
0.0516851 -0.0938978 0.404286 -0.0181866 0.998918 0.0428072
0.0155105 0.0211519 0.18444 0.996839 -0.0664791 -0.0435123
-0.0474715 -0.0172684 0.236593 -0.824553 0.565431 0.0200021
0.102466 -0.118811 0.530574 0.0681279 -0.997677 0
-0.236115 -0.0930964 0.507254 0.0330176 0.999455 0
0.0291795 -0.014708 0.101422 0.753378 0.6556 -0.0510925
0.299161 -0.10538 0.472013 0.0681221 -0.997677 0
0.0783836 -0.119832 0.506459 0.0530532 -0.997676 -0.042759
-0.00944781 0.0684542 0.0490912 -0.998353 -0.0191746 -0.0540703
0.126004 -0.0967339 0.588954 -0.0330162 0.999455 0
0.050258 -0.0155938 0.160719 0.0810251 0.996708 -0.00299065
-0.10413 -0.118697 0.576803 -0.0681279 -0.997677 0
-0.0201002 -0.114904 0.731654 -0.560743 -0.793515 0.236434
-0.0207278 -0.0774827 0.21383 -0.469471 -0.864295 -0.180533
-0.00679614 0.142552 0.0305346 0 0.990695 -0.136103
-0.259869 -0.0923117 0.493756 0.0330176 0.999455 0
-0.0689071 -0.0644241 0.555224 -0.900967 -0.432703 -0.0320512
-0.00813474 0.0270415 0.656156 -0.233585 0.97185 0.0307548
0.335138 -0.086626 0.347526 -0.0173049 0.999094 0.0388726
-0.284101 -0.102132 0.341906 -0.0521631 -0.997883 -0.0388284
-0.165305 -0.104678 0.589812 -0.433381 0.136315 0.890842
-0.0311422 -0.1138 0.704203 -0.587793 -0.809012 0
0.100151 -0.094844 0.446957 -0.0181866 0.998918 0.0428072
-0.362841 -0.0889099 0.466973 0.0330167 0.999455 0
0.0822877 -0.0181527 0.1757 0.0810251 0.996708 -0.00299065
-0.268804 -0.103712 0.361972 -0.0521631 -0.997883 -0.0388284
-0.158594 -0.0311009 0.0633507 0.373955 -0.567224 -0.733768
0.00849246 0.0741866 0.0294201 0.998353 -0.0191742 -0.0540694
-0.000958107 -0.093149 0.809782 -0.0239191 -0.84869 0.52835
0.313383 -0.0868652 0.34399 -0.0173049 0.999094 0.0388726
-0.0483462 -0.0489756 0.752965 -0.948385 0.155614 0.276316
-0.142763 -0.116059 0.565898 -0.0681279 -0.997677 0
0.0816261 -0.0404175 0.186908 -0.140946 -0.985036 -0.0991923
0.0551377 -0.0305527 0.731855 0.449623 0.746768 0.490078
-0.149335 -0.091493 0.38767 0.0169768 0.999002 0.0413137
-0.232823 -0.0929336 0.458514 0.0187071 0.998971 0.0413124
0.424484 -0.0968224 0.425856 0.0681279 -0.997677 0
0.0137274 0.00173975 0.12215 0.514688 0.852327 -0.0929249
0.0397276 0.0163649 0.64442 0.63049 0.776081 0.0134548
-0.0417336 0.003618 0.710058 -0.668165 0.716693 0.199766
0.183222 -0.0948437 0.488225 -0.0330162 0.999455 0
-0.13594 -0.0259492 0.0757111 -0.0529401 0.987637 -0.147548
0.0127219 0.0378924 0.118957 0.998026 -0.0278989 -0.0562626
0.185354 -0.110074 0.409497 0.05182 -0.997804 -0.0412603
-0.057378 -0.0554333 0.288811 -0.880118 -0.455741 -0.133016
0.0458401 -0.0654006 0.242676 0.882674 -0.454085 -0.121217
-0.319662 -0.102788 0.406539 -0.0521631 -0.997883 -0.0388284
0.0152187 -0.0911361 0.269649 0 -0.982965 -0.18379
-0.0347441 -0.111183 0.670174 -0.587793 -0.809012 0
0.183054 -0.113308 0.537445 0.0681279 -0.997677 0
0.146632 -0.0960525 0.576275 -0.0330162 0.999455 0
-0.310205 -0.0895153 0.410689 0.0173049 0.999094 0.0388726
-0.0333242 0.021256 0.631458 -0.233685 0.972269 -0.00920665
0.0527626 -0.0876505 0.360916 0.891638 -0.429215 -0.14407
-0.0557365 -0.0165069 0.143831 -0.0495667 0.996879 -0.0614485
0.118873 -0.0266477 0.189388 0.263173 0.949564 0.170494
0.0657791 -0.0719142 0.568414 0.900967 -0.432703 -0.0320512
-0.205493 -0.111776 0.560437 -0.0681221 -0.997677 0
0.0126367 0.0217362 0.365978 0.383581 0.923478 0.00730671
-0.234235 -0.0884774 0.350193 0.0173049 0.999094 0.0388726
0.198274 -0.0328122 0.0704109 0.750616 0.630809 -0.19661
-0.0557396 -0.120032 0.41486 -0.521756 -0.852312 -0.0365289
-0.301008 -0.088779 0.387668 0.0173049 0.999094 0.0388726
0.243858 -0.0928406 0.483129 -0.0330176 0.999455 0
-0.0121414 0.0482496 0.104042 -0.997968 -0.0215001 -0.0599782
-0.0188131 -0.0925139 0.281403 -0.530234 -0.82929 -0.176438
0.0453535 -0.0139323 0.288174 0.8265 0.554423 -0.0975364
-0.102964 -0.0217032 0.178855 -0.178216 0.970265 0.163782
0.0138233 -0.122209 0.701711 0 -1 0
0.149642 -0.11559 0.5318 0.0681279 -0.997677 0
0.0643282 -0.0236086 0.669351 0.912189 0.400388 0.0871796
0.0533575 -0.0432485 0.743651 0.83444 0.174808 0.52264
0.384473 -0.0969045 0.344989 0.0544468 -0.997762 -0.0388237
0.0392946 -0.00717005 0.730884 0.372823 0.555826 0.743008
-0.334442 -0.102971 0.506784 -0.0681221 -0.997677 0
0.0105749 0.0790183 0.0656942 0.99822 -0.0243965 -0.0544182
-0.0566775 -0.00980861 0.401566 -0.926612 0.375944 -0.00757491
-0.357042 -0.0978275 0.329913 -0.0527625 -0.998014 -0.0344117
-0.383949 -0.0871998 0.386756 0.0195533 0.999053 0.038871
0.274091 -0.104789 0.396326 0.0535792 -0.997711 -0.0412564
0.167922 -0.0265856 0.0829263 0.0529402 0.987637 -0.147548
0.02278 -0.0520558 0.108177 0.578992 -0.796909 -0.17235
-0.123534 -0.113355 0.411179 -0.05182 -0.997804 -0.0412603
0.281515 -0.101712 0.334575 -0.134326 0.0124105 -0.99086
0.0334371 -0.067934 0.800344 0.769266 -0.404809 0.494328
-0.154317 -0.10294 0.351654 0.133014 -0.0108701 -0.991054
0.0490361 -0.125544 0.447722 0.521756 -0.852312 -0.0365289
0.00477648 -0.144649 0.616273 0 -1 0
0.166712 -0.0462278 0.119032 -0.1303 -0.982444 -0.133511
0.014823 0.0725049 0.132715 0.996374 -0.0462881 -0.0713821
-0.0107281 0.0219542 0.438621 -0.383581 0.923478 0.00730671
-0.0263287 -0.00894103 0.124877 -0.754555 0.650082 -0.0896681
-0.0631938 -0.0983685 0.5135 0.0181866 0.998918 0.0428072
0.409945 -0.0978152 0.452445 0.0681279 -0.997677 0
-0.0595299 -0.0832132 0.699459 -0.887609 -0.460597 0
0.0180739 -0.113787 0.74021 0.560744 -0.793514 0.236434
-0.0588295 -0.0813357 0.480539 -0.901474 -0.432436 -0.0185314
0.114806 -0.117968 0.615512 0.0681279 -0.997677 0
0.0689546 -0.036966 0.145888 -0.124113 -0.985193 -0.118285
-0.0635393 -0.0778082 0.653262 -0.866823 -0.498617 0
-0.319431 -0.103996 0.487215 -0.0681221 -0.997677 0
-0.0655712 -0.0426293 0.722148 -0.961917 0.258988 0.0874071
-0.361748 -0.0888835 0.418862 0.0195533 0.999053 0.038871
0.0601836 -0.113771 0.642166 0.428843 0.155791 0.889844
-0.212049 -0.111328 0.477885 -0.0681221 -0.997677 0
0.0198848 -0.106001 0.758524 0.546214 -0.787724 0.284851
0.152549 -0.0908738 0.374017 -0.0169768 0.999002 0.0413137
-0.248596 -0.0926841 0.481201 0.0330176 0.999455 0
0.309476 -0.103793 0.418186 0.0535792 -0.997711 -0.0412564
-0.0383169 -0.0882266 0.756042 -0.895781 -0.378591 0.232908
-0.084639 -0.0258772 0.232076 -0.194932 0.975744 0.0996219
0.362209 -0.10069 0.411043 0.0544468 -0.997762 -0.0388237
-0.0169932 -0.144649 0.590756 0 -1 0
-0.00784723 -0.0617092 0.831966 -0.261796 0.510344 0.819153
0.221266 -0.0898289 0.378207 -0.0187071 0.998971 0.0413124
0.113191 -0.0209358 0.119792 0.0515246 0.995735 -0.0765301
0.00665998 -0.00637355 0.73998 0 0.703472 0.710723
0.0156912 0.0106878 0.229255 0.37581 0.926635 -0.0107198
-0.00899584 0.112356 0.0257295 -0.998584 -0.0188045 -0.0497568
-0.154303 -0.0455976 0.13275 0.119237 -0.990932 -0.0619422
-0.0454776 -0.132897 0.541949 -0.587776 -0.809023 0
0.315742 -0.104248 0.50349 0.0681221 -0.997677 0
-0.0473106 -0.102053 0.676028 -0.587793 -0.809012 0
0.15053 -0.0921426 0.403868 -0.0169768 0.999002 0.0413137
-0.0271558 0.0219568 0.557521 -0.171641 0.984681 -0.0306917
-0.234202 -0.107408 0.407851 -0.0535792 -0.997711 -0.0412564
0.26488 -0.0906382 0.417524 -0.0187071 0.998971 0.0413124
0.0599837 -0.0780479 0.459963 0.901474 -0.432436 -0.0185314
-0.0683669 -0.0563289 0.368493 -0.903007 -0.429186 -0.0194561
0.010781 0.122625 0.0551208 0.997596 -0.0200544 -0.0663387
0.0728643 -0.0984893 0.53347 -0.0330162 0.999455 0
0.0261583 -0.026312 0.75198 0.449623 0.746768 0.490078
-0.0458929 -0.124495 0.378366 -0.521756 -0.852312 -0.0365289
0.0696254 -0.0554018 0.40645 0.903007 -0.429186 -0.0194561
0.0650228 -0.0959078 0.456856 -0.0181866 0.998918 0.0428072
0.244612 -0.0928157 0.466697 -0.0330176 0.999455 0
-0.0558096 -0.077096 0.34833 -0.891638 -0.429215 -0.14407
0.261922 -0.107394 0.443524 0.0535792 -0.997711 -0.0412564
-0.0988915 -0.0459434 0.220932 0.151518 -0.986919 -0.0550729
-0.283636 -0.10561 0.428561 -0.0535792 -0.997711 -0.0412564
-0.0246058 -0.00460808 0.141792 -0.754555 0.650082 -0.0896681
0.209427 -0.0891222 0.355722 -0.0173049 0.999094 0.0388726
-0.00631222 0.0241193 0.514816 -0.171565 0.984249 -0.0426637
-0.0633271 -0.0341158 0.128053 0.124113 -0.985193 -0.118285
-0.302438 -0.100782 0.331867 -0.0521631 -0.997883 -0.0388284
-0.102556 -0.0955985 0.465585 0.0181866 0.998918 0.0428072
-0.0346422 -0.0086166 0.184021 -0.582232 0.806073 -0.106076
0.0660328 -0.0330306 0.116175 -0.124114 -0.985194 -0.118276
0.0619472 -0.0717516 0.410751 0.903007 -0.429186 -0.0194561
0.133312 -0.11333 0.422862 0.05182 -0.997804 -0.0412603
0.101236 -0.0194823 0.140598 0.0815181 0.996563 0.0147401
0.232996 -0.109898 0.48995 0.0681221 -0.997677 0
-0.309643 -0.104542 0.436525 -0.0535792 -0.997711 -0.0412564
0.233121 -0.0931953 0.497599 -0.0330176 0.999455 0
-0.0761271 -0.120206 0.512379 -0.0530532 -0.997676 -0.042759
-0.184179 -0.0529247 0.144088 0.191426 -0.963547 -0.186904
0.18564 -0.0508996 0.149348 0.832274 0.490587 0.258156
-0.239896 -0.0929715 0.538864 0.0330176 0.999455 0
0.160899 -0.0510878 0.159796 -0.19236 -0.976521 -0.0969737
0.00334778 -0.117568 0.363433 0.0548302 0.0331299 -0.997946
-0.0196203 0.00133758 0.156367 -0.573723 0.815311 -0.0781738
-0.0218222 0.00587221 0.226648 -0.674734 0.736704 -0.0447414
0.408779 -0.0846686 0.331566 -0.0178896 0.999246 0.0344543
0.276853 -0.0883239 0.36522 -0.0173049 0.999094 0.0388726
-0.0768733 -0.0402035 0.191536 0.140946 -0.985036 -0.0991923
0.337917 -0.0897333 0.440813 -0.0330167 0.999455 0
0.0548664 -0.0283454 0.278096 0.662321 0.417548 0.622081
0.191703 -0.112717 0.554746 0.0681279 -0.997677 0
-0.0114973 0.0751623 0.0826845 -0.997753 -0.0220997 -0.063249
0.261565 -0.0922556 0.46083 -0.0330176 0.999455 0
0.024437 -0.0974925 0.317754 0.51188 -0.836215 -0.196782
-0.0313699 -0.140926 0.493026 -0.586963 -0.807904 -0.0525908
-0.0673405 -0.0623741 0.454206 -0.903007 -0.429186 -0.0194561
0.381418 -0.0882962 0.456716 -0.0330167 0.999455 0
0.12333 -0.0968222 0.558796 -0.0330162 0.999455 0
-0.212975 -0.091305 0.410144 0.0187071 0.998971 0.0413124
-0.189895 -0.112841 0.556169 -0.0681279 -0.997677 0
-0.0679032 -0.0428007 0.249869 0.151518 -0.986919 -0.0550729
-0.0695116 -0.05327 0.422445 -0.969098 0.246196 -0.0153907
0.067095 -0.0277539 0.596634 0.964896 0.260649 -0.0322033
0.144369 -0.0914649 0.352779 -0.130658 -0.0230171 -0.99116
-0.103104 -0.097258 0.504542 0.0181866 0.998918 0.0428072
-0.00316715 0.0263484 0.688225 -0.178061 0.926324 0.331992
-0.0225343 0.0176294 0.365435 -0.383581 0.923478 0.00730671
-0.0135385 -0.114634 0.747846 -0.647148 -0.726179 0.232085
-0.00991799 -0.0891575 0.259067 0 -0.982966 -0.18379
0.0226545 0.0234608 0.593479 0.233686 0.972269 -0.00920663
-0.112868 -0.113414 0.399229 -0.05182 -0.997804 -0.0412603
-0.0719601 -0.046489 0.592674 -0.968897 0.244741 -0.0366051
0.147857 -0.096012 0.513353 -0.0330162 0.999455 0
0.0273479 -0.135023 0.379162 0.00356899 -0.997882 -0.0649575
0.0535319 -0.127046 0.578796 0.587776 -0.809023 0
0.0382976 -0.00485275 0.2638 0.824553 0.565431 0.0200021
0.323527 -0.0894382 0.414636 -0.0173049 0.999094 0.0388726
-0.022288 -0.0694671 0.182255 -0.516842 -0.828039 -0.217315
0.0220859 -0.0804075 0.231364 0.46947 -0.864295 -0.180534
0.010473 0.0371675 0.0794655 0.998357 -0.0190929 -0.0540246
-0.0496693 -0.0219269 0.277683 -0.824553 0.565431 0.0200021
0.126298 -0.0217826 0.153125 0.0913056 0.995719 0.0144044
0.0772598 -0.0961984 0.468837 -0.0181866 0.998918 0.0428072
-0.0513828 -0.0989417 0.582603 -0.866823 -0.498617 0
0.330091 -0.0899918 0.464321 -0.0330176 0.999455 0
-0.0556707 0.00333339 0.6049 -0.968699 0.247934 0.0122923
-0.233087 -0.109892 0.551213 -0.0681221 -0.997677 0
-0.0305421 -0.0807426 0.260203 -0.494943 -0.856703 -0.145232
0.0125519 0.0695244 0.101371 0.997692 -0.0243355 -0.0633985
-0.42485 -0.0967975 0.406964 -0.0681279 -0.997677 0
-0.0262093 -0.0432895 0.0855694 -0.828362 -0.535807 -0.163486
-0.0898311 -0.0207793 0.187672 -0.178216 0.970265 0.163782
-0.0677281 -0.0298294 0.598806 -0.964896 0.260649 -0.0322033
0.0579762 -0.0982924 0.509506 -0.0181866 0.998918 0.0428072
0.0210546 0.0181776 0.437025 0.171565 0.984249 -0.0426636
0.0740049 -0.120755 0.620439 0.0681279 -0.997677 0
0.0475845 -0.0859577 0.330286 0.527367 -0.824807 -0.203904
0.0142886 0.0958378 0.112631 0.995646 -0.0492049 -0.0791709
0.270521 -0.107336 0.478602 0.0681221 -0.997677 0
0.292374 -0.0893829 0.399348 -0.0173049 0.999094 0.0388726
-0.0151359 0.0204993 0.391113 -0.383581 0.923478 0.00730671
0.213669 -0.111217 0.527416 0.0681221 -0.997677 0
-0.264338 -0.107426 0.447433 -0.0535792 -0.997711 -0.0412564
0.0632867 -0.026523 0.380511 0.926612 0.375944 -0.00757491
-0.253155 -0.104088 0.350606 -0.0521631 -0.997883 -0.0388284
0.0512396 -0.0991892 0.709414 0.887609 -0.460597 0
-0.137478 -0.112003 0.396 -0.05182 -0.997804 -0.0412603
0.457758 -0.0941289 0.445983 0.444036 0.0165501 0.895856
0.150501 -0.0518271 0.192036 0.662331 0.417519 0.62209
-0.10826 -0.0354454 0.0919778 0.124114 -0.985194 -0.118276
-0.177727 -0.113072 0.585053 -0.433381 0.136315 0.890842
0.0265529 -0.13004 0.643597 0.0187511 -0.0258082 0.999491
-0.375786 -0.0862531 0.358318 0.0195533 0.999053 0.038871
0.0655796 -0.0594153 0.356121 0.891638 -0.429215 -0.14407
-0.0903872 -0.0342092 0.100436 0.124114 -0.985194 -0.118276
0.186934 -0.0433086 0.0749182 -0.124113 -0.985194 -0.118274
0.0256646 0.0231125 0.68056 0.188773 0.981991 -0.00758384
0.00106028 0.0436909 0.171491 0.256276 0.562514 0.786067
-0.192428 -0.110334 0.424654 -0.05182 -0.997804 -0.0412603
-0.0592539 -0.0787592 0.441063 -0.901474 -0.432436 -0.0185314
0.192489 -0.0945376 0.543766 -0.0330176 0.999455 0
0.269231 -0.0920024 0.516689 -0.0330176 0.999455 0
-0.188196 -0.043624 0.0762214 0.124113 -0.985194 -0.118274
0.229427 -0.0890827 0.36361 -0.0173049 0.999094 0.0388726
-0.354537 -0.0891842 0.45172 0.0330167 0.999455 0
0.0155214 -0.136076 0.394691 0.00356897 -0.997882 -0.0649575
0.0516585 -0.0991898 0.631112 -0.0330162 0.999455 0
0.293109 -0.103316 0.384453 0.0521631 -0.997883 -0.0388284
0.438889 -0.0958388 0.454856 0.0681279 -0.997677 0
-0.457709 -0.085776 0.424858 0.0330166 0.999455 0
-0.196262 -0.0904976 0.383053 0.0187071 0.998971 0.0413124
-0.0601838 -0.0266538 0.34153 -0.8265 0.554423 -0.0975364
0.00929109 0.0270902 0.637568 0.233686 0.972269 -0.00920663
-0.0403619 -0.0523045 0.185653 -0.910245 -0.367454 -0.190872
-0.320607 -0.0903051 0.445999 0.0330176 0.999455 0
0.306094 -0.0907846 0.486531 -0.0330176 0.999455 0
-0.0537332 -0.0991213 0.641509 0.0330162 0.999455 0
0.0483537 -0.003528 0.33701 0.910097 0.369244 -0.188102
0.0158303 0.0201555 0.461648 0.171565 0.984249 -0.0426636
0.0394859 -0.0319086 0.11554 0.828362 -0.535807 -0.163486
-0.178516 -0.0256978 0.110251 -0.097526 0.993801 0.0533767
0.0222264 -0.0390319 0.794192 0.512835 0.808662 0.288214
-0.048498 -0.130703 0.637235 -0.587776 -0.809023 0
-0.0485575 -0.0134475 0.729127 -0.58517 0.304521 0.75156
0.0590696 -0.0214295 0.353717 0.910097 0.369244 -0.188102
-0.00630018 -0.072096 0.167817 0 -0.982965 -0.183791
0.0568726 -0.0193234 0.222216 0.194932 0.975744 0.0996219
-0.0780439 -0.0307578 0.255039 -0.662321 0.417548 0.622081
0.0419807 -0.117977 0.643619 0.0187511 -0.0258082 0.999491
0.206694 -0.0917414 0.417853 -0.0187071 0.998971 0.0413124
-0.139476 -0.111115 0.37703 -0.05182 -0.997804 -0.0412603
-0.107531 -0.0335834 0.225541 -0.662322 0.417545 0.622081
-0.0974403 -0.119154 0.606716 -0.0681279 -0.997677 0
0.131895 -0.116801 0.576805 0.0681279 -0.997677 0
-0.270218 -0.0919698 0.505997 0.0330176 0.999455 0
0.0521144 -0.0975034 0.693407 0.887609 -0.460597 0
0.42411 -0.0861004 0.378701 -0.0195533 0.999053 0.038871
-0.0360884 0.0142092 0.409749 -0.571709 0.819159 -0.0461238
-0.385025 -0.0995169 0.414951 -0.0681279 -0.997677 0
0.106392 -0.0419235 0.164808 -0.10011 -0.994544 -0.0293398
-0.0352348 -0.0916213 0.321255 -0.527367 -0.824807 -0.203904
-0.197648 -0.0952839 0.345761 0.130968 -0.0100327 -0.991336
-0.0880896 -0.0953177 0.452886 0.0181866 0.998918 0.0428072
-0.112985 -0.0971639 0.557165 0.0330162 0.999455 0
0.140806 -0.0299071 0.173686 0.263173 0.949564 0.170494
-0.351621 -0.0989623 0.351802 -0.0544468 -0.997762 -0.0388237
0.25457 -0.0881057 0.349692 -0.0173049 0.999094 0.0388726
0.140699 -0.0954303 0.477863 -0.0181866 0.998918 0.0428072
-0.164707 -0.0947696 0.472646 0.0181866 0.998918 0.0428072
0.366027 -0.0853561 0.329309 -0.0178896 0.999246 0.0344543
0.275511 -0.105396 0.412846 0.0535792 -0.997711 -0.0412564
-0.0648645 -0.0322731 0.413429 -0.981955 0.189057 -0.00464574
0.0829044 -0.0981576 0.585803 -0.0330162 0.999455 0
0.0381962 -0.00541066 0.240396 0.584649 0.808077 -0.0720874
-0.0117596 0.0172241 0.113966 -0.997821 -0.0341405 -0.0564636
0.124503 -0.112598 0.394088 0.05182 -0.997804 -0.0412603
-0.046725 0.00928045 0.462193 -0.654599 0.755304 -0.0318828
0.167295 -0.0440301 0.101537 -0.124113 -0.985194 -0.118276
0.0116792 -0.144649 0.588835 0 -1 0
0.284429 -0.102409 0.349485 0.0521631 -0.997883 -0.0388284
0.0150314 -0.14126 0.474304 0.00356899 -0.997882 -0.0649575
-0.0196364 -0.106762 0.344658 -0.51188 -0.836215 -0.196782
-0.0639121 -0.0283375 0.372291 -0.981955 0.189057 -0.00464574
-0.210997 -0.0939262 0.527205 0.0330176 0.999455 0
0.0436701 0.0141386 0.55073 0.660402 0.750796 0.0132095
-0.251807 -0.108613 0.461053 -0.0681221 -0.997677 0
0.0100323 0.013377 0.263323 0.37581 0.926635 -0.0107198
-0.166122 -0.0464205 0.123165 0.119237 -0.990932 -0.0619422
0.117386 -0.109556 0.356684 -0.133014 -0.01087 -0.991054
-0.289358 -0.106049 0.463824 -0.0681221 -0.997677 0
0.0631373 -0.11802 0.445265 0.0530532 -0.997676 -0.042759
-0.0452964 0.00858211 0.423945 -0.571709 0.819159 -0.0461238
0.00627425 0.002562 0.0585008 0 -0.407345 -0.913274
0.241431 -0.108157 0.435362 0.0535792 -0.997711 -0.0412564
0.0753772 -0.092214 0.374713 -0.0169768 0.999002 0.0413137
-0.323112 -0.0896637 0.420247 0.0173049 0.999094 0.0388726
0.0919124 -0.0978601 0.62284 -0.0330162 0.999455 0
0.0304285 -0.0886087 0.296638 0.527367 -0.824807 -0.203904
0.194117 -0.112553 0.497976 0.0681279 -0.997677 0
0.228742 -0.107128 0.394003 0.0535792 -0.997711 -0.0412564
0.0321552 -0.0849994 0.781168 0.853513 -0.4409 0.277708
-0.323223 -0.101902 0.388553 -0.0521631 -0.997883 -0.0388284
-0.37126 -0.0869604 0.374221 0.0195533 0.999053 0.038871
0.036151 0.0167802 0.465496 0.171565 0.984249 -0.0426636
-0.0623971 -0.0766243 0.536932 -0.900967 -0.432703 -0.0320512
0.0137049 0.128301 0.0938409 0.992058 -0.0440248 -0.117827
0.17017 -0.0952749 0.511671 -0.0330162 0.999455 0
-0.0579095 -0.121725 0.485372 -0.521756 -0.852312 -0.0365289
0.0215516 0.0124311 0.308938 0.381863 0.919342 -0.0948231
-0.0909448 -0.118074 0.481017 -0.0530532 -0.997676 -0.042759
0.00290179 -0.121571 0.71205 0 -0.985087 0.172057
0.0357949 -0.138279 0.501759 0.586963 -0.807904 -0.0525908
-0.0613693 -0.0710171 0.367727 -0.903007 -0.429186 -0.0194561
0.104478 -0.0220353 0.0996201 0.0515246 0.995735 -0.0765301
-0.0518469 -0.0991836 0.605074 0.0330162 0.999455 0
0.156767 -0.0957176 0.53906 -0.0330162 0.999455 0
0.162739 -0.0951845 0.481491 -0.0181866 0.998918 0.0428072
-0.0334893 -0.035499 0.0969232 -0.828362 -0.535807 -0.163486
-0.28998 -0.0913169 0.475271 0.0330176 0.999455 0
0.457755 -0.0857745 0.426422 -0.0330166 0.999455 0
-0.0592716 -0.0243147 0.266409 -0.194932 0.975744 0.0996219
0.404278 -0.0982022 0.428586 0.0681279 -0.997677 0
-0.0103953 -0.0612618 0.109873 0 -0.982966 -0.183789
-0.278467 -0.0882195 0.363256 0.0173049 0.999094 0.0388726
-0.0712625 -0.0568225 0.701638 -0.961786 0.259371 0.0877185
-0.444496 -0.0862125 0.431885 0.0330166 0.999455 0
0.276866 -0.106607 0.443897 0.0535792 -0.997711 -0.0412564
