-0.0124789 0.00935433 0.272518 0.986832 0.14046 0.08021
-0.00121621 -0.0349106 0.024954 0.430772 0.879333 -0.203002
0.076401 -0.0569818 0.139057 -0.00231018 0.999997 -0.00128077
-0.329431 -0.0710186 0.438317 -0.998836 0.0482065 -0.00140937
-0.462967 -0.0622525 0.367731 -0.0331445 0.999448 -0.00215127
0.0184131 -0.0666235 0.028755 0.980083 -0.0462583 -0.193125
-0.323743 -0.0985111 0.295555 -0.611456 0.352051 -0.708648
-0.170976 -0.0835906 0.509315 0.999533 -0.0268823 -0.0145461
0.141403 -0.0826496 0.513071 -0.59004 0.799848 0.109983
0.135411 -0.0830253 0.390017 -0.818459 0.574406 0.013516
0.33609 -0.0706662 0.453898 0.00162367 -0.999995 0.00265747
-0.0353222 -0.110636 0.759587 -0.331936 -0.943273 0.00742126
-0.0878088 -0.0757123 0.144659 0.00315639 -0.999994 -0.00166608
-0.0138419 0.0915201 0.150562 0.999769 -0.00273872 -0.021304
0.00724908 -0.0298759 0.0957372 0.667435 0.728642 -0.153662
-0.0241198 -0.0199656 0.386479 -0.0829783 0.996551 0.000991768
-0.00274444 -0.017852 0.723479 -0.0045991 -0.999917 0.0120176
-0.107439 -0.0569843 0.14463 0.00246775 0.999997 -0.000827182
-0.171099 -0.0781495 0.470669 0.999992 -0.00406084 -8.66547e-05
-0.298006 -0.061979 0.447923 -0.00131063 0.999999 -0.000741015
-0.0297825 -0.0274669 0.849374 -0.496197 0.854368 0.154413
-0.316953 -0.0851207 0.320429 0.908584 0.415967 -0.0380343
-0.0220501 -0.0342857 0.0432165 0.170048 -0.975107 0.142299
-0.274807 -0.070198 0.49749 -0.0451006 -0.993892 0.100726
-0.13307 -0.0577419 0.103277 -0.169546 0.985461 -0.0109667
0.310969 -0.0706822 0.445689 0.000236568 -0.999998 -0.0017662
-0.0522727 -0.0632783 0.686451 -0.999809 0.0195284 -0.000286784
-0.0869354 -0.0757164 0.147372 0.000111642 -0.999999 -0.00168215
-0.180621 -0.0790879 0.268202 -0.543661 0.838569 -0.0351424
-0.173278 -0.0911757 0.382549 0.24979 -0.967946 -0.0261686
0.149834 -0.104077 0.537016 0.0522383 -0.985725 0.160056
0.279733 -0.100597 0.457944 -0.945547 -0.319957 0.0597382
-0.0222132 -0.0186576 0.336382 -0.0590745 0.99492 0.0815089
-0.136263 -0.0611147 0.462536 -0.0135858 0.999904 0.00262813
0.299856 -0.104182 0.385353 0.895775 -0.444421 0.00877892
-0.150099 -0.116145 0.258918 -0.69754 -0.716528 0.00513674
-0.0115508 -0.11283 0.278244 0.0565164 -0.998398 0.00262703
-0.15079 -0.11544 0.249145 -0.716113 -0.695762 -0.0556548
0.288185 -0.107457 0.476791 -0.206688 -0.96792 0.142867
-0.0496708 -0.0694934 0.0211758 -0.973474 -0.10746 -0.201993
0.412146 -0.0621783 0.432113 0.0237003 0.997774 0.0623298
0.15057 -0.0987494 0.563492 0.234606 -0.945526 0.225701
0.0166112 -0.084062 0.753698 0.989554 -0.143909 0.00860015
-0.36136 -0.0620191 0.404035 -0.000166626 0.999999 0.00139743
-0.141333 -0.0715369 0.457678 -0.0137547 -0.999891 0.00528517
-0.0177716 -0.107946 0.0792695 -0.0151626 -0.756513 0.653803
0.055513 -0.0601285 0.383009 0.0508424 0.998495 -0.0205729
-0.158933 -0.0835591 0.456081 0.804321 0.593817 0.0212213
-0.0178568 -0.0199531 0.802719 -0.0207309 0.999382 0.0283833
-0.0457923 -0.0591957 0.0317088 0.966802 -0.200498 0.158414
0.0189803 -0.0824124 0.527088 0.786869 -0.617115 -0.00256886
0.0422555 -0.0571078 0.191123 0.0208306 0.999519 0.0229834
0.353942 -0.0628261 0.461142 0.0559522 0.988944 0.137331
0.391063 -0.0623346 0.357828 -0.00466648 0.995585 -0.0937522
-0.431685 -0.0697659 0.434149 -0.1226 -0.952949 0.277232
-0.227572 -0.0708744 0.500137 -0.00806452 -0.999912 0.010531
-0.0217282 0.00960584 0.275554 -0.988863 0.135021 0.0626103
-0.0393679 -0.0238795 0.539393 -0.479895 0.877299 -0.00684132
0.132754 -0.0971405 0.460362 -0.970645 -0.240003 0.0157071
-0.175585 -0.0773707 0.26212 -0.196849 0.979753 -0.0365204
0.166005 -0.0910603 0.417506 0.987676 0.155998 0.0126586
0.284614 -0.108927 0.307859 -0.608838 -0.791929 -0.0465248
0.0978488 -0.063529 0.359346 -0.00513807 0.933616 -0.358238
0.404509 -0.0628333 0.353134 -0.0100734 0.987919 -0.154645
-0.256694 -0.0707994 0.409759 -0.00234244 -0.999997 0.00122991
0.132412 -0.0910451 0.435777 -0.988753 0.149537 0.00253882
-0.0209345 0.0482937 0.226898 -0.999831 0.0173497 0.00604908
0.0844924 -0.0736119 0.0880912 -0.145429 -0.970249 -0.193564
-0.106316 -0.0604336 0.479249 -0.0311913 0.999513 0.00100707
0.457382 -0.0704928 0.410761 0.0352729 -0.998663 0.0377869
0.296982 -0.0706943 0.41481 0.00041341 -0.999998 -0.0017664
-0.0673711 -0.0750369 0.531022 -0.205538 -0.978323 -0.0252794
0.43294 -0.0622434 0.425137 0.026084 0.997731 0.0620745
0.0075807 -0.02526 0.417032 0.648091 0.761559 0.00256684
-0.0136028 0.0527991 0.203112 0.999914 0.0128935 0.00260036
0.302218 -0.0956753 0.379544 0.996034 -0.0886133 0.00801443
-0.230554 -0.0708712 0.441681 -0.00446675 -0.999989 0.00135554
0.0900558 -0.0754359 0.102371 0.0177811 -0.999134 -0.0376077
-0.172898 -0.0761605 0.352294 -0.0618306 0.998061 0.00710411
-0.320168 -0.0985535 0.489759 0.937095 -0.314004 0.152492
0.447264 -0.07002 0.423013 0.0797797 -0.979599 0.184447
0.340487 -0.0620178 0.446442 -0.000494173 0.999997 -0.00233315
0.285953 -0.0773798 0.396362 -0.453686 0.891001 0.0168992
0.299072 -0.0896222 0.478235 0.964492 0.240279 0.109644
0.304246 -0.0738584 0.436295 0.824713 -0.565488 0.00845942
0.0139962 -0.0746613 0.843878 0.994325 -0.0701905 0.0799462
-0.344644 -0.062017 0.432662 -0.000147559 0.999999 -0.00116858
0.168525 -0.113597 0.263793 -0.707096 -0.707115 -0.00182721
0.220268 -0.0705295 0.368559 -3.22979e-05 -0.999211 -0.0397135
0.170789 -0.0710295 0.483671 0.00545853 -0.99998 0.00305007
0.151234 -0.0770793 0.450841 0.149277 0.988753 0.0091231
0.289336 -0.0750827 0.36517 0.996954 0.0108473 -0.0772316
0.136532 -0.101128 0.502648 -0.853085 -0.514641 0.0859731
-0.0343519 -0.00396443 0.684215 -0.861968 0.501754 -0.0724791
-0.158481 -0.10215 0.474456 0.855184 -0.515663 0.0524569
0.301426 -0.0990874 0.40656 0.969023 -0.24661 0.0133302
0.131949 -0.0896762 0.360381 -0.967733 0.251892 0.00660356
0.366925 -0.070673 0.410272 -0.000637718 -0.999998 -0.00178063
0.282107 -0.0942025 0.492393 -0.987996 -0.0360733 0.150209
0.150272 -0.0838932 0.427926 0.999317 0.0369484 0.000631973
-0.0459996 -0.100904 0.782877 -0.83931 -0.539907 0.0637149
-0.109686 -0.0569729 0.129537 0.00365679 0.999993 0.000293289
-0.0307282 -0.0208363 0.602959 -0.192793 0.981239 -0.00115619
-0.0503917 -0.0951921 0.354469 -0.962516 -0.27122 0.00138353
-0.00827063 -0.102997 0.870602 0.340462 -0.92167 0.186039
-0.130129 -0.0609887 0.401789 -0.0164849 0.999863 -0.00122495
0.29419 -0.0779329 0.420303 0.455309 0.890319 0.00501125
-0.197224 -0.0710115 0.513978 -0.00767965 -0.999945 0.00719518
-0.062304 -0.0627583 0.240483 -0.823611 0.399192 0.402877
-0.0211711 -0.0197749 0.393997 -0.0463208 0.998924 -0.00209318
-0.00544196 -0.0836524 0.936271 0.741975 -0.614876 0.267209
0.0152319 -0.0907615 0.127635 0.973968 -0.225286 -0.0251381
0.00625592 -0.0521724 0.895788 0.914598 0.373207 0.155653
-0.412972 -0.069847 0.356459 0.0110582 -0.987163 -0.159331
-0.0515529 -0.089491 0.668055 -0.9899 -0.141763 -0.000347007
0.288278 -0.0843272 0.498103 -0.322399 0.919095 0.226548
-0.0206778 0.0169421 0.135023 -0.986458 0.0702287 -0.148217
-0.0308412 -0.0208613 0.613297 -0.188151 0.982139 0.00108799
0.00337334 -0.10666 0.803804 0.662303 -0.741656 0.106305
0.301534 -0.110741 0.436147 -0.815223 -0.579143 0.00240484
-0.0201501 0.00689573 0.686652 -0.209116 0.975712 -0.0652405
-0.039871 -0.0922689 0.0319183 -0.637971 -0.747052 -0.186833
-0.0725854 -0.0577263 0.128339 0.0422935 0.997365 -0.058943
-0.355231 -0.0692158 0.356672 0.00963079 -0.957993 -0.286628
0.134561 -0.100707 0.26179 -0.813512 -0.450554 -0.367694
-0.361991 -0.0706725 0.374651 0.000603648 -0.999973 -0.00738851
0.279784 -0.104396 0.3564 -0.876136 -0.482063 0.000934376
-0.0436617 -0.0273444 0.538546 -0.765761 0.643122 -0.00207845
-0.0719174 -0.0742558 0.496198 -0.107488 -0.994154 -0.0102016
-0.0536106 -0.0788682 0.246957 -0.963391 -0.267791 0.0128764
-0.0268479 -0.0115151 0.261218 -0.894096 0.447622 0.0150426
0.0587301 -0.059989 0.474329 0.0389584 0.999237 -0.00284317
-0.31506 -0.0943963 0.333554 0.999836 -0.0180833 0.000724386
-0.0326383 -0.0923455 0.898777 -0.661674 -0.721703 0.203303
0.0135514 -0.0980915 0.706012 0.93789 -0.346932 -0.000224845
0.150197 -0.0882372 0.38697 0.999871 0.0118709 -0.0108448
0.127077 -0.0713442 0.464239 0.00997142 -0.999943 -0.00391133
-0.0507314 -0.0938999 0.508345 -0.975586 -0.21959 -0.00333441
-0.0242446 -0.0199734 0.478691 -0.081725 0.996655 0.000678656
-0.0654083 -0.0759468 0.166039 -0.083126 -0.996522 -0.0058585
0.0929489 -0.0756208 0.11407 0.0617044 -0.998088 -0.0035831
0.0197104 -0.0814498 0.550795 0.769194 -0.638988 -0.00592907
-0.327699 -0.111365 0.379312 -0.0683014 -0.997619 0.00957252
-0.0488535 -0.099365 0.454962 -0.899697 -0.436514 -0.000111024
-0.165123 -0.0776032 0.3566 0.42648 0.904472 0.00677021
0.145801 -0.110468 0.426535 -0.24667 -0.969095 0.00287542
-0.0766331 -0.0619694 0.594254 -0.167199 0.941696 0.291983
-0.271511 -0.0635764 0.506031 -0.112178 0.961729 0.249988
-0.166231 -0.0614414 0.435817 -0.00903755 0.999956 0.00266377
-0.0501672 -0.0802308 0.0385238 -0.897409 -0.405294 -0.174337
-0.15613 -0.0879091 0.423318 0.942362 0.334575 0.00359054
-0.166672 -0.0968708 0.550237 0.836936 -0.504624 0.211877
0.228752 -0.0618837 0.419013 0.00179577 0.999994 -0.00295869
0.00910607 -0.105898 0.549904 0.727432 -0.686174 0.00287043
0.0166047 -0.0870706 0.321958 0.968607 -0.248571 -0.00348764
0.28999 -0.110757 0.30865 0.15897 -0.986119 -0.0479288
0.295012 -0.104791 0.296308 0.628329 -0.644096 -0.436284
0.00789825 -0.0165157 0.683719 0.9964 -0.0288699 -0.0797115
0.275201 -0.0619748 0.472292 0.00381063 0.999972 0.00637464
0.015245 -0.0874799 0.787253 0.979988 -0.195203 0.038987
-0.0747079 -0.0594856 0.580806 -0.130954 0.987693 0.0855198
0.286884 -0.0859998 0.29524 0.0649101 -0.0846575 -0.994294
0.165796 -0.0874475 0.318519 0.930135 0.367217 0.00108199
-0.0656503 -0.0596956 0.228722 -0.553064 0.775342 0.3049
-0.106912 -0.0612857 0.374621 -0.0214625 0.997469 -0.0677921
0.286021 -0.0707156 0.46542 0.00204286 -0.999997 0.00148745
0.0506842 -0.0595815 0.555365 0.0714359 0.997439 0.00350135
-0.0951345 -0.0753179 0.177601 -0.0430062 -0.997848 0.0494889
0.278265 -0.0773749 0.446823 -0.821274 -0.570518 0.00433571
-0.0174684 -0.0196915 0.612023 -0.00158304 0.999996 0.00230323
-0.0816708 -0.0733759 0.524646 -0.0601172 -0.998107 -0.0129735
-0.0101385 -0.0199484 0.618008 0.0705494 0.997507 -0.00186099
0.0377806 -0.0737359 0.379948 0.106879 -0.993294 -0.0440849
0.0117626 -0.102126 0.643249 0.881245 -0.472659 -0.000306859
-0.0458609 -0.0421527 0.831567 -0.91513 0.390978 0.0983568
-0.407482 -0.0620151 0.378671 3.62128e-06 0.999999 0.00157506
0.142144 -0.104708 0.518285 -0.512031 -0.850275 0.121889
0.00511056 -0.0496629 0.000108902 0.240175 0.179299 -0.954027
-0.187345 -0.102917 0.333733 -0.862582 -0.505875 0.00659287
0.295805 -0.0619969 0.425761 0.00109996 0.999997 0.00219651
0.154773 -0.101024 0.543807 0.585063 -0.792013 0.174405
-0.0209354 0.0479922 0.183485 -0.999931 0.0113551 -0.00291823
-0.160883 -0.0981295 0.517265 0.933771 -0.330665 0.136863
0.278769 -0.0900622 0.45402 -0.983885 0.172462 0.0472006
-0.0518769 -0.0867116 0.603235 -0.98735 -0.157659 0.0168571
-0.163062 -0.079006 0.38957 0.49631 0.868047 0.013088
0.0197084 -0.0508052 0.44704 0.741879 0.670531 -0.00224966
-0.00423571 0.00083015 0.733798 0.61856 0.765874 0.175557
0.018427 -0.070659 0.0907318 0.986787 -0.0797115 -0.141061
-0.0210764 -0.101217 0.886086 -0.186525 -0.962985 0.1946
-0.0531985 -0.0626456 0.304895 -0.994454 0.104553 -0.0114249
0.216966 -0.0708376 0.440106 0.00238679 -0.999996 -0.00179473
-0.0765851 -0.056964 0.160189 0.00848585 0.999964 0.000500955
-0.31601 -0.0877761 0.381666 0.969288 0.245831 0.00698768
-0.183693 -0.0640762 0.546675 -0.168628 0.910193 0.378304
-0.317711 -0.0689842 0.485997 -0.165105 -0.90818 0.384643
-0.157141 -0.0856199 0.267178 0.838355 0.54399 -0.035146
-0.385231 -0.0696011 0.357028 0.0120331 -0.976022 -0.21734
-0.329329 -0.0688624 0.394705 -0.999131 0.0416625 -0.000862532
0.132571 -0.0974709 0.430135 -0.969646 -0.244493 0.00318343
0.444113 -0.0702802 0.422755 0.0558537 -0.990302 0.127207
0.136234 -0.0614309 0.510811 0.00666198 0.999965 -0.0051166
0.151582 -0.0943094 0.574129 0.937838 -0.231905 0.258225
-0.0407767 -0.0779338 0.900891 -0.938407 -0.298144 0.174649
-0.172648 -0.0760228 0.335124 -0.0618306 0.998061 0.00710411
-0.0359807 -0.0171049 0.674246 -0.118585 -0.987072 -0.107823
-0.176345 -0.0615178 0.42932 -0.00699436 0.999976 0.000279838
0.131944 -0.0928286 0.404256 -0.998753 0.0483116 0.012597
-0.0233207 0.0063534 0.719973 0.36394 -0.91614 -0.168032
-0.183798 -0.0818668 0.256511 -0.629149 0.776431 -0.0364337
-0.0513418 -0.0484036 0.67776 -0.992114 0.125329 0.00156008
0.326139 -0.062115 0.366984 -0.00222819 0.999479 -0.0322123
-0.315965 -0.0776827 0.303044 0.812198 -0.583266 -0.011647
0.164923 -0.0855666 0.336443 0.898448 0.43908 -0.000396862
0.139192 -0.0802868 0.269852 -0.556973 0.829727 -0.0365318
-0.185945 -0.103565 0.421608 -0.802611 -0.596495 0.00309892
-0.19665 -0.0620104 0.526281 -0.0252632 0.998423 0.0501277
-0.436832 -0.0700254 0.356049 0.00305369 -0.989057 -0.147503
-0.188434 -0.100766 0.328923 -0.930116 -0.367263 0.00108643
-0.180999 -0.0889137 0.529173 -0.845384 0.509523 0.16035
-0.0385557 -0.070228 0.920715 -0.976573 -0.0927126 0.194191
0.297536 -0.0706965 0.407063 0.0010013 -0.999997 0.00223418
0.00675818 -0.0251146 0.758095 0.63842 0.769223 0.0267526
0.141007 -0.101912 0.284389 0.723749 -0.690061 -0.0018298
-0.340344 -0.0706795 0.418823 -0.000269501 -1 -0.0009001
0.175566 -0.0616797 0.463681 0.00410667 0.999987 -0.00298378
-0.337273 -0.0824046 0.352195 -0.849095 0.52824 -0.000465149
0.301179 -0.096554 0.453474 0.993333 -0.106133 0.0450099
0.0070784 -0.0583202 0.00275319 -0.949823 -0.298285 0.0941366
-0.0298838 -0.0271929 0.0629453 -0.320109 0.936622 -0.14237
0.105882 -0.0614561 0.550957 0.0224293 0.999202 0.0330618
-0.0343416 -0.0409328 0.0638483 -0.228462 0.209232 -0.950803
0.16452 -0.1096 0.277455 -0.706372 -0.707838 0.00194725
-0.0098396 -0.112722 0.284567 0.0771653 -0.997017 -0.00135126
-0.259784 -0.0707914 0.404465 -0.00314815 -0.999992 0.00242854
0.452519 -0.0705858 0.385832 0.0113637 -0.999931 -0.00297086
0.0140611 -0.0353638 0.599301 0.941841 0.336038 0.00374838
-0.00641762 -0.0387613 0.0232795 -0.348725 -0.922759 0.164031
-0.0762733 -0.0738104 0.523118 -0.0849218 -0.996366 0.00651564
-0.0279646 -0.0278144 0.856479 -0.405861 0.899939 0.159329
-0.0252172 -0.112591 0.425082 -0.0935392 -0.995615 0.00053723
-0.166663 -0.10992 0.415074 0.329481 -0.944158 0.00289178
0.293375 -0.0904522 0.296588 -0.659306 -0.288428 -0.694352
-0.338072 -0.0706813 0.396236 -0.00028827 -0.999999 -0.00108025
0.134412 -0.103795 0.315922 -0.8626 -0.505886 -0.0012358
-0.0432215 -0.0268831 0.663525 -0.727431 0.686179 0.00150174
0.374223 -0.0624059 0.450065 0.0366077 0.994954 0.0934127
0.0176889 -0.0723716 0.741278 0.999114 -0.0419967 0.00280064
0.117705 -0.0714334 0.458572 0.0119131 -0.999916 0.00512487
0.248082 -0.0620665 0.371672 -0.000637222 0.999699 -0.0245444
0.462211 -0.0637531 0.348349 0.0274453 0.903028 -0.428704
0.382829 -0.0621063 0.363379 -0.00342392 0.999628 -0.0270459
-0.112871 -0.0639619 0.081644 0.396206 0.518639 -0.757651
0.196067 -0.0709246 0.391228 0.00490827 -0.999987 0.0017077
-0.0111358 -0.0267472 0.0528499 0.139413 0.978964 -0.148974
0.0236947 -0.0782055 0.46457 0.483857 -0.875095 -0.00956909
0.210136 -0.0698232 0.360868 -0.00287476 -0.990028 -0.140843
0.0130713 -0.0328033 0.498339 0.909231 0.416289 0.00151663
-0.156693 -0.0849941 0.348558 0.862654 0.505751 0.00659165
0.163755 -0.0621109 0.369526 -0.000916879 0.997603 -0.0691853
-0.034209 -0.110987 0.674961 -0.272166 -0.96225 -0.000465905
-0.00439035 -0.112085 0.286594 0.179333 -0.983788 -0.00120169
-0.289863 -0.0707249 0.439886 -0.00168277 -0.999997 -0.00143891
0.132548 -0.08791 0.292557 -0.955569 0.292699 -0.0348491
-0.0133033 0.0298273 0.152351 0.999313 0.0310487 -0.0202525
0.386696 -0.065336 0.453887 0.32089 0.549381 0.771499
0.0937019 -0.0578096 0.141057 0.307837 0.932633 0.188232
-0.321659 -0.0783648 0.377201 0.629702 0.776771 0.0100924
-0.227158 -0.0708865 0.422525 -0.00389822 -0.999991 -0.00135371
0.124917 -0.0713625 0.41032 0.010377 -0.999938 -0.00415116
-0.0358502 -0.110482 0.308141 -0.305537 -0.952179 0.0013754
-0.0140207 0.111147 0.147555 0.999059 0.0344066 -0.0264017
0.014281 -0.0864117 0.0412417 0.806558 -0.566786 -0.16798
-0.00695468 -0.112419 0.519378 0.116332 -0.993208 -0.00211188
0.250607 -0.0707669 0.464921 0.00180719 -0.999997 -0.00150283
0.122208 -0.0622343 0.366402 0.00490811 0.995972 -0.0895319
-0.224729 -0.0617925 0.389394 -0.00322239 0.99998 -0.00548717
0.136474 -0.0825658 0.438037 -0.742959 0.669293 0.00767298
-0.338489 -0.101641 0.401635 -0.949355 -0.313913 0.0135444
-0.0593963 -0.075448 0.125969 -0.261381 -0.96287 -0.0675403
-0.0889195 -0.0728867 0.552249 -0.0563706 -0.998407 0.0022975
-0.0135382 0.0362383 0.150219 0.999219 0.0282981 -0.0275769
0.139181 -0.0797992 0.408357 -0.612291 0.790524 0.013101
0.290796 -0.0846279 0.500095 0.201636 0.949339 0.241035
-0.179491 -0.0780836 0.385962 -0.420689 0.907116 0.0127506
-0.0748543 -0.0587357 0.537755 -0.115419 0.99328 0.00853419
-0.412655 -0.0620155 0.407173 0.000750324 0.999998 -0.00163011
0.277534 -0.0937581 0.385955 -0.9994 0.033961 0.00681033
0.158225 -0.061603 0.48827 0.00745282 0.999966 0.00364386
0.166952 -0.0948765 0.303629 0.999639 -0.0268501 0.000663469
0.0821418 -0.0570038 0.118614 -0.00820699 0.999816 -0.0173287
-0.000470973 -0.0214614 0.760832 0.283941 0.95882 0.00647475
-0.0415403 -0.0253254 0.606058 -0.59994 0.800044 -0.00133399
-0.435053 -0.0658166 0.436728 -0.400085 0.246468 0.882715
-0.0701949 -0.0581041 0.414779 -0.147231 0.989092 0.00451284
-0.3078 -0.0619977 0.432105 -0.00129772 0.999998 0.00152345
-0.00201359 -0.0210915 0.378268 0.221049 0.975258 -0.0030772
0.145642 -0.0711789 0.470448 0.00606039 -0.999979 -0.0024806
-0.0483064 -0.100468 0.728115 -0.877855 -0.478752 0.0129131
0.137846 -0.107533 0.328323 -0.662145 -0.749375 -0.000407601
-0.0506633 -0.0439282 0.247155 -0.980573 0.196156 0.000244357
0.012152 -0.0309774 0.299035 0.884915 0.465749 -0.00176379
0.160244 -0.0810337 0.442485 0.669423 0.742866 0.00484848
-0.113398 -0.0578182 0.15992 -0.18522 0.970973 0.151346
-0.00566608 -0.112279 0.180549 0.141097 -0.989995 -0.00117191
0.146635 -0.0704347 0.408946 -0.998271 0.0587804 -0.000830125
0.292556 -0.0775835 0.304926 0.288252 0.956316 -0.0486788
0.0176109 -0.0743558 0.670643 0.998767 -0.0496385 4.67402e-05
-0.195899 -0.0710488 0.49993 -0.00556645 -0.999984 -0.00132655
-0.176105 -0.0704803 0.539337 -0.0345459 -0.996949 0.0699978
0.104483 -0.0623517 0.0835388 0.776008 0.611571 -0.15425
-0.0499805 -0.0637363 0.0217339 -0.978121 0.0458754 -0.202917
-0.155902 -0.0888283 0.437117 0.942429 0.334327 0.00727674
-0.221072 -0.0617745 0.498458 -0.00581881 0.999968 0.00548901
-0.0132253 0.0335056 0.176606 0.999576 0.0288925 0.00360632
-0.323134 -0.106753 0.472686 0.556412 -0.822713 0.116397
0.136789 -0.0905518 0.519792 -0.963125 0.23783 0.12581
0.00334982 -0.0227915 0.747865 0.403455 0.91497 0.00735694
0.141541 -0.0776946 0.298427 -0.468817 0.883295 0.000824426
0.382816 -0.0706759 0.396629 0.000116427 -1 0.000647781
-0.0271193 -0.0202832 0.550839 -0.131099 0.991369 0.00017738
0.146464 -0.085524 0.469543 -0.999648 0.0259462 0.00560682
0.149081 -0.11162 0.307465 -0.0168607 -0.999857 0.0010596
-0.0232825 -0.0199052 0.512801 -0.067426 0.997724 0.00119313
0.0473441 -0.0697782 0.59406 0.224545 -0.880149 0.418232
0.278109 -0.0876653 0.358635 -0.97204 0.234699 0.00735819
-0.0401316 -0.108713 0.446138 -0.469301 -0.883009 -0.0072017
0.173347 -0.06994 0.265726 0.73514 -0.677716 0.0164646
-0.177995 -0.109348 0.455982 -0.334094 -0.942318 0.0204592
-0.142603 -0.0611774 0.484864 -0.0140472 0.999888 0.00525972
-0.0520484 -0.0842427 0.633597 -0.99801 -0.0630215 0.00210172
-0.0179533 0.0621477 0.240942 -0.661254 0.491678 0.566565
-0.0472863 -0.102273 0.194853 -0.846496 -0.532392 0.00177391
0.00898018 -0.0996253 0.807856 0.823519 -0.559964 0.0908687
-0.186716 -0.0790848 0.467856 -0.803997 -0.589054 0.0812711
-0.0455921 -0.104522 0.56811 -0.780407 -0.625253 0.00484465
0.388704 -0.0706888 0.42992 -0.00175392 -0.999993 -0.00332757
-0.104388 -0.0705583 0.367263 -0.019798 -0.981754 -0.189122
-0.00847195 -0.112606 0.221394 0.0915864 -0.995797 -0.000728155
-0.0484199 -0.0990828 0.129261 -0.910659 -0.412475 -0.0237448
0.0171954 -0.0490161 0.278397 0.984067 0.177793 0.0013132
0.466283 -0.0624213 0.378971 0.0463727 0.998782 0.0168328
0.13167 -0.0903958 0.346486 -0.976018 0.217541 0.00802326
0.0119035 -0.0322128 0.12035 0.888702 0.457317 -0.0327043
-0.343082 -0.115739 0.308272 0.809721 -0.586784 0.00598968
0.00707241 -0.0149429 0.717726 0.982984 0.168781 0.0724922
-0.185658 -0.0841493 0.454517 -0.804247 0.59393 0.0208246
-0.0708813 -0.0743837 0.433029 -0.137308 -0.99049 0.0087502
0.0203559 -0.053573 0.213582 0.710254 0.703555 0.0234587
0.0212366 -0.0781978 0.0577464 0.937063 -0.321126 -0.137081
-0.378746 -0.0637864 0.459798 -0.141613 0.932701 0.331684
-0.377582 -0.062018 0.401378 -0.00013985 0.999999 0.00136474
-0.205442 -0.0709919 0.433892 -0.00560337 -0.999979 0.00311012
-0.0205825 0.0538553 0.236602 -0.99602 0.062291 0.0637439
-0.173301 -0.0771859 0.256647 -0.11266 0.993049 -0.0340851
-0.0207805 0.0586212 0.160569 -0.999964 0.00655921 -0.00541457
-0.00209668 -0.0278196 0.0613244 0.350025 0.925881 -0.142218
0.0131506 -0.0583535 0.854152 0.993069 0.0686025 0.0954292
-0.0047684 -0.0334807 0.880222 0.531009 0.827446 0.182655
-0.320624 -0.0838844 0.323448 -0.820324 0.571899 3.94979e-05
-0.0733847 -0.0685457 0.357792 -0.207671 -0.714966 -0.667605
0.0464431 -0.0726883 0.578573 0.0996685 -0.990997 0.0893961
0.0843831 -0.0719435 0.464248 0.0215609 -0.999766 0.00149892
-0.0134191 0.0351227 0.154514 0.999442 0.0272138 -0.019348
0.137342 -0.0702552 0.364817 0.00163111 -0.996027 -0.0890349
-0.156665 -0.102157 0.370649 0.868181 -0.496184 0.00795561
0.132662 -0.09626 0.267247 -0.982712 -0.181775 -0.0351481
-0.207558 -0.0696583 0.363378 0.000614738 -0.985698 -0.168523
-0.0466122 -0.0353015 0.786574 -0.883357 0.464955 0.0591278
-0.0211849 0.0352725 0.204353 -0.999561 0.0290182 0.00592353
-0.0435105 -0.105992 0.756274 -0.691496 -0.721485 0.0359518
-0.0523383 -0.0692541 0.724456 -0.999985 -0.00535215 -0.00131776
-0.0990152 -0.0602408 0.456242 -0.0324301 0.999443 0.00789101
-0.328399 -0.0767653 0.412681 -0.0652285 0.997701 0.0183682
-0.338082 -0.102321 0.410897 -0.917536 -0.397418 0.0136506
-0.386144 -0.0705768 0.444063 -0.0124519 -0.999379 0.0329645
0.00479826 -0.029711 0.820355 0.747241 0.655526 0.109165
0.00624852 -0.0406896 0.0579861 -0.667281 -0.733691 0.128196
0.16473 -0.0976677 0.480877 0.969416 -0.240229 0.0502355
-0.0621179 -0.0763007 0.424206 -0.261685 -0.965149 0.00295521
-0.107128 -0.0604608 0.521487 -0.0277265 0.999585 -0.00777464
0.294677 -0.110246 0.354387 0.488401 -0.872618 0.00144985
0.185021 -0.0709736 0.476141 0.00558834 -0.99998 0.00297247
-0.0220457 -0.0198174 0.674479 -0.056245 0.998417 -0.000628848
0.0170769 -0.046048 0.473472 0.936909 0.34952 0.00605046
-0.00526533 -0.11221 0.691004 0.136589 -0.990626 -0.00174245
-0.0396784 -0.0845785 0.0321319 0.770384 0.617562 0.158509
0.327202 -0.062014 0.425694 0.000127157 0.999999 -0.00105562
0.154208 -0.110867 0.343014 0.266315 -0.963852 0.00808963
-0.238456 -0.0618357 0.491605 -0.00270462 0.999996 5.33244e-05
-0.0137688 0.10446 0.180682 0.999958 0.00918416 -0.000799266
0.0153138 -0.0920469 0.661492 0.970079 -0.242788 0.000183075
-0.157469 -0.0853924 0.443036 0.856443 0.516164 0.00900237
0.146358 -0.0831967 0.418442 -0.999441 0.0334263 0.000882137
-0.0787042 -0.0590934 0.463809 -0.0895159 0.995849 -0.0164988
-0.0815771 -0.0733781 0.504215 -0.0813703 -0.99658 0.0144133
-0.0398308 -0.0395179 0.0733601 0.66844 -0.738011 0.0923464
-0.0266247 -0.112438 0.175641 -0.134321 -0.990938 -0.000262681
-0.333486 -0.106517 0.299923 -0.609804 -0.659552 -0.439465
-0.475525 -0.0686656 0.396424 -0.466841 -0.884179 -0.0169493
-0.189031 -0.0885882 0.339085 -0.945797 0.324681 0.00710201
0.0483177 -0.0593733 0.45695 0.0716636 0.997392 0.00855021
-0.0347659 -0.102348 0.847587 -0.591457 -0.792844 0.146893
0.0362629 -0.058231 0.447462 0.154067 0.988058 -0.00197538
0.340974 -0.0706782 0.375152 0.000254432 -1 0.000376025
0.0161917 -0.0877043 0.677022 0.982843 -0.184442 8.65822e-05
0.290674 -0.0894122 0.397991 0.999861 -0.0166854 -0.000456274
0.457804 -0.0705172 0.364303 0.01491 -0.999887 -0.00204346
0.0947286 -0.0689093 0.358706 -0.00719431 -0.943662 -0.330833
0.00916491 -0.105858 0.186198 0.757727 -0.652571 0.000327783
-0.0043962 -0.0945334 0.04169 -0.378754 0.914495 0.142284
0.272671 -0.0691217 0.300331 0.801419 0.598103 0.00125396
0.137991 -0.0700607 0.363144 0.00136017 -0.989877 -0.141918
0.28111 -0.0822066 0.417443 -0.841138 0.540804 0.00423439
0.0180638 -0.0822823 0.174144 0.890263 -0.455432 -0.00379412
0.11238 -0.0715017 0.405172 0.0118701 -0.999889 0.00901232
0.123335 -0.0713595 0.391705 0.0104203 -0.999939 -0.00371142
0.014097 -0.0966051 0.395294 0.946887 -0.321554 -0.00296486
0.206158 -0.0638627 0.355886 -0.00748218 0.968183 -0.250131
0.300218 -0.103219 0.319524 0.904208 -0.425232 -0.0398328
-0.0804047 -0.0591973 0.428806 -0.0850793 0.996333 0.00906545
6.16323e-05 -0.0220667 0.78087 0.365169 0.930323 0.0339336
0.136161 -0.0854683 0.49173 -0.854312 0.515449 0.0668137
-0.0147754 -0.087749 0.063241 0.0100636 0.0149001 -0.999838
0.140764 -0.10762 0.462431 0.834428 0.550751 0.0200752
0.0163683 -0.0657433 0.811368 0.998277 0.0425764 0.0403685
0.10918 -0.0611639 0.503616 0.0160253 0.999848 0.0068508
-0.0503213 -0.0422365 0.283047 -0.979221 0.202788 0.00203001
-0.0518215 -0.0535539 0.746789 -0.997685 0.0679207 0.00334915
-0.207516 -0.0709772 0.469932 -0.00588218 -0.999975 0.00383328
0.055824 -0.0598494 0.548119 0.0591227 0.9982 0.0101089
0.163193 -0.0918345 0.507154 0.98409 0.14833 0.0978038
-0.0199323 -0.112947 0.571893 -0.0451176 -0.99898 -0.00177292
0.0875132 -0.0718665 0.45806 0.0209495 -0.999779 0.00197189
0.0164168 -0.0391784 0.072283 0.770608 0.616501 -0.161522
-0.161737 -0.0973471 0.524543 0.932114 -0.328984 0.151436
-0.0513748 -0.0906916 0.377324 -0.987296 -0.158735 0.00701269
0.0177844 -0.0502769 0.609424 0.962481 0.270835 0.0166995
-0.0107937 -0.0122201 0.306787 0.673212 0.699695 0.239192
0.0773961 -0.071544 0.375122 0.0256019 -0.997696 -0.0628274
0.156144 -0.0938743 0.555142 0.977669 -0.0500756 0.204096
-0.0509712 -0.0928139 0.31864 -0.981249 -0.192704 -0.00392716
-0.0460493 -0.0306038 0.533925 -0.872192 0.489151 -0.00348883
-0.174552 -0.111222 0.359281 -0.125965 -0.992003 0.00794948
0.151542 -0.0615512 0.495866 0.0063432 0.99998 -0.00035519
0.136267 -0.0702615 0.548754 0.0413759 -0.995171 0.0890114
-0.0223057 0.00775515 0.270745 -0.988161 0.145577 0.0484171
0.163312 -0.103767 0.398216 0.808847 -0.587883 0.0126695
-0.28691 -0.070729 0.418639 -0.00236264 -0.999996 0.00144078
0.290589 -0.0864592 0.478872 0.999809 0.00179792 -0.0194595
0.158685 -0.0915274 0.540062 0.956985 0.237275 0.166974
-0.0508922 -0.0446294 0.531787 -0.966013 0.258456 0.00448572
0.0668867 -0.0723997 0.472162 0.037051 -0.999256 0.0107031
-0.0293673 -0.0395462 0.025601 0.434068 -0.885865 0.163795
0.17433 -0.0617274 0.515632 0.0124774 0.99972 0.0200963
-0.0358363 -0.0222497 0.535192 -0.350844 0.936422 -0.00473381
-0.051781 -0.087959 0.179459 -0.985815 -0.167837 0.000625117
0.0042437 -0.0823283 0.90225 0.915174 -0.366606 0.167501
-0.00331152 -0.0918033 0.0285221 -0.433734 0.886039 0.163736
0.0191066 -0.0516859 0.346737 0.912537 0.407165 -0.0386257
-0.0705112 -0.0574204 0.135509 0.00181296 0.999304 -0.0372623
-0.0286961 -0.0356208 0.0472707 0.379219 -0.915112 0.136978
0.16466 -0.100587 0.439326 0.902555 -0.430505 0.00771628
0.331448 -0.0706787 0.434151 0.000700604 -0.999999 0.00105452
0.279734 -0.0625683 0.361441 -0.00263415 0.996 -0.0893087
-0.448065 -0.0620614 0.378249 -0.00423341 0.999974 0.0058305
-0.1858 -0.103627 0.434842 -0.804591 -0.593808 0.00500351
-0.137475 -0.0707254 0.133207 -0.836073 -0.447887 0.316826
-0.205518 -0.0617014 0.416351 -0.00470197 0.999987 -0.00203295
0.221493 -0.0623592 0.510107 0.0362222 0.995653 0.0858085
0.0230563 -0.0539381 0.513026 0.551869 0.833866 -0.0104536
0.101114 -0.0716403 0.431516 0.015271 -0.999868 0.00557577
-0.337282 -0.0844371 0.446815 -0.886582 0.461617 0.0296894
-0.0109157 -0.101946 0.0393034 0.13856 -0.974851 -0.174548
-0.0545001 -0.0790067 0.597811 -0.857538 -0.512562 0.0436897
-0.0205715 0.067125 0.14947 -0.999537 0.00216283 -0.0303585
-0.18258 -0.0797918 0.370609 -0.612324 0.790567 0.00794655
0.286317 -0.0839783 0.492386 -0.549433 0.812554 0.194625
0.167887 -0.112769 0.285085 -0.674437 -0.73807 0.0196849
0.105168 -0.0611071 0.504703 0.0160253 0.999848 0.0068508
-0.430085 -0.0620153 0.385676 -0.00218514 0.999994 0.00270171
0.00212788 -0.110399 0.195311 0.339354 -0.940648 0.00440006
-0.0709778 -0.0591409 0.114287 0.0446965 0.985044 -0.166404
-0.240175 -0.0618557 0.399672 -0.00282065 0.999995 -0.0017056
-0.0144686 -0.0289755 0.874902 0.14471 0.971092 0.189842
0.0175995 -0.0544127 0.630044 0.994589 0.0983588 0.0334494
-0.0206359 0.0829905 0.152676 -0.999757 -0.00495859 -0.0214608
-0.0154282 0.0339787 0.130191 0.921742 0.0411714 -0.385611
0.135994 -0.0823057 0.388276 -0.735705 0.677182 0.0127466
0.0158126 -0.0700679 0.0174933 0.96966 -0.137786 -0.201928
-0.160484 -0.0865889 0.503888 0.851285 0.51379 0.106456
-0.0348751 -0.110794 0.695831 -0.271065 -0.96256 0.000986167
-0.0393345 -0.107266 0.789236 -0.586338 -0.807197 0.0681241
0.063602 -0.072528 0.480387 0.0295257 -0.999564 0.0008559
0.0155893 -0.0408623 0.688242 0.974722 0.223419 -0.0006949
-0.211911 -0.0617329 0.444132 -0.00555962 0.999983 0.00196232
-0.0346482 -0.0208485 0.213119 -0.545388 0.838169 0.00500171
-0.310048 -0.0619981 0.451631 -0.000417803 0.999999 -0.00151916
-0.00312521 -0.0208614 0.655774 0.209592 0.977789 -2.03476e-05
0.0178045 -0.0822848 0.331976 0.920574 -0.388311 -0.0419266
-0.000579968 -0.0856339 0.00905399 -0.612837 0.760445 0.214838
-0.0337258 -0.0095474 0.661604 -0.924169 0.324727 -0.201158
-0.0484606 -0.0768888 0.0601 0.940401 0.322345 0.108347
-0.329294 -0.106718 0.481494 -0.204849 -0.964808 0.164871
0.234709 -0.0619356 0.378145 0.000864714 0.999924 -0.0122868
-0.00379298 -0.087412 0.0073887 -0.488828 0.850499 0.19416
0.140877 -0.0780496 0.322096 -0.438963 0.898505 -0.000396415
0.0199229 -0.069275 0.0378531 0.978752 -0.107943 -0.174336
0.0138004 -0.034597 0.47653 0.936207 0.351447 -0.00120524
-0.0139667 0.0974787 0.202424 0.99613 0.054004 0.0693503
-0.0162672 -0.0207835 0.0968367 0.00523377 0.927913 -0.37276
0.0278204 -0.0761961 0.201333 0.148802 -0.988743 0.015672
-0.129884 -0.0574126 0.132664 -0.12888 0.991331 0.0255621
0.379488 -0.0706728 0.391392 -0.00065219 -0.999999 -0.00154583
0.417273 -0.0706904 0.406578 0.0011272 -0.999997 0.00213289
-0.0127209 -0.019784 0.40078 0.0521767 0.998637 0.0011402
-0.0462742 -0.0309976 0.524315 -0.86534 0.501185 -0.000940898
0.0144896 -0.0952402 0.179968 0.954955 -0.296745 0.0015852
0.437835 -0.0620385 0.402133 0.00265521 0.999996 0.000702503
-0.12196 -0.0608662 0.411815 -0.022828 0.999729 0.00446215
0.038992 -0.0645343 0.223871 0.794168 0.114888 0.59674
-0.0406177 -0.0246684 0.675653 -0.562988 0.826463 -0.00193398
0.0464923 -0.0733889 0.414352 0.0797309 -0.996679 0.0165623
0.0718025 -0.0722662 0.438322 0.0279566 -0.999593 0.00566816
0.0176753 -0.047457 0.389006 0.914534 0.40444 -0.00742845
0.0565449 -0.0757178 0.162256 -0.00363922 -0.999991 -0.00205279
0.402065 -0.0620119 0.412125 0.000175337 0.999998 0.00213147
0.00445109 -0.0134406 0.730321 0.954715 0.261949 0.141074
-0.0425212 -0.0261976 0.491467 -0.701005 0.713118 -0.00738049
0.137327 -0.081042 0.391904 -0.672337 0.740138 0.0125866
-0.0476897 -0.0337803 0.705837 -0.91369 0.406411 -0.000549895
0.0954092 -0.0717437 0.529672 0.0131547 -0.999909 -0.00310647
0.284375 -0.103825 0.483908 -0.714001 -0.683455 0.151962
-0.292414 -0.0619713 0.445749 -0.00141106 0.999999 0.00047234
-0.288753 -0.0625143 0.365621 0.0018708 0.996739 -0.0806774
-0.0140626 0.106735 0.143527 0.998424 0.0196617 -0.052571
0.380073 -0.0620173 0.422844 -0.000244886 1 -0.000740802
0.373354 -0.070497 0.361545 -0.0033703 -0.999559 -0.0295185
-0.189706 -0.0759982 0.280723 0.67432 0.738177 0.0196643
0.0824899 -0.0605446 0.0843283 -0.189756 0.885972 -0.423138
-0.297639 -0.0619795 0.432275 -0.00169851 0.999998 0.00124613
0.0124612 -0.100594 0.732513 0.90602 -0.423086 0.0112149
-0.0274486 -0.0203178 0.711493 -0.132388 0.991196 0.00174078
-0.052663 -0.0821975 0.331433 -0.972173 -0.231065 -0.0385918
-0.0246963 -0.112635 0.476455 -0.0897812 -0.995961 -0.000659564
0.0273846 -0.0564886 0.152411 0.124231 0.991997 -0.0225438
0.0117578 -0.0302337 0.181328 0.86462 0.502424 0.00152638
0.302789 -0.0706791 0.464106 0.00192734 -0.999991 0.00386264
0.263745 -0.069168 0.50144 0.10364 -0.964132 0.244351
-0.170976 -0.0886848 0.449116 0.999865 -0.0162082 0.00266415
0.25223 -0.0707585 0.449966 0.00226084 -0.999996 0.00194042
-0.0141252 -0.11293 0.787336 0.0249992 -0.999663 0.00695106
-0.00481027 -0.112138 0.334086 0.145724 -0.989325 -0.000486202
0.0151455 -0.0387933 0.570189 0.966213 0.257746 -0.000682165
0.163809 -0.0876803 0.484559 0.901114 0.430039 0.0553229
0.286394 -0.0924776 0.514459 -0.958902 0.167701 0.228872
-0.123836 -0.0616574 0.0784857 0.285306 0.821548 -0.49362
-0.0378375 -0.0384992 0.0651882 0.623472 -0.779984 0.0539179
-0.128988 -0.0579845 0.0909705 -0.0240363 0.994977 -0.0971782
0.280639 -0.102169 0.462328 -0.918359 -0.389888 0.0678613
-0.0357463 -0.0165614 0.661566 -0.396506 -0.904199 -0.158769
0.0169137 -0.082709 0.713443 0.993436 -0.114381 -0.00110062
-0.17942 -0.0776108 0.335274 -0.438952 0.898483 0.0071021
-0.0210175 -0.104161 0.051712 -0.108822 -0.98184 -0.155398
-0.0515401 -0.0503795 0.743424 -0.992872 0.119049 0.00566289
0.0235019 -0.0754112 0.238266 0.471714 -0.87586 0.101755
-0.326993 -0.0851069 0.46855 0.999383 -0.0350898 -0.00119439
-0.0336153 -0.111127 0.261129 -0.23289 -0.972503 -0.000817177
-0.160731 -0.0713056 0.451859 -0.00851915 -0.999962 -0.00200153
-0.271882 -0.0619284 0.397708 -0.0018469 0.999996 -0.00199043
-0.181416 -0.102872 0.268238 -0.689008 0.724745 -0.00354093
0.0535276 -0.0570078 0.13921 -0.00287547 0.999897 -0.014075
0.148591 -0.108533 0.500867 -0.0517632 -0.995266 0.0822558
0.160686 -0.0710958 0.431273 0.00514862 -0.999986 0.00147471
0.00732392 -0.0725881 0.00130589 -0.864787 0.270471 -0.423071
0.292706 -0.102111 0.295208 -0.0647072 0.0847022 -0.994303
0.28801 -0.0803389 0.452027 -0.999989 -0.00417855 0.00221494
-0.0644031 -0.0643677 0.352864 -0.425105 0.637161 -0.642893
-0.0511088 -0.0858585 0.783523 -0.991863 -0.120374 0.0414548
-0.24771 -0.0618683 0.469808 -0.00297711 0.999996 4.12858e-05
-0.0528055 -0.0784205 0.0992847 -0.923426 -0.378025 -0.066196
-0.337644 -0.0830621 0.351121 -0.881914 0.471408 -0.00134047
0.135922 -0.105361 0.371427 -0.718948 -0.695017 0.00809729
0.339065 -0.0706748 0.4372 0.000305746 -1 -3.68521e-05
-0.0627094 -0.0578245 0.589084 -0.280278 0.95702 0.0745408
-0.228892 -0.0618087 0.429022 -0.00325752 0.999993 -0.00203668
0.00491701 -0.0234928 0.300045 0.52548 0.850806 -0.000802002
-0.0465048 -0.0886309 0.0451585 -0.789252 -0.59239 -0.161728
0.307874 -0.0696032 0.481631 0.0767324 -0.979053 0.188594
0.396639 -0.0702196 0.441909 0.0467514 -0.992032 0.116995
0.0136953 -0.0348946 0.141292 0.938088 0.346109 -0.0141429
-0.0113458 -0.10996 0.834419 0.202663 -0.973327 0.107524
0.0130854 -0.0870796 0.0814611 0.930557 -0.327955 -0.162818
-0.0458177 -0.0623689 0.874158 -0.99076 0.0500948 0.126033
-0.137817 -0.0611193 0.45956 -0.0137008 0.999884 0.00658353
0.132621 -0.100003 0.292831 -0.93329 -0.357587 -0.0331907
-0.328161 -0.110533 0.440185 -0.0739852 -0.997066 0.0196213
0.398881 -0.0620119 0.423743 -0.00214716 0.999991 -0.00369499
0.285809 -0.0996284 0.504162 -0.767431 -0.602646 0.218784
0.411899 -0.0706875 0.408938 0.000587273 -0.999992 0.00390526
-0.0514999 -0.0896507 0.191992 -0.989082 -0.147331 -0.00314375
0.0522164 -0.05745 0.125095 -0.0306819 0.998668 -0.0414907
0.165458 -0.110469 0.285499 -0.69212 -0.721722 0.00935999
0.2905 -0.0770086 0.400118 0.999931 -0.000769075 -0.0117503
-0.163106 -0.0712805 0.4095 -0.00839342 -0.999962 -0.00214468
-0.0534546 -0.078908 0.25806 -0.954881 -0.296672 0.0137387
-0.174833 -0.0822578 0.419684 -0.999911 0.0133627 -5.3022e-06
-0.00513638 -0.028444 0.0505267 0.290722 0.944095 -0.155449
-0.320132 -0.0795423 0.332342 0.717593 0.696462 -0.000590368
0.0159111 -0.0896115 0.2977 0.978512 -0.206191 0.00026489
-0.158766 -0.0959581 0.505392 0.982785 -0.148479 0.109942
0.150603 -0.0760234 0.336396 0.026951 0.999636 0.000661652
0.136633 -0.0614308 0.512803 0.00828574 0.999966 0.000290794
-0.321975 -0.102129 0.327579 -0.83158 -0.555395 0.00332781
-0.0238635 -0.0199339 0.623939 -0.0843075 0.996438 -0.00191029
-0.157696 -0.10266 0.26407 0.832184 -0.553295 -0.0365308
0.153944 -0.108202 0.49528 0.332881 -0.940376 0.0698885
0.166373 -0.0893882 0.346632 0.963859 0.26629 0.00808422
-0.335048 -0.0833396 0.437759 -0.810691 -0.585465 -0.00340158
-0.179171 -0.10693 0.49007 -0.514906 -0.853635 0.0786051
0.29799 -0.0811019 0.409939 0.790574 0.612176 0.0152879
0.215741 -0.0708518 0.469377 0.00155092 -0.999995 -0.00279427
-0.020413 -0.00462957 0.639161 -0.365824 0.808673 -0.460675
0.0508451 -0.0619532 0.589515 0.120732 0.977733 0.171643
0.0377395 -0.0734182 0.374491 0.113913 -0.988605 -0.0984077
-0.00829432 -0.00989867 0.23213 0.946459 0.32271 0.00855077
-0.0871763 -0.0596592 0.54733 -0.0610767 0.998082 0.0101199
-0.182486 -0.108189 0.299222 -0.588003 -0.808859 -0.000511954
-0.059381 -0.0770942 0.376721 -0.534371 -0.844895 -0.0244767
0.0798945 -0.0609966 0.379254 0.0264535 0.998789 -0.0414819
-0.0157392 -0.112992 0.228025 0.00879376 -0.999959 0.00209879
-0.0379954 -0.0231329 0.556873 -0.436256 0.899822 -0.00112464
-0.02527 -0.112587 0.197398 -0.0935534 -0.995614 0.000484067
0.0149339 -0.0379886 0.327833 0.960887 0.276932 0.00213846
0.280201 -0.10762 0.307058 0.821416 -0.570268 -0.00840837
0.198637 -0.0617904 0.419379 0.00401818 0.999991 0.00126643
-0.319023 -0.0811121 0.378552 0.781386 0.623992 0.00839387
-0.0502484 -0.0956847 0.403274 -0.956273 -0.292471 0.00118916
-0.0243295 -0.0888678 0.00276432 0.326508 0.940693 0.0921348
-0.0100283 -0.0941185 0.0280089 -0.230366 0.95921 0.163855
-0.43433 -0.0683813 0.351862 0.036893 -0.77331 -0.632954
0.198734 -0.0620114 0.513006 0.0146017 0.999495 0.0282069
-0.0430268 -0.0494178 0.00892426 -0.836632 0.512468 -0.193453
0.151251 -0.0771966 0.460042 0.149217 0.988675 0.0159933
0.150133 -0.0763786 0.48599 0.999971 -0.0070136 -0.0031154
-0.0371686 -0.0809146 0.914115 -0.908577 -0.367982 0.197678
0.0748294 -0.0711952 0.572019 0.0624542 -0.993744 0.0925874
0.145743 -0.0763128 0.345171 -0.137538 0.990474 0.00659616
-0.139689 -0.0708499 0.122071 -0.869286 -0.491016 0.0569656
-0.125988 -0.0609412 0.436609 -0.0182941 0.999821 0.00474871
0.263051 -0.0707392 0.400114 0.00140643 -0.999996 -0.00237431
0.282406 -0.105824 0.301315 -0.675584 -0.599586 -0.429048
0.00867595 -0.0453379 0.0153886 0.767605 0.614614 -0.181749
0.126496 -0.0713451 0.443149 0.0113555 -0.999931 0.00308813
-0.130625 -0.0610099 0.432104 -0.0163817 0.99985 0.00564591
-0.16762 -0.0614714 0.39458 -0.00908474 0.999936 -0.00670953
-0.257099 -0.0707876 0.454791 -0.00241385 -0.999996 0.00158309
-0.00454582 -0.112097 0.306202 0.147368 -0.989081 0.000870109
-0.329202 -0.111472 0.352568 -0.172306 -0.985043 0.00117911
-0.031023 -0.111731 0.601098 -0.197018 -0.980399 -0.00116307
-0.409684 -0.070685 0.411536 0.00174668 -0.99999 -0.00414849
-0.0456616 -0.0507211 0.0176572 -0.879416 0.431063 -0.202021
-0.274214 -0.0624018 0.496542 -0.0350333 0.996429 0.0768224
-0.155588 -0.098882 0.398621 0.940375 -0.339893 0.0129796
-0.0292215 -0.0156584 0.199818 -0.787246 0.616615 0.00548251
0.200268 -0.0617918 0.450867 0.00417808 0.99999 0.00139244
-0.00488869 -0.0339932 0.882839 0.508921 0.83786 0.19746
0.00244254 -0.0928391 0.0205533 0.563148 -0.801306 -0.201926
0.164184 -0.103395 0.335292 0.844208 -0.536015 -0.00116773
-0.184566 -0.105387 0.410417 -0.746251 -0.665554 0.0121088
-0.333694 -0.109427 0.336312 -0.626205 -0.779657 0.00105528
0.287984 -0.0903798 0.444825 -0.996086 -0.0881531 0.00642248
-0.350668 -0.0620149 0.376767 0.000158381 0.999996 -0.00276885
-0.187666 -0.102305 0.336944 -0.907219 -0.420612 0.00629106
-0.172015 -0.110842 0.41298 0.041936 -0.999039 0.0127601
0.131373 -0.0925345 0.334757 -0.999639 0.0268457 0.000686341
-0.00313758 -0.0269973 0.0641263 0.318852 0.931259 -0.176325
-0.0169248 -0.112988 0.393697 -0.000577109 -0.999998 -0.00175465
0.300085 -0.0859066 0.449577 0.919685 0.391015 0.0358636
0.00775286 -0.107193 0.667423 0.679965 -0.733244 -0.00051737
-0.0457102 -0.0300684 0.579408 -0.838485 0.544922 0.00166485
0.166873 -0.0923463 0.322379 0.998089 0.0617866 -0.000388387
-0.0407018 -0.0247478 0.31835 -0.568312 0.822812 -0.00111767
0.0310519 -0.0584078 0.370475 0.226257 0.972651 -0.0525125
0.0166662 -0.0540689 0.786675 0.995486 0.0905856 0.0283156
-0.012995 -0.0168787 0.77356 -0.316372 -0.943996 0.0937036
-0.189313 -0.111052 0.459593 0.687094 -0.726423 0.0145073
-0.175029 -0.0615191 0.438377 -0.00708336 0.999975 0.000361896
0.0077101 -0.0254134 0.47045 0.66193 0.749565 -0.000609673
-0.0374868 -0.0228965 0.419633 -0.408208 0.912888 -0.00088691
0.0162586 -0.0873726 0.723273 0.983446 -0.181176 -0.00300625
0.300378 -0.0851446 0.405011 0.912624 0.408542 0.0145083
0.137792 -0.104795 0.485652 -0.741567 -0.668319 0.0585559
0.0564761 -0.0600324 0.38828 0.0376586 0.998763 -0.0324622
0.0218068 -0.0834104 0.0734462 0.903155 -0.410654 -0.125194
0.0230295 -0.0539425 0.431003 0.566712 0.823889 -0.00663004
0.150791 -0.0765583 0.398661 0.145293 0.989315 0.0120939
-0.052332 -0.0690506 0.650025 -1 -0.000785227 -0.000538546
-0.450602 -0.0620763 0.391816 -0.00651013 0.999972 -0.00378016
-0.0521139 -0.0582642 0.706847 -0.999043 0.0437316 -0.000197565
0.293304 -0.0619965 0.410346 0.00111055 0.999998 0.00148151
-0.171461 -0.0679772 0.384035 0.933535 0.35844 -0.00577335
-0.000823036 -0.111332 0.221455 0.246771 -0.969073 -0.000876202
-0.383234 -0.070684 0.438093 0.000557706 -1 -0.000302085
0.160686 -0.106569 0.405863 0.672306 -0.740166 0.0125823
-0.0532667 -0.0541447 0.26029 -0.934176 0.356504 0.014834
0.284846 -0.100764 0.324963 -0.787369 0.616355 0.012526
0.300238 -0.103009 0.397672 0.92735 -0.373934 0.013995
-0.337512 -0.084146 0.426842 -0.886579 0.462413 -0.0123165
0.0164533 -0.0461068 0.124574 0.970916 0.23928 -0.00816077
-0.0164784 -0.0624549 0.973664 0.137608 0.483379 0.864528
0.0459128 -0.0591808 0.404913 0.070719 0.997435 -0.0110918
-0.339123 -0.0865769 0.341452 -0.956068 0.293143 0.00105721
-0.0533288 -0.0745468 0.314068 -0.980423 -0.193672 -0.0355171
-0.0913456 -0.0726367 0.560466 -0.0545534 -0.997961 0.0331351
0.0776248 -0.0606071 0.487805 0.0268021 0.999601 -0.00896503
-0.329333 -0.0686218 0.461632 -0.998568 0.0534403 0.00244566
-0.0283301 -0.0277261 0.0558887 -0.29074 0.945123 -0.149036
-0.329321 -0.0686828 0.468028 -0.998568 0.0534403 0.00244566
-0.425397 -0.0622606 0.360593 0.00775802 0.996259 -0.0860706
0.16877 -0.0697658 0.538201 0.0732328 -0.982217 0.172878
-0.107772 -0.0605171 0.47128 -0.0283672 0.999557 0.00899929
0.299673 -0.0913213 0.475351 0.989555 0.105317 0.0984305
0.0010538 -0.0218951 0.642717 0.319335 0.947641 -0.00123646
-0.0891498 -0.0729098 0.40984 -0.0641863 -0.997865 0.0120657
-0.326921 -0.0782666 0.468198 0.999984 -0.00485618 -0.00304625
0.0119186 -0.101816 0.429651 0.8832 -0.468996 -0.000722475
0.151433 -0.0767984 0.410586 0.145293 0.989315 0.0120939
-0.0161128 -0.0196982 0.404813 -0.00163941 0.999999 -0.000216511
0.0160814 -0.0716275 0.815132 0.996342 -0.0728754 0.0446384
-0.328598 -0.0817461 0.487107 -0.205355 0.960015 0.190265
0.00977681 -0.0274399 0.636647 0.766937 0.641722 -0.00110823
-0.0504412 -0.0564979 0.0754751 0.960216 -0.263338 0.0929447
0.0731412 -0.0718929 0.380025 0.0243402 -0.999192 -0.0319863
0.0879926 -0.0608319 0.413912 0.0208006 0.999777 -0.00354316
-0.329505 -0.0806149 0.457175 -0.999987 -0.00513297 0.000238001
0.0984483 -0.0610067 0.500329 0.013066 0.999905 -0.00443205
-0.0145919 -0.0197165 0.404486 0.0118259 0.999929 -0.00151012
0.286259 -0.106411 0.478535 -0.443113 -0.884261 0.147419
-0.174792 -0.110713 0.402777 -0.14521 -0.989327 0.0120986
-0.277569 -0.0627637 0.498865 -0.0482931 0.992633 0.111123
-0.188813 -0.0910521 0.429223 -0.988683 0.149527 -0.0121437
-0.167304 -0.0614486 0.517418 -0.0124357 0.999885 0.00871054
0.15026 -0.089515 0.406867 0.999716 -0.0238082 -0.000490026
-0.164649 -0.079716 0.252638 0.443246 0.81686 -0.369151
0.24375 -0.0679735 0.512791 0.240191 -0.775831 0.583434
-0.0130797 0.0288599 0.208587 0.999473 0.032432 -0.00134517
0.318724 -0.0620102 0.387878 0.00059389 0.999997 0.0025678
0.0181967 -0.048504 0.394708 0.902858 0.429902 0.00560699
-0.0232346 -0.0268212 0.860253 -0.227857 0.956349 0.182971
-0.353845 -0.0620194 0.417234 -0.000337823 1 -0.000677896
0.0908778 -0.0570056 0.111959 0.00440954 0.999923 -0.0115588
0.187803 -0.07095 0.410861 0.0041562 -0.999991 -0.000375569
0.0462254 -0.0730289 0.208399 0.492593 -0.791319 0.36217
0.0716195 -0.0682895 0.084505 -0.373433 -0.497046 -0.783258
-0.0233131 0.00213382 0.158733 -0.989427 0.143189 -0.0230227
-0.0128191 0.0184 0.152418 0.997903 0.0598104 -0.024749
-0.0386724 -0.0525952 0.00886497 0.8497 -0.481528 0.214805
-0.0492037 -0.0378668 0.326008 -0.956968 0.290183 0.00259482
-0.165547 -0.0775786 0.378981 0.43477 0.90046 0.0121083
0.457773 -0.0623149 0.355538 0.0114742 0.997811 -0.0651289
-0.248027 -0.0708243 0.428484 -0.00297208 -0.999996 9.50159e-06
-0.00921527 -0.112675 0.438768 0.095854 -0.995395 0.000674229
0.282987 -0.107485 0.43582 -0.721955 -0.691817 0.0130314
0.455088 -0.067158 0.424915 0.372991 -0.416227 0.829237
0.425932 -0.0706794 0.379538 0.00100582 -0.999995 -0.00295591
-0.0207625 0.0615502 0.160969 -0.999975 0.00694728 -0.0011312
-0.130601 -0.0750095 0.0954719 -0.0738353 -0.995719 -0.0555982
-0.108118 -0.0605043 0.423799 -0.0314648 0.999475 0.0077129
0.0661355 -0.0602418 0.404764 0.0286682 0.999548 -0.00900575
0.145406 -0.0763799 0.345649 -0.266132 0.963903 0.00809459
-0.0260403 -0.0354184 0.896788 -0.438842 0.875827 0.20086
-0.00669497 -0.013854 0.153836 0.891961 0.450692 -0.0358042
-0.152803 -0.113022 0.444015 0.712642 0.701515 0.00425117
0.137544 -0.107004 0.371292 -0.677189 -0.735782 0.00629968
-0.243995 -0.062134 0.372456 0.000496317 0.999443 -0.0333712
-0.0959666 -0.0570536 0.168109 -0.0226962 0.999517 0.0212071
-0.406011 -0.0625315 0.442473 -0.0477894 0.992838 0.109497
0.475592 -0.0681842 0.407371 0.503727 -0.861471 0.0642463
0.14273 -0.094187 0.557781 -0.975746 -0.052295 0.212568
0.0218798 -0.0760247 0.346456 0.780795 -0.624785 0.00157363
-0.0211482 -0.0791727 0.960665 -0.313828 -0.853826 0.415323
0.0145908 -0.0948686 0.234295 0.964908 -0.262589 0.000145793
0.414271 -0.0629895 0.351712 -0.0101719 0.959241 -0.282406
-0.0609274 -0.0581914 0.360492 -0.359162 0.922382 -0.142178
-0.0306538 -0.0208263 0.439838 -0.188164 0.982137 -0.00121872
-0.315665 -0.0981173 0.388672 0.987855 -0.155168 0.00813303
-0.178964 -0.0788863 0.463657 -0.429841 0.902297 0.0331223
-0.143979 -0.0669399 0.567275 -0.349854 -0.535365 0.768757
0.293689 -0.110734 0.362477 0.359934 -0.932914 0.0108734
0.159745 -0.0798447 0.383474 0.574336 0.818581 0.00802857
-0.0590607 -0.0634318 0.0776375 -0.998293 0.0490518 0.0316921
0.278605 -0.0870783 0.396653 -0.946617 0.32211 0.0127212
0.173758 -0.0710208 0.39899 0.00636693 -0.999973 0.00357341
-0.0547569 -0.0555721 0.244159 -0.700566 0.708918 0.0815074
-0.159969 -0.106888 0.302379 0.68823 -0.725492 0.000675537
0.145612 -0.0615176 0.44019 0.00715486 0.999971 0.00243043
0.146349 -0.0799095 0.507442 -0.239218 0.966019 0.0978901
0.0949402 -0.0613486 0.376539 0.00996332 0.99875 -0.0489833
0.0137093 -0.0977014 0.570612 0.943143 -0.332381 -0.00210421
0.27299 -0.0707286 0.38711 0.00187167 -0.99999 0.00402181
-0.185068 -0.0865522 0.250102 -0.774614 0.515087 -0.366958
-0.0480749 -0.0346653 0.36997 -0.922244 0.386591 0.00361188
