0.0543409 -0.0729393 0.403549 0.0543256 -0.998472 -0.0100918
-0.00237756 -0.11169 0.347374 0.192281 -0.981329 -0.00468241
-0.0207123 0.105187 0.189922 -0.999979 0.00218564 -0.00614157
0.0104253 -0.0282453 0.401472 0.806912 0.590648 0.00529579
0.0632367 -0.0725008 0.517124 0.0434202 -0.999034 0.0068091
-0.0485287 -0.0430661 0.804261 -0.949479 0.307782 0.0613218
0.169331 -0.071032 0.485912 0.00538743 -0.999983 0.00229109
0.14629 -0.0886127 0.448198 -0.999711 -0.0238681 0.00270309
0.0176493 -0.0733033 0.697737 0.998613 -0.0526538 -0.00043876
0.475494 -0.065227 0.351015 0.573761 0.7801 -0.249484
-0.0756514 -0.0752905 0.133676 0.0391024 -0.998858 -0.0274651
-0.187796 -0.10208 0.317896 -0.898506 -0.438961 -0.000396335
0.125108 -0.0694661 0.263066 0.688468 0.725228 0.00745213
0.356291 -0.062019 0.400006 -0.000381728 0.999999 -0.00135148
-0.0537575 -0.0823236 0.469277 -0.815177 -0.579066 0.0130004
-0.185415 -0.0711016 0.493091 -0.00691303 -0.999976 -0.000299629
-0.0510936 -0.0454624 0.505267 -0.958238 0.285949 0.00375112
-0.0203202 -0.0360028 0.00375572 -0.135037 0.939176 -0.315773
-0.149146 -0.0709018 0.253005 -0.701607 0.712564 -0.000415383
-0.00550263 -0.0364291 0.0389831 -0.349582 -0.92518 0.147763
-0.030631 -0.101236 0.0485172 -0.348906 -0.924188 -0.155374
0.178648 -0.0619961 0.371964 0.0027886 0.999404 -0.0343963
-0.342563 -0.0723691 0.309782 0.800996 0.598433 0.0168477
-0.190217 -0.0698082 0.364562 0.00372458 -0.984039 -0.177915
-0.372817 -0.070676 0.401639 -0.000143113 -0.999999 0.00142097
0.0160189 -0.0431269 0.154548 0.974936 0.222455 -0.00359692
-0.0379949 -0.109693 0.493116 -0.364052 -0.931376 -0.00223985
0.0930082 -0.0609325 0.441178 0.0168258 0.999856 -0.00225674
-0.0468525 -0.102888 0.19355 -0.81636 -0.577531 0.00385276
0.0863561 -0.073377 0.156218 0.477578 -0.797737 0.36815
-0.336279 -0.0677367 0.354294 0.0162546 -0.762868 -0.64635
0.304709 -0.0706912 0.39762 0.000253541 -0.999998 -0.00213987
0.0198266 -0.0796532 0.175851 0.676964 -0.736015 0.00146943
-0.429457 -0.0620101 0.421871 -0.00223964 0.999977 0.006452
0.00748302 -0.0745486 0.897696 0.974977 -0.158739 0.155633
-0.0962145 -0.0601213 0.444945 -0.0416945 0.999127 0.00271224
0.125527 -0.117104 0.258396 -0.710335 0.703863 -0.00114034
0.0255495 -0.0670814 0.0719164 0.985564 -0.0488803 -0.162092
-0.0465591 -0.0316277 0.152211 -0.889851 0.456231 -0.00435539
0.300302 -0.0837891 0.348395 0.924378 0.381475 -0.00133684
0.158708 -0.0844085 0.305912 0.672436 -0.738321 0.0520742
-0.442125 -0.0626296 0.356115 0.00860575 0.984109 -0.177357
-0.0211473 0.0371223 0.196183 -0.999623 0.0272834 -0.00319617
-0.0491719 -0.0955538 0.775763 -0.93909 -0.340434 0.0470686
-0.149772 -0.0635234 0.362202 0.0031153 0.956763 -0.290853
-0.027019 -0.0127121 0.283816 -0.882658 0.469215 0.0274084
-0.188302 -0.0987807 0.422553 -0.944177 -0.329427 0.002896
-0.32923 -0.0677835 0.42874 -0.98753 0.157421 0.00158716
-0.162881 -0.108825 0.361925 0.536263 -0.844013 0.00802317
0.027558 -0.0758482 0.57489 0.305836 -0.952013 0.0116039
0.149872 -0.0615264 0.507623 0.00622384 0.99998 -0.00104257
-0.156243 -0.0856617 0.314662 0.898448 0.43908 -0.000376161
0.225777 -0.0618813 0.393446 0.0031258 0.999991 0.00282371
-0.0522914 -0.076511 0.642967 -0.999961 -0.00275217 -0.00839975
-0.138453 -0.0611335 0.487238 -0.0140637 0.999879 0.00658681
-0.126664 -0.0674922 0.153002 -0.805734 -0.102321 0.583372
0.150263 -0.0874013 0.393023 0.99984 -0.0135941 -0.0116534
-0.217791 -0.0709304 0.465526 -0.00568541 -0.999982 0.00202629
0.0127056 -0.100191 0.436433 0.906826 -0.421495 0.00301967
-0.197543 -0.0682399 0.249054 -0.735779 -0.677221 0.000255547
-0.189662 -0.0616078 0.409218 -0.00552511 0.999984 0.00146517
-0.00331544 -0.0208103 0.477946 0.20157 0.979472 -0.0019845
0.0513007 -0.0706855 0.0972156 -0.262185 -0.866331 -0.425123
-0.27665 -0.0619427 0.442657 -0.00127765 0.999996 -0.00243566
-0.279258 -0.061949 0.392021 -0.0021993 0.99999 0.00400767
0.0222473 -0.0555677 0.358209 0.53815 0.831939 -0.135173
-0.0453194 -0.0294722 0.349313 -0.812534 0.582907 -0.00274953
-0.0453712 -0.0475813 0.853613 -0.938155 0.32746 0.112408
-0.0196893 -0.0197223 0.724061 -0.0158553 0.999874 0.00088121
0.300036 -0.097231 0.469864 0.981468 -0.172041 0.0843971
-0.0135783 -0.000821147 0.6458 0.135623 0.923591 -0.358588
-0.0739945 -0.0692733 0.222474 -0.7312 -0.42142 0.536425
-0.0155714 0.0677807 0.13146 0.961055 -0.00130556 -0.276356
-0.0975276 -0.0601577 0.528108 -0.0356436 0.999346 0.00604706
-0.0989777 -0.0710634 0.369526 -0.0161305 -0.991257 -0.130952
0.209435 -0.0708687 0.456257 0.0034825 -0.999993 -0.00146851
-0.0137065 0.0619291 0.185403 0.999965 0.00825904 -0.00158732
-0.327829 -0.108058 0.474053 -0.0735546 -0.988445 0.132538
-0.249131 -0.0708182 0.473913 -0.0035104 -0.99999 0.00287269
0.403404 -0.062017 0.405283 -0.000391048 0.999999 -0.00124757
-0.0603132 -0.0758471 0.58825 -0.394824 -0.912742 0.10496
-0.0532721 -0.0745963 0.312698 -0.973253 -0.228019 -0.028032
0.316194 -0.070642 0.463894 0.00820249 -0.999728 0.0218255
0.0125726 -0.100461 0.327286 0.903526 -0.428534 -0.000236372
0.0365496 -0.0743172 0.494748 0.138131 -0.990365 -0.00981388
-0.00956967 -0.112698 0.578727 0.0768624 -0.997042 0.000544422
-0.15094 -0.115196 0.447217 -0.566825 -0.818592 0.092828
0.0221486 -0.0559103 0.5949 0.405065 0.902359 0.147208
0.00958072 -0.0272017 0.673514 0.766549 0.642184 -0.00106902
-0.0220614 0.0151263 0.234513 -0.997398 0.0715917 0.00847495
0.146138 -0.105718 0.523506 -0.239047 -0.961913 0.132593
0.0533162 -0.0729707 0.53904 0.0511375 -0.998605 -0.0131299
-0.0238401 -0.0925132 0.000668203 -0.19854 -0.722198 -0.662579
0.0807372 -0.0606696 0.461186 0.0221241 0.999736 -0.00618414
-0.0593133 -0.0550454 0.466875 -0.434679 0.900527 -0.0102541
0.13167 -0.0908616 0.354887 -0.992427 0.122572 0.00809102
-0.102474 -0.0753882 0.117744 0.0226721 -0.998854 -0.0421386
-0.312654 -0.0633671 0.487042 -0.104093 0.964715 0.241848
0.262535 -0.0707595 0.473172 0.00273667 -0.999995 0.00124729
-0.0145293 -0.112926 0.158981 0.00235568 -0.99999 -0.00370532
-0.0517059 -0.0883647 0.240664 -0.992417 -0.122899 0.00208113
-0.00587773 -0.0490544 0.937631 0.729982 0.624253 0.278272
-0.315672 -0.0930174 0.423905 0.999254 0.0383275 0.00472665
-0.31359 -0.0738727 0.305357 -0.815732 0.57843 -0.000238437
0.0074851 -0.0312732 0.811246 0.807307 0.58116 0.102513
0.012902 -0.0324626 0.241291 0.897824 0.440348 0.0023666
-0.0251779 -0.0200506 0.516613 -0.102153 0.994768 -0.000921687
0.0556963 -0.0612985 0.367413 0.046586 0.988786 -0.141886
0.343251 -0.0705183 0.364454 -0.00234022 -0.999205 -0.0397865
0.0168182 -0.0836428 0.649729 0.99082 -0.135183 0.00127402
0.344634 -0.0620202 0.435487 0.000171411 1 0.000153736
-0.0110649 0.000647466 0.748403 0.306132 0.904652 0.296458
0.0136621 -0.0509225 0.835211 0.971737 0.222327 0.0793658
-0.0346058 -0.00397475 0.687535 -0.869307 0.491041 -0.0564289
-0.0719823 -0.0584425 0.401819 -0.113207 0.993558 0.00519626
-0.0516788 -0.088492 0.697357 -0.992797 -0.119794 0.00169888
-0.027294 -0.11233 0.743975 -0.139896 -0.990166 -0.000147908
-0.156365 -0.0681216 0.560119 -0.22746 -0.842747 0.487893
0.00174756 -0.0148605 0.749912 0.390785 0.912255 0.122795
-0.336353 -0.106651 0.32958 -0.760098 -0.649808 0.00100658
-0.006416 -0.0138287 0.17506 0.863452 0.504403 -0.00531921
0.0542248 -0.0597837 0.443652 0.0516958 0.998653 0.0044038
0.427487 -0.0620139 0.365722 0.00285761 0.999978 0.0059649
-0.0444779 -0.105662 0.36328 -0.679708 -0.733474 -0.00354714
0.00721484 -0.0250109 0.310379 0.610912 0.791698 -0.00124176
0.268223 -0.0622967 0.365457 -7.51415e-05 0.998489 -0.0549593
-0.0447257 -0.0808538 0.871229 -0.953142 -0.269871 0.136711
-0.0425155 -0.0343923 0.0627596 -0.643166 0.752434 -0.142055
0.292911 -0.0707041 0.439552 0.000591639 -1 -0.00069598
-0.0266033 -0.0202081 0.591567 -0.124737 0.992189 0.00152909
0.129857 -0.0613771 0.451461 0.0078738 0.999967 -0.00196888
-0.174816 -0.0887494 0.462814 -0.999643 0.0261245 0.00564004
-0.0496319 -0.0974977 0.63355 -0.938071 -0.346442 -0.000282218
0.0946278 -0.0755112 0.115081 0.0871337 -0.996188 -0.00411497
-0.017502 -0.00275346 0.12008 0.067675 0.514895 -0.854578
0.0164187 -0.0472443 0.10769 0.970081 0.241207 -0.0275946
-0.0372179 -0.0650848 0.928098 -0.975311 0.0630721 0.211637
0.306362 -0.070845 0.298437 0.815272 -0.578938 -0.0127241
0.172937 -0.0616721 0.439019 0.00394131 0.999988 -0.00304125
-0.0436202 -0.106448 0.257733 -0.660616 -0.750695 0.00664162
0.277569 -0.0971676 0.33049 -0.993652 -0.1125 -0.000471646
0.133543 -0.0903732 0.482468 -0.969228 0.240474 0.0526258
-0.0106765 -0.112789 0.631624 0.0701609 -0.997534 0.00173746
0.135764 -0.0706622 0.5439 0.0356505 -0.997026 0.0683268
0.0153737 -0.0917893 0.202626 0.975454 -0.220195 -0.00183965
0.138891 -0.107922 0.388072 -0.574382 -0.818475 0.0135268
-0.177292 -0.110769 0.288732 -0.292666 -0.95558 -0.0348428
-0.00670304 -0.0825618 0.942088 0.727644 -0.628069 0.275796
-0.429407 -0.0706802 0.39113 -0.00162966 -0.999998 0.00120947
-0.043853 -0.0275691 0.229179 -0.77932 0.626613 -0.00401859
-0.0890826 -0.0577355 0.188706 -0.108324 0.989246 0.0982814
-0.349685 -0.0699581 0.467679 -0.0625615 -0.988402 0.138372
-0.155693 -0.0613337 0.397728 -0.0111796 0.999906 -0.0079645
-0.0518478 -0.0563017 0.762078 -0.998363 0.0559737 0.0117764
0.0146362 -0.0944126 0.740544 0.964001 -0.265748 0.00894548
-0.0197809 -0.112953 0.384395 -0.0315373 -0.999502 0.00116235
-0.129368 -0.0572646 0.130212 -0.121308 0.992239 0.0273104
0.0042748 -0.109494 0.681141 0.445047 -0.895506 -0.0014152
0.016798 -0.0469526 0.612575 0.987123 0.159833 -0.00637048
-0.0237921 -0.112708 0.452449 -0.0680066 -0.997685 -0.000501684
-0.0321064 -0.11151 0.542086 -0.215283 -0.976539 -0.00491382
0.287812 -0.110754 0.403435 -0.177043 -0.98403 0.0184393
-0.0498058 -0.0969875 0.162367 -0.949037 -0.315067 -0.00782341
0.0974088 -0.0610075 0.523343 0.0135402 0.999885 -0.00682275
-0.164716 -0.10024 0.531664 0.73292 -0.659517 0.16693
-0.250292 -0.0708006 0.384285 -0.00196341 -0.999966 -0.0080524
-0.174741 -0.0883103 0.383661 -0.999874 -0.00850468 -0.0134356
-0.128529 -0.0717167 0.454179 -0.0163605 -0.999865 -0.00149523
-0.0276726 -0.112296 0.320567 -0.139426 -0.990227 0.00317758
-0.288989 -0.064904 0.35578 0.0134773 0.82197 -0.569371
0.223614 -0.0618626 0.424506 0.00265441 0.999996 -0.0001792
-0.0150258 -0.106962 0.857464 0.0716305 -0.982787 0.170289
0.0567242 -0.0727954 0.477765 0.0397442 -0.999194 -0.00564567
0.00534714 -0.0954523 0.0404442 0.591112 -0.787497 -0.17446
-0.3446 -0.0620181 0.439384 0.000119347 0.999999 -0.00124179
0.1974 -0.0659627 0.533302 0.385245 0.152895 0.91006
-0.0698076 -0.0581202 0.562732 -0.164229 0.986407 -0.00543321
0.0584832 -0.0756022 0.173469 0.0383812 -0.998583 0.0368636
0.152484 -0.0616015 0.383806 0.00459632 0.999888 -0.0142474
0.00275517 -0.110173 0.484762 0.371529 -0.928408 0.00502699
-0.0522306 -0.0512058 0.604471 -0.966351 0.257185 0.00463031
-0.0165465 -0.112586 0.807306 0.00721519 -0.99938 0.0344576
0.379895 -0.0620226 0.375148 3.09185e-05 0.999992 0.00409887
-0.339797 -0.0952224 0.400227 -0.99938 -0.0327378 0.0129705
0.166417 -0.0944298 0.400729 0.998754 -0.0483061 0.0125697
0.0094273 -0.0270142 0.343393 0.778095 0.628132 0.00439527
-0.158489 -0.104042 0.415485 0.808904 -0.587924 0.00457981
-0.158278 -0.10801 0.263789 -0.708973 -0.705236 -4.61673e-05
-0.00984621 -0.00448059 0.229766 0.969413 0.245404 0.00384915
0.0134807 -0.0337892 0.690568 0.929053 0.369932 0.00338898
0.0383613 -0.0586226 0.564084 0.11659 0.993051 0.0160324
-0.233109 -0.0668165 0.526897 -0.359598 -0.483619 0.797999
-0.0207097 0.085697 0.157651 -0.999959 -0.00140466 -0.00899185
0.0171691 -0.0856895 0.55357 0.923555 -0.383411 0.00648965
-0.0347519 -0.0218512 0.66683 -0.309231 0.950986 -0.00106136
0.280348 -0.0835125 0.418444 -0.889794 0.456334 0.00503459
-0.0532503 -0.0834305 0.383005 -0.920921 -0.389733 -0.00355252
0.168968 -0.061657 0.509314 0.00630514 0.999964 0.00559936
0.0246026 -0.0548359 0.424925 0.488411 0.872561 0.00960525
0.0843812 -0.0607572 0.488676 0.0218117 0.999743 -0.00618488
-0.21099 -0.0708406 0.513651 -0.0162315 -0.999499 0.0271615
0.0409334 -0.0569736 0.179657 -0.00944144 0.999955 -0.000819006
-0.0504909 -0.0948314 0.29052 -0.962675 -0.270658 0.00135807
-0.0461278 -0.0307494 0.168487 -0.864186 0.503171 -0.00132101
0.0119517 -0.0354273 0.0677225 0.684488 0.707295 -0.176662
0.243359 -0.0703092 0.501399 0.0323689 -0.996355 0.0789267
0.147754 -0.0834526 0.25273 0.0211189 -0.135397 -0.990566
0.150424 -0.0840845 0.540119 0.147216 0.974961 0.166672
0.0938458 -0.0609559 0.39372 0.0164827 0.999863 -0.00124507
0.00448594 -0.100438 0.0821135 0.551954 -0.783274 -0.286055
-0.0322386 -0.0211761 0.612678 -0.236476 0.971634 0.0025956
0.014201 -0.0962374 0.284604 0.949238 -0.314551 -0.00209606
-0.0317072 -0.0184744 0.249444 -0.670604 0.741814 -0.00159963
0.0119801 -0.0735857 0.865621 0.978082 -0.171065 0.118709
0.132687 -0.0890379 0.414333 -0.975961 0.217528 0.0135145
0.288488 -0.0875664 0.375076 -0.998146 0.0553225 -0.0253742
-0.0209842 -0.0238149 0.844462 -0.113933 0.983112 0.143209
0.0697016 -0.0757224 0.134838 -0.00164891 -0.999996 -0.00211942
-0.276866 -0.0622921 0.49379 -0.0294968 0.997442 0.0651134
-0.112259 -0.0606213 0.478683 -0.0323393 0.999447 0.0077221
-0.0137408 0.0725635 0.203035 0.999992 0.00358409 0.00158298
-0.00868217 -0.0216505 0.819223 0.227908 0.969604 0.0890282
-0.195581 -0.0701824 0.441296 -0.83082 -0.550828 0.0795413
0.0106304 -0.0976053 0.803608 0.840745 -0.534534 0.0861434
-0.110889 -0.0607802 0.55478 -0.0413231 0.998572 0.0338711
-0.393207 -0.0706751 0.419693 0.000222004 -1 -7.81639e-05
-0.0436465 -0.0273233 0.540243 -0.740474 0.672084 -0.000961237
-0.189448 -0.092929 0.27677 -0.999089 0.0268309 -0.0331928
0.0203632 -0.0785759 0.356063 0.884048 -0.466884 -0.0218771
-0.0749482 -0.0636594 0.598794 -0.316875 0.786584 0.529978
-0.052307 -0.07439 0.675174 -0.999953 -0.00968868 0.000464404
-0.0415515 -0.101195 0.0884704 -0.648459 -0.736087 -0.194108
-0.0265033 -0.0201882 0.411683 -0.124384 0.992233 -0.00126341
0.168322 -0.113379 0.453633 -0.698794 -0.715288 0.00710279
-0.0601441 -0.0772475 0.499773 -0.432323 -0.901661 -0.0102022
-0.055684 -0.0723971 0.0574181 -0.975831 -0.170269 -0.136976
-0.0441463 -0.060876 0.88595 -0.984781 0.111278 0.133508
-0.189364 -0.0938384 0.391955 -0.998265 0.0576297 0.0121106
-0.349622 -0.0706751 0.385764 -0.000365491 -0.999999 -0.000900586
0.0154142 -0.0643886 0.0449642 -0.98949 -0.0464331 0.136947
0.352848 -0.0636985 0.465584 0.0986835 0.964552 0.244747
0.166081 -0.0921818 0.428874 0.998537 0.0538732 0.0046661
0.28257 -0.0821296 0.461722 -0.784671 0.615762 0.0716118
0.00777707 -0.107193 0.240424 0.664622 -0.747171 0.00347165
0.0153727 -0.0398255 0.277763 0.969626 0.244589 0.000975289
-0.175306 -0.0828101 0.52101 -0.238012 0.960533 0.143965
0.140266 -0.10241 0.279201 -0.689007 0.724746 -0.00354106
0.128231 -0.0712642 0.385285 0.00948124 -0.999779 -0.0187711
-0.223368 -0.0618114 0.385147 -0.00359871 0.999959 -0.00835659
-0.05225 -0.0835991 0.278037 -0.993062 -0.117577 0.00205515
0.0081177 -0.025732 0.443285 0.660667 0.750653 -0.00629155
-0.0501196 -0.0960348 0.443249 -0.955625 -0.294572 -0.00292722
-0.316509 -0.0987227 0.44841 0.969622 -0.242695 0.0305255
-0.0210242 0.0423067 0.176367 -0.999742 0.0222874 0.00439679
0.247696 -0.0707725 0.403634 0.00221046 -0.999997 -0.000394104
-0.0471301 -0.0338749 0.123097 -0.905155 0.423804 -0.0329289
0.146574 -0.0615085 0.45575 0.00632784 0.99998 -0.000275809
0.0438617 -0.0593576 0.384149 0.0690289 0.99753 -0.0129828
0.190192 -0.0709485 0.393993 0.00489987 -0.999985 0.00257792
0.0173347 -0.0545326 0.752574 0.998392 0.0563246 0.0063979
0.156387 -0.109903 0.29324 0.468898 -0.882564 -0.0348531
-0.0159286 0.0343093 0.264824 0.754399 0.438566 0.488408
-0.339121 -0.0913489 0.449124 -0.993788 0.106115 0.0335347
-0.475942 -0.0680698 0.35723 -0.511722 -0.856646 -0.0655537
-0.0533218 -0.0536348 0.325867 -0.960937 0.255148 -0.107239
-0.0396544 -0.0242346 0.754844 -0.577093 0.816598 0.01149
0.466774 -0.0702006 0.385203 0.0716845 -0.997396 -0.00788174
-0.17334 -0.0865986 0.342637 -0.987634 0.147884 -0.0520463
-0.301945 -0.0619848 0.420407 -0.00150444 0.999999 -0.000128665
0.201614 -0.0708921 0.486751 0.00424189 -0.99999 0.001455
0.14943 -0.0862268 0.353472 0.996368 0.076317 -0.0377706
-0.00465712 -0.111289 0.128336 0.15255 -0.987314 -0.0440342
0.0240671 -0.0779351 0.509759 0.485119 -0.874316 -0.0151978
-0.134736 -0.0693536 0.0740652 -0.276625 -0.693443 -0.665294
0.276809 -0.0750541 0.317412 0.79142 0.610848 0.0227738
-0.175913 -0.0615226 0.474236 -0.00504315 0.999978 -0.00422188
-0.0460484 -0.0575839 0.00699662 -0.940806 0.257668 -0.220206
0.0392478 -0.0707093 0.596227 0.184237 -0.93812 0.293237
0.162797 -0.0947081 0.512107 0.993085 -0.0520533 0.105226
0.291916 -0.0620564 0.370976 -0.000982109 0.999743 -0.0226676
-0.0287396 -0.090809 0.915642 -0.53652 -0.813604 0.224042
0.38757 -0.0706791 0.428788 -0.00321432 -0.99997 -0.00706144
-0.0196275 0.038346 0.133345 -0.988538 0.0297054 -0.148018
-0.0847209 -0.0587196 0.110009 0.0674007 0.989211 -0.130075
-0.156982 -0.0884301 0.473417 0.941394 0.333218 0.0523836
-0.123446 -0.0608876 0.42378 -0.0176612 0.99984 0.00288593
0.10824 -0.0714824 0.539559 0.0183962 -0.999675 0.017652
0.138376 -0.0662123 0.35451 -0.0187513 0.00303539 -0.99982
0.2929 -0.111099 0.354759 0.364593 -0.931166 0.00113971
-0.337779 -0.0834654 0.369096 -0.881891 0.471396 0.00729692
-0.171441 -0.0913477 0.429628 0.522529 -0.852613 -0.00390556
-0.0115506 -0.0459536 0.0632473 0.000205254 0.00247149 -0.999997
0.0664679 -0.0570375 0.162162 0.00714377 0.999924 0.0100636
-0.332945 -0.104709 0.296458 -0.609804 -0.659552 -0.439465
-0.44704 -0.0620594 0.39998 -0.00423296 0.999991 -4.30924e-05
-0.1669 -0.0618004 0.537998 -0.0312764 0.998024 0.0545016
-0.00790868 -0.0201498 0.611739 0.121667 0.992568 0.00252893
-0.370672 -0.0620268 0.380888 7.08741e-05 0.999999 -0.0014228
0.0788371 -0.0581274 0.0983104 -0.0844822 0.989793 -0.11477
-0.0504425 -0.0703699 0.82088 -0.998337 0.00900847 0.0569422
-0.0520353 -0.0831108 0.749637 -0.997553 -0.0692895 0.00932885
0.413171 -0.0700193 0.436956 0.0441186 -0.99226 0.116078
0.0185441 -0.0783432 0.61178 0.80957 -0.536096 0.239158
0.156561 -0.109972 0.326896 0.469183 -0.883101 0.000839507
-0.0394377 -0.109065 0.574592 -0.44844 -0.893811 0.00189701
0.00976899 -0.0274378 0.504682 0.764115 0.64508 -0.000591489
-0.315062 -0.0935118 0.349363 0.999921 -0.0125173 0.00103711
0.20753 -0.0704682 0.36759 0.000198943 -0.998024 -0.0628392
0.147429 -0.0651294 0.423062 -0.977238 0.21213 0.00281355
0.0135019 -0.0983183 0.403577 0.934149 -0.356866 0.00363455
0.00629291 -0.0395893 0.0265453 0.637222 0.746099 -0.193094
-0.00233612 -0.108282 0.100867 0.304545 -0.939445 -0.157149
-0.0399166 -0.0242173 0.708316 -0.522008 0.852925 0.00517349
-0.032908 -0.0258646 0.828069 -0.548862 0.827894 0.115506
-0.14195 -0.0611692 0.426869 -0.0130324 0.999906 -0.00423539
-0.0492002 -0.0421626 0.0955827 -0.95835 0.277104 -0.0691217
-0.160004 -0.0813936 0.393284 0.67712 0.735762 0.0127511
-0.0737616 -0.0606566 0.366877 -0.122761 0.950525 -0.285362
-0.0250729 -0.00671432 0.158404 -0.963653 0.266216 -0.0223839
0.14191 -0.0863235 0.286923 0.724094 0.689701 0.000384275
-0.0312828 -0.0326774 0.0343097 -0.404992 0.896352 -0.180375
0.290063 -0.0916044 0.431638 0.657879 -0.753121 0.00198878
-0.0980521 -0.0569768 0.150873 0.00415885 0.999963 -0.00749049
0.0106401 -0.0285489 0.710789 0.826186 0.563365 0.0059807
0.0115683 -0.102505 0.716355 0.844125 -0.536134 -0.00350409
0.0174586 -0.0549037 0.656136 0.998022 0.0628188 0.00222586
-0.315411 -0.0896683 0.329118 0.987991 0.154504 -0.00121695
-0.251519 -0.070814 0.44656 -0.00296758 -0.999996 -9.50208e-06
-0.0515473 -0.0474665 0.220586 -0.953997 0.299711 0.00790691
0.00707532 -0.0133762 0.721924 0.983855 0.152011 0.0944525
-0.123041 -0.0718046 0.515946 -0.0169508 -0.999848 0.0041166
0.00125072 -0.0466284 0.907094 0.803647 0.560966 0.198668
-0.164094 -0.0614198 0.491215 -0.00959741 0.999952 0.00199668
-0.0516802 -0.0478019 0.190791 -0.956424 0.291946 -0.00456743
0.282063 -0.0963353 0.490778 -0.974117 -0.170196 0.148759
0.277962 -0.0882771 0.34653 -0.972066 0.234706 -0.000347115
-0.174303 -0.0895573 0.247522 0.353639 -0.654581 -0.668179
-0.0153371 -0.00298321 0.299265 0.638577 0.598447 0.483819
-0.0667282 -0.057554 0.524781 -0.215002 0.976471 0.0166885
0.404107 -0.07068 0.382029 -0.000901117 -0.999995 -0.00284294
-0.317587 -0.1038 0.393768 0.895719 -0.444374 0.0147862
0.0767489 -0.0721329 0.532101 0.0253806 -0.99967 -0.0038874
-0.0308914 0.00200751 0.723088 -0.684377 0.721681 0.10394
0.123145 -0.061323 0.512253 0.0101471 0.999948 0.000637209
-0.00392835 -0.0207156 0.374366 0.177576 0.984107 -0.000886529
0.328557 -0.0706787 0.403337 0.000594973 -0.999999 0.00105392
-0.0789208 -0.07363 0.455559 -0.0773425 -0.997005 -0.000133429
0.00672712 -0.0257254 0.126294 0.583279 0.810834 -0.0483076
-0.0410521 -0.0249899 0.319452 -0.592964 0.805229 -0.000782646
-0.177814 -0.0769166 0.302422 -0.357789 0.933802 0.000664535
-0.0520864 -0.0479934 0.42083 -0.880571 0.473775 -0.0115188
-0.333439 -0.0822145 0.474426 -0.718091 0.686596 0.113717
-0.27379 -0.0619349 0.464063 -0.00157455 0.999998 -0.0015439
0.0166013 -0.0820218 0.771188 0.990929 -0.132962 0.0195389
-0.0795403 -0.0735824 0.544239 -0.0720842 -0.997306 -0.0135824
-0.461896 -0.0631565 0.420867 -0.139213 0.954519 0.263655
-0.0376775 -0.0848869 0.0241648 0.729695 0.663789 0.164103
-0.0135138 0.0461284 0.214527 0.999842 0.0170632 0.00487797
0.016101 -0.0702633 0.81601 0.998986 -0.00988112 0.0439172
-0.0117399 -0.11284 0.501729 0.056516 -0.998398 0.00262638
-0.411788 -0.0620078 0.375714 -8.18286e-05 0.99999 0.00454537
0.0377669 -0.0746105 0.123446 -0.0225966 -0.995859 -0.0880607
-0.0968669 -0.0725414 0.425821 -0.0392411 -0.999203 0.00725367
-0.0336267 -0.0625203 0.0632313 -0.0112692 -0.00884345 -0.999897
0.00483668 -0.109199 0.174151 0.499496 -0.866302 0.00498691
-0.136818 -0.0591206 0.0951051 -0.463654 0.88481 -0.0462123
-0.0203017 0.114594 0.160612 -0.993814 0.1109 -0.00590952
0.30147 -0.100435 0.324143 0.95341 -0.299683 -0.0346209
-0.0137878 -0.106072 0.0637197 0.077215 -0.986792 -0.142408
0.0733459 -0.0722124 0.423799 0.0302826 -0.999501 0.00893619
0.135496 -0.103405 0.461888 -0.804664 -0.593453 0.0181465
0.168127 -0.0710384 0.412743 0.00504222 -0.999985 0.00229166
-0.0331227 -0.0213717 0.561195 -0.266619 0.963794 0.00394786
0.237733 -0.0619103 0.475143 0.00222805 0.999997 0.00136901
0.301329 -0.0869055 0.376431 0.969431 0.245267 0.00698312
-0.164819 -0.110063 0.318085 0.469183 -0.883101 0.000839507
0.0244527 -0.0778179 0.420501 0.480792 -0.876706 -0.0150183
0.0250204 -0.057212 0.230119 0.442363 0.893885 0.0726937
-0.0615468 -0.0765558 0.440296 -0.407439 -0.912933 0.0234011
0.301899 -0.0979933 0.385606 0.987675 -0.156308 0.00813363
0.0144699 -0.0364627 0.471746 0.947661 0.319271 0.00212092
-0.0344253 -0.0217544 0.487681 -0.318834 0.947807 0.00246174
6.26704e-06 -0.0959431 0.877055 0.680182 -0.711967 0.174512
-0.194161 -0.0616569 0.390781 -0.0046151 0.999988 -0.00139747
-0.412239 -0.0706757 0.405717 0.000384599 -0.999999 -0.00111777
0.0418393 -0.0588699 0.527387 0.0817892 0.996625 -0.00708075
0.157825 -0.085199 0.465242 -0.723783 0.690026 -0.00176224
0.00226344 -0.0232544 0.783258 0.498391 0.865873 0.0432381
-0.0494412 -0.0387104 0.376885 -0.967259 0.253788 -0.00149323
-0.260971 -0.0707911 0.421351 -0.00189426 -0.999997 -0.00122752
0.444286 -0.0624302 0.353674 -0.0028287 0.991942 -0.126664
-0.00794304 0.00532329 0.681245 0.379636 0.920567 -0.0918348
0.163708 -0.0834989 0.329103 0.818337 0.574737 -0.00116849
-0.0131214 -0.11293 0.428708 0.0517749 -0.998658 -0.00122282
0.0376353 -0.0584347 0.410752 0.1143 0.993438 -0.00411002
-0.178834 -0.11019 0.339505 -0.397779 -0.917446 0.00810447
-0.188181 -0.100783 0.365825 -0.898483 -0.43895 0.00710187
0.0336456 -0.0756984 0.150326 0.0157286 -0.99984 -0.00849793
-0.363946 -0.0673437 0.353276 0.0217904 -0.609924 -0.79216
0.0941182 -0.0717508 0.481247 0.015164 -0.999884 -0.00146906
-0.0517711 -0.0656534 0.785767 -0.998973 0.0360617 0.0274359
-0.047962 -0.101176 0.387022 -0.871953 -0.48959 -0.000441211
0.135359 -0.0825587 0.311751 -0.74957 0.661925 -0.000397163
-0.15651 -0.0874649 0.448868 0.942756 0.333207 0.0135677
-0.133551 -0.0695534 0.566991 -0.125805 -0.956644 0.262688
0.137437 -0.0614441 0.47894 0.00718101 0.999971 -0.00260918
0.195512 -0.0709 0.504183 0.00687594 -0.999944 0.00801079
-0.0213951 -0.112877 0.604895 -0.0620974 -0.998069 -0.00134198
0.410138 -0.064789 0.348474 -0.019443 0.706441 -0.707505
-0.136788 -0.0613302 0.383499 -0.00903455 0.999677 -0.0237602
0.370045 -0.0706738 0.42894 0.000263584 -0.999999 0.00141101
-0.220991 -0.0617757 0.437791 -0.00388321 0.999991 -0.00141845
-0.0838979 -0.0594559 0.494427 -0.070189 0.997523 -0.00465226
-0.366521 -0.070671 0.4279 9.35377e-05 -1 -0.000754277
-0.0902786 -0.0637683 0.0926336 0.348449 0.595512 -0.723843
0.321702 -0.0620107 0.379616 0.000887644 0.999999 0.00127612
-0.0520673 -0.0861668 0.217565 -0.984504 -0.175321 -0.00384676
0.0144003 -0.0953099 0.153126 0.957241 -0.289142 -0.00928908
0.0153082 -0.0924721 0.374007 0.967195 -0.254031 0.00172316
0.304757 -0.0620038 0.424415 0.00109996 0.999997 0.00219651
0.117274 -0.0714381 0.44594 0.0112049 -0.99992 0.0059456
-0.100735 -0.0757162 0.148994 0.000898111 -0.99999 -0.00441695
-0.352356 -0.0620226 0.413624 -9.97447e-05 0.999999 -0.00147149
-0.0117743 -0.0198509 0.690799 0.0579477 0.998319 0.0013627
-0.145727 -0.0714799 0.507289 -0.0123243 -0.999915 -0.00425833
-0.158167 -0.0830202 0.362453 0.790717 0.612131 0.00795205
-0.0356546 -0.0843375 0.0634324 -0.179126 -0.0505547 -0.982526
-0.412084 -0.0652547 0.351837 0.0286091 0.572127 -0.819666
-0.189645 -0.111195 0.460174 -0.738421 0.674047 0.0198509
0.288244 -0.108735 0.466775 -0.20784 -0.972739 0.102869
0.0611923 -0.063945 0.589005 0.239723 0.809921 0.535314
0.0213711 -0.062957 0.331218 0.955339 0.248777 -0.159495
-0.0335617 -0.0987377 0.869933 -0.620871 -0.766403 0.164761
-0.413474 -0.0625941 0.439782 -0.0596568 0.988408 0.139607
-0.171037 -0.110139 0.465119 0.0528508 -0.997906 0.0372803
-0.08309 -0.072176 0.581597 -0.106911 -0.990321 0.0885071
0.146546 -0.0873353 0.508835 -0.997475 -0.0666918 -0.0244089
-0.0503728 -0.0952273 0.661055 -0.961103 -0.276176 0.00265482
0.279076 -0.08596 0.403665 -0.948989 0.315033 0.0132196
-0.324818 -0.062005 0.399415 -0.000283028 0.999999 -0.00114498
-0.0509481 -0.0904052 0.121212 -0.98509 -0.169868 -0.0272538
-0.0122733 0.0131643 0.198029 0.996722 0.0803506 0.00945788
-0.313615 -0.0706947 0.444519 -0.00131638 -0.999997 0.00220202
-0.210644 -0.0643766 0.358541 0.0144384 0.871443 -0.490285
0.149939 -0.0907161 0.484229 0.997645 -0.0682627 0.00673281
-0.00942577 -0.00618534 0.206021 0.973909 0.226668 -0.0110587
-0.0282292 -0.0178571 0.698999 0.00236922 -0.999719 -0.0235881
-0.456105 -0.0621321 0.374199 -0.0141846 0.999815 0.0130299
0.255818 -0.0707579 0.454639 0.00133393 -0.999997 -0.00193719
-0.0137475 0.0560573 0.15409 0.999778 0.0088941 -0.0191156
0.302497 -0.062987 0.483312 0.0790142 0.978185 0.192124
0.296869 -0.0912666 0.49611 0.971429 0.171516 0.164039
0.0778772 -0.0717565 0.379396 0.0263092 -0.998788 -0.0415888
0.018513 -0.0490624 0.552272 0.862503 0.506052 0.000350886
-0.0410316 -0.108197 0.226148 -0.512462 -0.858707 0.00237946
0.146737 -0.0900233 0.373136 -0.995336 0.0926156 -0.0269874
0.237708 -0.0618982 0.44047 0.00167348 0.999998 -0.00119439
-0.0217784 0.00912979 0.275788 -0.988863 0.135021 0.0626103
-0.317684 -0.0837309 0.39752 0.877623 0.479131 0.0145579
0.0644883 -0.0724942 0.451944 0.030821 -0.999487 0.00866133
0.148254 -0.108902 0.495929 -0.052241 -0.995928 0.0734756
0.165763 -0.088568 0.285811 0.958145 0.283953 -0.0364438
-0.050291 -0.0954873 0.329987 -0.953639 -0.300928 -0.00382736
-0.048607 -0.0734826 0.845063 -0.9965 -0.018956 0.0814196
-0.0188155 -0.0533448 0.9616 -0.0662372 0.892448 0.446262
-0.0109303 -0.0178234 0.660011 0.0568861 -0.998373 0.0039881
0.179306 -0.0709956 0.462668 0.00397171 -0.999988 -0.00296578
0.165454 -0.0870669 0.362718 0.941244 0.33766 0.00675233
-0.0505714 -0.0434693 0.630816 -0.982714 0.185116 0.00231549
-0.213646 -0.0617401 0.488443 -0.00589754 0.99998 0.00230574
0.105782 -0.0626969 0.104789 0.927717 0.373199 0.00790446
0.101543 -0.0673467 0.138659 0.879054 -0.105718 0.464853
0.0114014 -0.0296512 0.188517 0.837119 0.54702 0.00146159
0.0114313 -0.0300113 0.74273 0.841806 0.539495 0.0175584
-0.00506609 -0.11219 0.543311 0.152663 -0.988277 0.00176484
-0.0360007 -0.10909 0.793878 -0.489059 -0.86962 0.0676922
-0.084381 -0.0650734 0.209554 -0.793076 0.141471 0.592467
-0.0359492 -0.11045 0.7022 -0.32461 -0.945844 0.00262463
-0.00485326 -0.112155 0.189841 0.152727 -0.988267 0.00172702
0.203293 -0.0708923 0.410251 0.00366796 -0.999991 0.00199451
-0.0303839 -0.0252096 0.0775134 -0.321431 0.946357 0.0330378
-0.219063 -0.0617653 0.416461 -0.00544955 0.999985 0.000608483
-0.0967019 -0.07251 0.397028 -0.036774 -0.999321 -0.00218158
0.0125095 -0.100667 0.574787 0.905571 -0.424172 0.00432094
-0.032559 -0.111402 0.648523 -0.216943 -0.976178 0.0033867
-0.0157119 -0.0197 0.437546 0.0180864 0.999836 0.000579962
0.358989 -0.0620267 0.377478 0.000275573 0.999996 0.00288529
-0.0130189 -0.0947781 0.0288763 -0.108438 0.980503 0.163878
-0.0202745 -0.11009 0.835989 -0.100813 -0.987687 0.119627
0.016764 -0.0782517 0.0894604 0.976039 -0.19331 -0.0998976
-0.0531696 -0.0706566 0.62373 -0.981 -0.100612 0.165877
0.0679601 -0.0603554 0.553515 0.0328437 0.999352 0.0146992
-0.333842 -0.0961297 0.500684 -0.96946 -0.170135 0.176637
-0.186852 -0.0890122 0.481327 -0.940731 0.333111 0.0637355
-0.0625125 -0.0568841 0.142084 -0.115303 0.99295 -0.0274984
-0.0551492 -0.0790583 0.173945 -0.724656 -0.689089 -0.00543012
0.132696 -0.097711 0.439968 -0.970595 -0.240592 0.00773834
-0.185765 -0.0937591 0.503363 -0.993021 0.0520532 0.105829
-0.333014 -0.0859594 0.328291 0.878884 0.47674 0.016789
0.0138413 -0.0363297 0.762691 0.940408 0.338726 0.0299573
-0.0561569 -0.0565185 0.346736 -0.775925 0.630815 0.0035387
0.133498 -0.0852677 0.331368 -0.869788 0.493426 0.000823108
-0.0324007 -0.0212108 0.385837 -0.236937 0.971524 0.00168124
0.161049 -0.064065 0.546011 0.147972 0.923907 0.352846
-0.334252 -0.108956 0.352635 -0.626205 -0.779657 0.00105528
-0.114521 -0.0572636 0.109476 0.0364761 0.998659 -0.0367409
-0.0379635 -0.0530821 0.91201 -0.920779 0.341303 0.188889
-0.253724 -0.0618861 0.403493 -0.00253641 0.999997 0.000367473
0.018261 -0.0786706 0.276387 0.973392 -0.224394 0.0464247
-0.167027 -0.0614587 0.419745 -0.00913201 0.999956 -0.00197176
-0.00224235 -0.0864087 0.919018 0.752483 -0.622291 0.215693
-0.0523243 -0.0543882 0.296077 -0.992757 0.119801 -0.00903064
-0.329042 -0.110746 0.411354 -0.203725 -0.978881 0.0169707
-0.0126473 0.0192888 0.175481 0.997721 0.0674634 -0.000973972
0.139234 -0.0614586 0.407963 0.00818529 0.999963 0.00245304
-0.0442147 -0.105926 0.527747 -0.693761 -0.720158 0.00821716
-0.00161074 -0.111518 0.740538 0.219686 -0.97557 -0.00100935
-0.231392 -0.0708767 0.453323 -0.00362277 -0.999993 0.000723815
0.0288077 -0.0567092 0.484451 0.313299 0.949561 -0.0133342
-0.130858 -0.0716561 0.536793 -0.0183611 -0.999818 0.00509064
-0.0233618 0.00228705 0.261926 -0.990831 0.135093 0.0018357
0.434061 -0.0620748 0.42123 0.0151536 0.999358 0.0324528
0.331388 -0.0706787 0.452953 0.00102769 -0.999996 0.00268909
0.0176059 -0.0743304 0.675382 0.998769 -0.0495808 0.00167859
-0.00125814 -0.0195749 0.248578 0.608807 0.793308 0.00404715
-0.0514909 -0.0496563 0.649397 -0.994108 0.108388 -0.000706146
0.0391575 -0.0740464 0.459819 0.103853 -0.994579 0.00529999
0.0202235 -0.0514402 0.385801 0.753096 0.65789 0.00513214
-0.0499741 -0.0409522 0.741537 -0.970223 0.242031 0.00944071
0.446631 -0.0706246 0.376068 0.00385544 -0.999993 8.02877e-05
0.0919498 -0.0717793 0.501924 0.016824 -0.999858 0.00122613
-0.156461 -0.102326 0.287883 0.843669 -0.535672 -0.0357419
0.131836 -0.111092 0.468927 0.687094 -0.726424 0.0145097
0.108351 -0.0611444 0.467606 0.0096781 0.999931 -0.00663782
0.00143231 -0.0480637 0.000999036 -0.650121 -0.632332 -0.421306
-0.15369 -0.0613067 0.46636 -0.0106785 0.99993 -0.00512115
-0.394444 -0.0620174 0.396752 -2.33782e-05 1 -0.000148496
-0.0558174 -0.0562274 0.241272 -0.666084 0.74121 0.0833031
0.0648817 -0.0624999 0.18818 0.720133 0.441805 0.534993
0.0121379 -0.0944423 0.0640289 0.685393 -0.706489 -0.176379
-0.158647 -0.0918134 0.504574 0.982702 0.148973 0.110021
0.359772 -0.0694152 0.353396 -0.00776675 -0.971087 -0.238599
0.0108944 -0.103552 0.265329 0.826461 -0.562972 -0.00510935
0.161866 -0.10582 0.383815 0.73578 -0.677192 0.00629955
0.379731 -0.0620175 0.408842 -0.000207785 1 -0.000740275
-0.0199653 0.0858141 0.137506 -0.99474 -0.00437605 -0.102341
-0.0155695 -0.112991 0.227918 0.00879376 -0.999959 0.00209879
-0.0475217 -0.033405 0.589055 -0.905741 0.423828 -0.00144167
-0.0215344 0.0248214 0.214414 -0.999273 0.0375194 0.00672861
-0.052341 -0.0485096 0.440721 -0.924248 0.381429 -0.0166457
-0.0749183 -0.073671 0.388283 -0.116139 -0.992751 -0.030937
-0.445809 -0.0629435 0.42779 -0.129237 0.948314 0.289824
-0.266257 -0.0668004 0.512191 -0.367116 -0.411975 0.833968
-0.372931 -0.0695681 0.459787 -0.0839538 -0.976794 0.197039
-0.0925056 -0.0599623 0.468119 -0.0367772 0.999294 -0.00762105
0.242158 -0.0620363 0.373056 -0.000637222 0.999699 -0.0245444
-0.0374796 -0.109883 0.166406 -0.384146 -0.923194 -0.0119936
0.288655 -0.0664538 0.385601 -0.97608 0.216069 -0.0241204
-0.0780616 -0.0589875 0.427734 -0.0850793 0.996333 0.00906545
-0.178914 -0.089972 0.54227 -0.840715 0.506754 0.190786
-0.100844 -0.0723999 0.502776 -0.0333086 -0.999389 -0.0106312
-0.172915 -0.076895 0.263846 -0.11266 0.993049 -0.0340851
-0.0234015 -0.107496 0.078528 -0.174837 -0.984044 0.0330129
0.287911 -0.0762451 0.327671 -0.218478 0.975842 -0.000717364
-0.180394 -0.061551 0.51175 -0.00765678 0.999969 0.00178788
-0.0645785 -0.0570155 0.489274 -0.213246 0.976914 0.0128272
0.292863 -0.0619907 0.456397 0.000502742 0.999999 -0.000790195
0.0568923 -0.072792 0.500091 0.0353874 -0.99936 -0.00522153
0.0366128 -0.0591685 0.114093 -0.0442534 0.985063 -0.166413
-0.154266 -0.0936913 0.33361 0.999834 -0.0163262 0.00812187
0.278398 -0.109718 0.306724 -0.815492 0.578762 -0.00247407
-0.0347515 -0.0308971 0.849132 -0.648158 0.747549 0.145126
-0.0624963 -0.0761778 0.198789 -0.13335 -0.991016 0.0102061
0.0156762 -0.0906451 0.487016 0.968424 -0.249289 0.0032571
0.0399764 -0.0757108 0.17922 -0.00565321 -0.999974 -0.00457162
0.281943 -0.0620037 0.472789 0.00220961 0.999992 0.003415
0.00242051 -0.110287 0.456325 0.337528 -0.941315 0.00107912
0.300757 -0.0885198 0.452821 0.969088 0.242465 0.045601
0.146335 -0.101572 0.548669 -0.327788 -0.926138 0.186612
-0.294946 -0.0706711 0.376274 -0.000207373 -0.999965 -0.00841226
0.148201 -0.106514 0.253309 -0.116384 -0.921575 -0.370343
0.051751 -0.0728708 0.563661 0.0669591 -0.997132 0.035271
-0.0588655 -0.0671528 0.0741965 -0.991196 -0.045943 -0.124175
-0.073281 -0.0741384 0.519874 -0.110066 -0.99391 0.00530334
-0.0399131 -0.0733227 0.00311213 0.940905 0.325203 0.0945553
0.14558 -0.111131 0.359251 -0.217536 -0.976019 0.00802725
0.00528787 -0.108941 0.645111 0.473342 -0.880857 0.00617244
-0.000703621 -0.0914005 0.00599091 0.510166 -0.831457 -0.220022
-0.0540492 -0.0800188 0.145433 -0.826129 -0.563218 -0.0171952
-0.0563512 -0.0504191 0.0776067 -0.934774 0.35362 0.0339059
-0.184601 -0.0811593 0.32011 -0.694956 0.719052 0.00105304
-0.0133258 0.0365168 0.235443 0.999568 0.0290995 0.00409498
-0.329316 -0.0681473 0.458265 -0.998568 0.0534403 0.00244566
0.0115417 -0.102514 0.62306 0.867624 -0.497221 0.00056027
0.425042 -0.0620157 0.383735 0.00195238 0.999997 0.00171149
-0.178498 -0.061533 0.454619 -0.0068762 0.999976 -0.000260135
-0.176986 -0.109955 0.263849 -0.292666 -0.95558 -0.0348428
-0.0460077 -0.0428421 0.83288 -0.921096 0.3766 0.0987637
-0.000950526 -0.111386 0.366951 0.258386 -0.966039 0.00209885
0.366624 -0.0621419 0.447602 0.0117968 0.999353 0.0339678
-0.173899 -0.110865 0.401081 -0.14521 -0.989327 0.0120986
-0.188653 -0.0877874 0.352931 -0.945797 0.324681 0.00710201
-0.18402 -0.0615713 0.428961 -0.0068903 0.999976 -0.000260084
-0.0151158 0.0811302 0.222296 0.910088 0.265898 0.317865
0.0143886 -0.0738851 0.83961 0.994911 -0.0614663 0.079834
-0.00344114 -0.111906 0.314062 0.202277 -0.979324 -0.00283568
0.0120103 -0.0541335 0.858792 0.973917 0.197176 0.112283
0.285979 -0.109826 0.426327 0.448349 0.893465 0.0265364
0.0166034 -0.0863747 0.22567 0.967746 -0.251912 -0.0028202
-0.171008 -0.0809366 0.404098 0.999897 0.0143377 -0.000134736
-0.0358906 -0.0245675 0.106979 -0.378284 0.915823 -0.134793
0.0239659 -0.0738864 0.112453 0.341995 -0.916963 -0.20547
0.191496 -0.0709353 0.443553 0.00511935 -0.999985 0.00198757
0.32325 -0.0620156 0.441091 -0.000113353 0.999999 -0.00120887
0.0174966 -0.0765516 0.726557 0.997449 -0.0713741 -0.00134833
-0.338341 -0.0706804 0.402677 -0.000696459 -1 -3.10714e-05
-0.112947 -0.0720515 0.438771 -0.0290761 -0.999571 0.00343579
0.300899 -0.100579 0.416878 0.947856 -0.318677 0.00389563
0.131611 -0.09549 0.293225 -0.994846 -0.0952177 -0.0348724
-0.0265786 -0.0202008 0.474151 -0.129999 0.991509 -0.0030568
-0.0516996 -0.0517439 0.696057 -0.996761 0.0804103 0.00136824
-0.158276 -0.0838798 0.421865 0.802203 0.597043 0.00315556
0.000934601 -0.0314713 0.85022 0.655099 0.740355 0.15073
-0.324745 -0.110576 0.316699 0.272956 -0.960686 -0.0507677
0.00253942 -0.0220963 0.287466 0.476826 0.878998 -0.000585661
-0.122152 -0.0718267 0.469976 -0.0216676 -0.999759 -0.00346085
0.148194 -0.0914929 0.412624 0.186887 -0.982323 -0.0107633
-0.227123 -0.0708645 0.501486 -0.00752445 -0.999938 0.00823063
0.0547878 -0.0726743 0.386446 0.049829 -0.998286 -0.0306986
-0.049603 -0.0423232 0.777213 -0.97877 0.203414 0.0251393
-0.0187614 -0.112974 0.524304 -0.0243622 -0.999703 -0.000619188
0.0146729 -0.0370976 0.575777 0.952562 0.304336 -0.00228845
0.256312 -0.0620351 0.487709 0.0105019 0.999617 0.0255979
-0.136862 -0.0716067 0.400738 -0.0126981 -0.999893 -0.00722002
-0.0463328 -0.103662 0.46215 -0.805583 -0.59247 -0.00382943
0.126042 -0.0613744 0.529471 0.0126497 0.999905 0.00540991
0.132669 -0.0911258 0.267719 -0.980437 0.193416 -0.0365267
-0.297505 -0.061978 0.449372 -0.0015721 0.999999 0.00012884
0.110742 -0.0714907 0.389902 0.0123928 -0.99991 -0.00503412
-0.320057 -0.089281 0.489587 0.936626 0.315907 0.15144
0.13861 -0.0913151 0.533691 -0.959136 0.237595 0.153646
0.155429 -0.0711168 0.468302 0.00545095 -0.999978 -0.00369456
0.27867 -0.0983691 0.447498 -0.984539 -0.172931 0.0278718
-0.337991 -0.0837223 0.347487 -0.881914 0.471408 -0.00134047
-0.176332 -0.110087 0.441722 -0.240822 -0.970529 0.00887132
0.0413498 -0.0730978 0.374918 0.0792761 -0.992975 -0.0878465
0.0443162 -0.0591354 0.508088 0.0848671 0.996382 -0.00444941
-0.0700198 -0.0570408 0.19789 -0.0334802 0.999117 0.0253884
0.137202 -0.106968 0.334495 -0.662145 -0.749375 -0.000407601
0.01741 -0.0545179 0.682488 0.997458 0.071253 0.000669079
0.260448 -0.0707643 0.384613 0.00218464 -0.999997 -0.00124631
-0.0326929 -0.111331 0.771309 -0.257913 -0.966047 0.0153031
-0.269268 -0.0705283 0.371343 0.000738318 -0.999041 -0.0437806
-0.198674 -0.0616581 0.50463 -0.00630227 0.999978 0.00186654
0.283976 -0.0619836 0.420803 0.00155361 0.999999 0.000722023
0.147516 -0.0617023 0.530491 0.0159405 0.999558 0.0250821
-0.326896 -0.0810484 0.43411 0.999987 0.00276567 0.00439177
-0.0250799 -0.112598 0.346085 -0.0912901 -0.995824 -0.000445632
-0.0245693 0.00257618 0.665777 -0.474215 0.862303 -0.177633
-0.00237273 -0.111705 0.398531 0.198285 -0.980144 0.00108565
-0.0571678 -0.0550459 0.585788 -0.447071 0.889245 0.0968003
-0.0509845 -0.0926921 0.587036 -0.979863 -0.199668 0.00147826
-0.181856 -0.0799294 0.422207 -0.596725 0.80244 0.00312928
-0.0405312 -0.0448113 0.0432561 0.752714 -0.642764 0.142393
-0.177851 -0.109781 0.41695 -0.339939 -0.94044 0.00371196
-0.173127 -0.0615978 0.384304 -0.00456786 0.99962 -0.0271878
0.14803 -0.11062 0.448825 -0.0525575 -0.998588 0.00775932
-0.203875 -0.071002 0.404608 -0.00592545 -0.999974 -0.00403378
-0.205089 -0.0707166 0.375533 -0.00227076 -0.999369 -0.0354357
-0.0225375 -0.0408981 0.923348 -0.288238 0.925861 0.244335
0.164819 -0.0993542 0.465381 0.942251 -0.334088 0.023427
0.283892 -0.0827632 0.29761 -0.618691 0.651808 -0.438598
-0.0213782 0.0116817 0.138072 -0.993505 0.0908482 -0.0685204
0.00289604 -0.0664808 0.927476 0.976861 -0.0267775 0.212192
-0.032271 -0.111475 0.627142 -0.223583 -0.974684 0.00124455
-0.111963 -0.0720446 0.540538 -0.0324408 -0.999448 0.00714538
0.273583 -0.0707387 0.429985 -0.823675 -0.567051 0.00345425
-0.0305563 -0.0173402 0.218346 -0.762805 0.646577 0.00816638
0.224767 -0.0625634 0.511128 0.0356907 0.995744 0.0849683
-0.39551 -0.0706748 0.378067 0.00046035 -1 -0.000166197
0.0177103 -0.0507035 0.258648 0.961834 0.273322 0.0130353
-0.0115707 -0.0198582 0.77354 0.0486372 0.998812 -0.00306409
0.00512501 -0.0236179 0.22258 0.532567 0.846383 0.00273283
0.132578 -0.0772856 0.46588 -0.712499 -0.701663 0.00370308
-0.0490482 -0.0988175 0.734287 -0.91758 -0.397424 0.0100532
0.00646355 -0.0244553 0.422946 0.528582 0.848865 -0.0054927
0.196098 -0.0617765 0.469254 0.00415371 0.99999 -0.00192198
0.346684 -0.0620206 0.389848 0.000148378 1 0.000153861
-0.330458 -0.11003 0.441443 -0.331685 -0.943146 0.0214804
0.0265496 -0.0558625 0.532848 0.447811 0.893712 0.0272957
0.148968 -0.0766158 0.278349 -0.11266 0.993049 -0.0340841
-0.0471175 -0.0889102 0.0492085 -0.790194 -0.592806 -0.155478
0.300435 -0.0788421 0.318192 -0.814384 0.580314 0.00375747
-0.056044 -0.071276 0.338624 -0.884897 -0.398726 -0.240778
0.10192 -0.0716345 0.430338 0.015271 -0.999868 0.00557577
0.0256062 -0.0770573 0.442375 0.399302 -0.916787 0.00773004
-0.182784 -0.082731 0.44953 0.714848 0.699276 -0.00222327
-0.316042 -0.0916929 0.302666 0.990898 0.129866 -0.0354534
0.0127112 -0.0320832 0.596598 0.896075 0.44389 0.00327709
-0.0113028 0.00208091 0.153607 0.988749 0.148235 -0.0200641
-0.200257 -0.061681 0.460069 -0.00576477 0.999979 0.00311018
-0.0880565 -0.0571622 0.131512 0.0174868 0.99927 -0.0339646
0.27928 -0.102743 0.388563 -0.911909 -0.410301 0.00869112
-0.320205 -0.0796757 0.378873 0.704866 0.709272 0.00986977
-0.237107 -0.0622751 0.511458 -0.0283825 0.997667 0.0620868
0.0169949 -0.0469566 0.176461 0.952716 0.303854 -0.00199314
0.010296 -0.0798656 0.0346689 -0.8734 0.46234 0.153018
0.161231 -0.0811604 0.386952 0.677115 0.735766 0.0127508
0.0596872 -0.0600242 0.413321 0.0400594 0.999191 0.00340843
-0.0466493 -0.0316904 0.261557 -0.886124 0.463429 0.00419289
0.457815 -0.0705047 0.362521 0.0155926 -0.999872 -0.00358694
-0.0318279 -0.0210753 0.741899 -0.198662 0.980062 -0.00331984
-0.0431617 -0.106456 0.144108 -0.58052 -0.813951 -0.0219056
-0.0891043 -0.0598036 0.550406 -0.0615466 0.998086 0.00599691
0.302338 -0.0765914 0.430624 0.816891 -0.576784 -0.00289107
-0.0522513 -0.0746487 0.0393711 -0.957453 -0.229926 -0.174404
0.13484 -0.0915587 0.503873 -0.984858 0.147784 0.0906376
0.124063 -0.0618713 0.547801 0.0379859 0.996842 0.0697301
0.00863043 -0.105425 0.762009 0.75478 -0.654684 0.0411738
0.155147 -0.0615659 0.483401 0.00679413 0.99997 0.00372173
0.137156 -0.106117 0.409429 -0.677148 -0.735737 0.0127506
-0.0164645 -0.112987 0.693649 -0.00414121 -0.999991 -0.00130911
0.129333 -0.0713153 0.429152 0.00741588 -0.999969 -0.00268458
0.185111 -0.0679395 0.354517 -0.0117965 -0.839305 -0.543532
-0.156025 -0.0868383 0.378869 0.906913 0.421123 0.0127762
0.0191592 -0.0501436 0.512055 0.833384 0.552639 -0.00790014
-0.187887 -0.097722 0.466671 -0.969974 -0.239872 0.0401543
0.00770534 -0.0147727 0.69543 -0.902296 0.431042 -0.00809161
0.0788893 -0.0720541 0.400706 0.0280151 -0.999568 -0.00889468
-0.422532 -0.0706783 0.413616 -0.000372864 -0.999997 0.0023113
-0.231677 -0.0703022 0.368658 0.000699623 -0.996217 -0.0868973
-0.040422 -0.108569 0.430816 -0.482892 -0.875677 0.00251734
-0.337682 -0.0835269 0.382581 -0.895732 0.444507 0.00877992
0.281598 -0.0695003 0.356295 -0.00726116 -0.963145 -0.268883
0.287547 -0.0806685 0.478977 -0.327812 0.932673 0.150534
-0.113844 -0.0615486 0.372904 -0.0167125 0.995695 -0.0911765
0.424507 -0.0620138 0.402274 0.00116928 0.999998 -0.00171892
0.209439 -0.0618258 0.437385 0.00408898 0.999989 0.00246778
-0.0243841 -0.112665 0.264117 -0.0836861 -0.996488 -0.00274669
0.0860049 -0.0627513 0.362492 0.0118978 0.977906 -0.208705
-0.317131 -0.0932837 0.468997 0.996165 0.0368607 0.0793499
0.0200977 -0.0515292 0.081056 -0.203055 -0.0768577 0.976146
0.010451 -0.104189 0.697614 0.824343 -0.56607 0.00472562
-0.00989052 -0.112729 0.72778 0.0769766 -0.997032 -0.00129025
-0.0301506 -0.0760918 0.948777 -0.860501 -0.411694 0.300076
-0.00445733 -0.0265678 0.0641042 0.290126 0.940543 -0.176651
0.138863 -0.061764 0.374659 0.00613645 0.999385 -0.0345187
0.165819 -0.100081 0.308132 0.956135 -0.292926 0.000829983
0.00733946 -0.107569 0.558183 0.624788 -0.780791 0.00219024
-0.162772 -0.0845832 0.296672 -0.743903 0.667442 0.0336107
-0.3395 -0.0961078 0.419823 -0.993788 -0.1112 0.00457868
-0.189634 -0.0910619 0.337395 -0.992427 0.122572 0.00809084
0.0153066 -0.0393715 0.323298 0.975267 0.221032 0.000422947
0.00087546 -0.00788388 0.659193 0.890003 0.40516 -0.209143
0.0133935 -0.0796584 0.0729688 0.910929 -0.306965 -0.275648
-0.00816926 -0.0201253 0.396435 0.100045 0.994983 -0.00080829
-0.0780522 -0.0590176 0.512922 -0.0761655 0.997024 -0.0119286
0.15296 -0.0694637 0.359709 -0.00484184 -0.978585 -0.205786
0.0815972 -0.0718783 0.551623 0.0327703 -0.999088 0.0273778
0.00981314 -0.0897526 0.846772 0.904913 -0.408328 0.119999
-0.0712606 -0.0582724 0.45017 -0.150543 0.988601 -0.00210316
-0.0523259 -0.071729 0.709725 -0.999993 -0.00369318 3.01899e-05
-0.0381234 -0.109636 0.295757 -0.351648 -0.936132 0.00101017
-0.0249463 -0.00554541 0.177818 -0.965056 0.262039 0.00168955
-0.135511 -0.0739245 0.129468 -0.460108 -0.880101 0.117146
-0.292389 -0.0620704 0.481412 -0.0165894 0.999146 0.0378558
0.0861607 -0.0607992 0.411907 0.0216421 0.999763 -0.00216406
0.378279 -0.0706762 0.395364 -0.000139801 -1 -0.000644857
-0.0207176 0.0808569 0.187531 -0.999996 -0.000599297 -0.00261981
0.264799 -0.0641442 0.502823 0.15436 0.918192 0.364824
-0.0146747 0.0962965 0.208257 0.873139 0.31878 0.368792
-0.179149 -0.0864883 0.283002 0.745319 0.666706 0.00150253
-0.111949 -0.0606416 0.459097 -0.028369 0.999589 -0.00423039
0.0214389 -0.0530291 0.572484 0.648319 0.761247 0.0136368
-0.0112427 -0.0198774 0.577976 0.0619545 0.998078 0.00115326
-0.00364727 -0.0656578 0.953464 0.956632 0.0470997 0.287466
0.163585 -0.0880418 0.490175 0.940555 0.333513 0.0642265
0.143269 -0.0711959 0.440051 0.00893582 -0.999954 0.00361436
-0.0381206 -0.0231908 0.367511 -0.437021 0.899449 0.00212474
0.0768322 -0.0656502 0.173601 0.800592 0.00230553 0.599206
-0.0961146 -0.0749911 0.180055 -0.14867 -0.980779 0.126372
-0.0365663 -0.0226516 0.137597 -0.513893 0.856948 -0.0394135
-0.429692 -0.0620153 0.374929 -0.00204779 0.999996 0.00175903
-0.133376 -0.0613646 0.549949 -0.0267624 0.999148 0.0314298
-0.0146276 -0.0197144 0.460892 0.0183366 0.999831 -0.00125085
-0.179996 -0.0781837 0.375048 -0.420714 0.907171 0.00629571
-0.0322871 -0.00750649 0.741012 -0.880543 0.424754 0.210303
-0.0509225 -0.0830875 0.796073 -0.994243 -0.0962757 0.047039
0.0587415 -0.059988 0.46598 0.0351992 0.99935 -0.0078236
0.00438383 -0.0279614 0.0947854 0.518889 0.840859 -0.153983
0.227134 -0.0618868 0.491299 0.00525295 0.999956 0.00779395
0.0723068 -0.0722631 0.491924 0.026633 -0.999615 -0.00782224
-0.0456583 -0.0299683 0.464391 -0.847355 0.531026 0.000689176
0.0874627 -0.0572177 0.143997 0.07796 0.994539 0.0693832
-0.326997 -0.0894893 0.455783 0.998832 -0.0478427 0.00677652
0.0632017 -0.0605738 0.378648 0.0334597 0.997521 -0.0619117
0.131583 -0.0937819 0.373228 -0.998809 0.0483143 0.00676277
-0.0303019 -0.109918 0.81543 -0.396437 -0.912469 0.101177
-0.341682 -0.113772 0.311665 0.809721 -0.586784 0.00598968
0.132951 -0.0872654 0.388124 -0.900358 0.434983 0.0120844
-0.174776 -0.0755965 0.482384 -0.999945 0.010477 0.00041542
