0.0328983 -0.00262902 0.317336 0.973993 0.226457 0.00743271
0.139077 0.0176178 0.512115 -0.189947 -0.954883 -0.228297
-0.15125 -0.0241399 0.497413 0.937824 0.311948 -0.152232
0.195268 -0.0756661 0.650011 -0.0690883 -0.960891 0.26817
0.0314629 -0.0370452 0.525595 0.95163 -0.307225 0.00352602
-0.168458 0.0344255 0.581481 -0.000728436 0.996283 0.086143
-0.0198888 0.0216582 0.0348295 -0.881871 0.438466 -0.173351
0.0379481 -0.00575069 0.0200443 0.260193 -0.709992 -0.654378
-0.171755 -0.0377737 0.631744 0.750327 0.427676 0.504086
-0.0271399 -0.0461002 0.120739 -0.726 -0.687691 0.0025112
0.159736 0.013324 0.504269 -0.403815 -0.620568 -0.672182
0.152072 -0.0485256 0.628891 -0.971235 0.033859 0.235703
-0.0711461 0.0190194 0.593885 -0.152188 -0.965189 0.212719
-0.0385332 0.0174564 0.0759369 -0.0730419 0.997092 -0.0217475
-3.85682e-05 -0.0500609 0.679009 0.0238145 -0.992264 0.121841
-0.0289145 0.00811751 0.355887 -0.85261 0.522411 0.0119808
-0.0631477 0.000639947 0.0945553 -0.402021 -0.911146 0.0905154
0.42185 0.0293236 0.502379 0.14269 0.891713 -0.42952
0.151059 0.0135292 0.588237 -0.448487 -0.817738 0.360782
0.0030901 -0.0529808 0.429025 0.00713693 -0.999974 0.00027737
-0.0395988 0.0335213 0.511017 -0.0154893 0.989293 -0.14512
-0.424267 0.0263455 0.50214 -0.166813 -0.832235 -0.528732
0.214562 -0.097995 0.594943 0.340995 -0.939578 0.0302791
0.350116 0.0356162 0.556705 0.000570251 0.999926 0.0121428
0.16092 -0.0331807 0.449843 -0.82206 0.36583 -0.436333
0.23693 -0.0166163 0.487745 0.810499 0.538747 -0.229876
0.30952 0.0190951 0.543387 0.0176239 -0.999726 -0.0154249
-0.248314 -0.0367741 0.552673 -0.99898 -0.0383434 0.0238571
0.032077 -0.034723 0.390154 0.972654 -0.232258 0.000481807
-0.214419 -0.0985415 0.531397 -0.331931 -0.942333 -0.0427885
-0.0230314 0.0337336 0.587429 0.0206046 0.992181 0.123098
-0.193926 -0.00874197 0.459737 0.0556349 0.92914 -0.365519
0.384971 0.021261 0.587528 0.00614628 -0.992003 0.126065
-0.369317 0.0340264 0.515033 0.00397766 0.994229 -0.1072
-0.138935 0.0353494 0.567943 0.00291508 0.999355 0.0358027
0.207399 0.0251448 0.492883 0.026405 0.291908 -0.956082
-0.0341513 -0.0209148 0.225788 -0.996237 -0.0862732 0.00828809
-0.162072 -0.0860755 0.485822 0.718053 -0.695062 -0.0358977
0.153106 -0.0735587 0.495615 -0.911571 -0.405359 -0.0687129
-0.24116 -0.0443852 0.466811 -0.968043 0.12372 -0.218143
-0.0275223 0.0137352 0.446578 -0.623484 0.775014 -0.103062
0.00392564 0.0901208 0.0429308 0.952976 0.289381 0.0899793
-0.0338237 -0.0249992 0.400565 -0.99294 -0.118551 0.0040525
-0.0330543 -0.0334452 0.0731099 -0.938875 -0.339111 -0.0593088
-0.172398 -0.0716561 0.435034 0.520416 -0.430807 -0.737274
0.0383542 -0.00211058 0.605043 0.977344 -0.193194 0.0864538
-0.172191 0.0237275 0.493492 0.0492528 -0.255384 -0.965584
-0.147644 0.0109874 0.576501 0.694813 -0.657658 0.291068
0.218899 0.0325571 0.505348 -0.00295863 0.970184 -0.242351
-0.0403906 -0.0137106 0.135962 -0.888631 -0.452393 0.0753389
0.0190855 -0.0506093 0.19406 0.337201 -0.941432 0.00105898
0.145974 -0.0444156 0.568669 -0.999523 -0.00847781 0.0297144
0.267175 0.0353648 0.566452 0.0056657 0.999076 0.0426016
0.0691151 0.0313654 0.598957 -0.00363474 0.94453 0.328406
0.0307064 0.0134973 0.639219 0.667187 0.71322 0.214892
-0.00964337 -0.0527519 0.253326 -0.0904826 -0.995897 -0.00154813
-0.0233289 0.0169679 0.17142 -0.434625 0.897354 0.0765304
0.0274374 0.0107965 0.228752 0.763222 0.645701 0.023721
0.197023 0.0262637 0.606895 -0.00692452 0.47026 0.882501
0.0253594 -0.0471149 0.49461 0.691314 -0.722472 0.0109179
-0.0407624 -0.00442885 0.564717 -0.888879 -0.457148 0.0301561
-0.250767 0.0228224 0.496344 -0.0477388 -0.798836 -0.599651
0.246785 -0.0274442 0.573589 0.990043 0.0496957 0.131699
-0.0408771 0.00460244 0.501094 -0.914131 -0.383288 -0.13212
-0.312674 0.0191296 0.544895 -0.011944 -0.999871 -0.0107284
-0.0354616 -0.0179097 0.612745 -0.991784 -0.124732 0.0283832
-0.189848 -0.00987766 0.637619 0.074447 0.944412 0.320226
-0.0340921 -0.0223752 0.345953 -0.995843 -0.0910685 0.00177792
0.0867941 0.00695626 0.0097493 0.0436142 -0.96576 -0.255745
-0.244387 -0.0609065 0.592975 -0.981932 -0.182541 0.0498854
-0.152053 -0.0728634 0.572351 0.922633 -0.383121 0.0443491
-0.109511 0.00942654 0.0604778 -0.346991 -0.887839 0.302223
-0.253711 0.0356176 0.544214 0.00120454 0.999972 -0.00736222
0.158066 0.0356707 0.545888 -0.00340742 0.999935 -0.010832
0.146694 0.00850597 0.567983 -0.865494 -0.461125 0.195661
0.0322073 -0.0376953 0.106392 0.942044 -0.335478 0.00267468
-0.234278 -0.0830283 0.491907 -0.780015 -0.623192 -0.0566483
0.347411 0.0196432 0.566935 -0.00438327 -0.999378 0.0350045
0.188039 -0.1009 0.541843 -0.132675 -0.991074 -0.0130274
-0.246244 -0.00442433 0.537546 -0.991027 0.0517031 -0.123258
-0.212985 -0.0958016 0.621765 -0.323568 -0.943986 0.06476
0.291226 0.0345717 0.520481 -0.00265881 0.995828 -0.0912108
0.0270269 -0.0451945 0.612276 0.801678 -0.597752 -0.00218772
0.200936 0.035584 0.541216 -0.00161134 0.999908 -0.0134346
-0.148604 -0.0563744 0.593996 0.9864 -0.134996 0.0937622
-0.432302 0.0230064 0.584787 -0.152169 -0.973043 0.173296
-0.00512454 -0.0465319 0.0505791 -0.108431 -0.95787 -0.265947
-0.0196203 -0.0506157 0.517714 -0.426722 -0.904379 0.00259111
0.19067 -0.0146054 0.645231 0.07882 -0.43021 0.899281
0.0372495 -0.00790344 0.493941 0.984807 -0.160971 -0.0651401
0.056226 0.0347408 0.52248 0.00752806 0.997081 -0.0759746
0.105325 0.0181215 0.540359 -0.0104682 -0.99976 -0.0192597
0.0924886 0.0348123 0.577193 -0.00270556 0.996256 0.0864156
0.201654 -0.0944192 0.455408 0.0290038 -0.960722 -0.275992
-0.0303553 0.00536904 0.249406 -0.898265 0.43945 -0.00224346
-0.0170965 0.00912928 0.699258 -0.313369 0.872643 0.374557
-0.0121329 0.0467705 0.0845458 -0.951511 0.297315 0.0789322
0.0215863 0.0212258 0.134503 0.5529 0.829659 0.0772545
0.0194268 -0.0506715 0.353796 0.373823 -0.927456 0.00900357
-0.0381915 0.000844749 0.0157755 0.0852862 -0.0508855 -0.995056
-0.207014 0.0246017 0.607494 -0.0389325 0.25119 0.967154
-0.191507 0.0126416 0.494422 0.076975 0.072083 -0.994424
0.167132 -0.0810747 0.644934 -0.255353 -0.283524 0.924343
-0.170784 0.0355551 0.539527 0.000635808 0.999558 -0.029712
-0.04033 0.0355222 0.538344 0.00440408 0.999642 -0.026374
-0.289824 0.0253744 0.604067 -0.0192723 -0.677445 0.735321
-0.156361 -0.023521 0.47566 0.853892 0.422995 -0.303223
0.214603 -0.0264834 0.630958 -0.318101 -0.567879 0.759161
-0.0935085 0.0353245 0.568669 -0.0015119 0.99898 0.045141
0.15356 -0.0195756 0.494339 -0.885495 0.434648 -0.164257
-0.146149 -0.0361114 0.528388 0.99729 0.043524 -0.0593155
0.00522335 0.0293383 0.144073 0.12693 0.940685 0.314642
0.00466886 0.0188184 0.422686 0.0199787 0.999625 -0.018735
-0.102357 0.0180277 0.547211 -0.0116398 -0.999878 -0.0104294
0.154504 0.0355605 0.560196 0.00178115 0.999787 0.0205523
-0.218278 -0.0562005 0.429444 -0.470348 -0.0594436 -0.880477
0.0257188 0.019839 0.0621348 0.552327 0.829819 -0.0795991
0.288643 0.0201989 0.586601 0.0488831 -0.991076 0.124012
0.264985 0.0356489 0.544261 -0.00197064 0.999868 -0.0161108
-0.393106 0.0194513 0.554716 -0.0195268 -0.99976 0.00994833
0.0848605 0.0174979 0.537646 0.0803589 -0.996256 -0.0318952
-0.0148695 -0.0519709 0.598883 -0.191508 -0.981455 0.00846761
0.252616 0.0285181 0.495617 -0.00104696 0.647255 -0.762272
-0.0388316 -0.00776288 0.581447 -0.955629 -0.292058 0.0384186
-0.180485 -0.0255034 0.436071 0.385744 0.60835 -0.693623
0.203632 -0.100134 0.503818 0.0762157 -0.995879 -0.0491544
0.228017 -0.0818783 0.643445 0.642209 -0.506691 0.57518
-0.244513 0.0193515 0.598595 -0.186063 -0.834448 0.518727
0.101665 0.0354632 0.536026 0.00370721 0.999673 -0.0253089
-0.184179 -0.100335 0.556362 0.153348 -0.98808 0.0135008
0.0616967 0.0159227 0.513195 0.234059 -0.960838 -0.148343
-0.30109 0.0189612 0.560494 -0.0275557 -0.999347 0.0233783
0.245134 -0.0634644 0.541997 0.974524 -0.22388 -0.0134416
-0.123872 0.0347054 0.52235 0.000397134 0.997453 -0.0713208
-0.0820239 0.0235245 0.496851 -0.058338 -0.867559 -0.493901
0.444354 0.030291 0.518938 0.329407 0.920395 -0.210625
-0.00136876 0.0185665 0.308379 0 1 0
-0.246428 -0.0444892 0.510202 -0.995602 -0.0149279 -0.0924901
0.0225946 0.0188416 0.466843 0.279718 0.948639 -0.147788
0.43236 0.0212444 0.566733 0.0690525 -0.996054 0.0557419
0.00745451 -0.0528286 0.290519 0.0428718 -0.999073 -0.00390481
-0.239773 -0.0780468 0.554734 -0.853112 -0.521664 -0.00818461
0.236697 -0.0368958 0.455203 0.883321 0.305368 -0.35566
-0.329585 0.0357249 0.548873 0.000457688 0.999999 -0.00148143
-0.17728 -0.0946193 0.621715 0.35833 -0.93135 0.064701
0.0137167 0.0190562 0.191095 0.156702 0.985975 0.0574289
-0.0728817 0.0167803 0.576907 -0.155532 -0.983854 0.0885526
-0.0910584 0.0124626 0.0773335 -0.242873 0.939202 0.242717
0.0457799 -0.00740258 0.124549 0.74634 -0.656589 0.108938
-0.110039 0.019166 0.518861 0.0253635 -0.995663 -0.0895113
-0.244513 -0.0140372 0.580558 -0.971632 0.104998 0.21191
0.32802 0.0352078 0.530979 0.00304432 0.998726 -0.0503661
0.296169 0.0293712 0.496724 -0.000722167 0.748853 -0.662736
0.00368417 -0.0529767 0.547326 0.00720903 -0.999974 0.000291246
0.0162335 -0.035836 0.0324823 0.252715 -0.75787 -0.601471
0.307509 0.0204108 0.582946 0.0212214 -0.993045 0.115811
0.172651 -0.0964259 0.554667 -0.443592 -0.896169 0.0103502
0.00279289 0.0352866 0.569125 0.012314 0.998881 0.045653
-0.0041313 -0.0527302 0.639353 -0.0321442 -0.999303 0.0189713
-0.00482914 0.0185056 0.347587 -0.0250712 0.999685 -0.000875367
0.148907 -0.0584362 0.594759 -0.988243 -0.138003 0.0658169
-0.193299 -0.100125 0.500187 0.0448829 -0.997359 -0.0570931
0.248173 -0.0240548 0.548587 0.998256 0.0590385 0.000373505
-0.301596 0.0350198 0.574374 0.001429 0.997879 0.0650858
0.0348861 -0.0291344 0.0778919 0.935288 -0.35141 -0.041794
-0.241315 -0.0507512 0.629749 -0.97224 -0.0104529 0.233753
-0.154083 -0.0245009 0.61384 0.903316 0.358831 0.235076
0.212579 -0.0529019 0.426824 0.276033 0 -0.961148
0.00676956 0.0123695 0.694357 0.0904021 0.955472 0.280894
0.0493404 0.0164316 0.0929457 0.0873036 0.994687 0.0545435
-0.0110267 -0.0526077 0.480017 -0.120054 -0.992751 -0.00560824
0.033969 -0.0233491 0.293805 0.996591 -0.0824436 0.00304055
-0.0282037 -0.0435736 0.538397 -0.825895 -0.563621 0.0151224
-0.094716 0.0140262 0.0190327 -0.00840394 0.995899 -0.0900762
0.00626652 0.0776699 0.0154302 0.98733 0.143782 -0.0671315
-0.0367407 0.0153078 0.0450747 -0.00879408 0.990612 -0.13642
-0.348585 0.0193925 0.543822 -0.00469496 -0.999859 -0.0161471
-0.0237319 0.0209802 0.622427 -0.287936 0.911961 0.292269
-0.22453 -0.0178421 0.45824 -0.610835 0.690714 -0.387033
0.0342666 -0.0190694 0.349184 0.999612 -0.0278131 0.00150128
-0.000895358 0.0108915 0.0114074 -0.0132317 -0.141066 -0.989912
-0.216717 -0.0910267 0.639888 -0.381636 -0.846349 0.371547
-0.0326312 -0.00151164 0.299661 -0.974876 0.222442 -0.0116701
-0.0481336 0.0355543 0.560462 0.00431708 0.999863 0.0159714
-0.228882 -0.0895534 0.593844 -0.634465 -0.767614 0.0906804
0.388848 0.0197944 0.533157 0.00580785 -0.998891 -0.0467136
-0.00383516 0.0282598 0.492171 -0.00592077 0.915947 -0.401256
-0.0240543 -0.0478061 0.201297 -0.638504 -0.769504 0.013262
-0.0200351 -0.0505207 0.152531 -0.430217 -0.902693 0.00767325
0.22389 -0.00859701 0.479142 0.406468 0.855862 -0.319819
0.022471 0.0147039 0.393824 0.551966 0.833866 -0.000184487
-0.145978 0.0324659 0.505307 0.00280282 0.98164 -0.190725
0.163101 -0.078906 0.454789 -0.732662 -0.618135 -0.284808
0.132032 0.0307278 0.601052 -0.00950045 0.928457 0.371319
-0.288948 0.0355566 0.539695 -0.00221763 0.999689 -0.0248374
0.233073 -0.0845711 0.493479 0.772081 -0.635189 -0.0206276
-0.166559 0.0059499 0.501058 0.567951 0.33348 -0.752477
-0.153575 -0.0750937 0.499549 0.896804 -0.437051 -0.068765
-0.0358951 -0.0239135 0.0607161 -0.8968 -0.434351 -0.0842004
0.0027287 -0.0529717 0.46573 0.0178513 -0.99984 -0.00123818
0.243834 -0.00486336 0.522277 0.960352 0.196604 -0.197662
-0.0335831 -0.0291906 0.493357 -0.976621 -0.214963 0.00163572
-0.0518152 -0.00433308 0.0379137 -0.42562 -0.899968 -0.0943708
0.0321896 -0.0345084 0.421542 0.952082 -0.30584 -0.00136814
0.0324458 -0.0209892 0.683331 0.993663 -0.0739883 0.0846121
-0.390276 0.0354751 0.539838 -0.00903803 0.999504 -0.030165
-0.448122 0.0285663 0.520606 -0.670914 0.598319 -0.438052
-0.0250227 0.0146956 0.654887 -0.5618 0.818103 0.122834
0.196502 -0.0650708 0.670124 0.0250981 -0.744444 0.667213
-0.174571 -0.0663894 0.641207 0.814967 -0.517289 0.261229
-0.0436605 0.00306013 0.521267 -0.841845 -0.523655 -0.1307
-0.0723006 0.0157804 0.0646272 -0.0626762 0.997545 0.0312412
0.0702172 0.000994611 0.0574089 0.252246 -0.967663 -3.86517e-05
0.411691 0.0333137 0.585469 0.0289502 0.989307 0.142946
-0.00320276 0.078473 0.0666514 -0.599564 0.652559 0.463346
-0.0316891 -0.0359373 0.310955 -0.938653 -0.344811 0.006036
0.104078 0.014261 0.0371673 0.0640562 0.997927 0.00618142
0.0364225 -0.0182514 0.162605 0.961438 -0.268254 0.0606281
0.0415993 0.0344145 0.581494 -0.000663768 0.994807 0.101773
0.233336 -0.084384 0.601253 0.752219 -0.65729 0.0462266
-0.252985 0.0163166 0.516765 -0.24036 -0.953891 -0.179774
0.082944 0.0171359 0.555072 0.0973137 -0.995171 0.0128165
0.377014 0.0354224 0.536207 0.00354929 0.99914 -0.0413044
-0.00303902 -0.00113913 0.718099 -0.135958 0.647667 0.749695
-0.0296571 -0.0373703 0.675008 -0.917275 -0.394412 0.0551919
0.00407324 -0.0400254 0.7104 -0.0890851 -0.849986 0.519219
0.108477 0.0334871 0.510509 -0.00968241 0.989371 -0.145093
0.00300392 -0.0527912 0.105509 0.0294498 -0.999314 -0.0224498
0.241773 -0.0391679 0.621145 0.965089 0.203259 0.165195
0.0174614 0.0353632 0.532705 -0.00725633 0.999335 -0.0357422
-0.31014 0.0299224 0.497428 -0.000699337 0.861496 -0.507763
0.0348816 0.00385068 0.459016 0.973814 0.167027 -0.154235
-0.108652 0.0191471 0.580761 0.0251197 -0.995641 0.0898216
0.0353578 -0.0216573 0.576159 0.975479 -0.219689 0.0133047
0.438339 0.0336502 0.550963 0.132807 0.991132 -0.004442
-0.426758 0.0207508 0.564682 -0.0651318 -0.996423 0.0538379
-0.0491616 0.00591109 0.556193 -0.644902 -0.763102 0.0421565
-0.00901201 0.0520641 0.0122942 -0.964352 0.0910181 -0.248476
0.0288258 -0.0343512 0.0452492 0.857598 -0.450577 -0.248006
-0.0304021 -0.0387177 0.244442 -0.930843 -0.365356 0.00683471
-0.0284187 0.0106344 0.428555 -0.808702 0.586614 -0.0434228
0.18591 -0.0292311 0.43158 -0.200229 0.495102 -0.845448
-0.0189734 -0.0509024 0.342609 -0.380371 -0.924834 0.000169384
0.181298 -0.0020887 0.483323 -0.194058 0.898353 -0.394086
0.0287523 0.00859943 0.337925 0.829378 0.558624 -0.00846229
-0.0343602 -0.0184337 0.426673 -0.999544 -0.0289532 -0.00858239
0.130018 0.0340128 0.585413 0.00385796 0.993881 0.110387
0.0265801 0.0106235 0.670066 0.761084 0.63482 0.133245
-0.0328986 -0.0320237 0.591061 -0.968432 -0.249272 -0.00180625
0.219921 0.0352344 0.568765 0.00304735 0.998725 0.0503783
-0.147081 -0.0562473 0.54787 0.989543 -0.14422 0.00218754
-0.219908 -0.0570305 0.647791 -0.954605 -0.0819201 0.286389
-0.0338193 -0.000327928 0.198592 -0.978736 0.192669 0.0703834
-0.0777655 0.0336601 0.588344 -0.00858129 0.989592 0.143644
-0.330505 0.0252701 0.602748 -0.0130259 -0.879259 0.476165
-0.327928 0.0198323 0.528909 -0.00939792 -0.998734 -0.0494246
-0.148683 -0.0205967 0.582081 0.976523 0.119307 0.179357
0.245982 -0.0592452 0.557102 0.986068 -0.165925 0.0117927
0.0245306 -0.0474302 0.236473 0.642948 -0.76576 -0.0151567
0.145934 -0.043746 0.531584 -0.999237 -0.016982 -0.0351592
-0.215437 -0.0288265 0.630604 -0.124753 0.281028 0.951556
0.0845641 0.0113659 0.0867876 0.407802 0.817271 0.407143
0.344807 0.0201736 0.523761 -0.000867884 -0.997663 -0.0683215
0.0786478 0.0347554 0.522739 -0.00266335 0.997019 -0.0771104
-0.218895 0.0294185 0.496527 -0.00969413 0.885878 -0.463817
-0.343064 0.0246173 0.498507 0.0124775 -0.920157 -0.391351
0.237118 -0.00351348 0.593963 0.822866 0.263077 0.503669
0.229634 -0.0631843 0.439523 0.812358 -0.20706 -0.545161
0.0341923 -0.0213283 0.402706 0.997324 -0.0729223 -0.00525903
0.244584 -0.0476944 0.491432 0.997446 -0.00202858 -0.07139
-0.00468103 -0.0529221 0.579784 -0.0331118 -0.99945 0.00169653
0.158805 -0.0362384 0.643439 -0.873349 0.319407 0.36775
0.0704174 0.0154003 0.0771189 0.0747813 0.995949 0.0499369
0.021925 -0.0494197 0.262328 0.44819 -0.893902 0.0080259
0.0343043 -0.0183062 0.226365 0.999597 -0.0255589 0.0123915
-0.0189731 -0.0508185 0.419421 -0.336959 -0.941467 0.00996985
0.397019 0.0243314 0.500259 0.0189984 -0.919786 -0.39196
0.0354999 -0.0198497 0.50753 0.978047 -0.207608 -0.0179535
-0.277208 0.0176598 0.547918 -0.0791249 -0.996863 -0.00169626
-0.0574801 0.00130745 0.0190681 -0.196129 -0.923151 -0.330644
-0.0337154 -0.00822616 0.356233 -0.992952 0.11844 -0.00417134
0.0562185 0.0103449 0.118771 0.566043 0.694742 0.443767
-0.146004 0.03163 0.598577 0.00384981 0.969463 0.245207
0.0249183 0.0151846 0.0338172 0.525145 0.802607 -0.28292
-0.189856 -0.0358899 0.661466 0.351082 0.847986 0.397066
-0.0161469 -0.0497159 0.0733027 -0.224645 -0.969165 -0.101263
0.318498 0.025974 0.60391 -0.00105025 -0.723431 0.690396
0.153143 -0.0763106 0.563736 -0.902204 -0.430317 0.0292368
-0.159547 -0.0707201 0.451485 0.862301 -0.316342 -0.395429
0.362617 0.0218873 0.591251 -0.00904452 -0.987692 0.156149
0.107901 0.0138118 0.0232634 0.0466977 0.998174 -0.038302
0.143096 0.0114312 0.539114 -0.615648 -0.784148 -0.0780403
0.0754189 0.0175948 0.581153 0.14049 -0.983694 0.112286
-0.396448 0.0349644 0.571791 -0.00407378 0.998499 0.0546222
0.238859 -0.0787831 0.571874 0.894348 -0.446395 0.029532
0.0117788 0.0180966 0.262788 0.112965 0.993591 0.00408
-0.16026 -0.0846715 0.598164 0.72478 -0.684262 0.0804907
0.137533 0.0347988 0.522896 -0.00110816 0.997264 -0.0739124
0.0661504 0.026963 0.493989 0.0290965 0.397553 -0.917118
0.044015 0.00203265 0.528214 0.843311 -0.529204 -0.0936427
-0.0921158 0.0343886 0.518518 0.00490268 0.993917 -0.110022
0.0831101 0.0153414 0.0459125 0.0485934 0.998802 -0.00575392
-0.146554 -0.0064697 0.551928 0.999789 0.0193561 0.00690901
-0.297016 0.0343327 0.51793 -0.000986236 0.99503 -0.0995729
-0.0366875 -0.0177506 0.161032 -0.953183 -0.293487 0.0728582
0.0577258 0.00191938 0.0169379 0.146634 -0.903076 -0.403673
0.172381 -0.0129297 0.463711 -0.520299 0.801689 -0.294249
0.153758 -0.0762498 0.512684 -0.906218 -0.422214 -0.0224461
0.00997003 0.0613164 0.0478587 0.980308 0.197448 0.00334315
0.224887 -0.0594317 0.631707 0.84388 -0.176301 0.506739
0.00323015 -0.0124162 0.0161158 -0.0180835 -0.266946 -0.963542
-0.0172509 0.0294198 0.105561 -0.862479 0.500582 0.0744836
-0.167322 0.0209103 0.604916 0.147443 -0.467108 0.87182
0.00592459 0.0218342 0.62766 0.0401086 0.984782 0.169103
-0.130332 0.0159395 0.554394 0.17691 -0.983925 0.0243915
-0.0653827 0.0171344 0.510873 -0.193734 -0.96802 -0.159388
0.281295 0.0179635 0.547848 0.0642384 -0.997914 -0.00636876
-0.118293 0.0343551 0.582299 0.000742973 0.996283 0.0861387
-0.0320591 -0.0111664 0.685077 -0.988912 0.103371 0.106616
0.0212472 -0.0482136 0.667733 0.416888 -0.9058 0.0757014
0.0350212 -0.0180699 0.631335 0.996301 -0.0833535 0.0208843
0.241396 -0.0727072 0.522178 0.925769 -0.377881 -0.0125509
-0.406522 0.0200737 0.530251 -0.0185143 -0.998317 -0.054958
-0.382727 0.0208337 0.583608 -0.00773598 -0.995447 0.0950026
-0.0366504 -0.017169 0.547803 -0.972157 -0.234281 -0.00479929
0.192114 0.0334302 0.510855 0.00532301 0.990308 -0.138786
-0.235461 -0.0735953 0.459059 -0.848924 -0.464808 -0.251559
0.156336 -0.0103065 0.598352 -0.875536 0.247682 0.414838
-0.205434 -0.0654336 0.667126 -0.455009 -0.640657 0.618487
0.190681 -0.00475182 0.623391 -0.135083 0.916326 0.376959
0.420588 0.034365 0.530175 0.0579409 0.996823 -0.0546442
-0.086093 0.0044075 0.0509927 -0.169306 -0.985398 0.0180781
0.306595 0.0200051 0.521203 0.0220481 -0.995841 -0.0884032
-0.167341 -0.093028 0.571806 0.509934 -0.860155 0.0100443
-0.0392845 0.00993344 0.148724 -0.781108 0.573246 0.247507
-0.0356931 -0.0125759 0.47619 -0.995862 -0.0853296 -0.0312836
-0.0547413 0.0129114 0.11439 -0.308055 0.910984 0.274244
-0.198354 0.0342428 0.583031 0.00215507 0.99331 0.115461
-0.0157555 0.0345635 0.0393129 -0.960181 0.272537 -0.0614557
-0.166308 0.00610445 0.598412 0.573015 0.26885 0.774192
0.241653 -0.0254157 0.606469 0.933042 0.297393 0.202458
0.184064 -0.0312308 0.643831 -0.493098 0.814678 0.305212
-0.244097 -0.0344364 0.493376 -0.980975 0.12437 -0.149066
0.160656 -0.0837432 0.617803 -0.777575 -0.615179 0.130118
-0.391759 0.0233835 0.502827 -0.0209042 -0.951883 -0.305748
0.172857 -0.0956651 0.518262 -0.391949 -0.919793 -0.0188834
0.149602 -0.0445546 0.611013 -0.990402 0.0962295 0.0992181
0.404412 0.0353409 0.555078 0.0197189 0.999794 0.00475272
0.0232552 -0.0411082 0.695963 0.606078 -0.761617 0.229368
-0.0360196 0.00375094 0.465942 -0.984532 0.066716 -0.162006
-0.153347 -0.0525076 0.635204 0.987025 0.00765629 0.160387
-0.0074914 0.0749091 0.0365669 -0.983397 0.181455 0.00206301
-0.19744 -0.0796295 0.432715 0.00355093 -0.591072 -0.806611
-0.206651 -0.000304469 0.613092 -0.144601 0.827268 0.54288
0.0358259 -0.0206155 0.549385 0.972556 -0.232666 -0.00148868
-0.0495206 -0.0075765 0.0810503 -0.645388 -0.763457 0.0246684
0.23211 0.0351045 0.528505 -0.00419971 0.99839 -0.0565707
0.00951527 -0.0527715 0.368703 0.0656484 -0.997841 -0.00211974
0.199812 -0.0937748 0.644128 0.0508849 -0.681532 0.730017
0.0323414 0.0353362 0.566401 -0.00588825 0.999074 0.0426226
-0.0146847 0.0186153 0.195939 -0.185253 0.981552 0.0472916
-0.0216007 -0.0495421 0.288298 -0.529442 -0.848321 -0.00648771
-0.0329002 -0.0317301 0.37688 -0.974127 -0.225905 0.0066592
-0.242918 -0.0640273 0.490422 -0.979332 -0.188059 -0.074445
0.0479179 0.0129616 0.598424 0.467032 -0.857611 0.21537
-0.0117317 -0.052487 0.174999 -0.123103 -0.992394 -0.000390086
-0.213014 -0.0966459 0.482221 -0.323926 -0.936649 -0.133268
0.033261 0.00231272 0.197144 0.961838 0.262046 0.0787389
0.0253505 0.0126087 0.296792 0.690619 0.723172 -0.0082282
0.150268 -0.0593655 0.48386 -0.977534 -0.19913 -0.0690935
-0.228684 0.0356674 0.544004 -0.00105149 0.999904 -0.0137921
0.169895 -0.0618542 0.632981 -0.86948 -0.255149 0.422969
-0.00388736 -0.0529768 0.12959 -0.00632806 -0.99998 0.000249239
0.294037 0.0343873 0.581756 -0.00157731 0.994834 0.101507
-0.34447 0.0206734 0.582243 -0.00473742 -0.995497 0.0946716
0.228537 0.0143779 0.50047 0.289035 -0.641118 -0.710934
-0.0221319 -0.0485643 0.656944 -0.495823 -0.868147 0.0218985
-0.243449 -0.0324668 0.605647 -0.964773 0.175887 0.195643
-0.208794 -0.0201099 0.440152 -0.244221 0.793833 -0.556943
0.191943 0.0354075 0.566337 -0.00123856 0.999269 0.0382086
0.181016 -0.0763422 0.43294 -0.324234 -0.469577 -0.8212
-0.243418 -0.0177738 0.512245 -0.951682 0.184748 -0.245297
-0.149098 -0.0509853 0.490238 0.996951 -0.0426467 -0.0653373
0.147079 -0.0403417 0.511594 -0.996282 0.0253785 -0.082332
0.17674 0.00879021 0.603311 -0.338794 0.167976 0.925744
0.148634 -0.0111262 0.522385 -0.974704 0.136094 -0.177288
0.195503 -0.101565 0.575086 -0.0504875 -0.998193 0.0325833
0.146349 -0.0167557 0.563133 -0.994701 0.075502 0.0697832
-0.168564 -0.0181391 0.636976 0.571909 0.78283 0.245146
-0.047285 0.0335882 0.588106 -0.00767331 0.990241 0.139157
0.162106 -0.0595642 0.440612 -0.798013 -0.212116 -0.564076
0.202678 -0.101226 0.561275 0.11299 -0.993566 -0.00775776
0.24022 -0.051268 0.461736 0.961913 -0.0139782 -0.272999
0.242528 -0.0225128 0.502236 0.937335 0.313815 -0.151402
-0.239228 0.0342414 0.517028 -0.00361954 0.995597 -0.093668
-0.176502 -0.0970375 0.596546 0.344198 -0.938272 0.0342587
-0.120439 0.035716 0.547703 -0.00136158 0.999969 -0.00771218
0.0335928 -0.00591827 0.251335 0.992741 0.120247 0.00254212
0.190452 -0.0996738 0.602745 -0.0753845 -0.995403 0.05908
-0.0343776 0.0177282 0.106116 -0.211189 0.976709 0.0379393
0.218801 -0.000298429 0.607935 0.348645 0.722056 0.597563
0.329569 0.0344733 0.580886 0.0037556 0.996995 0.0773775
0.391637 0.0195354 0.55958 0.00943339 -0.999562 0.0280636
0.00524933 0.0225226 0.170766 0.0679511 0.983278 0.168956
-0.0939883 0.0180076 0.561582 -0.0378091 -0.998826 0.030268
0.0255065 -0.0469003 0.441964 0.685896 -0.727469 0.0183491
-0.150708 -0.0396042 0.614851 0.973505 0.162761 0.160617
0.260979 0.0347431 0.522399 0.00561941 0.997092 -0.0760022
-0.232296 -0.0323711 0.644876 -0.775155 0.397072 0.491394
-0.197587 0.0355599 0.560178 0.00289332 0.999867 0.0160734
0.00225926 0.018573 0.237822 -0.000556609 0.999998 0.00176878
-0.0207156 0.0356353 0.553397 0.00608864 0.999977 0.00313728
0.398918 0.0344316 0.521287 0.0104472 0.995286 -0.0964196
-0.0185479 0.0166152 0.292824 -0.333825 0.942549 0.0127549
0.27211 0.0307342 0.499528 0.0081307 0.934642 -0.355496
-0.194703 -0.0521989 0.425187 -0.000651896 0.00156178 -0.999999
0.203001 0.00378986 0.489945 0.110713 0.763323 -0.636459
0.033713 -0.028364 0.482144 0.980787 -0.195021 -0.00488098
-0.239507 0.0330381 0.592131 -0.00938658 0.98434 0.176029
-0.226175 0.00266985 0.600984 -0.51 0.462554 0.725219
0.00894692 0.0379911 0.120716 0.598797 0.718416 0.354007
-0.0920858 0.0199771 0.511492 -0.0397707 -0.989844 -0.136482
0.00144908 0.0520316 0.102969 -0.0173719 0.821475 0.56998
0.0125482 -0.0523852 0.172913 0.13434 -0.990924 0.00479193
0.408025 0.020221 0.572012 0.0248288 -0.998059 0.0571183
0.243663 -0.0652428 0.508429 0.963744 -0.266376 -0.015518
-0.356978 0.0356242 0.54551 -0.00120454 0.999972 -0.00736222
0.326998 0.0197497 0.530401 0.00939792 -0.998734 -0.0494246
0.26064 0.0198567 0.595682 0.0851797 -0.962216 0.25862
0.0340532 -0.0121974 0.376998 0.998996 0.0446841 -0.00325713
0.0263892 0.0150529 0.450129 0.582685 0.806973 -0.0962941
-0.148281 -0.00805854 0.526941 0.977092 0.146955 -0.153932
-0.168103 -0.0454568 0.434407 0.66176 0.0912127 -0.744147
-0.0232518 0.0110921 0.680576 -0.607308 0.768678 0.200777
0.200363 -0.0985258 0.473853 0.112573 -0.981773 -0.153131
-0.189383 0.0331165 0.508719 -0.0086278 0.983744 -0.179369
0.0231735 -0.0488039 0.555714 0.543046 -0.839637 0.0105771
-0.107264 0.0122311 0.00589714 0.0211118 0.954567 -0.297247
0.0766091 0.0197129 0.50654 0.121932 -0.965482 -0.230167
0.238374 -0.0717941 0.625711 0.934721 -0.347506 0.0744021
-0.233254 0.0249917 0.606577 -0.0549944 -0.236412 0.970095
-0.0217029 -0.0492709 0.22154 -0.525312 -0.850864 -0.00884983
0.00305097 0.0669666 0.0822226 0.341785 0.750442 0.565703
-0.000755926 -0.0529863 0.5316 0 -1 0
-0.113402 0.013619 0.0350757 -0.0846886 0.996103 0.0246189
-0.176807 -0.0945853 0.477109 0.355177 -0.926431 -0.1248
-0.00421216 0.0304817 0.602428 -0.0187057 0.947519 0.319151
0.354183 0.0340805 0.584466 0.00303546 0.993299 0.115534
0.333402 0.0193521 0.557857 0.00422855 -0.999746 0.0221554
0.0396109 -0.0190502 0.0929679 0.856165 -0.516658 0.00680562
-0.224306 -0.0941642 0.569 -0.497623 -0.867239 0.0163789
-0.275666 0.0356556 0.556818 -0.00192962 0.999761 0.0217972
-0.0407581 0.0232467 0.48988 -0.248333 0.237403 -0.939133
-0.0240806 -0.0480649 0.503603 -0.608496 -0.793501 0.00941331
0.00127912 0.0199862 0.455106 -0.0076997 0.997432 -0.0711982
-0.402831 0.0207193 0.579553 -0.0226489 -0.994484 0.102419
-0.0291392 0.00859838 0.226738 -0.8493 0.527276 0.0258842
-0.187674 -0.0883693 0.6419 -0.221659 0.895545 0.385831
-0.349896 0.0344334 0.518929 -0.000986455 0.99503 -0.0995726
-0.447489 0.0306753 0.572999 -0.344896 0.929966 0.12732
0.353336 0.0335971 0.512055 0.00532299 0.990308 -0.138786
-0.2887 0.0190115 0.527155 -0.0450995 -0.997008 -0.0627741
0.147319 -0.05784 0.551349 -0.987324 -0.158324 -0.0111492
-0.0358949 -0.00656887 0.629855 -0.993539 -0.0926879 0.0654941
0.214255 -0.098381 0.527053 0.319009 -0.946881 -0.0406199
0.0965466 0.0298987 0.602873 0.000968168 0.865282 0.501284
-0.233629 -0.0483721 0.443327 -0.845014 0.165247 -0.508572
0.107935 0.0183623 0.568825 -0.0207959 -0.998866 0.0428381
0.0312602 -0.0365462 0.209433 0.960079 -0.279711 -0.00313204
-0.206171 -0.100828 0.554868 -0.142063 -0.989819 0.00878204
-0.199013 -0.101527 0.524237 -0.0563338 -0.998018 -0.0280617
0.37263 0.0209838 0.515047 -0.00611414 -0.993774 -0.111245
0.24685 -0.0461544 0.583114 0.996592 -0.0302014 0.0767621
-0.00776426 0.0347479 0.523014 -0.00510132 0.997916 -0.0643213
-0.168285 0.034047 0.514682 -0.00255958 0.995068 -0.0991598
0.244828 0.0342267 0.583262 0.00303544 0.993299 0.115534
-0.152181 -0.0735613 0.529815 0.923788 -0.37965 -0.0498185
0.453752 0.0252012 0.54125 0.511245 -0.852534 -0.108691
-0.05445 0.0112743 0.572857 -0.455239 -0.880227 0.134004
0.156656 0.033865 0.586672 -0.00487124 0.992368 0.123215
0.176391 -0.048686 0.655687 -0.915126 0.208244 0.345223
0.0331859 0.0208063 0.614158 0.433856 0.581053 0.688583
-0.241483 0.0354778 0.56392 0.000404486 0.999695 0.0247119
-0.0115473 0.0198445 0.641627 -0.0770897 0.991814 0.10179
-0.0233075 -0.0484421 0.404707 -0.593112 -0.805083 -0.00775877
0.0147339 0.0406214 0.0610378 0.961638 0.274322 0.000131992
0.0229673 -0.0486182 0.285653 0.569156 -0.822212 -0.00532509
-0.211696 -0.00585347 0.474074 -0.265033 0.906546 -0.328529
-0.0189752 0.0284226 0.0631314 -0.908476 0.417505 -0.0190031
0.14206 0.0288252 0.495898 0.00899143 0.694797 -0.71915
0.314809 0.0337229 0.512555 -0.00796274 0.992152 -0.12478
-0.233694 -0.0859848 0.514455 -0.750546 -0.657254 -0.0685367
-0.417824 0.0338081 0.579318 -0.0508754 0.993148 0.105212
-0.153722 -0.068133 0.473917 0.945853 -0.305154 -0.110648
0.21661 0.032648 0.594486 -0.00273106 0.970131 0.242565
-0.0386787 -0.0206062 0.0911798 -0.886805 -0.46213 0.00345843
0.231611 -0.0283142 0.642511 0.798256 0.474225 0.371346
-0.309786 0.0207367 0.514837 -0.0167587 -0.992998 -0.116936
0.154079 -0.0304831 0.474686 -0.941093 0.268176 -0.205977
0.0334117 0.0347958 0.52379 -0.00267058 0.997927 -0.0642929
-0.0401687 0.00556088 0.606958 -0.937816 -0.328927 0.110945
-0.147713 -0.0555737 0.513364 0.985522 -0.147851 -0.0829805
0.217118 -0.0945142 0.618864 0.360631 -0.929276 0.0799461
-0.265236 0.029893 0.602727 -0.00948675 0.857688 0.514083
0.0309714 -0.0377007 0.177743 0.940597 -0.338671 0.0240631
0.214939 -0.0762651 0.434034 0.436932 -0.470078 -0.766888
-0.146309 -0.0409967 0.576297 0.998708 0.0274093 0.0427875
-0.400202 0.034212 0.519269 -0.019044 0.99427 -0.105188
-0.0265787 -0.0455195 0.268542 -0.785401 -0.618986 0.00111005
0.0220556 -0.0492923 0.396894 0.523541 -0.851983 0.00546983
-0.176517 -0.087666 0.448846 0.414621 -0.784023 -0.46195
-0.211891 -0.0138982 0.642306 -0.300834 0.876522 0.375776
-0.256419 0.0143791 0.541923 -0.29768 -0.954091 -0.0331325
0.401795 0.0291318 0.602174 0.0802051 0.668703 0.739191
0.210982 -0.0725773 0.646907 0.594519 -0.752253 0.284012
0.0442421 0.00662369 0.142924 0.714015 0.597535 0.364877
0.318923 0.035544 0.561002 -0.00140093 0.99952 0.0309608
0.126234 0.0121873 0.0345807 0.187147 0.978646 0.0850166
-0.304375 0.0356152 0.555577 0.00291401 0.999946 0.00997278
-0.0294448 -0.041283 0.614039 -0.881514 -0.47207 -0.00914038
-0.357145 0.0217553 0.509962 -0.0053331 -0.987436 -0.157929
-0.0526755 -0.00398049 0.105913 -0.579078 -0.806511 0.119204
0.00968768 -0.0527179 0.326589 0.0690203 -0.997609 0.00357079
0.268436 0.0178526 0.576208 0.0989083 -0.99197 0.0788212
0.0296565 -0.0403582 0.248726 0.891063 -0.453865 0.00364181
-0.240218 -0.0728263 0.6061 -0.929222 -0.35259 0.110576
0.0704538 0.0143758 0.0252077 -0.0360748 0.993319 -0.109617
0.173638 0.0270311 0.493619 -0.00354029 0.542439 -0.840088
-0.176545 -0.0972139 0.51531 0.351234 -0.936278 -0.00431767
0.000905072 0.101442 0.0221331 0.365144 0.929206 0.0569764
-0.0877728 0.0314124 0.599326 0.0067123 0.960103 0.279566
-0.246298 0.00073313 0.561551 -0.989365 -0.0601125 0.132449
0.0271339 -0.046031 0.126551 0.765243 -0.643687 0.00839178
-0.0341085 -0.0133615 0.320038 -0.998431 0.0555218 -0.0072542
0.110927 0.034951 0.574173 0.00561761 0.998307 0.0578902
0.120548 0.0352126 0.530997 -0.00329918 0.998738 -0.0501235
-0.0258689 -0.0168542 0.0226353 -0.358751 -0.484351 -0.797936
0.221918 0.0355467 0.539225 0.000635697 0.999558 -0.0297122
0.0327831 -0.00274651 0.279854 0.980772 0.195035 0.00694922
0.0466482 0.0129577 0.0291826 -0.111301 0.959129 -0.260161
-0.247818 -0.0283416 0.56396 -0.996779 0.0359926 0.0716719
0.00627803 0.0184581 0.333032 0.0383957 0.99926 0.00221481
-0.231226 -0.0675751 0.444401 -0.813787 -0.30385 -0.495405
0.0178035 0.0251146 0.486361 0.103192 0.901703 -0.419862
-0.227507 0.0112227 0.502019 -0.489277 -0.208979 -0.846721
-0.0170087 0.017254 0.40923 -0.262174 0.965006 -0.00536384
0.369297 0.0288015 0.603971 -0.00349287 0.753571 0.657357
-0.248112 -0.0234699 0.545942 -0.997379 0.0667349 -0.027964
-0.175492 0.035554 0.560748 -0.000471309 0.99956 0.029668
-0.0205846 0.0205705 0.147564 -0.538128 0.838415 0.0864812
0.0492459 -0.00820336 0.0710947 0.567143 -0.823598 0.00588925
-0.189384 0.0130823 0.605533 0.119453 0.030382 0.992375
-0.016835 -0.0427951 0.701012 -0.271464 -0.871997 0.407344
0.00734693 0.0184002 0.283743 0.0459556 0.998943 -0.00121562
-0.0346779 0.0285869 0.605835 -0.0340099 0.882872 0.46838
0.209715 -0.0221595 0.437901 0.293132 0.73397 -0.612668
0.0520245 0.0166402 0.0642709 0.0195504 0.999638 -0.0184661
-0.188721 -0.0295935 0.64466 0.221186 0.937292 0.26937
0.00766768 -0.0190695 0.723864 -0.00613771 -0.125697 0.99205
0.0357687 0.0169145 0.117134 0.222806 0.973268 0.0557386
0.243917 0.0130006 0.58495 0.539326 -0.775144 0.329059
-0.0295983 -0.0410642 0.483376 -0.888395 -0.458934 0.0115615
-0.306774 0.0213068 0.589902 -0.0140182 -0.990034 0.140132
0.225876 -0.093244 0.559372 0.564832 -0.825143 0.0101467
-0.274979 0.0199615 0.590548 -0.0652805 -0.986353 0.151149
0.170383 -0.0132467 0.628654 -0.5025 0.80858 0.306093
0.155478 0.0340883 0.515521 -0.00527747 0.994117 -0.108187
-0.0333685 -0.00583378 0.276155 -0.988442 0.151533 0.0043733
0.0662246 0.0343713 0.582111 0.000901246 0.996281 0.086158
0.23735 0.00945318 0.511288 0.712787 -0.433084 -0.5517
0.00730033 0.0186838 0.218099 0.0459289 0.998805 0.0166974
-0.21527 -0.0395921 0.651112 -0.808689 0.504744 0.302087
0.0759765 0.00264683 0.0343075 0.190703 -0.98084 -0.039803
0.0245691 0.0215092 0.0834086 0.610354 0.792128 -0.000834211
0.215787 -0.0176456 0.645545 0.0755018 0.0562394 0.995558
0.196973 -0.0159468 0.442586 0.000797245 0.842586 -0.538562
0.130178 0.0159856 0.555133 -0.17691 -0.983925 0.0243915
-0.23206 -0.0658948 0.643638 0.777038 0.26289 0.571927
-0.201788 -0.0996662 0.604697 -0.0652536 -0.997458 0.0286243
0.00592535 -0.0529397 0.495145 0.0233234 -0.999728 -8.5204e-05
0.287261 0.0356502 0.543641 0.00548035 0.999851 -0.0163818
0.168419 -0.0916898 0.49021 -0.563507 -0.823189 -0.0694237
-0.341638 0.019517 0.562869 -0.00306818 -0.999548 0.0299155
0.100638 0.0199886 0.512531 -0.00320618 -0.99008 -0.14047
-0.0339624 -0.00972932 0.245187 -0.997251 0.0740619 0.00235662
-0.1658 -0.0831522 0.642016 0.672826 -0.652412 0.348804
-0.102737 0.00652629 0.0387077 -0.112106 -0.993671 0.00708885
0.0365748 -0.022987 0.135838 0.947583 -0.316266 0.0454089
-0.238947 -0.0783368 0.575302 -0.904903 -0.42332 0.0441738
-0.175168 -0.0115599 0.463512 0.407556 0.866377 -0.288598
-0.175552 -0.0521678 0.654862 0.948176 0.0133599 0.317465
0.177258 -0.0639872 0.652061 -0.833046 -0.433068 0.344219
-0.150594 0.0134012 0.512877 0.480733 -0.803348 -0.351464
0.222276 -0.0860773 0.452528 0.574904 -0.776126 -0.259063
0.148405 -0.0260453 0.584612 -0.981341 0.140003 0.131792
-0.13345 0.0180316 0.585799 0.12316 -0.981729 0.145052
0.0220611 -0.0491681 0.633011 0.54293 -0.839656 0.0143147
0.0616452 0.0130884 0.539288 0.305063 -0.951636 -0.0363956
-0.0110874 0.0549396 0.0652352 -0.97112 0.235273 0.039665
0.0347526 -0.0131134 0.440132 0.999498 -0.0107981 -0.0297988
-0.242697 3.33101e-05 0.521781 -0.958837 0.100887 -0.26543
-0.379734 0.0320983 0.503801 -0.00491483 0.967001 -0.254726
0.0402187 0.011569 0.484397 0.953248 0.0466478 -0.298567
-0.31158 0.0352689 0.530644 -0.0011316 0.999013 -0.0444009
0.246418 -0.0101225 0.565479 0.991371 0.100447 0.0842219
0.346233 0.0354194 0.534808 -0.00500659 0.999322 -0.0364771
0.306837 0.0354504 0.535203 -0.00109823 0.999606 -0.0280328
0.0115007 0.0181397 0.379196 0.122895 0.992419 0.00124658
-0.246162 -0.0343031 0.585732 -0.990898 0.100473 0.0895877
-0.272789 0.0177971 0.530722 -0.0865962 -0.994752 -0.0544921
0.232195 -0.0875676 0.514508 0.708941 -0.701638 -0.0714615
0.0327005 -0.00146705 0.666145 0.968873 0.226996 0.0987772
0.0283094 -0.0443318 0.0864733 0.765449 -0.640519 -0.0618305
-0.0255532 0.0301294 0.497112 -0.0251975 0.929631 -0.36763
-0.0616742 0.0243128 0.493748 -0.128701 -0.232244 -0.964105
-0.230768 -0.0892777 0.541766 -0.696902 -0.716707 0.0256815
0.146472 0.000644376 0.548424 -0.999444 -0.0330979 -0.00400451
-0.0260687 -0.0417949 0.0537286 -0.621162 -0.756855 -0.203295
0.0446209 0.0317754 0.598039 0.00641547 0.969475 0.245107
-0.032659 -0.0349756 0.138771 -0.944072 -0.328898 0.0235491
0.425438 0.031191 0.591882 0.141981 0.942757 0.301747
-0.158091 -0.0840584 0.547929 0.766895 -0.641404 0.0217304
0.236895 -0.0822951 0.539419 0.823431 -0.567129 -0.0180402
-0.0610091 0.0357035 0.549154 0.00629734 0.99998 -0.00106746
0.0348159 -0.0227258 0.601108 0.983028 -0.183217 0.00932927
-0.236599 -0.0356309 0.456048 -0.884169 0.304139 -0.354604
-0.0362753 -0.0171711 0.51765 -0.974679 -0.222932 -0.017357
0.0325411 -0.0332337 0.365566 0.970783 -0.239948 -0.00207235
-0.129418 0.0192607 0.508935 0.0805212 -0.984514 -0.155722
0.0716163 0.0106905 0.100739 0.494376 0.720335 0.486529
0.0344315 -0.00222666 0.648874 0.988936 0.11767 0.0903274
0.240154 0.0322291 0.504148 -0.00220047 0.976433 -0.215811
0.0853137 0.0355894 0.558847 0.00071806 0.999926 0.0121385
-0.103765 0.0256375 0.495555 0.00987158 -0.57487 -0.818185
-0.00803256 0.0306255 0.00996615 -0.530228 -0.0926135 -0.842782
0.0168788 0.017312 0.412103 0.260157 0.965505 -0.0108563
0.124438 0.0174235 0.530444 -0.103838 -0.99261 -0.0627966
0.160177 -0.0829768 0.477645 -0.806228 -0.581143 -0.110764
0.154197 -0.0703297 0.620488 -0.942591 -0.323656 0.082271
-0.0167794 0.0171319 0.238529 -0.24919 0.968413 0.00895158
0.242925 -0.0606401 0.48294 0.973988 -0.203932 -0.0987939
-0.0331221 -0.0297541 0.196105 -0.979262 -0.202341 0.0101655
0.0510026 -0.0064944 0.055049 0.499787 -0.864144 -0.0588901
0.0070099 0.0604994 0.00826145 0.94271 0.0664148 -0.326937
0.0428399 0.00552263 0.50945 0.8371 -0.516387 -0.180578
0.0172356 0.0333464 0.510277 0.0227731 0.987485 -0.156061
-0.282665 0.0185589 0.570034 -0.0528813 -0.997239 0.0521281
-0.225978 -0.0906086 0.614349 -0.506282 -0.858582 0.0807218
0.100535 0.0356246 0.556796 -0.00452565 0.999852 0.0165832
-0.00339598 -0.0281582 0.0230739 -0.0972223 -0.551642 -0.828396
-0.19129 -0.0518625 0.674531 0.232816 0.0534286 0.971052
0.246965 0.00708524 0.535819 0.92094 -0.352958 -0.165197
-0.185314 0.0351504 0.528731 0.00379814 0.998586 -0.0530319
-0.197525 -0.0285498 0.431147 0.0158845 0.55223 -0.833541
0.180019 -0.0898756 0.450056 -0.30461 -0.841276 -0.446617
0.15332 0.0242039 0.605911 -0.0445767 -0.485716 0.872979
-0.0340241 -0.0220581 0.652122 -0.992772 -0.115302 0.0333031
0.433604 0.0213914 0.532625 0.0779982 -0.995169 -0.0596249
-0.442981 0.0220957 0.54284 -0.165223 -0.986225 -0.0078478
-0.0111699 0.0181546 0.325727 -0.117922 0.993022 0.00100161
-0.0301092 -0.0404629 0.33386 -0.899876 -0.435945 -0.0132393
-0.00874962 -0.0527985 0.361302 -0.0613194 -0.998109 -0.00436361
0.0289748 -0.000317893 0.691561 0.944724 0.27879 0.172545
0.180065 -0.0812113 0.632415 0.360778 0.778658 0.513352
-0.0334227 -0.0155794 0.670963 -0.998264 -0.00971798 0.0580873
0.219026 -0.0941282 0.480864 0.383653 -0.917445 -0.10538
-0.0273529 -0.00571953 0.705392 -0.881186 0.337255 0.331315
0.0213676 -0.0497617 0.537375 0.445536 -0.895229 -0.0079804
-0.210229 0.00489195 0.492706 -0.219727 0.614794 -0.757461
0.0271501 0.0108683 0.246204 0.788119 0.615507 0.00449155
-0.151961 0.0356622 0.547658 0.00473023 0.999988 -0.000986625
-0.0308715 0.00378112 0.375381 -0.91754 0.397589 -0.00663272
0.139882 0.0356112 0.543384 0.00291158 0.999946 -0.0099701
0.0866696 0.00507911 0.0676275 0.209483 -0.975032 0.0736846
-0.156634 -0.0400213 0.641231 0.883898 0.273187 0.379597
-0.0340033 -0.0223785 0.258149 -0.997766 -0.0668089 0.000265569
0.0402377 -0.00666638 0.158013 0.972378 -0.125277 0.196942
0.271478 0.0339236 0.586575 -0.000390505 0.993423 0.114501
0.407357 0.0204926 0.524237 0.0305455 -0.995322 -0.0916606
-0.0160992 -0.0517179 0.0996105 -0.188701 -0.981519 -0.0318286
-0.0205723 0.0257653 0.0826863 -0.839233 0.543752 0.00472919
0.0143283 0.04083 0.0437232 0.972217 0.23046 -0.0410091
-0.0247585 0.0354029 0.534443 -0.0107274 0.999277 -0.0364646
0.148947 -0.0414024 0.492618 -0.992334 0.0439188 -0.115517
0.240639 -0.0322598 0.477605 0.947864 0.240348 -0.209251
-0.199883 -0.0844445 0.631138 0.0704353 0.748348 0.659556
-0.0726702 0.00201959 0.0396592 -0.219606 -0.975095 -0.0310316
0.00875082 -0.0528109 0.247354 0.0656967 -0.997837 -0.00247906
-0.0263651 -0.0458687 0.166964 -0.706584 -0.707457 0.0156053
0.375565 0.0193363 0.547149 -0.00188736 -0.999972 -0.00723725
-0.0856622 0.0126363 0.0108977 0.0615674 0.977348 -0.202484
0.0243402 -0.0476343 0.460715 0.638676 -0.769437 -0.00767369
0.027745 -0.0426497 0.0648358 0.751939 -0.651964 -0.0976269
-0.324538 0.0199261 0.573601 -0.0127944 -0.998202 0.0585563
0.0577812 0.0148023 0.587121 0.311977 -0.938123 0.15032
0.00893191 -0.0528118 0.61001 0.0657785 -0.997834 -0.000327356
-0.0332964 -0.00338288 0.415491 -0.985751 0.165985 -0.0272783
-0.240521 -0.0661442 0.474437 -0.94594 -0.304837 -0.110777
-0.244801 -0.0462076 0.603173 -0.994115 -0.00267104 0.108301
0.0270806 0.0356991 0.550121 -0.00682839 0.999976 0.00103628
-0.245934 -0.0595167 0.542157 -0.986065 -0.165951 -0.0116315
-0.156672 -0.0109821 0.599463 0.875536 0.247682 0.414838
-0.0340677 -0.0123748 0.380821 -0.999187 0.0402782 -0.00186227
-0.429422 0.0334715 0.525202 -0.0761006 0.994608 -0.0704469
-0.24323 0.0121217 0.584086 -0.570127 -0.734496 0.368065
0.00161291 -0.0529842 0.20071 0.0047065 -0.999989 0.000139429
-0.0737958 0.033707 0.511963 -0.00673948 0.992581 -0.121398
-0.0335359 -0.00316127 0.21389 -0.985959 0.162767 0.0373158
-0.0542102 0.0349255 0.524745 -0.00596986 0.997911 -0.0643316
0.313654 0.022884 0.502806 0.0137638 -0.969482 -0.244776
-0.063155 0.0158804 0.0447691 -0.00590162 0.998379 -0.0566031
0.014032 -0.0514283 0.0877093 0.124309 -0.990097 -0.0652264
-0.298108 0.0331262 0.591368 -0.0092214 0.987717 0.155982
0.0195762 0.00155658 0.0169835 0.512998 0.138585 -0.847129
0.247059 -0.0258914 0.528752 0.992623 0.0545272 -0.108289
0.247912 -0.0422845 0.541941 0.997924 -0.0608538 -0.0210826
0.0357271 -0.0146636 0.616778 0.992904 -0.113838 0.0343828
-0.0480132 0.0130975 0.0288935 0.12887 0.959895 -0.248987
0.200531 -0.0688822 0.4271 0.118225 -0.284847 -0.951254
-0.0350694 -0.023458 0.565356 -0.974172 -0.225609 0.00942382
-0.277592 0.0346077 0.521126 0.00165019 0.997317 -0.0731879
0.287117 0.0185796 0.565216 0.0496986 -0.9981 0.0364324
-0.0207738 -0.049881 0.636531 -0.477782 -0.878299 0.0177538
-0.363211 0.0297423 0.497155 0.00494488 0.779845 -0.625953
0.03753 -0.0196353 0.0533267 0.828367 -0.550304 -0.104758
-0.0559233 0.0350985 0.572425 -0.00513744 0.998419 0.0559785
-0.15297 -0.0727718 0.603286 0.926884 -0.360685 0.103886
0.0304196 -0.0397902 0.57267 0.923777 -0.382799 -0.0100077
0.0173744 0.0177306 0.654265 0.222576 0.968164 0.114535
0.00964217 0.0215821 0.0117842 0.535912 -0.0318464 -0.843673
0.0130422 -0.0518641 0.648683 0.134766 -0.990216 0.0361976
0.16977 0.0305102 0.601231 0.00476751 0.919885 0.392159
0.228709 -0.0438335 0.43795 0.77221 0.136874 -0.620449
-0.21203 0.0356828 0.546908 0.00340649 0.999936 -0.0108324
0.00459219 -0.0458353 0.697809 0.0602437 -0.950823 0.30382
-0.00622063 0.0191609 0.438467 -0.031011 0.998954 -0.0335921
0.185589 0.0131483 0.495161 -0.152162 0.00227387 -0.988353
0.395222 0.0349985 0.57126 0.00407478 0.998492 0.0547437
0.382562 0.0340151 0.514811 0.00872265 0.995219 -0.0972834
0.136593 0.0353129 0.568615 -0.00113653 0.999012 0.044421
0.00732745 -0.0528627 0.444898 0.0427865 -0.999079 0.00325988
-0.258708 0.0332756 0.509686 0.00715531 0.988174 -0.153173
0.213219 0.0356517 0.556359 -0.00548014 0.999851 0.0163816
-0.0796733 0.00389953 0.0716228 -0.243739 -0.967118 0.0726243
0.0339275 -0.0103189 0.335983 0.995155 0.098311 -0.000655172
0.128182 0.0172624 0.57339 -0.125895 -0.988666 0.0817884
-0.014172 0.0303177 0.124435 -0.762707 0.625746 0.163462
-0.188969 0.0285065 0.605161 0.00243123 0.718956 0.695052
-0.215678 -0.097703 0.586575 -0.336332 -0.941742 -0.00147737
0.119944 0.0118581 0.0476776 0.253148 0.948553 0.190168
-0.205573 0.033038 0.508209 0.0109139 0.983908 -0.178342
0.00282694 -0.0529724 0.413653 0.00990786 -0.999951 -5.99372e-06
-0.193132 -0.00103599 0.482128 0.0264566 0.927367 -0.373216
-0.193226 -0.0985865 0.474212 0.116749 -0.986275 -0.116756
0.0431588 0.0171221 0.0730597 0.0470012 0.998667 -0.0213389
0.175771 -0.0229318 0.441761 -0.409441 0.701277 -0.583583
-0.0753438 0.00556072 0.0132796 -0.0816266 -0.960826 -0.264858
-0.131512 0.0280264 0.495215 -0.000550102 0.52614 -0.850398
0.0333436 -0.00262505 0.216778 0.986403 0.163175 0.0195694
0.197779 -0.10153 0.52222 0.00973626 -0.999582 -0.0272073
0.019394 -0.0278163 0.717538 0.63093 -0.366752 0.683682
0.116613 0.0256917 0.604833 -0.0235009 -0.58116 0.81345
0.0506547 0.0159064 0.49608 0.479963 -0.797863 -0.36476
0.240231 -0.0515227 0.634924 0.98712 0.00751973 0.159805
0.20512 -0.0811941 0.630948 0.182092 -0.788641 0.587271
-0.0337444 -0.00880767 0.337655 -0.991838 0.127471 0.00274991
-0.0197525 -0.00214723 0.0167831 -0.397205 0.0109179 -0.917665
-0.207748 -0.0101358 0.457902 -0.162553 0.919903 -0.356867
0.148751 -0.0627054 0.576064 -0.960737 -0.276668 0.0209543
0.0512055 0.0354434 0.565389 0.00178784 0.999268 0.038218
-0.0432111 -0.000382808 0.539867 -0.844427 -0.535031 -0.0261819
0.0581438 0.00020286 0.108528 0.542344 -0.816163 0.199352
-0.0287906 -0.0424857 0.365926 -0.866103 -0.499827 0.00623784
0.454982 0.0287188 0.559308 0.673239 0.735559 0.075513
-0.221434 -0.0763677 0.633882 0.677673 0.655597 0.333094
0.352703 0.0259385 0.49647 -0.00293367 -0.695606 -0.718418
0.206919 -0.00676641 0.627108 0.173194 0.932274 0.3176
-0.230159 -0.0842551 0.467501 -0.697978 -0.679773 -0.225247
0.0312064 0.00409191 0.406497 0.934038 0.356769 -0.0170201
0.0229096 -0.0208995 0.023649 0.463379 -0.450315 -0.763214
-0.0165713 0.0171286 0.362045 -0.265247 0.964155 0.00697914
-0.0502607 -0.00220516 0.124489 -0.754428 -0.620627 0.213682
-0.370654 0.0193868 0.543893 0.000794896 -0.999864 -0.0164669
0.0925344 0.0146659 0.0290606 0.036331 0.998666 -0.0366958
-0.00388547 -0.0518823 0.660762 0.00372608 -0.997738 0.0671141
0.0320599 -0.0346906 0.340166 0.97144 -0.237268 0.00276001
0.029359 0.0190643 0.100393 0.281054 0.95963 0.010929
0.15357 -0.0758745 0.581585 -0.905561 -0.424169 0.00638857
0.154869 -0.062084 0.458312 -0.958681 -0.132125 -0.251939
-0.0329963 -0.0312787 0.439098 -0.981803 -0.189764 0.00725601
-0.341366 0.0208404 0.51602 -0.00938574 -0.993599 -0.112576
-0.0544004 0.0165311 0.0599838 -0.0114622 0.999618 -0.0251457
-0.0309847 -0.0374433 0.214154 -0.939332 -0.342977 -0.00471292
-0.00948926 0.0639647 0.0495322 -0.979858 0.199229 0.0136302
-0.0367458 -0.0241858 0.115752 -0.935256 -0.353566 0.0169458
-0.107346 0.0351393 0.529095 -0.00428005 0.998624 -0.0522602
-0.0327196 -0.0232036 0.0396231 -0.855104 -0.464437 -0.230426
0.203126 -0.0480428 0.67312 0.387971 0.376971 0.841054
0.0367885 -0.00337072 0.175716 0.984572 0.064641 0.162602
-0.158 -0.0556707 0.446552 0.90394 -0.062235 -0.423107
0.185377 -0.0503107 0.6706 -0.69387 0.125502 0.709079
-0.0599049 0.0133389 0.528118 -0.294223 -0.950911 -0.0959252
0.021298 0.0345125 0.5805 0.00111636 0.995054 0.0993288
-0.093433 0.0193319 0.583211 -0.0315108 -0.993875 0.105925
-0.0124729 -0.0115958 0.72225 -0.268403 0.260819 0.927326
0.341548 0.0217643 0.591163 0.0100707 -0.988588 0.150307
-0.16404 -0.0873739 0.618436 0.651144 -0.753008 0.0948153
0.244654 -0.0637849 0.572183 0.955656 -0.291813 0.0395691
0.0787502 0.0355166 0.538314 -0.00265473 0.999649 -0.0263603
0.233702 -0.00180881 0.501624 0.717105 0.433404 -0.545822
0.166867 -0.0417128 0.631835 0.804332 -0.282573 0.522688
-0.0369052 -0.010942 0.496495 -0.985562 -0.159205 -0.0576247
-0.00641433 -0.0261652 0.721829 -0.0649762 -0.416003 0.907039
