-0.130165 0.0688892 0.0170612 0.155974 -0.367032 -0.917038
-0.0474375 -0.0629556 0.296524 -0.891638 -0.429214 -0.144072
-0.109269 0.066546 0.0546861 0.0641553 -0.993153 -0.0976261
0.293047 -0.0909427 0.41059 0.0535806 -0.997711 -0.0412602
0.0660851 -0.0239869 0.385543 0.981955 0.18906 -0.00464614
-0.0710194 -0.040508 0.70574 -0.961786 0.259371 0.0877191
-0.323611 -0.0883483 0.385404 -0.0521607 -0.997884 -0.0388256
0.0604916 -0.0667854 0.5255 0.901474 -0.432436 -0.0185315
0.068397 -0.0289757 0.700394 0.961786 0.259371 0.0877191
0.130016 -0.10371 0.5141 0.0681278 -0.997677 0
0.0536276 -0.0302715 0.237393 0.917617 -0.357464 -0.173777
0.254408 -0.076982 0.410074 -0.0187069 0.998971 0.041312
0.128817 -0.100309 0.426749 0.053054 -0.997676 -0.0427557
0.414995 -0.0841146 0.403636 0.0544455 -0.997762 -0.0388208
-0.0714107 -0.0478346 0.579288 -0.900966 -0.432704 -0.032051
0.0146023 -0.0614136 0.188249 0.469467 -0.864298 -0.180529
0.0530922 -0.0784435 0.437595 0.901474 -0.432436 -0.0185315
-0.0275496 0.0685053 0.0927359 0.0616679 -0.996143 -0.0624242
-0.0668208 -0.0549181 0.545894 -0.900966 -0.432704 -0.032051
0.0256404 0.0266555 0.331443 0.381864 0.919341 -0.094822
0.320992 -0.074526 0.333281 -0.130967 -0.0100805 -0.991336
0.0120205 0.041281 0.113979 0.997821 -0.0341407 -0.0564664
0.117064 -0.0988149 0.375965 0.0518265 -0.997803 -0.041264
-0.141678 -0.102914 0.526453 -0.0681278 -0.997677 0
0.161647 0.0831881 0.0247428 0.0648783 0.992852 0.100181
0.172009 -0.100842 0.497211 0.0681278 -0.997677 0
-0.351198 -0.0759286 0.428401 0.0195541 0.999053 0.0388711
-0.0120599 0.129356 0.0783102 -0.9979 -0.0215834 -0.0610732
0.109233 0.0639529 0.0871148 -0.0408745 -0.999101 -0.011211
-0.106736 0.0641032 0.0848318 0.0670165 -0.99488 -0.075649
-0.0442454 0.0220258 0.404033 -0.571708 0.81916 -0.0461243
-0.0639742 -0.10822 0.575447 -0.0681278 -0.997677 0
-0.0580579 -0.021876 0.271354 -0.868735 0.495182 0.00974211
-0.175142 -0.100629 0.583609 -0.0681278 -0.997677 0
0.0626955 -0.00615181 0.549948 0.968699 0.247936 0.0122921
-0.117506 -0.0836679 0.591662 0.0330168 0.999455 0
-0.0110272 0.0926471 0.0752165 -0.997716 -0.0279862 -0.0614743
0.00649998 0.147488 0.102274 0.0500159 0.859245 0.509113
-0.0184945 0.0126087 0.123262 -0.514693 0.852324 -0.0929191
0.0650892 -0.062212 0.626324 0.866823 -0.498616 0
0.056157 0.00613895 0.412677 0.926612 0.375942 -0.00757519
-0.00702854 -0.125991 0.445593 -0.00357079 -0.997882 -0.0649573
0.152489 -0.0825122 0.559351 -0.0330168 0.999455 0
0.0186475 -0.0880654 0.322714 0.511888 -0.836209 -0.196787
0.208649 -0.080657 0.543884 -0.0330172 0.999455 0
-0.250607 -0.0789326 0.455521 0.0187069 0.998971 0.041312
0.254661 -0.0743543 0.344204 -0.0173049 0.999094 0.0388727
0.179918 -0.07997 0.449153 -0.0169766 0.999002 0.0413132
0.112276 0.0655608 0.0627317 -0.0641553 -0.993153 -0.0976261
-0.0504641 -0.114837 0.509981 -0.58696 -0.807906 -0.0525911
-0.170076 -0.0768412 0.369449 0.0169766 0.999002 0.0413132
0.0634686 0.0680815 0.0494348 -0.034364 -0.999331 0.0125096
-0.239685 -0.0992742 0.521384 -0.301366 0.948131 -0.101125
0.0564388 -0.111919 0.636727 0.587773 -0.809026 0
-0.101883 -0.104574 0.492842 -0.053054 -0.997676 -0.0427557
0.0264203 0.0307304 0.710097 0.132091 0.947891 0.289923
-0.0280594 -0.120946 0.369233 -0.00357079 -0.997882 -0.0649573
0.257055 -0.0903161 0.550628 0.437397 0.0990022 0.893802
-0.344501 -0.0739542 0.374287 0.0195541 0.999053 0.0388711
0.041708 -0.0600694 0.258435 0.494939 -0.856705 -0.145229
-0.07696 -0.107333 0.592847 -0.0681278 -0.997677 0
0.0524338 -0.071227 0.732501 0.76081 -0.436448 0.480293
-0.153628 -0.0991356 0.429642 -0.0518265 -0.997803 -0.041264
-0.22438 -0.0965628 0.457317 -0.0535806 -0.997711 -0.0412601
0.152222 -0.0975854 0.39039 0.0518265 -0.997803 -0.041264
-0.0452293 -0.0387187 0.210842 -0.910247 -0.367449 -0.190871
-0.163319 -0.0821544 0.560236 0.0330168 0.999455 0
-0.367809 -0.0752908 0.327019 0.131487 0.0134239 -0.991227
-0.402846 -0.0743932 0.477862 -0.433668 0.0975849 0.895773
-0.0257785 -0.0331187 0.0965099 -0.82836 -0.53581 -0.163484
-0.310018 -0.0831821 0.334671 0.134331 0.012411 -0.990859
-0.065681 -0.011337 0.579021 -0.919027 0.393237 -0.0274665
0.443493 -0.0777502 0.316729 -0.13693 0.0630913 -0.988569
-0.474208 -0.0791772 0.357084 -0.0527622 -0.998014 -0.0344114
0.0947664 -0.0806822 0.430423 -0.018187 0.998918 0.0428074
-0.0271321 0.066829 0.133247 0.0404091 -0.999148 -0.00837507
0.302442 -0.091936 0.524889 0.0681247 -0.997677 0
-0.0565925 0.00615513 0.429327 -0.968978 0.245087 -0.0318508
-0.0382191 -0.0341435 0.794649 -0.954647 0.134463 0.265649
-0.269692 -0.0941723 0.489629 -0.0681247 -0.997677 0
-0.10113 -0.0840086 0.510748 0.018187 0.998918 0.0428074
0.283961 -0.074825 0.369345 -0.0173049 0.999094 0.0388727
-0.270914 -0.0777281 0.435589 0.0187069 0.998971 0.041312
-0.0188532 -0.0730872 0.25629 -0.530236 -0.829288 -0.176441
0.00944099 0.118838 0.0380272 0.998327 -0.0163379 -0.0554699
0.0375149 0.0662528 0.151883 -0.0404091 -0.999148 -0.00837507
0.042421 -0.0647913 0.763148 0.895781 -0.378589 0.23291
-0.219386 -0.0894854 0.346856 0.130967 -0.0100805 -0.991336
-0.0573542 -0.067379 0.388261 -0.903006 -0.429186 -0.0194563
0.222279 -0.0974098 0.505306 0.0681247 -0.997677 0
0.179856 0.0613987 0.0569314 -0.0417717 -0.999037 -0.013408
-0.0974796 -0.0929265 0.363195 0.130657 -0.0230557 -0.991159
-0.0608085 0.0840198 0.0878986 -0.062479 0.995965 0.0644253
-0.0178203 -0.0889338 0.326538 0 -0.976371 -0.216099
0.00939785 -0.130817 0.519849 0.00356866 -0.997882 -0.0649577
0.373332 -0.0720411 0.339021 -0.0178902 0.999246 0.034454
0.186648 -0.0813189 0.484318 -0.018187 0.998918 0.0428074
-0.0689094 -0.0852733 0.537809 0.0330168 0.999455 0
-0.236338 -0.089764 0.572084 -0.0717228 0 0.997425
0.0130086 0.0949497 0.106081 0.997753 -0.0220927 -0.0632503
0.159132 -0.0778368 0.389027 -0.0169766 0.999002 0.0413132
0.0423836 -0.0183938 0.140826 0.974088 0.225051 -0.0224705
-0.170683 -0.0809442 0.468791 0.018187 0.998918 0.0428074
0.106464 -0.128582 0.578327 -0.809906 -0.585063 -0.0418827
0.0687009 -0.0202981 0.588852 0.964895 0.260653 -0.0322026
0.05642 -0.111932 0.583192 0.587773 -0.809026 0
-0.397887 -0.0832461 0.357321 -0.0544455 -0.997762 -0.0388208
0.166366 -0.0998156 0.461829 0.053054 -0.997676 -0.0427557
0.116007 -0.0835366 0.506057 -0.018187 0.998918 0.0428074
-0.426875 -0.0733576 0.400391 0.0195541 0.999053 0.0388711
-0.384014 -0.086321 0.416896 -0.0544455 -0.997762 -0.0388208
-0.228362 -0.0774928 0.410632 0.0187069 0.998971 0.041312
-0.131273 -0.0779355 0.379967 0.0169766 0.999002 0.0413132
0.160739 -0.101612 0.577166 0.0681278 -0.997677 0
0.351468 -0.0759389 0.486821 -0.0330173 0.999455 0
-0.171591 0.0642865 0.031444 0.0317289 -0.999369 0.0159385
-0.00889065 -0.092897 0.344069 -0.0183318 -0.975208 -0.220527
-0.0628097 -0.000173529 0.642776 -0.919027 0.393237 -0.0274665
-0.21534 -0.117787 0.508172 0.999493 0 -0.0318295
0.00276934 -0.00842763 0.769492 0 0.960936 0.276769
0.0578998 -0.085637 0.577792 -0.0330168 0.999455 0
0.317793 -0.0908877 0.478729 0.0681247 -0.997677 0
0.00930964 0.141637 0.0276227 0.998584 -0.0188041 -0.0497555
0.120132 -0.104385 0.604214 0.0681278 -0.997677 0
0.0346578 -0.126081 0.648483 0.0187277 -0.0257773 0.999492
-0.189923 -0.0770074 0.381624 0.0169766 0.999002 0.0413132
0.245692 -0.0794332 0.516859 -0.0330172 0.999455 0
-0.331828 -0.0899294 0.486091 -0.0681247 -0.997677 0
0.0145494 0.03955 0.612561 0.233684 0.972269 -0.00920706
0.00675003 -0.0302076 0.0627926 0 0 -1
0.015635 0.119395 0.125493 0.995646 -0.0492072 -0.0791682
-0.331664 -0.0757494 0.414339 0.0173049 0.999094 0.0388727
0.257663 -0.0949936 0.473534 0.0681247 -0.997677 0
0.0557467 0.013226 0.458005 0.968978 0.245087 -0.0318508
0.0337028 0.0342931 0.545704 0.171638 0.984682 -0.0306928
0.0264685 0.0882956 0.0570909 0.0548875 0.996375 0.0649895
0.00211082 0.0400507 0.376877 0.383582 0.923478 0.0073075
0.0535828 -2.66833e-05 0.344531 0.910098 0.369241 -0.188104
0.382891 -0.0748021 0.41539 -0.0195541 0.999053 0.0388711
-0.19539 0.0825205 0.0120594 -0.991771 -0.0454206 -0.119695
-0.0843471 -0.0854281 0.633298 -0.428839 0.155825 0.88984
0.0827722 -0.0848153 0.568184 -0.0330168 0.999455 0
-0.0136032 -0.10897 0.667785 0 -1 0
-0.135643 -0.12921 0.610244 -0.807374 -0.588001 -0.0490053
-0.193192 -0.099396 0.553768 -0.0681278 -0.997677 0
-0.0405642 -0.123452 0.60224 -0.587773 -0.809026 0
-0.0594853 -0.0719542 0.660621 -0.866823 -0.498617 0
0.195759 0.0796695 0.0322777 0.0781727 0.986 0.147287
0.432623 -0.0722847 0.375707 -0.0195541 0.999053 0.0388711
-0.110087 0.0708263 0.0197004 0.155938 -0.366934 -0.917084
0.0535429 0.00272282 0.715268 0.905739 0.396681 0.149265
0.2907 -0.0779464 0.485443 -0.0330172 0.999455 0
-0.00860102 0.150568 0.0970538 0 0.848415 0.529332
-0.127248 -0.0997452 0.615021 -0.433377 0.136349 0.890839
0.0166148 0.0387732 0.675351 0.188772 0.981992 -0.00758214
-0.0346142 0.00801491 0.20842 -0.584648 0.808078 -0.0720867
-0.00235074 0.0299357 0.214985 -0.285945 0.839554 0.461936
0.00728168 -0.0694555 0.228713 0 -0.982966 -0.183785
-0.0589901 -0.0856009 0.59566 0.0330168 0.999455 0
0.369109 -0.0753561 0.467708 -0.0330173 0.999455 0
0.337091 -0.08957 0.507704 0.0681247 -0.997677 0
-0.406047 -0.0741359 0.416438 0.0330173 0.999455 0
0.309866 -0.0760838 0.413233 -0.0173049 0.999094 0.0388727
-0.029799 -0.125942 0.449945 -0.58696 -0.807906 -0.0525911
0.0382607 0.00907334 0.274149 0.82455 0.565435 0.0200016
0.0695395 -0.0483812 0.714067 0.903399 -0.424872 0.0579132
-0.130708 -0.0832317 0.565966 0.0330168 0.999455 0
-0.0616116 -0.0430772 0.322544 -0.880117 -0.455742 -0.133018
0.0609628 0.00397016 0.640305 0.919027 0.393237 -0.0274665
-0.36332 -0.0755474 0.441325 0.0330172 0.999455 0
0.0649127 0.0681704 0.0674955 -0.0581075 -0.995388 -0.0763275
-0.0106007 0.13925 0.052885 -0.998327 -0.0163383 -0.0554709
-0.00974916 0.0474748 0.0688924 -0.998312 -0.0211413 -0.0540867
-0.198309 -0.0968713 0.431007 -0.0518265 -0.997803 -0.041264
0.0676953 -0.0293116 0.455798 0.969098 0.246196 -0.0153906
0.0294983 -0.0821934 0.775141 0.546214 -0.787723 0.284856
-0.218663 -0.076686 0.38673 0.0187069 0.998971 0.041312
0.0189202 0.0697117 0.0608032 -0.0333812 -0.999391 0.0101956
0.00356249 -0.131525 0.631101 0 -1 0
0.334974 -0.0883362 0.400359 0.0521607 -0.997884 -0.0388256
0.0468821 0.0884661 0.0233909 -0.155985 -0.366932 -0.917077
-0.0887729 -0.0846171 0.574635 0.0330168 0.999455 0
-0.0297322 0.0199202 0.295671 -0.557046 0.822406 -0.115533
-0.0565708 -0.0704467 0.420206 -0.901474 -0.432436 -0.0185316
-0.0459814 -0.0272171 0.763248 -0.954647 0.134463 0.265649
-0.00240628 -0.0526834 0.139009 0 -0.982966 -0.183787
0.197111 -0.0991283 0.502009 0.0681278 -0.997677 0
-0.23887 -0.09476 0.432541 -0.0535806 -0.997711 -0.0412601
0.389968 -0.0746671 0.464672 -0.0330173 0.999455 0
-0.167785 0.0816286 0.0340093 -0.0781727 0.986 0.147287
-0.0450874 0.0174065 0.353332 -0.56855 0.814636 -0.114536
0.0565309 -0.108253 0.460535 0.521742 -0.852321 -0.0365265
-0.105581 0.0793512 0.104244 -0.0776381 0.993373 0.0847497
0.154354 -0.0816202 0.477628 -0.018187 0.998918 0.0428074
0.00659287 -0.0208027 0.807341 4.26784e-05 0.861785 0.507273
0.234505 -0.0928882 0.381609 0.0535806 -0.997711 -0.0412602
-0.0785928 -0.101406 0.390023 -0.053054 -0.997676 -0.0427557
-0.0399674 0.0302574 0.650912 -0.630493 0.776078 0.0134578
-0.294587 -0.0924723 0.463585 -0.0681247 -0.997677 0
-0.12422 -0.0824566 0.484344 0.018187 0.998918 0.0428074
0.416855 -0.071512 0.346276 -0.0178902 0.999246 0.034454
0.0184222 0.0238456 0.259898 0.375809 0.926635 -0.0107198
0.223755 -0.0791189 0.447867 -0.0187069 0.998971 0.041312
-0.328336 -0.0868156 0.352359 -0.0521607 -0.997884 -0.0388256
-0.121296 -0.121654 0.640859 0.263203 -0.46435 0.845638
-0.125371 -0.129663 0.553322 -0.762629 -0.568998 -0.307633
0.00595524 -0.106389 0.72888 0.0391872 -0.987051 0.155545
0.0226802 -0.0415062 0.123878 0.575999 -0.792796 -0.199244
0.236417 -0.11383 0.574377 0.911827 -0.29618 0.284339
0.325706 -0.0871923 0.358509 0.0521607 -0.997884 -0.0388256
-0.0733569 -0.0466795 0.6184 -0.900966 -0.432704 -0.032051
0.0348342 0.02829 0.407622 0.171562 0.984249 -0.0426639
-0.228156 -0.0987727 0.501357 0.313289 0.947194 -0.068359
0.0704748 -0.0210089 0.636252 0.964895 0.260653 -0.0322026
0.0550743 -0.0716649 0.376988 0.903006 -0.429186 -0.0194563
-0.0682192 -0.043685 0.369862 -0.903006 -0.429186 -0.0194563
0.0110482 0.141315 0.059317 0.997596 -0.0200553 -0.0663382
0.191722 -0.0963068 0.409084 0.0518265 -0.997803 -0.041264
0.162065 -0.101522 0.529765 0.0681278 -0.997677 0
-0.136752 -0.100742 0.446702 -0.053054 -0.997676 -0.0427557
-0.0518759 0.0211856 0.547768 -0.660403 0.750795 0.0132091
0.214727 -0.0804562 0.499524 -0.0330172 0.999455 0
-0.0132092 0.0458943 0.182417 -0.167928 0.840502 0.515128
-0.477079 -0.080011 0.41592 -0.0681255 -0.997677 0
-0.348595 -0.0761315 0.504316 -0.433668 0.0975849 0.895773
0.0805826 -0.107086 0.614907 0.0681278 -0.997677 0
0.247379 -0.0956959 0.501007 0.0681247 -0.997677 0
0.172971 -0.0786231 0.413727 -0.0169766 0.999002 0.0413132
0.101261 -0.0790919 0.362374 -0.130657 -0.0230557 -0.991159
0.144353 -0.0967396 0.360055 0.0518265 -0.997803 -0.041264
0.0809494 -0.0848755 0.524874 -0.0330168 0.999455 0
0.132454 -0.103543 0.537674 0.0681278 -0.997677 0
0.0219599 0.0367515 0.558908 0.171638 0.984682 -0.0306928
-0.162219 -0.0798643 0.439323 0.0169766 0.999002 0.0413132
-0.0383717 -0.0630142 0.78161 -0.895781 -0.378589 0.23291
-0.15325 0.0627533 0.0624294 0.0754427 -0.992468 -0.096513
-0.0636239 -0.00874725 0.529136 -0.968699 0.247936 0.0122921
0.03889 -0.0215127 0.760958 0.495356 0.816508 0.296544
0.00532274 0.033139 0.313233 0.374046 0.922288 -0.0973393
-0.0493056 0.0684433 0.0394305 0.034364 -0.999331 0.0125096
0.106972 -0.12938 0.611041 -0.808098 -0.587893 0.0368729
0.117295 -0.103599 0.489213 0.053054 -0.997676 -0.0427557
0.0697741 -0.107725 0.526541 0.053054 -0.997676 -0.0427557
0.0316624 0.00387292 0.153415 0.664358 0.735125 -0.13498
0.213721 -0.0931324 0.572 0.430715 0.135212 0.892302
-0.00617397 0.0793052 0.0334657 -0.0500756 -0.370571 -0.927453
-0.313031 -0.0906966 0.430589 -0.0535806 -0.997711 -0.0412601
0.228411 -0.129535 0.552352 -0.308886 -0.951043 0.010296
-0.0320199 -0.00726495 0.100684 -0.838862 0.526229 -0.139265
-0.0491653 0.00169205 0.326532 -0.910098 0.369241 -0.188104
-0.171866 -0.100852 0.499509 -0.0681278 -0.997677 0
0.139403 0.0836624 0.034448 0.0648783 0.992852 0.100181
-0.0693427 -0.046376 0.481368 -0.903006 -0.429186 -0.0194563
0.0946123 -0.106128 0.539337 0.0681278 -0.997677 0
-0.0167795 -0.0469034 0.833618 -0.443305 0.155034 0.882862
-0.229538 -0.115779 0.572435 0.873653 -0.300043 0.38302
-0.164071 0.0684301 0.0858556 -0.389388 0.527197 0.755275
-0.0391236 -0.0403421 0.18485 -0.910247 -0.367449 -0.190871
-0.00866377 0.0955859 0.145254 -0.216079 0.573374 0.790286
0.0470008 -0.0295977 0.201731 0.910247 -0.367449 -0.190871
-0.00242988 0.127611 0.0129741 -0.0765982 -0.390615 -0.917362
0.352406 -0.0737217 0.372287 -0.0195541 0.999053 0.0388711
0.21656 -0.0803956 0.477377 -0.0330172 0.999455 0
0.220368 -0.100595 0.520482 -0.809862 0.585122 -0.0419046
0.112931 -0.07886 0.394786 -0.0169766 0.999002 0.0413132
-0.0707438 -0.026327 0.666752 -0.961807 0.259394 0.0874154
-0.105611 -0.120933 0.561469 0.977076 0 -0.212891
-0.10381 -0.0810192 0.44213 0.018187 0.998918 0.0428074
0.117248 -0.0811696 0.451348 -0.018187 0.998918 0.0428074
0.0171253 0.0337096 0.390093 0.383582 0.923478 0.0073075
0.0892914 0.064523 0.110742 -0.0409786 -0.999114 -0.00954374
-0.0285983 -0.123043 0.401482 -0.00356864 -0.997882 -0.0649577
-0.176792 -0.0964846 0.394632 -0.0518265 -0.997803 -0.041264
-0.0518659 -0.0103951 0.239954 -0.868735 0.495182 0.00974211
-0.0698586 -0.0422867 0.415102 -0.903006 -0.429186 -0.0194563
0.0144687 0.0343436 0.449417 0.383582 0.923478 0.0073075
-0.246146 -0.121788 0.560837 -0.808916 -0.582386 0.0804995
-0.424563 -0.082428 0.373708 -0.0544455 -0.997762 -0.0388208
-0.0628341 -0.0095455 0.451045 -0.926612 0.375942 -0.00757519
0.404143 -0.0721486 0.357882 -0.0195541 0.999053 0.0388711
0.168046 0.0698529 0.0102322 -0.155982 -0.367032 -0.917037
-0.280976 -0.07452 0.360178 0.0173049 0.999094 0.0388727
0.244356 -0.0760082 0.381974 -0.0187069 0.998971 0.041312
0.0698081 -0.0460642 0.49609 0.903006 -0.429186 -0.0194563
0.0273278 -0.0368949 0.814104 0.469597 0.74048 0.4808
0.0419561 0.0681279 0.0855261 -0.0581075 -0.995388 -0.0763275
0.0440747 -0.112025 0.370626 0.521742 -0.852321 -0.0365265
0.0808774 -0.0782937 0.367919 -0.0169766 0.999002 0.0413132
-0.0598692 0.0040593 0.604989 -0.919027 0.393237 -0.0274665
-0.451865 -0.0726223 0.418968 0.0330173 0.999455 0
0.033755 0.0665455 0.135114 -0.0404091 -0.999148 -0.00837507
-0.00201393 -0.0417343 0.0804485 0 -0.982966 -0.183787
0.12667 -0.0833651 0.554678 -0.0330168 0.999455 0
0.0626015 -0.059082 0.448774 0.903006 -0.429186 -0.0194563
-0.0427446 -0.0616269 0.271156 -0.494939 -0.856705 -0.145229
-0.189107 0.0608601 0.0682439 0.0417717 -0.999037 -0.013408
-0.196768 -0.0810495 0.537663 0.0330172 0.999455 0
-0.0717219 -0.0353126 0.565317 -0.968897 0.244741 -0.0366054
-0.111035 -0.134888 0.605814 0.308853 -0.951054 0.0103213
0.0165687 0.0129163 0.115416 0.514689 0.852327 -0.0929201
-0.0743088 -0.0837761 0.493928 0.018187 0.998918 0.0428074
0.104547 -0.0827647 0.483175 -0.018187 0.998918 0.0428074
0.0597408 0.0041254 0.575505 0.968699 0.247936 0.0122921
0.0644823 -0.032725 0.309439 0.980521 0.188784 -0.0542125
-0.297493 -0.0751824 0.384556 0.0173049 0.999094 0.0388727
0.0300724 -0.0728377 0.288832 0.530236 -0.829288 -0.176441
0.126488 -0.112391 0.627662 -0.30852 -0.951077 0.0163766
-0.278638 -0.0783449 0.476728 0.0330172 0.999455 0
-0.121838 -0.104268 0.588522 -0.0681278 -0.997677 0
-0.0311616 -0.127167 0.483968 -0.58696 -0.807906 -0.0525911
0.0976119 0.0806247 0.0966178 0.0776381 0.993373 0.0847497
0.125148 0.0658966 0.0387301 -0.0338071 -0.999298 0.016114
0.137535 -0.114288 0.618542 0.808917 0.582389 0.0804728
-0.00845714 0.0404308 0.686933 -0.188772 0.981992 -0.00758215
0.0156644 0.0959728 0.14042 0.995646 -0.0492072 -0.0791682
-0.0350985 -0.127269 0.529471 -0.58696 -0.807906 -0.0525911
-0.0355347 0.0343698 0.598159 -0.233684 0.972269 -0.00920707
0.0377966 -0.0957994 0.682348 0.587779 -0.809022 0
0.0861935 0.0861225 0.0422197 0.0587727 0.995167 0.0786602
-0.291609 -0.0926757 0.512227 -0.0681247 -0.997677 0
0.444527 -0.0728647 0.441007 -0.0330173 0.999455 0
0.127876 0.0785808 0.0928497 0.0776381 0.993373 0.0847497
0.459468 -0.0812136 0.402198 0.0681255 -0.997677 0
0.0274744 -0.103299 0.712824 0.587779 -0.809022 0
-0.00655844 0.0151838 0.738073 -0.0260627 0.708368 0.705362
-0.091555 -0.103258 0.449319 -0.053054 -0.997676 -0.0427557
0.0660305 -0.0490804 0.387297 0.903006 -0.429186 -0.0194563
0.0598228 -0.0713675 0.6527 0.866823 -0.498617 0
0.267325 -0.0774705 0.427736 -0.0187069 0.998971 0.041312
-0.0977459 -0.079993 0.415607 0.018187 0.998918 0.0428074
-0.458603 -0.0793209 0.337326 -0.0527622 -0.998014 -0.0344114
-0.117605 0.0633704 0.109836 0.0409786 -0.999114 -0.00954373
0.197325 -0.0756926 0.353046 -0.0187069 0.998971 0.041312
0.301445 -0.0891816 0.377043 0.0521607 -0.997884 -0.0388256
-0.0147792 0.0343833 0.428109 -0.383582 0.923478 0.0073075
-0.0149947 -0.079947 0.80708 -0.548335 -0.667249 0.504091
0.215104 -0.0804437 0.519339 -0.0330172 0.999455 0
0.342887 -0.0805504 0.330253 -0.131487 0.0134239 -0.991227
-0.222463 -0.0802006 0.53909 0.0330172 0.999455 0
0.0623596 -0.00533505 0.516361 0.968978 0.245087 -0.0318508
0.0537381 -0.0144991 0.281606 0.868735 0.495182 0.00974211
-0.0687062 -0.082803 0.46884 0.018187 0.998918 0.0428074
-0.123899 -0.0983103 0.372348 -0.0518265 -0.997803 -0.041264
-0.00416402 0.157513 0.0354066 0 0.990692 -0.136123
-0.0573173 -0.0639778 0.360713 -0.891638 -0.429214 -0.144072
-0.104242 -0.100094 0.390783 -0.0518265 -0.997803 -0.041264
0.0161276 -0.12467 0.425794 0.00357079 -0.997882 -0.0649573
0.0161289 0.0269979 0.212142 0.996839 -0.0664804 -0.0435115
-0.0866888 -0.106669 0.553381 -0.0681278 -0.997677 0
0.342842 -0.0762239 0.441784 -0.0330173 0.999455 0
0.0493363 0.0834703 0.105367 0.0709262 0.993826 0.0853148
0.0662423 -0.0258605 0.365174 0.980521 0.188784 -0.0542125
-0.0519594 0.0809548 0.134519 -0.0725431 0.994597 0.0742591
-0.365995 -0.0746997 0.404259 0.0195541 0.999053 0.0388711
-0.285717 -0.0886917 0.343321 -0.0521607 -0.997884 -0.0388256
-0.066544 -0.0410364 0.348188 -0.880117 -0.455742 -0.133018
-0.196945 -0.0778446 0.404912 0.0187069 0.998971 0.041312
0.0900517 -0.103934 0.46324 0.053054 -0.997676 -0.0427557
0.280843 -0.0761675 0.40235 -0.0187069 0.998971 0.041312
-0.274268 -0.0784893 0.529646 0.0330172 0.999455 0
0.0884692 -0.101941 0.414765 0.053054 -0.997676 -0.0427557
0.0565059 -0.0698326 0.40301 0.903006 -0.429186 -0.0194563
0.034648 -0.0811197 0.334821 0.511888 -0.836209 -0.196787
0.0697649 -0.0215427 0.663326 0.961807 0.259394 0.0874154
0.0441106 -0.117891 0.485992 0.58696 -0.807906 -0.0525911
-0.0416426 -0.122668 0.64467 -0.587773 -0.809026 0
-0.418989 -0.0839777 0.441644 -0.0681255 -0.997677 0
0.165766 -0.0820736 0.534983 -0.0330168 0.999455 0
0.0551635 0.00810046 0.691143 0.905739 0.396681 0.149265
-0.0388259 0.0295467 0.470428 -0.571708 0.81916 -0.0461243
0.309506 -0.0742334 0.365514 -0.0173049 0.999094 0.0388727
-0.061818 0.0878519 0.0373535 -0.0485214 0.995664 0.07936
-0.0224658 0.0316188 0.373978 -0.383582 0.923478 0.0073075
0.457292 -0.0793329 0.335663 0.0527622 -0.998014 -0.0344114
0.170451 -0.0819188 0.585346 -0.0330168 0.999455 0
0.0671617 -0.0559216 0.569024 0.900966 -0.432704 -0.032051
-0.042593 -0.117179 0.458118 -0.58696 -0.807906 -0.0525911
0.0740835 -0.0372539 0.614847 0.968897 0.244741 -0.0366054
-0.051134 -0.108794 0.396061 -0.521742 -0.852321 -0.0365265
0.11537 -0.105984 0.575947 -0.313351 0.947173 -0.0683684
0.0812286 -0.0832203 0.4839 -0.018187 0.998918 0.0428074
0.056501 -0.0738557 0.496361 0.901474 -0.432436 -0.0185315
-0.226914 -0.12043 0.561863 -0.807729 0.587984 -0.0430001
-0.044528 -0.0713354 0.32058 -0.527369 -0.824805 -0.203906
-0.000200443 0.0398487 0.502679 -0.383582 0.923478 0.0073075
-0.000102158 0.0555845 0.0434433 0 -0.391821 -0.920042
0.106904 -0.121701 0.555535 -0.977076 0 -0.212891
0.109549 -0.0839307 0.604669 -0.0330168 0.999455 0
0.0522134 -0.0811507 0.458019 0.901474 -0.432436 -0.0185315
-0.0372877 -0.0811712 0.756266 -0.895781 -0.378589 0.23291
-0.0430036 0.0682713 0.0828587 0.0581076 -0.995388 -0.0763275
-0.0517145 -0.0815076 0.442079 -0.901474 -0.432436 -0.0185316
-0.0108886 0.115506 0.0647176 -0.997596 -0.0200553 -0.0663383
-0.178093 -0.0816664 0.509962 0.0330168 0.999455 0
0.386654 -0.0739345 0.394985 -0.0195541 0.999053 0.0388711
-0.0181467 -0.0291984 0.811168 -0.395332 0.767163 0.505147
0.0111865 0.103372 0.0732242 0.9979 -0.0215834 -0.0610732
-0.21509 -0.0804442 0.4989 0.0330172 0.999455 0
0.117848 -0.134114 0.636785 0.0716062 4.51914e-05 0.997433
0.270183 -0.0786242 0.481109 -0.0330172 0.999455 0
0.236376 -0.126222 0.502583 0.301469 -0.948097 -0.101133
-0.384037 -0.071999 0.343358 0.0178902 0.999246 0.034454
0.176899 0.0612494 0.0782688 -0.0417585 -0.999066 -0.0111314
-0.455315 -0.0699185 0.315484 0.131487 0.0134239 -0.991227
-0.161361 -0.100703 0.476336 -0.053054 -0.997676 -0.0427557
0.361686 -0.0878905 0.431507 0.0681255 -0.997677 0
0.229258 -0.0780259 0.423928 -0.0187069 0.998971 0.041312
-0.0560841 0.0023208 0.700917 -0.905739 0.396681 0.149265
-0.138365 -0.0788772 0.405651 0.0169766 0.999002 0.0413132
0.132964 -0.0988812 0.397537 0.0518265 -0.997803 -0.041264
-0.0743302 -0.102883 0.419194 -0.053054 -0.997676 -0.0427557
0.0250145 -0.105086 0.657338 0.587779 -0.809022 0
0.0114131 0.0632073 0.0931152 0.997968 -0.0214999 -0.0599782
0.26606 -0.0942271 0.454963 0.0535806 -0.997711 -0.0412602
-0.0629236 -0.0615757 0.522233 -0.901474 -0.432436 -0.0185316
-0.148802 -0.102427 0.585548 -0.0681278 -0.997677 0
0.0603224 -0.00478907 0.37986 0.926612 0.375942 -0.00757519
0.0285029 0.0277762 0.353837 0.381864 0.919341 -0.094822
-0.0213606 0.0130096 0.148301 -0.573724 0.81531 -0.0781695
-0.0793962 -0.105551 0.487738 -0.053054 -0.997676 -0.0427557
-0.00276454 0.13612 0.117696 -0.0815553 0.551535 0.830155
0.168553 0.0784745 0.0602991 0.0847665 0.98919 0.11966
-0.0931867 -0.106017 0.515731 -0.053054 -0.997676 -0.0427557
-0.0167117 -0.10897 0.690898 0 -1 0
-0.236774 -0.0748233 0.34441 0.130967 -0.0100805 -0.991336
-0.146974 -0.102552 0.501921 -0.0681278 -0.997677 0
0.114183 -0.10298 0.470907 0.053054 -0.997676 -0.0427557
-0.247101 -0.077898 0.428915 0.0187069 0.998971 0.041312
0.013029 0.0109928 0.0698226 0.351886 0.931573 -0.0913706
-0.221321 -0.0990281 0.534941 0.308885 0.951043 0.0103263
0.0149958 -0.131525 0.588294 0 -1 0
0.0458785 -0.0457746 0.773972 0.948385 0.155611 0.276319
-0.0515033 -0.0858305 0.677708 -0.866823 -0.498617 0
0.0320191 -0.0479855 0.177667 0.516843 -0.828038 -0.217315
0.0428778 -0.0131693 0.168902 0.956507 0.222258 -0.188931
-0.197601 -0.0907584 0.579422 -0.430715 0.135212 0.892302
0.053714 -0.0857752 0.634849 -0.0330168 0.999455 0
0.0497597 0.0225502 0.60391 0.630546 0.776143 0.00374504
-0.123192 -0.104176 0.511999 -0.0681278 -0.997677 0
-0.0506728 0.0167367 0.389871 -0.654602 0.755301 -0.0318825
0.296653 -0.0923312 0.457707 0.0681247 -0.997677 0
0.195968 -0.0992064 0.537722 0.0681278 -0.997677 0
-7.43002e-05 -0.0970399 0.77353 0 -0.966323 0.257334
0.0751571 -0.101647 0.391387 0.053054 -0.997676 -0.0427557
-0.141121 0.0848049 0.0220123 -0.0648783 0.992852 0.100181
0.476525 -0.0793121 0.36455 0.0527622 -0.998014 -0.0344114
0.106324 0.0819765 0.0158781 -0.155974 -0.367032 -0.917038
-0.0102451 0.031108 0.0856496 -0.998564 -0.0272528 -0.0461291
0.192532 0.0627736 0.036035 -0.0744624 -0.988165 -0.134111
-0.255305 -0.0891373 0.551322 -0.430715 0.135212 0.892302
0.305829 -0.0878423 0.34851 0.0521607 -0.997884 -0.0388256
-0.0287123 -0.0779293 0.306348 -0.527369 -0.824805 -0.203906
-0.061673 -0.0195633 0.32426 -0.867029 0.486596 -0.107165
0.144826 -0.100415 0.449096 0.053054 -0.997676 -0.0427557
-0.0665527 -0.0213975 0.510451 -0.969098 0.246196 -0.0153906
-0.267729 -0.0925518 0.416619 -0.0535806 -0.997711 -0.0412601
0.442422 -0.0729342 0.400436 -0.0330173 0.999455 0
0.423453 -0.0735609 0.424047 -0.0330173 0.999455 0
0.228798 -0.0966649 0.54092 -0.308846 0.951056 0.0103054
0.0381762 0.032112 0.509234 0.171562 0.984249 -0.0426639
-0.386081 -0.0846415 0.376629 -0.0544455 -0.997762 -0.0388208
0.268566 -0.0942492 0.514853 0.0681247 -0.997677 0
-0.0127545 0.0600226 0.116978 -0.998026 -0.0278966 -0.0562608
-0.34856 -0.0887869 0.442646 -0.0681255 -0.997677 0
0.38563 -0.0862556 0.440998 0.0681255 -0.997677 0
-0.0471363 -0.118677 0.55985 -0.587773 -0.809026 0
-0.283715 -0.0765917 0.413907 0.0187069 0.998971 0.041312
-0.0989385 -0.105832 0.623972 -0.0681278 -0.997677 0
-0.0219543 -0.0666081 0.232237 -0.469467 -0.864298 -0.180529
0.0096688 -0.101389 0.755123 0.0618037 -0.967471 0.245316
0.0262723 -0.129652 0.50289 0.00356866 -0.997882 -0.0649577
0.00921025 -0.10897 0.665954 0 -1 0
-0.0634704 -0.0908393 0.644307 -0.428839 0.155825 0.88984
-0.0683892 0.0679272 0.0506264 0.034364 -0.999331 0.0125096
-0.0713345 -0.0510221 0.659536 -0.884284 -0.463706 0.0549333
-0.410361 -0.07194 0.355316 0.0178902 0.999246 0.034454
-0.0147567 -0.131525 0.625242 0 -1 0
-0.0212703 0.0858219 0.0983828 -0.062479 0.995965 0.0644253
0.147101 -0.102362 0.497335 0.053054 -0.997676 -0.0427557
0.0509041 -0.0740115 0.350916 0.891638 -0.429214 -0.144072
0.0577038 -0.0738797 0.697707 0.887609 -0.460597 0
-0.231961 -0.0963248 0.557218 0.297385 0.944502 0.139565
0.409919 -0.084597 0.456014 0.0681255 -0.997677 0
-0.149234 0.0788309 0.0728172 -0.0845699 0.991484 0.0990316
-0.18265 0.0639431 0.0101134 0.155982 -0.367032 -0.917037
-0.0653675 0.0654938 0.111011 0.0402214 -0.999145 -0.00960183
0.0313535 -0.00887825 0.0905741 0.838862 0.526228 -0.139266
0.26548 -0.0787796 0.504597 -0.0330172 0.999455 0
0.234411 -0.0951993 0.56225 0.437397 0.0990022 0.893802
0.0138998 0.0279489 0.161451 0.996389 -0.0589593 -0.0611036
-0.258206 -0.0921142 0.393672 -0.0535806 -0.997711 -0.0412601
-0.382095 -0.0749271 0.474799 0.0330172 0.999455 0
-0.245281 -0.0762808 0.388986 0.0187069 0.998971 0.041312
-0.0729075 0.0805485 0.119808 -0.0709262 0.993826 0.0853148
-0.151564 -0.0825428 0.540466 0.0330168 0.999455 0
-0.14048 0.0627167 0.0832029 0.0417585 -0.999066 -0.0111314
0.00654377 0.0979585 0.0258852 0.0747382 -0.38113 -0.921496
0.0668469 -0.027051 0.421875 0.981955 0.18906 -0.00464614
0.357449 -0.0881799 0.458571 0.0681255 -0.997677 0
0.278006 -0.0936045 0.540375 0.0681247 -0.997677 0
0.0521225 -0.0847541 0.672671 0.866823 -0.498617 0
-0.196211 0.0761924 0.0595712 -0.0847665 0.98919 0.11966
-0.00916695 -0.0625566 0.191815 0 -0.982966 -0.183785
-0.063051 -0.0657554 0.593338 -0.866823 -0.498616 0
0.0982744 -0.100327 0.629195 0.428839 0.155825 0.88984
-0.211918 -0.0981173 0.491267 -0.0681247 -0.997677 0
-0.0400012 -0.0296825 0.163088 -0.89015 -0.418995 -0.179101
0.0155146 0.0872235 0.0822971 0.062479 0.995965 0.0644252
0.238107 -0.0796838 0.548653 -0.0330172 0.999455 0
0.00274857 -0.10897 0.709958 0 -1 0
-0.21383 -0.0979867 0.52026 -0.0681247 -0.997677 0
-0.297243 -0.092291 0.482352 -0.0681247 -0.997677 0
-0.455451 -0.0814879 0.448278 -0.0681255 -0.997677 0
0.143475 -0.0794437 0.42145 -0.0169766 0.999002 0.0413132
0.057503 -0.0330995 0.263675 0.917617 -0.357464 -0.173777
0.158986 0.0624154 0.0614198 -0.0754426 -0.992468 -0.096513
-0.0651005 -0.0392902 0.734357 -0.834436 0.174802 0.522647
0.0725244 -0.0424779 0.538652 0.968897 0.244741 -0.0366054
-0.0285992 0.0877162 0.064174 -0.0548876 0.996375 0.0649895
0.307009 -0.077382 0.443565 -0.0187069 0.998971 0.041312
-0.0647614 -0.0171075 0.385717 -0.981955 0.18906 -0.00464614
-0.0174542 0.089755 0.042329 -0.0548876 0.996375 0.0649895
0.032052 0.0351941 0.59681 0.233684 0.972269 -0.00920706
-0.00927373 -0.131525 0.538596 0 -1 0
-0.0927252 0.0859357 0.0397019 -0.0587727 0.995167 0.0786602
-0.061147 -0.0672443 0.699958 -0.887609 -0.460597 0
-0.343543 -0.0762007 0.482998 0.0330172 0.999455 0
0.154004 -0.102072 0.547817 0.0681278 -0.997677 0
0.0357592 0.011437 0.256068 0.584646 0.808079 -0.0720874
0.0580423 0.0119442 0.551654 0.968699 0.247936 0.0122921
-0.000145421 0.00332936 0.749827 0 0.703463 0.710732
-0.025382 -0.0742167 0.281218 -0.530236 -0.829288 -0.176441
0.132512 0.0631372 0.074935 -0.0408745 -0.999101 -0.011211
-0.0434339 -0.0169996 0.748804 -0.449615 0.74677 0.490083
-0.0204378 -0.124695 0.426406 -0.00356864 -0.997882 -0.0649577
-0.0203725 -0.108458 0.708635 -0.587779 -0.809022 0
0.0711044 -0.0811509 0.431307 -0.018187 0.998918 0.0428074
-0.113654 -0.077654 0.365918 0.0169766 0.999002 0.0413132
0.234467 -0.0957715 0.451282 0.0535806 -0.997711 -0.0412602
-0.116732 -0.104517 0.636583 0.987176 -0.150869 0.0521683
0.138772 -0.126326 0.634208 0.0716442 -0.000102653 0.99743
0.194931 -0.0811102 0.573928 -0.0330172 0.999455 0
0.071362 -0.0851922 0.545938 -0.0330168 0.999455 0
0.184313 -0.0979881 0.440434 0.0518265 -0.997803 -0.041264
-0.225371 -0.0801046 0.478895 0.0330172 0.999455 0
0.0561068 -0.0565626 0.331131 0.891638 -0.429214 -0.144072
0.0557052 0.010413 0.435097 0.968978 0.245087 -0.0318508
-0.000492747 -0.0570869 0.16256 0 -0.982966 -0.183787
-0.00572399 0.0281892 0.05555 0 -0.407343 -0.913275
0.246134 -0.0911062 0.352199 0.0521607 -0.997884 -0.0388256
0.276797 -0.0737946 0.339673 -0.0173049 0.999094 0.0388727
-0.0753754 -0.0850597 0.560394 0.0330168 0.999455 0
-0.0565301 0.0155579 0.499781 -0.968978 0.245087 -0.0318508
0.0228207 -0.0112264 0.759648 0.508855 0.811189 0.288166
-0.0356647 0.012679 0.279235 -0.82455 0.565435 0.0200016
0.062617 0.0842289 0.0834725 0.0590712 0.995067 0.0797066
-0.12943 -0.083274 0.539036 0.0330168 0.999455 0
0.45714 -0.0813726 0.449058 0.0681255 -0.997677 0
0.173706 -0.0968428 0.399418 0.0518265 -0.997803 -0.041264
-0.200278 -0.0983239 0.468605 -0.0518265 -0.997803 -0.041264
-0.0643856 -0.0175698 0.710719 -0.961918 0.258986 0.0874062
0.136688 -0.0780403 0.384725 -0.0169766 0.999002 0.0413132
-0.338357 -0.0724047 0.331372 0.0195541 0.999053 0.0388711
-0.0250118 0.0175097 0.239126 -0.674735 0.736702 -0.0447418
0.116361 -0.0780468 0.37653 -0.0169766 0.999002 0.0413132
-0.061226 -0.0634154 0.482583 -0.901474 -0.432436 -0.0185316
0.0401776 0.0688588 0.0475537 -0.034364 -0.999331 0.0125096
-0.456404 -0.0713231 0.361331 0.0178902 0.999246 0.034454
0.0129625 0.0653159 0.11814 0.997968 -0.0214999 -0.0599782
0.419908 -0.0822646 0.362979 0.0544455 -0.997762 -0.0388208
-0.243427 -0.0913804 0.35561 -0.0521607 -0.997884 -0.0388256
0.457509 -0.071233 0.359294 -0.0178902 0.999246 0.034454
0.106036 -0.113895 0.620044 -0.794145 0.584574 0.166152
0.0947249 -0.10612 0.55809 0.0681278 -0.997677 0
0.397281 -0.08546 0.47726 0.0681255 -0.997677 0
-0.24076 -0.0961478 0.485535 -0.0681247 -0.997677 0
0.479167 -0.0784122 0.342503 0.0527622 -0.998014 -0.0344114
0.00721325 0.0589462 0.171517 0.256251 0.562527 0.786065
0.0199591 -0.054075 0.831607 0.449069 -0.375284 0.810863
-0.210665 -0.0759588 0.365525 0.0187069 0.998971 0.041312
0.0312209 -0.13024 0.570904 0.587773 -0.809026 0
0.317943 -0.0897586 0.414038 0.0521607 -0.997884 -0.0388256
-0.0517294 -0.0502636 0.281064 -0.882674 -0.454086 -0.121214
-0.0111475 0.0658789 0.0877369 -0.997968 -0.0214989 -0.0599758
-0.0884769 0.0646647 0.0994046 0.0409786 -0.999114 -0.00954373
0.0391846 0.0286082 0.458207 0.571708 0.81916 -0.0461243
0.211184 -0.0981674 0.489933 0.0681247 -0.997677 0
0.0650074 0.070567 0.0274697 -0.155985 -0.366932 -0.917077
0.0256282 -0.12371 0.411571 0.00356866 -0.997882 -0.0649577
0.111237 -0.104992 0.545136 0.0681278 -0.997677 0
0.279458 -0.0924107 0.428439 0.0535806 -0.997711 -0.0412602
0.477606 -0.0799751 0.414642 0.0681255 -0.997677 0
-0.194677 -0.0800877 0.458126 0.0187069 0.998971 0.041312
-0.233672 -0.0798303 0.557069 0.0330172 0.999455 0
0.00898611 0.0273018 0.240264 0.239226 0.969561 -0.0521857
0.141042 0.0845282 0.00895196 -0.155942 -0.366925 -0.917087
-0.0573073 0.0117736 0.654839 -0.915247 0.39162 0.0946419
0.0951023 -0.0839194 0.506106 -0.018187 0.998918 0.0428074
0.264803 -0.0759907 0.390777 -0.0173049 0.999094 0.0388727
0.341792 -0.0747069 0.39227 -0.0195541 0.999053 0.0388711
-0.17578 -0.0817428 0.584906 0.0330168 0.999455 0
-0.248002 -0.0934691 0.413183 -0.0535806 -0.997711 -0.0412601
0.0534294 -0.108218 0.415409 0.521742 -0.852321 -0.0365265
-0.405142 -0.0836825 0.378713 -0.0544455 -0.997762 -0.0388208
-0.189369 0.0805693 0.0296453 -0.0781727 0.986 0.147287
0.286378 -0.0903248 0.386183 0.0521607 -0.997884 -0.0388256
0.0125313 0.0402689 0.637261 0.233684 0.972269 -0.00920706
-0.0570185 -0.111497 0.59651 -0.587773 -0.809026 0
-0.367859 -0.0844765 0.346831 -0.0544455 -0.997762 -0.0388208
-0.0662314 -0.0237231 0.427208 -0.981955 0.18906 -0.00464614
-0.00904737 -0.131525 0.581217 0 -1 0
0.25435 -0.0938911 0.431633 0.0535806 -0.997711 -0.0412602
0.0501985 -0.0133099 0.21479 0.981562 0.124175 -0.145318
-0.125516 -0.10239 0.471221 -0.053054 -0.997676 -0.0427557
-0.0282292 0.0210647 0.731367 -0.0260627 0.708368 0.705362
-0.0360273 -0.0522752 0.203545 -0.516843 -0.828038 -0.217315
0.279684 -0.09349 0.470141 0.0681247 -0.997677 0
0.192982 -0.0992008 0.480508 0.053054 -0.997676 -0.0427557
-0.0165834 0.0186098 0.170185 -0.573854 0.813601 -0.0935192
-0.152124 -0.0772421 0.371768 0.0169766 0.999002 0.0413132
-0.0136745 0.129308 0.100516 -0.992057 -0.0440264 -0.117831
-0.342443 -0.0892046 0.46659 -0.0681247 -0.997677 0
-0.0564009 0.016849 0.582069 -0.968699 0.247936 0.0122921
0.0545598 -0.106409 0.389332 0.521742 -0.852321 -0.0365265
0.327761 -0.0767221 0.477925 -0.0330172 0.999455 0
-0.243363 -0.0920628 0.373062 -0.0521607 -0.997884 -0.0388256
-0.261765 -0.0746154 0.354078 0.0173049 0.999094 0.0388727
-0.00120194 -0.0491373 0.120043 0 -0.982966 -0.183787
-0.0691418 -0.0788847 0.377389 0.0169766 0.999002 0.0413132
-0.151267 0.064931 0.031397 0.0317289 -0.999369 0.0159385
-0.312227 -0.0912678 0.466535 -0.0681247 -0.997677 0
-0.245419 -0.104049 0.563712 -0.808952 0.582341 0.0804737
-0.260291 -0.078951 0.484005 0.0330172 0.999455 0
-0.229144 -0.129897 0.540859 0.308886 -0.951043 0.010296
0.12189 -0.083523 0.534329 -0.0330168 0.999455 0
-0.180603 0.0787597 0.0494056 -0.0847665 0.98919 0.11966
0.215046 -0.114455 0.572542 0.0716868 -9.02453e-05 0.997427
0.248885 -0.116858 0.546202 0.998249 0 -0.0591519
-0.275989 -0.0754239 0.381191 0.0173049 0.999094 0.0388727
0.208896 -0.0935368 0.364037 0.0535806 -0.997711 -0.0412602
-0.288736 -0.0899524 0.379779 -0.0521607 -0.997884 -0.0388256
0.357103 -0.0882035 0.498176 0.0681255 -0.997677 0
-0.164003 -0.0955598 0.356206 -0.0518265 -0.997803 -0.041264
-0.0552011 -0.112818 0.538448 -0.587773 -0.809026 0
0.0605602 -0.0806203 0.414447 -0.018187 0.998918 0.0428074
0.0394448 -0.0450151 0.195378 0.910247 -0.367449 -0.190871
-0.0700669 -0.0299916 0.685074 -0.961807 0.259394 0.0874154
-0.445129 -0.0728448 0.400081 0.0330173 0.999455 0
-0.0547745 0.0159 0.454262 -0.654602 0.755301 -0.0318825
-0.101332 -0.105669 0.534578 -0.0681278 -0.997677 0
0.263038 -0.0749585 0.363464 -0.0173049 0.999094 0.0388727
-0.329729 -0.074805 0.389208 0.0173049 0.999094 0.0388727
0.00182406 -0.073397 0.249794 0 -0.982965 -0.183794
-0.1542 0.0808115 0.0503253 -0.0778848 0.991672 0.102573
-0.197363 -0.0810298 0.484432 0.0330172 0.999455 0
0.367064 -0.0857078 0.377363 0.0544455 -0.997762 -0.0388208
0.194186 -0.078445 0.418181 -0.0187069 0.998971 0.041312
0.0907787 -0.0995186 0.364184 -0.133011 -0.0109175 -0.991054
0.0582145 -0.0741633 0.594212 0.866823 -0.498616 0
-0.0913038 0.0670838 0.0435678 0.0327488 -0.999387 0.012404
-0.0251242 0.0302413 0.408514 -0.383582 0.923478 0.0073075
0.0105857 0.0487132 0.0838498 0.998312 -0.0211409 -0.0540858
-0.471883 -0.0715619 0.376297 0.0178902 0.999246 0.034454
-0.0348541 0.0336676 0.532076 -0.171638 0.984682 -0.0306927
-0.0662516 -0.0505378 0.429708 -0.903006 -0.429186 -0.0194563
0.0892931 -0.105901 0.508192 0.053054 -0.997676 -0.0427557
0.0248668 -0.0254839 0.0686159 0.880751 -0.428083 -0.202543
-0.363126 -0.0876113 0.420763 -0.0544455 -0.997762 -0.0388208
-0.0534259 -0.0419044 0.262103 -0.882674 -0.454086 -0.121214
0.0383022 -0.125095 0.630021 0.587773 -0.809026 0
0.0726204 -0.0370062 0.6778 0.961675 0.259783 0.0877158
-0.414561 -0.0813579 0.328874 -0.0527622 -0.998014 -0.0344114
0.0323316 0.0814184 0.144713 0.389415 0.527205 0.755255
0.424359 -0.0806939 0.324641 0.0527622 -0.998014 -0.0344114
-0.0298245 -0.0323447 0.114474 -0.82836 -0.53581 -0.163484
0.368212 -0.0868053 0.407179 0.0544455 -0.997762 -0.0388208
0.00870826 -0.0137169 0.787857 0 0.960936 0.276769
0.0447674 -0.120398 0.538709 0.587773 -0.809026 0
0.0643266 -0.0143973 0.404102 0.981955 0.18906 -0.00464614
-0.0360715 0.0338372 0.555549 -0.233684 0.972269 -0.00920707
0.0143807 0.130349 0.106073 0.992057 -0.0440264 -0.117831
-0.382781 -0.0728054 0.364017 0.0195541 0.999053 0.0388711
0.0148595 0.0344619 0.413958 0.383582 0.923478 0.0073075
-0.22003 -0.1256 0.523497 0.809873 -0.585106 -0.0419034
-0.114967 0.0838382 0.0483883 -0.0659148 0.992406 0.103857
-0.212788 -0.0805203 0.520082 0.0330172 0.999455 0
-0.422815 -0.0837164 0.414085 -0.0681255 -0.997677 0
-0.0200714 0.0378115 0.582354 -0.171638 0.984682 -0.0306927
0.0249915 -0.0679437 0.247916 0.494939 -0.856705 -0.145229
0.0102105 0.0264279 0.0876661 0.998564 -0.0272523 -0.0461283
0.242252 -0.093384 0.403659 0.0535806 -0.997711 -0.0412602
0.0120987 -0.0922261 0.341368 0.0183317 -0.975209 -0.220527
-0.277638 -0.0783779 0.507532 0.0330172 0.999455 0
0.0909088 -0.0845465 0.587225 -0.0330168 0.999455 0
-0.329684 -0.0766586 0.502751 0.0330172 0.999455 0
0.38594 -0.0818723 0.324438 -0.13693 0.0630913 -0.988569
0.210505 -0.0948741 0.398464 0.0535806 -0.997711 -0.0412602
0.0160296 0.0810329 0.153388 0.389415 0.527204 0.755256
0.0634805 -0.0155714 0.712225 0.867641 0.489709 0.0859269
-0.309739 -0.0883909 0.367863 -0.0521607 -0.997884 -0.0388256
0.0151775 -0.12939 0.648512 0 -0.0338987 0.999425
-0.0709413 -0.0364719 0.536906 -0.968897 0.244741 -0.0366054
0.0254049 -0.0331853 0.0948351 0.82836 -0.53581 -0.163486
0.251321 -0.109955 0.568453 -0.0717101 5.52886e-05 -0.997426
-0.00948083 -0.121646 0.378966 -0.00357079 -0.997882 -0.0649573
-0.44206 -0.0824023 0.432042 -0.0681255 -0.997677 0
-0.375805 -0.0751349 0.424129 0.0330173 0.999455 0
-0.0191943 -0.0463338 0.133009 -0.576002 -0.792795 -0.199244
-0.0129432 0.0339913 0.201925 -0.167928 0.840502 0.515128
-0.0124412 0.0303256 0.129411 -0.998099 -0.0422204 -0.0449066
-0.131164 0.0783249 0.0928374 -0.0776381 0.993373 0.0847497
0.0171018 -0.0829339 0.299429 0 -0.976371 -0.216099
-0.112723 0.0815301 0.0749284 -0.0767764 0.99204 0.099808
0.147303 0.0651263 0.0357497 -0.0317289 -0.999369 0.0159385
-0.00732952 -0.0920904 0.792116 0 -0.966323 0.257334
0.174829 -0.0808967 0.469443 -0.018187 0.998918 0.0428074
-0.0124631 0.113784 0.0904015 -0.9979 -0.0215834 -0.0610732
-0.16522 -0.0992309 0.446505 -0.0518265 -0.997803 -0.041264
-0.292549 -0.0735411 0.340172 0.0173049 0.999094 0.0388727
0.032576 -0.0771719 0.313277 0.527369 -0.824805 -0.203906
0.0986198 -0.105854 0.604541 0.0681278 -0.997677 0
0.0695875 -0.035639 0.473735 0.969098 0.246196 -0.0153906
-0.106468 -0.0840325 0.622282 0.0330168 0.999455 0
0.368783 -0.072934 0.36028 -0.0195541 0.999053 0.0388711
-0.015329 -0.0336886 0.063237 -0.578984 -0.796915 -0.172346
0.0873818 0.0655114 0.0834576 -0.0670165 -0.99488 -0.075649
0.0914885 0.0671536 0.0601895 -0.0641553 -0.993153 -0.0976261
-0.401278 -0.0851871 0.456229 -0.0681255 -0.997677 0
-0.0523635 -0.0286973 0.22748 -0.917617 -0.357464 -0.173777
0.0605732 -0.108915 0.609916 0.587773 -0.809026 0
-0.115051 -0.124918 0.623504 -0.0716969 -1.09694e-05 0.997427
-0.19344 -0.0756503 0.35026 0.0173049 0.999094 0.0388727
-0.156217 -0.0981516 0.4091 -0.0518265 -0.997803 -0.041264
0.141652 -0.102915 0.584998 0.0681278 -0.997677 0
-0.415288 -0.0837109 0.393671 -0.0544455 -0.997762 -0.0388208
0.144092 -0.0810402 0.459734 -0.018187 0.998918 0.0428074
0.0306362 -0.00148194 0.116039 0.753378 0.6556 -0.0510927
0.0639532 -0.0122722 0.452617 0.926612 0.375942 -0.00757519
0.21505 -0.114038 0.539248 -0.998895 0 0.046998
0.0180443 0.0671216 0.142182 -0.0404091 -0.999148 -0.00837507
0.108013 -0.101223 0.422261 0.053054 -0.997676 -0.0427557
0.135887 -0.113319 0.597501 0.80735 0.588035 -0.0490041
-0.0972071 0.0875043 0.0189809 -0.0518559 0.993501 0.101324
0.137211 -0.0803633 0.441014 -0.018187 0.998918 0.0428074
0.170796 -0.0819075 0.505129 -0.0330168 0.999455 0
-0.164301 0.064165 0.013389 0.0328176 -0.99921 0.0224233
-0.133857 -0.0831277 0.60267 0.0330168 0.999455 0
-0.0821925 -0.0848344 0.592551 0.0330168 0.999455 0
-0.165007 -0.101321 0.567279 -0.0681278 -0.997677 0
0.106306 -0.0797502 0.413576 -0.018187 0.998918 0.0428074
0.113182 0.0807685 0.082144 0.0767765 0.99204 0.099808
-0.0108683 0.0480941 0.0893077 -0.998312 -0.0211413 -0.0540867
0.124288 -0.0961348 0.359649 -0.133011 -0.0109175 -0.991054
-0.0456659 -0.0200197 0.178019 -0.981893 0.124207 -0.143033
-0.335471 -0.0882577 0.399009 -0.0521607 -0.997884 -0.0388256
-0.274146 -0.0938681 0.469477 -0.0681247 -0.997677 0
0.333548 -0.0756369 0.412288 -0.0173049 0.999094 0.0388727
0.0704554 -0.102934 0.415593 0.053054 -0.997676 -0.0427557
-0.398535 -0.0853744 0.435748 -0.0681255 -0.997677 0
-0.0926054 0.0816854 0.0888595 -0.0767764 0.99204 0.099808
0.146424 -0.0827126 0.540953 -0.0330168 0.999455 0
-0.225472 -0.0949868 0.420626 -0.0535806 -0.997711 -0.0412601
0.29745 -0.0756997 0.397833 -0.0173049 0.999094 0.0388727
0.342074 -0.0869746 0.374901 0.0521607 -0.997884 -0.0388256
0.0785903 -0.0802209 0.412785 -0.018187 0.998918 0.0428074
-0.157094 -0.0823601 0.508801 0.0330168 0.999455 0
0.0519961 0.0158059 0.394989 0.654602 0.755301 -0.0318825
0.131998 0.0645967 0.105067 0.389409 0.527207 0.755257
0.00830405 0.144547 0.00634072 0.998584 -0.0188041 -0.0497555
-0.0171509 0.0237236 0.222894 -0.674735 0.736702 -0.0447418
-0.0453767 0.0263726 0.509408 -0.654602 0.755301 -0.0318825
0.0419423 0.0186761 0.711453 0.668163 0.716696 0.199763
-0.300316 -0.0858409 0.528962 -0.437398 0.099002 0.893802
-0.0332429 -0.128771 0.619614 -0.587773 -0.809026 0
0.181007 0.0822128 0.0218714 0.0648783 0.992852 0.100181
0.0371857 -0.0323062 0.155233 0.89015 -0.418995 -0.179101
-0.125387 -0.0870339 0.359379 0.130657 -0.0230557 -0.991159
0.011239 0.0337686 0.342412 0.381864 0.919341 -0.094822
-0.107487 -0.111139 0.578254 0.809905 0.58506 -0.0419285
0.0397161 0.0293939 0.478748 0.571708 0.81916 -0.0461243
0.298238 -0.092223 0.477892 0.0681247 -0.997677 0
0.165492 -0.098249 0.596186 0.433377 0.136349 0.890839
-0.0390823 0.068994 0.0564655 0.0333813 -0.999391 0.0101957
0.314103 -0.0911397 0.510881 0.0681247 -0.997677 0
-0.0430732 0.0663547 0.114821 0.0402214 -0.999145 -0.00960183
-0.0311684 0.00173399 0.139334 -0.66436 0.735123 -0.13498
-0.00644272 -0.127421 0.467525 -0.00357079 -0.997882 -0.0649573
0.319901 -0.0765825 0.43007 -0.0187069 0.998971 0.041312
0.171209 -0.0818938 0.560203 -0.0330168 0.999455 0
-0.0429934 0.0882752 0.0435526 -0.0485214 0.995664 0.07936
-0.109191 -0.10196 0.440931 -0.053054 -0.997676 -0.0427557
-0.00346985 -0.0860417 0.313303 -0.0183318 -0.975208 -0.220527
0.00868867 -0.126626 0.455438 0.00357079 -0.997882 -0.0649573
-0.0675004 -0.0293481 0.442948 -0.969098 0.246196 -0.0153906
0.0258934 0.069539 0.0793519 -0.0581075 -0.995388 -0.0763275
-0.0333163 -0.016577 0.0865332 -0.880751 -0.428083 -0.202542
0.222065 -0.0972026 0.469781 0.0535806 -0.997711 -0.0412602
0.0407421 -0.0445265 0.790898 0.948385 0.155611 0.276319
-0.0489631 0.0195452 0.4213 -0.654602 0.755301 -0.0318825
-0.218437 -0.0851479 0.568514 -0.430715 0.135212 0.892302
0.176332 -0.100547 0.518227 0.0681278 -0.997677 0
-0.171728 -0.0818767 0.542191 0.0330168 0.999455 0
-0.0100544 0.0673568 0.0673623 -0.998365 -0.0198474 -0.0536082
-0.182157 -0.0972391 0.419615 -0.0518265 -0.997803 -0.041264
-0.0441438 0.0684919 0.147646 -0.389415 0.527204 0.755256
-0.117822 -0.104543 0.554949 -0.0681278 -0.997677 0
-0.0128445 0.156443 0.0817552 -0.997596 -0.0200553 -0.0663383
0.216602 -0.119458 0.503976 -0.809873 -0.585106 -0.0419034
-0.315372 -0.0745493 0.376243 0.0173049 0.999094 0.0388727
-0.0857241 -0.0847178 0.527522 0.0330168 0.999455 0
0.123524 0.0813446 0.0684477 0.0683564 0.994532 0.0789523
0.123792 0.0863814 0.0163861 0.0518559 0.993501 0.101324
0.0659018 0.0888953 0.0217662 0.0485213 0.995664 0.07936
0.076728 0.0813044 0.107782 0.0776381 0.993373 0.0847497
-0.0377081 0.00262633 0.183255 -0.58223 0.806074 -0.106075
0.285116 -0.0781309 0.505214 -0.0330172 0.999455 0
0.0527154 -0.0457282 0.753245 0.817078 0.0780405 0.571221
0.0698938 -0.0819518 0.449483 -0.018187 0.998918 0.0428074
-0.383354 -0.0830042 0.328772 -0.0527622 -0.998014 -0.0344114
-0.0145663 0.0278891 0.299011 -0.374046 0.922288 -0.0973393
-0.438131 -0.0720981 0.373682 0.0195541 0.999053 0.0388711
0.0439717 0.0162339 0.339453 0.56855 0.814636 -0.114536
-0.189204 -0.0812993 0.561533 0.0330168 0.999455 0
0.186342 0.0634997 0.0159995 -0.0328176 -0.99921 0.0224233
-0.327225 -0.073048 0.342935 0.0173049 0.999094 0.0388727
0.248395 -0.091691 0.370267 0.0521607 -0.997884 -0.0388256
0.259631 -0.0789728 0.526799 -0.0330172 0.999455 0
0.147757 -0.0826685 0.575843 -0.0330168 0.999455 0
0.110306 -0.115769 0.636254 0.071654 1.25758e-05 0.99743
-0.329283 -0.0766718 0.470725 0.0330172 0.999455 0
-0.030403 -0.0703866 0.794911 -0.853509 -0.440904 0.277715
0.0219306 -0.131525 0.535994 0 -1 0
0.0585764 -0.0028799 0.363091 0.910098 0.369241 -0.188104
0.20616 -0.0791079 0.439632 -0.0187069 0.998971 0.041312
0.355053 -0.0755771 0.421305 -0.0195541 0.999053 0.0388711
0.197467 0.0606952 0.0544879 -0.0417717 -0.999037 -0.013408
0.0613349 -0.0836206 0.484788 -0.018187 0.998918 0.0428074
0.202487 -0.0987613 0.560279 0.0681247 -0.997677 0
-0.320764 -0.0765038 0.428558 0.0187069 0.998971 0.041312
-0.042936 0.0858154 0.0782522 -0.0590713 0.995067 0.0797066
-0.0879765 -0.0821907 0.462739 0.018187 0.998918 0.0428074
0.068906 -0.0987999 0.643081 0.428839 0.155825 0.88984
