0.135549 -0.0253662 0.349182 0.993012 -0.0558374 -0.103964
0.0187351 -0.0580872 0.178387 0.46947 -0.864295 -0.180532
0.121391 -0.0302903 0.381658 -0.561304 0.826724 -0.0382822
0.432992 -0.0462996 0.225498 0.90762 -0.0552588 0.41614
-0.0105192 0.0606168 0.0858386 -0.997707 -0.0302463 -0.0605426
0.284998 -0.0871709 0.347506 -0.0214477 -7.42502e-05 -0.99977
-0.421053 -0.0134218 0.154473 0.619428 0.784942 -0.0132094
0.126904 -0.0314466 0.428584 -0.540656 0.816532 0.202403
0.320862 -0.0907308 0.260619 0.548137 -0.82013 -0.164112
0.0519855 0.0674689 0.0988003 0.494186 0.497941 0.712626
0.171636 0.00282849 0.34849 0.135546 0.990767 0.00290045
0.0936789 -2.84296e-05 0.311955 -0.13744 -0.990508 -0.00210788
0.147112 -0.0526052 0.34626 0.869997 -0.317825 -0.376951
-0.203591 -0.0152037 0.250307 0.139243 -0.990239 -0.0061228
-0.039367 -0.0810406 0.538035 -0.587786 -0.809017 0
0.443373 -0.0522963 0.179213 -0.165335 -0.98601 -0.0211639
-0.226797 -0.0200498 0.357216 0.186269 -0.982241 -0.022483
0.0773732 0.00268099 0.42343 -0.134464 -0.990576 0.0260399
-0.39639 -0.0457027 0.230263 0.209765 -0.972966 -0.0966216
-0.232309 -0.0197319 0.298106 0.154891 -0.98791 -0.00645467
-0.0572606 -0.0526767 0.521248 -0.880068 -0.474848 0
0.288011 -0.0833418 0.307895 -0.952928 -0.283962 0.106273
0.0213755 -0.0939808 0.604639 0.531819 -0.806693 0.257711
-0.319234 -0.062369 0.265403 -0.589927 0.789414 -0.169739
-0.405509 -0.0161639 0.24764 0.913552 0.0969337 -0.395001
-0.296812 -0.0295253 0.260654 0.156742 -0.987589 -0.0100084
0.0931038 0.0115509 0.342379 0.115062 0.992263 -0.0466414
0.442242 -0.0423213 0.152183 0.995797 -0.0168702 -0.090018
-0.131536 -0.0750123 0.419017 0.0250401 -0.992221 0.121943
-0.0569528 0.0051349 0.383611 0.13979 -0.99018 0.00123157
-0.0103091 0.115681 0.0913463 -0.0500105 0.85926 0.509088
-0.0212141 -0.0942294 0.501631 -0.587786 -0.809017 0
-0.00420447 0.0269351 0.503003 -0.176044 0.984271 -0.0148043
-0.0146254 -0.0576495 0.165604 -0.469471 -0.864295 -0.180531
0.0541328 -0.0483572 0.305152 0.893795 -0.423969 -0.146222
0.117776 -0.0499878 0.324781 -0.0729672 0.0235947 -0.997055
-0.028657 0.0222706 0.399515 -0.287539 0.957104 -0.035676
-0.0305003 0.00453824 0.217598 -0.584647 0.808079 -0.0720883
-0.137835 -0.0292821 0.37312 -0.993012 -0.0558374 -0.103964
-0.239537 -0.00784023 0.288169 -0.114092 0.991908 -0.055691
0.0876831 0.00250635 0.455177 0.49001 0.282193 0.824777
-0.340617 -0.0227919 0.236211 -0.106131 0.991548 -0.0746235
-0.181682 0.00146531 0.344658 -0.135546 0.990767 0.00290046
0.301732 -0.0156656 0.290533 0.147663 0.988999 0.00871904
-0.111951 -0.0385562 0.400245 0.937311 0.341496 0.0694911
0.0453508 -0.0747499 0.500805 0.880068 -0.474848 0
-0.126587 0.00883461 0.41767 -0.135775 0.990738 0.00195118
-0.0395091 0.0136002 0.575147 -0.719418 0.68704 0.102044
-0.183657 -0.0132117 0.37953 0.157238 -0.987397 -0.0179948
0.0088798 -0.0346567 0.697843 0.504129 0.70073 0.504809
0.166504 0.00346605 0.374376 0.13539 0.990791 0.00191064
0.00777752 0.095382 0.0265865 0.998341 -0.0164666 -0.0551732
-0.334628 -0.0850087 0.34644 0.021499 -0.000114183 -0.999769
0.31438 -0.0547381 0.275436 0.987853 -0.0485546 -0.147613
-0.127389 -0.072903 0.370515 0.0428627 -0.99195 -0.119157
-0.230679 -0.0191505 0.252101 0.152301 -0.988314 -0.00639905
0.14267 0.00606769 0.346254 0.110476 0.992784 -0.0466425
0.448195 -0.0191529 0.190334 0.988346 -0.129691 -0.0796985
0.00717431 0.129294 0.0557564 0 0.999698 0.0245643
-0.058679 -0.0385376 0.33225 -0.993207 0.116211 -0.00597824
-0.0781374 0.0154631 0.406543 -0.135029 0.99084 0.00187234
-0.0518101 -0.0178427 0.266078 -0.923929 0.352597 -0.148426
0.0356153 -0.0197326 0.115567 0.974088 0.22505 -0.0224728
-0.111666 0.00221496 0.276674 0.428439 -0.367457 -0.825479
0.0171512 0.0704262 0.0402378 -0.0415889 -0.99697 -0.0657293
-0.00948525 -0.0362322 0.051579 -0.578986 -0.796916 -0.172338
-0.257439 -0.0113844 0.264996 -0.116094 0.991123 -0.0647884
-0.094463 -0.000170672 0.375548 0.13979 -0.99018 0.00123157
0.265595 -0.0260444 0.325823 -0.173039 -0.984703 -0.0204437
0.334257 -0.0348593 0.215253 -0.154051 -0.988012 -0.010012
-0.0558804 -0.0122698 0.369866 -0.993138 0.116203 -0.0132116
0.375638 -0.0272353 0.226978 0.106131 0.991548 -0.0746235
0.125407 -0.0148272 0.39922 -0.997112 0.0262503 0.0712692
0.106078 0.0112082 0.367094 0.115062 0.992263 -0.0466414
0.0131359 -0.0846221 0.652567 0.647175 -0.726156 0.232083
-0.135964 -0.0531759 0.448927 -0.636653 -0.223759 0.737974
-0.128025 0.00636421 0.318136 -0.110747 0.99229 -0.0556408
-0.040638 -0.0763323 0.354675 -0.521516 -0.851939 -0.0471259
0.290811 -0.0157287 0.257009 0.1094 0.991897 -0.0645862
-0.040523 0.00662406 0.289436 -0.787908 0.594252 -0.16145
0.287893 -0.0881383 0.264514 -0.959102 -0.282669 0.0148974
-0.0217902 -0.0772939 0.654413 -0.546213 -0.78772 0.284866
0.157353 -0.00582627 0.417078 0.489345 0.182371 0.852808
0.310022 -0.0541614 0.326489 0.0426481 0.989421 0.138661
0.0479414 -0.0696304 0.586751 0.887609 -0.460598 0
-0.352822 -0.0381478 0.234764 0.16409 -0.986349 -0.0137808
-0.0228415 0.0702203 0.117092 -0.494276 0.497804 0.712659
-0.167268 0.00329232 0.400992 -0.135775 0.990738 0.00195118
0.296666 -0.0312151 0.311273 -0.197835 -0.977909 -0.0674945
-0.019765 0.0264549 0.541152 -0.233678 0.971217 -0.0461655
0.145256 0.00250438 0.278572 0.115065 0.992263 -0.0466353
0.317598 -0.0328058 0.258829 -0.156742 -0.987589 -0.0100084
0.172605 -0.0109845 0.273867 -0.139535 -0.990215 -0.00220267
0.0537381 0.0699282 0.0284175 -0.0335854 -0.995621 -0.0872397
0.312638 -0.0311291 0.18829 -0.153081 -0.988113 -0.0141226
-0.287855 -0.0827895 0.350013 -0.0214525 7.49321e-05 0.99977
-0.0618593 0.00517196 0.443694 0.145556 -0.989339 0.00468237
-0.295684 -0.0627273 0.25497 0.571637 0.784792 -0.239443
-0.305602 -0.0333792 0.316435 0.197835 -0.977909 -0.0674945
-0.440755 -0.0518451 0.208276 -0.905238 -0.0365358 0.423332
-0.0500118 -0.0638131 0.4224 -0.91763 -0.393793 -0.0536892
0.281188 -0.0129375 0.335541 0.148927 0.98882 0.007412
0.134243 -0.00196939 0.438738 -0.0214747 0 -0.999769
0.407495 -0.0512877 0.25917 -0.232203 -0.965749 -0.115802
0.363342 -0.0395649 0.212075 -0.164243 -0.986235 -0.0190967
0.31702 -0.0781834 0.328667 0.60445 0.224165 -0.764454
-0.136957 -0.00614631 0.404634 0.153913 -0.988075 0.00431211
-0.405072 -0.0463683 0.204527 0.164243 -0.986235 -0.0190967
-0.202962 -0.0015518 0.326877 -0.110475 0.992784 -0.0466425
-0.374948 -0.0267127 0.267405 -0.15777 0.987362 0.015006
0.0360407 -0.0407015 0.162507 0.793368 -0.571192 -0.210493
-0.0432496 -0.040978 0.205323 -0.854556 -0.513171 -0.0799343
0.126091 -0.0626716 0.426261 0.61485 0.788204 -0.0263598
-0.00447692 0.024964 0.283466 -0.374049 0.922287 -0.0973388
0.0611848 -0.0325244 0.463656 0.993588 0.0991779 -0.0542888
0.291044 -0.0198798 0.19658 0.118384 0.990115 -0.0752184
-0.415493 -0.0318735 0.167646 0.989142 0.12917 0.0700932
-0.0685727 0.00349658 0.34275 0.137829 -0.990455 0.00136231
0.151027 0.00427586 0.327908 0.110476 0.992784 -0.0466425
0.130883 0.00831038 0.386423 0.13539 0.990791 0.00191064
0.0964586 0.0129124 0.440949 0.135227 0.990814 0.000885786
0.0433343 0.00709337 0.412439 -0.13979 -0.99018 0.00123157
0.000283863 0.0377822 0.0368626 0 -0.391817 -0.920043
0.0263193 0.0242457 0.52785 0.233679 0.971217 -0.0461654
0.252726 -0.00855298 0.316433 0.146665 0.989163 0.00679259
-0.141233 0.000473112 0.440086 -0.987729 0.154737 -0.0211549
-0.238136 -0.0215663 0.34255 0.173039 -0.984703 -0.0204437
0.0226553 -0.0796471 0.287891 0.511453 -0.8355 -0.200888
0.0454916 -0.0744261 0.479576 0.883774 -0.467798 -0.0104296
0.0538436 -0.00849993 0.556819 0.915246 0.39162 0.0946438
0.306381 -0.0851868 0.234754 -0.118127 -0.000375585 -0.992998
-0.0270577 -0.065972 0.243296 -0.530236 -0.829288 -0.176441
0.0476801 -0.0192142 0.209118 0.923531 0.383204 -0.0156618
0.185921 -0.0134264 0.357966 -0.148853 -0.988718 -0.0167062
0.182611 -0.0126397 0.334559 -0.141575 -0.989925 -0.00229741
-0.0945415 0.0116307 0.347623 -0.115062 0.992263 -0.0466414
-0.060677 -0.0273931 0.463737 -0.993588 0.0991779 -0.0542888
0.00915105 0.0868645 0.0539557 0.997589 -0.0203344 -0.0663448
-0.360499 -0.0387979 0.193772 0.161497 -0.986776 -0.0138645
-0.336053 -0.0805368 0.320666 -0.935162 -0.333925 -0.118179
0.0522144 -0.0428196 0.276482 0.88718 -0.439764 -0.139713
-0.012543 0.025478 0.321906 -0.337802 0.940583 -0.0345583
-0.149538 -0.0361139 0.401732 -0.614306 0.788361 -0.0333945
-0.117406 -0.0343408 0.35261 0.561317 0.826714 -0.038288
-0.0661139 0.0740126 0.0797828 -0.104009 0.988317 0.111409
-0.232424 -0.00583161 0.364821 -0.147818 0.989 0.00534898
0.140162 -0.0538086 0.432706 0.950802 -0.309033 -0.0217597
0.416647 -0.0260842 0.137585 -0.861658 0.0851302 -0.500297
0.0152678 0.0252586 0.443024 0.203768 0.979018 0.00133351
-0.0827947 0.0796382 0.0184189 -0.0332018 0.996233 0.0801085
-0.1447 0.00578656 0.345077 -0.110475 0.992784 -0.0466425
0.19898 -0.0148463 0.305061 -0.14143 -0.989929 -0.0061703
-0.043762 -0.0770332 0.406136 -0.918737 -0.394268 -0.0218071
0.0568192 -0.0191634 0.379807 0.993138 0.116203 -0.0132116
0.0441336 -0.0733768 0.354692 0.911664 -0.41031 -0.0226967
0.312019 -0.0767235 0.357612 -0.372067 0.513101 0.773494
-0.299345 -0.0156592 0.333811 -0.148927 0.98882 0.00741179
-0.0553257 0.0167644 0.468372 -0.469168 0.390102 0.792276
-0.152735 -0.0653403 0.409854 -0.936295 -0.341116 -0.0836215
-0.278797 -0.0177153 0.206417 -0.116099 0.991122 -0.0647875
-0.0334005 0.0788858 0.0581982 -0.0458926 0.995108 0.087481
0.0120528 0.0773724 0.099666 0.996313 -0.0450984 -0.0729829
0.00427338 -0.0746796 0.248338 0 -0.975372 -0.220565
-0.169578 -0.0105403 0.269607 0.139243 -0.990239 -0.0061228
-0.176262 0.000642859 0.312115 -0.110747 0.99229 -0.0556408
-0.131739 0.00816867 0.398411 -0.13593 0.990714 0.0029735
0.0540603 0.0768793 0.0677889 0.0656009 0.994135 0.0859828
0.0808574 0.0632415 0.076827 -0.121749 -0.982924 -0.137977
0.274852 -0.0156993 0.229947 0.122944 0.990283 -0.0649912
0.0259647 0.0708861 0.114461 0.49428 0.497911 0.712581
0.0156564 0.0257694 0.399222 0.233351 0.972392 0
0.0487655 -0.0672152 0.449254 0.901902 -0.431941 0
0.0511128 -0.0143566 0.27002 0.923929 0.352597 -0.148426
0.0327936 0.0156917 0.295941 0.559563 0.815191 -0.149506
0.00755865 -0.016683 0.0515106 0 0 -1
0.256644 -0.00920968 0.298824 0.114092 0.991908 -0.055691
-0.00859236 0.0594189 0.0539338 -0.99836 -0.0201212 -0.0536014
-0.0561858 -0.0192405 0.320695 -0.991757 0.127503 -0.0127032
0.00875447 -0.0975355 0.528492 0 -1 0
-0.0803915 0.0128224 0.33751 -0.118898 0.992155 -0.0386173
0.12241 0.00559065 0.287629 0.119718 0.991712 -0.0466332
0.227733 -0.0186071 0.379016 0.505801 0.112393 0.855297
-0.0388968 -0.0395512 0.17015 -0.793368 -0.571192 -0.210493
-0.445454 -0.0162172 0.177594 -0.711328 0.69172 -0.124642
-0.416694 -0.0165544 0.266034 -0.739579 -0.0612084 0.670281
-0.366388 -0.042355 0.264507 0.207017 -0.97579 -0.0705566
0.146439 0.00621657 0.369893 0.13539 0.990791 0.00191064
-0.032621 0.0216082 0.467306 -0.173232 0.98488 0.00113473
0.123178 -0.0735895 0.418084 -0.598105 -0.783443 0.168778
-0.0344429 0.0192774 0.541092 -0.628245 0.7746 -0.0728226
-0.322196 -0.0560711 0.316779 -0.603669 0.793292 -0.0791931
-0.187386 -0.0129476 0.253958 0.139243 -0.990239 -0.0061228
0.18526 -0.0535115 0.435783 -0.0214518 -1.93741e-05 -0.99977
0.137439 -0.0419628 0.330055 0.563342 0.757849 -0.329105
-0.308745 -0.0923379 0.247463 -0.499715 -0.784983 -0.366178
0.00729892 0.114285 0.0100925 0.998584 -0.0188043 -0.0497565
0.0531404 0.0792271 0.042138 0.0398175 0.997589 0.0568372
0.140136 -0.00969318 0.390482 0.996622 -0.0312765 -0.0759423
-0.322932 -0.0190231 0.311918 -0.157256 0.987484 0.0120959
-0.192216 -5.62044e-05 0.374155 -0.13593 0.990714 0.0029735
-0.311493 -0.03134 0.218209 0.154051 -0.988012 -0.010012
-0.000409201 -0.0504063 0.119074 0 -0.982965 -0.183793
-0.300576 -0.0468305 0.277596 0.995901 -0.011175 0.089753
0.0620896 0.00441591 0.3886 -0.13979 -0.99018 0.00123157
-0.398595 -0.0499178 0.266671 0.242817 -0.963714 -0.110887
0.0950419 -4.68362e-05 0.410899 -0.134464 -0.990576 0.0260399
-0.0098796 -0.0949711 0.386403 0 -0.996488 -0.0837299
-0.0229185 -0.00335384 0.0718273 -0.619393 0.780794 -0.0819355
-0.428495 -0.0501402 0.196227 0.166964 -0.985782 -0.0189074
-0.230398 -0.00556536 0.309963 -0.114092 0.991908 -0.055691
0.0781286 0.00215175 0.331814 -0.137829 -0.990455 0.00136231
-0.0518285 -0.0575977 0.394589 -0.918737 -0.394268 -0.0218071
-0.338521 -0.03515 0.18906 0.153081 -0.988113 -0.0141225
-0.119761 -0.0591903 0.324842 0.607807 -0.74349 -0.278915
-0.00384154 0.0247254 0.597278 -0.178071 0.926321 0.331995
0.044613 -0.0404008 0.216194 0.854556 -0.513171 -0.0799343
0.349443 -0.0421756 0.308748 0.521046 -0.0146634 0.853403
-0.040925 -0.00657637 0.197197 -0.724333 0.68906 -0.0231853
-0.131442 -0.00536761 0.37983 0.145555 -0.989339 0.00468205
0.0478267 -0.0701611 0.521203 0.880068 -0.474848 0
0.155167 -0.00867277 0.318852 -0.14143 -0.989929 -0.0061703
-0.322031 -0.0887225 0.350939 -0.988097 0.152318 -0.0215469
0.0488461 -0.065019 0.403115 0.918737 -0.394268 -0.0218072
0.30048 -0.030053 0.255263 -0.156742 -0.987589 -0.0100084
-0.179384 -0.0120123 0.299569 0.14143 -0.989929 -0.0061703
-0.2902 -0.0699143 0.322755 0.936878 0.333798 0.10411
0.110025 -0.0628127 0.387625 -0.959476 -0.276055 0.0565552
0.053157 0.0180273 0.38512 0.114533 0.992666 -0.0386769
-0.00775035 0.0195293 0.0533267 -0.998312 -0.0211407 -0.0540855
0.0305659 0.0115543 0.614308 0.668171 0.716688 0.199764
0.0206953 0.0264047 0.575802 0.188773 0.98199 -0.00774701
0.028283 -0.0615372 0.669277 0.853509 -0.4409 0.277722
0.042192 -0.0241251 0.150912 0.922711 0.215438 -0.319672
-0.0117468 0.0773477 0.0945733 -0.086565 0.99259 0.0852681
0.165588 -0.0104184 0.361113 -0.148853 -0.988718 -0.0167062
-0.0545749 -0.0556309 0.601836 -0.903399 -0.424872 0.057916
-0.0164822 0.0135798 0.195062 -0.674738 0.7367 -0.0447414
0.0547897 -0.049198 0.341807 0.903464 -0.428556 -0.00966127
-0.00996905 0.0690488 0.0655517 0.0565645 -0.996293 -0.0648138
-0.0175792 -0.0553894 0.695302 -0.725408 -0.576496 0.376078
-0.0119744 -0.0752533 0.679834 -0.548364 -0.667204 0.504118
-0.356546 -0.0384703 0.213996 0.164243 -0.986235 -0.0190967
0.0948774 0.0105107 0.322716 0.118898 0.992155 -0.0386172
0.195558 -0.0140387 0.244587 -0.139243 -0.990239 -0.0061228
0.152195 -0.0589798 0.429048 0.0727755 -0.0235159 0.997071
0.00787427 0.0504727 0.0438996 0.998365 -0.0198454 -0.053604
-0.0837449 0.0657001 0.0575018 0.0794908 -0.989761 -0.11855
0.287738 -0.0275869 0.213372 -0.154051 -0.988012 -0.010012
0.0331995 -0.000969836 0.177745 0.584647 0.808079 -0.0720883
0.0583402 -0.0303823 0.411636 0.994616 0.103451 -0.00609075
0.299766 -0.0991291 0.291017 -0.613191 -0.789505 -0.0260648
-0.214068 -0.0177313 0.361381 0.186269 -0.982241 -0.022483
-0.0245702 -0.0599758 0.203407 -0.494942 -0.856703 -0.145231
-0.00980414 0.0814427 0.0305695 -0.0384717 0.998005 0.050062
-0.0560999 -0.0555875 0.566567 -0.884284 -0.463706 0.0549296
-0.100704 0.0633062 0.0608831 0.130203 -0.962444 -0.238219
-0.00419431 0.104212 0.101765 -0.0815492 0.551558 0.830141
0.049938 -0.0196395 0.620703 0.449626 0.746748 0.490106
-0.129661 -0.00508448 0.341879 0.139536 -0.990215 -0.00220516
-0.0585395 -0.0170006 0.546377 -0.91606 0.391968 0.0848266
0.333665 -0.0874495 0.328072 0.943324 -0.330325 0.0320089
0.0136105 0.0174837 0.247688 0.374049 0.922287 -0.0973388
0.0147576 0.025064 0.504092 0.176044 0.984271 -0.0148043
-0.139174 -0.0560536 0.427791 -0.587593 -0.808993 -0.0162669
-0.00984521 0.0948532 0.0619523 -0.997609 -0.0204234 -0.0660301
0.234463 -0.0113264 0.220173 0.122944 0.990283 -0.0649912
0.055475 -0.0122133 0.335731 0.991757 0.127503 -0.0127032
-0.0399658 0.0206206 0.445192 -0.135389 0.990791 0.00191024
-0.347642 -0.0227356 0.293745 -0.157256 0.987484 0.0120959
0.0225847 0.0233756 0.465482 0.173232 0.98488 0.00113473
0.211279 -0.00448331 0.290392 0.110747 0.99229 -0.0556408
-0.177067 -0.0124204 0.398677 0.153913 -0.988075 0.00431211
0.323234 -0.0383588 0.350191 0.987721 0.154739 -0.0215387
0.14872 -0.0680676 0.391822 0.556297 -0.828251 -0.0673319
0.0282395 -0.0891252 0.510478 0.587786 -0.809017 0
0.05908 -0.0490028 0.490704 0.883774 -0.467798 -0.0104296
0.264874 -0.0210699 0.357426 0.489619 0.10935 0.865053
0.376131 -0.0406222 0.29248 0.521046 -0.0146634 0.853403
0.422466 -0.0507714 0.247685 0.903728 -0.0693909 0.422446
0.387995 -0.0289394 0.276757 0.15777 0.987362 0.015006
-0.273544 -0.0259608 0.271279 0.154053 -0.988012 -0.0100166
-0.0950369 0.0686582 0.0255398 0.0344632 -0.994017 -0.103647
0.0537218 0.0170573 0.36237 0.115062 0.992263 -0.0466414
-0.088032 0.000833607 0.406075 0.137867 -0.990438 0.00502202
-0.393581 -0.028484 0.272206 0.91356 0.0969159 -0.394987
-0.011363 -0.0975355 0.5365 0 -1 0
0.305774 -0.10488 0.351293 -0.988097 0.152319 0.0215467
0.0241493 -0.0920969 0.54773 0.587786 -0.809017 0
-0.415805 -0.0246504 0.139279 0.861658 0.0851302 -0.500297
-0.0342661 0.0667124 0.0802619 0.0565645 -0.996293 -0.0648138
0.335276 -0.0346858 0.191753 -0.153081 -0.988113 -0.0141226
0.110174 -0.00232713 0.33677 -0.139536 -0.990215 -0.00220514
0.137867 -0.0046854 0.35895 0.991947 -0.0659551 -0.108123
0.2953 -0.0172256 0.242621 0.111175 0.990977 -0.0748644
-0.0320508 -0.0278385 0.656631 -0.495365 0.816503 0.296542
-0.00451797 0.0295569 0.581167 -0.188773 0.98199 -0.00774702
0.443799 -0.0309478 0.204508 0.904076 -0.0946634 0.416756
-0.316988 -0.0630256 0.340916 -0.118132 0.000280126 0.992998
0.00116476 0.019663 0.204723 0.239225 0.969561 -0.0521865
0.0165207 -0.0903598 0.331522 0 -0.996489 -0.0837263
0.307855 -0.0348516 0.333076 -0.199499 -0.978778 -0.0468375
-0.329978 -0.0366571 0.292379 0.184014 -0.980909 -0.0628942
0.306585 -0.0382792 0.242236 -0.101437 -0.711879 -0.694937
-0.15044 3.07066e-05 0.257723 0.423231 -0.36299 -0.830129
0.049749 -0.000415362 0.471108 0.765486 0.642694 -0.0312324
-0.0460905 -0.0594949 0.288286 -0.893795 -0.423969 -0.146222
0.113918 -0.0412672 0.423687 -0.916737 0.334413 0.218545
-0.0276479 0.0203623 0.33032 -0.337802 0.940583 -0.0345583
0.268096 -0.025165 0.276568 -0.154053 -0.988012 -0.0100166
0.108562 0.0113329 0.398078 0.135029 0.99084 0.00187233
-0.24877 -0.0218757 0.242418 0.152301 -0.988314 -0.00639905
0.0474039 -0.0380922 0.631759 0.817083 0.0780942 0.571206
-0.267861 -0.0260792 0.316104 0.172357 -0.984215 -0.040159
0.0880049 0.069242 0.0222791 -0.0344632 -0.994017 -0.103647
0.192643 -0.000839372 0.395614 0.476104 0.275283 0.835192
-0.0128071 0.0459289 0.128564 -0.997251 -0.040012 -0.0623677
0.0969063 -3.4811e-05 0.433026 -0.145556 -0.989339 0.00468238
0.0297864 0.0141469 0.276262 0.559563 0.815191 -0.149506
-0.0297162 -0.0229551 0.086173 -0.828362 -0.53581 -0.163476
-0.0359154 0.0211991 0.416032 -0.135029 0.99084 0.00187234
0.131936 -0.0394479 0.441356 0.0214754 -1.23633e-05 0.999769
-0.0472944 -0.0702869 0.464441 -0.901902 -0.431941 0
-0.106728 -0.00184828 0.31625 0.13744 -0.990508 -0.00210788
-0.0959646 -0.000296455 0.288864 0.13744 -0.990508 -0.00210788
-0.365299 -0.044023 0.284626 0.225311 -0.968792 -0.10333
-0.418337 -0.0195735 0.185123 0.989145 0.129169 0.0700579
-0.164428 0.00380503 0.351743 -0.135546 0.990767 0.00290046
0.0363725 -0.0832162 0.426974 0.587786 -0.809017 0
-0.398067 -0.0353207 0.160091 -0.112973 0.989576 -0.0893115
0.218959 -0.00711713 0.259238 0.120481 0.991147 -0.0557798
-0.0542116 -0.00947901 0.301019 -0.989592 0.127225 -0.0672395
-0.0320464 -0.00982635 0.630116 -0.585156 0.304527 0.751569
-0.381782 -0.0274821 0.243574 -0.156169 0.987627 0.0143129
0.108275 0.0768883 0.0317135 0.989786 -0.0515096 -0.13293
0.365087 -0.0395705 0.195318 -0.161497 -0.986776 -0.0138645
0.180217 -0.0122231 0.314286 -0.14143 -0.989929 -0.0061703
0.0114824 0.0267368 0.380909 0.287539 0.957104 -0.035676
0.134488 0.00773695 0.425251 0.135775 0.990738 0.00195118
0.0523386 -0.0158949 0.602004 0.867637 0.489717 0.0859261
0.0542667 -0.0594481 0.550955 0.866823 -0.498615 0
-0.0760102 0.00335788 0.452856 0.142106 -0.989494 0.0265959
-0.0407413 -0.0212037 0.148693 -0.922711 0.215438 -0.319672
-0.301076 -0.0751425 0.334399 -0.936054 -0.333858 -0.111096
-0.188399 -0.00562425 0.240843 0.423231 -0.36299 -0.830129
0.0406526 -0.00546205 0.221805 0.724333 0.68906 -0.0231853
0.026151 -0.00344133 0.0954299 0.619393 0.780794 -0.0819355
-0.160426 -0.00976305 0.413583 0.153913 -0.988075 0.00431211
0.243266 -0.0093118 0.271305 0.116094 0.991123 -0.0647884
0.142039 -0.0656252 0.351392 0.546887 -0.822113 -0.15826
-0.238436 -0.0205467 0.277199 0.154053 -0.988012 -0.0100166
0.349245 -0.0371639 0.208554 -0.161497 -0.986776 -0.0138645
-0.0482638 -0.0494367 0.272224 -0.88718 -0.439764 -0.139713
-0.157661 -0.054801 0.436376 0.0214779 -6.35807e-05 -0.999769
-0.00460024 0.0470739 0.142448 -0.243691 0.554769 0.795516
0.037588 -0.0653087 0.632842 0.834975 -0.370837 0.406566
0.14688 -0.0396628 0.357395 0.947128 0.277196 -0.161588
0.404 -0.0461127 0.200552 -0.164243 -0.986235 -0.0190967
0.0405396 0.00644053 0.599295 0.668171 0.716688 0.199764
-0.00901589 -0.0975355 0.488106 0 -1 0
0.122319 0.00943418 0.410192 0.135775 0.990738 0.00195118
0.38333 -0.031488 0.185655 0.112935 0.990771 -0.0749606
0.0360611 0.0701562 0.0344845 -0.0329377 -0.996628 -0.0751453
-0.113463 0.0106003 0.433328 -0.135389 0.990791 0.00191024
0.311505 -0.100759 0.304032 -0.0268376 -0.999634 -0.00350774
0.295587 -0.0742164 0.349847 0.0214525 -7.49321e-05 0.99977
0.416777 -0.0327584 0.187404 -0.989136 0.129266 0.0699945
-0.0518045 -0.0625998 0.484072 -0.883774 -0.467798 -0.0104296
-0.0543738 -0.0495273 0.317527 -0.903464 -0.428556 -0.00966128
0.0313193 -0.0641091 0.655863 0.853509 -0.4409 0.277722
-0.0129354 0.0121344 0.149405 -0.57386 0.813597 -0.0935193
0.383871 -0.0279862 0.256416 0.155843 0.987714 0.0115936
-0.0579917 -0.0258572 0.579672 -0.961807 0.259394 0.0874146
0.0330395 0.0667739 0.0803867 -0.0565644 -0.996293 -0.0648138
0.00841989 0.0143811 0.069243 0.998564 -0.0272542 -0.0461254
0.0105724 0.0839028 0.0763267 0.997609 -0.0204249 -0.0660286
0.0535321 0.018756 0.457785 0.135227 0.990814 0.000885786
0.0103842 0.0277624 0.0996233 0.997821 -0.0341452 -0.0564659
-0.148051 -0.0407416 0.362409 -0.947128 0.277196 -0.161588
0.0085685 -0.0975355 0.424385 0 -1 0
-0.00979747 0.00802599 0.0935233 -0.508457 0.859219 -0.0566924
0.143323 -0.0318091 0.38903 0.614306 0.788361 -0.0333945
-0.406841 -0.0312713 0.23162 -0.156169 0.987627 0.0143129
-0.124025 -0.0160266 0.337727 0.0767174 -0.694672 -0.715224
-0.0560644 0.00521773 0.328597 0.137829 -0.990455 0.00136231
-0.0416464 0.080591 0.0262523 -0.0398175 0.997589 0.0568372
0.230834 -0.00535666 0.323871 0.146712 0.989166 0.00513109
-0.044073 -0.0623416 0.622387 -0.76082 -0.436445 0.48028
0.0170765 -0.0356394 0.0743413 0.578987 -0.796915 -0.172339
0.00296583 -0.0955398 0.615151 0.0391571 -0.98705 0.155562
-0.0224293 0.00676443 0.172943 -0.664255 0.744708 -0.0646223
-0.021357 -0.064546 0.219416 -0.494942 -0.856703 -0.145231
0.263662 -0.0134412 0.243422 0.120481 0.991147 -0.0557798
0.0241418 -0.0914112 0.408698 0.586432 -0.807154 -0.067821
0.358812 -0.0430935 0.290419 -0.22275 -0.971925 -0.0757926
0.107922 0.00828185 0.307666 0.119718 0.991712 -0.0466332
0.0575303 0.0806569 0.016322 0.0324824 0.997226 0.0669674
0.0324259 -0.0135367 0.631324 0.585156 0.304527 0.751569
0.00849905 0.0364891 0.0605199 0.998357 -0.0190863 -0.0540249
-0.444892 -0.0188734 0.158746 -0.779045 0.614539 -0.12422
-0.382266 -0.0332162 0.163421 -0.112973 0.989576 -0.0893115
0.00516863 -0.0174607 0.667982 4.81888e-05 0.960939 0.276762
0.0176291 -0.0947182 0.391741 0.586432 -0.807154 -0.067821
-0.0395097 0.00762742 0.407705 0.13979 -0.99018 0.00123157
0.0579129 -0.0492056 0.596905 0.903399 -0.424872 0.057916
0.114274 0.00937537 0.34832 0.115062 0.992263 -0.0466414
-0.13993 -0.0678449 0.355634 -0.546887 -0.822113 -0.15826
0.0320988 -0.0771426 0.301517 0.511453 -0.8355 -0.200888
0.309697 -0.0745732 0.340551 -0.587915 0.808758 0.016328
0.256643 -0.014325 0.216441 0.122944 0.990283 -0.0649912
-0.375176 -0.0303314 0.188657 -0.112935 0.990771 -0.0749606
-0.0548812 -0.0208836 0.599129 -0.961919 0.258981 0.087406
-0.319636 -0.0961361 0.283537 -0.548062 -0.82019 -0.164063
-0.303227 -0.0327776 0.300703 0.993099 0.0182133 0.115855
0.425115 -0.0115236 0.171858 0.103212 0.990286 -0.0931666
0.44573 -0.0360037 0.187186 0.98837 -0.129548 -0.079633
-0.0215916 0.00232191 0.116035 -0.619348 0.780896 -0.0812981
0.00593787 -0.0485501 0.709365 0.44329 0.154789 0.882912
0.0192183 0.0237529 0.344378 0.287722 0.957714 0
-0.32856 -0.0255551 0.18092 -0.118384 0.990115 -0.0752184
0.325994 -0.0364496 0.301149 -0.197835 -0.977909 -0.0674945
-0.276727 -0.0292604 0.348821 0.199499 -0.978778 -0.0468375
-0.117753 -0.00346299 0.367265 0.139536 -0.990215 -0.00220516
0.320118 -0.0326065 0.210569 -0.153081 -0.988113 -0.0141226
-0.300638 -0.098665 0.313786 0.6054 -0.793248 0.0651747
-0.141056 -0.072649 0.384861 -0.556299 -0.82825 -0.0673307
-0.0104389 0.115416 0.0645698 -0.99759 -0.0203339 -0.0663432
-0.0678965 0.00355051 0.313554 0.137829 -0.990455 0.00136231
-0.0106864 0.0803703 0.0512689 -0.0384717 0.998005 0.050062
-0.273114 -0.0161561 0.219697 -0.122944 0.990283 -0.0649912
-0.0212491 -0.0795578 0.283939 -0.511453 -0.8355 -0.200888
0.330912 -0.0645011 0.305392 0.951252 0.283971 -0.120332
0.107952 0.00365797 0.277959 -0.428439 -0.367457 -0.825479
0.11539 -0.0350907 0.365977 -0.561317 0.826714 -0.038288
-0.203762 -0.0154515 0.292556 0.14143 -0.989929 -0.0061703
-0.0471753 -0.0394077 0.232024 -0.890267 -0.439381 -0.119871
0.327965 -0.0293451 0.179044 -0.430275 -0.16261 -0.887931
0.0543502 0.016261 0.345677 0.118898 0.992155 -0.0386172
-0.120024 -0.0036436 0.292986 0.13744 -0.990508 -0.00210788
0.311212 -0.0313229 0.220861 -0.154051 -0.988012 -0.010012
0.391203 -0.04342 0.167876 -0.161416 -0.986698 -0.0192869
0.301328 -0.0532693 0.285141 -0.995901 -0.011175 0.089753
0.0620568 -0.0361346 0.520815 0.96395 0.260394 -0.0547335
0.092951 4.90835e-05 0.359591 -0.139536 -0.990215 -0.00220514
0.0178963 0.00110378 0.0749744 0.751576 0.657628 -0.0515621
0.369434 -0.0315629 0.165509 0.112973 0.989576 -0.0893115
0.132731 -0.00552494 0.342671 -0.141575 -0.989925 -0.00229741
-0.389503 -0.0434287 0.185508 0.161497 -0.986776 -0.0138645
0.0170871 0.0113946 0.171388 0.664255 0.744708 -0.0646223
0.413882 -0.047276 0.175363 -0.161497 -0.986776 -0.0138645
-0.0524471 -0.061786 0.53439 -0.866446 -0.498398 -0.0294962
0.352324 -0.0231023 0.2644 0.155843 0.987714 0.0115936
-0.0448209 0.00646431 0.488497 -0.764969 0.642593 -0.0435398
-0.147857 0.00597133 0.393715 -0.13593 0.990714 0.0029735
0.00920629 0.11114 0.047346 0.997589 -0.0203344 -0.0663448
-0.0703836 0.0163249 0.392441 -0.114533 0.992666 -0.0386769
-0.0361005 0.0188336 0.355583 -0.118898 0.992155 -0.0386173
-0.329733 -0.0749159 0.281159 -0.935837 0.282529 -0.210679
-0.348428 -0.0224561 0.261718 -0.155843 0.987714 0.0115936
-0.230349 -0.010478 0.225319 -0.122944 0.990283 -0.0649912
0.0726079 0.0144829 0.354192 0.115062 0.992263 -0.0466414
-0.123754 -0.0671857 0.430934 -0.0729153 -0.0235647 0.99706
-0.28604 -0.0164949 0.238065 -0.116099 0.991122 -0.0647875
0.0705823 0.00318821 0.365491 -0.13979 -0.99018 0.00123157
-0.24116 -0.0230001 0.367117 0.186269 -0.982241 -0.022483
-0.314427 -0.0318733 0.267416 -0.986709 -0.0587813 -0.15149
0.0240225 -0.092189 0.452088 0.587786 -0.809017 0
-0.0490205 -0.0679485 0.520629 -0.880068 -0.474848 0
-0.0890384 0.0674743 0.0409313 0.0456177 -0.995242 -0.0860905
0.440256 -0.0145359 0.213913 0.730982 0.613907 0.297964
-0.423063 -0.0118041 0.250465 -0.730977 0.613934 0.297922
0.356707 -0.0379095 0.174711 -0.161497 -0.986776 -0.0138645
-0.167557 -0.0105844 0.353396 0.148853 -0.988718 -0.0167062
-0.03532 -0.0175769 0.124352 -0.974088 0.22505 -0.0224728
0.00798693 0.0295841 0.547365 0.233679 0.971217 -0.0461654
-0.311717 -0.0317591 0.248737 0.155994 -0.987658 -0.0140296
0.159422 -0.0442073 0.438907 0.0214297 5.16709e-05 0.99977
0.0170007 -0.0170134 0.652474 0.508852 0.811189 0.28817
-0.0578173 -0.0291993 0.366565 -0.993138 0.116203 -0.0132116
0.00803883 -0.071006 0.229247 0 -0.982965 -0.183793
0.426655 -0.0280387 0.242357 0.904081 -0.0945299 0.416775
-0.060529 0.0152474 0.338657 -0.118898 0.992155 -0.0386173
0.398814 -0.0476698 0.244808 -0.209765 -0.972966 -0.0966216
0.0564033 0.0051532 0.315968 -0.137829 -0.990455 0.00136231
-0.0262508 -0.09057 0.533361 -0.587786 -0.809017 0
0.124234 -0.00645419 0.379718 -0.997112 0.0262503 0.0712693
-0.100195 -0.0443206 0.440179 -0.0214757 2.95935e-05 0.999769
-0.0323091 -0.0861684 0.577665 -0.587786 -0.809017 0
-0.0507382 0.00593681 0.308708 0.13744 -0.990508 -0.00210788
-0.00785071 0.100372 0.0264207 -0.998341 -0.0164667 -0.0551732
-0.0712553 0.0163734 0.430491 -0.135389 0.990791 0.00191024
0.113942 -0.0628163 0.347185 -0.607768 -0.743514 -0.278934
-0.148869 -0.0077226 0.310781 0.14143 -0.989929 -0.0061703
0.0124392 0.10551 0.0895462 0.992853 -0.0369475 -0.113481
0.00678246 0.0229443 0.273189 0.374049 0.922287 -0.0973388
-0.133087 -0.00546142 0.423446 0.153913 -0.988075 0.00431211
0.136114 -0.0557146 0.420625 0.564186 -0.776818 -0.279729
0.0526084 -0.00644866 0.425622 0.737491 0.674738 -0.0289095
0.00794996 -0.0531183 0.133578 0 -0.982965 -0.183793
0.30568 -0.0985304 0.27518 -0.0375181 -0.994827 -0.0944036
0.0113242 0.0226083 0.123368 0.998098 -0.0422246 -0.0449096
0.011574 0.0629769 0.101284 0.996866 -0.0357476 -0.0705726
0.0239124 0.00311103 0.146482 0.670416 0.739093 -0.0654572
0.077058 0.0104637 0.290631 -0.420083 -0.41685 -0.806081
0.0453122 -0.0656352 0.301333 0.893795 -0.423969 -0.146222
0.0529644 -0.0608189 0.533244 0.866446 -0.498398 -0.0294962
-0.168729 0.000274123 0.289034 -0.115065 0.992263 -0.0466353
-0.0596643 -0.0381299 0.425708 -0.993377 0.101271 -0.0542734
-0.0758581 0.00246132 0.327167 0.137829 -0.990455 0.00136231
-0.0254159 -0.0376626 0.111451 -0.890147 -0.418997 -0.179109
0.0246337 0.0222854 0.367485 0.287539 0.957104 -0.035676
-0.0608526 -0.0192522 0.504204 -0.995405 0.0957341 -0.00208327
0.0789216 0.0153486 0.412079 0.134867 0.990863 0.0008826
-0.431603 -0.0296515 0.12807 0.438322 0.0117453 -0.898741
-0.0447689 0.0636523 0.105219 0.0706257 -0.992705 -0.0977155
0.0466293 0.00140182 0.35037 0.743594 0.668462 0.0150614
-0.215222 -0.00675522 0.257659 -0.115659 0.991726 -0.0557089
-0.0297223 -0.0839486 0.618817 -0.531818 -0.806694 0.25771
-0.329116 -0.0628694 0.301436 -0.603705 0.793262 -0.0792232
-0.00217238 -0.0683409 0.214993 0 -0.982965 -0.183793
0.039891 0.0645672 0.109216 0.494276 0.497801 0.712661
0.0599609 -0.0351537 0.436689 0.993377 0.101271 -0.0542734
-0.0478647 0.0701687 0.0281043 0.0433083 -0.996288 -0.0743961
-0.329076 -0.0342536 0.231331 0.155994 -0.987658 -0.0140296
0.151728 -0.0375412 0.408322 0.614306 0.788361 -0.0333945
0.312869 -0.0326943 0.280633 -0.184014 -0.980909 -0.0628942
-0.139995 -0.0749998 0.405013 -0.556299 -0.82825 -0.0673307
0.198092 -0.0154458 0.375988 -0.157238 -0.987397 -0.0179948
-0.141975 -0.0940549 0.44087 -0.987421 -0.156693 -0.0211483
-0.0141215 0.0201252 0.272456 -0.335976 0.935499 -0.109365
0.28176 -0.0697691 0.350115 -0.156675 0.987645 0.00323286
0.212583 -0.00275166 0.341053 0.135546 0.990767 0.00290045
-0.0344191 -0.0846354 0.417051 -0.587786 -0.809017 0
-0.304934 -0.0991552 0.332686 0.581438 -0.785033 0.213666
0.0376929 0.0205791 0.404821 0.114533 0.992666 -0.0386769
0.0132123 0.0832288 0.111876 0.996313 -0.0450984 -0.0729829
0.0707557 0.0683791 0.0395453 -0.0335854 -0.995621 -0.0872397
0.0560922 -0.0548258 0.57312 0.884284 -0.463706 0.0549296
-0.323576 -0.078165 0.255129 -0.85552 -0.317914 -0.408677
0.185876 -0.00421192 0.242007 0.115659 0.991726 -0.0557089
0.00324965 0.0285503 0.321465 0.287722 0.957714 0
-0.0190723 0.0166518 0.614091 -0.0260466 0.708366 0.705365
0.0331084 -0.050597 0.181082 0.516841 -0.82804 -0.217314
0.441773 -0.0343983 0.135473 0.988366 -0.129549 -0.079679
0.0444779 0.0046218 0.301366 0.787908 0.594252 -0.16145
0.20364 -0.0152579 0.257942 -0.139243 -0.990239 -0.0061228
0.24529 -0.00766757 0.350906 0.147735 0.989002 0.00708114
0.208261 -0.00220546 0.356448 0.13539 0.990791 0.00191064
0.139499 -0.00634705 0.286318 -0.139535 -0.990215 -0.00220267
0.00605966 0.0673571 0.0245591 0.0500903 -0.370571 -0.927452
0.289936 -0.0141382 0.321009 0.148808 0.988824 0.0091269
-0.00946714 0.0246124 0.0853221 -0.997821 -0.0341443 -0.0564645
-0.270979 -0.0134095 0.258278 -0.116094 0.991123 -0.0647884
-0.264004 -0.0101425 0.297288 -0.114092 0.991908 -0.055691
-0.0405251 0.0123851 0.506746 -0.7329 0.679158 -0.0400209
0.405384 -0.0249328 0.275402 0.506977 -0.0223145 0.86167
0.272577 -0.0252998 0.218584 -0.15126 -0.988443 -0.0100206
-0.000487357 0.129613 0.0428001 0 0.999698 0.0245643
-0.312737 -0.104281 0.348769 0.0214017 0 -0.999771
-0.0201513 0.0241719 0.381968 -0.287539 0.957104 -0.035676
-0.144307 -0.0716051 0.424717 -0.561534 -0.823277 0.0830292
0.0110984 -0.0639347 0.191428 0 -0.982966 -0.183788
-0.0503164 -0.0242747 0.240757 -0.923531 0.383204 -0.0156618
-0.309501 -0.0350991 0.331234 0.199499 -0.978778 -0.0468375
0.303622 -0.0501955 0.306822 -0.993099 0.0182133 0.115855
0.170481 -0.0113235 0.391052 -0.157238 -0.987397 -0.0179948
0.317723 -0.0815557 0.245514 0.85552 -0.317914 -0.408677
-0.133319 -0.0530505 0.417125 0.405104 -0.512982 -0.756796
-0.138158 -0.0402352 0.335263 -0.563342 0.757849 -0.329105
0.0442951 0.0200453 0.430352 0.134867 0.990863 0.0008826
-0.287448 -0.0803074 0.310954 0.952928 -0.283962 0.106273
-0.183355 -0.0127532 0.337618 0.141575 -0.989925 -0.0022974
0.1515 -0.00837825 0.367229 -0.145555 -0.989339 0.00468205
0.237199 -0.0220984 0.360535 -0.186269 -0.982241 -0.022483
-0.324914 -0.0961925 0.336865 -0.573542 -0.815616 0.0762927
0.289649 -0.081843 0.247184 -0.942841 -0.270367 -0.194816
-0.225986 -0.00901124 0.240759 -0.120481 0.991147 -0.0557798
-0.30931 -0.041447 0.351412 -0.0215149 -3.81464e-05 0.999768
-0.301025 -0.0157687 0.316847 -0.148808 0.988824 0.0091269
-0.0132147 0.0210415 0.162564 -0.996839 -0.0664805 -0.0435105
-0.123417 -0.0165918 0.370779 0.999007 -0.00251866 0.0444788
-0.432149 -0.0461227 0.127745 0.453021 -0.0560347 -0.889737
-0.0215657 -0.0833172 0.638187 -0.546213 -0.78772 0.284866
-0.293296 -0.0143423 0.283298 -0.147663 0.988999 0.00871904
0.0340885 -0.0320274 0.664353 0.954647 0.134462 0.265647
-0.0592631 -0.0126992 0.518688 -0.91606 0.391968 0.0848266
-0.289682 -0.0278366 0.208095 0.154051 -0.988012 -0.010012
-0.0622683 -0.0390803 0.47151 -0.993588 0.0991779 -0.0542888
0.0214645 -0.0446624 0.696096 0.839621 0.279085 0.465992
0.0441201 -0.0753039 0.389958 0.918737 -0.394268 -0.0218072
-0.0306701 -0.0873592 0.603434 -0.587786 -0.809017 0
-0.24357 -0.0207717 0.218362 0.433004 -0.238739 -0.869201
0.0581012 -0.0429643 0.369678 0.911857 -0.410397 -0.00957773
-0.139857 -0.0606029 0.33665 -0.508046 -0.781828 -0.361433
0.00760691 0.00664833 0.624561 0.0260466 0.708366 0.705365
0.282203 -0.0127492 0.290548 0.14774 0.989001 0.00709105
-0.0171176 0.000466046 0.0554899 -0.751576 0.657628 -0.0515621
0.0494349 -0.0240913 0.193265 0.923531 0.383204 -0.0156618
-0.296677 -0.0627624 0.337081 0.5397 0.815772 0.207943
0.267362 -0.0107566 0.321316 0.146665 0.989163 0.00679259
0.126491 -0.0144986 0.439058 -0.987722 0.154781 0.0211545
0.398101 -0.0177277 0.26439 -0.913554 0.096934 -0.394998
-0.304034 -0.0838537 0.349666 -0.0214897 -1.30218e-05 0.999769
0.0251461 -0.0360432 0.106322 0.890147 -0.418997 -0.179109
0.225564 -0.0184577 0.266846 -0.152301 -0.988314 -0.00639905
-0.281752 -0.0128819 0.318322 -0.148808 0.988824 0.0091269
0.0565489 -0.0468432 0.388091 0.911857 -0.410397 -0.00957773
0.0634337 0.0174501 0.419371 0.134867 0.990863 0.0008826
0.0480595 -0.0652239 0.367452 0.911857 -0.410397 -0.00957773
0.00875774 0.0625415 0.0558429 0.99836 -0.0201212 -0.0536014
-0.306579 -0.0648237 0.240219 0.0112301 0.951925 -0.306125
-0.0266554 -0.0730785 0.270789 -0.52689 -0.824053 -0.208143
-0.0675556 0.0665232 0.059369 0.0524827 -0.991283 -0.120842
0.105697 0.0750516 0.0477585 0.148326 0.948109 0.281228
-0.433804 -0.00947447 0.211837 -0.156642 0.987539 0.0151861
0.0494888 -0.0597721 0.315147 0.903464 -0.428556 -0.00966127
-0.022166 -0.0853187 0.312711 -0.521516 -0.851939 -0.0471259
0.0288139 -0.0677555 0.255178 0.52689 -0.824053 -0.208143
0.118472 0.00993267 0.424606 0.135389 0.990791 0.00191024
0.321312 -0.0677191 0.350916 0.988314 -0.150898 -0.0215517
0.254436 -0.0227604 0.244209 -0.152301 -0.988314 -0.00639905
0.0804877 0.0150923 0.440748 0.135227 0.990814 0.000885786
-0.0580888 -0.0205905 0.562975 -0.961807 0.259394 0.0874146
-0.113494 -0.0453224 0.428113 0.916737 0.334413 0.218545
-0.339948 -0.0705789 0.346326 0.021499 0.000114177 -0.999769
-0.0964788 1.6314e-05 0.430539 0.145556 -0.989339 0.00468237
0.0336959 -0.0851609 0.442063 0.587786 -0.809017 0
-0.230561 -0.00532605 0.325778 -0.146712 0.989166 0.00513106
-0.206722 -0.00203087 0.368944 -0.13593 0.990714 0.0029735
-0.0449202 0.0770222 0.0731103 -0.0656009 0.994135 0.0859828
-0.0364297 -0.00636719 0.153422 -0.877669 0.448064 -0.170106
0.00587662 -0.076659 0.683338 0.00449474 -0.846859 0.531798
0.054313 -0.00810378 0.392902 0.743594 0.668462 0.0150626
0.327057 -0.0749832 0.338203 -0.756058 -0.243435 0.607549
-0.341579 -0.0404219 0.306806 0.22275 -0.971925 -0.0757926
0.298379 -0.0916431 0.341686 -0.45816 -0.680522 0.571821
-0.0314858 -0.0624126 0.658045 -0.853507 -0.440903 0.277724
0.00723591 -0.0074341 0.638578 0 0.703464 0.710731
-0.414721 -0.0521795 0.264022 -0.903728 -0.0693909 0.422446
-0.0998686 0.0776909 0.0365862 -0.0416507 0.996946 0.0660646
0.340529 -0.0363613 0.252367 -0.155994 -0.987658 -0.0140296
0.23232 -0.0197293 0.297453 -0.154891 -0.987911 -0.00645467
-0.300169 -0.0301951 0.274061 0.99311 0.0182169 0.115757
-0.0570546 -0.0101193 0.45048 -0.765486 0.642694 -0.0312324
0.123086 -0.00408203 0.299343 -0.13744 -0.990508 -0.00210788
-0.129747 -0.0491251 0.436975 0.0214949 -1.77341e-05 -0.999769
-0.330145 -0.0198305 0.281779 -0.147663 0.988999 0.00871904
0.0447239 0.00687214 0.492811 0.764969 0.642593 -0.0435398
-0.00929222 -0.0975355 0.458027 0 -1 0
-0.317663 -0.0466176 0.296281 -0.992469 -0.0232256 -0.120274
-0.24945 -0.0228108 0.315017 0.172357 -0.984215 -0.040159
-0.111425 -0.0387198 0.365878 0.939443 0.341994 -0.022078
0.37039 -0.04174 0.246805 -0.209765 -0.972966 -0.0966216
-0.258903 -0.0235359 0.257267 0.154053 -0.988012 -0.0100166
-0.31307 -0.0174282 0.300041 -0.14774 0.989001 0.00709104
-0.0157573 0.0245752 0.4666 -0.173232 0.98488 0.00113473
0.213047 -0.0037408 0.307153 0.110747 0.99229 -0.0556408
-0.424865 -0.0532922 0.242137 -0.903728 -0.0693909 0.422446
-0.0665007 0.00504388 0.464772 0.142106 -0.989494 0.0265959
-0.0164722 0.0271615 0.568831 -0.188773 0.98199 -0.00774702
0.281043 -0.0154073 0.245517 0.111175 0.990977 -0.0748644
0.204282 -0.00175511 0.325678 0.110476 0.992784 -0.0466425
-0.0337782 0.00420529 0.246823 -0.726256 0.675878 -0.125461
0.00337448 -0.0419451 0.0738192 0 -0.982968 -0.183779
-0.40028 -0.0331475 0.188338 -0.105565 0.990442 -0.0887724
0.300604 -0.0158687 0.33646 0.148927 0.98882 0.007412
0.157865 -0.00942029 0.400717 -0.153913 -0.988075 0.00431209
-0.346087 -0.0222874 0.278815 -0.155843 0.987714 0.0115936
0.250924 -0.0236156 0.333018 -0.173039 -0.984703 -0.0204437
-0.288009 -0.0684411 0.294548 0.943111 0.332232 0.0127753
-0.00651173 -0.0972951 0.414062 0 -0.996488 -0.0837299
0.00112765 0.0279564 0.454939 0.203648 0.97844 0.0343762
0.0030755 -0.0784187 0.264872 0 -0.975372 -0.220565
-0.255568 -0.00994058 0.28373 -0.116094 0.991123 -0.0647884
-0.0216215 -0.0586301 0.188492 -0.469471 -0.864295 -0.180531
0.0322238 -0.0298578 0.127027 0.890147 -0.418997 -0.179109
0.0604794 -0.0479417 0.560607 0.884284 -0.463706 0.0549296
0.10264 -0.00132591 0.37487 -0.13979 -0.99018 0.00123157
-0.411768 -0.0124208 0.234084 0.913573 0.096871 -0.394969
-0.0091676 0.110891 0.0468397 -0.99759 -0.0203339 -0.0663432
0.18412 -0.0135278 0.396659 -0.153913 -0.988075 0.00431209
0.189417 -0.0133605 0.276973 -0.139535 -0.990215 -0.00220267
-0.139366 0.0071946 0.365136 -0.135546 0.990767 0.00290046
-0.335924 -0.0233352 0.222077 -0.111175 0.990977 -0.0748644
0.298984 -0.0300088 0.274338 -0.156742 -0.987589 -0.0100084
-0.419085 -0.0481385 0.175247 0.165335 -0.98601 -0.0211639
-0.125603 -0.0135036 0.399294 -0.0752544 0.730382 0.678881
0.0485463 0.0755948 0.0821476 0.104009 0.988317 0.111409
-0.255646 -0.0234013 0.299709 0.154891 -0.98791 -0.00645467
-0.255794 -0.00919018 0.344411 -0.147735 0.989002 0.0070809
0.0710636 0.0628662 0.0878223 -0.0938068 -0.990939 -0.0961233
-0.0384581 0.0146255 0.521957 -0.73287 0.680228 0.0138396
0.0499385 -0.0525083 0.29155 0.893795 -0.423969 -0.146222
0.376341 -0.0419292 0.225365 -0.16409 -0.986349 -0.0137808
0.177216 0.00202025 0.36505 0.13539 0.990791 0.00191064
0.0220089 0.0768573 0.090193 0.0772801 0.990546 0.113338
-0.32153 -0.0340806 0.35115 -0.021396 -2.47846e-05 0.999771
0.113207 -0.065811 0.370987 -0.619053 -0.782037 -0.0720541
0.0255094 -0.062492 0.221451 0.494942 -0.856703 -0.145232
0.194122 -0.0142516 0.321014 -0.14143 -0.989929 -0.0061703
-0.382265 -0.0466262 0.272039 0.225311 -0.968792 -0.10333
-0.127907 -0.0129609 0.441443 -0.0215038 8.24481e-06 0.999769
-0.0113342 -0.0304774 0.68959 -0.504129 0.70073 0.504808
0.318085 -0.0183901 0.322713 0.148808 0.988824 0.0091269
-0.331261 -0.0246725 0.19679 -0.118384 0.990115 -0.0752184
0.336775 -0.0400323 0.31593 -0.22275 -0.971925 -0.0757926
0.435588 -0.0100889 0.199206 0.0978126 0.991206 -0.0891285
0.12183 -0.0316279 0.415658 -0.557329 0.828585 0.0532158
-0.193346 -0.0140439 0.305461 0.14143 -0.989929 -0.0061703
0.0272438 -0.0463406 0.150916 0.516841 -0.82804 -0.217314
0.158064 -0.00893395 0.273195 -0.139535 -0.990215 -0.00220267
0.0300642 -0.0877995 0.469216 0.587786 -0.809017 0
-0.0401914 0.0206037 0.430508 -0.134867 0.990863 0.0008826
-0.0582968 0.0795546 0.0327783 -0.0398175 0.997589 0.0568372
0.119093 0.00993992 0.375777 0.135029 0.99084 0.00187233
-0.413497 -0.0367589 0.148477 0.989142 0.12917 0.0700932
-0.0593163 -0.0439821 0.613334 -0.903399 -0.424872 0.057916
0.0472947 -0.0702862 0.463661 0.901902 -0.431941 0
-0.116085 0.0102918 0.407471 -0.135389 0.990791 0.00191024
0.173482 0.00244738 0.397663 0.135775 0.990738 0.00195118
-0.299117 -0.0477761 0.261278 0.995941 -0.0110834 0.0893185
-0.31156 -0.0551987 0.333418 -0.0426481 0.989421 0.138661
0.21564 -0.012145 0.384943 0.492617 0.183416 0.850698
0.286906 -0.0177023 0.221148 0.116099 0.991122 -0.0647875
0.0231332 0.0787449 0.0658548 0.0569537 0.99621 0.0657354
0.0291124 0.0223823 0.439162 0.203768 0.979018 0.00133351
-0.0150529 -0.0200739 0.664528 -0.508848 0.811191 0.288171
-0.0559061 -0.0278392 0.291218 -0.989592 0.127225 -0.0672395
-0.0463396 -0.0157422 0.215027 -0.923531 0.383204 -0.0156618
-0.000278721 0.0294597 0.372716 -0.233351 0.972392 0
-0.00924633 -0.0913365 0.343146 0 -0.996489 -0.0837263
0.0579719 -0.0321961 0.338049 0.993207 0.116211 -0.00597824
-0.153869 -0.00853437 0.33681 0.141575 -0.989925 -0.0022974
-0.213346 -0.0169171 0.308026 0.14143 -0.989929 -0.0061703
-0.060422 0.00470479 0.411582 0.137867 -0.990438 0.00502202
0.073996 0.00357983 0.450351 -0.142106 -0.989494 0.0265959
-0.0261032 -0.0906773 0.548143 -0.587786 -0.809017 0
0.0580764 0.00502568 0.410477 -0.137867 -0.990438 0.00502202
0.0352897 -0.0164616 0.134208 0.974088 0.22505 -0.0224728
0.383116 -0.0276689 0.241915 0.156169 0.987627 0.0143129
-0.0304933 -0.0457215 0.680962 -0.851234 0.119896 0.510907
-0.0136219 0.0256995 0.513987 -0.175226 0.979696 -0.0974291
0.133324 -0.0751427 0.394628 -0.0363659 -0.998945 -0.0280273
-0.0880093 0.000738795 0.362575 0.139536 -0.990215 -0.00220516
-0.0306602 -0.0214831 0.641455 -0.495365 0.816503 0.296542
0.0374969 -0.0823993 0.59233 0.587787 -0.809016 0
-0.218289 -0.00373712 0.317718 -0.114092 0.991908 -0.055691
-0.443287 -0.0517986 0.166133 -0.996664 -0.0168849 -0.0798497
0.0571905 -0.0482984 0.431301 0.91763 -0.393793 -0.0536892
0.403889 -0.0330263 0.193984 0.105565 0.990442 -0.0887724
0.0972775 -0.000488215 0.293371 -0.13744 -0.990508 -0.00210788
0.0195534 0.0174902 0.266603 0.335976 0.935499 -0.109365
-0.0553928 0.0185079 0.451244 -0.135227 0.990814 0.000885786
0.122269 -0.021979 0.344592 -0.999029 -0.0024027 0.0439853
0.143366 -0.0699308 0.378343 0.546928 -0.82208 -0.158283
-0.0733048 0.0628779 0.0855137 0.0938068 -0.990939 -0.0961233
-0.443522 -0.032424 0.153955 -0.988366 -0.129549 -0.079679
0.409066 -0.0460953 0.155235 -0.161416 -0.986698 -0.0192869
0.0338665 0.00389271 0.245651 0.726256 0.675878 -0.125461
-0.407641 -0.0319328 0.210644 -0.105565 0.990442 -0.0887724
0.112766 -0.0435768 0.437362 0.152306 0.988328 -0.00332122
-0.0264475 -0.0904272 0.459888 -0.587786 -0.809017 0
-0.121098 -0.0553795 0.422279 -0.958977 0.276254 -0.0636141
-0.391792 -0.016885 0.27919 0.91356 0.0969159 -0.394987
-0.029422 0.00658323 0.231776 -0.584647 0.808079 -0.0720883
-0.029954 0.00245966 0.189867 -0.584647 0.808079 -0.0720883
0.359922 -0.0392067 0.226006 -0.16409 -0.986349 -0.0137808
0.232644 -0.0193699 0.239206 -0.152301 -0.988314 -0.00639905
0.330173 -0.0227207 0.221669 0.111175 0.990977 -0.0748644
0.247211 -0.00882633 0.286326 0.114092 0.991908 -0.055691
0.127209 -0.0683882 0.440661 -0.988098 0.152362 0.0211625
-0.0111457 0.0260996 0.116118 -0.998098 -0.0422217 -0.044911
-0.0922635 0.0106573 0.318436 -0.118898 0.992155 -0.0386173
0.390148 -0.043487 0.182142 -0.161497 -0.986776 -0.0138645
0.00975363 -0.0975355 0.492135 0 -1 0
-0.0770025 0.011956 0.306423 -0.119718 0.991712 -0.0466332
0.323111 -0.0643826 0.269514 0.589971 0.789385 -0.169723
-0.285246 -0.0135316 0.333266 -0.148927 0.98882 0.00741179
0.0606589 -0.021282 0.474569 0.993588 0.0991779 -0.0542888
0.354724 -0.0392784 0.25618 -0.207017 -0.97579 -0.0705566
-0.0606227 -0.0475578 0.534132 -0.866446 -0.498398 -0.0294962
-0.285991 -0.0153475 0.2547 -0.1094 0.991897 -0.0645862
0.0317201 -0.0837416 0.377623 0.55565 -0.830148 -0.0459159
-0.0130003 -0.0735934 0.243085 0 -0.982965 -0.183793
0.0625024 -0.0342667 0.537551 0.96395 0.260394 -0.0547335
-0.38644 -0.0359482 0.150098 0.446682 -0.0597415 -0.892696
0.340096 -0.0215803 0.297527 0.157256 0.987484 0.0120959
-0.102404 0.0100038 0.332408 -0.115062 0.992263 -0.0466414
-0.0128601 0.0346346 0.137168 -0.996388 -0.0589583 -0.0611058
0.22678 -0.00482803 0.337865 0.146712 0.989166 0.00513109
0.0414156 -0.0067809 0.206446 0.724333 0.68906 -0.0231853
0.0196597 -0.0907426 0.359945 0.554885 -0.829006 -0.0696542
0.149473 -0.0387581 0.374147 0.947128 0.277196 -0.161588
0.0884539 0.0140344 0.42466 0.135389 0.990791 0.00191024
-0.109917 -0.0415277 0.386566 0.939443 0.341994 -0.022078
-0.046653 -0.0066878 0.606941 -0.867637 0.489717 0.0859261
-0.1719 -0.0480704 0.438639 -0.0214668 -6.74148e-05 0.99977
-0.108376 0.0102604 0.352599 -0.115062 0.992263 -0.0466414
-0.0434865 -0.0780476 0.493703 -0.587786 -0.809017 0
0.269815 -0.0113217 0.348492 0.148927 0.98882 0.007412
-0.00775899 0.0340073 0.0478271 -0.998312 -0.0211407 -0.0540855
0.00362694 0.0286562 0.41075 0.233351 0.972392 0
0.265489 -0.010837 0.28796 0.114092 0.991908 -0.055691
-0.0377805 0.01194 0.589907 -0.703067 0.672027 0.232545
0.131922 -0.0859624 0.438788 -0.0215038 8.35629e-06 -0.999769
-0.114063 -0.002599 0.42457 0.145556 -0.989339 0.00468237
0.0515148 0.00108807 0.538654 0.91606 0.391968 0.0848266
0.156061 0.00486928 0.385843 0.13593 0.990714 0.0029735
0.0977373 -0.000578782 0.33048 -0.137829 -0.990455 0.00136231
0.350218 -0.0760251 0.346105 -0.0214826 -3.9522e-05 -0.999769
0.165447 0.00304751 0.335918 0.110476 0.992784 -0.0466425
0.173304 -0.0439268 0.43701 0.154724 0.987952 -0.00331383
-0.293689 -0.0864374 0.240904 0.611775 -0.755638 -0.233971
-0.359591 -0.0394443 0.246964 0.16409 -0.986349 -0.0137808
-0.250622 -0.0115742 0.364556 -0.505797 0.112343 0.855306
-0.180301 -0.0126286 0.364484 0.145555 -0.989339 0.00468205
0.0120152 -0.0975355 0.594881 0 -1 0
-0.0294432 -0.0488738 0.165799 -0.516843 -0.828039 -0.217314
0.206199 -0.0154989 0.238748 -0.139243 -0.990239 -0.0061228
0.418403 -0.0388122 0.134387 -0.438322 0.0117458 -0.898741
0.354562 -0.0236868 0.282646 0.15777 0.987362 0.015006
