0.126745 -0.0292856 0.0848855 -0.0830313 0.99637 0.0187858
0.01674 -0.0640261 0.588395 0.133762 0.966898 0.217291
-0.00601717 -0.0984276 0.470478 0.95817 0 0.2862
-0.0382314 -0.0988176 0.274127 -0.998262 -0.0589387 0.000356608
0.028893 -0.1091 0.218677 0.148743 -0.973804 -0.17199
0.267227 -0.0559552 0.334156 0.0101371 -0.999905 -0.00934141
-0.444931 -0.0510099 0.273897 0.00323918 -0.992153 -0.124984
0.271735 -0.044052 0.324013 0.0263 0.999654 -0.000518746
-0.0816683 -0.0340997 0.0500581 0.0962839 0.993974 -0.0523934
0.0287279 -0.0678876 0.586468 0.575465 0.720597 0.386756
-0.00672117 0.0169951 0.124643 -0.999291 0.0202598 -0.0317286
0.0306662 -0.117162 0.511701 0.149161 -0.988808 -0.00297108
0.327315 -0.0459886 0.337192 0.0420335 0.993437 0.106377
-0.0150718 -0.0308012 0.453387 -0.404926 0.911573 -0.0712002
-0.00439173 0.0161453 0.0687936 -0.997386 -0.00764427 -0.0718511
0.00331935 -0.0367547 0.0396721 0.000237158 -1.15949e-05 -1
0.114396 -0.030406 0.0624162 -0.0869519 0.996021 -0.019525
-0.0127765 -0.0556229 0.396524 -0.000951712 -0.998521 0.0543558
-0.284495 -0.0557509 0.340615 -0.0182931 -0.998646 0.0486994
0.00108875 -0.0288918 0.211887 -0.471932 -0.873533 -0.119246
0.481546 -0.0508874 0.31431 0.0747576 0.964809 0.252102
-0.023443 -0.0560387 0.389155 0.0155695 -0.998396 0.0544338
0.0136717 -0.0977424 0.48615 -0.999802 0 0.0199174
-0.240884 -0.0433933 0.3456 -0.0271114 0.999208 0.0291248
-0.00501773 -0.104304 0.429192 0.999954 0 -0.00963795
-0.242824 -0.0562324 0.345214 -0.0105299 -0.999933 0.00479253
-0.00519969 -0.117184 0.370213 0 -1 0
-0.00957763 -0.11593 0.483435 0.999802 0 -0.0199068
-0.465239 -0.0539846 0.309137 -0.0110505 -0.999823 0.0152186
0.0409832 -0.0647219 0.429524 0.997379 0.0653247 -0.0310975
-0.466715 -0.0486977 0.288535 -0.00106815 0.990576 -0.136958
0.0047 0.0255741 0.137254 0.976891 0.159979 0.141745
0.286789 -0.0447516 0.315494 7.08862e-05 0.989514 -0.144436
-0.26003 -0.0549824 0.31265 0.00369651 -0.993321 -0.115328
0.0192726 -0.0559716 0.332347 -0.0199929 -0.99966 -0.0167125
0.112887 -0.0305224 0.089236 -0.0830313 0.99637 0.0187858
-0.0260829 -0.071735 0.131676 -0.976029 0.124446 -0.178553
-0.0351445 -0.111871 0.413014 -0.902731 -0.42998 0.0139368
-0.170352 -0.0566795 0.342568 0.000416768 -0.999906 -0.0136793
-0.405975 -0.0534241 0.294764 0.00475948 -0.992298 -0.123779
-0.0119558 -0.048349 0.0685324 -0.989758 -0.0108173 -0.142346
0.00411934 -0.00888146 0.061231 0.987526 -0.036938 -0.153062
0.0420536 -0.0472889 0.103006 0.127257 -0.990179 -0.0578911
-0.12116 -0.0435755 0.317569 -0.00643547 0.981569 -0.190998
-0.0322644 -0.0505234 0.213398 -0.879567 0.466573 -0.0931277
0.199983 -0.0553993 0.380638 0.0538197 -0.977214 0.20532
-0.442888 -0.0533199 0.292508 0.00475948 -0.992298 -0.123779
-0.0384104 -0.064988 0.405083 -0.997851 0.0653556 0.00466434
0.021332 -0.0650023 0.589913 0.133762 0.966898 0.217291
0.0464965 -0.0338923 0.404041 0.0720576 0.993675 0.0861227
0.172975 -0.0506379 0.281198 -0.00390351 0.986671 -0.162684
-0.00494932 -0.1043 0.457858 1 0 0
-0.0413473 -0.0364896 0.106807 0.0869419 0.996213 -0.00101155
-0.00482277 0.0277145 0.073546 -0.997386 -0.00764427 -0.0718511
-0.249771 -0.044485 0.354197 -0.0435204 0.993295 0.107101
-0.00417034 -0.00275227 0.0677308 -0.997386 -0.00764427 -0.0718511
-0.014203 -0.0317267 0.431297 -0.390238 0.920213 -0.0303875
0.00371477 -0.0931912 0.53765 0 -0.849914 -0.526922
-0.032269 -0.0946452 0.532664 1.4292e-05 -0.998796 -0.0490561
0.122107 -0.0304322 0.0949554 0.0875299 0.910157 0.404911
0.040875 -0.081061 0.358982 0.999903 -0.0138926 0.000867384
-0.0908638 -0.0335912 0.0440997 0.0972737 0.993093 -0.0656011
0.457628 -0.0501225 0.318475 0.0747576 0.964809 0.252102
0.0153683 -0.027875 0.474947 0.209464 0.975002 -0.074135
0.0343162 -0.0908805 0.420272 -0.0187675 -0.999703 -0.0155175
-0.0375194 -0.102953 0.420462 -0.994924 -0.099445 0.0153601
0.0422538 -0.0444978 0.0691111 0.0825592 -0.958471 -0.272979
-0.00559715 -0.112007 0.371004 0.999954 0 -0.00963796
-0.302355 -0.0551364 0.312574 0.00396264 -0.993052 -0.117611
0.102487 -0.0382619 0.34715 0.0205506 0.987651 -0.155319
0.05629 -0.0568381 0.375201 0.000818967 -0.99999 -0.00429342
0.0272269 -0.0410252 0.225645 0.676592 0.73267 -0.0736143
-0.399262 -0.0468227 0.310677 -0.0203248 0.999787 -0.00348697
0.426175 -0.0477816 0.314735 0.0545436 0.985625 0.159902
-0.0360335 -0.0603731 0.223922 -0.966058 0.157706 -0.204598
0.0405067 -0.0938775 0.348408 0.998262 -0.0589383 0
-0.0366754 -0.0625887 0.230322 -0.986574 0.161056 -0.0270581
-0.00206664 -0.00411328 0.0533134 -0.987526 -0.0369381 -0.153063
-0.308475 -0.054232 0.304719 0.00356384 -0.993147 -0.116821
-0.0346601 -0.0473439 0.280324 -0.875502 0.483124 -0.00935405
-0.144083 -0.0278463 0.0543767 0.0913242 0.994689 -0.0474737
-0.038761 -0.0677324 0.313045 -0.996961 0.0778352 0.00312644
-0.201162 -0.0564815 0.357953 -0.0202821 -0.998282 0.054976
0.04055 -0.0646861 0.415705 0.997379 0.0653247 -0.0310975
0.0201834 -0.0551913 0.113144 0.911529 0.375562 -0.167536
-0.0334707 -0.0449101 0.312826 -0.841418 0.540341 -0.00686384
-0.117012 -0.0487085 0.292087 6.34529e-05 -0.986665 0.162767
0.00798616 0.0123779 0.129149 0.996278 0.0693619 -0.051171
-0.182904 -0.0558714 0.376799 -0.0159821 0.99986 -0.00497557
0.163165 -0.049689 0.287032 -0.00195422 0.974885 -0.222702
-0.0215656 -0.0901612 0.380701 0.0127756 -0.999785 -0.0163384
0.0379119 -0.11036 0.375957 0.949933 -0.312455 0
0.222272 -0.0563033 0.353401 0.0202824 -0.998282 0.0549779
0.00599474 0.0488879 0.0893779 0.999343 0.0196752 -0.030453
0.465799 -0.0535066 0.293901 0.0105149 -0.999903 -0.00915381
-0.0326144 -0.112365 0.529338 -0.895273 -0.442721 0.0498467
0.0445335 -0.0448126 0.309406 0.00461013 0.974712 -0.223416
-0.124412 -0.0543545 0.31394 -0.00533104 0.994969 0.100038
-0.0146041 -0.0625151 0.328084 0 0 -1
-0.00746456 -0.0309912 0.211432 -0.21416 0.97617 0.0350457
0.222339 -0.0550353 0.314314 -0.00369648 -0.993321 -0.115328
0.000367965 -0.0125762 0.182173 0.999992 -0.0039744 8.67159e-05
0.321932 -0.0551016 0.31162 -0.0040398 -0.992998 -0.118061
-0.00639537 -0.0582888 0.0473116 -0.933056 -0.319726 -0.164872
0.0408683 -0.0805227 0.388382 0.99993 -0.0118148 0.000342582
0.123719 -0.0302139 0.0483451 -0.0962848 0.993974 -0.0523943
-0.00210577 -0.0840742 0.328084 0 0 -1
-0.317209 -0.0505392 0.278269 0.00392291 0.988541 -0.150899
0.00763911 -0.099139 0.159211 0 -0.983325 -0.181859
-0.0299592 -0.0916305 0.457558 0.0110827 0.998722 0.0493201
0.0420944 -0.0587309 0.524872 0.996572 0.0258662 0.0785846
0.00994837 -0.0286602 0.0994731 0.127401 0.991219 0.0354067
-0.0332743 -0.0444553 0.515141 -0.898193 0.439565 -0.00564572
0.00168044 -0.10791 0.478501 0 1 0
-0.18167 -0.054 0.307363 -0.00533104 0.994969 0.100038
0.0402975 -0.0974207 0.350916 0.998262 -0.0589383 0
0.0361906 -0.113459 0.369368 0.733903 -0.679254 -0.000176287
0.221839 -0.0558184 0.37037 0.0202057 -0.998392 0.0529694
-0.0387368 -0.0670529 0.28566 -0.998456 0.0555407 -0.000587401
-0.030439 -0.0414537 0.297442 -0.717846 0.696155 -0.00810099
0.0377511 -0.0494761 0.292604 0.923558 0.383409 -0.00613717
0.0543055 -0.044188 0.0771523 0.127754 -0.990077 -0.0585407
-0.0386304 -0.0904051 0.255661 -0.997763 -0.0658259 -0.0116495
0.375358 -0.0472053 0.298616 0.00106815 0.990576 -0.136958
0.11235 -0.0348132 0.0974853 0.250725 -0.922698 0.292859
0.147142 -0.0444432 0.313979 0.00655132 0.981691 -0.190366
-0.0292225 -0.0694182 0.328103 0 0 1
-0.475496 -0.048439 0.294854 -0.0228595 0.999713 0.00716548
0.00648553 -0.112492 0.427417 0 -1 0
0.283304 -0.0553544 0.351257 0.0110502 -0.999823 0.0152174
0.021311 -0.0994761 0.161549 0.0801144 -0.978899 -0.187983
-0.147029 -0.0413127 0.333644 -0.0205507 0.987651 -0.155319
0.0165734 -0.0643514 0.328084 0 0 -1
0.000918803 -0.11355 0.2477 0 -0.991943 -0.126682
0.230698 -0.0495817 0.286235 -0.00379942 0.986669 -0.162698
-0.0314275 -0.0939464 0.518738 0 0.999458 0.0329244
-0.309128 -0.0530455 0.294789 0.00372443 -0.992772 -0.119956
0.383304 -0.0524369 0.28745 -0.00372441 -0.992772 -0.119956
0.0938954 -0.0323733 0.059992 -0.0958632 0.993097 -0.067596
-0.242865 -0.0457023 0.309914 -0.00213564 -0.986826 0.161771
-0.0505679 -0.0567528 0.35317 -0.000186385 -0.999997 -0.00248717
0.0976169 -0.0482047 0.295133 -6.42329e-05 -0.986665 0.162767
0.0231032 -0.0511996 0.139624 0.843774 0.511252 -0.163302
0.011248 -0.115249 0.609587 0.217369 -0.947191 0.235753
-0.0999497 -0.0566658 0.37226 -0.0113921 -0.99774 0.0662269
0.040335 -0.0913234 0.441522 -0.0187675 -0.999703 -0.0155175
-0.0369656 -0.101999 0.462517 -0.994924 -0.099445 0.0153601
-0.0129675 -0.117183 0.524814 0 -1 0.000104242
0.404109 -0.0543696 0.311636 -0.00388712 -0.997573 -0.0695185
-0.00628632 -0.101227 0.170513 -0.00114374 -0.983376 -0.181576
-0.167775 -0.0421588 0.329479 0.0155654 -0.998234 0.0573261
-0.00596748 -0.107074 0.331828 1 0 0
0.00315076 0.0712203 0.0356512 0.987526 -0.036938 -0.153062
0.0149421 -0.117183 0.545644 9.19321e-05 -1 -1.65942e-05
0.0413247 -0.102924 0.522353 0.991818 -0.123754 0.0313234
0.382002 -0.0545326 0.309715 0.0105149 -0.999903 -0.00915381
0.00627099 0.0429026 0.0945765 0.999343 0.0196752 -0.030453
-0.481202 -0.0498243 0.279295 0.00250314 0.990354 -0.138534
-0.00584095 -0.0980167 0.34571 0.999954 0 -0.00963796
-0.0867679 -0.0548543 0.320917 -0.00533104 0.994969 0.100038
-0.037559 -0.0931062 0.469029 -0.998005 -0.062866 0.00581912
0.0401447 -0.0914985 0.451309 -0.0130161 -0.999793 -0.0156561
0.033115 -0.077393 0.176287 0.975337 0.140951 -0.169855
-0.0133617 -0.105154 0.624023 -0.690945 -0.534423 0.486813
0.0190963 -0.0376661 0.115914 0.992707 0.00550522 -0.120426
0.0399257 -0.0614669 0.263785 0.994786 0.0553366 -0.0856693
0.0637351 -0.0345694 0.39743 0.0720576 0.993675 0.0861227
-0.123853 -0.0507384 0.281743 0.00385587 0.98667 -0.162691
-0.117406 -0.038226 0.388182 -0.0966691 0.990268 0.100122
0.14006 -0.0510405 0.28232 -0.00234124 -0.995225 -0.0975744
0.0322152 -0.0410851 0.308895 0.717844 0.696157 -0.00809978
0.0193243 -0.116839 0.581249 0.133443 -0.991056 0.000768224
-0.00224684 0.0864516 0.0326203 -0.987526 -0.0369381 -0.153063
-0.211306 -0.042454 0.339905 -0.0263 0.999654 -0.000518746
-0.07427 -0.0340083 0.107872 0.0830307 0.99637 0.0187858
-0.105352 -0.047681 0.298172 -0.00455446 0.974713 -0.223413
0.155033 -0.0554564 0.322246 0.00857657 0.993227 0.115877
-0.357259 -0.0460859 0.326269 -0.0420326 0.993438 0.106373
0.0345275 -0.0567696 0.372427 -0.0155924 -0.999868 -0.00449299
-0.000995758 0.108891 0.0164824 -0.993887 -0.0310324 -0.105951
-0.00606358 -0.1116 0.232431 0 -0.991943 -0.126682
0.0194122 -0.0948813 0.540869 0 -1 0
-0.00335573 0.0778026 0.0523082 -0.999459 0.0222325 -0.0242267
0.00799286 -0.00572627 0.102797 0.976202 0.215028 0.0281577
0.0328931 -0.0514459 0.206039 0.982659 0.0958205 -0.158742
0.308877 -0.0553467 0.314646 0.0105149 -0.999903 -0.00915381
-0.0249838 -0.0910439 0.432164 0.0126463 -0.999789 -0.0161731
-0.0294691 -0.040564 0.282548 -0.730936 0.682428 -0.00505503
0.144628 -0.0399456 0.349957 -0.0419093 -0.998971 -0.0173563
0.153751 -0.0567024 0.345317 0.000384222 -0.999997 -0.00248717
0.0680981 -0.0529712 0.30374 -0.00234124 -0.995225 -0.0975744
0.0585109 -0.0444627 0.090975 0.127754 -0.990077 -0.0585407
0.0148551 -0.0931086 0.493305 0 0.999458 0.0329244
0.041897 -0.0988382 0.516211 0.999818 -0.0130325 -0.0139529
0.0415463 -0.0463303 0.0855687 0.127541 -0.990107 -0.0584989
-0.0194011 -0.0731741 0.590483 0 0 1
0.0996411 -0.0317583 0.0608802 -0.0958632 0.993097 -0.067596
0.00899942 -0.0265067 0.539517 1 -0.000242771 -4.85523e-05
0.00413517 -0.107891 0.495182 0 1 0
-0.0186622 -0.0911262 0.44219 0.0126463 -0.999789 -0.0161731
-0.0347571 -0.0424097 0.0598159 -0.082559 -0.958471 -0.272979
-0.0108413 -0.0557693 0.392819 -0.000960861 -0.998516 0.0544403
0.445882 -0.0522222 0.283712 -0.00377394 -0.992772 -0.119956
-0.156874 -0.0563682 0.366952 -0.0113921 -0.99774 0.0662269
0.0108011 -0.0421364 0.053051 0.989759 -0.0108056 -0.14234
0.013946 -0.10413 0.499921 -0.999802 0 0.0199174
-0.0158821 -0.0286464 0.491507 -0.428877 0.903106 -0.0215231
0.0175066 -0.0328353 0.371366 0.0241638 0.990325 -0.136651
-0.0376514 -0.0812649 0.475501 -0.999876 0.0030879 0.0154555
-0.422668 -0.0540566 0.30444 -0.0105149 -0.999903 -0.00915381
-0.269856 -0.0552649 0.314759 0.00398493 -0.99305 -0.117622
0.341835 -0.0531987 0.295018 -0.00399806 -0.992366 -0.123263
-0.439378 -0.0488703 0.286622 -0.00245423 0.995598 -0.0936926
0.0331254 -0.0967108 0.179379 0.902632 -0.381586 -0.199119
-0.22839 -0.0563869 0.338222 -0.0101371 -0.999905 -0.00934141
0.0155845 -0.0914552 0.631052 0.72832 0.368882 0.577474
0.0374986 -0.0447037 0.540575 0.882318 0.439384 0.168688
0.0410345 -0.101275 0.478084 0.988643 -0.149403 -0.0162244
0.00382102 0.104475 0.0539596 0.999343 0.0196752 -0.030453
0.0413792 -0.0565431 0.491738 0.991677 0.124914 -0.0311982
-0.0370795 -0.10447 0.258511 -0.977248 -0.210257 -0.0279066
0.178445 -0.0566807 0.351756 0.00194564 -0.999994 0.00275247
0.00802888 -0.100474 0.340417 -0.999954 0 0.00963805
-0.340104 -0.0476646 0.343487 -0.0595564 0.980593 0.186791
0.0250067 -0.0340186 0.410002 5.94878e-05 3.52017e-05 1
0.00748958 -0.045528 0.410002 0 0 -1
0.0985368 -0.0348549 0.105957 0.3132 -0.809165 0.49715
0.00874261 -0.0980049 0.518927 0 0 1
0.369885 -0.0520225 0.284437 -0.00372441 -0.992772 -0.119956
-0.0978665 -0.0562165 0.379388 -0.0113921 -0.99774 0.0662269
0.00800929 -0.0946138 0.338383 -0.999954 0 0.00963805
0.217441 -0.0534245 0.300663 -0.00300309 -0.993301 -0.115517
-0.0167516 -0.0500061 0.0959691 -0.127402 -0.990187 -0.0574275
0.00455038 -0.00456263 0.0629697 0.987526 -0.036938 -0.153062
0.00702751 0.0155243 0.101713 0.999343 0.0196752 -0.030453
-0.102169 -0.0318775 0.0541205 0.0958622 0.993097 -0.0675975
-0.0342381 -0.0475388 0.47062 -0.916424 0.398689 -0.0348477
0.00874824 -0.102709 0.413122 -0.999954 0 0.00963805
-0.00328049 -0.0710315 0.057191 -0.599753 -0.707931 -0.373002
0.0131384 -0.0342209 0.360552 0.0241638 0.990325 -0.136651
-0.0387624 -0.0903868 0.291672 -0.997809 -0.0661414 0.00153717
-0.00508933 0.0479371 0.0919947 -0.999343 0.019675 -0.0304534
-0.0380071 -0.0905241 0.394656 0 -0.999764 -0.0217205
0.113142 -0.0347391 0.0970408 0.250725 -0.922698 0.292859
0.0223758 -0.0948999 0.547889 0 -1 0
-0.00252293 -0.0552571 0.402457 -0.000960913 -0.998571 0.0534342
0.097499 -0.031973 0.0981583 -0.0830313 0.99637 0.0187858
0.0195059 -0.0948999 0.572299 0 -1 0
-0.00712105 -0.0821741 0.0870497 -0.0972865 -0.933913 -0.344009
-0.00811132 -0.0438101 0.410039 0 0 1
-0.00735891 0.00831039 0.130968 -0.996278 0.0693634 -0.0511716
0.491662 -0.0489171 0.299396 0.0545436 0.985625 0.159902
0.148551 -0.0440604 0.316054 0.00547851 0.980773 -0.195074
-0.198488 -0.0562219 0.325586 -0.00904238 0.993195 0.11611
0.141237 -0.0393463 0.37258 0.0745897 0.997175 0.00882581
0.296837 -0.0555468 0.322681 0.0105149 -0.999903 -0.00915381
-0.192906 -0.0466172 0.304598 -0.00455446 0.974713 -0.223413
-0.128979 -0.0331701 0.0558713 -0.127557 -0.99008 -0.0589095
0.00360527 0.0885719 0.036236 0.997386 -0.00764439 -0.0718514
0.000817143 -0.0550748 0.405923 -0.000960913 -0.998571 0.0534342
0.00246936 0.0229298 0.14323 0.658164 0.522264 0.542274
-0.0854218 -0.0349089 0.113385 -0.319521 -0.79449 0.516423
-0.0321149 -0.0948813 0.560691 0 -1 0
-0.037951 -0.0675633 0.24722 -0.986574 0.161056 -0.0270581
0.00432718 0.0773941 0.0505962 0.999459 0.0222323 -0.0242271
0.00476555 -0.117184 0.51014 0 -1 0
0.00218884 -0.112492 0.373466 0 -1 0
0.271659 -0.0446972 0.315859 7.08862e-05 0.989514 -0.144436
0.0317337 -0.0836214 0.328103 0 0 1
0.0163912 -0.117184 0.397197 0 -1 0
0.210134 -0.0565939 0.341615 0.0105299 -0.999933 0.00479253
-0.114852 -0.0304269 0.0948218 0.0624386 0.995777 0.0672972
0.00892443 -0.0970421 0.43333 -0.999954 0 0.00963805
-0.327857 -0.0502524 0.279871 0.00392291 0.988541 -0.150899
-0.421726 -0.0516701 0.279903 0.00377394 -0.992772 -0.119956
-0.471959 -0.0538534 0.313372 -0.013812 -0.999546 0.0267667
0.443322 -0.0524577 0.325601 0.216415 0.526462 0.822194
-0.0939547 -0.0545597 0.397432 -0.0162173 -0.992671 0.119759
-0.00658155 -0.0899545 0.386516 0.0169241 -0.99975 -0.0145857
-0.195472 -0.0485814 0.292888 6.34529e-05 -0.986665 0.162767
-0.016612 -0.0291098 0.485911 -0.415443 0.909406 -0.0196936
-0.100015 -0.042187 0.323261 0.010724 -0.977966 0.208487
-0.0064703 -0.0761714 0.617785 -0.298466 0.835035 0.462206
0.0284806 -0.0685813 0.328084 0 0 -1
-0.105336 -0.037075 0.0918497 -0.186912 -0.974374 0.125138
-0.106842 -0.0427156 0.321181 0.00913007 -0.974644 0.223575
0.0396552 -0.0456076 0.125015 0.186914 -0.974373 0.125138
-0.20199 -0.0458978 0.308763 -0.013398 0.987107 -0.159503
-0.169402 -0.0564097 0.3642 -0.00746165 -0.99851 0.0540599
0.103646 -0.038151 0.0826457 0.127506 -0.990106 -0.0585922
0.168513 -0.0516265 0.287499 -0.00622428 -0.993338 -0.115067
0.0116084 -0.0674566 0.0704865 0.943821 -0.142931 -0.297947
0.0362973 -0.108403 0.557943 0.931387 -0.332669 0.147816
-0.293556 -0.0455063 0.345947 -0.0545438 0.985625 0.159902
0.0394357 -0.0712784 0.559553 0.988068 0.132439 0.0786193
-0.369851 -0.0546494 0.334728 -0.0110505 -0.999823 0.0152186
-0.280867 -0.0540626 0.304128 0.00360919 -0.993148 -0.116809
-0.0148317 -0.0307477 0.117115 -0.129517 0.983134 0.129125
0.432639 -0.0519989 0.282281 -0.00377394 -0.992772 -0.119956
-0.0401791 -0.0365889 0.0762742 0.0833609 0.996519 -0.00130231
0.231508 -0.0545338 0.376494 0.0538197 -0.977214 0.20532
-0.00836657 -0.0047388 0.132899 -0.996278 0.0693634 -0.0511716
-0.0104003 -0.085618 0.626173 -0.63556 0.479178 0.605353
0.0934138 -0.0523786 0.297088 -0.00234124 -0.995225 -0.0975744
0.489063 -0.0500664 0.27731 0.00591007 -0.99034 0.138532
-0.0294323 -0.0846062 0.58753 -0.000494541 -0.384872 0.92297
0.432317 -0.0542643 0.313159 0.0092314 -0.999934 0.00683746
-0.151051 -0.0398663 0.368001 -0.0752904 0.994121 0.077807
-0.0202038 -0.0562517 0.384321 0.0155695 -0.998396 0.0544338
0.01733 -0.0556771 0.395483 0.000951711 -0.998521 0.0543558
0.00417253 -0.0304736 0.255811 0.0488621 0.998806 -3.57845e-05
0.0316301 -0.116619 0.339219 0.306609 -0.951836 0
-0.037326 -0.0541561 0.311 -0.972809 0.231561 -0.00472642
-0.0250559 -0.0565797 0.362939 0.0227443 -0.999694 -0.00968101
-0.0633486 -0.052066 0.405749 -0.156952 2.54727e-06 0.987606
-0.0356176 -0.0940037 0.198182 -0.993345 -0.0728385 -0.0892237
-0.413175 -0.0498639 0.280241 0.00250314 0.990354 -0.138534
-0.282898 -0.0540952 0.304343 0.00360919 -0.993148 -0.116809
-0.0350139 -0.0503031 0.424713 -0.867863 0.496714 0.00948229
-0.0320018 -0.0472092 0.122951 -0.192469 -0.971747 0.136615
0.00976792 -0.0846607 0.630902 0.291334 0.743047 0.602499
-0.018034 -0.090347 0.394831 0.0127756 -0.999785 -0.0163384
0.0413999 -0.0832936 0.546436 0.996299 0.0297394 0.0806438
-0.00659189 -0.029292 0.114296 -0.129517 0.983134 0.129125
-0.126242 -0.0411555 0.331893 -0.0205507 0.987651 -0.155319
0.24206 -0.0546113 0.31003 -0.00369648 -0.993321 -0.115328
0.0245594 -0.0907303 0.422315 -0.017716 -0.999741 -0.0142517
-0.0273869 -0.0915718 0.457357 0.00526745 0.998777 0.0491665
-0.195458 -0.0420136 0.346187 -0.042333 0.998951 0.0174464
-0.0370766 -0.106191 0.411801 -0.979733 -0.199734 0.0151255
-0.389972 -0.0488464 0.287352 0.00229377 0.988612 -0.150469
0.00678216 -0.117184 0.37127 0 -1 0
-0.0285522 -0.0907911 0.418314 0.0182351 -0.999701 -0.0162636
0.483125 -0.0486349 0.297848 0.0228595 0.999713 0.00716548
0.436944 -0.047635 0.297391 0.0203248 0.999787 -0.00348697
-0.00350935 -0.0660785 0.0495373 -0.817441 -0.468375 -0.335284
0.00740752 -0.0311599 0.222615 0.214162 0.976169 0.0350461
-0.112934 -0.0525915 0.298764 0.00231262 -0.995225 -0.0975761
-0.0381125 -0.0593573 0.380263 -0.994421 0.105434 0.0033361
0.213865 -0.0547434 0.380121 0.0538197 -0.977214 0.20532
0.116983 -0.0374571 0.370188 0.0752903 0.994121 0.0778069
0.0408353 -0.0811994 0.309176 0.999941 -0.00890291 0.00627959
0.131379 -0.0290247 0.0572525 -0.0869519 0.996021 -0.019525
-0.327903 -0.0552723 0.333384 -0.01922 -0.998606 0.0491587
0.0837466 -0.0331819 0.101877 -0.0754713 0.996575 0.0337901
0.00271163 -0.0884989 0.585919 8.40808e-06 -0.384262 0.923224
0.0402691 -0.0935025 0.504711 0 -0.999458 -0.0329108
0.0892552 -0.0391009 0.06738 0.127586 -0.990094 -0.058608
-0.123698 -0.0479542 0.296662 6.34529e-05 -0.986665 0.162767
0.00653244 -0.0350814 0.410039 0 0 1
0.0198875 -0.0337809 0.412461 0.378239 0.924193 -0.052946
0.0026455 0.0622706 0.0345511 0.987526 -0.036938 -0.153062
-0.0359485 -0.0530817 0.256351 -0.973816 0.217015 -0.067734
-0.0881162 -0.0567771 0.365764 -0.000186385 -0.999997 -0.00248717
-0.306647 -0.055442 0.322503 -0.0105149 -0.999903 -0.00915381
-0.254685 -0.0443096 0.318506 -7.08872e-05 0.989514 -0.144436
-0.13117 -0.0389706 0.382862 -0.0992423 0.986271 0.131988
-0.152758 -0.0556973 0.377703 -0.0210552 -0.992581 0.119748
-0.0635954 -0.0354203 0.0569316 0.0971647 0.993171 -0.064585
0.0365226 -0.112984 0.354365 0.837929 -0.545779 -0.000201275
0.00681398 -0.0302997 0.460955 0.999994 0.000967125 0.00318298
-0.0264808 -0.0354525 0.499664 -0.730554 0.68272 -0.0135352
-0.314944 -0.0549292 0.3104 0.00396264 -0.993052 -0.117611
0.0170943 -0.0319213 0.146655 0.615058 0.764165 -0.194309
-0.0474596 -0.0419134 0.0619148 -0.082559 -0.958471 -0.272979
0.49406 -0.0488346 0.290831 0.0228595 0.999713 0.00716548
-0.21078 -0.0485371 0.383365 -0.0884561 0.945113 0.314541
0.00774557 0.0170372 0.125316 0.999291 0.0202601 -0.0317288
0.00023197 -0.0300758 0.389074 -0.0900427 0.992701 -0.0802345
-0.00393697 0.0116127 0.143293 -0.97773 -0.00629529 0.209771
0.10461 -0.0377631 0.0893145 0.192201 -0.97185 0.136254
0.0414158 -0.0962423 0.479304 0.999818 -0.0130325 -0.0139529
-0.198036 -0.053285 0.300213 0.00614942 -0.993338 -0.115077
0.278263 -0.0556192 0.317476 -0.00381009 -0.993328 -0.115265
0.0416207 -0.0921166 0.469712 0.999553 -0.0289387 0.00749842
-0.0369936 -0.0991606 0.222087 -0.983129 -0.158034 -0.0921056
-0.0255892 -0.111042 0.22928 -0.0495744 -0.990624 -0.127301
-0.128316 -0.0562491 0.373659 -0.0113921 -0.99774 0.0662269
0.091401 -0.0391963 0.339723 0.0213713 0.987634 -0.155316
0.100897 -0.0559985 0.334193 -0.00862228 -0.998521 -0.0536811
-0.147353 -0.0311987 0.0747736 -0.188471 -0.974162 0.124449
-0.0210329 -0.0488766 0.0861263 -0.127568 -0.9901 -0.0585506
0.028979 -0.0337 0.49659 0.655687 0.75388 -0.0417168
-0.0194879 -0.0907852 0.428115 0.0182351 -0.999701 -0.0162636
-0.0230021 -0.117184 0.420702 0 -1 0
0.42765 -0.0539884 0.302713 0.0105149 -0.999903 -0.00915381
0.038828 -0.0673518 0.23519 0.985753 0.160922 -0.0489337
0.341096 -0.0476647 0.343147 0.0373386 0.994707 0.0957271
0.288955 -0.0458551 0.349533 0.056315 0.984172 0.168028
-0.0349208 -0.092946 0.487812 0 -0.999458 -0.0329108
-0.00628403 -0.0635951 0.588335 0.0356378 -0.999265 -0.0141521
0.0879958 -0.0333159 0.0545108 -0.0958632 0.993097 -0.067596
0.162119 -0.056713 0.350865 0.000384222 -0.999997 -0.00248717
-0.00550279 -0.0981096 0.378866 0.999954 0 -0.00963795
0.422172 -0.0543403 0.315746 0.0092314 -0.999934 0.00683746
-0.444481 -0.0489201 0.315865 -0.0373386 0.994707 0.0957271
0.0214981 -0.0374376 0.177327 0.732094 0.681203 0
0.0412397 -0.0701767 0.420653 0.999646 -0.0113958 -0.0240544
-0.350385 -0.0549448 0.318433 -0.0105149 -0.999903 -0.00915381
-0.0629632 -0.0517196 0.291055 0.00231262 -0.995225 -0.0975761
-0.0779674 -0.0362118 0.359873 -0.0386814 0.995421 -0.0874155
-0.0198765 -0.0892376 0.335438 0 -0.999764 -0.0217205
0.00807094 -0.106142 0.34478 -0.999954 0 0.00963805
0.0405021 -0.0940076 0.374806 0.997855 -0.0654519 -0.00082396
0.0414028 -0.0604306 0.447785 0.998161 0.0495086 -0.0349807
0.353371 -0.0464135 0.330865 0.0420335 0.993437 0.106377
-0.0379689 -0.100805 0.378736 -0.992305 -0.123815 0
0.00845033 0.00301597 0.125497 0.996278 0.0693619 -0.051171
0.212397 -0.0464436 0.376757 0.0907701 0.94269 0.321086
-0.0278728 -0.0929229 0.594285 -0.951252 -0.051733 0.304044
0.0120906 -0.117182 0.57384 -0.00308983 -0.999995 0.000557731
0.0151375 -0.037972 0.0841352 0.990469 0.000699946 -0.137734
0.119144 -0.0402787 0.336529 0.0205506 0.987651 -0.155319
0.0235452 -0.116334 0.274291 0.00489296 -0.999875 -0.0150336
-0.0382684 -0.0602239 0.36118 -0.994421 0.105434 0.0033361
0.00679006 -0.0991958 0.159518 0 -0.983325 -0.181859
0.0387263 -0.111932 0.511979 0.915814 -0.401413 -0.0123365
-0.138413 -0.0435114 0.318529 -0.00547852 0.980773 -0.195074
-0.0129536 -0.117068 0.323913 0 -0.99991 -0.0134019
-0.168226 -0.052719 0.29692 0.00614942 -0.993338 -0.115077
0.0399871 -0.0556867 0.550515 0.979719 0.150556 0.132222
0.320751 -0.0511426 0.278356 -0.00300309 -0.993301 -0.115517
-0.117739 -0.0299031 0.0687182 0.0869508 0.996021 -0.019525
0.0160475 -0.052824 0.0906031 0.990469 0.000699946 -0.137734
-0.0389354 -0.0719051 0.411116 -0.99972 -0.0118125 0.0205168
-0.144066 -0.0452289 0.400682 -0.157199 0.904717 0.395949
0.0201568 -0.0892972 0.338183 0 -0.999764 -0.0217205
-0.0233946 -0.117184 0.449615 0 -1 0
-0.0300071 -0.116496 0.342847 -0.306609 -0.951836 0
0.0321032 -0.0562553 0.346752 -0.0226995 -0.997723 -0.0635095
-0.00712017 -0.114331 0.253856 -0.00513601 -0.991937 -0.126624
-0.00800126 -0.0688224 0.0643219 -0.817441 -0.468375 -0.335284
-0.101457 -0.0558144 0.330678 0.00862229 -0.998521 -0.0536811
0.0353829 -0.0632589 0.213886 0.966058 0.157706 -0.204598
-0.0118772 -0.0449254 0.0617284 -0.0825784 -0.958457 -0.273022
-0.309817 -0.0551922 0.342657 -0.0110505 -0.999823 0.0152186
-0.0364625 -0.10369 0.239186 -0.944842 -0.324482 -0.0445589
-0.193843 -0.0418945 0.343287 -0.042333 0.998951 0.0174464
0.0158573 -0.0264094 0.525355 0.299753 0.952983 0.0444119
0.347812 -0.0506313 0.349571 0.216415 0.526462 0.822194
-0.0334447 -0.0474645 0.0892906 -0.127568 -0.9901 -0.0585506
0.486139 -0.0508157 0.272079 0.00591007 -0.99034 0.138532
0.184486 -0.0505018 0.392796 0.239559 0.533826 0.810951
-0.0358574 -0.0679324 0.549167 -0.975145 -0.158882 0.154434
-0.104302 -0.0386529 0.344904 -0.0205507 0.987651 -0.155319
-0.21807 -0.0487001 0.291889 0.00378298 0.986745 -0.162238
-0.149794 -0.0559293 0.326687 -0.00857658 0.993227 0.115877
0.0414367 -0.0550894 0.39982 0.013581 -0.988455 0.150902
-0.0665745 -0.038512 0.119503 -0.319521 -0.79449 0.516423
-0.371485 -0.0547276 0.327536 -0.00923144 -0.999934 0.00683747
-0.0383718 -0.0897622 0.230364 -0.99723 -0.0731234 -0.0136022
-0.00792066 -0.00596495 0.122555 -0.996278 0.0693634 -0.0511716
-0.156925 -0.0527411 0.395247 -0.0025711 -0.980154 0.198223
-0.0552238 -0.0537526 0.31188 0.00614942 -0.993338 -0.115077
0.138341 -0.0286094 0.0873489 0.0875299 0.910157 0.404911
-0.00467635 -0.104162 0.635957 -0.386558 -0.619998 0.68277
0.138683 -0.0567078 0.345598 -0.000416774 -0.999906 -0.0136794
0.0055972 -0.11118 0.44516 0 -0.988943 0.148297
0.00648215 0.0335415 0.0954576 0.999343 0.0196752 -0.030453
-0.24389 -0.0562416 0.340958 -0.0105299 -0.999933 0.00479253
-0.00588693 -0.0999158 0.339011 0.999954 0 -0.00963795
0.0768388 -0.0548563 0.397379 0.0167952 -0.992661 0.119758
0.00613653 -0.0356667 0.416312 0.999491 -8.90495e-05 -0.0319016
0.00816176 -0.0988772 0.354203 -0.999954 0 0.00963805
0.021805 -0.0350513 0.253618 0.402601 0.914231 -0.0457747
-0.00479974 -0.0302633 0.197915 -0.156697 0.987637 0.00429336
-0.038984 -0.0762686 0.291766 -0.999941 -0.00890291 0.00627959
0.0408206 -0.0559338 0.481321 -0.9822 -0.115327 0.148266
-0.0354963 -0.0950137 0.546712 -0.849337 -0.522118 0.07759
0.0171648 -0.0897581 0.361147 -0.0133737 -0.999781 -0.0160863
-0.108401 -0.0367403 0.369333 -0.0752904 0.994121 0.077807
0.0256399 -0.0361822 0.410002 5.4515e-05 7.71669e-05 1
0.0757634 -0.0501022 0.28599 -0.00195422 0.974885 -0.222702
0.112737 -0.0334537 0.0493019 0.0873896 -0.98555 -0.145099
-0.108075 -0.0370164 0.0752948 -0.127505 -0.990106 -0.0585945
-0.0052116 -0.102078 0.409077 0.999954 0 -0.00963795
0.290523 -0.044545 0.32659 0.0263 0.999654 -0.000518746
-0.0946367 -0.0465967 0.302684 -0.00455446 0.974713 -0.223413
-0.0219634 -0.0914356 0.61178 -0.86428 0.21766 0.453479
-0.153802 -0.0403006 0.348233 0.0419091 -0.998971 -0.017359
0.0146694 -0.117184 0.465631 0 -1 0
-0.0371497 -0.0563007 0.263307 -0.973816 0.217015 -0.067734
0.125187 -0.0298522 0.0525071 -0.0962848 0.993974 -0.0523943
0.00604222 0.0351122 0.0820358 0.999343 0.0196752 -0.030453
-0.247167 -0.0434025 0.330166 -0.0263 0.999654 -0.000518746
-0.0125043 -0.091444 0.454421 0 0.99905 0.0435822
0.322281 -0.055235 0.317841 0.0105149 -0.999903 -0.00915381
-0.0653628 -0.0545424 0.401069 -0.0157406 -0.990722 0.134993
-0.381108 -0.0546501 0.325882 -0.00923144 -0.999934 0.00683747
-0.17719 -0.056669 0.356904 -0.00194566 -0.999994 0.0027526
0.258033 -0.0480701 0.294788 -0.00378298 0.986744 -0.162238
-0.149947 -0.0513371 0.285092 0.00231262 -0.995225 -0.0975761
-0.295908 -0.0498423 0.283132 0.00379942 0.986668 -0.162698
-0.00728971 -0.0310359 0.166226 -0.178183 0.980479 0.0831416
-0.0353877 -0.111121 0.302675 -0.860609 -0.509203 -0.00798982
-0.0885247 -0.0365423 0.360781 -0.0386814 0.995421 -0.0874155
0.0094233 -0.0922357 0.584374 6.46945e-05 -0.384983 0.922924
0.3973 -0.0467799 0.311482 0.0203248 0.999787 -0.00348697
-0.0251964 -0.0370571 0.30248 -0.544982 0.838313 -0.0150545
0.0282626 -0.0936899 0.583757 0 -0.383148 0.923687
0.110195 -0.0369261 0.0761988 0.127506 -0.990106 -0.0585922
0.040169 -0.0490309 0.536512 0.963762 0.263496 0.0416208
-0.298456 -0.0556063 0.331033 -0.0105149 -0.999903 -0.00915381
-0.00155971 -0.0860277 0.0996485 -0.000106364 -0.967199 -0.254018
0.0117497 -0.096834 0.476266 -0.95817 0 0.286198
0.0447315 -0.0451834 0.0731017 0.127541 -0.990107 -0.0584989
-0.0024566 0.0999935 0.0355796 -0.999459 0.0222325 -0.0242267
-0.0754355 -0.0489902 0.290847 0.00193043 0.974884 -0.222703
-0.0152772 -0.0569801 0.0908813 -0.960321 0.273225 -0.0559564
0.000401734 -0.00425614 0.174082 -0.999992 0.0039744 -8.67168e-05
0.00899957 -0.0267696 0.530576 1 0 1.95926e-05
-0.281975 -0.0493987 0.365933 -0.0884087 0.945111 0.314562
-0.0322019 -0.0911652 0.434015 0.0126463 -0.999789 -0.0161731
0.109575 -0.0326215 0.0433979 0.0720335 -0.965564 -0.249997
0.00834551 -0.107506 0.373267 -0.999954 0 0.00963805
-0.0385289 -0.0936177 0.30424 -0.997809 -0.0661414 0.00153717
-0.00451485 0.0596121 0.0806856 -0.999343 0.019675 -0.0304534
-0.144045 -0.0546618 0.391907 -0.00927891 -0.991102 0.132782
0.0331237 -0.0423835 0.275506 0.730936 0.682428 -0.00505333
0.0109542 -0.0948999 0.56079 0 -1 0
0.0221408 -0.0901512 0.384694 -0.017716 -0.999741 -0.0142517
0.440163 -0.0477267 0.308204 0.0228595 0.999713 0.00716548
-0.00227182 -0.0284354 0.112107 -0.129517 0.983134 0.129125
0.0254984 -0.0385492 0.0666921 -0.0963844 0.992785 -0.0713237
-0.0428928 -0.0431966 0.316472 0.00913007 -0.974644 0.223575
0.27573 -0.0555562 0.347899 0.0182936 -0.998646 0.0487015
0.106875 -0.0550567 0.391081 0.0210551 -0.992581 0.119748
-0.0386746 -0.0660044 0.352707 -0.999006 0.0444487 0.00331773
-0.128215 -0.0333687 0.0575542 -0.127557 -0.99008 -0.0589095
0.117179 -0.0312196 0.0424698 -0.0972735 0.993093 -0.0656011
-0.0759296 -0.0567266 0.349659 0.00314803 -0.997991 -0.0632832
0.0319105 -0.0941994 0.523589 -1.4292e-05 -0.998796 -0.0490561
0.0329335 -0.0376238 0.11959 -0.0749756 0.996583 0.0346678
-0.0354094 -0.0904164 0.389699 0 -0.999764 -0.0217205
0.00132925 0.111434 0.0592283 0.711566 0.487263 0.506211
0.241129 -0.0445118 0.357809 0.0517865 0.987979 0.145659
0.349768 -0.0468455 0.301019 0.00106815 0.990576 -0.136958
0.0276637 -0.0670653 0.586519 0.575465 0.720597 0.386756
0.021336 -0.0747713 0.106137 0.951441 -0.144085 -0.272027
0.0575492 -0.0451458 0.100477 0.127586 -0.990094 -0.058608
0.117678 -0.0383289 0.388939 0.096669 0.990268 0.100122
-0.367505 -0.0547418 0.315918 -0.0105149 -0.999903 -0.00915381
0.384477 -0.0547514 0.321847 0.0192205 -0.998606 0.0491609
0.0284971 -0.0428887 0.0593009 0.0825592 -0.958471 -0.272979
-0.0871431 -0.056766 0.361237 -0.000186385 -0.999997 -0.00248717
-0.384041 -0.0518631 0.282678 0.00372443 -0.992772 -0.119956
0.00214509 -0.0303203 0.290163 0.0546957 0.998501 -0.00181559
-0.0231907 -0.037069 0.412 -0.576903 0.816603 -0.0184874
-0.0196158 -0.0346211 0.417569 -0.48872 0.872164 -0.0219628
-0.0262696 -0.0491437 0.102215 -0.127402 -0.990187 -0.0574275
0.0137708 -0.0317188 0.267856 0.250577 0.967872 -0.0208404
0.0315059 -0.0701181 0.166855 0.988155 0.144037 -0.05294
0.0264911 -0.0941226 0.522388 -4.94944e-06 -0.998798 -0.0490094
0.0378411 -0.04498 0.539503 0.882318 0.439384 0.168688
-0.101766 -0.0567533 0.357766 -0.000384219 -0.999997 -0.00248717
-0.08596 -0.0490288 0.290586 0.00193043 0.974884 -0.222703
0.00400736 0.0793693 0.0427966 0.997386 -0.00764439 -0.0718514
-0.0266443 -0.117184 0.355998 0 -1 0
0.00444225 -0.023716 0.164722 0.77387 -0.27827 -0.568939
-0.0364997 -0.0924331 0.475606 0 0.998802 0.0489257
0.00356448 -0.11251 0.337462 0 -1 0
-0.0371078 -0.0635732 0.240226 -0.986574 0.161056 -0.0270581
-0.00182833 0.11273 0.0231986 -0.99392 -0.0291012 -0.106193
-0.310611 -0.0543035 0.305262 0.00356384 -0.993147 -0.116821
-0.0193619 -0.0330667 0.545951 -0.558258 0.799256 0.222573
0.396654 -0.0544556 0.328561 -0.00789278 0.999964 -0.00306864
0.0155442 -0.117183 0.559203 9.19321e-05 -1 -1.65942e-05
-0.0356103 -0.0677588 0.550906 -0.975145 -0.158882 0.154434
-0.0333089 -0.09298 0.488844 0 -0.999458 -0.0329108
-0.0260456 -0.116659 0.298897 -0.176334 -0.984121 -0.0203083
-0.0531638 -0.0356229 0.107975 0.0748619 0.996587 0.0347888
0.444847 -0.0537506 0.296494 0.0105149 -0.999903 -0.00915381
0.0414614 -0.0619082 0.447365 0.998161 0.0495086 -0.0349807
-0.185981 -0.0503925 0.282368 0.00385587 0.98667 -0.162691
0.0367746 -0.109749 0.258816 0.855477 -0.509913 -0.0902705
0.075819 -0.0446966 0.310557 0.00461013 0.974712 -0.223416
0.0420581 -0.0842129 0.468875 0.999944 -0.00583524 -0.00887699
0.349278 -0.0483584 0.291178 -0.00229377 0.988612 -0.150469
0.00311508 0.0226286 0.0471474 0.987526 -0.036938 -0.153062
-0.106126 -0.0308429 0.0844688 0.0892635 0.995989 -0.00619714
0.355442 -0.0488309 0.343579 0.0884086 0.945111 0.314562
0.295425 -0.0507975 0.277144 -0.00392291 0.988541 -0.150899
0.0157623 -0.116386 0.275183 0.00489296 -0.999875 -0.0150336
0.0113832 -0.0905671 0.416237 -0.0133737 -0.999781 -0.0160863
0.0359304 -0.108464 0.243495 0.771047 -0.630243 -0.0909996
-0.310277 -0.0468812 0.301363 0.00260134 0.988045 -0.154147
-0.284747 -0.0464784 0.354593 -0.0563166 0.984171 0.168034
0.0268122 -0.0504086 0.165642 0.826801 0.548681 -0.123893
0.0707872 -0.0471756 0.299638 0.00461013 0.974712 -0.223416
-0.494998 -0.0494629 0.299267 1 0 0
0.25455 -0.0443555 0.351054 0.0435215 0.993295 0.107106
0.0317226 -0.0522554 0.194362 0.968869 0.223339 -0.106825
0.0219106 -0.070155 0.107154 0.969175 0 -0.246375
-0.0183676 -0.0298451 0.488992 -0.415443 0.909406 -0.0196936
0.0136189 -0.0307049 0.405181 0.0901423 0.995526 0.0283306
-0.0137129 -0.0314144 0.38489 -0.0559045 0.997373 -0.046067
0.0511753 -0.0512223 0.286307 -0.00234124 -0.995225 -0.0975744
0.0397643 -0.0943917 0.527871 -4.94944e-06 -0.998798 -0.0490094
-0.00466951 -0.112117 0.236475 0 -0.991943 -0.126682
-0.111144 -0.0543511 0.397133 -0.0156321 -0.990873 0.133889
-0.144025 -0.0567097 0.346764 -0.000384219 -0.999997 -0.00248717
-0.0907856 -0.0504721 0.284142 0.00385587 0.98667 -0.162691
-0.0017827 -0.117173 0.564041 0.00308986 -0.999995 0.000557734
0.0495743 -0.0358877 0.0755108 -0.0834903 0.996508 -0.00127565
0.490107 -0.0538201 0.300104 0.0092314 -0.999934 0.00683746
-0.0127753 -0.117184 0.384544 0 -1 0
0.0320665 -0.115637 0.286974 0.310207 -0.950572 -0.0135659
-0.0274212 -0.0555936 0.396154 -0.000503236 -0.997571 0.069658
0.0340445 -0.115508 0.381942 0.587049 -0.809551 -0.000396807
-0.37923 -0.0546683 0.325753 -0.00923144 -0.999934 0.00683747
-0.0036303 -0.0896 0.585461 8.40808e-06 -0.384262 0.923224
-0.0385518 -0.0645107 0.368158 -0.997851 0.0653556 0.00466434
0.0343085 -0.0933129 0.498954 0 -0.999458 -0.0329108
-0.392897 -0.0482412 0.328932 -0.0373386 0.994707 0.0957271
0.178461 -0.0413345 0.348203 -0.0419093 -0.998971 -0.0173563
-0.0142325 -0.0334599 0.212001 -0.470191 0.882385 -0.0178128
0.0406284 -0.0753785 0.55147 0.988068 0.132439 0.0786193
-0.1439 -0.0535107 0.305054 0.00614942 -0.993338 -0.115077
0.0321466 -0.0402344 0.446812 0.745063 0.665538 -0.0440459
-0.118808 -0.0563475 0.337808 0.00862229 -0.998521 -0.0536811
0.00856919 -0.0939806 0.396474 -0.999954 0 0.00963805
0.0379247 -0.0918433 0.462758 -0.0110827 0.998722 0.0493201
-0.0318572 -0.0787681 0.170899 -0.986832 0.142593 -0.0763532
-0.248434 -0.0444309 0.354239 -0.0435204 0.993295 0.107101
0.112 -0.0385675 0.347008 0.0368444 0.997924 -0.0528231
-0.0591694 -0.0441446 0.0892229 -0.127754 -0.990077 -0.0585402
-0.0275583 -0.054251 0.163047 -0.903638 0.406195 -0.135807
-0.343817 -0.0537028 0.299143 0.00356384 -0.993147 -0.116821
0.0382622 -0.0948999 0.544924 0 -1 0
-0.014536 -0.0927566 0.482622 0 0.999458 0.0329244
0.0115484 -0.0557139 0.393858 0.000960861 -0.998516 0.0544404
-0.037682 -0.081789 0.473629 -0.999876 0.0030879 0.0154555
0.00512726 0.0329355 0.0632823 0.997386 -0.00764439 -0.0718514
0.0421862 -0.0386164 0.338358 0.0120688 0.984269 -0.176266
0.0717298 -0.0424986 0.0866269 0.127586 -0.990094 -0.058608
-0.220899 -0.0465834 0.374763 -0.0907701 0.94269 0.321086
0.404199 -0.0532442 0.29339 -0.00475948 -0.992298 -0.123779
0.0940657 -0.03208 0.0738208 -0.0892644 0.995989 -0.00619869
-0.0370408 -0.0576064 0.43869 -0.96158 0.273537 0.0232631
-0.0650958 -0.034826 0.398394 -0.069585 0.993853 0.0861071
0.0324212 -0.0564777 0.349583 -0.0256349 -0.99765 -0.0635355
0.0268868 -0.0378939 0.114277 -0.0749756 0.996583 0.0346678
-0.03251 -0.092169 0.470594 0 0.998802 0.0489319
-0.0876995 -0.043887 0.314841 -0.00643547 0.981569 -0.190998
0.28426 -0.0554871 0.346085 0.0192205 -0.998606 0.0491609
-0.016701 -0.03331 0.134749 -0.129517 0.983134 0.129125
-0.033477 -0.0453776 0.276757 -0.842029 0.53939 -0.00680948
0.0308801 -0.0673279 0.162766 0.988155 0.144037 -0.05294
0.0415154 -0.0968652 0.487023 0.999818 -0.0130325 -0.0139529
-0.0268589 -0.039292 0.437711 -0.637056 0.770745 -0.0105985
-0.032872 -0.108633 0.544639 -0.931099 -0.333503 0.147753
-0.203718 -0.0466227 0.379736 -0.0907701 0.94269 0.321086
0.443987 -0.0488057 0.28743 0.00245423 0.995598 -0.0936926
-0.00801161 -0.0924193 0.475704 0 0.998802 0.0489319
-0.0123942 -0.0287217 0.542099 -0.386342 0.893445 0.22912
0.0418827 -0.0889213 0.478098 0.991468 -0.127683 -0.0262355
0.0608776 -0.0349343 0.0804781 -0.0834903 0.996508 -0.00127565
-0.0250185 -0.11689 0.312372 -0.00489297 -0.999875 -0.0150336
0.0163501 -0.0542374 0.410039 0 0 1
-0.0123441 -0.041898 0.070921 -0.990326 0.00471948 -0.138677
0.163358 -0.05031 0.283417 -0.00390351 0.986671 -0.162684
0.0361864 -0.0398025 0.135894 0.0180296 0.967154 0.25355
0.0667589 -0.0414367 0.32506 -0.00937153 -0.974639 0.223589
-0.0143379 -0.117134 0.32882 0 -0.99991 -0.0134019
0.0337274 -0.0372091 0.0789547 -0.0833611 0.996519 -0.00130196
-0.285356 -0.0557508 0.331959 -0.0101371 -0.999905 -0.00934141
-0.038641 -0.0637095 0.325123 -0.996798 0.0770223 -0.0214628
-0.0389242 -0.0713271 0.343275 -0.999988 -0.00493207 -0.000789693
0.0392547 -0.0559125 0.337953 -0.0256349 -0.99765 -0.0635355
0.425 -0.0540769 0.325671 0.0512791 -0.981407 0.184961
0.304185 -0.0554619 0.321841 0.0105149 -0.999903 -0.00915381
-0.00580973 -0.0940959 0.348949 0.999954 0 -0.00963796
-0.0142742 -0.0436511 0.0850606 -0.990992 0 -0.133923
-0.24585 -0.0436389 0.347514 -0.0400534 0.994563 0.0961269
-0.313047 -0.0529936 0.359085 -0.177804 -0.703537 0.688056
-0.0256398 -0.11253 0.24088 -0.0495744 -0.990624 -0.127301
0.0166755 -0.0279116 0.479904 0.326922 0.942195 -0.0734165
-0.00522998 -0.117184 0.456292 0 -1 0
0.344043 -0.0551981 0.32858 0.0192205 -0.998606 0.0491609
0.408929 -0.0543372 0.310901 -0.00388712 -0.997573 -0.0695185
-0.0369098 -0.0711079 0.528238 -0.983644 0.100991 0.149148
0.416267 -0.0496959 0.329083 0.0884086 0.945111 0.314562
-0.238173 -0.0562788 0.345746 -0.0105299 -0.999933 0.00479253
0.0016215 -0.0752187 0.0667458 0 -0.940888 -0.338717
0.0352164 -0.100765 0.582548 0.971032 -0.208662 0.116435
0.0133567 -0.0951649 0.481708 -0.958171 0 0.286198
0.00398771 -0.107891 0.469766 0 1 0
-0.0230335 -0.115176 0.567013 -0.483616 -0.868585 0.108053
-0.212504 -0.0542583 0.307937 0.00369651 -0.993321 -0.115328
0.0393885 -0.104621 0.295889 0.977628 -0.210339 -0.000817722
0.00361964 0.0807583 0.0372667 0.997386 -0.00764439 -0.0718514
0.319128 -0.0505209 0.278339 -0.00392291 0.988541 -0.150899
-0.141417 -0.0500772 0.285337 0.00385587 0.98667 -0.162691
0.158913 -0.0521896 0.292879 -0.00622428 -0.993338 -0.115067
-0.435064 -0.0534888 0.294184 0.00403979 -0.992998 -0.118061
-0.0260876 -0.117184 0.38354 0 -1 0
0.248342 -0.0558256 0.352664 0.0182936 -0.998646 0.0487015
-0.371754 -0.0537163 0.298405 0.00356384 -0.993147 -0.116821
0.471904 -0.0534451 0.294202 0.0105149 -0.999903 -0.00915381
0.12608 -0.0567488 0.364037 0.00194564 -0.999994 0.00275247
0.106261 -0.055723 0.328207 -0.00862228 -0.998521 -0.0536811
0.474405 -0.0538799 0.311119 0.013812 -0.999546 0.0267667
-0.00386863 -0.0653026 0.590463 0.000240644 0.000270361 1
0.0636215 -0.0530725 0.30488 -0.00234124 -0.995225 -0.0975744
0.0246964 -0.116796 0.305346 0.00489296 -0.999875 -0.0150336
0.0187504 -0.0529198 0.110772 0.902128 0.403229 -0.153532
-0.242334 -0.0445642 0.357736 -0.051788 0.987977 0.145667
0.269373 -0.0538997 0.303099 -0.00360915 -0.993148 -0.116809
-0.038344 -0.0965572 0.371075 -0.998262 -0.0589387 0
0.0455142 -0.0568037 0.365137 0.000818967 -0.99999 -0.00429342
-0.0370758 -0.0560265 0.405615 -0.971457 0.236011 -0.0238812
0.0402112 -0.0526784 0.543522 0.946462 0.291699 0.13828
0.283492 -0.0526131 0.291969 -0.00300309 -0.993301 -0.115517
0.0366324 -0.089505 0.348606 0 -0.999764 -0.0217205
-0.37958 -0.0546078 0.330395 -0.0110505 -0.999823 0.0152186
-0.00553586 -0.11251 0.330193 0 -1 0
-0.182809 -0.044361 0.316662 -0.013398 0.987107 -0.159503
0.0772689 -0.0390562 0.338669 0.0213713 0.987634 -0.155316
-0.0388392 -0.0776332 0.312894 -0.999941 -0.00890291 0.00627959
0.206792 -0.0521293 0.289803 -0.00300309 -0.993301 -0.115517
0.0391864 -0.105745 0.322315 0.979845 -0.199757 -0.00126146
-0.0377187 -0.0653774 0.452539 -0.998027 0.0627705 0.00123731
0.264409 -0.0518564 0.37231 0.216446 0.526464 0.822184
-0.185805 -0.0565617 0.359127 -0.00746165 -0.99851 0.0540599
0.43358 -0.0539283 0.302958 0.0105149 -0.999903 -0.00915381
0.0124078 -0.0416894 0.0642141 0.990326 0.00471947 -0.138677
-0.0818219 -0.0392816 0.337925 -0.020629 0.987649 -0.155318
-0.0308669 -0.0948999 0.566207 0 -1 0
0.286468 -0.0447085 0.341378 0.0420335 0.993437 0.106377
-0.00574823 -0.117184 0.515842 0 -1 0
0.00149162 -0.0253742 0.0577352 0.882148 -0.470971 0.00112709
0.143968 -0.0443288 0.31446 0.00655132 0.981691 -0.190366
0.0180757 -0.0920994 0.469174 0 0.998802 0.0489319
-0.0133059 -0.117184 0.509765 0 -1 0
0.0254902 -0.0379424 0.103321 -0.085565 0.996331 0.0016107
0.00800804 -0.0932893 0.338254 -0.999954 0 0.00963805
0.0409348 -0.0711639 0.349916 0.999988 -0.00493207 -0.000789647
0.0386711 -0.0676371 0.563028 0.988068 0.132439 0.0786193
-0.0346512 -0.0474879 0.27205 -0.875502 0.483124 -0.00935405
-0.000564228 -0.00365439 0.167254 -0.66678 0.482724 0.567788
0.0132902 -0.0446313 0.070429 0.990804 0 -0.135307
-0.00397449 -0.11251 0.34721 0 -1 0
0.0370944 -0.0453151 0.472694 0.863932 0.501693 -0.0438847
0.159925 -0.0524437 0.295018 -0.00622428 -0.993338 -0.115067
-0.00606225 -0.10791 0.491329 0 -1 0
-0.00364808 -0.0256412 0.119385 -0.873138 -0.407966 -0.266821
0.0453827 -0.0333075 0.380865 0.0489164 0.998702 -0.0141995
0.350051 -0.0472666 0.337324 0.056315 0.984172 0.168028
0.0453841 -0.0431483 0.126238 0.328429 -0.774547 0.540566
0.0304213 -0.0357033 0.482236 0.73526 0.676461 -0.0423389
0.0930074 -0.0365954 0.395617 0.0968544 0.99025 0.10012
0.012454 -0.0696096 0.0741982 0.943821 -0.142931 -0.297947
-0.0369705 -0.0562575 0.397733 -0.9591 0.282959 -0.0078314
-0.049204 -0.036788 0.123785 -0.0153013 0.966848 0.254893
0.480156 -0.0488122 0.287811 0.00106815 0.990576 -0.136958
-0.166897 -0.0477247 0.29807 6.34529e-05 -0.986665 0.162767
-0.0282125 -0.0902652 0.383596 0 -0.999764 -0.0217205
-0.0181997 -0.090196 0.389588 0.0169241 -0.99975 -0.0145857
0.000714328 -0.117184 0.350079 0 -1 0
-0.00272984 -0.0303713 0.482079 -0.999766 0.00197649 0.0215441
-0.0100166 -0.0924393 0.12697 -0.000114342 -0.976973 -0.213365
0.174457 -0.0566132 0.360236 0.0113921 -0.99774 0.0662269
0.0410993 -0.101864 0.533681 0.991794 -0.123964 0.0312693
0.0277102 -0.0452997 0.0675274 0.0825786 -0.958457 -0.273022
0.139288 -0.0567329 0.360452 0.00194564 -0.999994 0.00275247
-0.0294445 -0.0374996 0.0945428 0.0856479 0.996321 0.00310725
0.0047742 0.040825 0.0575421 0.997386 -0.00764439 -0.0718514
-0.10284 -0.0542329 0.313881 -0.00533104 0.994969 0.100038
-0.0327298 -0.0486989 0.231078 -0.84976 0.525303 -0.0443174
0.027814 -0.110791 0.228227 0.146464 -0.980596 -0.130308
0.0258014 -0.0487386 0.122221 0.192469 -0.971747 0.136614
0.0050567 -0.0178284 0.0753244 0.943688 -0.320354 0.0826224
-0.221267 -0.0560574 0.323136 0.00381009 -0.993328 -0.115265
-0.323873 -0.0452964 0.3119 -0.0116021 0.9976 -0.068256
0.0291222 -0.0335244 0.370377 0.0550896 0.989109 -0.136486
0.0355662 -0.0980792 0.195554 0.916139 -0.387296 -0.103396
0.0407748 -0.0609191 0.429174 0.998161 0.0495086 -0.0349807
0.437515 -0.0538902 0.30289 -0.00388712 -0.997573 -0.0695185
0.0182893 -0.117182 0.469626 0 -1 0.000578574
0.335276 -0.0536524 0.298974 -0.00356384 -0.993147 -0.116821
0.0285813 -0.0948999 0.5512 0 -1 0
0.0418402 -0.0928743 0.538385 0.995565 -0.0240471 0.0909486
-0.0605101 -0.0424032 0.32065 0.00913007 -0.974644 0.223575
-0.00356799 -0.112492 0.381598 0 -1 0
-0.0058574 -0.0981254 0.344003 0.999954 0 -0.00963796
0.0212316 -0.0907283 0.418066 -0.0133737 -0.999781 -0.0160863
-0.0102764 -0.0317966 0.168795 -0.178183 0.980479 0.0831416
0.159761 -0.0471326 0.301657 -6.42329e-05 -0.986665 0.162767
-0.00784316 -0.0248487 0.131901 -0.873138 -0.407966 -0.266821
0.036367 -0.0395304 0.0487468 0.06947 -0.958807 -0.275432
0.0357064 -0.0912878 0.441541 -0.0130161 -0.999793 -0.0156561
0.0201646 -0.0333515 0.314871 0.412653 0.910883 0.00312211
0.0113864 -0.030015 0.136545 0.193411 0.981117 0.00154313
-0.0613191 -0.0344481 0.37259 -0.0386814 0.995421 -0.0874155
0.00801013 -0.108915 0.338471 -0.999954 0 0.00963805
-0.0152549 -0.105428 0.193882 -0.00393885 -0.986273 -0.165074
-0.00443721 -0.112492 0.394448 0 -1 0
-0.0331934 -0.0779425 0.181913 -0.978039 0.0905692 -0.187716
0.022191 -0.0779808 0.111935 0.96723 -0.130339 -0.217893
-0.0301829 -0.0914362 0.454902 0.00526745 0.998777 0.0491665
-0.0322043 -0.0440343 0.469885 -0.863932 0.501693 -0.0438848
-0.361558 -0.0464232 0.32772 -0.0420326 0.993438 0.106373
-0.0633761 -0.0538645 0.312411 0.00614942 -0.993338 -0.115077
0.00400971 -0.117184 0.520204 0 -1 5.24578e-05
-0.16998 -0.0409975 0.356178 -0.0504026 0.9949 -0.0873698
-0.00398873 -0.068972 0.604827 -0.114986 0.928074 0.354198
-0.263864 -0.0438371 0.339287 -0.0263 0.999654 -0.000518746
0.0664533 -0.0351904 0.365957 0.0400639 0.995366 -0.0874107
-0.00619346 -0.0555301 0.398337 -0.000951683 -0.998492 0.0548884
0.0407532 -0.0511364 0.536315 0.963762 0.263496 0.0416208
0.0324955 -0.0909718 0.424031 -0.0130161 -0.999793 -0.0156561
-0.318046 -0.0486035 0.290145 0.00378298 0.986745 -0.162238
0.147581 -0.0525032 0.397188 0.0811122 -0.915056 0.395087
-0.0334185 -0.0436749 0.0638534 -0.082559 -0.958471 -0.272979
-0.00579547 -0.108904 0.348499 0.999954 0 -0.00963795
0.0136105 -0.117184 0.467785 0.000500779 -1 5.03708e-05
0.0349187 -0.04023 0.49353 0.793406 0.607535 -0.0375283
0.0387458 -0.0656934 0.564301 0.958621 0.115989 0.259984
-0.0643149 -0.0514392 0.288163 0.00231262 -0.995225 -0.0975761
0.447319 -0.0541179 0.313397 0.0110502 -0.999823 0.0152174
-0.198948 -0.0427636 0.32782 -0.0152178 0.987026 -0.159838
0.241637 -0.05616 0.34886 0.0202824 -0.998282 0.0549779
-0.0326512 -0.10658 0.551326 -0.96327 -0.229919 0.13874
-0.248519 -0.056098 0.329143 -0.0101371 -0.999905 -0.00934141
-0.00547533 -0.0958642 0.381714 0.999954 0 -0.00963795
0.0154508 -0.105082 0.191797 0.00393888 -0.986273 -0.165074
0.013631 -0.114499 0.255366 0.004854 -0.991911 -0.126843
