0.0364168 -0.0370478 0.593349 -0.357726 -0.932989 0.039553
-0.155324 -0.0593478 0.332366 -0.170099 0.983074 -0.0680622
-0.0030008 -0.0365269 0.149689 -0.114507 0.991762 -0.0574089
0.0261291 -0.0601126 0.788856 0.935665 0.311174 0.166439
0.0491815 -0.0336507 0.631941 0.402112 0.915286 -0.0236279
-0.418943 -0.107641 0.293658 -0.170099 0.983074 -0.0680622
-0.0397191 -0.0461467 0.538676 0.164167 -0.986367 0.0114102
-0.0756482 -0.0384687 0.480157 -0.185856 0.982548 -0.00755872
-0.00706555 -0.0551125 0.0703521 -0.564761 -0.776291 -0.280032
-0.386981 -0.100342 0.319211 -0.170094 0.983074 -0.0680749
0.0165732 -0.0721549 0.848154 0.860819 0.090281 0.50084
-0.00699878 -0.116789 0.63854 -0.0656293 -0.997706 -0.0165837
-0.0233956 -0.0319345 0.322482 -0.253386 0.966557 -0.0395362
-0.341465 -0.0973015 0.354971 0.185914 -0.98022 -0.0678636
-0.0551988 -0.0455023 0.373498 -0.640194 0.76747 -0.0337821
-0.0150438 -0.037259 0.381959 0.185914 -0.98022 -0.0678636
0.0694437 -0.0500237 0.556549 0.704875 0.708325 -0.0377589
0.425011 -0.112012 0.346596 0.170972 0.985247 0.00756998
-0.0142495 -0.119374 0.616953 -0.588194 -0.808558 -0.0161859
-0.0287712 -0.0968914 0.522495 -0.932472 -0.361107 -0.00985793
-0.240454 -0.0787882 0.364289 0.185914 -0.98022 -0.0678636
-0.0306087 -0.0854191 0.34339 -0.981476 -0.191427 -0.00781794
-0.0274165 -0.099876 0.512816 -0.907696 -0.419489 -0.0108291
-0.0268261 -0.0352343 0.548354 0.384938 -0.92218 0.0375105
0.174816 -0.0658078 0.356615 0.185914 0.98022 0.0678636
0.0062988 -0.0369596 0.152453 0.263165 0.962625 -0.0640043
0.00372206 -0.0263286 0.0734461 -0.261446 -0.956096 0.132383
0.163856 -0.0556595 0.496051 -0.196897 -0.980165 -0.0225582
-0.0101541 -0.0602089 0.849793 -0.573238 0.644359 0.506161
-0.00961865 -0.0317632 0.0674455 -0.840419 0.540229 -0.0430018
0.198111 -0.0727786 0.487081 0.130884 0.987201 -0.0911268
0.385773 -0.0979436 0.393813 -0.192554 -0.981221 -0.0113093
0.0635222 -0.0393183 0.392242 -0.170099 -0.983074 0.0680622
0.0357471 -0.030732 0.504734 -0.185856 -0.982548 0.00755872
-0.19598 -0.0720265 0.388459 0.185914 -0.98022 -0.0678636
-0.105789 -0.0466812 0.391524 -0.170099 0.983074 -0.0680622
0.340696 -0.0976851 0.386204 0.170974 0.985246 0.00757953
-0.124553 -0.0482011 0.417535 -0.185856 0.982548 -0.00755872
0.0487731 -0.0414372 0.621828 -0.467705 -0.881851 0.0599257
0.0598569 -0.0473904 0.40553 0.185914 0.98022 0.0678636
0.0392981 -0.0314912 0.563162 0.297818 0.954418 -0.0197378
0.0166949 -0.0302701 0.329576 0.174426 0.984113 -0.0331305
0.0557207 -0.0511298 0.58606 -0.711117 -0.693976 0.112737
-0.0708702 -0.0529918 0.682351 0.753944 -0.650257 0.0934553
-0.0102534 -0.0357365 0.18526 -0.253039 0.965234 -0.0655373
-0.0492705 -0.071059 0.26712 -0.938552 -0.262843 -0.223681
-0.0885368 -0.0410365 0.517217 -0.192554 0.981221 0.0113093
-0.0820649 -0.0624748 0.657852 -0.94067 0.335655 -0.0497642
0.0220035 -0.0809652 0.217106 0.893182 -0.427031 -0.140963
0.180958 -0.0683595 0.376648 0.185914 0.98022 0.0678636
0.0671108 -0.0468953 0.378506 0.185914 0.98022 0.0678636
0.0331683 -0.0760695 0.513201 0.997169 -0.0748465 -0.00723202
0.0294289 -0.0663924 0.287528 0.998522 0.0271567 -0.0470845
-0.0640746 -0.0586309 0.347013 -0.911424 0.408609 -0.0484285
-0.0402477 -0.0323941 0.5342 -0.348858 0.936941 -0.0209548
-0.252257 -0.081875 0.37654 0.185914 -0.98022 -0.0678636
0.170469 -0.0616516 0.336942 -0.170099 -0.983074 0.0680622
0.0134413 -0.0290297 0.415687 -0.170099 -0.983074 0.0680622
0.0226397 -0.0325472 0.303353 0.310859 0.949437 -0.0439987
0.0474393 -0.105339 0.520401 0.402055 -0.915278 -0.0248552
0.332998 -0.0960107 0.429138 0.130849 0.987198 -0.0912087
0.272005 -0.0779377 0.355464 -0.170094 -0.983074 0.0680749
0.066432 -0.0608464 0.612691 -0.886742 -0.435828 0.154085
-0.0271813 -0.110224 0.425643 -0.278314 -0.960278 -0.0201925
-0.0260548 -0.0964325 0.332817 -0.90428 -0.41791 -0.0873413
-0.0222168 -0.108577 0.719621 -0.853497 -0.521097 -0.000172922
-0.118316 -0.0465473 0.479146 -0.18586 0.982547 -0.00754898
0.0525449 -0.0793775 0.293491 0.864754 -0.448936 -0.225071
0.00310113 -0.040045 0.539296 0.164167 0.986367 -0.0114102
0.0564686 -0.102601 0.584673 0.516073 -0.856032 -0.029611
0.0328838 -0.0650824 0.477308 0.997167 0.0748446 -0.00756978
0.0712703 -0.0440533 0.343214 -0.170099 -0.983074 0.0680622
-0.029245 -0.0661661 0.28377 -0.998499 0.028092 -0.0470126
-0.0227839 -0.109117 0.674017 -0.891739 -0.451473 0.0311955
-0.00116758 -0.115094 0.679651 -0.0212542 -0.973085 0.229463
-0.039342 -0.0905995 0.283885 -0.596896 -0.776495 -0.201919
-0.343818 -0.0981851 0.415463 0.164167 -0.986367 0.0114102
-0.00919533 -0.104258 0.270618 -0.453436 -0.879971 -0.141586
-0.0216043 -0.0293242 0.426822 -0.174495 0.984526 -0.0161376
0.0244337 -0.040567 0.356718 0.862571 0.50571 -0.0151439
0.0648748 -0.0456555 0.366725 0.185914 0.98022 0.0678636
0.0117996 -0.0235919 0.489778 0.502482 0.864208 -0.0256242
0.0807488 -0.0789508 0.634293 0.940637 -0.335643 -0.0504479
0.438906 -0.109243 0.320407 -0.170094 -0.983074 0.0680749
0.3356 -0.0900068 0.340073 -0.170094 -0.983074 0.0680749
-0.0537891 -0.102927 0.550232 -0.457793 -0.888624 -0.0277917
-0.00749665 -0.0269851 0.218231 -0.36629 0.930473 -0.00713612
-0.00389944 0.0238526 0.110237 0.999787 -0.0196293 0.00640752
-0.367689 -0.0944798 0.380146 -0.18586 0.982547 -0.00754898
-0.34782 -0.0945042 0.305658 -0.170099 0.983074 -0.0680622
-0.0187856 -0.0860047 0.212772 -0.362783 -0.912224 -0.190356
0.328394 -0.0955726 0.389106 0.170974 0.985246 0.00757953
0.102596 -0.0569126 0.457183 0.170974 0.985246 0.00757953
-0.0183464 -0.101781 0.293842 -0.249288 -0.952552 -0.174643
-0.102115 -0.043594 0.464691 -0.185856 0.982548 -0.00755872
0.0424796 -0.045709 0.272883 0.723394 0.680301 -0.117861
0.0296675 -0.0936907 0.4974 0.959769 -0.28065 -0.0088541
-0.000567157 -0.121799 0.512136 -0.0562018 -0.998123 -0.0243296
0.0220302 -0.0981333 0.304834 0.83818 -0.536041 -0.100572
0.0101531 -0.026547 0.443328 -0.170099 -0.983074 0.0680622
-0.112102 -0.0588387 0.0526937 -0.261446 0.956096 -0.132383
-0.160763 -0.0722762 0.0646282 -0.303026 0.95287 -0.0146121
0.0735165 -0.0442233 0.0847324 -0.303002 -0.952877 0.0146591
-0.033299 -0.0747183 0.516119 -0.999605 -0.0271855 -0.00719257
-0.0330171 -0.0763146 0.729171 -0.993301 -0.111482 -0.0304002
-0.0185714 -0.0504474 0.12372 -0.996211 -0.0280436 -0.0823267
-0.00185472 0.112929 0.0640754 0.999787 -0.0196271 0.00640977
0.342659 -0.0975384 0.355122 0.185914 0.98022 0.0678636
-0.0328458 -0.0448444 0.461841 0.170974 -0.985246 -0.00757953
-0.0114766 -0.0414314 0.500227 0.170974 -0.985246 -0.00757953
-0.141518 -0.0617563 0.389318 0.185914 -0.98022 -0.0678636
-0.135103 -0.0539468 0.359844 -0.170099 0.983074 -0.0680622
-0.0213809 -0.108592 0.748745 -0.735836 -0.672864 0.0761592
-0.0565608 -0.0430618 0.0569478 -0.261446 0.956096 -0.132383
-0.058163 -0.103288 0.634254 -0.562298 -0.826353 -0.0310089
0.0247895 -0.104862 0.513434 0.842384 -0.53873 -0.0126175
0.216601 -0.0766169 0.44957 0.164181 0.986365 -0.0113678
-0.0987741 -0.0623248 0.0723049 0.298952 -0.94525 -0.130883
-0.0495214 -0.035827 0.551367 -0.44392 0.895721 -0.0248733
0.0494549 -0.104682 0.531711 0.443864 -0.895696 -0.0267061
-0.0249866 -0.0469597 0.770847 -0.870177 0.419251 0.258884
-0.000247603 -0.0223906 0.420109 -0.06148 0.997656 -0.0300452
0.0304919 -0.109078 0.414691 0.278311 -0.960266 -0.0207721
-0.0262027 -0.0280002 0.560838 -0.201308 0.979389 -0.0165115
0.0311104 -0.0855043 0.409356 0.984345 -0.176084 -0.00775258
-0.0131887 -0.0331844 0.123898 -0.833611 0.551574 -0.0293046
0.346711 -0.0930487 0.323908 -0.170099 -0.983074 0.0680622
-0.117518 -0.0557145 0.367799 0.185914 -0.98022 -0.0678636
0.00854547 -0.116753 0.374471 0.377944 -0.925563 -0.0221712
-0.172865 -0.0659902 0.364597 0.185914 -0.98022 -0.0678636
-0.105939 -0.0548172 0.0695627 -0.261425 0.956096 -0.13243
0.0342013 -0.0449175 0.440762 0.170972 0.985247 0.00756998
0.394037 -0.0996112 0.396672 -0.196897 -0.980165 -0.0225582
-0.305182 -0.0917402 0.414541 0.170974 -0.985246 -0.00757953
0.0083219 -0.0298834 0.3048 0.0741543 0.996859 -0.0277901
0.425778 -0.111072 0.322895 0.185914 0.98022 0.0678539
0.346984 -0.098879 0.400992 0.164181 0.986365 -0.0113678
0.24303 -0.0725339 0.483359 -0.317362 -0.889604 -0.32846
0.026456 -0.0419957 0.43342 0.894343 0.447172 -0.0136818
0.28227 -0.0780674 0.413266 -0.18586 -0.982547 0.00754898
-0.0274727 -0.029317 0.101953 -0.303002 0.952877 -0.0146591
0.0119557 -0.0395059 0.159051 0.231949 0.971694 -0.0448357
0.210513 -0.0663074 0.497199 -0.223455 -0.970565 -0.0898437
0.0193421 -0.0279823 0.554842 -0.196897 -0.980165 -0.0225582
0.258961 -0.0838128 0.436978 0.164181 0.986365 -0.0113678
-0.030491 -0.0882387 0.717984 -0.967784 -0.251299 -0.0155541
-0.0284618 -0.0548338 0.29584 -0.980877 0.191224 -0.0362442
0.0709863 -0.0526932 0.685336 -0.754117 -0.650406 0.0909927
-0.142109 -0.0530528 0.524134 -0.22335 0.970611 0.0896026
0.0358938 -0.0797197 0.234752 0.71094 -0.668618 -0.217978
-0.1588 -0.0546027 0.427464 -0.185856 0.982548 -0.00755872
-0.0752872 -0.0504517 0.407475 0.185914 -0.98022 -0.0678636
0.0341982 -0.03385 0.660082 -0.255512 -0.966372 0.0289484
0.0325773 -0.0564412 0.677227 0.993629 0.112695 0.000707633
-0.0126452 -0.0264501 0.493297 -0.185856 0.982548 -0.00755872
-0.0945362 -0.0555083 0.0420553 -0.261446 0.956096 -0.132383
-0.145481 -0.051861 0.456374 -0.185856 0.982548 -0.00755872
-0.0204684 -0.033056 0.422995 -0.751567 0.65938 -0.019082
-0.256144 -0.0831895 0.450342 0.164167 -0.986367 0.0114102
0.00934665 -0.0259962 0.471197 -0.185856 -0.982548 0.00755872
0.0108623 -0.0315373 0.25995 0.124203 0.991805 -0.0299518
0.019291 -0.0416442 0.129827 0.262196 0.964901 0.0148418
0.293626 -0.0894627 0.379139 0.170972 0.985247 0.00756998
-0.0296645 -0.0300444 0.444547 -0.185856 0.982548 -0.00755872
-0.402699 -0.101763 0.40221 -0.223306 0.970631 0.0894936
0.0277748 -0.0451694 0.195033 0.81419 0.559896 -0.15366
-0.122438 -0.0603121 0.504271 0.164167 -0.986367 0.0114102
-0.358181 -0.093207 0.350281 -0.170094 0.983074 -0.0680749
-0.00369559 0.0317701 0.102685 0.999787 -0.0196293 0.00640752
-0.000421896 -0.071055 0.109468 -0.048313 -0.944822 -0.324003
-0.278049 -0.0772487 0.432418 -0.192572 0.981217 0.0113542
0.0334547 -0.0738029 0.638774 0.99703 -0.074836 0.0182124
0.169603 -0.0566923 0.421483 -0.185856 -0.982548 0.00755872
-0.156667 -0.071053 0.0758044 -0.330886 0.942668 0.0434964
0.00351193 -0.0338764 0.779912 0.14017 0.852443 0.503681
-0.0769622 -0.0891543 0.670219 -0.746396 -0.617551 0.248039
0.0365444 -0.0457899 0.501312 0.170974 0.985246 0.00757953
-0.0590716 -0.0781392 0.564411 0.952026 0.254091 0.170539
0.0202871 -0.0774188 0.195487 0.893182 -0.427031 -0.140963
-0.328884 -0.0886454 0.444043 -0.317362 0.889604 0.32846
0.0682565 -0.0452277 0.674471 0.613878 0.735922 0.285609
0.0302598 -0.0347873 0.374558 -0.170099 -0.983074 0.0680622
-0.174019 -0.0824157 0.067499 0.232017 -0.971684 0.0447085
0.0182485 -0.0253809 0.64242 0.110099 0.993806 -0.0150774
-0.0313007 -0.0849589 0.673493 -0.987369 -0.155532 0.0302114
0.196625 -0.0728684 0.410179 0.170972 0.985247 0.00756998
0.0553199 -0.0397467 0.0784391 -0.261446 -0.956096 0.132383
0.00353335 -0.112316 0.554006 -0.0290008 0.999564 0.00545483
0.00727794 -0.0299806 0.298527 0.0741543 0.996859 -0.0277901
-0.188671 -0.0603947 0.409051 -0.185856 0.982548 -0.00755872
0.0936766 -0.0476209 0.347681 -0.170099 -0.983074 0.0680622
-0.00252187 -0.0781856 0.138278 -0.147028 -0.959833 -0.238964
-0.0449603 -0.0483671 0.113429 0.262196 -0.964901 -0.0148418
-0.0304478 -0.0525346 0.439961 -0.973654 0.227829 -0.00953887
-0.0751574 -0.050633 0.655615 -0.769834 0.636963 -0.0404334
-0.0738673 -0.0442573 0.0897721 -0.303002 0.952877 -0.0146591
0.0286248 -0.0691855 0.272705 0.994886 -0.0842384 -0.0557238
0.244255 -0.0717928 0.472514 -0.223306 -0.970631 -0.0894936
-0.20898 -0.0750723 0.471889 0.159676 -0.986907 0.0227525
-0.0131919 -0.0420288 0.793844 -0.601936 0.775472 0.19057
-0.00746841 -0.0266574 0.259514 -0.36629 0.930473 -0.00713612
-0.0390217 -0.0338378 0.449239 -0.348858 0.936941 -0.0209548
-0.0182502 -0.0940105 0.251413 -0.306582 -0.935053 -0.177999
-0.412516 -0.106299 0.296988 -0.170099 0.983074 -0.0680622
-0.0142976 -0.0258034 0.58445 -0.110099 0.99381 -0.0148527
-0.00897795 -0.115816 0.342706 -0.377963 -0.925547 -0.0224979
0.00404601 0.0292673 0.149668 -0.999787 -0.019627 0.00640997
-0.0336081 -0.0361061 0.363877 -0.170099 0.983074 -0.0680622
-0.0355954 -0.11091 0.567891 -0.248725 -0.968364 -0.020172
0.0308839 -0.0492227 0.570485 0.959789 0.280539 -0.0101468
-0.0374255 -0.0362467 0.622461 0.357666 -0.932834 0.0435374
0.0846384 -0.0531387 0.536866 0.130884 0.987201 -0.0911268
-0.382755 -0.104766 0.40345 0.159676 -0.986907 0.0227525
0.0377263 -0.0368195 0.610578 -0.357726 -0.932989 0.039553
-0.00736486 -0.040698 0.544192 0.164167 -0.986367 0.0114102
-0.00931712 -0.118925 0.476887 -0.406305 -0.913473 -0.021956
0.0442458 -0.0518944 0.255344 0.875888 0.455003 -0.160599
-0.155366 -0.0539018 0.49379 -0.196897 0.980165 0.0225582
-0.272992 -0.084831 0.464067 0.130939 -0.987205 0.0910026
-0.0527141 -0.0367833 0.677602 -0.385865 0.878303 0.282297
0.19816 -0.0644025 0.366412 -0.170099 -0.983074 0.0680622
-0.0474255 -0.0447723 0.309145 -0.665854 0.738383 -0.106909
-0.017105 -0.112406 0.435654 -0.174851 -0.984435 -0.0177665
0.0130536 -0.0336467 0.348031 -0.170099 -0.983074 0.0680622
-0.0269484 -0.0985768 0.423254 -0.907696 -0.419489 -0.0108291
-0.331426 -0.0960994 0.417473 0.164167 -0.986367 0.0114102
0.0322503 -0.0302144 0.520582 0.248978 0.968338 -0.0181939
0.0190777 -0.112784 0.725694 0.763198 -0.646124 0.00719346
0.00174992 0.04428 0.0651607 -0.998311 0.00760924 0.0575941
0.0272053 -0.0599835 0.165682 0.973028 -0.0537785 -0.22433
-0.000337712 0.0466157 0.0403743 0.998311 0.00760874 0.0575941
0.0288952 -0.096955 0.538915 0.942302 -0.334625 -0.00961761
-0.308197 -0.0847753 0.453549 -0.317362 0.889604 0.32846
0.0169776 -0.116383 0.583547 0.661681 -0.749564 -0.0182127
-0.0155301 -0.0978683 0.823114 -0.759797 -0.581892 0.290018
0.0873987 -0.0495475 0.123891 -0.392114 -0.904616 -0.167082
-0.0153628 -0.0276313 0.471327 -0.124242 0.992135 -0.0152309
-0.436301 -0.107724 0.380268 -0.196913 0.980161 0.022597
-0.0030951 0.0631179 0.133436 0.999412 -0.0329066 -0.00958604
-0.0670901 -0.0901271 0.49971 -0.805797 -0.590623 -0.0430831
-0.0236198 -0.0854627 0.22094 -0.595331 -0.777893 -0.201154
-0.0555648 -0.10375 0.605797 -0.457793 -0.888624 -0.0277917
-0.0606209 -0.0979153 0.534978 -0.577044 -0.816042 -0.0331019
0.0324649 -0.113584 0.657375 0.248728 -0.968373 -0.0197092
0.0196311 -0.0362093 0.271178 0.800752 0.598755 -0.0169918
0.0216499 -0.0480134 0.173555 0.978604 0.197625 -0.0572653
-0.029063 -0.0442353 0.467985 0.170974 -0.985246 -0.00757953
0.0458196 -0.105791 0.510864 0.402055 -0.915278 -0.0248552
0.0024343 -0.00409481 0.690726 0.209516 0.959124 -0.190219
0.0304971 -0.0546694 0.389947 0.968932 0.247135 -0.00976392
-0.415994 -0.107523 0.298437 0.185914 -0.98022 -0.0678539
0.00214942 -0.0802639 0.159969 0.0824033 -0.980869 -0.176367
-0.0333211 -0.0559274 0.735077 -0.992796 0.119296 -0.0111432
-0.279152 -0.0868681 0.374981 0.185914 -0.98022 -0.0678636
0.0195041 -0.0905865 0.235995 0.30617 -0.933795 -0.185165
0.0278169 -0.0419892 0.528401 0.920655 0.390182 -0.0123557
0.0294261 -0.0888241 0.33825 0.950036 -0.302808 -0.0757624
-0.0556917 -0.0986639 0.463377 -0.623119 -0.781393 -0.0338687
-0.0100602 -0.1176 0.435524 -0.406305 -0.913473 -0.021956
-0.017878 -0.0280227 0.467964 -0.155206 0.98776 -0.0155571
-0.0731328 -0.0519149 0.520782 0.164167 -0.986367 0.0114102
-0.0526103 -0.0485687 0.500109 0.170974 -0.985246 -0.00757953
-0.0432337 -0.0396248 0.329403 -0.501367 0.862112 -0.0734439
-0.217104 -0.0658297 0.40169 -0.185856 0.982548 -0.00755872
-0.027228 -0.0566968 0.254294 -0.989263 0.140783 -0.0392224
0.000468187 -0.121649 0.505844 0.0616011 -0.997805 -0.0243218
-0.0197872 -0.035661 0.298697 -0.800748 0.598751 -0.0173198
-0.00373819 0.0361515 0.122754 0.999787 -0.0196293 0.00640752
0.00807852 -0.0943853 0.210009 0.446704 -0.866982 -0.220903
0.0452512 -0.0420946 0.317744 0.560474 0.823673 -0.0862012
-0.26179 -0.0793632 0.31414 0.185914 -0.98022 -0.0678539
0.421302 -0.109371 0.310578 0.185914 0.98022 0.0678539
0.114492 -0.0585569 0.109086 -0.392082 -0.904642 -0.167017
-0.0279803 -0.0670278 0.258923 -0.998289 -0.0281019 -0.0512831
-0.0357302 -0.0332525 0.421739 -0.332069 0.943031 -0.0205586
-0.0543328 -0.0353048 0.656202 -0.457823 0.888684 -0.0252818
-0.236686 -0.0695369 0.401284 -0.185856 0.982548 -0.00755872
-0.303312 -0.0912915 0.428599 0.164167 -0.986367 0.0114102
-0.303593 -0.0820934 0.414243 -0.18586 0.982547 -0.00754898
-0.100716 -0.0562473 0.0489228 -0.261446 0.956096 -0.132383
-0.0050541 -0.120295 0.473423 -0.18351 -0.982729 -0.0238288
0.0494541 -0.108009 0.65133 0.402055 -0.915278 -0.0248552
-0.0423832 -0.038631 0.349339 -0.170099 0.983074 -0.0680622
-0.0181334 -0.0940771 0.251561 -0.306582 -0.935053 -0.177999
0.049538 -0.0337941 0.445789 -0.185856 -0.982548 0.00755872
0.0816229 -0.0534699 0.48277 0.170974 0.985246 0.00757953
0.0973136 -0.0427195 0.460312 -0.185856 -0.982548 0.00755872
0.014263 -0.044639 0.0826364 0.992475 -0.02806 -0.119189
-0.0252668 -0.0251903 0.698966 -0.895454 0.445067 0.00875509
-0.0114939 -0.0911473 0.227289 -0.193637 -0.964349 -0.180378
-0.061405 -0.0393326 0.651439 -0.516099 0.856076 -0.0278592
0.279916 -0.0857581 0.356854 0.185914 0.98022 0.0678636
-0.024499 -0.0357163 0.524945 -0.862564 0.505707 -0.0156066
0.198856 -0.0706161 0.360208 0.185914 0.98022 0.0678636
0.328818 -0.0955264 0.373525 0.170972 0.985247 0.00756998
-0.040621 -0.0349838 0.684646 0.286703 -0.957465 0.0325849
-0.00295961 0.0644684 0.0880182 0.999787 -0.0196293 0.00640752
0.146432 -0.0628142 0.391136 0.185914 0.98022 0.0678636
0.0322041 -0.0639033 0.401585 0.996641 0.0815345 -0.00770574
-0.0279104 -0.0487994 0.334548 -0.932178 0.360982 -0.0271367
-0.0311862 -0.0371391 0.342905 -0.170099 0.983074 -0.0680622
-0.067629 -0.096515 0.628119 -0.639945 -0.767573 -0.0360748
-0.00555854 -0.0259103 0.27422 -0.27652 0.960985 -0.00661888
0.0233917 -0.0777986 0.820421 0.988662 -0.0344747 0.146144
-0.0666744 -0.0718175 0.346896 -0.996636 -0.0622841 -0.0532693
-0.0300613 -0.0328161 0.402533 -0.170099 0.983074 -0.0680622
-0.383483 -0.103027 0.322553 0.185914 -0.98022 -0.0678539
-0.00663614 -0.118262 0.408163 -0.276346 -0.960773 -0.0234062
0.266813 -0.0750866 0.436137 -0.192572 -0.981217 -0.0113542
-0.0376004 -0.0347464 0.665045 0.286703 -0.957465 0.0325849
0.118873 -0.0619011 0.110842 -0.537163 -0.678518 -0.501068
-0.151594 -0.0649433 0.407747 0.185914 -0.98022 -0.0678636
-0.00312685 -0.11374 0.4445 -0.0248938 -0.999558 -0.0162446
-0.00180111 -0.034155 0.19031 -0.0276578 0.998098 -0.0551022
0.0312247 -0.0538853 0.483563 0.973657 0.22783 -0.00927415
-0.0299304 -0.088863 0.365489 -0.968944 -0.247138 -0.00834657
0.0387482 -0.0312756 0.507858 -0.185856 -0.982548 0.00755872
0.257004 -0.0825684 0.373549 0.185914 0.98022 0.0678636
-0.282592 -0.0877709 0.408147 0.170974 -0.985246 -0.00757953
-0.0691866 -0.0446731 0.573682 0.00558409 -0.938087 0.346354
-0.0331961 -0.0713985 0.489823 -0.999664 -0.0249094 -0.00716335
0.310489 -0.0836421 0.432048 -0.196897 -0.980165 -0.0225582
-0.0806603 -0.0573849 0.124483 0.15188 -0.97196 0.179518
-0.0422752 -0.105535 0.444165 -0.348898 -0.936867 -0.0234725
0.0236393 -0.0263062 0.665277 0.877479 0.474751 -0.0681273
0.00345949 0.0484809 0.117017 -0.999787 -0.019627 0.00640997
-0.0334637 -0.0403367 0.256155 -0.547074 0.833028 -0.082307
-0.00252485 -0.0206315 0.482995 -0.0564691 0.997953 -0.0300035
-0.129757 -0.0617672 0.475531 0.170974 -0.985246 -0.00757953
-0.0765846 -0.0514966 0.419015 0.185914 -0.98022 -0.0678636
-0.0315576 -0.0900427 0.590827 -0.973688 -0.227745 -0.00796578
0.00217189 0.101177 0.0775391 -0.999787 -0.0196271 0.00640977
-0.0825971 -0.0396998 0.49099 -0.185856 0.982548 -0.00755872
0.228442 -0.0757057 0.352672 0.185914 0.98022 0.0678636
0.134903 -0.0694872 0.0415095 0.298952 0.945256 0.130839
-0.0220855 -0.0577478 0.142994 -0.973901 -0.0394853 -0.223514
-0.209209 -0.063957 0.451015 -0.18586 0.982547 -0.00754898
-0.194936 -0.0728838 0.460576 0.164181 -0.986365 0.0113678
0.00452923 0.00396213 0.147554 -0.999787 -0.019627 0.00640997
0.0360129 -0.109964 0.530925 0.297764 -0.954405 -0.0211588
-0.0177444 -0.0577663 0.124134 -0.971628 -0.210886 -0.10708
-0.0152382 -0.0106672 0.692167 -0.715686 0.687247 -0.124438
-0.224795 -0.067354 0.472288 -0.196913 0.980161 0.022597
0.0108064 -0.0986856 0.830889 0.574844 -0.740504 0.348148
0.440584 -0.108572 0.379744 -0.196913 -0.980161 -0.022597
0.0302031 -0.0407635 0.693672 0.980703 0.195207 -0.0107795
-0.025472 -0.0612953 0.210916 -0.996211 -0.0280436 -0.0823267
0.335498 -0.0903945 0.442389 -0.317362 -0.889604 -0.32846
0.440729 -0.108643 0.335003 -0.185856 -0.982548 0.00755872
-0.0235506 -0.0456001 0.170135 -0.721557 0.678574 -0.137454
0.107024 -0.0553252 0.390925 0.185914 0.98022 0.0678636
0.36096 -0.0981972 0.3145 0.185914 0.98022 0.0678539
-0.0236978 -0.0399924 0.338353 -0.842336 0.538598 -0.0195315
0.0471567 -0.0674436 0.254765 0.96188 -0.1603 -0.221566
-0.0134139 -0.0256927 0.454527 -0.587988 0.808504 -0.0242991
-0.152311 -0.0653392 0.431087 0.170974 -0.985246 -0.00757953
0.0546692 -0.037736 0.116849 -0.303002 -0.952877 0.0146591
0.161015 -0.0723839 0.0628152 -0.303026 -0.95287 0.0146121
0.209413 -0.0689468 0.506125 -0.317373 -0.889589 -0.328489
0.288146 -0.0886563 0.397966 0.170974 0.985246 0.00757953
0.01868 -0.112166 0.435817 0.174853 -0.984427 -0.0181572
-0.010285 -0.099431 0.272206 -0.137653 -0.975795 -0.169931
-0.0619 -0.078265 0.580388 0.952026 0.254091 0.170539
-0.00579175 -0.116776 0.63444 -0.021834 -0.999629 -0.0162946
-0.0301189 -0.107858 0.590144 0.305869 0.95161 0.0297089
0.012531 -0.107914 0.322478 0.122156 -0.977886 -0.169757
0.293455 -0.089709 0.415028 0.170974 0.985246 0.00757953
-0.00807287 -0.0332515 0.603632 0.00558409 -0.938087 0.346354
0.152203 -0.0641203 0.514942 0.130939 0.987205 -0.0910026
-0.0741062 -0.0665444 0.651074 0.971933 -0.200511 0.123055
-0.0319216 -0.057631 0.477732 -0.981485 0.191342 -0.00867376
-0.0429343 -0.0349855 0.468516 -0.387471 0.921605 -0.0225934
0.433968 -0.109252 0.307941 -0.170094 -0.983074 0.0680749
-0.00406022 -0.00400069 0.111585 0.998311 0.00760874 0.0575941
0.0986571 -0.0538237 0.392158 0.185914 0.98022 0.0678636
0.0284607 -0.0343817 0.587194 -0.324923 -0.945175 0.0327156
-0.0135899 -0.0894708 0.221147 -0.248898 -0.951062 -0.183114
-0.0848912 -0.0434628 0.385784 -0.170099 0.983074 -0.0680622
0.0644176 -0.0686561 0.590214 -0.981813 -0.0672202 0.177552
0.0296229 -0.030508 0.466689 0.278494 0.960265 -0.0182307
0.0677697 -0.0540048 0.466514 0.861709 0.505404 -0.0450003
-0.110954 -0.0564517 0.538773 0.130882 -0.9872 0.0911339
-0.0154079 -0.0251176 0.153892 -0.320032 0.947154 0.0218616
-0.117528 -0.0596925 0.481694 0.170974 -0.985246 -0.00757953
-0.0291816 -0.0786201 0.300949 -0.979433 -0.191029 -0.0649563
-0.052512 -0.0442147 0.353318 -0.623149 0.7814 -0.0331552
0.0144688 -0.106627 0.305644 0.624313 -0.770593 -0.128138
0.0288396 -0.0941071 0.430703 0.932476 -0.361109 -0.00944217
0.144116 -0.0746335 0.0693718 0.262196 0.964901 0.0148418
-0.104754 -0.0566129 0.415742 0.185914 -0.98022 -0.0678636
-0.387104 -0.098163 0.378752 -0.18586 0.982547 -0.00754898
-0.033159 -0.0293964 0.574133 -0.24898 0.968346 -0.0177321
-0.0262079 -0.113621 0.675934 -0.195902 -0.953311 0.229827
-0.045944 -0.104381 0.46624 -0.402049 -0.915263 -0.0255006
-0.0692194 -0.0957149 0.639307 -0.639945 -0.767573 -0.0360748
0.032151 -0.052589 0.675751 0.993887 0.110391 0.00176461
0.173949 -0.0649632 0.520416 0.00558409 0.938087 -0.346354
-0.0333093 -0.073738 0.513843 -0.999605 -0.0271855 -0.00719257
0.310591 -0.0835745 0.427174 -0.192554 -0.981221 -0.0113093
0.0228108 -0.0361053 0.237801 0.368769 0.92616 -0.0789749
0.000913788 0.043039 0.180248 -0.906973 -0.315471 -0.279065
0.0172779 -0.0425133 0.509999 0.170974 0.985246 0.00757953
0.0104727 -0.0249017 0.623264 0.065936 0.997718 -0.014538
0.221429 -0.0721452 0.501729 0.00558409 0.938087 -0.346354
-0.0424174 -0.0375449 0.362716 -0.44392 0.895721 -0.0248733
0.0727865 -0.0438453 0.124246 -0.330886 -0.942668 -0.0434964
-0.44724 -0.112557 0.293371 -0.170094 0.983074 -0.0680749
0.0298038 -0.0934003 0.502972 0.959769 -0.28065 -0.0088541
-0.022096 -0.105788 0.378188 -0.800807 -0.598747 -0.0144502
-0.0361427 -0.0327928 0.449492 -0.332069 0.943031 -0.0205586
0.0292334 -0.0610161 0.289925 0.995506 0.0843385 -0.043079
-0.282485 -0.0877309 0.405352 0.170974 -0.985246 -0.00757953
0.098615 -0.0562092 0.455542 0.170974 0.985246 0.00757953
-0.19218 -0.070878 0.382281 0.185914 -0.98022 -0.0678636
-0.000714823 0.0107668 0.217377 0.906981 -0.31546 -0.279054
-0.0299326 -0.0432545 0.42777 0.185914 -0.98022 -0.0678636
-0.00319176 0.0600435 0.133912 0.999412 -0.032927 -0.00960702
-0.076414 -0.0684396 0.666494 0.989734 -0.0677624 0.12584
0.0638652 -0.057341 0.354105 0.833046 0.55142 -0.0443972
0.0424042 -0.0343795 0.486559 0.348853 0.93693 -0.0215527
-0.415727 -0.110384 0.34431 0.170972 -0.985247 -0.00756998
-0.0777391 -0.0698806 0.552814 -0.99664 0.0622521 -0.0532322
0.000370563 0.0479882 0.040762 -0.998311 0.00760912 0.057597
0.00171339 -0.120976 0.48131 0.0561983 -0.998124 -0.024275
0.331827 -0.0892858 0.341058 -0.170094 -0.983074 0.0680749
-0.0208756 -0.0414138 0.202059 -0.901438 0.431269 -0.0376357
-0.196496 -0.0623693 0.489483 -0.223349 0.970612 0.0895957
-0.0199528 -0.112067 0.444927 -0.174851 -0.984435 -0.0177665
0.16239 -0.0729968 0.0744008 -0.330822 -0.942696 -0.0433706
-0.0156386 -0.041274 0.438323 0.185914 -0.98022 -0.0678636
-0.0195195 -0.0414455 0.570013 0.130884 -0.987201 0.0911268
-0.0128275 -0.0502325 0.824243 -0.580598 0.771154 0.261204
0.18753 -0.0640128 0.345476 -0.170099 -0.983074 0.0680622
-0.29666 -0.0902334 0.424358 0.164181 -0.986365 0.0113678
0.00803182 -0.0327716 0.0372178 0.872163 0.484615 -0.0669311
-0.0291688 -0.0286184 0.561656 -0.226033 0.973965 -0.0173359
0.427973 -0.106259 0.336182 -0.170094 -0.983074 0.0680749
-0.0570956 -0.0467744 0.404198 0.185914 -0.98022 -0.0678636
0.032168 -0.0333943 0.657374 -0.255512 -0.966372 0.0289484
-0.00637304 -0.0404224 0.552965 0.159689 -0.986906 0.0227209
0.126804 -0.0610593 0.450115 0.170974 0.985246 0.00757953
-0.0384452 -0.107895 0.476695 -0.297761 -0.954394 -0.0216953
0.000415989 -0.0248194 0.328433 0.0564903 0.998387 -0.00562291
-0.022336 -0.0339556 0.474675 -0.824508 0.565588 -0.0172131
0.00646479 -0.021368 0.486418 0.299443 0.953688 -0.0285054
-0.0341755 -0.069422 0.204135 -0.863608 -0.448341 -0.23059
0.108677 -0.054397 0.37299 0.185914 0.98022 0.0678636
0.217139 -0.0766646 0.440908 0.170974 0.985246 0.00757953
0.0338428 -0.0304211 0.527477 -0.192572 -0.981217 -0.0113542
0.0192483 -0.0933459 0.249604 0.306487 -0.934761 -0.17969
-0.0590584 -0.051092 0.608372 0.710738 -0.693605 0.117316
-0.00260847 0.085049 0.108888 0.999412 -0.032927 -0.00960702
-0.338011 -0.0888143 0.414937 -0.192554 0.981221 0.0113093
0.135028 -0.0499094 0.453033 -0.185856 -0.982548 0.00755872
-0.00432056 -0.113164 0.410864 -0.021834 -0.999629 -0.0162946
0.0625952 -0.0875122 0.379133 0.80577 -0.590603 -0.0438578
-0.0333867 -0.0323194 0.418018 -0.170099 0.983074 -0.0680622
-0.0658664 -0.0819122 0.379763 -0.911412 -0.408603 -0.0486932
-0.00365665 -0.0265061 0.486756 -0.0246461 0.999595 -0.0142601
-0.280271 -0.0779569 0.378475 -0.185856 0.982548 -0.00755872
-0.0618051 -0.0805471 0.331897 -0.888875 -0.3985 -0.226053
-0.069669 -0.0966132 0.666396 -0.639945 -0.767573 -0.0360748
0.0506078 -0.0999284 0.405936 0.562282 -0.82633 -0.0318855
-0.00509817 -0.11955 0.443032 -0.18351 -0.982729 -0.0238288
0.0466329 -0.101245 0.375075 0.502478 -0.864097 -0.0291921
0.0283451 -0.0889363 0.778372 0.964192 -0.256548 0.067213
0.0391843 -0.0614252 0.218117 0.974418 0.0538851 -0.218186
0.176391 -0.0579893 0.487879 -0.196897 -0.980165 -0.0225582
0.074089 -0.0517354 0.618736 0.769813 0.636945 -0.0410922
0.10064 -0.0512367 0.34936 0.185914 0.98022 0.0678636
0.00468312 -0.028739 0.336857 0.0246391 0.999341 -0.0266571
0.377522 -0.0964261 0.368932 -0.18586 -0.982547 0.00754898
0.0197644 -0.0283479 0.552069 0.725019 0.688431 -0.0202344
-0.407717 -0.109032 0.349355 0.170972 -0.985247 -0.00756998
-0.0149516 -0.104658 0.306138 -0.193934 -0.965827 -0.171954
-0.0233958 -0.107704 0.535109 -0.824546 -0.565634 -0.0134955
0.0429337 -0.0378561 0.63376 -0.411696 -0.910176 0.0456812
-0.00582776 -0.0233556 0.0990758 -0.261446 0.956096 -0.132383
0.0287619 -0.0670314 0.274171 0.99829 -0.028102 -0.0512554
0.0708063 -0.0636617 0.631639 -0.931888 -0.323039 0.165015
-0.392981 -0.106722 0.384783 0.164181 -0.986365 0.0113678
-0.076964 -0.0506145 0.405234 0.185914 -0.98022 -0.0678636
-0.00125904 -0.0245159 0.622967 -0.0218956 0.999659 -0.0142056
-0.0329727 -0.0548979 0.742013 -0.983858 0.118222 0.134339
-0.214437 -0.0758621 0.397539 0.170972 -0.985247 -0.00756998
-0.0687085 -0.0891028 0.51562 -0.769781 -0.636899 -0.0423971
0.00611751 -0.0952288 0.245051 0.0824033 -0.980869 -0.176367
0.0521737 -0.037276 0.0951695 -0.303002 -0.952877 0.0146591
-0.00702998 -0.0515137 0.0568198 -0.68433 -0.721806 -0.103387
0.0358212 -0.0311055 0.527688 0.332073 0.943044 -0.0198938
0.0194223 -0.0415467 0.153352 0.244147 0.96948 -0.02237
-0.0925082 -0.0507608 0.55757 0.00558409 -0.938087 0.346354
0.0537002 -0.0414017 0.450783 0.516089 0.856058 -0.0285784
0.0225903 -0.0673127 0.187013 0.974811 -0.196745 -0.105048
-0.000293308 0.0215595 0.0429148 0.998311 0.00760874 0.0575941
-0.182529 -0.0848018 0.0518446 0.262217 -0.964894 -0.0149184
-0.0755117 -0.0525401 0.499753 0.170974 -0.985246 -0.00757953
-0.00645052 -0.0784207 0.153651 -0.260368 -0.948539 -0.180228
0.0410961 -0.0306467 0.631125 0.297818 0.954418 -0.0197378
-0.0590048 -0.0444829 0.469028 -0.623149 0.7814 -0.0331552
0.00313195 0.065749 0.118803 -0.999787 -0.019627 0.00640997
0.0259429 -0.0723566 0.180155 0.80313 -0.552292 -0.223506
-0.00142112 0.0864176 0.129561 0.906981 -0.31546 -0.279054
0.00295678 0.00367339 0.21741 -0.992284 -0.0977118 -0.0763243
-0.0509823 -0.0500725 0.128302 0.244147 -0.96948 0.02237
-0.0610163 -0.041829 0.573327 -0.576849 0.816274 -0.0306962
0.280718 -0.0853424 0.348653 0.185914 0.98022 0.0678636
-0.0175572 -0.112022 0.658493 0.113337 0.993435 0.0155382
0.288938 -0.0807092 0.357751 -0.170094 -0.983074 0.0680749
0.00367038 0.0297882 0.100364 -0.998311 0.00760924 0.0575941
0.0109882 -0.0318072 0.369439 -0.170099 -0.983074 0.0680622
0.0249729 -0.106056 0.573468 0.862757 -0.50546 -0.0127042
-0.028496 -0.0319705 0.371516 -0.278491 0.960255 -0.0188089
-0.024888 -0.045098 0.27996 -0.932178 0.360982 -0.0271367
0.358959 -0.0937301 0.424229 -0.22335 -0.970611 -0.0896026
-0.00171054 -0.0339824 0.371159 0.185914 -0.98022 -0.0678636
-0.0661602 -0.0519798 0.650939 0.687863 -0.720956 0.0840652
-0.00741506 -0.0913776 0.224699 -0.137448 -0.974342 -0.178232
0.0409006 -0.0329011 0.524655 0.387478 0.92162 -0.0218506
-0.017141 -0.0369825 0.166193 -0.870511 0.491017 -0.0333629
-0.0887275 -0.0430346 0.548676 -0.22335 0.970611 0.0896026
-0.307216 -0.0837417 0.359629 -0.170094 0.983074 -0.0680749
-0.384008 -0.103807 0.332391 0.185914 -0.98022 -0.0678539
-0.064311 -0.0819802 0.35122 -0.911412 -0.408603 -0.0486932
-0.00464164 -0.00741942 0.130244 0.999787 -0.0196293 0.00640752
0.0321845 -0.0534532 0.653032 0.986621 0.162888 -0.00685775
-0.0594704 -0.101576 0.608858 -0.516062 -0.856014 -0.0303302
0.0226569 -0.0866651 0.223868 0.420932 -0.886305 -0.193079
0.0759283 -0.0564407 0.591633 0.833046 0.55142 -0.0443972
0.413454 -0.109698 0.396414 0.130849 0.987198 -0.0912087
-0.0675523 -0.0628454 0.382526 -0.952226 0.301155 -0.0507033
-0.00829938 -0.0295221 0.0832122 -0.633868 0.773126 -0.0221049
0.0065559 -0.0381344 0.126628 0.262196 0.964901 0.0148418
0.419188 -0.111021 0.349164 0.170972 0.985247 0.00756998
0.0853739 -0.0487199 0.354829 0.185914 0.98022 0.0678636
-0.0196118 -0.0265922 0.606363 -0.725012 0.688424 -0.0207058
0.0313976 -0.0874472 0.653978 0.977094 -0.210969 0.0279138
-0.0391306 -0.0410625 0.37091 0.185914 -0.98022 -0.0678636
0.153234 -0.0713313 0.0437009 -0.261425 -0.956096 0.13243
-0.0435821 -0.106223 0.491024 -0.348898 -0.936867 -0.0234725
-0.0586705 -0.0932288 0.615054 0.739715 0.662847 0.115997
-0.334807 -0.0965903 0.376706 0.170972 -0.985247 -0.00756998
0.0511429 -0.0501122 0.128337 0.244147 0.96948 -0.02237
0.143555 -0.0638398 0.433693 0.170974 0.985246 0.00757953
-0.00804922 -0.04032 0.445334 0.185914 -0.98022 -0.0678636
-0.0150629 -0.0352572 0.137363 -0.870511 0.491017 -0.0333629
-0.029283 -0.0977207 0.603389 -0.942306 -0.334626 -0.00925406
0.0396085 -0.0355069 0.391833 0.387478 0.92162 -0.0218506
0.0397577 -0.0861748 0.268257 0.654514 -0.726393 -0.209678
0.332983 -0.0877551 0.400933 -0.18586 -0.982547 0.00754898
0.0325336 -0.0594147 0.188912 0.974418 0.0538851 -0.218186
0.00811595 -0.0249955 0.606136 0.065936 0.997718 -0.014538
-0.00779681 -0.0384273 0.123746 0.262196 -0.964901 -0.0148418
0.0313519 -0.0544953 0.48193 0.973657 0.22783 -0.00927415
-0.0293681 -0.0462756 0.520996 -0.942283 0.334619 -0.0115387
0.278387 -0.0870033 0.403234 0.170974 0.985246 0.00757953
0.0495151 -0.107958 0.650422 0.402055 -0.915278 -0.0248552
0.0511542 -0.10326 0.513591 0.457802 -0.888641 -0.0271012
0.074755 -0.038524 0.450997 -0.185856 -0.982548 0.00755872
-0.408108 -0.107807 0.324146 0.185914 -0.98022 -0.0678539
-0.429958 -0.112542 0.332678 0.185914 -0.98022 -0.0678636
-0.0172225 -0.0932045 0.827956 -0.845639 -0.472097 0.249036
-0.0203015 -0.02819 0.555494 -0.196897 0.980165 0.0225582
-0.133822 -0.0544936 0.540016 -0.317362 0.889604 0.32846
0.170616 -0.0674974 0.392527 0.185914 0.98022 0.0678636
-0.0485411 -0.036337 0.397862 -0.170099 0.983074 -0.0680622
0.0623296 -0.0931322 0.462568 0.704855 -0.708306 -0.0385019
-0.0462769 -0.0330614 0.460848 -0.185856 0.982548 -0.00755872
-0.0119057 -0.121603 0.647471 -0.533162 -0.845834 -0.0174162
0.0120025 -0.0306048 0.165079 0.682309 0.730837 -0.018189
-0.0333816 -0.0655863 0.647292 -0.999636 0.0229452 0.0141897
0.0707107 -0.0514021 0.460129 0.170974 0.985246 0.00757953
-0.0682398 -0.043067 0.0799748 -0.261425 0.956096 -0.13243
0.072152 -0.0487873 0.630302 0.704875 0.708325 -0.0377589
-0.143011 -0.067296 0.089472 -0.392114 0.904616 0.167082
-0.00155757 0.0400353 0.062388 0.998311 0.00760874 0.0575941
0.148589 -0.0599914 0.533473 0.00558409 0.938087 -0.346354
-0.0353368 -0.0344874 0.35885 -0.348858 0.936941 -0.0209548
-0.400274 -0.107184 0.40472 0.130884 -0.987201 0.0911268
0.234496 -0.0796387 0.435974 0.170974 0.985246 0.00757953
0.00111517 -0.112537 0.367308 0.024893 -0.999557 -0.0163063
0.0124245 -0.0265295 0.402956 0.502482 0.864208 -0.0256242
-0.00284459 -0.0998516 0.270736 -0.0245424 -0.985448 -0.168193
0.0271414 -0.110661 0.67407 -0.193291 0.980922 0.0207518
0.0263317 -0.059092 0.78581 0.935665 0.311174 0.166439
0.310943 -0.0838048 0.435144 -0.196913 -0.980161 -0.022597
-0.0730433 -0.055599 0.126303 0.231949 -0.971694 0.0448357
0.0515443 -0.0424001 0.0518195 -0.261446 -0.956096 0.132383
-0.0767984 -0.0826225 0.588984 -0.891213 -0.450996 -0.048406
-0.00578582 -0.0363126 0.160443 -0.189235 0.980036 -0.060986
0.0212164 -0.0339007 0.423127 0.779159 0.626555 -0.0184376
0.0810995 -0.0595956 0.659445 0.89117 0.451178 -0.0474834
0.101486 -0.0455714 0.396801 -0.170099 -0.983074 0.0680622
0.141415 -0.051004 0.467812 -0.18586 -0.982547 0.00754898
-0.0217131 -0.109034 0.49145 -0.800807 -0.598747 -0.0144502
-0.104584 -0.0606244 0.0467546 0.298952 -0.94525 -0.130883
0.0459465 -0.0653057 0.248345 0.974874 -0.0538806 -0.216142
0.0359 -0.105835 0.35455 0.387255 -0.921648 -0.024475
0.0545115 -0.0509714 0.114004 0.262196 0.964901 0.0148418
0.0318532 -0.0445825 0.098932 0.262196 0.964901 0.0148418
0.274789 -0.0789224 0.348199 -0.170099 -0.983074 0.0680622
-0.383311 -0.103652 0.332054 0.185914 -0.98022 -0.0678539
0.375059 -0.100825 0.313823 0.185914 0.98022 0.0678539
0.0780034 -0.0516645 0.417553 0.185914 0.98022 0.0678636
0.109138 -0.0535624 0.359671 0.185914 0.98022 0.0678636
0.0326124 -0.0550854 0.610201 0.984383 0.176022 0.00250085
0.0282959 -0.0312976 0.404826 0.278494 0.960265 -0.0182307
0.216849 -0.0664821 0.4833 -0.223349 -0.970612 -0.0895957
-0.0140004 -0.0973756 0.264162 -0.193934 -0.965827 -0.171954
-0.375236 -0.0960195 0.365573 -0.18586 0.982547 -0.00754898
0.0622391 -0.0500756 0.523047 0.164167 0.986367 -0.0114102
0.308338 -0.0919794 0.435826 0.159689 0.986906 -0.0227209
0.158156 -0.0552139 0.507541 -0.223349 -0.970612 -0.0895957
-0.219074 -0.0702589 0.334092 -0.170099 0.983074 -0.0680622
0.0235108 -0.0309871 0.580736 -0.22335 -0.970611 -0.0896026
-0.0683682 -0.0421807 0.111092 -0.303026 0.95287 -0.0146121
-0.444838 -0.114286 0.391194 0.00556346 -0.938073 0.346394
-0.434226 -0.112157 0.315416 0.185914 -0.98022 -0.0678539
0.0479402 -0.0590273 0.25991 0.93704 0.296352 -0.184745
0.00209221 -0.0990663 0.26599 0.0277454 -0.985357 -0.168233
-0.0575881 -0.0560394 0.576511 0.886191 -0.438425 0.149832
-0.334914 -0.0960108 0.431886 0.130884 -0.987201 0.0911268
0.0408886 -0.0463673 0.478364 0.170974 0.985246 0.00757953
0.029534 -0.0841013 0.322922 0.966582 -0.246536 -0.0702823
-0.0383816 -0.10193 0.550891 0.565833 0.821054 0.0755246
0.102533 -0.0573601 0.12221 -0.537163 -0.678518 -0.501068
-0.0195955 -0.108233 0.351445 -0.751596 -0.659434 -0.0158386
0.337556 -0.0962342 0.350263 0.185914 0.98022 0.0678636
0.0717303 -0.0526367 0.064108 0.298952 0.94525 0.130883
0.0282711 -0.0590563 0.272078 0.989887 0.136235 -0.039539
-0.182393 -0.0686822 0.508884 0.130882 -0.9872 0.0911339
0.015783 -0.107473 0.794631 0.667933 -0.721076 0.184161
0.0276417 -0.0973603 0.438323 0.9077 -0.419491 -0.0103686
0.180741 -0.0595131 0.3935 -0.170094 -0.983074 0.0680749
0.239047 -0.0707027 0.377595 -0.170094 -0.983074 0.0680749
0.0271454 -0.0314544 0.378993 0.278494 0.960265 -0.0182307
-0.0778574 -0.0523526 0.427891 0.185914 -0.98022 -0.0678636
-0.0538893 -0.10443 0.599945 -0.457793 -0.888624 -0.0277917
0.00698764 -0.112779 0.644262 -0.0676934 0.997618 0.0132534
-0.0649726 -0.045095 0.358361 0.185914 -0.98022 -0.0678636
-0.0308895 -0.0709147 0.317709 -0.99832 -0.0271505 -0.0511848
-0.0680964 -0.0779146 0.393303 -0.95222 -0.301143 -0.0508922
0.0264236 -0.0762063 0.801506 0.986371 -0.0279604 0.162146
-0.0457015 -0.0428384 0.378561 0.185914 -0.98022 -0.0678636
0.00437988 -0.112243 0.544727 -0.0227071 0.999726 0.00573723
0.00053442 0.11856 0.0342789 -0.998311 0.00760912 0.057597
0.115932 -0.0542701 0.35128 0.185914 0.98022 0.0678636
0.00382256 -0.0258033 0.573658 -0.223349 -0.970612 -0.0895957
0.0339664 -0.0302321 0.543126 0.248978 0.968338 -0.0181939
-0.00389326 -0.0244078 0.241184 0.992281 -0.0977269 -0.0763387
0.0930711 -0.0443285 0.393722 -0.170099 -0.983074 0.0680622
-0.003015 0.0696369 0.112491 0.999787 -0.0196271 0.00640977
-0.0330332 -0.0534131 0.736344 -0.992796 0.119296 -0.0111432
0.0195957 -0.0373379 0.233704 0.833818 0.551712 -0.0189969
0.126793 -0.0591 0.391291 0.185914 0.98022 0.0678636
0.0868641 -0.0413939 0.420597 -0.170094 -0.983074 0.0680749
-0.268554 -0.0841892 0.365318 0.185914 -0.98022 -0.0678636
-0.011247 -0.0264697 0.559775 -0.196897 0.980165 0.0225582
0.0182833 -0.0963014 0.263719 0.249232 -0.95231 -0.176035
-0.0699254 -0.0654145 0.415652 -0.981391 0.184749 -0.0523502
0.126704 -0.0491311 0.408409 -0.170094 -0.983074 0.0680749
-0.211755 -0.0668927 0.498299 -0.317362 0.889604 0.32846
0.0878889 -0.0573738 0.0614116 0.298952 0.94525 0.130883
-0.113474 -0.0586035 0.111728 -0.392136 0.9046 0.167119
-0.0259557 -0.104708 0.58697 -0.894329 -0.447272 -0.0111161
0.0315811 -0.0893122 0.622106 0.97354 -0.22771 0.0191785
-0.223793 -0.0775823 0.410091 0.170974 -0.985246 -0.00757953
-0.0168771 -0.0593298 0.836556 -0.849931 0.492883 0.186234
0.0762984 -0.0490472 0.38442 0.185914 0.98022 0.0678636
0.0367983 -0.03545 0.636512 -0.30583 -0.951487 0.0337731
0.0112297 -0.0340512 0.0720277 0.888009 0.456921 -0.0516039
0.129574 -0.0515507 0.380633 -0.170099 -0.983074 0.0680622
0.0601873 -0.101799 0.626313 0.516073 -0.856032 -0.029611
-0.0364964 -0.0296265 0.609641 -0.278491 0.960255 -0.0188089
0.0326554 -0.108654 0.424555 0.297764 -0.954405 -0.0211588
-0.116058 -0.0565187 0.542354 0.00556346 -0.938073 0.346394
0.343702 -0.089782 0.401022 -0.18586 -0.982547 0.00754898
0.0388529 -0.0438409 0.07568 0.298952 0.94525 0.130883
0.0190867 -0.111905 0.425595 0.174853 -0.984427 -0.0181572
0.0397353 -0.034305 0.153223 -0.392081 -0.904642 -0.167017
0.0907798 -0.0547942 0.448349 0.170974 0.985246 0.00757953
-0.0511892 -0.0459438 0.0626899 0.298952 -0.94525 -0.130883
-0.159576 -0.0665516 0.42481 0.170974 -0.985246 -0.00757953
0.0479702 -0.0428507 0.372523 0.185914 0.98022 0.0678636
0.310711 -0.0890681 0.320298 0.185914 0.98022 0.0678539
0.0754336 -0.0504608 0.663683 0.769813 0.636945 -0.0410922
0.0290341 -0.0970496 0.555815 0.942302 -0.334625 -0.00961761
-0.0156596 -0.0249809 0.649579 -0.110099 0.99381 -0.0148527
-0.405341 -0.107975 0.40343 0.130939 -0.987205 0.0910026
-0.0475981 -0.0345891 0.420751 -0.170099 0.983074 -0.0680622
-0.306148 -0.0831502 0.44126 -0.223349 0.970612 0.0895957
-0.0666293 -0.0652169 0.354559 -0.981391 0.184749 -0.0523502
0.0386466 -0.0339095 0.442155 0.387478 0.92162 -0.0218506
-0.0566024 -0.0709621 0.298398 -0.958153 -0.180286 -0.22235
0.398333 -0.107626 0.378208 0.170974 0.985246 0.00757953
0.0312786 -0.0855388 0.43149 0.984345 -0.176084 -0.00775258
-0.120832 -0.0493347 0.536895 -0.22335 0.970611 0.0896026
0.112811 -0.0463386 0.41402 -0.170094 -0.983074 0.0680749
-0.29737 -0.0894312 0.362091 0.185914 -0.98022 -0.0678636
-0.0500773 -0.0358751 0.567463 -0.22335 0.970611 0.0896026
0.031188 -0.0747467 0.326833 0.99513 -0.081411 -0.0555683
0.0917252 -0.0498236 0.107072 -0.320032 -0.947154 -0.0218616
0.0308838 -0.114043 0.662695 0.201255 -0.979364 -0.018515
-0.0218391 -0.0371978 0.340432 -0.800748 0.598751 -0.0173198
-0.201228 -0.0625466 0.438086 -0.185856 0.982548 -0.00755872
-0.272749 -0.0791908 0.339225 -0.170099 0.983074 -0.0680622
0.0115197 -0.117138 0.450278 0.470239 -0.88229 -0.0209761
-0.288793 -0.0889402 0.420274 0.170974 -0.985246 -0.00757953
0.0460763 -0.0442792 0.062346 0.298952 0.94525 0.130883
-0.0282883 -0.0684647 0.786997 -0.976615 0.140037 0.163134
-0.00409241 -0.0105515 0.659262 -0.195195 0.963878 -0.181214
-0.0416486 -0.0475335 0.117737 0.262196 -0.964901 -0.0148418
-0.199185 -0.0732156 0.397545 0.170972 -0.985247 -0.00756998
-0.16509 -0.0635184 0.350192 0.185914 -0.98022 -0.0678636
-0.00704371 -0.0406899 0.503833 0.170974 -0.985246 -0.00757953
-0.21062 -0.07128 0.33757 0.185914 -0.98022 -0.0678636
0.012324 -0.120804 0.688972 0.56548 -0.824638 0.0143091
0.0369445 -0.0313844 0.53281 0.297818 0.954418 -0.0197378
0.230946 -0.0688486 0.473794 -0.223349 -0.970612 -0.0895957
-0.033522 -0.0697322 0.536164 -0.999604 0.0271862 -0.00731232
0.0263443 -0.0799637 0.264541 0.966582 -0.246536 -0.0702823
0.0209707 -0.0285432 0.469693 0.155205 0.987755 -0.0158623
0.0133646 -0.104391 0.3029 0.137639 -0.975655 -0.170742
0.0847643 -0.0514974 0.554828 0.130882 0.9872 -0.0911339
-0.166967 -0.0590875 0.365224 -0.170099 0.983074 -0.0680622
-0.031398 -0.0600504 0.365112 -0.981485 0.191342 -0.00867376
0.00800836 -0.0314903 0.248266 0.140043 0.989695 -0.0298528
0.00588247 -0.0255903 0.182802 -0.537163 -0.678518 -0.501068
-0.0731514 -0.0551445 0.685946 0.818689 -0.564982 0.102683
-0.0279461 -0.0422274 0.532946 -0.92065 0.39018 -0.0127595
-0.160771 -0.0548288 0.446543 -0.185856 0.982548 -0.00755872
0.0235074 -0.0819976 0.205759 0.594889 -0.77725 -0.204916
-0.00186594 0.111311 0.0608697 0.999787 -0.0196293 0.00640752
0.00303372 -0.122534 0.550557 0.183509 -0.982726 -0.0239733
0.440313 -0.109502 0.320182 -0.170094 -0.983074 0.0680749
0.00495928 -0.0225827 0.133352 -0.999787 -0.019627 0.00640997
0.384466 -0.105153 0.369574 0.170972 0.985247 0.00756998
0.0471181 -0.101458 0.389734 0.502478 -0.864097 -0.0291921
0.052457 -0.052168 0.561278 -0.792624 -0.595648 0.130192
-0.0251472 -0.0595379 0.207041 -0.996744 0.0280428 -0.0755982
-0.0596928 -0.0452016 0.465493 -0.640194 0.76747 -0.0337821
-0.0249798 -0.0534091 0.781315 -0.870177 0.419251 0.258884
-0.25243 -0.0825666 0.412023 0.170974 -0.985246 -0.00757953
-0.0256454 -0.110628 0.656456 0.193296 0.980951 0.01929
0.0314584 -0.0801803 0.341419 0.988873 -0.136039 -0.0602011
-0.0269243 -0.044312 0.393475 -0.90767 0.419491 -0.012777
0.0254362 -0.0330235 0.311614 0.278286 0.959549 -0.0426821
0.0505948 -0.103562 0.514035 0.457802 -0.888641 -0.0271012
-0.15102 -0.055475 0.377548 -0.170099 0.983074 -0.0680622
-0.0124625 -0.0315301 0.377125 -0.170099 0.983074 -0.0680622
-0.0336987 -0.0605377 0.736419 -0.996514 0.0815844 -0.0174052
-0.0177221 -0.110687 0.373139 -0.694981 -0.718821 -0.0172612
-0.127953 -0.0703198 0.0908772 0.244147 -0.96948 0.02237
0.28783 -0.0887711 0.423703 0.164181 0.986365 -0.0113678
-0.0156312 -0.0646312 0.127073 -0.879791 -0.452663 -0.145131
0.0315147 -0.0614993 0.354513 0.990628 0.136337 -0.00823037
0.0186067 -0.111821 0.459581 0.694987 -0.718827 -0.0167364
-0.0998562 -0.0590413 0.123781 -0.160348 -0.79402 0.586363
-0.0199199 -0.0373262 0.248935 -0.833825 0.551716 -0.0185989
-0.153539 -0.076686 0.0509345 0.298952 -0.94525 -0.130883
0.374369 -0.103389 0.367995 0.170972 0.985247 0.00756998
-0.0647763 -0.0654122 0.33635 -0.963492 0.181379 -0.196939
-0.0195088 -0.0425672 0.466679 0.170974 -0.985246 -0.00757953
-0.0148318 -0.0400324 0.103822 0.262217 -0.964894 -0.0149184
0.19065 -0.0716294 0.397327 0.185914 0.98022 0.0678636
0.095493 -0.0510774 0.0934482 -0.303002 -0.952877 0.0146591
0.0244402 -0.0313824 0.344778 0.226035 0.973974 -0.0168472
-0.0320505 -0.083263 0.474191 -0.984346 -0.176085 -0.00754205
-0.0121673 -0.031216 0.147636 -0.740308 0.671909 -0.0219856
0.00225959 0.0671218 0.145246 -0.992286 -0.0976983 -0.0763108
0.235961 -0.074856 0.319796 0.185914 0.98022 0.0678539
0.0327184 -0.0777554 0.468613 0.997169 -0.0748465 -0.00723202
0.025962 -0.0312566 0.66275 0.906624 0.418244 -0.0557173
0.202045 -0.0653499 0.362439 -0.170099 -0.983074 0.0680622
-0.0346638 -0.0429049 0.40976 0.185914 -0.98022 -0.0678636
0.0340927 -0.0324296 0.436066 0.332073 0.943044 -0.0198938
0.00242439 0.0700219 0.13939 -0.992282 -0.0977203 -0.0763322
0.0241447 -0.104209 0.442496 0.842384 -0.53873 -0.0126175
-0.00851239 -0.111015 0.337956 -0.0731363 -0.98291 -0.168938
-0.0524019 -0.0397831 0.357736 -0.170099 0.983074 -0.0680622
0.0370897 -0.0349595 0.370257 0.387478 0.92162 -0.0218506
0.0350563 -0.108262 0.655014 -0.305883 0.951652 0.0281937
0.0337229 -0.0641529 0.597044 0.997167 0.0748446 -0.00756978
0.0520299 -0.101621 0.658865 -0.442642 0.895447 0.0473535
-0.156955 -0.055938 0.385694 -0.170099 0.983074 -0.0680622
-0.179233 -0.0666971 0.357362 0.185914 -0.98022 -0.0678636
-0.10546 -0.05743 0.509137 0.164167 -0.986367 0.0114102
-0.0299613 -0.0293622 0.531098 -0.24898 0.968346 -0.0177321
0.0279427 -0.0961674 0.691935 0.940461 -0.338597 0.0297401
0.0628425 -0.0498744 0.439033 0.170974 0.985246 0.00757953
0.000261743 -0.113042 0.648845 -0.0227057 0.999663 0.0126216
-0.0382686 -0.10558 0.609334 0.357746 0.933041 0.0381119
0.0592204 -0.0453577 0.454344 0.684924 0.727754 -0.0354023
-0.188694 -0.0602122 0.433349 -0.185856 0.982548 -0.00755872
-0.0454979 -0.0373624 0.424263 -0.44392 0.895721 -0.0248733
-0.00933506 -0.0491978 0.0595009 -0.870091 -0.483812 -0.0941648
0.0691353 -0.0664218 0.397558 0.976838 0.207537 -0.0521115
0.012933 -0.0326954 0.05439 0.298952 0.94525 0.130883
0.176211 -0.0824969 0.0411156 0.298952 0.94525 0.130883
-0.0909617 -0.0544607 0.042562 -0.261446 0.956096 -0.132383
0.00731884 -0.114983 0.785499 0.35663 -0.913237 0.197009
-0.170628 -0.0606452 0.351877 -0.170099 0.983074 -0.0680622
0.242996 -0.0801608 0.471575 0.130884 0.987201 -0.0911268
0.0107961 -0.0388498 0.416573 0.185914 0.98022 0.0678636
-0.0291584 -0.0477654 0.45746 -0.932459 0.361091 -0.0115153
-0.139806 -0.0550591 0.535766 -0.317362 0.889604 0.32846
-1.32527e-06 0.0641974 0.0322208 0.998311 0.00760874 0.0575941
-0.0204463 -0.0616884 0.156444 -0.974836 -0.19675 -0.104809
