-0.0385044 -0.031464 0.431156 -0.976277 0.216443 -0.00589954
-0.0239598 -0.0190969 0.636123 -0.366483 0.930425 3.97176e-05
0 0.00620424 0.133165 -1 0 0
-0.124711 -0.078623 0.524173 -0.146885 -0.988977 -0.0186853
-0.0637416 -0.0876092 0.514525 0.148933 0.98873 0.0151959
0 0.0745863 0.0462874 1 0 0
0.203529 -0.0667161 0.434799 0.130704 -0.991176 -0.0220487
-0.022087 -0.0904676 0.296458 -0.308843 -0.951046 -0.011322
-0.0445528 -0.0878944 0.435889 -0.129027 -0.991526 -0.015108
0.00593526 -0.0976982 0.44076 0.317596 -0.94814 -0.0127803
0.00549949 -0.0190128 0.0676243 0.361913 0.930633 -0.05424
-0.114172 -0.112119 0.615597 0.910477 0.393746 -0.126477
0.151584 -0.0958718 0.624606 0.358488 0.917259 0.173556
0.0261102 -0.0895305 0.32749 0.308843 -0.951046 -0.011322
0 0.112206 0.0491136 -1 0 0
-0.155271 -0.0734097 0.452743 -0.135131 -0.990801 -0.00729224
-0.0194276 -0.0173597 0.420316 -0.36481 0.931082 -0.000210511
-0.0442499 -0.0628262 0.50957 -0.881336 -0.472455 -0.00581896
0.0427429 -0.0413444 0.754332 0.975875 0.218234 -0.00646289
0.0410022 -0.0372054 0.615537 0.975169 0.221377 -0.00607685
0.0335692 -0.0852267 0.702146 0.887986 -0.459841 -0.00522558
0.11562 -0.0320012 0.0447049 -0.0219064 0.987994 0.152929
0.00140651 -0.0729454 0.116178 0.273107 -0.933119 -0.233882
-0.0459411 -0.0597215 0.614938 -0.977807 0.209406 -0.00645591
0.0311747 -0.0220072 0.812276 0.366525 0.930405 0.0024471
0.210929 -0.0665134 0.475388 -0.133457 0.99098 0.0121267
-0.028938 -0.0866094 0.820868 -0.8764 -0.47298 0.0906238
-0.0255969 -0.0848377 0.854817 -0.85933 -0.463767 0.215572
-0.0630615 -0.03743 0.0716844 0.0198568 0.988101 0.152518
-0.000812182 -0.103168 0.716375 -0.275844 -0.961115 -0.0129552
0 0.0291906 0.0473831 -1 0 0
-0.0464519 -0.0907112 0.631086 -0.132711 -0.99103 -0.0156947
0.140443 -0.0754184 0.44811 -0.128991 0.991612 0.00816995
0.0355357 -0.0236361 0.597738 0.368937 0.929454 -7.83048e-05
0.0128894 -0.0179184 0.135929 0.368407 0.92859 -0.0446912
0.263638 -0.0590851 0.457158 0.139801 -0.990164 -0.00556206
0.278506 -0.0559568 0.391736 -0.130268 0.991256 0.0210011
-0.0056674 -0.0922568 0.215475 -0.305105 -0.939535 -0.155514
-0.0353304 -0.0689282 0.200751 -0.867676 -0.470193 -0.16142
0 0.0236806 0.139049 -1 0 0
0.00827476 -0.0130181 0.337553 0.360993 0.932569 0
0.0428005 -0.055746 0.272469 0.977184 0.212304 -0.00613808
0.0800756 -0.0850734 0.559816 0.132618 -0.991041 -0.0158249
0.237075 -0.0622773 0.43307 -0.130268 0.991256 0.0210011
0.0343622 -0.0296858 0.836079 0.967315 0.233766 0.0982634
0.135709 -0.101537 0.547938 -0.353642 0.928303 -0.114848
-0.0407604 -0.0426359 0.39461 -0.976277 0.216443 -0.00589954
0.144037 -0.109908 0.566421 0 0 1
0.028549 -0.0515477 0.118132 0.868035 -0.445592 -0.219005
0.0410405 -0.0407496 0.512523 0.977001 0.213118 -0.00708415
0.428088 -0.0346844 0.316186 0.132648 -0.99105 -0.0149982
0.354924 -0.0457105 0.387974 0.130704 -0.991176 -0.0220487
0.0437633 -0.0628187 0.444045 0.879351 -0.476141 -0.0056147
0.0231334 -0.0932887 0.53458 0.295178 -0.955326 -0.014905
-0.0172324 -0.0968016 0.624087 -0.305362 -0.952164 -0.011772
-0.0184355 -0.0169847 0.361739 -0.363304 0.931671 -0.00013773
0.0134843 -0.0974464 0.609675 0.317596 -0.94814 -0.0127803
0.108564 -0.081569 0.579089 0.132618 -0.991041 -0.0158249
0.00941456 -0.0259713 0.031562 0.946486 0.171314 -0.273526
0.0405057 -0.0714272 0.786394 0.881022 -0.463695 0.0937385
0.0329445 -0.022663 0.311984 0.361587 0.932338 0.000683553
0.0306101 -0.0914049 0.734591 0.882156 -0.470925 -0.00543329
0.00651876 -0.0123368 0.662176 0.360802 0.932643 0
-0.130119 -0.0311503 0.0400549 0.0325704 0.989477 0.140977
-0.0160875 -0.0160694 0.811346 -0.364474 0.931213 0.00103046
0.263309 -0.0585303 0.421191 0.130704 -0.991176 -0.0220487
-0.205729 -0.0659603 0.408672 -0.131149 -0.991292 -0.0118128
-0.00252715 -0.0999647 0.51522 -0.275844 -0.961115 -0.0129552
0.0359794 -0.0801575 0.643162 0.883738 -0.467859 -0.0107027
0.168281 -0.0728077 0.518208 0.12053 -0.992527 -0.0190603
-0.0515666 -0.087439 0.4659 -0.129027 -0.991526 -0.015108
-0.0805916 -0.0855283 0.550407 -0.136161 -0.990606 0.0126732
-0.037771 -0.0909768 0.552568 0.090677 0.99574 0.0167204
-0.031205 -0.0918327 0.567932 0.090677 0.99574 0.0167204
0.0170813 -0.0955488 0.558282 0.317596 -0.94814 -0.0127803
0.0423852 -0.0509797 0.371201 0.977184 0.212304 -0.00613808
0.0643532 -0.0872282 0.563001 0.132618 -0.991041 -0.0158249
0.00440473 -0.01152 0.49092 0.360993 0.932569 0
-0.016122 -0.0675172 0.112951 -0.28971 -0.928396 -0.232698
0.0770186 -0.0850863 0.535006 0.132618 -0.991041 -0.0158249
0.123009 -0.0790817 0.549913 -0.130411 0.99128 0.0189214
-0.190484 -0.0691432 0.502821 0.121131 0.992212 0.0290362
0.0396827 -0.0900833 0.535054 0.132618 -0.991041 -0.0158249
0.394032 -0.0397659 0.350759 0.132648 -0.99105 -0.0149982
0.0389604 -0.0706297 0.354221 0.879351 -0.476141 -0.0056147
0.135349 -0.133128 0.621225 -0.348285 -0.907226 0.235879
0.0350376 -0.0634495 0.863433 0.866448 -0.44947 0.217358
-0.0360123 -0.027075 0.813367 -0.969816 0.222644 0.0994317
-0.00190695 -0.010555 0.588338 -0.361778 0.932264 0
-0.0333153 -0.0852308 0.646112 -0.884449 -0.466597 -0.00607774
-0.0161707 -0.0944592 0.435958 -0.331742 -0.943249 -0.0151447
-0.347325 -0.0465189 0.391271 -0.136112 -0.990677 -0.00566112
0.03189 -0.0828547 0.284559 0.879193 -0.476432 -0.0056718
-0.103587 -0.0821982 0.547342 -0.146885 -0.988977 -0.0186853
0.0305586 -0.0395605 0.119456 0.963391 0.225899 -0.144384
0.0456761 -0.0879983 0.456603 -0.134394 0.990802 0.0158211
-0.0519455 -0.0893062 0.546306 0.121917 0.992535 0.00337185
-0.137625 -0.0762819 0.501629 0.148933 0.98873 0.0151959
-0.14683 -0.13087 0.620697 -0.35104 -0.906231 0.23562
0.0206056 -0.0178648 0.800978 0.362514 0.931978 -0.000670188
-0.0416158 -0.0659864 0.369619 -0.878863 -0.477037 -0.00593177
-0.0435844 -0.0664603 0.782139 -0.879947 -0.466989 0.0872667
0.0298272 -0.0919193 0.567527 -0.134394 0.990802 0.0158211
0.0240898 -0.0192218 0.459292 0.359658 0.933084 0.000919089
-0.356343 -0.0449617 0.361098 0.136817 0.990566 0.00781708
-0.010206 -0.0984534 0.801451 -0.307465 -0.946834 0.0947167
-0.0427855 -0.0685324 0.742278 -0.884449 -0.466597 -0.00607774
0.0296616 -0.0886444 0.425599 0.878673 -0.477396 -0.00520476
0.0014135 -0.0103621 0.53804 0.360993 0.932569 0
-0.0251264 -0.0195836 0.45988 -0.36481 0.931082 -0.000210511
0.151724 -0.0968622 0.5968 0.400871 0.908095 -0.121106
0.0279917 -0.0893954 0.367465 0.308843 -0.951046 -0.011322
0.0341256 -0.0372388 0.0668688 -0.0219064 0.987994 0.152929
-0.118714 -0.112072 0.585434 0.907911 -0.395774 -0.138062
-0.0673238 -0.0431379 0.109684 0.0325704 0.989477 0.140977
-0.0631711 -0.0881566 0.570266 0.141605 0.989918 0.00318997
-0.0450456 -0.0631246 0.654325 -0.881336 -0.472455 -0.00581896
0.0361173 -0.0754998 0.322022 0.879193 -0.476432 -0.0056718
-0.264439 -0.0580615 0.417953 0.136271 0.990656 0.00552957
0.0204482 -0.0178062 0.782793 0.363995 0.931401 0
-0.0135467 -0.098779 0.688424 -0.305362 -0.952164 -0.011772
-0.0402769 -0.0372073 0.502196 -0.975699 0.219032 -0.00605235
-0.139397 -0.0825079 0.528024 0.998217 0.0584843 -0.0119072
0 0.000492353 0.101715 -1 0 0
0.138388 -0.0934933 0.559772 -0.99792 0.0636679 -0.0101184
0.00806957 -0.0990689 0.595491 0.317596 -0.94814 -0.0127803
-0.0148442 -0.0155338 0.475661 -0.359896 0.932992 8.31916e-05
-0.0618174 -0.0863681 0.488545 0.133821 0.990972 0.00811817
0.151521 -0.0743235 0.479226 0.121171 -0.992597 -0.00825331
-0.124963 -0.0778132 0.485156 -0.133821 -0.990972 -0.00811817
0.0143818 -0.015414 0.740136 0.362789 0.931871 0
0.401258 -0.0385412 0.333743 0.132648 -0.99105 -0.0149982
-0.0850823 -0.0850849 0.589719 0.141605 0.989918 0.00318997
-0.0397829 -0.0408363 0.218281 -0.976146 0.21449 0.0336599
0.0407428 -0.0390586 0.793126 0.972549 0.212685 0.0944099
0.225928 -0.0635365 0.42336 -0.130268 0.991256 0.0210011
0.00757087 -0.0127438 0.618407 0.360802 0.932643 0
-0.00947548 -0.0743411 0.923242 -0.815875 -0.460237 0.350041
-0.153381 -0.102453 0.635403 -0.914149 0.35727 0.191546
0.00762874 -0.0127713 0.84147 0.366753 0.930299 0.00593746
0.0247665 -0.0952046 0.694418 0.304929 -0.952313 -0.010822
0.201254 -0.0681539 0.503597 -0.139801 0.990164 0.00556204
-0.0113364 -0.0969475 0.485667 -0.294942 -0.95542 -0.0134647
-0.0277374 -0.0231569 0.150352 -0.355019 0.933851 -0.0434022
-0.0448403 -0.0639017 0.6858 -0.884449 -0.466597 -0.00607774
0 0.111164 0.0141149 -1 0 0
-3.3444e-05 -0.0227212 0.0146096 -0.360474 0.926934 -0.104174
-0.0383275 -0.070408 0.236904 -0.879193 -0.476432 -0.00567181
0.0365925 -0.0711021 0.826852 0.876689 -0.473135 0.0869437
0.0127151 -0.0483596 0.0505112 0.861668 -0.448639 -0.237172
-0.0211002 -0.0180065 0.234708 -0.361877 0.932226 0.000263867
-0.106405 -0.0801858 0.468865 -0.133821 -0.990972 -0.00811817
0.00407061 -0.0842812 0.173363 0.292188 -0.936339 -0.194668
0.172283 -0.0709586 0.438619 -0.130952 0.991087 0.0244434
0 0.099462 0.0591159 -1 0 0
0.0396508 -0.0374854 0.405045 0.977031 0.213017 -0.005921
-0.1082 -0.0291481 0.0242679 -0.0235792 -0.989574 -0.142081
-0.00543303 -0.0119281 0.268964 -0.363304 0.931671 -0.00013773
-0.0900227 -0.0825687 0.489693 -0.133821 -0.990972 -0.00811817
0.115506 -0.114419 0.618472 -0.895367 -0.383744 0.225963
-0.137132 -0.0756967 0.427397 -0.133821 -0.990972 -0.00811817
-0.319617 -0.0509098 0.42889 -0.127149 -0.991611 -0.0232341
-0.0510805 -0.0893045 0.581397 -0.132711 -0.99103 -0.0156947
0 0.100395 0.0755718 1 0 0
-0.0322972 -0.0223563 0.246194 -0.361877 0.932226 0.000263867
-0.021584 -0.0182098 0.379588 -0.363304 0.931671 -0.00013773
0.0440792 -0.0446458 0.116148 -0.0219064 0.987994 0.152929
-0.0369626 -0.0732407 0.263278 -0.879193 -0.476432 -0.00567181
0.0395054 -0.0263216 0.772774 0.975875 0.218234 -0.00646289
-0.0673921 -0.0849019 0.434547 0.129027 0.991526 0.015108
0.0128687 -0.0653712 0.0999558 0.289965 -0.929214 -0.229089
0.0141912 -0.0720638 0.129789 0.292188 -0.936339 -0.194668
0.0373858 -0.0784575 0.734733 0.884884 -0.465727 -0.00888701
-0.00711153 -0.0959097 0.83646 -0.304413 -0.947697 0.0959392
0.03156 -0.0675635 0.176557 0.867999 -0.469621 -0.161349
-0.043488 -0.0647811 0.552894 -0.881336 -0.472455 -0.00581896
-0.0365594 -0.07582 0.41288 -0.878332 -0.478014 -0.00598154
0.0291168 -0.0946674 0.774909 0.882156 -0.470925 -0.00543329
-0.123751 -0.129773 0.616999 0.347988 -0.906452 0.23927
0.139886 -0.0895803 0.61897 0.395431 0.895772 0.203042
0 0.133259 0.0267932 -1 0 0
-0.0238012 -0.0721923 0.889977 -0.868615 -0.450594 0.206091
0.0455851 -0.0625761 0.692054 0.880958 -0.473159 -0.00583428
0.312013 -0.0519939 0.418949 0.134846 -0.99077 -0.0138409
-0.0416885 -0.0379395 0.703261 -0.975699 0.219032 -0.00605235
0.0382015 -0.0319238 0.367841 0.975696 0.219037 -0.0063879
-0.0415563 -0.0388696 0.648293 -0.975699 0.219032 -0.00605235
-0.0363809 -0.0412272 0.841461 -0.969816 0.222644 0.0994317
-0.0279556 -0.0206959 0.530248 -0.362354 0.932041 -0.000440509
-0.032367 -0.0414843 0.13023 -0.967797 0.226932 -0.108953
-0.0368242 -0.0688109 0.837495 -0.8764 -0.47298 0.0906238
-0.043118 -0.0657657 0.576808 -0.881336 -0.472455 -0.00581896
0 0.0141544 0.119041 -1 0 0
0.0217629 -0.051715 0.091576 0.868035 -0.445592 -0.219005
-0.0265139 -0.094083 0.792201 -0.307465 -0.946834 0.0947167
-0.023163 -0.0351776 0.0797554 -0.970906 0.190179 -0.14551
0.0689285 -0.087087 0.596574 -0.130411 0.99128 0.0189214
-0.0333761 -0.0862725 0.779053 -0.879947 -0.466989 0.0872667
-0.0189101 -0.097279 0.707339 -0.308835 -0.951053 -0.0109061
-0.040462 -0.0354508 0.595613 -0.975699 0.219032 -0.00605235
0.0144178 -0.0929871 0.298893 0.308843 -0.951046 -0.011322
0.0478003 -0.0902383 0.614929 -0.134394 0.990802 0.0158211
0.0370224 -0.0300223 0.250273 0.97691 0.213575 -0.00568715
0.0362683 -0.0766209 0.440673 0.879351 -0.476141 -0.0056147
-0.109478 -0.081522 0.567004 0.141605 0.989918 0.00318997
0 0.089416 0.034335 -1 0 0
-0.0285674 -0.0352551 0.0532569 -0.0219064 -0.987994 -0.152929
0.212389 -0.0665153 0.4912 0.143645 -0.989628 -0.00171016
0.0438781 -0.0643431 0.583754 0.880298 -0.474378 -0.00635106
0.0543025 -0.0396413 0.0852803 -0.0219064 0.987994 0.152929
-0.0248896 -0.019466 0.737139 -0.364401 0.931242 0.000237676
-0.053316 -0.0325771 0.0390417 -0.0235792 -0.989574 -0.142081
0 0.0433434 0.10768 1 0 0
-0.0403995 -0.036377 0.552016 -0.975699 0.219032 -0.00605235
0.036077 -0.023849 0.621189 0.368937 0.929454 -7.83048e-05
-0.0389511 -0.072344 0.48631 -0.878332 -0.478014 -0.00598154
-0.145316 -0.11786 0.542763 -0.902248 -0.410137 -0.133181
0.00656239 -0.0161316 0.121442 0.368165 0.927978 -0.0575486
0.038749 -0.0295753 0.531924 0.975169 0.221377 -0.00607685
-0.040335 -0.0339974 0.786092 -0.970825 0.218571 0.0986158
-0.431966 -0.0344512 0.335302 -0.132452 -0.991076 -0.015007
0.0325085 -0.0326124 0.152246 0.967359 0.23352 -0.0984093
-0.297342 -0.0534638 0.404855 0.136112 0.990677 0.0056611
0.0153705 -0.0157816 0.229822 0.361877 0.932226 0
-0.367502 -0.043345 0.351548 -0.136817 -0.990566 -0.00781712
-0.0246351 -0.0898698 0.315752 -0.308843 -0.951046 -0.011322
0 0.0603009 0.0571107 -1 0 0
0.00282581 -0.0109088 0.401948 0.360993 0.932569 0
-0.0191221 -0.017325 0.841163 -0.366758 0.930311 0.00318362
-0.00345722 -0.0111446 0.356655 -0.358977 0.933347 0
0.120198 -0.0342013 0.0595748 -0.0219064 0.987994 0.152929
0.121157 -0.098784 0.606974 -0.910252 0.393649 -0.128381
-0.264176 -0.0579189 0.389882 -0.136817 -0.990566 -0.00781712
0.00240593 -0.083802 0.905973 0.273623 -0.893297 0.356583
0.0273358 -0.0460369 0.886877 0.949015 0.212227 0.233089
-0.00571141 -0.0972798 0.386032 -0.294942 -0.95542 -0.0134647
0.040756 -0.0356471 0.632804 0.975169 0.221377 -0.00607685
0.0402927 -0.0323024 0.680293 0.975169 0.221377 -0.00607685
0.000751335 -0.0101058 0.248799 0.360993 0.932569 0
0.0236032 -0.0896001 0.264944 0.308843 -0.951046 -0.011322
0.124957 -0.0973026 0.590852 -0.396659 0.909978 -0.120837
-0.0362357 -0.0744026 0.813738 -0.879947 -0.466989 0.0872667
0.0796325 -0.0841548 0.504355 -0.134394 0.990802 0.0158211
-0.0671537 -0.0855281 0.473973 -0.133821 -0.990972 -0.00811817
-0.0460843 -0.0905434 0.617381 -0.132711 -0.99103 -0.0156947
-0.0229935 -0.0187562 0.565539 -0.363672 0.931527 -5.24113e-05
-0.148448 -0.117101 0.56295 -0.928313 -0.353623 -0.11483
-0.0153098 -0.0157486 0.509011 -0.364819 0.931077 0.00127208
-0.030632 -0.090548 0.664693 -0.883304 -0.46877 -0.00537559
-0.135612 -0.0993355 0.566079 0.352972 0.926544 -0.130099
0.0385334 -0.0911009 0.589154 0.132618 -0.991041 -0.0158249
0 0.0374198 0.131892 -1 0 0
-0.0314924 -0.0220618 0.309854 -0.361877 0.932226 0.000263867
-0.0405765 -0.0313466 0.762292 -0.97511 0.221616 -0.00685775
0.145545 -0.0257147 0.00655237 -0.0235792 0.989574 0.142081
0.0391833 -0.0268091 0.70239 0.975169 0.221377 -0.00607685
-0.0327708 -0.0825088 0.391105 -0.878332 -0.478014 -0.00598154
0.0134618 -0.015026 0.365943 0.360993 0.932569 0
-0.0140874 -0.0875439 0.879664 -0.302367 -0.941328 0.149919
-0.0117737 -0.0921296 0.855536 -0.302367 -0.941328 0.149919
0.031051 -0.0218841 0.565392 0.364114 0.931354 -0.000231539
0.0811439 -0.0831243 0.447144 -0.128991 0.991612 0.00816995
-0.0924745 -0.0361529 0.0682114 -0.0219064 -0.987994 -0.152929
-0.0168354 -0.0986615 0.769142 -0.308835 -0.951053 -0.0109061
-0.0462242 -0.0617567 0.721769 -0.881336 -0.472455 -0.00581896
0.0420824 -0.0501568 0.210369 0.972585 0.213707 -0.0916968
-0.00807051 -0.0129443 0.78036 -0.361527 0.932362 0
-0.184009 -0.0690382 0.425816 0.131149 0.991292 0.0118129
0.0303178 -0.0901653 0.788706 0.878522 -0.468985 0.090835
-0.283476 -0.0559687 0.447015 0.127149 0.991611 0.0232341
0.036721 -0.0773175 0.566095 0.888947 -0.457966 -0.00634729
-0.0794266 -0.0836916 0.457893 -0.129027 -0.991526 -0.015108
0.190226 -0.069596 0.496595 -0.134038 0.99085 0.0158417
0.090932 -0.0830347 0.530189 -0.134394 0.990802 0.0158211
-0.176792 -0.0698813 0.416441 -0.131149 -0.991292 -0.0118128
0.254036 -0.0591681 0.394661 0.132648 -0.99105 -0.0149982
0 0.0673427 0.0341096 -1 0 0
0.0374492 -0.0448276 0.840137 0.97247 0.213279 0.0938882
0.0735268 -0.0330182 0.0444647 0.0198568 -0.988101 -0.152518
-0.131355 -0.0954791 0.583514 0.396636 0.909924 -0.121323
-0.0974958 -0.0833299 0.596137 0.141605 0.989918 0.00318997
0.0385062 -0.0700998 0.813009 0.876689 -0.473135 0.0869437
-0.105943 -0.0813005 0.51766 0.148933 0.98873 0.0151959
0.163112 -0.072967 0.485365 0.120568 -0.992667 -0.00869029
-0.0461176 -0.0624185 0.75781 -0.884449 -0.466597 -0.00607774
-0.0388263 -0.0386739 0.234984 -0.976907 0.213574 -0.00620993
0.0356361 -0.0755885 0.254873 0.879193 -0.476432 -0.0056718
0.143502 -0.124378 0.566821 0.0736262 -0.195467 -0.977943
0.156708 -0.10944 0.587728 0.907235 0.400471 -0.128637
-0.0426387 -0.0415421 0.726042 -0.97511 0.221616 -0.00685775
0.0340672 -0.0230443 0.730809 0.361541 0.932356 0.000838277
-0.00405417 -0.0178266 0.0775492 -0.361843 0.930452 -0.057702
0.298355 -0.0532401 0.386624 -0.130268 0.991256 0.0210011
-0.240711 -0.061482 0.441036 0.137479 0.990483 0.00657259
0.0127191 -0.0147355 0.604109 0.360802 0.932643 0
0.131697 -0.0302974 0.0344333 0.0325704 -0.989477 -0.140977
-0.0613204 -0.0865295 0.500053 -0.133821 -0.990972 -0.00811817
-0.205129 -0.0665635 0.462161 -0.136427 -0.990608 -0.00919216
0.0301866 -0.0900755 0.454983 0.132618 -0.991041 -0.0158249
-0.0235548 -0.0189935 0.707254 -0.363332 0.931655 0.00289601
-0.0388377 -0.0702263 0.300417 -0.878332 -0.478014 -0.00598154
-0.0267485 -0.020193 0.581338 -0.366483 0.930425 3.97176e-05
0.0363849 -0.025897 0.295688 0.97691 0.213575 -0.00568715
-0.131191 -0.0928318 0.62381 0.392443 0.897021 0.203325
-0.00232961 -0.0136379 0.140241 -0.368505 0.928836 -0.0383026
0 0.00941025 0.0654448 1 0 0
0.0183753 -0.0169765 0.428867 0.365933 0.930639 0.00198226
-0.0410149 -0.0484309 0.811789 -0.971223 0.217829 0.0963188
-0.378137 -0.0421607 0.369443 0.136112 0.990677 0.0056611
-0.00882067 -0.0167941 0.126154 -0.368505 0.928836 -0.0383026
0 -0.00902349 0.197558 -1 0 0
0.0212418 -0.0180583 0.398052 0.360317 0.932829 -0.00120746
0.0679859 -0.0855899 0.495292 -0.134394 0.990802 0.0158211
0.122899 -0.124596 0.593381 -0.907625 -0.39565 -0.140276
-0.339855 -0.0480383 0.41709 0.127149 0.991611 0.0232341
-0.043906 -0.0556939 0.437347 -0.977807 0.209406 -0.00645591
0.0102659 -0.0308431 0.91307 0.324569 0.84749 0.420019
-0.0396717 -0.0891681 0.477794 -0.129027 -0.991526 -0.015108
0.305412 -0.0527198 0.409569 0.130704 -0.991176 -0.0220487
-0.0123325 -0.0998986 0.749511 -0.308835 -0.951053 -0.0109061
-0.024274 -0.0192584 0.406766 -0.363414 0.931628 6.1408e-05
0.290628 -0.0551897 0.442091 0.139801 -0.990164 -0.00556206
0.133878 -0.0765724 0.484516 0.128991 -0.991612 -0.00816995
0.158542 -0.108422 0.62449 0.907689 0.354746 0.224177
0.157307 -0.120228 0.609053 0.907099 -0.396825 -0.140361
0.000671668 -0.0100775 0.822466 0.363995 0.931401 0
0.118994 -0.0783554 0.465926 -0.128991 0.991612 0.00816995
-0.0148904 -0.080372 0.171709 -0.302999 -0.933039 -0.193982
-0.034847 -0.06199 0.867096 -0.85933 -0.463767 0.215572
-0.0347352 -0.0834079 0.716279 -0.883304 -0.46877 -0.00537559
-0.0200921 -0.0920879 0.374166 -0.331742 -0.943249 -0.0151447
0 0.0229311 0.0865341 -1 0 0
0.0442363 -0.0509773 0.647523 0.977085 0.212793 -0.00497672
-0.343126 -0.0467352 0.354518 -0.136817 -0.990566 -0.00781712
-0.0492129 -0.0893003 0.514778 0.090677 0.99574 0.0167204
0.0296722 -0.0211813 0.20845 0.35509 0.934038 -0.0385172
0.087933 -0.0830654 0.499912 0.132618 -0.991041 -0.0158249
0 0.03767 0.0724931 1 0 0
-0.220709 -0.0640231 0.412417 -0.131149 -0.991292 -0.0118128
0.00943322 -0.0894573 0.876086 0.30212 -0.94056 0.155144
-0.0135616 -0.0150089 0.679148 -0.363332 0.931655 0.00289601
0.0187785 -0.0895357 0.857413 0.30212 -0.94056 0.155144
-0.0330815 -0.0353865 0.854099 -0.94778 0.217585 0.233173
-0.00891413 -0.0132692 0.741831 -0.361322 0.932441 0
-0.0753077 -0.0864023 0.564632 0.141605 0.989918 0.00318997
0.444406 -0.0325902 0.321546 -0.134299 0.990828 0.0149256
0.0223598 -0.043557 0.900288 0.908435 0.203153 0.365342
0.00792499 -0.0129088 0.277815 0.371289 0.928516 -0.00153252
0.0416124 -0.0424783 0.538459 0.977377 0.211354 -0.00794315
-0.128227 -0.0770948 0.451274 -0.133821 -0.990972 -0.00811817
-0.0309349 -0.0907793 0.503736 0.090677 0.99574 0.0167204
-0.0243103 -0.0932241 0.540379 -0.329187 -0.944132 -0.0158538
-0.298765 -0.0539757 0.445623 -0.127149 -0.991611 -0.0232341
0.317125 -0.051395 0.432557 -0.139801 0.990164 0.00556204
-0.0100468 -0.0136344 0.214152 -0.355354 0.934732 0
-0.03752 -0.0296554 0.339657 -0.976907 0.213574 -0.00620993
-0.411919 -0.0369966 0.324491 -0.136817 -0.990566 -0.00781712
0.0666521 -0.0853993 0.472027 -0.134394 0.990802 0.0158211
-0.397024 -0.0392232 0.342047 0.132452 0.991076 0.015007
0.0162138 -0.0161272 0.753825 0.362789 0.931871 0
0.0299026 -0.0904708 0.47736 0.132618 -0.991041 -0.0158249
0.0543392 -0.0877637 0.515502 -0.134394 0.990802 0.0158211
0 0.050819 0.0924017 1 0 0
0.0836424 -0.0849816 0.583955 0.132618 -0.991041 -0.0158249
-0.0350342 -0.029622 0.184169 -0.967359 0.23352 -0.0984093
-0.176155 -0.0713428 0.51821 0.121131 0.992212 0.0290362
-0.00323446 -0.101653 0.655549 -0.275844 -0.961115 -0.0129552
0.0249641 -0.0644525 0.132018 0.867999 -0.469621 -0.161349
-0.0374502 -0.0297411 0.325724 -0.976907 0.213574 -0.00620993
0.137219 -0.0756607 0.426613 -0.128991 0.991612 0.00816995
-0.034767 -0.0441787 0.111796 -0.0219064 -0.987994 -0.152929
-0.124832 -0.0788675 0.538059 -0.146885 -0.988977 -0.0186853
0.100218 -0.0819962 0.544039 -0.134394 0.990802 0.0158211
0.0266089 -0.0644804 0.894186 0.833253 -0.43225 0.344745
0.178121 -0.0706888 0.459081 0.132167 -0.990975 -0.0223639
0.03707 -0.0763029 0.542905 0.886476 -0.462715 -0.00738861
0.0249145 -0.0195007 0.379695 0.360317 0.932829 -0.00120746
-0.352949 -0.0456692 0.378737 0.132452 0.991076 0.015007
0.21354 -0.0646929 0.401103 -0.130268 0.991256 0.0210011
-0.043707 -0.057603 0.345289 -0.977807 0.209406 -0.00645591
-0.0294802 -0.0925069 0.600388 0.1109 0.993707 0.0157371
-0.0265926 -0.0279922 0.111834 -0.962056 0.225586 -0.153493
0.0442564 -0.0627787 0.517879 0.879351 -0.476141 -0.0056147
-0.0915194 -0.0819739 0.448441 0.129027 0.991526 0.015108
0.043143 -0.0902075 0.573441 -0.134394 0.990802 0.0158211
0.100762 -0.0815608 0.521386 -0.134394 0.990802 0.0158211
-0.0439577 -0.0877535 0.421562 -0.129027 -0.991526 -0.015108
-0.130159 -0.0770056 0.472237 -0.133821 -0.990972 -0.00811817
-0.176216 -0.0707311 0.482183 -0.136427 -0.990608 -0.00919216
0.0158456 -0.0160044 0.321204 0.371289 0.928516 -0.00153252
0.124537 -0.0787041 0.535679 0.136519 -0.990458 -0.0188345
0.147938 -0.115741 0.556038 0.926554 -0.352953 -0.130086
0.0877737 -0.0847124 0.601721 0.132618 -0.991041 -0.0158249
0.352409 -0.0456028 0.368223 0.130704 -0.991176 -0.0220487
0 0.0321066 0.0629389 1 0 0
0.037273 -0.0432956 0.106328 0.0198568 -0.988101 -0.152518
0.0370379 -0.0259048 0.396508 0.975696 0.219037 -0.0063879
-0.216082 -0.0650363 0.460141 -0.136427 -0.990608 -0.00919216
-0.093505 -0.0834942 0.573242 -0.132711 -0.99103 -0.0156947
-0.124894 -0.115705 0.638946 0 0 1
0.0374594 -0.0296162 0.333626 0.975696 0.219037 -0.0063879
-0.272088 -0.0569228 0.402458 -0.136271 -0.990656 -0.00552957
-0.135252 -0.0290725 0.0282309 -0.0235792 -0.989574 -0.142081
0.0908211 -0.0823665 0.48389 0.136519 -0.990458 -0.0188345
0.360817 -0.0444578 0.359544 -0.130268 0.991256 0.0210011
-0.087107 -0.0821537 0.422556 -0.129027 -0.991526 -0.015108
0 0.0592877 0.082436 1 0 0
-0.397258 -0.0395145 0.3661 0.136112 0.990677 0.0056611
-0.212003 -0.0662756 0.495765 0.127149 0.991611 0.0232341
-0.0339325 -0.0577069 0.160585 -0.868042 -0.469451 -0.161612
-0.198584 -0.0673814 0.448886 -0.137479 -0.990483 -0.00657259
0.0376514 -0.0254773 0.505071 0.975169 0.221377 -0.00607685
0.0336299 -0.0576937 0.158962 0.867643 -0.470175 -0.161652
0.00774643 -0.0389654 0.023658 0.950352 0 -0.311177
0.041751 -0.0375279 0.779757 0.971017 0.217148 0.0998662
-0.0284013 -0.0845371 0.836874 -0.8764 -0.47298 0.0906238
-0.028095 -0.0207616 0.804613 -0.364474 0.931213 0.00103046
0.0218355 -0.0920128 0.414098 0.317596 -0.94814 -0.0127803
0.108581 -0.0304623 0.0334842 -0.0235792 0.989574 0.142081
0.045663 -0.0627494 0.717872 0.880958 -0.473159 -0.00583428
0 0.104668 0.0382833 1 0 0
-0.0443612 -0.0516525 0.645312 -0.976227 0.216657 -0.00631737
0.0384139 -0.0366917 0.238826 0.97691 0.213575 -0.00568715
-0.0365155 -0.0240393 0.562967 -0.366483 0.930425 3.97176e-05
0 0.061423 0.0684073 -1 0 0
0.325128 -0.0495126 0.376758 -0.130268 0.991256 0.0210011
0.112873 -0.0801039 0.524748 0.136519 -0.990458 -0.0188345
-0.0254261 -0.0196762 0.675405 -0.366483 0.930425 3.97176e-05
-0.130161 -0.0785662 0.567903 0.141605 0.989918 0.00318997
-0.0100338 -0.0940241 0.266413 -0.308843 -0.951046 -0.011322
0.0574063 -0.0348559 0.0542717 0.0198568 -0.988101 -0.152518
-0.00834182 -0.0222085 0.897099 -0.324062 0.846165 0.423071
0.0334002 -0.0898021 0.465289 -0.134394 0.990802 0.0158211
0.091113 -0.081937 0.460443 -0.128991 0.991612 0.00816995
0.0668243 -0.0411696 0.0964017 0.0198568 -0.988101 -0.152518
0.13865 -0.0831444 0.591358 0.996909 -0.0779552 0.00981257
0.138334 -0.0767811 0.534561 0.136519 -0.990458 -0.0188345
0.000860628 -0.0101481 0.458908 0.360993 0.932569 0
0.331603 -0.0488555 0.386312 -0.134299 0.990828 0.0149256
0.0445778 -0.0652993 0.76081 0.880958 -0.473159 -0.00583428
-0.145677 -0.0758281 0.537824 0.137015 0.99039 0.0188275
-0.00409936 -0.0972601 0.349323 -0.294942 -0.95542 -0.0134647
0.387237 -0.0411113 0.372818 0.134846 -0.99077 -0.0138409
0.144254 -0.0759047 0.527545 0.12053 -0.992527 -0.0190603
-0.0861499 -0.0331633 0.0479915 -0.0219064 -0.987994 -0.152929
-0.0438294 -0.0569502 0.38499 -0.977807 0.209406 -0.00645591
0.0411047 -0.042192 0.473484 0.976799 0.214064 -0.00629704
-0.285659 -0.055107 0.411505 -0.136112 -0.990677 -0.00566112
-0.13876 -0.134218 0.610957 -0.348577 -0.925423 -0.148613
0.026258 -0.0229037 0.866642 0.362788 0.92024 0.146775
0.0419625 -0.0657959 0.414472 0.879351 -0.476141 -0.0056147
-0.150234 -0.0748 0.516906 -0.137015 -0.99039 -0.0188275
-0.0156935 -0.092676 0.307561 -0.308843 -0.951046 -0.011322
-0.327192 -0.0490628 0.370572 0.136817 0.990566 0.00781708
0.036799 -0.0241494 0.482135 0.366475 0.930428 -0.000125647
-0.0436742 -0.0883104 0.455685 -0.129027 -0.991526 -0.015108
-0.0347216 -0.0924362 0.635442 0.141605 0.989918 0.00318997
-0.041538 -0.043343 0.488996 -0.976945 0.213401 -0.00616578
-0.0205918 -0.09136 0.330638 -0.308843 -0.951046 -0.011322
-0.0424443 -0.0900925 0.525251 0.090677 0.99574 0.0167204
0.0421846 -0.0880303 0.427492 0.128991 -0.991612 -0.00816995
-0.0433996 -0.0465457 0.671857 -0.976227 0.216657 -0.00631737
-0.256656 -0.0601112 0.477039 0.127149 0.991611 0.0232341
0.184879 -0.0686798 0.411505 -0.130268 0.991256 0.0210011
-0.00374238 -0.0491521 0.0194116 -0.861668 -0.448639 -0.237172
-0.0447249 -0.0517718 0.697424 -0.976227 0.216657 -0.00631737
0 0.0595676 0.117483 -1 0 0
-0.042273 -0.0393982 0.743314 -0.97511 0.221616 -0.00685775
-0.00400201 -0.0113542 0.446958 -0.358977 0.933347 0
-0.0240595 -0.019218 0.825528 -0.366758 0.930311 0.00318362
-0.0382857 -0.026382 0.575534 -0.97517 0.22137 -0.00619165
0.0246928 -0.020266 0.184742 0.35509 0.934038 -0.0385172
-0.000922499 -0.100696 0.535288 -0.275844 -0.961115 -0.0129552
-0.406571 -0.0381435 0.355009 0.132452 0.991076 0.015007
-0.0295213 -0.0870893 0.273083 -0.879193 -0.476432 -0.00567181
-0.0417513 -0.051736 0.245888 -0.976907 0.213574 -0.00620993
0.0124751 -0.0147036 0.28962 0.361877 0.932225 0.000746284
0.0472191 -0.0884665 0.499036 -0.134394 0.990802 0.0158211
-0.0395658 -0.0739757 0.691623 -0.884449 -0.466597 -0.00607774
0.149906 -0.094408 0.609185 0.400871 0.908095 -0.121106
0.132906 -0.0968984 0.567803 -0.396659 0.909978 -0.120837
-0.0325967 -0.089395 0.432265 -0.129027 -0.991526 -0.015108
-0.162494 -0.0726855 0.489137 -0.136427 -0.990608 -0.00919216
0.157777 -0.026951 0.016971 0.0325704 -0.989477 -0.140977
-0.0188278 -0.0170761 0.650143 -0.366483 0.930425 3.97176e-05
0.0268272 -0.0202615 0.345741 0.364876 0.931056 7.93189e-09
-0.00379901 -0.0491627 0.929365 -0.181259 0.181259 0.966587
0.0307358 -0.0356318 0.0558263 0.0198568 -0.988101 -0.152518
0.0282894 -0.0208117 0.25118 0.361877 0.932225 0.000746284
0.0357848 -0.0759171 0.305519 0.879193 -0.476432 -0.0056718
-0.0253229 -0.0196669 0.39296 -0.363343 0.931655 0
0 -0.0107974 0.162101 1 0 0
-0.00501827 -0.0117456 0.499423 -0.359896 0.932992 8.31916e-05
0.142339 -0.0758891 0.514624 -0.12053 0.992527 0.0190603
0.0152492 -0.0211967 0.0952078 0.361913 0.930633 -0.05424
0.107591 -0.0801021 0.486364 0.136519 -0.990458 -0.0188345
0.119705 -0.109331 0.584599 -0.907499 0.400731 -0.125938
-0.11847 -0.115833 0.626905 0.891253 -0.381981 0.244454
0.381206 -0.042096 0.387791 -0.139801 0.990164 0.00556204
0.13241 -0.0765732 0.461442 -0.128991 0.991612 0.00816995
0.151624 -0.125189 0.586352 0.907099 -0.396825 -0.140361
-0.0917124 -0.0822192 0.474891 -0.133821 -0.990972 -0.00811817
0.0181733 -0.0653178 0.913736 0.822675 -0.464073 0.328393
-0.00477047 -0.0962092 0.295235 -0.331742 -0.943249 -0.0151447
0.192334 -0.0694564 0.508549 0.143645 -0.989628 -0.00171016
0 0.039784 0.117306 1 0 0
0.0203193 -0.0177062 0.546018 0.361599 0.932333 -0.000917866
-0.168971 -0.0729151 0.543648 0.127149 0.991611 0.0232341
0.0189183 -0.0886993 0.21998 0.305105 -0.939535 -0.155518
0.0395033 -0.0738492 0.687972 0.880958 -0.473159 -0.00583428
0.225242 -0.0646635 0.485157 0.139801 -0.990164 -0.00556206
0 0.0880631 0.0730115 1 0 0
0.000233713 -0.100261 0.48922 0.317596 -0.94814 -0.0127803
-0.0765259 -0.0838791 0.445427 -0.129027 -0.991526 -0.015108
0 0.0237536 0.113313 -1 0 0
0.0387394 -0.0364113 0.302058 0.975867 0.218233 -0.00763713
-0.242778 -0.0610708 0.422197 0.136741 0.99059 0.00569265
-0.142639 -0.0267772 0.0134699 -0.0235792 -0.989574 -0.142081
0.00966632 -0.100743 0.748486 0.305245 -0.952191 -0.0125787
0.376515 -0.0420375 0.345931 0.132648 -0.99105 -0.0149982
-0.438121 -0.0334624 0.324325 0.132452 0.991076 0.015007
-0.373022 -0.0427422 0.3626 0.132452 0.991076 0.015007
0.335131 -0.048751 0.414435 -0.139801 0.990164 0.00556204
-0.0453797 -0.0886017 0.490236 0.133821 0.990972 0.00811817
0.0413661 -0.0694547 0.617376 0.880298 -0.474378 -0.00635106
0.0189704 -0.0463569 0.0697574 0.86495 -0.450347 -0.22147
-0.00906204 -0.0932912 0.228384 -0.305105 -0.939535 -0.155514
-0.000558458 -0.103471 0.782567 -0.304413 -0.947697 0.0959392
-0.126868 -0.077177 0.438902 0.133821 0.990972 0.00811817
0.148891 -0.0757595 0.5493 -0.12053 0.992527 0.0190603
-0.223158 -0.0639313 0.44298 0.137479 0.990483 0.00657259
-0.00658645 -0.0334393 0.0198047 -0.948901 0 -0.315575
-0.115309 -0.0306126 0.0343195 0.0198568 0.988101 0.152518
0.0237591 -0.0190228 0.703852 0.361541 0.932356 0.000838277
-0.0128209 -0.0974691 0.562751 -0.298919 -0.954228 -0.00983347
0.425329 -0.0354565 0.342802 0.132648 -0.99105 -0.0149982
-0.384642 -0.0409437 0.346386 -0.132452 -0.991076 -0.015007
-0.00475137 -0.0991559 0.502573 -0.275844 -0.961115 -0.0129552
0.00930799 -0.0134158 0.579651 0.360802 0.932643 0
0.19666 -0.0681049 0.454148 -0.132167 0.990975 0.0223639
0.0670269 -0.0877311 0.616901 0.132618 -0.991041 -0.0158249
0.314848 -0.0506345 0.368611 0.132648 -0.99105 -0.0149982
-0.0334647 -0.0818497 0.440322 -0.878332 -0.478014 -0.00598154
-0.112959 -0.0334113 0.0534337 -0.0219064 -0.987994 -0.152929
-0.00652369 -0.0123457 0.654322 -0.356183 0.934416 -0.000742668
-0.314369 -0.0511057 0.401582 -0.136112 -0.990677 -0.00566112
0.0182598 -0.0257206 0.0623264 0.946486 0.171314 -0.273526
-0.128605 -0.109349 0.543443 0.906848 0.400854 -0.130166
0.0442623 -0.0598059 0.362885 0.976728 0.214391 -0.00623646
-0.0312197 -0.0901918 0.730197 -0.883304 -0.46877 -0.00537559
0.0306129 -0.0827542 0.221178 0.876485 -0.474967 -0.0786198
-0.0406361 -0.0397559 0.47275 -0.976084 0.217261 -0.00754607
-0.0986056 -0.0825812 0.528456 -0.146885 -0.988977 -0.0186853
-0.0188975 -0.0448566 0.0664341 -0.865418 -0.450591 -0.219131
0.0314872 -0.0866241 0.519455 0.886476 -0.462715 -0.00738861
0.111732 -0.0791529 0.448072 0.128991 -0.991612 -0.00816995
-0.00413574 -0.0114056 0.332275 -0.358977 0.933347 0
0.0403229 -0.0345152 0.604529 0.975169 0.221377 -0.00607685
0.140048 -0.120838 0.543537 0.400738 -0.906904 -0.130129
0.0495911 -0.0871674 0.437506 0.136519 -0.990458 -0.0188345
-0.221921 -0.064713 0.483353 -0.127149 -0.991611 -0.0232341
-0.0212835 -0.0824472 0.191677 -0.302999 -0.933039 -0.193982
0.156304 -0.0735288 0.468286 -0.104613 0.994307 0.020233
0.0792651 -0.0853721 0.571727 0.132618 -0.991041 -0.0158249
0.00293495 -0.0976344 0.361465 0.317596 -0.94814 -0.0127803
0.128294 -0.0924603 0.616596 -0.394279 0.901217 0.179865
-0.168004 -0.0716428 0.451438 -0.137479 -0.990483 -0.00657259
0.0734471 -0.0858053 0.550103 0.132618 -0.991041 -0.0158249
0.0362877 -0.080968 0.751858 0.889984 -0.455877 -0.0101773
0 0.123383 0.0514574 1 0 0
0.129756 -0.0775254 0.511518 0.136519 -0.990458 -0.0188345
0 -0.00882316 0.173967 -1 0 0
-0.0831347 -0.084653 0.512247 -0.148933 -0.98873 -0.0151959
0.255095 -0.0603602 0.469422 -0.139801 0.990164 0.00556204
-0.00751758 -0.012728 0.722614 -0.361322 0.932441 0
0.0343601 -0.0903433 0.506734 0.132618 -0.991041 -0.0158249
-0.424369 -0.0355794 0.342753 0.132452 0.991076 0.015007
-0.0188224 -0.0923315 0.361526 -0.331742 -0.943249 -0.0151447
-0.139716 -0.128988 0.580631 -0.348577 -0.925423 -0.148613
-0.107077 -0.080779 0.504092 0.134052 0.983823 0.118835
0.0958132 -0.0811201 0.435499 0.128991 -0.991612 -0.00816995
-0.180072 -0.0699651 0.451044 -0.137479 -0.990483 -0.00657259
0.0394995 -0.0386847 0.805091 0.972613 0.212446 0.0942921
0.135142 -0.112822 0.638946 0 0 1
-0.0333366 -0.082529 0.473651 -0.881254 -0.472588 -0.00720086
0.0417657 -0.0496733 0.317766 0.977184 0.212304 -0.00613808
0.0418443 -0.0510264 0.283472 0.977184 0.212304 -0.00613808
-0.136073 -0.0774353 0.550623 -0.146885 -0.988977 -0.0186853
0 0.0406602 0.0488192 -1 0 0
-0.139143 -0.0902699 0.604585 -0.400872 0.908098 -0.12108
-0.0444748 -0.0404264 0.0886768 0.0198568 0.988101 0.152518
-0.0385362 -0.0324424 0.400526 -0.976277 0.216443 -0.00589954
0.0332236 -0.0227478 0.433047 0.366475 0.930428 -0.000125647
-0.0606373 -0.0881518 0.559726 -0.136161 -0.990606 0.0126732
-0.0555156 -0.0864425 0.434227 0.129027 0.991526 0.015108
0 -0.00493188 0.130831 -1 0 0
-0.0378446 -0.0725297 0.338664 -0.878332 -0.478014 -0.00598154
-0.0203007 -0.0695399 0.126892 -0.292411 -0.937054 -0.190853
0.00344718 -0.0960855 0.846351 0.304413 -0.947696 0.0959428
0.0237285 -0.0189969 0.688248 0.361541 0.932356 0.000838277
0.0462812 -0.0574776 0.743832 0.975875 0.218234 -0.00646289
0.0434393 -0.0590179 0.26099 0.977184 0.212304 -0.00613808
0 0.00785215 0.14478 -1 0 0
-0.00515212 -0.0118127 0.809096 -0.361527 0.932362 0
0.280383 -0.0559712 0.40736 0.130704 -0.991176 -0.0220487
-0.032264 -0.0666807 0.177722 -0.867676 -0.470193 -0.16142
-0.0642525 -0.0876857 0.590559 -0.132711 -0.99103 -0.0156947
0.0421585 -0.0476292 0.451943 0.976825 0.21395 -0.00620046
-0.0226217 -0.0920343 0.426237 -0.331742 -0.943249 -0.0151447
0.183046 -0.0704105 0.48679 0.134038 -0.99085 -0.0158416
0.00977249 -0.0846324 0.183812 0.303166 -0.933555 -0.19122
0.0180996 -0.0922533 0.337687 0.308843 -0.951046 -0.011322
-0.0697223 -0.0873557 0.612547 0.141605 0.989918 0.00318997
-0.00716678 -0.0918661 0.866483 -0.302367 -0.941328 0.149919
0.0302608 -0.0215578 0.635297 0.364114 0.931354 -0.000231539
-0.0200881 -0.0369223 0.90235 -0.905162 0.209966 0.369589
0 -0.0023015 0.0720533 1 0 0
-0.274315 -0.0573272 0.454865 0.127149 0.991611 0.0232341
0.00999525 -0.0184841 0.105468 0.368165 0.927978 -0.0575486
0.0151026 -0.0981677 0.688253 0.295178 -0.955326 -0.014905
-0.314671 -0.0508817 0.381919 -0.136817 -0.990566 -0.00781712
-0.0657405 -0.0320433 0.0371352 0.0198568 0.988101 0.152518
0.030535 -0.0903888 0.640864 0.883738 -0.467859 -0.0107027
0.0165713 -0.0162829 0.514953 0.361617 0.932326 -0.00090606
0.026436 -0.091921 0.814467 0.309925 -0.94612 0.0938231
0.0439424 -0.0563204 0.432606 0.976728 0.214391 -0.00623646
-0.0370161 -0.0296986 0.258898 -0.976907 0.213574 -0.00620993
-0.0390662 -0.0352541 0.38559 -0.976393 0.215893 -0.00680093
0.0401009 -0.0715998 0.602232 0.880298 -0.474378 -0.00635106
-0.0659812 -0.0875089 0.52995 -0.148933 -0.98873 -0.0151959
-0.123188 -0.124638 0.5917 0.910104 -0.39006 -0.139871
-0.0190242 -0.079524 0.893677 -0.836697 -0.434037 0.33399
0.0033196 -0.0111 0.42483 0.360993 0.932569 0
-0.0153682 -0.0241324 0.0551155 -0.360474 0.926934 -0.104174
-0.374547 -0.0428201 0.384229 0.127149 0.991611 0.0232341
0.0331961 -0.0731615 0.201623 0.867643 -0.470175 -0.161652
0.145975 -0.0305959 0.0398274 0.0325704 -0.989477 -0.140977
-0.00111929 -0.0168622 0.88953 -0.362516 0.919552 0.15168
0.0227273 -0.0264 0.0877924 0.963391 0.225899 -0.144384
-0.281586 -0.0554783 0.385334 -0.136817 -0.990566 -0.00781712
0.00388322 -0.019781 0.0540932 0.360474 0.926934 -0.104174
0.00760537 -0.0973601 0.457182 0.317596 -0.94814 -0.0127803
0.00614556 -0.0121924 0.631265 0.360802 0.932643 0
-0.10549 -0.0802136 0.457182 -0.133821 -0.990972 -0.00811817
-0.0458357 -0.0597971 0.596518 -0.977807 0.209406 -0.00645591
-0.0393711 -0.0487491 0.184892 -0.972585 0.213707 -0.0916968
0.0336318 -0.0403074 0.85632 0.946758 0.21735 0.237505
-0.161591 -0.0732316 0.517057 -0.137015 -0.99039 -0.0188275
-0.0156636 -0.0919083 0.242254 -0.308843 -0.951046 -0.011322
-0.00568106 -0.0120196 0.631479 -0.361778 0.932264 0
0.038971 -0.0384139 0.225917 0.976372 0.213457 0.0336677
-0.236845 -0.0627061 0.479374 -0.127149 -0.991611 -0.0232341
0.00491689 -0.102405 0.759033 0.305245 -0.952191 -0.0125787
0.0669825 -0.0861061 0.519094 -0.134394 0.990802 0.0158211
-0.0270822 -0.0947466 0.717918 -0.308835 -0.951053 -0.0109061
0.00662211 -0.0866893 0.895505 0.273623 -0.893297 0.356583
0.00619201 -0.0671617 0.934211 0.691683 -0.345843 0.634009
0.0442727 -0.0589829 0.392815 0.976728 0.214391 -0.00623646
-0.0390472 -0.0276505 0.650112 -0.97517 0.22137 -0.00619165
-0.00939722 -0.0770078 0.146853 -0.292411 -0.937054 -0.190853
-0.0205577 -0.0955872 0.612122 -0.305362 -0.952164 -0.011772
-0.073892 -0.0337628 0.0501087 -0.0219064 -0.987994 -0.152929
-0.0411366 -0.0638948 0.224565 -0.876485 -0.474967 -0.0786175
-0.0193498 -0.0187125 0.17737 -0.355019 0.933851 -0.0434022
0.107086 -0.0288938 0.0221139 0.0198568 -0.988101 -0.152518
-0.0173733 -0.0165494 0.758957 -0.361527 0.932362 0.000110947
0.0426628 -0.0886245 0.46867 0.132618 -0.991041 -0.0158249
-0.147901 -0.0744798 0.461579 -0.135131 -0.990801 -0.00729224
-0.0314417 -0.0321261 0.142913 -0.967359 0.23352 -0.0984093
0.0391375 -0.0612359 0.198826 0.867643 -0.470175 -0.161652
0.00865976 -0.0993666 0.632236 0.317596 -0.94814 -0.0127803
-0.0113562 -0.0575708 0.066489 -0.273523 -0.93454 -0.227642
0 0.099579 0.0306566 -1 0 0
-0.00706941 -0.0125591 0.598449 -0.362609 0.931941 -0.000145428
0 0.124828 0.0162628 -1 0 0
0.218537 -0.0650855 0.449896 -0.132601 0.990812 0.0266149
-0.0245086 -0.0951914 0.683831 -0.308835 -0.951053 -0.0109061
-5.86747e-05 -0.0315129 0.922052 -0.324062 0.846165 0.423071
0.0259837 -0.0199284 0.26584 0.361877 0.932225 0.000746284
-0.0018473 -0.0818512 0.158451 -0.302999 -0.933039 -0.193982
-0.0383805 -0.04226 0.824187 -0.970738 0.219715 0.096918
-0.19937 -0.068456 0.519692 -0.127149 -0.991611 -0.0232341
-0.0500134 -0.0342591 0.0498942 -0.0219064 -0.987994 -0.152929
0 0.116529 0.0414442 -1 0 0
0.0432539 -0.0539588 0.405967 0.976718 0.214435 -0.00623408
0.0433297 -0.0624317 0.343314 0.879351 -0.476141 -0.0056147
0.264342 -0.0587202 0.435995 0.134846 -0.99077 -0.0138409
-0.200647 -0.0676989 0.495867 -0.121131 -0.992212 -0.0290362
0.0349313 -0.0786009 0.399185 0.879351 -0.476141 -0.0056147
0.0198031 -0.0175076 0.724697 0.361541 0.932356 0.000838277
0.238691 -0.0627241 0.477929 -0.139801 0.990164 0.00556204
-0.210512 -0.0659017 0.470734 -0.136427 -0.990608 -0.00919216
-0.0419783 -0.04734 0.423605 -0.976283 0.216419 -0.00589461
0.00413008 -0.101714 0.693817 0.317596 -0.94814 -0.0127803
0.0212925 -0.0180636 0.626516 0.362263 0.932076 0.000301724
-0.0404954 -0.0451399 0.275175 -0.976907 0.213574 -0.00620993
0.0173557 -0.0166338 0.84583 0.366753 0.930299 0.00593746
0.0303377 -0.0858486 0.295418 0.879193 -0.476432 -0.0056718
0.0419121 -0.0511565 0.221689 0.976084 0.214476 0.0355006
-0.0325732 -0.0307759 0.157239 -0.967359 0.23352 -0.0984093
0.029578 -0.0930466 0.709315 0.882156 -0.470925 -0.00543329
-0.038753 -0.07649 0.777185 -0.879947 -0.466989 0.0872667
-0.0351763 -0.0235173 0.690004 -0.366483 0.930425 3.97176e-05
-0.0408738 -0.0375914 0.584519 -0.975699 0.219032 -0.00605235
-0.052834 -0.0391109 0.081243 0.0198568 0.988101 0.152518
0 0.0338136 0.0974102 -1 0 0
-0.0321751 -0.0810407 0.228242 -0.876486 -0.474965 -0.0786195
0.0359624 -0.0244575 0.277163 0.97691 0.213575 -0.00568715
-0.0840864 -0.0851941 0.579374 0.141605 0.989918 0.00318997
-0.0129038 -0.0148274 0.609783 -0.362609 0.931941 -0.000145428
-0.0560009 -0.0442548 0.114981 0.0198568 0.988101 0.152518
0.0309735 -0.0910681 0.764404 0.882156 -0.470925 -0.00543329
-0.098691 -0.0309561 0.0352819 -0.0235792 -0.989574 -0.142081
0.230733 -0.06327 0.44059 -0.130268 0.991256 0.0210011
0.0685329 -0.084996 0.460614 0.136519 -0.990458 -0.0188345
0.0392421 -0.0283736 0.65483 0.975169 0.221377 -0.00607685
0.0402192 -0.0407779 0.380381 0.977031 0.213017 -0.005921
-0.078556 -0.0412657 0.0992491 -0.0219064 -0.987994 -0.152929
0 0.0697169 0.0610954 -1 0 0
-0.0308597 -0.021829 0.430789 -0.363414 0.931628 6.1408e-05
0.0889609 -0.0376628 0.0765646 0.0198568 -0.988101 -0.152518
-0.15311 -0.0957094 0.620819 -0.39742 0.900279 0.177635
0.0316689 -0.050331 0.128651 0.872691 -0.447982 -0.194221
0.0455599 -0.0584436 0.599939 0.979577 0.200944 -0.00706733
0.0278941 -0.0377328 0.104536 0.963391 0.225899 -0.144384
0.041781 -0.0680471 0.569739 0.880298 -0.474378 -0.00635106
0.0419733 -0.0433107 0.560722 0.977377 0.211354 -0.00794315
-0.0408238 -0.0579639 0.835275 -0.971223 0.217829 0.0963188
0.164247 -0.0718389 0.431264 -0.130952 0.991087 0.0244434
0.0573187 -0.0865176 0.459549 0.132618 -0.991041 -0.0158249
-0.037774 -0.0260363 0.507298 -0.97517 0.22137 -0.00619165
0.0409612 -0.0348554 0.694568 0.975169 0.221377 -0.00607685
-0.0484702 -0.090278 0.59347 0.1109 0.993707 0.0157371
-0.0390959 -0.0287777 0.617482 -0.97517 0.22137 -0.00619165
-0.420868 -0.0358903 0.332388 -0.132452 -0.991076 -0.015007
0.00721493 -0.0126346 0.8132 0.363995 0.931401 0
0.202458 -0.0671202 0.44553 -0.132601 0.990812 0.0266149
-0.0351931 -0.0234897 0.279187 -0.361877 0.932226 0.000263867
-0.0441571 -0.0544778 0.516877 -0.976227 0.216657 -0.00631737
-0.107667 -0.0796383 0.433061 0.129027 0.991526 0.015108
0.0022747 -0.078294 0.14187 0.292188 -0.936339 -0.194668
-0.0728557 -0.0866804 0.599829 -0.132711 -0.99103 -0.0156947
0.0455623 -0.0903689 0.604097 -0.134394 0.990802 0.0158211
-0.198095 -0.0676404 0.473822 0.136427 0.990608 0.00919215
0.104154 -0.0320667 0.0434858 -0.0219064 0.987994 0.152929
0.0411959 -0.0492307 0.24582 0.97691 0.213575 -0.00568715
-0.0187639 -0.017087 0.746015 -0.361527 0.932362 0.000110947
-0.0113831 -0.0476044 0.0442436 -0.861668 -0.448639 -0.237172
-0.0384964 -0.0335179 0.358899 -0.976393 0.215893 -0.00680093
0.0339461 -0.0802926 0.388339 0.879351 -0.476141 -0.0056147
-0.148801 -0.0741249 0.430023 -0.135131 -0.990801 -0.00729224
0.202623 -0.0664649 0.418135 0.130704 -0.991176 -0.0220487
-0.110584 -0.0813224 0.580528 -0.132711 -0.99103 -0.0156947
-0.155426 -0.108687 0.581031 -0.907183 0.400591 -0.128627
0.0353437 -0.027765 0.821847 0.967315 0.233766 0.0982634
0.00302696 -0.0109867 0.365535 0.360993 0.932569 0
0.138248 -0.103055 0.53735 0 0 -1
0.0254228 -0.0413827 0.0923923 0.0198568 -0.988101 -0.152518
0.0397249 -0.0386002 0.0762275 0.0198568 -0.988101 -0.152518
-0.0726222 -0.0849194 0.489806 0.133821 0.990972 0.00811817
-0.33049 -0.0487181 0.381869 -0.132452 -0.991076 -0.015007
0.222961 -0.0646886 0.460685 0.133742 -0.990918 -0.0139478
0.419586 -0.0365248 0.360665 -0.139801 0.990164 0.00556204
-0.155986 -0.0732107 0.438949 0.135131 0.990801 0.00729224
0.00157323 -0.100632 0.550037 0.317596 -0.94814 -0.0127803
0 0.0760014 0.0843338 -1 0 0
0.0181064 -0.016859 0.251481 0.361877 0.932225 0.000746284
-0.0327738 -0.0225646 0.54162 -0.366483 0.930425 3.97176e-05
-0.101104 -0.0809957 0.480342 0.133821 0.990972 0.00811817
-0.00852972 -0.0991066 0.583357 -0.308506 -0.951153 -0.0115203
0.00880867 -0.100467 0.710966 0.295178 -0.955326 -0.014905
-0.0215304 -0.0933304 0.484253 -0.335362 -0.94198 -0.014353
0 0.0199079 0.129572 -1 0 0
0.128083 -0.0772202 0.471657 -0.128991 0.991612 0.00816995
0.296079 -0.0544681 0.450646 -0.139801 0.990164 0.00556204
0.0160796 -0.0196922 0.125371 0.368407 0.92859 -0.0446912
0.3851 -0.0412403 0.362144 -0.134299 0.990828 0.0149256
-0.143712 -0.0749821 0.451207 -0.140369 -0.990067 -0.0080476
-0.00201677 -0.0105992 0.552332 -0.364819 0.931077 0.00127208
0.00291226 -0.0109455 0.222468 0.361877 0.932226 0
-0.0344528 -0.0371862 0.0663804 0.0198568 0.988101 0.152518
-0.171757 -0.0707524 0.428686 -0.134725 -0.99051 -0.0271684
0.0282308 -0.0271848 0.123286 0.963391 0.225899 -0.144384
-0.0275271 -0.0290642 0.870777 -0.94778 0.217585 0.233173
0 -0.0136651 0.107747 -1 0 0
-0.0372914 -0.0729415 0.289119 -0.879193 -0.476432 -0.00567181
0.268397 -0.0572704 0.394714 0.130704 -0.991176 -0.0220487
0.122537 -0.122306 0.632935 -0.895367 -0.383744 0.225963
0.0405504 -0.0380546 0.525492 0.977377 0.211354 -0.00794315
0.0153527 -0.0918915 0.232365 0.308843 -0.951046 -0.011322
0.0864961 -0.0342458 0.0550343 -0.0219064 0.987994 0.152929
0.0428573 -0.044118 0.670054 0.977085 0.212793 -0.00497672
-0.0181809 -0.0360407 0.0568448 -0.0219064 -0.987994 -0.152929
0.0394703 -0.0694051 0.330233 0.879351 -0.476141 -0.0056147
0.030986 -0.0797954 0.836076 0.876689 -0.473135 0.0869437
0.0420504 -0.0888937 0.480398 0.132618 -0.991041 -0.0158249
0.242968 -0.0618214 0.449759 -0.134846 0.99077 0.0138409
-0.0236003 -0.0189865 0.501265 -0.364819 0.931077 0.00127208
0.0374468 -0.0404788 0.830307 0.972613 0.212446 0.0942921
-0.0414553 -0.0672993 0.451412 -0.878863 -0.477037 -0.00593177
0.0140024 -0.0213613 0.0840643 0.361913 0.930633 -0.05424
-0.0328134 -0.039554 0.0815068 0.0198568 0.988101 0.152518
-0.0410351 -0.0427793 0.434832 -0.976283 0.216419 -0.00589461
-0.026294 -0.0591563 0.899198 -0.908048 0.209912 0.362472
0.034318 -0.0274226 0.182348 0.967359 0.23352 -0.0984093
0.0772553 -0.0847592 0.522012 -0.134394 0.990802 0.0158211
-0.0102601 -0.0993256 0.64738 -0.305362 -0.952164 -0.011772
-0.0339571 -0.0822553 0.529603 -0.881587 -0.471955 -0.00792505
-0.0780736 -0.0857607 0.534714 0.148933 0.98873 0.0151959
0.196559 -0.0684543 0.47586 0.133457 -0.99098 -0.0121267
-0.0386012 -0.0248528 0.745257 -0.366159 0.930552 -0.000372754
0.0417544 -0.0380372 0.713537 0.977085 0.212793 -0.00497672
-0.0279249 -0.0206617 0.255806 -0.361877 0.932226 0.000263867
0.101942 -0.0819435 0.55465 -0.130411 0.99128 0.0189214
0.0403536 -0.069872 0.508767 0.878673 -0.477396 -0.00520476
0.0233691 -0.0898061 0.275862 0.308843 -0.951046 -0.011322
0 0.0909329 0.0574268 -1 0 0
0.333576 -0.0479041 0.353238 -0.130268 0.991256 0.0210011
-0.0383683 -0.0740965 0.535407 -0.88247 -0.470312 -0.00724521
-0.0357005 -0.0808323 0.655535 -0.884449 -0.466597 -0.00607774
-0.226619 -0.0635778 0.459359 0.136427 0.990608 0.00919215
-0.0251296 -0.0195977 0.344009 -0.363304 0.931671 -0.00013773
0 0.078264 0.0947544 1 0 0
-0.0104601 -0.0979725 0.54193 -0.319533 -0.947399 -0.0182739
-0.126431 -0.0781544 0.512887 0.146885 0.988977 0.0186853
-0.0351445 -0.0341404 0.174532 -0.967359 0.23352 -0.0984093
-0.040058 -0.0704561 0.498264 -0.878863 -0.477037 -0.00593177
0.165602 -0.0725595 0.473376 -0.120568 0.992667 0.00869029
-0.34546 -0.0464948 0.364902 0.136817 0.990566 0.00781708
-0.0123043 -0.0649848 0.0980651 -0.273523 -0.93454 -0.227642
0.0320158 -0.0923196 0.61119 -0.134394 0.990802 0.0158211
0.0185925 -0.017011 0.575711 0.361123 0.932518 -0.000196439
0.0296556 -0.0908276 0.4977 -0.134394 0.990802 0.0158211
0.353234 -0.0451433 0.344863 -0.130268 0.991256 0.0210011
-0.114522 -0.0807141 0.554755 0.146885 0.988977 0.0186853
