0 0.00662588 0.0858127 1 0 0
-0.0378738 -0.0911217 0.571933 0.121917 0.992535 0.00337185
-0.041705 -0.0914398 0.636231 0.141605 0.989918 0.00318997
-0.0379229 -0.0329501 0.289727 -0.976907 0.213574 -0.00620993
0 0.0315517 0.144892 1 0 0
-0.0697278 -0.0384374 0.0790791 0.0198568 0.988101 0.152518
0 0.0266436 0.103956 -1 0 0
0.150901 -0.0287216 0.0278102 0.0325704 -0.989477 -0.140977
0.185777 -0.0697896 0.466547 0.133742 -0.990918 -0.0139478
-0.0940725 -0.0819204 0.477315 0.133821 0.990972 0.00811817
0.0435363 -0.0634589 0.798428 0.876689 -0.473135 0.0869437
-0.0306664 -0.0909892 0.514779 0.090677 0.99574 0.0167204
0.063234 -0.086458 0.509293 -0.134394 0.990802 0.0158211
0.279359 -0.056704 0.437981 0.134846 -0.99077 -0.0138409
-0.0764727 -0.0861592 0.543845 0.146885 0.988977 0.0186853
0.0074219 -0.0961599 0.363579 0.317596 -0.94814 -0.0127803
-0.0414344 -0.0407886 0.560978 -0.976945 0.213401 -0.00616578
0 0.0528432 0.0781652 -1 0 0
-0.010762 -0.0139567 0.448477 -0.359896 0.932992 8.31916e-05
0.432487 -0.0346588 0.352745 -0.139801 0.990164 0.00556204
0 0.0884342 0.0411273 -1 0 0
0.0411856 -0.0881786 0.429719 0.128991 -0.991612 -0.00816995
-0.0339514 -0.0323908 0.166955 -0.967359 0.23352 -0.0984093
-0.00763556 -0.0536401 0.0440361 -0.274706 -0.938581 -0.208812
-0.18591 -0.0704141 0.529603 -0.127149 -0.991611 -0.0232341
-0.217511 -0.0649269 0.469573 0.136427 0.990608 0.00919215
0.136928 -0.0906116 0.601814 -0.397858 0.909399 -0.121253
0.11091 -0.0804817 0.539873 -0.130411 0.99128 0.0189214
-0.380353 -0.0415359 0.347227 0.136817 0.990566 0.00781708
-0.18316 -0.069487 0.443584 0.137479 0.990483 0.00657259
0.00381871 -0.0112932 0.42396 0.360993 0.932569 0
0 0.0258846 0.0694013 -1 0 0
0.0100935 -0.0530097 0.0497831 0.861668 -0.448639 -0.237172
-0.0370187 -0.0736441 0.305865 -0.879193 -0.476432 -0.00567181
0 0.0571262 0.0467506 -1 0 0
0.149775 -0.0752403 0.527856 0.12053 -0.992527 -0.0190603
-0.0322934 -0.0317573 0.853916 -0.94778 0.217585 0.233173
-0.0307495 -0.0217873 0.450808 -0.363414 0.931628 6.1408e-05
-0.0196563 -0.0174422 0.451895 -0.36481 0.931082 -0.000210511
0.0169077 -0.0941625 0.451127 0.317596 -0.94814 -0.0127803
-0.0046952 -0.0992124 0.505573 -0.275844 -0.961115 -0.0129552
-0.0771643 -0.0857963 0.528123 -0.148933 -0.98873 -0.0151959
-0.144014 -0.0991303 0.566737 -0.072359 0.163869 -0.983825
0.0385989 -0.0763199 0.743503 0.884884 -0.465727 -0.00888701
0.0642153 -0.0857827 0.471322 0.132618 -0.991041 -0.0158249
-0.138709 -0.08499 0.573502 0.998217 0.0584843 -0.0119072
-0.18037 -0.0698607 0.441547 -0.137479 -0.990483 -0.00657259
0.0227113 -0.0899027 0.266037 0.308843 -0.951046 -0.011322
0.319593 -0.0505108 0.389541 -0.130268 0.991256 0.0210011
-0.0204773 -0.0831698 0.193893 -0.302999 -0.933039 -0.193982
-0.390335 -0.0401703 0.345555 -0.132452 -0.991076 -0.015007
-0.0172095 -0.0965609 0.604028 -0.305362 -0.952164 -0.011772
0.0317441 -0.089744 0.447278 0.132618 -0.991041 -0.0158249
-0.0323905 -0.0224134 0.534353 -0.366483 0.930425 3.97176e-05
0 0.104891 0.0533545 -1 0 0
0.112125 -0.0792759 0.469208 0.128991 -0.991612 -0.00816995
-0.0469548 -0.08955 0.517405 0.090677 0.99574 0.0167204
-0.286736 -0.0547633 0.384863 -0.136817 -0.990566 -0.00781712
-0.0830151 -0.085287 0.560655 0.141605 0.989918 0.00318997
-0.103071 -0.0807467 0.482373 0.133821 0.990972 0.00811817
0.0298414 -0.0213959 0.656141 0.362263 0.932076 0.000301724
0.0652138 -0.0863618 0.515957 0.132618 -0.991041 -0.0158249
-0.0802326 -0.0831356 0.428292 0.129027 0.991526 0.015108
0.127802 -0.0781086 0.528024 0.136519 -0.990458 -0.0188345
0.0387042 -0.0316187 0.459907 0.977031 0.213017 -0.005921
0.0557886 -0.0384278 0.0772018 0.0198568 -0.988101 -0.152518
0.0454387 -0.0893541 0.539499 -0.134394 0.990802 0.0158211
-0.0618912 -0.0878837 0.537634 -0.110052 -0.993786 -0.0166876
0.12274 -0.078996 0.543575 -0.130411 0.99128 0.0189214
0.155713 -0.120581 0.599753 0.907099 -0.396825 -0.140361
-0.0024349 -0.0525347 0.936905 -0.496679 0.47682 0.725226
0 -0.00746183 0.0906129 1 0 0
0.045343 -0.057551 0.595253 0.979577 0.200944 -0.00706733
-0.0736113 -0.0359748 0.0643593 -0.0219064 -0.987994 -0.152929
0.209207 -0.066764 0.476918 -0.133457 0.99098 0.0121267
0.0427607 -0.0472578 0.552313 0.973983 0.226466 -0.00835478
-0.0307737 -0.0861808 0.390903 -0.879193 -0.476432 -0.00567181
0.0862903 -0.0304245 0.0293232 0.0198568 -0.988101 -0.152518
0.0410016 -0.0715041 0.724029 0.880958 -0.473159 -0.00583428
0.026977 -0.0203466 0.471372 0.359658 0.933084 0.000919089
0.0457745 -0.0595268 0.598881 0.979577 0.200944 -0.00706733
0.0314948 -0.0837234 0.296255 0.879193 -0.476432 -0.0056718
0.0438612 -0.0669527 0.776576 0.884884 -0.465727 -0.00888701
0.0339812 -0.044059 0.11091 -0.0219064 0.987994 0.152929
-0.144548 -0.0961413 0.638946 0 0 1
0.028817 -0.0725701 0.176373 0.867999 -0.469621 -0.161349
0.189264 -0.0699555 0.522968 0.139801 -0.990164 -0.00556206
-0.0356611 -0.078958 0.522804 -0.881587 -0.471955 -0.00792505
0.0551991 -0.0346931 0.0529298 0.0198568 -0.988101 -0.152518
0.0198959 -0.0175436 0.544333 0.361599 0.932333 -0.000917866
0 0.0537797 0.0664872 1 0 0
0.0399478 -0.0311473 0.667041 0.975169 0.221377 -0.00607685
0 -0.00231543 0.0912648 -1 0 0
0.00411184 -0.0937948 0.221714 0.305108 -0.939534 -0.155514
-0.0705493 -0.0869137 0.550011 -0.136161 -0.990606 0.0126732
-0.218221 -0.065606 0.501224 -0.127149 -0.991611 -0.0232341
-0.134305 -0.0943647 0.582231 0.396636 0.909924 -0.121323
0 0.0296585 0.144312 -1 0 0
-0.443171 -0.0329451 0.334728 -0.132452 -0.991076 -0.015007
0.212271 -0.065239 0.420218 0.130704 -0.991176 -0.0220487
-0.131384 -0.0783714 0.570062 -0.132711 -0.99103 -0.0156947
-0.138768 -0.0830364 0.580258 0.996909 0.0779552 -0.00981257
-0.00799896 -0.0128959 0.505199 -0.359896 0.932992 8.31916e-05
-0.107705 -0.079618 0.432051 0.129027 0.991526 0.015108
0.0298457 -0.0858636 0.23141 0.876486 -0.474965 -0.0786173
0.00668312 -0.0152603 0.140099 0.35509 0.934038 -0.0385172
0.13981 -0.077862 0.517906 -0.99792 0.0636679 -0.0101184
0.143964 -0.0757649 0.518427 0.12053 -0.992527 -0.0190603
-0.125801 -0.0771192 0.422604 -0.129027 -0.991526 -0.015108
-0.0355954 -0.0684153 0.200682 -0.867676 -0.470193 -0.16142
-0.0177013 -0.035702 0.0545874 -0.0219064 -0.987994 -0.152929
-0.188769 -0.0689101 0.472242 -0.136427 -0.990608 -0.00919216
-0.0305922 -0.0434755 0.871742 -0.947903 0.211979 0.237792
0.363309 -0.0446678 0.395775 0.139801 -0.990164 -0.00556206
0.00451133 -0.0994159 0.532805 0.317596 -0.94814 -0.0127803
0 0.0614786 0.0355523 -1 0 0
0.0720058 -0.0855581 0.52745 -0.134394 0.990802 0.0158211
-0.0350909 -0.0788799 0.441785 -0.878332 -0.478014 -0.00598154
0.0387184 -0.0918342 0.636627 0.132618 -0.991041 -0.0158249
0.141286 -0.095149 0.57509 0.400967 0.908056 -0.121074
0.102625 -0.080755 0.486746 -0.134394 0.990802 0.0158211
0.0200063 -0.0175755 0.402407 0.360317 0.932829 -0.00120746
-0.340461 -0.0474521 0.389551 0.136112 0.990677 0.0056611
0.146174 -0.0758231 0.535436 0.12053 -0.992527 -0.0190603
0.113533 -0.0799368 0.528171 -0.134394 0.990802 0.0158211
0 0.0112398 0.0653527 -1 0 0
-0.0345268 -0.0251629 0.823574 -0.969816 0.222644 0.0994317
0 0.111902 0.024325 1 0 0
0.0396408 -0.0355271 0.472898 0.976825 0.21395 -0.00620046
0.0865346 -0.0847668 0.596369 -0.130411 0.99128 0.0189214
0.182305 -0.0695761 0.436551 0.132601 -0.990812 -0.0266149
0.0186112 -0.017085 0.806651 0.362514 0.931978 -0.000670188
-0.0442337 -0.0524615 0.597867 -0.976227 0.216657 -0.00631737
0.000459158 -0.0669507 0.0911551 0.273107 -0.933119 -0.233882
0.138876 -0.0822187 0.575781 0.996909 -0.0779552 0.00981257
-0.0269096 -0.0873404 0.227448 -0.305108 -0.939534 -0.155518
-0.037637 -0.0244803 0.54348 -0.366483 0.930425 3.97176e-05
-0.0835726 -0.03371 0.0502549 0.0198568 0.988101 0.152518
-0.00992886 -0.0136726 0.561842 -0.362354 0.932041 -0.000440509
0.0420001 -0.0404233 0.659746 0.977085 0.212793 -0.00497672
0.0467839 -0.0428759 0.104847 0.0198568 -0.988101 -0.152518
0.0265168 -0.0460339 0.0988593 0.868035 -0.445592 -0.219005
-0.059063 -0.0396586 0.0856018 0.0198568 0.988101 0.152518
-0.0232728 -0.0188711 0.361218 -0.363304 0.931671 -0.00013773
0.0117181 -0.0997115 0.720178 0.305245 -0.952191 -0.0125787
0.039601 -0.0370004 0.414273 0.977031 0.213017 -0.005921
0 0.123079 0.0165029 -1 0 0
0.0381999 -0.0728511 0.423487 0.879351 -0.476141 -0.0056147
0.0118894 -0.0944404 0.347033 0.317596 -0.94814 -0.0127803
-0.394199 -0.0399241 0.364226 -0.136112 -0.990677 -0.00566112
-0.0685499 -0.0874957 0.60394 0.141605 0.989918 0.00318997
-0.0323569 -0.0386466 0.0757103 -0.0219064 -0.987994 -0.152929
-0.35348 -0.0456677 0.390314 0.136112 0.990677 0.0056611
0.0093087 -0.100457 0.720273 0.295178 -0.955326 -0.014905
0.0314099 -0.0375189 0.0681399 0.0198568 -0.988101 -0.152518
-0.0262133 -0.0939834 0.629801 -0.319961 -0.947312 -0.0150024
0.0181892 -0.0168619 0.640186 0.362263 0.932076 0.000301724
0 -0.0106494 0.109774 -1 0 0
0.0378632 -0.0276883 0.462531 0.977031 0.213017 -0.005921
0.120535 -0.0792439 0.541365 -0.130411 0.99128 0.0189214
-0.0432749 -0.0508434 0.504602 -0.976945 0.213401 -0.00616578
0 0.0597608 0.0390743 -1 0 0
0.0912249 -0.0817181 0.435641 0.128991 -0.991612 -0.00816995
0.204068 -0.0669837 0.448469 -0.132601 0.990812 0.0266149
-0.0359845 -0.0375368 0.175104 -0.972585 0.213707 -0.0916968
0.132579 -0.1033 0.638946 0 0 1
0.154562 -0.10855 0.575365 0.907178 0.400589 -0.128675
0.152864 -0.102245 0.583022 0.907178 0.400589 -0.128675
0 0.0370335 0.129715 -1 0 0
0.0319365 -0.0927939 0.640217 -0.134394 0.990802 0.0158211
0.0433014 -0.0590036 0.230897 0.976084 0.214476 0.0355006
0.0235889 -0.0649527 0.900893 0.833253 -0.43225 0.344745
0.223999 -0.0633336 0.401817 -0.130268 0.991256 0.0210011
-0.43366 -0.0342273 0.335463 -0.132452 -0.991076 -0.015007
0.332549 -0.0489058 0.398166 -0.134299 0.990828 0.0149256
0 0.0800472 0.0847158 1 0 0
-0.0386464 -0.0746685 0.611024 -0.884449 -0.466597 -0.00607774
0 -0.00745194 0.0936328 -1 0 0
-0.08155 -0.0855257 0.5697 0.141605 0.989918 0.00318997
-0.099619 -0.0807018 0.434124 -0.129027 -0.991526 -0.015108
-0.0217563 -0.0182303 0.667428 -0.366483 0.930425 3.97176e-05
0 0.120583 0.0157806 1 0 0
-0.0700743 -0.0866838 0.516377 -0.148933 -0.98873 -0.0151959
-0.00973177 -0.0135966 0.588376 -0.362609 0.931941 -0.000145428
0.366406 -0.0442567 0.400428 0.139801 -0.990164 -0.00556206
0.0335719 -0.0841162 0.788464 0.878522 -0.468985 0.090835
-0.244906 -0.060722 0.412607 -0.136741 -0.99059 -0.00569265
-0.163138 -0.0725661 0.485824 0.136427 0.990608 0.00919215
0.0135647 -0.0150651 0.642028 0.362263 0.932076 0.000301724
0.00464994 -0.0150477 0.127654 0.368407 0.92859 -0.0446912
0.031304 -0.0874885 0.551617 0.886476 -0.462715 -0.00738861
-0.103402 -0.0824534 0.586345 0.141605 0.989918 0.00318997
-0.0319691 -0.0910959 0.5282 0.090677 0.99574 0.0167204
-0.0380664 -0.0728175 0.394232 -0.878332 -0.478014 -0.00598154
0.0289693 -0.0922479 0.579773 0.28852 -0.957352 -0.0152869
0.382336 -0.0411049 0.335794 0.132648 -0.99105 -0.0149982
0.0101179 -0.0711378 0.119864 0.289965 -0.929214 -0.229089
-0.0180408 -0.0168267 0.374651 -0.364288 0.931286 -0.000296095
0.0106535 -0.0988395 0.796281 0.304409 -0.947698 0.0959393
-0.0371231 -0.0915447 0.593488 0.1109 0.993707 0.0157371
-0.0317681 -0.0871438 0.586615 -0.887289 -0.461156 -0.00730322
-0.21779 -0.0652788 0.484898 0.127149 0.991611 0.0232341
-0.0494261 -0.087365 0.442765 -0.129027 -0.991526 -0.015108
0.0345759 -0.0496824 0.140737 0.867999 -0.469621 -0.161349
0 0.0466975 0.0675929 -1 0 0
-0.364196 -0.0441261 0.378196 -0.136112 -0.990677 -0.00566112
-0.316381 -0.051167 0.422156 0.127149 0.991611 0.0232341
0.362462 -0.0443364 0.36402 -0.130268 0.991256 0.0210011
-0.11292 -0.0803498 0.522875 0.146885 0.988977 0.0186853
0.035717 -0.0238617 0.257399 0.97691 0.213575 -0.00568715
-0.00991451 -0.1008 0.759611 -0.308835 -0.951053 -0.0109061
-0.0190919 -0.0172406 0.362177 -0.363304 0.931671 -0.00013773
0 0.0170246 0.0702009 1 0 0
-0.0326633 -0.0774531 0.83263 -0.8764 -0.47298 0.0906238
-0.00522539 -0.0970071 0.356035 -0.294942 -0.95542 -0.0134647
0.0450602 -0.0605211 0.463274 0.976728 0.214391 -0.00623646
0 0.132838 0.0201255 -1 0 0
0.132901 -0.0763482 0.441886 0.128991 -0.991612 -0.00816995
0 0.0415827 0.0914791 1 0 0
0.0423469 -0.0683689 0.672898 0.880958 -0.473159 -0.00583428
0.183699 -0.0700517 0.465236 -0.133742 0.990918 0.0139478
0.153903 -0.0732024 0.434731 -0.155123 0.987864 0.00788707
0.048032 -0.0882556 0.490564 0.132618 -0.991041 -0.0158249
-0.0310281 -0.0218994 0.511166 -0.362354 0.932041 -0.000440509
-0.0506832 -0.0892622 0.545807 -0.110052 -0.993786 -0.0166876
0.0421464 -0.0388062 0.749982 0.975875 0.218234 -0.00646289
-0.200863 -0.0676414 0.494802 0.121131 0.992212 0.0290362
-0.0137913 -0.0933034 0.308378 -0.308843 -0.951046 -0.011322
-0.0433813 -0.089718 0.508029 0.090677 0.99574 0.0167204
0.0309912 -0.085653 0.380292 0.879193 -0.476432 -0.0056718
0.0332816 -0.085828 0.706191 0.887986 -0.459841 -0.00522558
-0.0585132 -0.086361 0.454477 -0.129027 -0.991526 -0.015108
-0.160275 -0.114503 0.612056 -0.907057 -0.396807 -0.140687
0.00132483 -0.0985726 0.391063 0.317596 -0.94814 -0.0127803
-0.0462941 -0.0618929 0.743134 -0.884449 -0.466597 -0.00607774
-0.114269 -0.0786663 0.425651 0.129027 0.991526 0.015108
-0.158796 -0.0728199 0.437932 -0.135131 -0.990801 -0.00729224
0.1424 -0.090988 0.609983 0.400871 0.908095 -0.121106
-0.0417811 -0.0692091 0.648065 -0.884449 -0.466597 -0.00607774
0.0263495 -0.0393689 0.0794663 0.0198568 -0.988101 -0.152518
0.312399 -0.0510912 0.372312 -0.130268 0.991256 0.0210011
0 0.0929472 0.0761122 -1 0 0
-0.003735 -0.0366894 0.0112308 -0.948901 0 -0.315575
0.061737 -0.0431373 0.108932 -0.0219064 0.987994 0.152929
0.432292 -0.034458 0.338401 0.132648 -0.99105 -0.0149982
0.0359521 -0.0255295 0.235142 0.97691 0.213575 -0.00568715
0.163009 -0.0724545 0.450153 -0.104613 0.994307 0.020233
0.0409572 -0.0670964 0.36733 0.879351 -0.476141 -0.0056147
0 0.0746245 0.099677 1 0 0
0 0.0749714 0.092964 -1 0 0
-0.0259339 -0.089701 0.336999 -0.308843 -0.951046 -0.011322
-0.0391018 -0.0752876 0.725684 -0.883304 -0.46877 -0.00537559
0.00872081 -0.0131887 0.575365 0.360802 0.932643 0
0.028837 -0.0905112 0.468514 0.28852 -0.957352 -0.0152869
-0.0166496 -0.0226618 0.888483 -0.353868 0.923991 0.144979
0.0255075 -0.0197502 0.440951 0.359658 0.933084 0.000919089
0.124549 -0.0772825 0.423416 -0.128991 0.991612 0.00816995
0 0.0375218 0.0947417 1 0 0
0.00232432 -0.103265 0.779003 0.303786 -0.947852 0.0963831
0 0.055503 0.0356794 1 0 0
-0.0406638 -0.0335102 0.698375 -0.975699 0.219032 -0.00605235
-0.423956 -0.035573 0.338684 -0.132452 -0.991076 -0.015007
0.114671 -0.0792481 0.492772 0.136519 -0.990458 -0.0188345
0.0132504 -0.0256212 0.0450545 0.946486 0.171314 -0.273526
-0.00702094 -0.0949619 0.263004 -0.308843 -0.951046 -0.011322
0 -0.00488933 0.0666558 -1 0 0
-0.0246971 -0.0194093 0.258 -0.361877 0.932226 0.000263867
-0.0124243 -0.0412869 0.0373586 -0.948901 0 -0.315575
-0.146223 -0.0748357 0.47699 -0.140369 -0.990067 -0.0080476
-0.00581985 -0.101765 0.78258 -0.307465 -0.946834 0.0947167
-0.0323924 -0.0825938 0.340522 -0.879193 -0.476432 -0.00567181
-0.263878 -0.05808 0.407465 0.136271 0.990656 0.00552957
0 0.0587138 0.037937 1 0 0
0.325386 -0.0493652 0.371401 -0.130268 0.991256 0.0210011
0.107853 -0.079513 0.430536 -0.128991 0.991612 0.00816995
-0.0599877 -0.0886846 0.617571 -0.132711 -0.99103 -0.0156947
0.0383308 -0.0305266 0.437589 0.977031 0.213017 -0.005921
0 -0.0024342 0.111161 1 0 0
-0.0219526 -0.0183497 0.278322 -0.361877 0.932226 0.000263867
-0.000385302 -0.00996315 0.271361 -0.358977 0.933347 0
0.00333292 -0.0970901 0.330978 0.317596 -0.94814 -0.0127803
0.156418 -0.0742201 0.51674 0.12053 -0.992527 -0.0190603
0.0418 -0.0394098 0.663795 0.977085 0.212793 -0.00497672
0.0120959 -0.0145596 0.502085 0.361617 0.932326 -0.00090606
0.134535 -0.119951 0.542199 -0.393905 -0.912195 -0.112867
0.123651 -0.0782329 0.504476 0.136519 -0.990458 -0.0188345
-0.167496 -0.0718064 0.465471 0.137479 0.990483 0.00657259
0.151411 -0.0253588 0.00504686 -0.0235792 0.989574 0.142081
-0.0312371 -0.0917247 0.564213 -0.110052 -0.993786 -0.0166876
0.219896 -0.06511 0.461235 0.133742 -0.990918 -0.0139478
0.361748 -0.04488 0.394321 -0.139801 0.990164 0.00556204
0 0.0206028 0.119325 1 0 0
0.0177967 -0.0923846 0.340452 0.308843 -0.951046 -0.011322
0.011639 -0.0143514 0.255181 0.361877 0.932225 0.000746284
-0.0175621 -0.0813297 0.180489 -0.302999 -0.933039 -0.193982
-0.339928 -0.047898 0.411499 0.127149 0.991611 0.0232341
0.15722 -0.073553 0.47023 0.121171 -0.992597 -0.00825331
-0.323659 -0.0496017 0.377038 -0.136817 -0.990566 -0.00781712
-0.177534 -0.0698689 0.423638 0.131149 0.991292 0.0118129
0.0994371 -0.0320681 0.042819 -0.0219064 0.987994 0.152929
-0.0158773 -0.0942466 0.416293 -0.331742 -0.943249 -0.0151447
-0.0171133 -0.0200771 0.126323 -0.368505 0.928836 -0.0383026
0.172706 -0.0705613 0.424801 -0.130268 0.991256 0.0210011
0.0529818 -0.0353932 0.0571765 0.0198568 -0.988101 -0.152518
0.12907 -0.0770137 0.462174 0.128991 -0.991612 -0.00816995
0 0.000164583 0.10678 -1 0 0
-0.0310961 -0.0219201 0.372404 -0.363304 0.931671 -0.00013773
-0.446227 -0.0323865 0.324814 -0.132452 -0.991076 -0.015007
0.178463 -0.0713037 0.503883 -0.134038 0.99085 0.0158417
0.270331 -0.0581249 0.454457 0.139801 -0.990164 -0.00556206
-0.0106914 -0.0139617 0.343458 -0.364288 0.931286 -0.000296095
-0.0235844 -0.0926696 0.488878 -0.335362 -0.94198 -0.014353
-0.040881 -0.0330964 0.748612 -0.97569 0.219074 -0.00600394
0.320291 -0.0499968 0.369609 -0.130268 0.991256 0.0210011
0.125764 -0.0774173 0.458951 -0.128991 0.991612 0.00816995
0.137844 -0.075774 0.450223 -0.128991 0.991612 0.00816995
-0.0381452 -0.0396804 0.0832184 -0.0219064 -0.987994 -0.152929
0 0.0881374 0.0529992 -1 0 0
-0.114177 -0.0807504 0.553964 0.146885 0.988977 0.0186853
-0.119258 -0.119791 0.623596 0.891253 -0.381981 0.244454
-0.000489499 -0.0800722 0.916724 -0.315897 -0.881183 0.351748
-0.118398 -0.0799122 0.542781 -0.146885 -0.988977 -0.0186853
0.0151084 -0.0157194 0.784914 0.363995 0.931401 0
-0.00431225 -0.0127879 0.179929 -0.368505 0.928836 -0.0383026
-0.154307 -0.0993677 0.602156 -0.907231 0.400469 -0.12867
0.0136585 -0.0787597 0.161302 0.303166 -0.933555 -0.19122
0.0293276 -0.0566206 0.888407 0.946758 0.21735 0.237505
0.354095 -0.045473 0.372389 0.130704 -0.991176 -0.0220487
-0.0366828 -0.0381841 0.0733424 -0.0219064 -0.987994 -0.152929
-0.00680887 -0.10137 0.723192 -0.305362 -0.952164 -0.011772
0 0.114232 0.0679728 1 0 0
-0.156359 -0.0733903 0.47121 0.137479 0.990483 0.00657259
0.0117529 -0.0144019 0.778755 0.362783 0.931855 0.00589573
-0.167907 -0.0730476 0.543475 0.127149 0.991611 0.0232341
0.0221681 -0.018481 0.486945 0.361617 0.932326 -0.00090606
0.101663 -0.0817517 0.540999 -0.134394 0.990802 0.0158211
-0.116693 -0.0281523 0.0187417 -0.0235792 -0.989574 -0.142081
-0.0408346 -0.044249 0.353932 -0.976393 0.215893 -0.00680093
-0.102898 -0.0336863 0.0537698 -0.0219064 -0.987994 -0.152929
0 0.00530536 0.0857373 1 0 0
-0.00904561 -0.0982704 0.529353 -0.294942 -0.95542 -0.0134647
0.0253985 -0.0380985 0.0886076 0.968833 0.189773 -0.159213
0.0171367 -0.016512 0.801782 0.363995 0.931401 0
0.0292052 -0.0211927 0.50513 0.361617 0.932326 -0.00090606
0.145239 -0.129287 0.595929 0.357227 -0.922202 -0.148096
0.0799369 -0.0403874 0.0937725 -0.0219064 0.987994 0.152929
-0.0305325 -0.0676891 0.171352 -0.867676 -0.470193 -0.16142
0.00546261 -0.0119405 0.549685 0.361599 0.932333 -0.000917866
-0.0249084 -0.0194866 0.241351 -0.361877 0.932226 0.000263867
0 0.0584071 0.0697695 -1 0 0
0.0442068 -0.049298 0.706804 0.975875 0.218234 -0.00646289
0.155268 -0.100861 0.604281 0.907235 0.400471 -0.128637
-0.266093 -0.0583936 0.455383 -0.127149 -0.991611 -0.0232341
0.00420405 -0.0114413 0.671062 0.360802 0.932643 0
0.0322476 -0.0841189 0.44708 0.878673 -0.477396 -0.00520476
-0.00828482 -0.0204873 0.0630395 -0.360474 0.926934 -0.104174
0.0863696 -0.0842214 0.56575 -0.134394 0.990802 0.0158211
-0.0334518 -0.0814042 0.402831 -0.878332 -0.478014 -0.00598154
0.0420314 -0.0380018 0.759774 0.975875 0.218234 -0.00646289
0.128189 -0.116586 0.556352 -0.928313 -0.353623 -0.11483
0.374756 -0.0427244 0.371305 0.130704 -0.991176 -0.0220487
-0.0365549 -0.0248571 0.352853 -0.976907 0.213574 -0.00620993
-0.0321341 -0.0857977 0.537772 -0.881587 -0.471955 -0.00792505
-0.0461994 -0.0586226 0.690337 -0.976227 0.216657 -0.00631737
0.299052 -0.0532312 0.394855 0.130704 -0.991176 -0.0220487
0.0375976 -0.0754868 0.554258 0.878052 -0.478501 -0.00777671
-0.0649783 -0.0880095 0.604846 0.141605 0.989918 0.00318997
-0.0231497 -0.0383254 0.0750678 -0.962056 0.225586 -0.153493
-0.294491 -0.0544544 0.442668 -0.127149 -0.991611 -0.0232341
-0.0889103 -0.0316719 0.0377457 0.0198568 0.988101 0.152518
-0.260614 -0.0586249 0.42463 -0.136271 -0.990656 -0.00552957
-0.109475 -0.0325572 0.0461582 0.0198568 0.988101 0.152518
0 -0.00813925 0.0931231 1 0 0
-0.112139 -0.0298239 0.0287974 0.0198568 0.988101 0.152518
-0.0127237 -0.0941763 0.342836 -0.331742 -0.943249 -0.0151447
0.167289 -0.0714969 0.433691 -0.130952 0.991087 0.0244434
0.224588 -0.0646429 0.473049 0.133742 -0.990918 -0.0139478
0 0.0654924 0.0361111 1 0 0
-0.00745407 -0.100719 0.787737 -0.307465 -0.946834 0.0947167
-0.044327 -0.0548552 0.530198 -0.976227 0.216657 -0.00631737
0.0400413 -0.0408551 0.804399 0.972549 0.212685 0.0944099
0.142418 -0.103816 0.539011 0.419131 0.901056 -0.111477
-0.0214628 -0.0962737 0.691961 -0.308835 -0.951053 -0.0109061
-0.0677001 -0.0872937 0.550921 -0.136161 -0.990606 0.0126732
-0.0404508 -0.0458167 0.203179 -0.972585 0.213707 -0.0916968
0.341619 -0.047133 0.373054 0.130704 -0.991176 -0.0220487
0.0376279 -0.0260802 0.481572 0.977031 0.213017 -0.005921
-0.00667394 -0.032821 0.0200678 -0.948901 0 -0.315575
0.0236984 -0.018997 0.606304 0.366428 0.930446 -0.000680084
0.0270843 -0.0880666 0.830902 0.879261 -0.467795 0.0898261
-0.0376549 -0.0303494 0.336996 -0.976907 0.213574 -0.00620993
0.22933 -0.0640634 0.481075 0.139801 -0.990164 -0.00556206
-0.266053 -0.057938 0.435519 -0.136112 -0.990677 -0.00566112
-0.013338 -0.0149834 0.727912 -0.361322 0.932441 0
-0.0290333 -0.0426017 0.100786 -0.0219064 -0.987994 -0.152929
-0.0127093 -0.0206133 0.0870011 -0.368214 0.928102 -0.0551843
0.0667669 -0.0873576 0.595641 -0.134394 0.990802 0.0158211
0.265638 -0.058629 0.442095 -0.134846 0.99077 0.0138409
-0.0379257 -0.0734801 0.426519 -0.878332 -0.478014 -0.00598154
-0.0422734 -0.0642487 0.327291 -0.878863 -0.477037 -0.00593177
-0.00664304 -0.09981 0.591379 -0.275844 -0.961115 -0.0129552
-0.0271829 -0.0519183 0.892859 -0.947903 0.211979 0.237792
-0.0430003 -0.0497467 0.499052 -0.976945 0.213401 -0.00616578
-0.0434735 -0.0572602 0.210535 -0.876485 -0.474967 -0.0786175
-0.139916 -0.0771967 0.511604 -0.99792 -0.0636679 0.0101184
0.0209724 -0.0833322 0.195221 0.303166 -0.933555 -0.19122
0.2823 -0.0563335 0.440112 -0.134846 0.99077 0.0138409
0.138501 -0.0863891 0.584001 0.998217 -0.0584843 0.0119072
0.0630892 -0.0855301 0.44995 -0.134394 0.990802 0.0158211
0.339505 -0.0476917 0.380158 -0.134299 0.990828 0.0149256
0.0380792 -0.0437266 0.83111 0.97247 0.213279 0.0938882
0.0342113 -0.0399232 0.151635 0.967359 0.23352 -0.0984093
0.0485468 -0.0892239 0.555516 0.132618 -0.991041 -0.0158249
-0.289734 -0.0545554 0.412954 0.136112 0.990677 0.0056611
-0.0300253 -0.0868989 0.335213 -0.879193 -0.476432 -0.00567181
-0.398753 -0.0391465 0.352238 -0.132452 -0.991076 -0.015007
0.290551 -0.0552478 0.450493 -0.139801 0.990164 0.00556204
0.0251841 -0.0195872 0.578277 0.364114 0.931354 -0.000231539
0.0073664 -0.0126903 0.844973 0.366753 0.930299 0.00593746
0.0169775 -0.0967668 0.635594 0.295178 -0.955326 -0.014905
0.135435 -0.0758883 0.426063 0.128991 -0.991612 -0.00816995
-0.0126933 -0.0207081 0.0853007 -0.368214 0.928102 -0.0551843
-0.372292 -0.042691 0.352504 0.136817 0.990566 0.00781708
0.0710197 -0.0852684 0.496135 0.132618 -0.991041 -0.0158249
0.0791435 -0.0834016 0.449227 -0.128991 0.991612 0.00816995
-0.130208 -0.0767411 0.440737 -0.133821 -0.990972 -0.00811817
0.219793 -0.0655575 0.507361 -0.139801 0.990164 0.00556204
0.116908 -0.117842 0.613573 -0.910304 -0.390146 -0.138325
-0.171588 -0.0713743 0.482799 -0.136427 -0.990608 -0.00919216
-0.0436155 -0.0621651 0.359807 -0.881336 -0.472455 -0.00581896
-0.0399284 -0.0371277 0.459031 -0.976283 0.216419 -0.00589461
0.138838 -0.0856831 0.559254 0.998217 -0.0584843 0.0119072
-0.0413138 -0.089035 0.483086 -0.129027 -0.991526 -0.015108
0.0724379 -0.0851586 0.506102 -0.134394 0.990802 0.0158211
0 0.0720472 0.0304603 1 0 0
-0.271659 -0.0575837 0.451273 0.127149 0.991611 0.0232341
-0.0204654 -0.0909404 0.291943 -0.308843 -0.951046 -0.011322
0.33827 -0.0472353 0.350788 -0.130268 0.991256 0.0210011
-0.0388479 -0.0302306 0.526475 -0.97517 0.22137 -0.00619165
-0.0262245 -0.0359565 0.0574527 -0.0219064 -0.987994 -0.152929
-0.0348187 -0.0919737 0.612436 -0.132711 -0.99103 -0.0156947
-0.0397852 -0.0394674 0.355059 -0.976393 0.215893 -0.00680093
0.0394117 -0.0434158 0.107385 0.0198568 -0.988101 -0.152518
-0.0418633 -0.0434659 0.536273 -0.976945 0.213401 -0.00616578
0.187363 -0.0696263 0.47043 -0.133457 0.99098 0.0121267
0.0374547 -0.0697794 0.825356 0.876689 -0.473135 0.0869437
-0.0392507 -0.0712033 0.439147 -0.878332 -0.478014 -0.00598154
-0.176109 -0.0713617 0.518666 0.121131 0.992212 0.0290362
-0.13828 -0.0926804 0.573495 -0.997887 -0.0636658 0.0129621
0.308933 -0.0525252 0.427838 0.139801 -0.990164 -0.00556206
-0.0408087 -0.0696066 0.541175 -0.878863 -0.477037 -0.00593177
0.175794 -0.070754 0.449138 0.130952 -0.991087 -0.0244434
-0.0428143 -0.0496443 0.473127 -0.976945 0.213401 -0.00616578
-0.0388959 -0.0351349 0.364916 -0.976393 0.215893 -0.00680093
-0.0621869 -0.0884082 0.618712 -0.132711 -0.99103 -0.0156947
0.140908 -0.0757352 0.493188 0.121171 -0.992597 -0.00825331
0 0.0137458 0.0741608 1 0 0
0.0838853 -0.0851246 0.594949 0.132618 -0.991041 -0.0158249
0.156834 -0.0732171 0.441989 0.155066 -0.987499 -0.0282959
-0.236429 -0.0618993 0.413847 0.136741 0.99059 0.00569265
-0.169981 -0.0718639 0.506166 0.137015 0.99039 0.0188275
0.0306226 -0.0789058 0.204518 0.867643 -0.470175 -0.161652
0.0381721 -0.0350158 0.260232 0.97691 0.213575 -0.00568715
0.15306 -0.0739823 0.460783 0.121171 -0.992597 -0.00825331
-0.0027046 -0.094785 0.224936 -0.305105 -0.939535 -0.155514
-0.0501581 -0.0896028 0.592436 -0.132711 -0.99103 -0.0156947
-0.0294154 -0.0920133 0.56898 0.090677 0.99574 0.0167204
-0.125052 -0.078391 0.514577 0.146885 0.988977 0.0186853
0.0435333 -0.0460688 0.714161 0.975875 0.218234 -0.00646289
-0.0429018 -0.0893352 0.502536 -0.134052 -0.983823 -0.118835
-0.105451 -0.0323452 0.0454708 -0.0219064 -0.987994 -0.152929
0.233516 -0.063465 0.479757 -0.139801 0.990164 0.00556204
0 0.0109278 0.0600351 -1 0 0
0.0337621 -0.0798801 0.324885 0.879193 -0.476432 -0.0056718
0.221462 -0.0653107 0.505382 0.139801 -0.990164 -0.00556206
0.0807012 -0.03863 0.0825285 -0.0219064 0.987994 0.152929
0.00809478 -0.0982721 0.537005 0.317596 -0.94814 -0.0127803
0.0421645 -0.0880229 0.426284 0.128991 -0.991612 -0.00816995
0 0.0772765 0.0422371 -1 0 0
0.147767 -0.0759437 0.551789 0.12053 -0.992527 -0.0190603
-0.03335 -0.0228023 0.514056 -0.363672 0.931527 -5.24113e-05
-0.379454 -0.0419652 0.368057 0.132452 0.991076 0.015007
0.000542455 -0.0823855 0.15895 0.292188 -0.936339 -0.194668
0.201858 -0.0666282 0.419985 -0.130268 0.991256 0.0210011
0 0.011762 0.118356 1 0 0
-0.0421469 -0.0481182 0.422963 -0.976283 0.216419 -0.00589461
0.0197984 -0.0942486 0.529348 0.317596 -0.94814 -0.0127803
0.280739 -0.0558161 0.398947 -0.130268 0.991256 0.0210011
-0.0152195 -0.0937112 0.368535 -0.331742 -0.943249 -0.0151447
0.00241335 -0.0971787 0.314699 0.317596 -0.94814 -0.0127803
0.0332708 -0.0394925 0.143413 0.967359 0.23352 -0.0984093
0.0168701 -0.0929043 0.356844 0.317596 -0.94814 -0.0127803
-0.0399341 -0.0903419 0.539219 -0.110052 -0.993786 -0.0166876
0.0310097 -0.0763626 0.851568 0.861126 -0.464736 0.206111
0.0296801 -0.0213531 0.435474 0.359658 0.933084 0.000919089
0.0527786 -0.0435489 0.109988 0.0198568 -0.988101 -0.152518
-0.0209582 -0.0216001 0.8712 -0.353868 0.923991 0.144979
-0.0443713 -0.0620955 0.468638 -0.881336 -0.472455 -0.00581896
0.0787016 -0.0833637 0.437639 0.128991 -0.991612 -0.00816995
0.0232183 -0.0337316 0.0805462 0.968833 0.189773 -0.159213
0 0.0178922 0.0865506 1 0 0
0.0403697 -0.067549 0.313689 0.879351 -0.476141 -0.0056147
0.0261469 -0.0315858 0.102495 0.963391 0.225899 -0.144384
-0.0426782 -0.065856 0.517525 -0.881336 -0.472455 -0.00581896
0.037601 -0.0774031 0.682683 0.884245 -0.467009 -0.00353673
0.0674017 -0.0859341 0.507502 0.132618 -0.991041 -0.0158249
-0.0898993 -0.082563 0.486966 -0.133821 -0.990972 -0.00811817
0.0366153 -0.0240687 0.550371 0.368937 0.929454 -7.83048e-05
-0.0395125 -0.0265843 0.763838 -0.97569 0.219074 -0.00600394
0.0617084 -0.0867851 0.513085 0.132618 -0.991041 -0.0158249
-0.075547 -0.0861962 0.552398 -0.136161 -0.990606 0.0126732
-0.0450812 -0.0572107 0.566137 -0.977807 0.209406 -0.00645591
-0.40297 -0.0382684 0.329023 0.136817 0.990566 0.00781708
0.422907 -0.0360501 0.359633 0.139801 -0.990164 -0.00556206
-0.0192368 -0.0587621 0.0961488 -0.867656 -0.445397 -0.220897
0.317965 -0.0506695 0.391808 0.130704 -0.991176 -0.0220487
0.0433069 -0.0469402 0.637671 0.977085 0.212793 -0.00497672
-0.30851 -0.0516197 0.367608 0.136817 0.990566 0.00781708
-0.0440866 -0.0896356 0.506948 0.090677 0.99574 0.0167204
-0.117728 -0.0320275 0.0438009 0.0198568 0.988101 0.152518
0.130308 -0.129327 0.5968 -0.354574 -0.923608 -0.145688
0.053518 -0.0887428 0.569846 -0.134394 0.990802 0.0158211
0.0450086 -0.0586657 0.518969 0.976718 0.214435 -0.00623408
-0.0390093 -0.0387581 0.260869 -0.976907 0.213574 -0.00620993
0.0220244 -0.0183539 0.570588 0.364114 0.931354 -0.000231539
0.239478 -0.061509 0.413826 0.130704 -0.991176 -0.0220487
-0.0506807 -0.0878797 0.489478 0.133821 0.990972 0.00811817
-0.0701416 -0.0313778 0.0334816 -0.0235792 -0.989574 -0.142081
-0.0440861 -0.0664747 0.776163 -0.883304 -0.46877 -0.00537559
-0.00174002 -0.0983217 0.376568 -0.275844 -0.961115 -0.0129552
0.104324 -0.0803061 0.471077 -0.128991 0.991612 0.00816995
-0.00736859 -0.0280975 0.909622 -0.324062 0.846165 0.423071
-0.206343 -0.0664117 0.463829 0.136427 0.990608 0.00919215
0.321863 -0.050177 0.387865 -0.130268 0.991256 0.0210011
0.0931051 -0.0838998 0.596231 -0.130411 0.99128 0.0189214
-0.158453 -0.0259056 0.00978999 0.0325704 0.989477 0.140977
-0.022071 -0.0924043 0.437221 -0.331742 -0.943249 -0.0151447
-0.000879052 -0.0101567 0.234144 -0.361877 0.932226 0.000263867
0.0434762 -0.0510112 0.539736 0.977001 0.213118 -0.00708415
0.13879 -0.0766964 0.533716 -0.130411 0.99128 0.0189214
0.144089 -0.100221 0.566499 0.0624752 0.163979 -0.984484
-0.0407947 -0.0358754 0.633883 -0.975699 0.219032 -0.00605235
-0.00827757 -0.0129986 0.441991 -0.358977 0.933347 0
-0.138502 -0.0758345 0.466806 0.133821 0.990972 0.00811817
-0.014435 -0.018826 0.130895 -0.368505 0.928836 -0.0383026
-0.0389832 -0.0354037 0.368927 -0.976393 0.215893 -0.00680093
0.0376408 -0.0771345 0.657188 0.884245 -0.467009 -0.00353673
0.352911 -0.0457136 0.369778 -0.130268 0.991256 0.0210011
0.338611 -0.047886 0.385016 -0.134299 0.990828 0.0149256
-0.113896 -0.0786555 0.421756 -0.129027 -0.991526 -0.015108
-0.0120758 -0.0393527 0.0363108 -0.948901 0 -0.315575
0.331226 -0.0490737 0.398684 0.130704 -0.991176 -0.0220487
0 0.0131857 0.131172 -1 0 0
0.13067 -0.078256 0.559466 -0.130411 0.99128 0.0189214
0 0.0266671 0.0691121 1 0 0
0 -0.0079693 0.13946 1 0 0
0.120031 -0.0342585 0.0599202 -0.0219064 0.987994 0.152929
-0.247473 -0.0613062 0.477792 -0.127149 -0.991611 -0.0232341
0 0.117093 0.0418309 1 0 0
-0.0394587 -0.0749823 0.757704 -0.883304 -0.46877 -0.00537559
-0.0331914 -0.0370388 0.148455 -0.967359 0.23352 -0.0984093
0.0338743 -0.0845254 0.691417 0.884245 -0.467009 -0.00353673
0.130258 -0.105611 0.544001 -0.926903 0.353086 -0.127207
0.205115 -0.0661654 0.419445 0.130704 -0.991176 -0.0220487
0.0426233 -0.0503037 0.432877 0.976825 0.21395 -0.00620046
0.0892217 -0.0820007 0.438315 0.128991 -0.991612 -0.00816995
-0.372499 -0.0431685 0.387896 0.127149 0.991611 0.0232341
-0.0539566 -0.0872933 0.476749 -0.129027 -0.991526 -0.015108
0.00336738 -0.0810615 0.912101 0.273623 -0.893297 0.356583
-0.00469194 -0.0116195 0.441193 -0.358977 0.933347 0
-0.19035 -0.0690603 0.499429 -0.121131 -0.992212 -0.0290362
-0.269426 -0.0580673 0.459694 -0.127149 -0.991611 -0.0232341
0.313788 -0.0507205 0.363432 -0.130268 0.991256 0.0210011
-0.20422 -0.0665118 0.437495 -0.137364 -0.990446 -0.012132
0.0109862 -0.02056 0.0776877 0.361913 0.930633 -0.05424
0 0.0421568 0.121815 -1 0 0
0.348276 -0.0468899 0.413529 0.139801 -0.990164 -0.00556206
-0.285094 -0.0552445 0.421986 0.136112 0.990677 0.0056611
0.0309519 -0.0765616 0.851361 0.861126 -0.464736 0.206111
-0.0166385 -0.0162143 0.661704 -0.366483 0.930425 3.97176e-05
0.0670171 -0.0860647 0.51246 0.132618 -0.991041 -0.0158249
0 0.0289646 0.0890464 1 0 0
0 0.113349 0.0415324 -1 0 0
-0.0211494 -0.0943431 0.541386 -0.329187 -0.944132 -0.0158538
0.0704761 -0.0871933 0.612127 0.132618 -0.991041 -0.0158249
-0.0626998 -0.0856563 0.443983 0.129027 0.991526 0.015108
-0.244618 -0.060988 0.447385 0.136427 0.990608 0.00919215
-0.0188297 -0.0171413 0.544448 -0.362354 0.932041 -0.000440509
0.0238622 -0.092705 0.511598 0.295178 -0.955326 -0.014905
0 -0.00567492 0.162763 -1 0 0
0 0.0433159 0.0497013 1 0 0
0.0437216 -0.0613233 0.310696 0.879351 -0.476141 -0.0056147
-0.113814 -0.0789975 0.445943 0.133821 0.990972 0.00811817
-0.145367 -0.0750602 0.489686 0.140369 0.990067 0.0080476
0.0449253 -0.089377 0.534755 0.132618 -0.991041 -0.0158249
0.145776 -0.127184 0.583991 0.348748 -0.925876 -0.145356
0.0279471 -0.0917133 0.527001 0.28852 -0.957352 -0.0152869
-0.0123053 -0.0990892 0.681313 -0.305362 -0.952164 -0.011772
0.0161948 -0.0942598 0.440628 0.317596 -0.94814 -0.0127803
0.0305728 -0.0217173 0.770546 0.362789 0.931871 0
0 0.0193352 0.141219 -1 0 0
-0.130397 -0.0962231 0.581068 0.396636 0.909924 -0.121323
-0.102933 -0.0802375 0.43196 -0.129027 -0.991526 -0.015108
0 -0.0051486 0.11682 -1 0 0
0 0.0513811 0.0810588 -1 0 0
-0.430941 -0.0344983 0.329358 0.132452 0.991076 0.015007
0 0.0876051 0.0833923 -1 0 0
0.202374 -0.0680784 0.51831 0.139801 -0.990164 -0.00556206
-0.0380917 -0.0487506 0.84162 -0.969816 0.222644 0.0994317
0 0.0701727 0.0878979 -1 0 0
0.0319576 -0.0402308 0.129205 0.967797 0.226932 -0.108953
0.0295271 -0.0872103 0.284143 0.879193 -0.476432 -0.0056718
0.0865246 -0.0838286 0.542469 -0.134394 0.990802 0.0158211
-0.372076 -0.0432694 0.389885 -0.127149 -0.991611 -0.0232341
0 0.0144392 0.141145 -1 0 0
0.0938377 -0.0812916 0.425122 -0.128991 0.991612 0.00816995
0.0940964 -0.0835516 0.584818 -0.130411 0.99128 0.0189214
-0.348288 -0.0463545 0.385672 0.136112 0.990677 0.0056611
0.209854 -0.0662235 0.448998 0.132601 -0.990812 -0.0266149
0 0.0220347 0.113387 -1 0 0
0.191649 -0.0679352 0.419179 0.130704 -0.991176 -0.0220487
0.0324808 -0.0824996 0.34631 0.879193 -0.476432 -0.0056718
0.039964 -0.0895187 0.503296 -0.134394 0.990802 0.0158211
-0.034765 -0.0346933 0.842592 -0.969816 0.222644 0.0994317
0.300952 -0.0537396 0.443425 -0.139801 0.990164 0.00556204
-0.308152 -0.0522432 0.423052 -0.127149 -0.991611 -0.0232341
-0.0417986 -0.0489007 0.344664 -0.976393 0.215893 -0.00680093
0.396503 -0.0395294 0.356588 0.130704 -0.991176 -0.0220487
0 0.0183465 0.108708 1 0 0
0 0.0416689 0.134258 -1 0 0
0.0196735 -0.0227413 0.0982259 0.361913 0.930633 -0.05424
-0.0385812 -0.0336142 0.368009 -0.976393 0.215893 -0.00680093
0.0437398 -0.0651974 0.62839 0.880298 -0.474378 -0.00635106
0.0470708 -0.0884907 0.499292 -0.134394 0.990802 0.0158211
-0.0425367 -0.0433707 0.646269 -0.976945 0.213401 -0.00616578
0.013799 -0.0152098 0.448506 0.37594 0.926642 0.00174292
0.326517 -0.0495908 0.394015 0.130704 -0.991176 -0.0220487
-0.158941 -0.0249182 0.00322799 -0.0235792 -0.989574 -0.142081
0.130581 -0.0765202 0.426126 0.128991 -0.991612 -0.00816995
-0.0158456 -0.0160266 0.839198 -0.366758 0.930311 0.00318362
-0.0406624 -0.0704702 0.582085 -0.884449 -0.466597 -0.00607774
0.144489 -0.0747315 0.427189 0.155066 -0.987499 -0.0282959
-0.143485 -0.120731 0.638946 0 0 1
0.0174066 -0.016579 0.241071 0.361877 0.932225 0.000746284
0.0431954 -0.0486006 0.56659 0.973983 0.226466 -0.00835478
-0.232298 -0.0631227 0.472268 0.127149 0.991611 0.0232341
0.0395631 -0.0732248 0.636015 0.883738 -0.467859 -0.0107027
-0.232195 -0.0626018 0.434407 -0.136741 -0.99059 -0.00569265
0.129629 -0.131448 0.6119 -0.354574 -0.923608 -0.145688
0.104737 -0.0800578 0.44745 -0.128991 0.991612 0.00816995
-0.016099 -0.016053 0.431372 -0.36481 0.931082 -0.000210511
-0.101722 -0.0348676 0.060117 0.0198568 0.988101 0.152518
0.0203544 -0.072765 0.898916 0.833253 -0.43225 0.344745
-0.0393032 -0.0698287 0.807282 -0.879947 -0.466989 0.0872667
0.033499 -0.0914406 0.568237 0.132618 -0.991041 -0.0158249
0.207083 -0.0666897 0.453043 -0.132167 0.990975 0.0223639
-0.0428496 -0.047146 0.565188 -0.976945 0.213401 -0.00616578
0 0.00456733 0.0640172 1 0 0
-0.0845389 -0.0830478 0.459302 0.129027 0.991526 0.015108
-0.0443431 -0.0585374 0.411312 -0.977807 0.209406 -0.00645591
0 0.0153771 0.0951025 -1 0 0
0.0134999 -0.015077 0.529972 0.361617 0.932326 -0.00090606
0.0442052 -0.0563374 0.473185 0.976718 0.214435 -0.00623408
0.213742 -0.0658789 0.456858 -0.133742 0.990918 0.0139478
0.0411812 -0.035381 0.714567 0.977085 0.212793 -0.00497672
-0.0380787 -0.0246585 0.642781 -0.366483 0.930425 3.97176e-05
-0.187418 -0.0684839 0.417149 0.131149 0.991292 0.0118129
0.244567 -0.0612225 0.429756 -0.130268 0.991256 0.0210011
0.145162 -0.0759796 0.53718 -0.12053 0.992527 0.0190603
-0.0347611 -0.0778843 0.31208 -0.879193 -0.476432 -0.00567181
-0.0152357 -0.0156997 0.494446 -0.364819 0.931077 0.00127208
0.096036 -0.0322685 0.0436271 -0.0219064 0.987994 0.152929
0.0286113 -0.0209308 0.733227 0.361541 0.932356 0.000838277
0.0926933 -0.0816321 0.448385 0.128991 -0.991612 -0.00816995
-0.201551 -0.0663587 0.405051 0.121898 0.991654 0.0419997
-0.118637 -0.0787677 0.497388 0.133821 0.990972 0.00811817
0 0.101846 0.0726173 -1 0 0
-0.388368 -0.0403876 0.341982 0.136817 0.990566 0.00781708
0.0350299 -0.0789789 0.446669 0.879351 -0.476141 -0.0056147
-0.0701609 -0.0385644 0.0805952 -0.0219064 -0.987994 -0.152929
0 0.0088558 0.110447 1 0 0
-0.110015 -0.0807359 0.520482 -0.146885 -0.988977 -0.0186853
-0.0182948 -0.0530836 0.0809709 -0.865418 -0.450591 -0.219131
-0.321241 -0.0499055 0.373207 0.136817 0.990566 0.00781708
0.0428536 -0.0907176 0.601353 0.132618 -0.991041 -0.0158249
0.149493 -0.0748594 0.50624 0.12053 -0.992527 -0.0190603
0.153902 -0.119067 0.583767 0.907565 -0.395623 -0.140744
-0.132765 -0.130416 0.598058 0.354437 -0.923251 -0.148265
-0.0293588 -0.0348873 0.119038 -0.962056 0.225586 -0.153493
-0.0983293 -0.0813723 0.480577 0.133821 0.990972 0.00811817
0 0.00452903 0.125238 1 0 0
0.00629771 -0.0122528 0.494339 0.360993 0.932569 0
-7.02441e-05 -0.0969548 0.239611 -0.275844 -0.961115 -0.0129552
-0.0315842 -0.0220851 0.266262 -0.361877 0.932226 0.000263867
0.129559 -0.094191 0.628041 -0.394279 0.901217 0.179865
0.0602058 -0.0863018 0.473787 -0.134394 0.990802 0.0158211
0.378498 -0.0424609 0.384674 -0.139801 0.990164 0.00556204
0.0330344 -0.0843041 0.559805 0.886476 -0.462715 -0.00738861
-0.109107 -0.0797497 0.460175 0.133821 0.990972 0.00811817
-0.222533 -0.0638993 0.428107 0.136741 0.99059 0.00569265
0.12024 -0.106189 0.590745 -0.907499 0.400731 -0.125938
0.0161969 -0.035523 0.91127 0.914953 0.18909 0.35652
0.110587 -0.0284434 0.0197559 -0.0235792 0.989574 0.142081
0.0395562 -0.0413718 0.204049 0.972585 0.213707 -0.0916968
0.156468 -0.119856 0.60258 0.907099 -0.396825 -0.140361
0.184466 -0.068905 0.41957 -0.130268 0.991256 0.0210011
0.284921 -0.0549667 0.384791 -0.130268 0.991256 0.0210011
0.0301331 -0.0907166 0.613287 0.886476 -0.462715 -0.00738861
-0.0419215 -0.0417763 0.603982 -0.976945 0.213401 -0.00616578
-0.0408241 -0.0913048 0.60442 0.1109 0.993707 0.0157371
0.0171546 -0.0283479 0.902712 0.324569 0.84749 0.420019
0.00409532 -0.0958659 0.259104 0.317596 -0.94814 -0.0127803
0.102303 -0.0812871 0.510348 0.136519 -0.990458 -0.0188345
-0.0441943 -0.0901318 0.537082 0.090677 0.99574 0.0167204
0.170938 -0.072368 0.512113 -0.12053 0.992527 0.0190603
-0.0318028 -0.0221969 0.471289 -0.36481 0.931082 -0.000210511
-0.0218072 -0.0906025 0.300152 -0.308843 -0.951046 -0.011322
0.0626955 -0.0883077 0.616713 0.132618 -0.991041 -0.0158249
0.0424326 -0.0424085 0.101458 -0.0219064 0.987994 0.152929
0.359854 -0.0442083 0.342023 0.132648 -0.99105 -0.0149982
0.0202087 -0.0708188 0.901708 0.833253 -0.43225 0.344745
-0.0380866 -0.0304226 0.40023 -0.976277 0.216443 -0.00589954
-0.115422 -0.0787365 0.440587 0.133821 0.990972 0.00811817
0 0.0560893 0.0841835 -1 0 0
0.00186983 -0.0161063 0.88328 0.353477 0.922971 0.152244
-0.31204 -0.0516431 0.418719 -0.127149 -0.991611 -0.0232341
0.189832 -0.0682672 0.423327 0.130704 -0.991176 -0.0220487
-0.231103 -0.0629318 0.456274 -0.136427 -0.990608 -0.00919216
0.139605 -0.0280861 0.0220832 -0.0235792 0.989574 0.142081
-0.116338 -0.0783856 0.424904 0.129027 0.991526 0.015108
-0.0421523 -0.0480772 0.425364 -0.976283 0.216419 -0.00589461
0.188171 -0.0692944 0.456695 0.132167 -0.990975 -0.0223639
0 0.013664 0.0839181 1 0 0
0 0.0133827 0.15765 -1 0 0
0.0280424 -0.0805969 0.195569 0.867999 -0.469621 -0.161349
-0.145604 -0.128623 0.592298 -0.357348 -0.922514 -0.145844
-0.0385376 -0.0634318 0.849 -0.8764 -0.47298 0.0906238
-0.132405 -0.128467 0.634656 0.353714 -0.905256 0.235367
0.0412265 -0.0380158 0.785918 0.971017 0.217148 0.0998662
0.385306 -0.040859 0.341583 -0.130268 0.991256 0.0210011
-0.120079 -0.0800296 0.574462 0.141605 0.989918 0.00318997
0 0.00493549 0.168028 -1 0 0
-0.0403155 -0.0714101 0.60377 -0.884449 -0.466597 -0.00607774
0 0.0350034 0.0434784 -1 0 0
-0.0414832 -0.090938 0.585907 0.1109 0.993707 0.0157371
0.428015 -0.0347838 0.3221 0.132648 -0.99105 -0.0149982
-0.200072 -0.067988 0.50356 0.127149 0.991611 0.0232341
0.199839 -0.0682269 0.492428 -0.13541 0.990691 0.0139766
0.0213248 -0.018036 0.219232 0.355327 0.934662 0.0122526
0.0381568 -0.0473043 0.132413 0.0198568 -0.988101 -0.152518
-0.131893 -0.132518 0.618441 0.347988 -0.906452 0.23927
-0.138082 -0.091769 0.592767 0.998217 0.0584843 -0.0119072
-0.0299227 -0.0912464 0.621464 -0.887289 -0.461156 -0.00730322
0.04943 -0.0442502 0.114095 0.0198568 -0.988101 -0.152518
-0.00968332 -0.0982306 0.805374 -0.304413 -0.947697 0.0959392
0.305573 -0.0524823 0.395632 -0.130268 0.991256 0.0210011
-0.0168315 -0.0163518 0.803447 -0.364474 0.931213 0.00103046
-0.0858918 -0.0844944 0.528949 -0.148933 -0.98873 -0.0151959
0 0.0981414 0.0419551 1 0 0
0.112991 -0.0791613 0.468969 0.128991 -0.991612 -0.00816995
0 0.0365778 0.116488 1 0 0
0.14263 -0.0749894 0.436824 -0.155123 0.987864 0.00788707
0.00801399 -0.0875392 0.891101 0.289651 -0.945623 0.147987
0 0.038844 0.121257 -1 0 0
-0.0395541 -0.0375692 0.382142 -0.976393 0.215893 -0.00680093
0.0215558 -0.0181957 0.381737 0.364876 0.931056 0
-0.037882 -0.0307206 0.359492 -0.976393 0.215893 -0.00680093
0.223752 -0.0638974 0.4269 -0.130268 0.991256 0.0210011
0.290638 -0.0544827 0.401236 0.130704 -0.991176 -0.0220487
-0.0381324 -0.0634107 0.850943 -0.85933 -0.463767 0.215572
0.10012 -0.0829115 0.592405 0.132618 -0.991041 -0.0158249
0 0.0544418 0.0704538 1 0 0
0.0325485 -0.0224808 0.440556 0.366475 0.930428 -0.000125647
-0.0192183 -0.0172956 0.323909 -0.363304 0.931671 -0.00013773
-0.00501114 -0.033185 0.015068 -0.948901 0 -0.315575
-0.0338345 -0.0921945 0.611347 0.1109 0.993707 0.0157371
-0.0170096 -0.0978828 0.706175 -0.308835 -0.951053 -0.0109061
0.0448452 -0.0521702 0.706221 0.975875 0.218234 -0.00646289
0.372286 -0.0430895 0.369605 -0.134299 0.990828 0.0149256
-0.191956 -0.0690524 0.505862 -0.121131 -0.992212 -0.0290362
-0.00662819 -0.0123695 0.35226 -0.364288 0.931286 -0.000296095
-0.00737401 -0.096082 0.34434 -0.331742 -0.943249 -0.0151447
-0.220681 -0.0651175 0.493833 -0.127149 -0.991611 -0.0232341
-0.0255362 -0.0895193 0.310886 -0.308843 -0.951046 -0.011322
0 0.0456528 0.0681679 -1 0 0
-0.151605 -0.0742336 0.493565 -0.136904 -0.990533 -0.010034
0.187106 -0.0702364 0.518725 0.139801 -0.990164 -0.00556206
-0.0341373 -0.0384132 0.154491 -0.967359 0.23352 -0.0984093
-0.0502994 -0.041295 0.0950629 0.0198568 0.988101 0.152518
0.0365242 -0.0757957 0.410756 0.879351 -0.476141 -0.0056147
-0.0311072 -0.0486801 0.874329 -0.947903 0.211979 0.237792
-0.328731 -0.0492172 0.406522 0.127149 0.991611 0.0232341
0.187667 -0.0700277 0.50215 0.13541 -0.990691 -0.0139766
0 0.0786929 0.0804666 1 0 0
0.00709736 -0.0683676 0.932566 0.691683 -0.345843 0.634009
-0.00660586 -0.100079 0.612161 -0.308506 -0.951153 -0.0115203
0 0.0930822 0.0197215 -1 0 0
-0.0425001 -0.0679885 0.658992 -0.884449 -0.466597 -0.00607774
0.0111308 -0.0952595 0.388948 0.317596 -0.94814 -0.0127803
0.000375332 -0.102424 0.653208 0.317596 -0.94814 -0.0127803
0.0403309 -0.0579367 0.195635 0.867643 -0.470175 -0.161652
0.00186167 -0.0886229 0.190931 0.292188 -0.936339 -0.194668
-0.0441034 -0.0663214 0.765642 -0.883304 -0.46877 -0.00537559
0.31825 -0.0501406 0.366061 0.132648 -0.99105 -0.0149982
0 0.062134 0.0434932 1 0 0
0 0.0502271 0.0812666 -1 0 0
0.0009364 -0.0101795 0.71615 0.362789 0.931871 0
-0.396021 -0.039542 0.354245 0.132452 0.991076 0.015007
-0.132284 -0.077417 0.519873 0.146885 0.988977 0.0186853
0.175416 -0.0716793 0.502834 0.119206 -0.992806 -0.0112276
0.361026 -0.04496 0.392955 -0.134846 0.99077 0.0138409
-0.0561485 -0.0415863 0.0977116 0.0198568 0.988101 0.152518
-0.0342359 -0.0231278 0.313263 -0.361877 0.932226 0.000263867
0.00421705 -0.0960426 0.275233 0.317596 -0.94814 -0.0127803
0.0376431 -0.0244715 0.611756 0.368937 0.929454 -7.83048e-05
0.108872 -0.0810332 0.55472 -0.130411 0.99128 0.0189214
-0.325699 -0.0495203 0.396565 0.136112 0.990677 0.0056611
-0.00899881 -0.0450033 0.0306608 -0.861668 -0.448639 -0.237172
-0.0413766 -0.0457709 0.383653 -0.976865 0.213758 -0.0065747
0.0313081 -0.0220209 0.791399 0.360184 0.932881 -0.000532425
0.0386642 -0.0756259 0.705361 0.880958 -0.473159 -0.00583428
-0.0349411 -0.0234244 0.682927 -0.366483 0.930425 3.97176e-05
-0.0217217 -0.0950729 0.602799 -0.319961 -0.947312 -0.0150024
0 0.130734 0.00361603 -1 0 0
-0.23674 -0.0617013 0.397215 0.121898 0.991654 0.0419997
0.0402594 -0.0534101 0.830564 0.972032 0.214914 0.0946925
0 0.109473 0.0693083 -1 0 0
0.196019 -0.068067 0.448694 0.132601 -0.990812 -0.0266149
0 0.0202545 0.0689085 1 0 0
0.0072348 -0.0126316 0.75504 0.362789 0.931871 0
0.0379759 -0.0324686 0.317162 0.975867 0.218233 -0.00763713
0.0259682 -0.0199673 0.822279 0.370945 0.928653 0.00198115
-0.029067 -0.0211105 0.775737 -0.364401 0.931242 0.000237676
0.042451 -0.0466045 0.53092 0.977001 0.213118 -0.00708415
-0.00707128 -0.0125498 0.702325 -0.363332 0.931655 0.00289601
0.0409183 -0.0352376 0.673761 0.975169 0.221377 -0.00607685
-0.00781561 -0.0794092 0.156028 -0.302999 -0.933039 -0.193982
0.00994741 -0.0136656 0.38385 0.360993 0.932569 0
-0.0360147 -0.0922084 0.637369 -0.132711 -0.99103 -0.0156947
0.00432774 -0.0983786 0.45129 0.317596 -0.94814 -0.0127803
0.0263926 -0.0900679 0.380329 0.308843 -0.951046 -0.011322
0.255577 -0.0590106 0.396943 0.130704 -0.991176 -0.0220487
0.041308 -0.0423685 0.49902 0.976799 0.214064 -0.00629704
0.0289072 -0.0351077 0.0521926 0.0198568 -0.988101 -0.152518
-0.0222837 -0.0184529 0.476982 -0.366293 0.930499 -0.000975213
-0.0254145 -0.0867235 0.220788 -0.305108 -0.939534 -0.155518
-0.036212 -0.0743663 0.241492 -0.879193 -0.476432 -0.00567181
0.0444987 -0.0499509 0.728844 0.975875 0.218234 -0.00646289
-0.112455 -0.0792358 0.452632 -0.133821 -0.990972 -0.00811817
0.0144981 -0.0154298 0.368195 0.364876 0.931056 0
0 0.00579039 0.0633175 -1 0 0
-0.0390098 -0.0315497 0.504812 -0.97517 0.22137 -0.00619165
0.0430752 -0.0512306 0.471812 0.976718 0.214435 -0.00623408
-0.0401668 -0.0894166 0.500124 -0.134052 -0.983823 -0.118835
-0.445784 -0.0327094 0.34222 -0.132452 -0.991076 -0.015007
0.352057 -0.0456066 0.365464 0.132648 -0.99105 -0.0149982
