-0.00054707 -0.0228591 0.419772 -0.087606 0.996155 0.000280259
-0.0461731 -0.0615516 0.806318 -0.996658 0.0785485 0.0224214
-0.0896444 -0.0303112 0.0739497 -0.0982808 -0.99502 0.016596
-0.0436382 -0.0993685 0.621874 -0.516264 -0.854964 0.0500901
0.0338504 -0.0262934 0.0479828 -0.055932 0.998301 0.0163344
-0.0082737 -0.0235844 0.436736 -0.260049 0.965595 -4.1158e-05
0.351018 -0.0565065 0.338023 -0.478893 0.502052 -0.720143
-0.00260985 -0.115374 0.823231 -0.0891425 -0.99591 0.0147543
-0.0440507 -0.0812467 0.740905 -0.973501 -0.228598 0.00624507
-0.040811 -0.0912688 0.683331 -0.931792 -0.36222 0.023678
0.137584 -0.0250855 0.0477002 0.337223 -0.898245 0.281845
-0.166006 -0.116517 0.580604 -0.0493484 -0.989013 -0.139347
0.00407205 0.0741019 0.041362 0.999695 -0.0135016 -0.02068
-0.00304299 -0.115837 0.755969 -0.100831 -0.994899 0.00296838
-0.0970005 -0.0666085 0.573299 0.0633095 0.997937 -0.0106628
0.0042073 0.0780465 0.05928 0.999964 0.00573671 0.00619144
0.0194548 -0.0270241 0.570156 0.422211 0.906458 -0.00850542
0.0126299 -0.0247457 0.467669 0.258286 0.966068 -0.000310843
-0.00722391 -0.0722734 0.158896 -0.28243 -0.931249 -0.230238
-0.0513438 -0.0685561 0.570123 -0.117754 0.992975 -0.0116151
-0.0477221 -0.0267507 0.0899441 0.0501599 0.998133 0.0348389
0.337369 -0.0541251 0.358519 -0.135525 0.985555 -0.101562
0.0113729 -0.0376703 0.0692919 0.980781 -0.123492 -0.151059
-0.0042395 0.0109863 0.11328 -0.999979 0.0055514 0.00328987
0.11143 -0.0901909 0.48457 0.0671746 -0.9906 -0.119162
-0.0406737 -0.0897368 0.720756 -0.925903 -0.377737 0.00424265
0.40689 -0.050468 0.272638 -0.0247929 0.950675 -0.309197
0.0271276 -0.109842 0.531858 0.402866 -0.915259 -0.000379517
0.0864504 -0.0921894 0.486211 0.0767266 -0.989923 -0.119015
-0.0329028 -0.0386486 0.34751 -0.832214 0.553167 -0.0377661
-0.162823 -0.0827685 0.451013 -0.0562966 -0.990194 -0.127851
-0.0711805 -0.0265715 0.0969642 -0.0550951 0.978677 0.19788
-0.0696872 -0.0965226 0.523067 -0.109053 -0.993704 -0.0256921
-0.045244 -0.0321433 0.0467486 -0.0430533 -0.997342 -0.0587886
-0.00317762 -0.116183 0.516275 -0.0826672 -0.996577 -9.55697e-05
-0.0416381 -0.0988229 0.462559 -0.755482 -0.652154 -0.0627879
0.041348 -0.0771148 0.344845 0.964631 -0.244062 -0.0996004
-0.0703452 -0.0237221 0.0330979 0.0699713 0.997403 0.0170565
0.160452 -0.0837382 0.551989 0.20924 -0.969222 0.129719
-0.0179677 -0.0326657 0.881263 -0.394496 0.798256 0.455149
0.351153 -0.0616247 0.356116 0.106003 -0.993987 -0.0274468
-0.0121436 -0.100918 0.892735 -0.430178 -0.841701 0.326322
0.148315 -0.113669 0.589615 -0.73084 -0.663825 -0.158774
0.38699 -0.0503647 0.328993 -0.1311 0.987105 -0.0918496
0.106741 -0.0272613 0.027112 0.0683611 -0.99582 -0.0605798
0.161369 -0.0898472 0.5395 0.0426772 -0.972444 -0.229197
-0.0292047 -0.0221911 0.782075 -0.622077 0.782894 0.0098992
-0.0653788 -0.0975063 0.56032 -0.134023 -0.990848 0.0160799
-0.0362783 -0.0961866 0.794038 -0.850055 -0.526676 0.00443621
-0.224573 -0.0772497 0.436041 -0.103138 -0.994133 -0.0326052
-0.115597 -0.0658478 0.538156 0.0648876 0.997806 -0.0131748
-0.110109 -0.0666376 0.524317 0.0794247 0.996017 -0.040509
0.00342404 -0.0236375 0.0290691 0.794083 0.602948 -0.076724
0.0108248 -0.0125522 0.732238 0.288641 0.957173 -0.0224889
0.0832908 -0.0884128 0.47053 -0.0353318 -0.895072 -0.44452
0.0579627 -0.0703165 0.529333 -0.0641189 0.997186 -0.0388372
-0.182342 -0.0830897 0.494205 -0.126174 -0.992001 0.00382719
0.0359879 -0.0785088 0.298001 0.899102 -0.420289 -0.122365
0.0329886 -0.0265319 0.0572281 -0.0534943 0.998281 0.0239345
0.209565 -0.0678688 0.518064 0.556082 0.430751 0.710793
-0.257674 -0.073387 0.422707 -0.101779 -0.99426 -0.0329818
0.0100349 -0.0217045 0.64339 0.261492 0.963151 -0.0629392
-0.2803 -0.0714188 0.454041 -0.0540732 0.985672 0.159773
0.245917 -0.0624821 0.406605 -0.238206 0.922187 -0.304678
-0.0821297 -0.0701532 0.610395 -0.197392 0.917384 0.345605
0.00326332 0.0691811 0.101128 0.991822 0.0915056 0.0889745
0.00985359 -0.114822 0.749574 0.290908 -0.956746 0.00321572
-0.000984853 -0.11636 0.563278 -0.0846773 -0.996408 0.00023398
0.0628406 -0.0318767 0.106138 0.17477 -0.973398 0.14816
0.269935 -0.0987609 0.474147 -0.589335 -0.802587 -0.0924018
-0.362164 -0.0511029 0.365016 0.0769835 0.996798 -0.0215967
0.040447 -0.0558407 0.334296 0.967412 0.244786 -0.0647682
0.04628 -0.071566 0.702787 0.997051 -0.0767036 0.00252924
-0.00418923 0.0336644 0.100066 -0.999987 0.0038221 0.00322092
-0.0321336 -0.0346386 0.0928549 -0.0483524 -0.99852 -0.0248947
0.0366997 -0.099263 0.405703 0.811464 -0.578732 -0.0812167
-0.0415892 -0.0409669 0.707286 -0.917456 0.397153 -0.0233087
0.25926 -0.0581637 0.420204 -0.0903633 0.995082 -0.0405741
-0.0211038 -0.0280238 0.468245 -0.422231 0.906488 -0.000316746
-0.0815139 -0.0950402 0.5782 -0.147818 -0.987848 0.0480163
0.057334 -0.0962908 0.501473 0.0815187 -0.990399 -0.111642
0.0253354 -0.0305164 0.440756 0.57736 0.816487 -0.00204516
0.277863 -0.0663769 0.407055 -0.132717 -0.853071 -0.504635
-0.20558 -0.0799292 0.497538 -0.14386 -0.989193 0.0283227
0.182784 -0.105178 0.58567 0.982979 -0.183618 -0.00598158
-0.241343 -0.0583058 0.462348 0.0718384 0.997265 -0.017398
-0.218502 -0.0596101 0.483081 0.0710083 0.997356 -0.0154618
-0.259855 -0.0734115 0.433141 -0.125579 -0.992083 0.000986476
0.0268773 -0.102343 0.354646 0.585067 -0.803678 -0.108618
0.191847 -0.0618696 0.475167 -0.0851968 0.995456 -0.042518
-0.0967679 -0.0697262 0.600804 -0.332036 0.787151 0.519756
-0.227596 -0.0769279 0.490287 -0.208847 -0.971148 0.115127
-0.0163467 -0.0264152 0.2665 -0.505754 0.862652 -0.00659731
-0.356766 -0.0510878 0.381438 0.0899235 0.995246 -0.0373995
0.00332357 -0.0295475 0.883973 0.0907945 0.904578 0.416527
0.0952008 -0.0693347 0.502246 -0.106575 0.987494 -0.116183
-0.0506935 -0.0787602 0.645359 -0.723056 0.391988 0.568802
-0.0378186 -0.0338458 0.713213 -0.840586 0.540614 -0.0339403
-0.00268118 -0.0120128 0.719756 -0.0987094 0.99212 -0.0771621
0.0375214 -0.0266565 0.0721403 -0.0521449 0.998326 0.0250265
0.203172 -0.0795822 0.512202 0.208861 -0.971145 0.115126
-0.0714558 -0.0684609 0.554984 0.0632595 0.997918 -0.0125607
-0.00428125 0.0193648 0.0824387 -0.999847 -0.00796416 -0.0155396
-0.389385 -0.0569475 0.356215 -0.131984 -0.991188 0.0112643
0.351125 -0.0618757 0.365098 0.106003 -0.993987 -0.0274468
0.138219 -0.022747 0.0509999 0.6291 0.13728 0.765106
0.0727931 -0.0953808 0.596675 0.146508 -0.98775 0.0537075
-0.358576 -0.0600764 0.342486 -0.0543925 -0.993033 -0.104528
-0.0284814 -0.104926 0.772193 -0.622479 -0.782628 0.00363551
0.00146882 0.0072379 0.188692 0.959503 0.229293 0.163642
-0.27081 -0.057198 0.418081 0.0909409 0.994972 -0.0419565
0.0201594 -0.0507556 0.139915 0.959994 -0.23222 -0.156479
-0.00332769 0.0534539 0.0355736 -0.99689 -0.0292517 -0.0731714
-0.0451246 -0.0810444 0.664148 -0.976507 -0.214055 0.0247706
0.144505 -0.0638725 0.542795 -0.0666393 0.997702 -0.0122054
0.295607 -0.0859738 0.504646 -0.999318 -0.0231428 -0.0287851
-0.0771532 -0.0238704 0.0573299 0.0642329 0.997539 0.028102
-0.376426 -0.0534811 0.377171 -0.481894 0.617891 0.62128
-0.247148 -0.0692289 0.397257 0.163001 -0.857691 -0.487644
0.0169908 -0.110223 0.375092 0.407752 -0.91009 -0.0739918
0.092052 -0.0848843 0.616175 0.62286 0.0390339 0.781359
-0.142143 -0.0878658 0.497075 -0.10537 -0.993972 -0.0302658
-0.0342792 -0.0363381 0.638571 -0.708349 0.702907 -0.06452
-0.104304 -0.068648 0.499439 0.11253 0.986846 -0.11607
0.00118834 -0.105917 0.885351 0.107799 -0.934815 0.338379
0.23627 -0.0762369 0.442043 0.102775 -0.994158 -0.032978
0.00195876 0.0947438 0.011386 0.880354 -0.156246 -0.447843
-0.00365679 0.0396405 0.124005 -0.999583 0.0181307 0.0224782
0.166601 -0.0841542 0.538379 0.20165 -0.972657 0.115219
0.254484 -0.0740799 0.444569 0.125579 -0.992083 0.000986476
-0.10244 -0.0283546 0.0770466 -0.269966 -0.93693 0.221993
-0.0843536 -0.0675026 0.565966 0.0642162 0.997849 -0.0131756
0.127332 -0.0893963 0.494684 0.108268 -0.993662 -0.0302377
0.00323468 -0.00211871 0.188496 0.9885 0.134261 0.0695825
0.00195187 -0.0229868 0.492148 0.0881866 0.996104 -0.000282634
-0.291977 -0.055607 0.40993 0.0909409 0.994972 -0.0419565
0.360716 -0.0606405 0.374723 0.141669 -0.989687 0.0212012
0.0471862 -0.0704972 0.440545 0.998896 -0.0416522 -0.0217134
-0.1785 -0.0632498 0.469453 0.0841388 0.995589 -0.041509
0.0266185 -0.0314476 0.431116 0.574645 0.818399 -0.00247536
0.0321817 -0.101681 0.717766 0.749578 -0.661885 0.00649948
0.00418687 0.111467 0.0326758 0.999928 0.00903003 0.0078705
0.0103456 -0.110125 0.351421 0.263199 -0.958993 -0.105158
-0.0551579 -0.0694404 0.553171 -0.105944 0.993602 -0.0391297
0.0437177 -0.0746171 0.36705 0.995661 -0.06366 -0.0678726
0.124689 -0.0895966 0.557886 0.144275 -0.988783 0.0386366
-0.0265874 -0.109213 0.618068 -0.472877 -0.880839 0.0225796
0.0372365 -0.102707 0.456632 0.597167 -0.801256 -0.0371492
-0.0349079 -0.0471057 0.874012 -0.839865 0.452074 0.300427
0.274193 -0.0574904 0.407248 -0.140716 0.983097 -0.117126
0.00943511 -0.0932366 0.913555 0.376136 -0.830686 0.410466
0.0315011 -0.107833 0.571407 0.401439 -0.915826 0.010506
-0.129925 -0.0849981 0.458133 0.068934 -0.884463 -0.461491
-0.168799 -0.0751523 0.435639 0.378445 0.502509 -0.777344
0.0742036 -0.0921675 0.622523 0.215145 -0.963608 0.158658
0.0246148 -0.0930632 0.288726 0.701987 -0.696726 -0.147605
-0.119319 -0.0246897 0.0137527 -0.000414271 -0.952413 -0.304811
0.0870243 -0.0937038 0.588696 0.146508 -0.98775 0.0537075
-0.37756 -0.0514485 0.330806 0.1311 0.987105 -0.0918496
0.0202498 -0.0640339 0.924383 0.853982 0.0794642 0.514198
-0.225737 -0.0592687 0.4938 0.00303081 0.997306 0.0732917
-0.00985086 -0.114768 0.766046 -0.291314 -0.956622 0.00314522
0.293006 -0.0550881 0.428252 -0.0817991 0.996259 -0.0278708
0.00469731 -0.115705 0.741931 0.100724 -0.994913 0.00157119
0.0286699 -0.0550457 0.898059 0.907432 0.248734 0.338672
-0.0324214 -0.032243 0.661789 -0.720826 0.689761 -0.0681146
0.125027 -0.0196831 0.0388152 -0.0838382 0.995538 0.0433101
0.0725094 -0.0802614 0.471003 -0.267288 0.487999 -0.830912
0.108573 -0.0661852 0.547191 -0.0648876 0.997806 -0.0131748
0.00715555 -0.115528 0.705246 0.0969517 -0.995287 0.00200625
0.014297 -0.0340114 0.0585499 0.0294016 -0.998902 -0.0364852
0.0287523 -0.0909076 0.298228 0.701987 -0.696726 -0.147605
0.30582 -0.0621806 0.438674 0.647458 0.00211741 0.762098
-0.0348328 -0.0474696 0.286379 -0.913828 0.402416 -0.0545888
-0.0339934 -0.0337294 0.663372 -0.720826 0.689761 -0.0681146
0.0022994 -0.0135801 0.700177 0.0808182 0.987858 -0.132682
0.252097 -0.0593387 0.418214 -0.135649 0.983799 -0.117215
-0.027505 -0.0305126 0.128629 -0.0335346 0.983589 0.177279
0.166833 -0.116763 0.615275 -0.154994 0.98684 0.0460787
0.103266 -0.092573 0.514049 0.107657 -0.993798 -0.0278645
-0.402679 -0.0508985 0.287054 0.872655 0.486919 -0.0371897
0.0114316 -0.112594 0.382336 0.257748 -0.963434 -0.0732129
0.0295911 -0.0689469 0.902523 0.938124 -0.05311 0.342204
-0.0451913 -0.0549469 0.656419 -0.963886 0.265315 -0.0230777
-0.0432767 -0.052191 0.457677 -0.905675 0.423966 -0.0022745
0.0928119 -0.0801649 0.614802 0.495176 0.546081 0.67572
0.0761916 -0.0247116 0.0770728 -0.0580194 0.997486 0.0406756
0.0533342 -0.0863833 0.647012 0.624727 0.0622735 0.778356
-0.141001 -0.0864555 0.47036 -0.0566824 -0.990629 -0.124259
-0.14784 -0.0862504 0.471845 -0.0566824 -0.990629 -0.124259
0.00304444 0.0342195 0.039404 0.99689 -0.0292517 -0.0731714
-0.163137 -0.0629139 0.520271 0.0688943 0.997504 -0.0154641
-0.0355649 -0.0342613 0.121462 -0.137204 -0.979577 0.146983
-0.134995 -0.0648078 0.521383 0.0648876 0.997806 -0.0131748
0.0203498 -0.0275416 0.555616 0.422224 0.906487 -0.00279093
-0.217449 -0.0770418 0.428562 -0.0456456 -0.990731 -0.127944
0.0332536 -0.106845 0.575803 0.471962 -0.881556 0.0105573
-0.154677 -0.0863282 0.490216 -0.10537 -0.993972 -0.0302658
0.324573 -0.0534852 0.389324 -0.0910057 0.995024 -0.0405717
-0.126616 -0.0667079 0.575644 -0.227399 0.898255 0.37607
-0.0200902 -0.0163284 0.803837 -0.465244 0.884351 0.0383584
0.197122 -0.0637188 0.444982 -0.136193 0.98349 -0.119156
-0.0172307 -0.0261573 0.533366 -0.422214 0.906492 -0.00279305
0.230051 -0.0771545 0.451033 0.127027 -0.991892 0.00382873
-0.0467647 -0.0707965 0.421731 -0.998896 -0.0416522 -0.0217134
0.0569862 -0.0687681 0.612401 -0.00715458 0.997872 0.0648112
-0.0176612 -0.0156887 0.720532 -0.454836 0.888114 -0.0661593
0.0191841 -0.0606182 0.923616 0.756461 0.499253 0.422509
0.0014399 0.0688416 0.113498 0.943087 0.252714 0.216156
0.103941 -0.066825 0.531803 -0.0794247 0.996017 -0.040509
0.0271355 -0.109787 0.510624 0.402241 -0.915527 -0.00340478
-0.0104434 -0.0750656 0.937899 -0.625861 -0.246704 0.739888
-0.143426 -0.0246309 0.0276312 -0.0900031 -0.995113 -0.0406203
0.000624789 -0.0228717 0.483662 0.0881866 0.996104 -0.000282634
0.0708189 -0.0240717 0.0242641 -0.227525 0.734009 -0.639893
-0.0487348 -0.0665958 0.564868 -0.842979 0.537909 -0.00640279
-0.0303041 -0.0412576 0.255955 -0.915758 0.398035 -0.0543686
0.0398332 -0.0853242 0.35575 0.899482 -0.425315 -0.100196
-0.0713092 -0.0884177 0.471492 0.0353318 -0.895072 -0.44452
0.00904744 -0.0491486 0.0791112 0.797555 -0.571087 -0.194333
0.0227611 -0.0306945 0.286954 0.593763 0.804566 -0.0108727
0.0108636 -0.0121344 0.785835 0.290979 0.95667 0.0106506
-0.00643872 -0.0222132 0.0812773 -0.911378 0.410975 -0.0221497
-0.0351841 -0.0322768 0.0424287 -0.035272 -0.994705 -0.0965276
0.00294987 -0.00945854 0.211335 0.98352 0.169966 0.061643
-0.138914 -0.0878245 0.550112 -0.14451 -0.988749 0.0386388
0.0357445 -0.0289457 0.117741 -0.0195574 0.997402 0.069324
-0.0825489 -0.0954304 0.535416 -0.109053 -0.993704 -0.0256921
-0.0311653 -0.10369 0.673389 -0.72679 -0.686306 0.0275668
0.0443897 -0.089405 0.429816 0.922431 -0.382129 -0.0556684
-0.0130172 -0.114648 0.541012 -0.224002 -0.974589 0.00021995
-0.0129525 -0.0245465 0.250648 -0.505754 0.862652 -0.00659731
-0.0238911 -0.04844 0.163244 -0.991561 0.0473881 -0.120673
0.240873 -0.0756098 0.469599 0.137857 -0.9902 0.0223658
0.354129 -0.0613857 0.38395 0.141669 -0.989687 0.0212012
-0.352762 -0.0617035 0.367502 -0.125926 -0.992039 0.00101501
-0.0394824 -0.0903145 0.373783 -0.899482 -0.425315 -0.100196
0.0322561 -0.0331792 0.650559 0.720826 0.689761 -0.0681146
0.0445413 -0.0476239 0.763532 0.973231 0.2297 0.00764042
-0.146464 -0.0647882 0.497491 0.0841388 0.995589 -0.041509
-0.0119871 -0.0276721 0.0611516 0.0416319 0.998797 0.0258939
-0.0396793 -0.0703071 0.870327 -0.965231 -0.103214 0.24016
-0.029459 -0.108718 0.507051 -0.430055 -0.902747 -0.0100721
0.0922023 -0.0915745 0.601048 0.209807 -0.967202 0.143185
0.00385154 0.013337 0.143565 0.999687 0.019471 0.0157331
0.0402993 -0.0478953 0.386332 0.9027 0.428399 -0.0400816
-0.00407872 0.0344199 0.109453 -0.999583 0.0181307 0.0224782
0.170427 -0.0846188 0.49068 0.126174 -0.992001 0.00382592
0.00388325 0.059533 0.0941826 0.999196 0.025621 0.030844
0.00355957 -0.116142 0.467633 0.0885025 -0.996074 -0.00192917
0.000524375 -0.0217647 0.281817 0.122905 0.990993 0.0531604
0.320885 -0.065544 0.411846 0.140183 -0.989929 0.0197067
-0.105736 -0.0920422 0.565723 -0.145614 -0.988177 0.0479845
-0.173053 -0.114719 0.614676 0.851786 0.522734 0.0347727
0.0854033 -0.0680085 0.53842 -0.0775239 0.996167 -0.0405186
-0.00323864 0.0180673 0.156634 -0.99614 0.0670037 0.0567104
-0.0194431 -0.11209 0.429397 -0.385751 -0.922293 -0.0239069
0.00224953 0.00740894 0.0452657 0.96042 -0.0945682 -0.262014
0.336692 -0.0635153 0.401055 0.141669 -0.989687 0.0212012
0.320169 -0.0642523 0.363153 0.0431413 -0.992154 -0.117342
0.0925916 -0.0672407 0.545478 -0.0632595 0.997918 -0.0125607
0.0392771 -0.0842298 0.856231 0.91475 -0.39022 0.104698
-0.160924 -0.117433 0.609755 0.154994 0.98684 0.0460787
-0.00412318 0.0340217 0.0649527 -0.999826 -0.00730582 -0.0171501
0.0469922 -0.0616682 0.587384 0.95733 0.288974 -0.00356934
0.044182 -0.0539622 0.523154 0.947232 0.320547 -0.0010837
0.0121421 -0.114078 0.763665 0.290908 -0.956746 0.00321572
0.0311905 -0.0989325 0.35888 0.713414 -0.694547 -0.0929767
-0.0122231 -0.114394 0.663007 -0.260408 -0.965459 0.00876797
-0.0671279 -0.0288312 0.107776 -0.542263 0.327469 0.773767
0.0387591 -0.0866158 0.851863 0.91475 -0.39022 0.104698
-0.409891 -0.0505112 0.292064 -0.836681 0.547664 -0.00531852
0.0868677 -0.0301298 0.0549955 0.0738613 -0.996772 -0.031464
-0.0264722 -0.0198686 0.756949 -0.621909 0.782925 -0.0160165
0.0217278 -0.111992 0.555194 0.32856 -0.944483 0.000213159
0.112019 -0.0899571 0.582772 0.204984 -0.970128 0.129745
-0.0249076 -0.0186875 0.774976 -0.621978 0.782973 0.00986767
-0.00363429 0.0691361 0.0942694 -0.999211 0.0255443 0.0304237
0.0114601 -0.0675362 0.148976 0.599784 -0.770599 -0.21549
-0.149348 -0.08725 0.503601 -0.126174 -0.992001 0.00382719
0.0464181 -0.0599176 0.67259 0.996566 0.0827782 -0.002143
0.283301 -0.07592 0.499132 0.0230992 -0.999318 -0.0288009
-0.194645 -0.0815291 0.492399 -0.127029 -0.991892 0.00383001
-0.00739038 -0.023364 0.350641 -0.0876969 0.996146 0.00175276
0.0142943 -0.11362 0.699868 0.280892 -0.959734 0.00325772
0.237136 -0.0762557 0.448809 0.127027 -0.991892 0.00382873
0.00359473 -0.0217126 0.274377 0.0864511 0.995172 0.0464733
-0.276479 -0.0725327 0.441421 0.990912 0.133505 0.016445
0.125269 -0.0258661 0.0262706 0.0706073 -0.993045 -0.0942127
-0.0183443 -0.0173404 0.703057 -0.454836 0.888114 -0.0661593
0.00425604 0.0830071 0.0480078 0.999934 0.00630308 0.00965421
-0.137949 -0.0174455 0.0103253 0.086172 0.995685 0.0344499
0.115315 -0.0875368 0.591822 0.42082 -0.799285 0.429016
0.0374573 -0.0281444 0.106897 -0.0301873 0.996978 0.0715837
0.0662621 -0.0955695 0.611021 0.146508 -0.98775 0.0537075
-0.164861 -0.113651 0.560019 0.0125925 -0.987633 -0.156277
0.200177 -0.0786747 0.523071 0.43261 -0.801451 0.412946
-0.303433 -0.0571692 0.436752 -0.435351 0.690154 0.578064
0.173918 -0.0626149 0.493644 -0.0851968 0.995456 -0.042518
0.0227526 -0.109633 0.706023 0.451023 -0.892497 0.00527451
-0.00425065 -0.0976508 0.907212 -0.107798 -0.934815 0.338379
0.405328 -0.0551735 0.344191 0.121498 -0.991936 0.0360621
-0.0514363 -0.0979333 0.509658 -0.152835 -0.983168 -0.100107
0.0462746 -0.0709631 0.723202 0.997051 -0.0767036 0.00252924
-0.136976 -0.0887347 0.517549 -0.127878 -0.991757 0.00812085
-0.363502 -0.0507394 0.37452 0.08967 0.995269 -0.0374003
-0.153461 -0.090149 0.614853 -0.851745 -0.522799 0.034801
0.0471428 -0.0630039 0.550718 0.969083 0.246712 -0.00327786
-0.0675222 -0.069599 0.531933 0.0657803 0.997054 -0.0394399
-0.0315279 -0.0409647 0.284193 -0.832178 0.553018 -0.0406306
-0.0388691 -0.0696154 0.305283 -0.992543 -0.0836677 -0.0886424
-0.00431654 0.00341711 0.0874887 -0.999862 -0.00124934 -0.016566
-0.271397 -0.0960555 0.458188 0.939515 -0.285273 -0.189553
0.368069 -0.0528221 0.333125 -0.244028 0.931175 -0.270855
0.00998668 -0.0227986 0.243958 0.516418 0.856334 0.00210607
0.0151746 -0.0286304 0.037498 -0.0916182 0.88781 -0.450999
0.0409764 -0.0882347 0.782753 0.924991 -0.379949 0.00555956
0.0465294 -0.0608115 0.689846 0.996566 0.0827782 -0.002143
0.209575 -0.0795397 0.490849 0.14386 -0.989193 0.0283227
-0.0442063 -0.0314989 0.124074 -0.409031 0.549638 0.728417
-0.0866474 -0.0253355 0.086044 -0.128735 0.946352 0.296386
0.293099 -0.0689082 0.397029 0.103465 -0.994143 -0.0312157
-0.199595 -0.0802165 0.447488 -0.103138 -0.994133 -0.0326052
-0.0464171 -0.0609306 0.786915 -0.996916 0.0782486 0.00591183
0.0356596 -0.0343929 0.0898471 0.0483524 -0.99852 -0.0248947
0.0909823 -0.0672235 0.554792 -0.0642162 0.997849 -0.0131756
-0.0458747 -0.0584937 0.571717 -0.942238 0.334933 -0.00273806
-0.0185216 -0.0776681 0.205772 -0.600318 -0.771286 -0.21151
-0.0400974 -0.0388616 0.692613 -0.826892 0.559334 -0.0582646
0.0112342 -0.0254084 0.132988 0.689075 0.723876 -0.0343402
-0.0332758 -0.0982492 0.840477 -0.778473 -0.621825 0.0855132
-0.361986 -0.0582126 0.332803 0.145059 -0.900911 -0.409044
0.0614343 -0.0246725 0.0273515 -0.113675 0.984041 -0.136901
0.123086 -0.0874216 0.468455 0.0680415 -0.989927 -0.124158
-0.0102654 -0.0924492 0.91439 -0.376138 -0.830752 0.41033
0.392593 -0.0566217 0.347294 0.131984 -0.991188 0.0112643
-0.315071 -0.0536547 0.414685 0.0837657 0.996096 -0.0278663
-0.105823 -0.0749793 0.466686 0.181901 0.933068 -0.310316
0.103913 -0.0813464 0.459912 -0.316181 0.495794 -0.808837
0.00809049 -0.0235457 0.374027 0.264134 0.964486 -0.000292185
-0.244541 -0.0585198 0.481079 -0.26416 0.879401 0.396073
-0.0203837 -0.110841 0.704397 -0.451011 -0.892503 0.00521372
0.272718 -0.101281 0.499171 0.732233 0.6548 0.187273
0.0342209 -0.0994245 0.717825 0.730288 -0.683051 0.0110056
0.00421533 0.0472043 0.0825499 0.99998 0.00430126 0.00463535
0.0206263 -0.0265732 0.625166 0.412774 0.910438 -0.0268252
-0.276855 -0.102188 0.45978 0.589335 -0.802587 -0.0924018
0.0364414 -0.04699 0.318424 0.914015 0.402498 -0.0507195
-0.265291 -0.0706431 0.395582 -0.0408727 -0.991199 -0.125909
0.348552 -0.0523403 0.363426 -0.0902066 0.99517 -0.0387133
-0.297031 -0.0687279 0.410783 -0.125608 -0.992079 0.00101505
0.0315779 -0.106562 0.448821 0.597167 -0.801256 -0.0371492
0.0291559 -0.0331721 0.450021 0.574645 0.818399 -0.00247536
-0.0696894 -0.0681496 0.588484 0.0494861 0.998727 -0.00973314
-0.0375276 -0.104335 0.594283 -0.471962 -0.881556 0.0105573
0.346183 -0.0522945 0.370051 -0.0910057 0.995024 -0.0405717
-0.175746 -0.0863611 0.597172 -0.714303 0.699785 -0.00844709
-0.0995706 -0.0898668 0.47519 -0.0671977 -0.990598 -0.119162
0.0720314 -0.0681954 0.573175 -0.0632595 0.997918 -0.0125607
0.0445112 -0.0545675 0.582802 0.942238 0.334933 -0.00273806
-0.0716587 -0.0713577 0.619316 -0.332036 0.787151 0.519756
0.155862 -0.0632306 0.544277 -0.00474187 0.997357 0.0725036
-0.0033465 0.0642367 0.105285 -0.991822 0.0915056 0.0889745
-0.220187 -0.0782653 0.481461 -0.14386 -0.989193 0.0283227
-0.124274 -0.0650098 0.558982 0.0655907 0.997772 -0.012205
0.0435677 -0.0303249 0.123338 0.0549203 0.979443 0.1941
-0.0388902 -0.0555309 0.86922 -0.931902 0.213665 0.293096
0.23599 -0.0759057 0.431176 0.103131 -0.994133 -0.0326158
-0.00707818 -0.020523 0.195177 -0.787697 0.616004 -0.00853072
-0.0304765 -0.0738765 0.246953 -0.896797 -0.416663 -0.148818
-0.00396617 0.0837885 0.0307685 -0.999558 -0.012937 -0.0267637
-0.0462902 -0.0601524 0.528372 -0.94271 0.333592 -0.00377028
0.0334217 -0.0287702 0.828183 0.747027 0.660318 0.0770146
-0.0452794 -0.0567647 0.578387 -0.942238 0.334933 -0.00273806
-0.0148847 -0.027272 0.0481766 0.01036 0.999944 0.00192889
-0.0657141 -0.0766377 0.631198 -0.468711 0.6061 0.642614
0.043845 -0.0448652 0.756942 0.924805 0.380405 -0.00530321
0.115677 -0.0264682 0.025429 0.0706073 -0.993045 -0.0942127
-0.0072701 -0.0233356 0.553609 -0.0880984 0.996106 -0.00326171
0.0754198 -0.0929427 0.485399 0.0744963 -0.990518 -0.115432
0.03481 -0.0381351 0.591031 0.709534 0.704648 -0.00573103
-0.116302 -0.021932 0.0606495 0.0115244 0.993747 0.111056
0.0267332 -0.107339 0.664411 0.552051 -0.833258 0.0303548
0.155362 -0.0847036 0.552985 0.20924 -0.969222 0.129719
-0.0404112 -0.0894555 0.79335 -0.924991 -0.379949 0.00555956
-0.00878886 -0.107681 0.32754 -0.265071 -0.954783 -0.134636
-0.00585709 -0.0220698 0.276407 -0.308008 0.950389 0.0435032
-0.0492139 -0.0779158 0.479049 -0.975613 0.197148 -0.0964934
-0.210304 -0.0625189 0.439819 0.136193 0.98349 -0.119156
0.0668775 -0.0314111 0.104435 0.17477 -0.973398 0.14816
0.295856 -0.0688682 0.404896 0.103465 -0.994143 -0.0312157
0.0140459 -0.0251773 0.359344 0.26006 0.965592 -0.000816601
-0.131269 -0.0820077 0.584489 -0.630642 -0.0117263 0.775986
0.207792 -0.0798785 0.486197 0.124076 -0.992272 0.000984723
-0.00347045 0.0714827 0.0295723 -0.993983 -0.0472972 -0.0987934
-0.00817837 -0.11335 0.853454 -0.160625 -0.977238 0.138585
0.0358796 -0.0952265 0.371079 0.79526 -0.599572 -0.0898595
0.000455863 -0.0583878 0.0960714 0.103477 -0.966747 -0.233863
0.00178932 -0.116065 0.700106 0.100724 -0.994913 0.00157119
-0.154227 -0.0225717 0.0358112 -0.339379 -0.896216 0.285691
0.0161728 -0.112763 0.776585 0.465572 -0.885003 0.00345541
0.044904 -0.0769537 0.386644 0.995661 -0.06366 -0.0678726
0.0141892 -0.0256589 0.19925 0.525236 0.850912 -0.00876255
-0.161464 -0.121581 0.585555 -0.0137812 -0.999874 0.0079091
-0.0106389 -0.0952691 0.908339 -0.376138 -0.830752 0.41033
-0.0161802 -0.0256453 0.540759 -0.422214 0.906492 -0.00279305
-0.0561119 -0.0287306 0.111838 -0.0550951 0.978677 0.19788
-0.0654004 -0.0319096 0.0648501 -0.0552564 -0.997692 -0.0394645
-0.140365 -0.0853549 0.461297 -0.0566824 -0.990629 -0.124259
0.246124 -0.0582124 0.447958 -0.0718384 0.997265 -0.017398
-0.0171552 -0.054594 0.129897 -0.916232 -0.361257 -0.17324
0.18957 -0.0816981 0.460815 0.105227 -0.993914 -0.0326044
0.0345611 -0.106101 0.504657 0.467704 -0.883828 -0.0100326
0.0285792 -0.109209 0.549736 0.400322 -0.916375 0.000207663
0.351668 -0.0522809 0.357694 -0.0902066 0.99517 -0.0387133
-0.0987319 -0.0294957 0.0631273 -0.0813206 -0.996304 -0.0276769
0.0330281 -0.106766 0.5925 0.471962 -0.881556 0.0105573
-0.0378508 -0.048251 0.333277 -0.908987 0.413621 -0.0515744
0.121803 -0.0862578 0.58784 0.42082 -0.799285 0.429016
-0.0114669 -0.0654829 0.939994 -0.524205 0.669004 0.526919
0.00739423 -0.0956745 0.257659 0.299042 -0.929931 -0.214016
-0.0246588 -0.0297953 0.56496 -0.575067 0.818074 -0.00731979
-0.349808 -0.051543 0.392678 0.025407 0.998631 0.0457233
0.00885618 -0.0222367 0.208575 0.618214 0.785845 -0.0160884
-0.0374251 -0.0419468 0.436658 -0.810776 0.585331 -0.00553609
0.0415615 -0.0867501 0.786851 0.924991 -0.379949 0.00555956
0.0873887 -0.0292797 0.0383888 0.0647907 -0.996683 -0.0492387
0.0855404 -0.0689467 0.514656 -0.0756979 0.996353 -0.0393878
0.092145 -0.0693385 0.505017 -0.106575 0.987494 -0.116183
0.0216378 -0.0674217 0.922601 0.853982 0.0794642 0.514198
0.00428292 0.0345161 0.0747814 0.999847 -0.00796415 -0.0155396
0.0331053 -0.0970668 0.359636 0.713414 -0.694547 -0.0929767
0.200851 -0.0807576 0.486377 0.127027 -0.991892 0.00382873
-0.0295687 -0.103921 0.797502 -0.622033 -0.782884 0.0129731
-0.125464 -0.067237 0.577605 -0.227399 0.898255 0.37607
-0.0134599 -0.0129448 0.7877 -0.290979 0.95667 0.0106506
-0.0516158 -0.0325358 0.115059 -0.174085 -0.973902 0.145635
0.0283109 -0.0955102 0.320325 0.730947 -0.670877 -0.125061
-0.00426059 0.0369921 0.0807246 -0.999984 0.00313494 0.0046187
-0.280952 -0.100569 0.448824 0.00403705 -0.986962 -0.160905
0.0439526 -0.0804449 0.794039 0.973161 -0.230069 0.0052006
-0.0292056 -0.0324703 0.607351 -0.575576 0.817469 -0.021368
0.0332705 -0.027992 0.711817 0.738559 0.672638 -0.0457064
0.0446108 -0.0340168 0.0951338 0.0557277 -0.997938 -0.0318574
0.0304664 -0.0402511 0.272165 0.832178 0.553018 -0.0406306
-0.285007 -0.060234 0.381284 0.246911 0.924552 -0.290239
-0.109604 -0.0883383 0.468376 -0.0680582 -0.989931 -0.124114
0.0630217 -0.0703678 0.522049 -0.0924116 0.989128 -0.114396
-0.0547951 -0.029039 0.0283192 0.131809 -0.710778 -0.690957
-0.0194858 -0.0386174 0.890534 -0.42955 0.804364 0.41047
-0.0372735 -0.0362353 0.677697 -0.830147 0.554369 -0.059413
-0.308684 -0.0539868 0.423436 0.0235199 0.998677 0.0457255
0.0150689 -0.014383 0.722891 0.287983 0.954989 -0.0711411
-0.0206668 -0.0832129 0.914315 -0.743134 -0.525656 0.41405
0.0317205 -0.0533134 0.888613 0.907432 0.248734 0.338672
-0.0446533 -0.0766587 0.80556 -0.973024 -0.229977 0.0182714
0.0209075 -0.111749 0.620482 0.355841 -0.934279 0.0223858
0.0199696 -0.11129 0.671781 0.451708 -0.892124 0.00862579
0.0371448 -0.0486868 0.317338 0.908987 0.413621 -0.0515744
0.00204663 -0.0869262 0.215673 0.0797528 -0.969928 -0.229953
0.039643 -0.0920911 0.698851 0.820383 -0.570939 0.0316281
-0.0138933 -0.0147613 0.828905 -0.288936 0.953407 0.0867777
0.0244291 -0.0612931 0.912965 0.902998 0.20587 0.37711
-0.117928 -0.0784484 0.456214 0.31604 0.495813 -0.808881
-0.0450264 -0.0700077 0.832026 -0.995468 -0.0775054 0.0550973
0.113227 -0.0656451 0.574123 -0.0100705 0.997668 0.0675037
-0.0367267 -0.0346372 0.837623 -0.847767 0.525309 0.0730891
-0.0458032 -0.060097 0.456557 -0.958809 0.284009 -0.00489152
-0.00424731 0.040654 0.0693639 -0.999826 -0.00730582 -0.0171501
0.0343808 -0.0514541 0.262761 0.966981 0.245188 -0.0694979
0.114469 -0.065722 0.575446 -0.0100705 0.997668 0.0675037
-0.0407825 -0.0404891 0.82627 -0.922458 0.380001 0.0683432
0.0305445 -0.032958 0.0498053 0.0430533 -0.997342 -0.0587886
-0.194018 -0.0760741 0.427122 0.167406 -0.853517 -0.493441
-0.0125048 -0.11023 0.865341 -0.448624 -0.87991 0.156508
0.0419225 -0.0480506 0.624647 0.899432 0.436752 -0.0164149
0.0300199 -0.0339136 0.424438 0.709107 0.70509 -0.00378471
0.00770076 -0.115338 0.765132 0.100832 -0.994899 0.00298515
0.046309 -0.0653276 0.423183 0.993997 0.108682 -0.012564
0.275908 -0.108415 0.485057 -0.232008 -0.972609 0.0142624
0.0995331 -0.075273 0.605943 0.490684 0.548175 0.677299
-0.116187 -0.0878597 0.468169 -0.0680582 -0.989931 -0.124114
-0.273247 -0.0701655 0.394405 -0.0408727 -0.991199 -0.125909
0.148473 -0.0867043 0.480961 0.105371 -0.993973 -0.0302576
-0.0459579 -0.0719908 0.779445 -0.996914 -0.0783146 0.00543219
0.0231741 -0.0797048 0.913807 0.846804 -0.373499 0.378711
-0.223925 -0.059418 0.495756 0.00303081 0.997306 0.0732917
-0.003674 0.0243742 0.141186 -0.999687 0.019471 0.0157331
0.0267388 -0.106998 0.399604 0.546991 -0.834833 -0.0620808
0.00418337 0.0136742 0.0783308 0.999877 -0.00240786 -0.0154937
0.228244 -0.0599907 0.442845 -0.088858 0.99516 -0.0419644
-0.00390716 0.0157149 0.137088 -0.999687 0.019471 0.0157331
-0.306112 -0.0675872 0.401985 -0.125608 -0.992079 0.00101505
0.0107158 -0.0242476 0.333822 0.264275 0.964446 0.00156728
0.307229 -0.0674477 0.400072 0.125608 -0.992079 0.00101505
-0.17133 -0.0843955 0.588866 -0.471729 0.873427 -0.120816
-0.0177517 -0.0294629 0.185588 -0.747179 0.663619 -0.0365037
0.0199749 -0.0477366 0.905766 0.75149 0.53878 0.380759
-0.00698499 -0.0223539 0.101144 -0.911378 0.410975 -0.0221497
0.0138673 -0.0286048 0.122401 0.702648 0.710492 -0.0385601
0.0310178 -0.108047 0.513493 0.430055 -0.902747 -0.0100721
-0.162415 -0.0823099 0.595686 0.169269 0.98516 -0.0284247
-0.0624296 -0.068633 0.580613 0.0521408 0.998569 -0.0119164
0.0462955 -0.0621422 0.449527 0.991271 0.131735 -0.00529068
0.0107402 -0.114611 0.720423 0.290741 -0.9568 0.00176223
0.0395466 -0.0447785 0.857048 0.918149 0.377735 0.119661
0.229248 -0.0653805 0.410865 -0.238206 0.922187 -0.304678
0.0262401 -0.0351129 0.10043 0.0483524 -0.99852 -0.0248947
-0.00275301 -0.0281134 0.881203 -0.0830202 0.881062 0.465659
0.00417308 0.0524909 0.0867578 0.99998 0.00430126 0.00463535
-0.398853 -0.0490732 0.331334 0.0848771 0.995857 -0.0326267
0.036004 -0.097784 0.697317 0.853243 -0.521448 0.00827274
-0.0399796 -0.0941619 0.666558 -0.773929 -0.628036 0.0812647
-0.0388006 -0.104027 0.570588 -0.459282 -0.888155 0.0155138
-0.093308 -0.0299 0.0628324 -0.0738613 -0.996772 -0.031464
-0.00394908 0.0390367 0.111494 -0.999583 0.0181307 0.0224782
0.0375635 -0.0991565 0.414617 0.76256 -0.644386 -0.0571759
0.0457807 -0.0731591 0.773119 0.973589 -0.228254 0.00487483
-0.00437527 -0.115885 0.672856 -0.0933521 -0.995624 0.00420498
-0.346721 -0.0621178 0.35728 -0.102297 -0.994264 -0.03122
0.0449421 -0.0257896 0.0529855 -0.0534943 0.998281 0.0239345
0.172414 -0.0840605 0.519655 0.140842 -0.989627 0.0283115
-0.0232824 -0.0374196 0.882264 -0.683148 0.609242 0.402657
-0.165506 -0.0806583 0.545067 -0.134942 0.917736 0.373565
0.0482106 -0.0257097 0.0566459 -0.0521449 0.998326 0.0250265
0.0405808 -0.0372692 0.780527 0.924949 0.380003 0.00820426
0.0440546 -0.0822919 0.70203 0.9735 -0.228604 0.00624606
-0.0147002 -0.0154885 0.834208 -0.288918 0.953413 0.0867703
0.0149433 -0.0251024 0.573272 0.260141 0.965528 -0.00905968
0.0594929 -0.0327565 0.0997692 0.0933421 -0.995375 0.0227029
-0.00315778 -0.0153148 0.687785 -0.0808182 0.987858 -0.132682
-0.186749 -0.0628225 0.463773 0.125822 0.984848 -0.119346
-0.00895665 -0.0217905 0.637595 -0.261492 0.963151 -0.0629392
0.131916 -0.089331 0.524399 0.127878 -0.991757 0.00812086
-0.0964666 -0.0905016 0.47863 -0.0767266 -0.989923 -0.119015
0.0365189 -0.103575 0.623448 0.516263 -0.854964 0.0500901
-0.028858 -0.0907568 0.885184 -0.70154 -0.64105 0.311282
-0.117509 -0.0663451 0.516991 0.0806596 0.995876 -0.0415252
-0.030034 -0.09115 0.307007 -0.730947 -0.670877 -0.125061
0.00431597 0.0106942 0.0869053 0.999862 -0.00124934 -0.016566
0.0250896 -0.0547074 0.905535 0.75149 0.53878 0.380759
-0.294197 -0.0577712 0.381151 0.252047 0.918875 -0.303549
-0.265581 -0.0570241 0.434532 0.0748742 0.996999 -0.0196743
0.0418932 -0.101431 0.504193 0.683382 -0.728078 -0.0537717
-0.200007 -0.0607071 0.497258 0.0710083 0.997356 -0.0154618
-0.00205431 -0.0196887 0.252765 -0.152809 0.977963 0.14226
-0.116445 -0.0885007 0.473422 -0.0680582 -0.989931 -0.124114
-0.00288079 -0.0226783 0.319738 -0.0893592 0.995955 0.00939955
0.0140363 -0.0516088 0.107287 0.9134 -0.367588 -0.17487
0.0094113 -0.0238403 0.527552 0.258287 0.966063 -0.00316334
-0.0291841 -0.108495 0.474749 -0.430227 -0.902672 -0.0093712
0.0375095 -0.0555182 0.291955 0.966981 0.245188 -0.0694979
0.181146 -0.0941314 0.599346 0.894912 0.446135 -0.00978837
0.353123 -0.0616526 0.364736 0.106003 -0.993987 -0.0274468
0.09792 -0.0670746 0.537432 -0.0775239 0.996167 -0.0405186
0.0640072 -0.0838443 0.471277 -0.220378 0.491549 -0.842504
0.000256094 -0.100437 0.275763 0.113028 -0.974113 -0.195777
0.026746 -0.0200368 0.766164 0.621978 0.782973 0.00986767
-0.104867 -0.0729378 0.473384 0.181901 0.933068 -0.310316
-0.00139397 0.0403004 0.0307099 -0.290834 -0.334487 -0.896401
-0.0083913 -0.0948799 0.2556 -0.299042 -0.929931 -0.214016
-0.0323889 -0.0596075 0.235204 -0.989503 -0.0712885 -0.125707
-0.0568597 -0.0983105 0.535367 -0.11308 -0.99328 -0.0246311
-0.29581 -0.0912824 0.501852 0.999318 -0.0231428 -0.0287851
-0.00528839 -0.0232341 0.531082 -0.0880982 0.996106 -0.00326176
0.295897 -0.0921723 0.499555 -0.999318 -0.0231428 -0.0287851
-0.0308045 -0.104942 0.65433 -0.632383 -0.764003 0.128028
0.0463474 -0.0624571 0.451396 0.991271 0.131735 -0.00529068
-0.106211 -0.0213426 0.0447796 0.0671866 0.996763 0.044162
-0.169102 -0.0816881 0.533515 -0.99281 0.112982 0.0395297
-0.0303101 -0.10741 0.452202 -0.467728 -0.883643 -0.0201313
-0.00730105 -0.0233494 0.550231 -0.0880984 0.996106 -0.00326171
-0.00396502 0.0879991 0.0661359 -0.998664 0.0335209 0.0393141
0.0810595 -0.0957342 0.540844 0.109053 -0.993704 -0.0256921
-0.0666214 -0.0320435 0.0718223 -0.0557277 -0.997938 -0.0318574
-0.0700841 -0.0685494 0.554196 0.0657803 0.997054 -0.0394399
-0.0442071 -0.0686808 0.367469 -0.994521 -0.0821856 -0.0646094
-0.0475782 -0.0805123 0.462666 -0.991528 -0.121586 -0.0457027
0.103192 -0.0678871 0.507157 -0.0794247 0.996017 -0.040509
-0.0488996 -0.0271111 0.0973311 0.0301873 0.996978 0.0715837
-0.0414977 -0.0484361 0.445317 -0.906991 0.421146 -0.00179696
-0.00441944 -0.00397322 0.0976664 -0.999559 0.0297051 0.000128722
-0.00781765 -0.114235 0.391866 -0.0893444 -0.995198 -0.039983
0.0121471 -0.0272874 0.0414198 -0.01036 0.999944 0.00192889
-0.317779 -0.0555752 0.370352 0.139174 0.984055 -0.110752
0.000925065 -0.0133032 0.840764 0.0995236 0.991133 0.0880354
0.148275 -0.101932 0.615263 0.986839 0.155005 0.0460756
-0.0611379 -0.0688528 0.567847 0.0521408 0.998569 -0.0119164
-0.0384623 -0.0334368 0.764272 -0.849752 0.527111 0.00863103
0.00356572 0.0869287 0.0230335 0.993743 -0.0491635 -0.100292
-0.0927491 -0.0670955 0.555873 0.0642162 0.997849 -0.0131756
0.391995 -0.0489672 0.353036 -0.0863483 0.995766 -0.0315176
-0.275526 -0.108284 0.487818 0.232008 -0.972609 0.0142624
-0.141203 -0.025004 0.0318482 -0.0900031 -0.995113 -0.0406203
0.0743114 -0.0960513 0.577944 0.127403 -0.991722 0.0160163
0.00251773 -0.0218173 0.623149 0.0890589 0.995609 -0.0288469
-0.0166962 -0.0590586 0.13919 -0.840022 -0.509174 -0.187364
0.138634 -0.0644013 0.532861 -0.0663394 0.997694 -0.0143757
0.0488557 -0.0684271 0.630757 0.836195 0.543946 0.0700092
-0.000103573 -0.0228163 0.516335 -0.0881866 0.996104 -0.000282634
0.26116 -0.0716205 0.401936 0.0408727 -0.991199 -0.125909
-0.0338695 -0.0284397 0.816194 -0.748834 0.661916 0.0333858
-0.301929 -0.0671622 0.380516 -0.0481692 -0.991926 -0.117315
0.145184 -0.110209 0.589564 -0.73084 -0.663825 -0.158774
-0.00336368 -0.00160713 0.185677 -0.9885 0.134261 0.0695824
-0.0670263 -0.0923619 0.47962 0.00828405 -0.89781 -0.440306
0.0471896 -0.0656511 0.499505 0.985353 0.170437 -0.00544396
-0.0358923 -0.105636 0.530478 -0.469436 -0.88295 -0.00538966
-0.0510297 -0.0692483 0.546386 -0.117485 0.992376 -0.0372573
0.287991 -0.077998 0.444603 0.996922 0.0783504 -0.00263174
-0.0303165 -0.0335954 0.593184 -0.708165 0.70602 -0.00616773
0.172054 -0.0924369 0.56637 0.892403 0.445313 -0.0728886
0.248782 -0.0699748 0.398023 -0.163001 -0.857691 -0.487644
-0.0040522 0.0302747 0.113976 -0.999583 0.0181307 0.0224782
0.0466132 -0.0670953 0.430767 0.991059 0.132061 -0.0190357
-0.00234079 -0.023018 0.42406 -0.087606 0.996155 0.000280259
0.00596754 -0.0229495 0.319133 0.0893592 0.995955 0.00939955
-0.155458 -0.0857789 0.475128 -0.105228 -0.993914 -0.0325939
0.0027116 0.0383319 0.141949 0.99614 0.0670037 0.0567104
-0.0390075 -0.0501785 0.338232 -0.912548 0.406203 -0.0474885
-0.0411634 -0.0387725 0.730022 -0.923689 0.383094 -0.00611804
0.156652 -0.0225696 0.0143968 0.364187 -0.927626 -0.0829272
-0.239393 -0.0748494 0.419552 -0.047419 -0.990913 -0.125866
0.00373209 0.0607251 0.0988698 0.99945 0.0241396 0.0227254
-0.00970126 -0.0240563 0.139429 -0.565186 0.824822 -0.0152948
0.00323774 0.0700125 0.0277286 0.99689 -0.0292517 -0.0731714
-0.0396874 -0.0981801 0.649232 -0.766276 -0.618644 0.173496
-0.0329417 -0.0848712 0.29868 -0.840956 -0.52489 -0.131466
0.0337851 -0.098776 0.816803 0.74938 -0.661941 0.0162562
0.138684 -0.0175556 0.0150382 -0.0849032 0.995699 0.0370729
-0.0811771 -0.0303429 0.092995 -0.214847 -0.961673 0.170369
-0.248321 -0.0596471 0.419995 0.135649 0.983799 -0.117215
-0.0137895 -0.0966585 0.271795 -0.431726 -0.879347 -0.200901
-0.0298902 -0.0336694 0.45606 -0.574645 0.818399 -0.00247536
-0.0383971 -0.0987615 0.421284 -0.76256 -0.644386 -0.0571759
0.0407662 -0.0886557 0.788952 0.924991 -0.379949 0.00555956
-0.000296296 -0.0128173 0.836005 -0.0995236 0.991133 0.0880354
0.0287299 -0.0216936 0.772568 0.622077 0.782894 0.0098992
0.387905 -0.0495868 0.344668 -0.0863483 0.995766 -0.0315176
-0.109482 -0.0769048 0.600056 -0.490684 0.548175 0.677299
0.0320857 -0.0603971 0.892837 0.907432 0.248734 0.338672
-0.063633 -0.0704143 0.521153 0.0924116 0.989128 -0.114396
0.125842 -0.0654954 0.521185 -0.0806596 0.995876 -0.0415252
-0.0466539 -0.0652315 0.747492 -0.997051 -0.0767036 0.00252924
-0.184111 -0.0654161 0.445125 0.124944 0.985074 -0.118396
-0.045135 -0.0653234 0.387219 -0.993774 0.0957425 -0.0569767
-0.11639 -0.0882366 0.471287 -0.0680582 -0.989931 -0.124114
-0.393807 -0.0562165 0.324035 -0.0727562 -0.993928 -0.0825403
0.35262 -0.0518027 0.367673 -0.0910057 0.995024 -0.0405717
0.00197085 -0.0202176 0.256491 0.152809 0.977963 0.14226
0.298428 -0.101417 0.502244 0.920044 -0.390978 -0.0255973
0.0826238 -0.0954142 0.535108 0.109053 -0.993704 -0.0256921
-0.336658 -0.0630219 0.406992 -0.201407 -0.974612 0.0978093
0.159949 -0.0831809 0.452942 0.0562966 -0.990194 -0.127851
0.0267839 -0.107659 0.654694 0.552051 -0.833258 0.0303548
-0.0911902 -0.030025 0.0618218 -0.0738613 -0.996772 -0.031464
-0.0425035 -0.0869473 0.682839 -0.931792 -0.36222 0.023678
0.044806 -0.0591124 0.405339 0.961709 0.272818 -0.0261945
-0.267891 -0.0929148 0.504719 -0.999305 0.0224527 -0.0297543
-0.205199 -0.0608138 0.471932 0.0890292 0.995122 -0.0425009
0.0205889 -0.0284598 0.324497 0.597693 0.801587 -0.0148529
-0.0030793 -0.00859524 0.0547166 -0.997593 -0.021977 -0.0657606
-0.0400918 -0.0891999 0.815378 -0.920979 -0.389126 0.0194625
0.137266 -0.0237747 0.0129608 0.063453 -0.98882 -0.134943
0.0452826 -0.0740284 0.389455 0.995661 -0.06366 -0.0678726
0.0126858 -0.0148508 0.707247 0.278639 0.957516 -0.0743189
0.193168 -0.080881 0.449629 0.0456457 -0.990731 -0.127944
-0.104837 -0.0662209 0.562667 0.063964 0.997895 -0.0106633
-0.00255065 -0.0107262 0.784807 -0.100092 0.994919 0.0108246
-0.000998377 -0.0897104 0.227054 -0.0797526 -0.969928 -0.229953
0.244699 -0.058638 0.440082 -0.088858 0.99516 -0.0419644
-0.0113895 -0.102467 0.889692 -0.375914 -0.860723 0.343284
-0.0463091 -0.0657529 0.419518 -0.993997 0.108682 -0.012564
0.157227 -0.0825217 0.540149 -0.998197 0.059517 -0.00772163
-0.128864 -0.0663065 0.495687 0.0794247 0.996017 -0.040509
-0.009297 -0.115471 0.606884 -0.23263 -0.972565 0.000399991
0.307146 -0.0581678 0.435104 0.460024 0.647211 0.607862
-0.155254 -0.0843394 0.599949 0.54584 0.836915 0.0404026
-0.00376642 0.013202 0.149141 -0.999687 0.019471 0.0157331
-0.341585 -0.0616283 0.34884 -0.0431413 -0.992154 -0.117342
-0.165383 -0.084454 0.537368 -0.14451 -0.988749 0.0386388
-0.0601998 -0.0951451 0.493445 -0.0875321 -0.989478 -0.115201
0.148399 -0.0650399 0.487531 -0.0841388 0.995589 -0.041509
0.118478 -0.0908068 0.548131 0.127255 -0.991786 0.0128777
0.0167646 -0.0378006 0.112657 0.988997 0.106955 -0.102205
0.260552 -0.0578246 0.425455 -0.0909409 0.994972 -0.0419565
-0.206026 -0.0612138 0.460833 0.0890292 0.995122 -0.0425009
-0.211505 -0.0794207 0.479781 -0.124076 -0.992272 0.000984718
-0.021512 -0.0292407 0.3195 -0.597693 0.801587 -0.0148529
0.039723 -0.0546947 0.327813 0.967412 0.244786 -0.0647682
-0.0310143 -0.0343259 0.0806308 -0.0294016 -0.998902 -0.0364852
0.0234092 -0.0291963 0.423996 0.57736 0.816487 -0.00204516
-0.0509273 -0.0322904 0.0547229 -0.0518379 -0.997751 -0.0424942
-0.00354205 0.0350285 0.133534 -0.994792 0.0744709 0.0695942
-0.0568865 -0.0330388 0.0981085 -0.0933421 -0.995375 0.0227029
-0.169281 -0.0794748 0.522696 -0.99281 0.112982 0.0395297
-0.171499 -0.0818026 0.447353 -0.0562966 -0.990194 -0.127851
0.0782911 -0.0944165 0.599412 0.146508 -0.98775 0.0537075
0.16931 -0.0823409 0.530155 0.99281 0.112982 0.0395297
0.0431484 -0.0833607 0.74834 0.925799 -0.377994 0.0040964
-0.346468 -0.0612773 0.347668 -0.0431413 -0.992154 -0.117342
0.00399204 -0.0872343 0.929417 0.333447 -0.832815 0.441851
-0.0366195 -0.0697104 0.283477 -0.963224 -0.242041 -0.116685
0.00914663 -0.0238348 0.374495 0.264134 0.964486 -0.000292185
-0.15248 -0.0938015 0.573585 0.809741 0.573312 -0.125029
0.00997001 -0.0238449 0.565054 0.259215 0.965775 -0.00927097
-0.104584 -0.0927964 0.531573 -0.127878 -0.991757 0.00812085
0.0419233 -0.0491707 0.500256 0.905506 0.424333 -0.0001723
-0.283049 -0.0703452 0.483069 -0.337542 0.937355 -0.0862031
0.339409 -0.0632462 0.395457 0.141669 -0.989687 0.0212012
-0.0208629 -0.110761 0.67968 -0.451708 -0.892124 0.00862578
-0.0353022 -0.0389911 0.482575 -0.707614 0.706599 -0.000201615
0.179562 -0.065402 0.450043 -0.124944 0.985074 -0.118396
-0.0350781 -0.0487927 0.281799 -0.967647 0.242577 -0.0693953
0.257891 -0.0570791 0.462033 -0.0773284 0.996787 -0.0208635
0.323467 -0.0530929 0.41189 -0.0253485 0.998629 0.0458021
-0.151144 -0.105549 0.568639 0.937403 -0.289545 -0.193494
0.0241043 -0.029851 0.395487 0.576625 0.8169 -0.0133371
-0.000704406 -0.116384 0.565525 -0.0846773 -0.996408 0.00023398
-0.122993 -0.0841181 0.590595 -0.426272 -0.790507 0.439761
0.368412 -0.0525588 0.382295 0.384099 0.757635 0.52769
-0.202796 -0.0607663 0.480633 0.0710083 0.997356 -0.0154618
0.368416 -0.0513887 0.343748 -0.13381 0.985787 -0.101584
-0.0856432 -0.094125 0.584316 -0.147818 -0.987848 0.0480163
0.325982 -0.0553593 0.417627 0.435077 0.689529 0.579015
0.138948 -0.077016 0.578142 0.527489 0.482165 0.699481
0.0558094 -0.0966623 0.619437 0.146508 -0.98775 0.0537075
0.0904343 -0.0669906 0.590794 -0.00853898 0.997681 0.0675315
0.143545 -0.100517 0.592156 -0.997337 -0.0479892 0.0549227
0.0607988 -0.0248305 0.0534122 -0.0669434 0.997425 0.0257364
-0.0944945 -0.0706061 0.492088 0.106575 0.987494 -0.116183
0.0405196 -0.0735546 0.328232 0.965858 -0.239038 -0.0998963
-0.164869 -0.0629602 0.509322 0.0677367 0.9976 -0.0143738
-0.0264798 -0.0958728 0.311568 -0.730947 -0.670877 -0.125061
0.0310094 -0.0788461 0.264085 0.896435 -0.417343 -0.149091
-0.0791013 -0.071257 0.500529 0.103765 0.988026 -0.114184
0.00245867 0.0285212 0.156153 0.943206 0.252205 0.21623
-0.164541 -0.114836 0.568148 -0.0493484 -0.989013 -0.139347
0.0444721 -0.0813192 0.682575 0.972165 -0.231887 0.0335264
0.341784 -0.0522317 0.385827 -0.0759813 0.996915 -0.0196726
0.0528439 -0.0991046 0.56708 0.187064 -0.982184 0.0179174
0.0791535 -0.0709569 0.503078 -0.103765 0.988026 -0.114184
-0.0943613 -0.0689893 0.505952 0.106575 0.987494 -0.116183
0.00257168 -0.0229776 0.374078 0.0900451 0.995936 0.00207505
-0.268455 -0.0751405 0.483177 0.493875 0.869476 -0.0100019
0.0349622 -0.0979941 0.790441 0.74951 -0.661981 0.00402525
0.0247157 -0.0297404 0.575566 0.575067 0.818074 -0.00731979
0.384798 -0.0575529 0.340906 0.11818 -0.992874 -0.0153221
0.372474 -0.0592026 0.359659 0.126488 -0.991966 0.00183679
0.0300328 -0.0968287 0.337605 0.720775 -0.682168 -0.123007
-0.00244159 0.00987663 0.0450742 -0.959783 -0.0955588 -0.263978
-0.197294 -0.0636965 0.44497 0.136193 0.98349 -0.119156
0.0335273 -0.0777535 0.888701 0.916407 -0.223334 0.332145
0.0988843 -0.0929142 0.509285 0.107657 -0.993798 -0.0278645
-0.129454 -0.0891053 0.492723 -0.10827 -0.993661 -0.0302458
0.0363045 -0.103529 0.459397 0.597167 -0.801256 -0.0371492
0.299471 -0.0684109 0.418638 0.125608 -0.992079 0.00101505
0.0444065 -0.055318 0.449975 0.961099 0.27619 -0.00283664
0.275833 -0.0768804 0.437812 -0.990912 0.133505 0.016445
-0.00708857 -0.0221007 0.268365 -0.308008 0.950389 0.0435032
0.0417113 -0.0486076 0.544147 0.902426 0.430843 -0.00100995
-0.00401961 -0.0024553 0.07001 -0.999862 -0.00124934 -0.016566
0.00415077 0.0648353 0.0496786 0.999737 -0.00990018 -0.0206793
0.115769 -0.0654497 0.568725 -0.0655907 0.997772 -0.012205
0.00020485 0.0676534 0.0200955 0.402857 -0.316495 -0.8588
0.338621 -0.0544301 0.353889 -0.135525 0.985555 -0.101562
-0.0620151 -0.0325857 0.0968867 -0.0933421 -0.995375 0.0227029
-0.00870523 -0.0235709 0.29945 -0.278303 0.960487 0.0033069
0.00670019 -0.020488 0.169307 0.834923 0.55012 -0.0164709
-0.010727 -0.0174524 0.855444 -0.31772 0.926463 0.201793
0.0534116 -0.0983834 0.596337 0.157062 -0.985876 0.0581454
0.0319197 -0.0257902 0.722528 0.745977 0.664663 -0.0417282
-0.04682 -0.0758775 0.431667 -0.999489 -0.00375238 -0.0317279
0.122354 -0.0899734 0.495823 0.108268 -0.993662 -0.0302377
-0.0530248 -0.0707074 0.522255 -0.106342 0.987895 -0.112936
0.297468 -0.0550012 0.41569 -0.0748741 0.996999 -0.0196743
0.144806 -0.0847767 0.567856 0.422536 -0.805702 0.4151
-0.0852322 -0.0950379 0.531625 -0.109053 -0.993704 -0.0256921
0.184731 -0.0825356 0.511683 0.140842 -0.989627 0.0283115
0.143545 -0.024021 0.0187802 0.0620283 -0.994426 -0.0852566
0.210377 -0.0796037 0.469255 0.127027 -0.991892 0.00382873
-0.00311448 -0.0131816 0.705145 -0.101673 0.991886 -0.076321
-0.000250777 -0.0812612 0.191156 -0.0797526 -0.969928 -0.229953
0.0492508 -0.0672444 0.616849 0.836195 0.543946 0.0700092
0.294262 -0.0552327 0.416157 -0.0748741 0.996999 -0.0196743
-0.0443144 -0.0608658 0.380059 -0.994726 0.0863997 -0.055282
0.322666 -0.0654949 0.395794 0.125926 -0.992039 0.00101501
-0.39766 -0.0559883 0.340538 -0.133844 -0.990976 0.00723829
-0.0170718 -0.0267951 0.302344 -0.407785 0.913054 -0.00661435
0.165874 -0.0908701 0.544679 0.0426772 -0.972444 -0.229197
-0.00264061 0.0186465 0.166454 -0.99614 0.0670037 0.0567104
0.0418175 -0.0872611 0.709805 0.916036 -0.40094 0.0111725
0.00858609 -0.115644 0.598773 0.232631 -0.972565 0.000399994
-0.0379975 -0.0964606 0.668755 -0.826463 -0.561292 0.0437003
0.00686108 -0.0340558 0.892701 0.255548 0.875901 0.409259
0.051319 -0.0257825 0.066025 -0.0521449 0.998326 0.0250265
0.171773 -0.0721113 0.436215 -0.373574 0.52058 -0.76775
-0.0267864 -0.0726057 0.222887 -0.825308 -0.534674 -0.181635
-0.202944 -0.0625869 0.517821 -0.266435 0.877373 0.399035
-0.173882 -0.103582 0.552147 -0.87795 -0.450385 -0.162351
0.0316433 -0.0434802 0.26224 0.915757 0.398035 -0.0543686
0.00349837 -0.00538437 0.0600008 0.997593 -0.021977 -0.0657606
-0.00576126 -0.0893973 0.925233 -0.403274 -0.824503 0.396944
0.00300418 -0.112948 0.862284 0.16075 -0.97721 0.138638
-0.0896284 -0.0944146 0.556608 -0.129398 -0.991509 0.0128949
-0.0150697 -0.0132119 0.767707 -0.290979 0.95667 0.0106506
