-0.0328074 -0.10679 0.487691 -0.542501 -0.839602 -0.0276029
0.00777382 -0.113746 0.851133 0.16075 -0.97721 0.138638
-0.0950551 -0.0937261 0.555097 -0.129398 -0.991509 0.0128949
-0.00446859 -0.104028 0.889538 -0.0990782 -0.935185 0.340018
-0.0387437 -0.0495048 0.33896 -0.908987 0.413621 -0.0515744
-0.0041503 0.00425988 0.0773916 -0.999862 -0.00124934 -0.016566
0.0474088 -0.100293 0.558152 0.168037 -0.985506 -0.0232797
0.00433347 -0.0130391 0.198184 0.995012 0.0993455 0.00906227
0.0123053 -0.0241175 0.257137 0.505754 0.862652 -0.00659731
-0.0894063 -0.0940048 0.510667 -0.110764 -0.993457 -0.0278392
0.038978 -0.0352352 0.803329 0.849232 0.527137 0.0305168
-0.0885758 -0.0286086 0.0304486 -0.0548603 -0.993536 -0.0993843
-0.30051 -0.0555449 0.392567 0.0903736 0.99508 -0.0405987
-0.0166087 -0.0841872 0.920545 -0.753548 -0.516245 0.407009
-0.0313567 -0.103693 0.399785 -0.645918 -0.76094 -0.0613178
-0.276676 -0.0636394 0.462821 -0.559832 0.429394 0.708667
0.110799 -0.090777 0.576412 0.145616 -0.988176 0.0479998
-0.00418397 -0.0403806 0.907209 -0.111608 0.90121 0.418765
0.203076 -0.0789088 0.518057 0.208861 -0.971145 0.115126
0.238994 -0.0604064 0.424415 -0.135649 0.983799 -0.117215
-0.0950028 -0.0262852 0.0864554 -0.605951 0.186038 0.773442
-0.404213 -0.0489843 0.320104 0.0848771 0.995857 -0.0326267
0.0191577 -0.0281317 0.275883 0.601642 0.798721 -0.00850279
0.30001 -0.0970222 0.493956 0.973124 -0.226587 0.0410926
-0.0471292 -0.099911 0.582967 -0.188957 -0.981828 0.0175616
-0.0116126 -0.0242428 0.569534 -0.259215 0.965775 -0.00927097
-0.200893 -0.0805745 0.498809 -0.14386 -0.989193 0.0283227
0.00896414 -0.0237495 0.517815 0.258288 0.966068 -0.000310535
-0.143858 -0.0650731 0.495939 0.0841388 0.995589 -0.041509
0.0123678 -0.0721205 0.938049 0.685572 0.17431 0.706829
0.0850625 -0.0911554 0.476716 0.0767266 -0.989923 -0.119015
-0.254159 -0.0714048 0.398708 0.188923 -0.853616 -0.485436
-0.0839143 -0.0307622 0.0690973 -0.0724926 -0.99705 -0.0252222
-0.0418933 -0.047431 0.636951 -0.906072 0.422672 -0.0195487
-0.0430099 -0.0444855 0.809111 -0.92427 0.380748 0.0274861
-0.154967 -0.0689502 0.454365 0.211794 0.926364 -0.311437
0.0430068 -0.0860351 0.391918 0.904996 -0.41966 -0.0697732
0.136762 -0.0664442 0.486318 -0.11518 0.986242 -0.11858
-0.0447945 -0.098718 0.621418 -0.425203 -0.902559 0.0677556
0.277679 -0.108773 0.48946 -0.232008 -0.972609 0.0142624
0.118901 -0.0901995 0.490891 0.108268 -0.993662 -0.0302377
-0.168744 -0.0918377 0.549319 -0.0426772 -0.972444 -0.229197
-0.00524223 -0.0125985 0.82795 -0.0995236 0.991133 0.0880354
-0.35511 -0.0513953 0.376747 0.0759813 0.996915 -0.0196726
0.015967 -0.0248134 0.61148 0.261932 0.964772 -0.0246357
-0.0381819 -0.0292985 0.119683 -0.0549202 0.979443 0.1941
0.0201495 -0.0345311 0.166296 0.873447 0.481738 -0.070851
-0.051855 -0.0686851 0.564279 -0.117754 0.992975 -0.0116151
-0.00800113 -0.115114 0.414177 -0.0893444 -0.995198 -0.039983
0.217084 -0.0787218 0.480975 0.124076 -0.992272 0.000984723
0.30616 -0.0543072 0.417558 -0.0817991 0.996259 -0.0278708
-0.0459714 -0.0609961 0.441567 -0.966365 0.25694 -0.0110051
-0.0191408 -0.030223 0.199118 -0.74942 0.660888 -0.0399701
0.109133 -0.0695852 0.486789 -0.11253 0.986846 -0.11607
-0.00732301 -0.111633 0.866512 -0.158662 -0.941676 0.29677
-0.0416392 -0.0986428 0.460701 -0.755482 -0.652154 -0.0627879
-0.193482 -0.0719342 0.533112 -0.556424 0.429809 0.711095
-0.0434133 -0.0894476 0.6575 -0.927423 -0.340271 0.155252
-0.0410141 -0.0632996 0.327634 -0.993267 0.0869228 -0.0765865
0.0784332 -0.023271 0.0388407 -0.0669434 0.997425 0.0257364
-0.245021 -0.0749719 0.472278 -0.137845 -0.990202 0.0223537
0.0246726 -0.109668 0.425081 0.46693 -0.883969 -0.0239868
0.0475125 -0.0725889 0.459452 0.999765 -0.0143231 -0.0162767
-0.116335 -0.0274012 0.0406303 -0.0791322 -0.996035 -0.0406499
-0.00599653 -0.113214 0.375463 -0.0897686 -0.99323 -0.0737228
-0.00420411 0.0313545 0.0981876 -0.999987 0.0038221 0.00322092
0.0146665 -0.0251711 0.551714 0.259225 0.965812 -0.00297583
-0.321399 -0.0583646 0.356435 0.478467 0.504468 -0.718736
0.00828443 -0.0910054 0.918834 0.332375 -0.838974 0.43087
-0.029407 -0.093721 0.317134 -0.730947 -0.670877 -0.125061
-0.135469 -0.0872881 0.565681 -0.205008 -0.970123 0.129745
-0.230206 -0.0753302 0.419876 -0.047419 -0.990913 -0.125866
0.396784 -0.0557523 0.321069 0.0727562 -0.993928 -0.0825403
-0.0123239 -0.0132172 0.727429 -0.287983 0.954989 -0.0711411
-0.0642702 -0.0704595 0.520248 0.0924116 0.989128 -0.114396
0.0435063 -0.0764813 0.367245 0.965354 -0.249571 -0.0761952
-0.00423848 0.00614055 0.126177 -0.999755 0.0159104 0.0153765
0.00427237 0.0452906 0.0720208 0.99998 0.00430126 0.00463535
-0.108962 -0.0271003 0.0270588 -0.0706073 -0.993045 -0.0942127
0.167507 -0.082881 0.453955 0.0566777 -0.990624 -0.124303
-0.0278893 -0.0869519 0.277405 -0.741209 -0.651843 -0.160346
-0.0182127 -0.0191804 0.687806 -0.434193 0.893307 -0.116101
-0.292511 -0.0557193 0.4061 0.0903736 0.99508 -0.0405987
-0.00567154 -0.0619037 0.941215 -0.524205 0.669004 0.526919
0.148524 -0.103411 0.614892 0.986839 0.155005 0.0460756
0.0304283 -0.0341112 0.479846 0.70759 0.706623 -0.000206496
-0.205593 -0.0605372 0.482566 0.0710083 0.997356 -0.0154618
0.0232709 -0.0386946 0.884464 0.632177 0.675597 0.379368
0.0514336 -0.0701389 0.63222 0.322623 0.917481 0.232686
0.0336729 -0.0496814 0.259098 0.967647 0.242577 -0.0693953
0.0371722 -0.0708649 0.290401 0.96514 -0.234156 -0.116948
0.15616 -0.0698426 0.560027 0.444496 0.653939 0.612198
0.320645 -0.065566 0.412445 0.140183 -0.989929 0.0197067
-0.0251952 -0.0303354 0.511094 -0.573734 0.819042 -0.000419152
0.0228274 -0.0924184 0.278384 0.589809 -0.792307 -0.156125
0.182568 -0.0617778 0.506992 -0.0688943 0.997504 -0.0154641
-0.0161616 -0.113514 0.436487 -0.36046 -0.932628 -0.0165375
0.289419 -0.0575583 0.388161 -0.138321 0.984165 -0.11084
-0.0899735 -0.0763151 0.613753 -0.460216 0.599744 0.654605
-0.0045225 -0.00743155 0.0954459 -0.999559 0.0297051 0.000128722
0.162451 -0.0855804 0.504375 0.126174 -0.992001 0.00382592
0.241874 -0.0743315 0.416409 0.047419 -0.990913 -0.125866
-0.0132376 -0.0127047 0.77219 -0.29051 0.956814 0.0105317
0.00675592 -0.025937 0.876371 0.0830202 0.881062 0.465659
0.00658342 -0.0109122 0.764615 0.100092 0.994919 0.0108246
0.0344056 -0.105772 0.602056 0.475008 -0.879277 0.0352154
0.157501 -0.0791001 0.531133 -0.998197 0.059517 -0.00772163
0.325839 -0.0539613 0.374683 -0.0902066 0.99517 -0.0387133
0.358878 -0.0608375 0.377809 0.141669 -0.989687 0.0212012
0.0235722 -0.108609 0.802019 0.62128 -0.783477 0.0132459
-0.00836462 -0.0226997 0.161616 -0.595123 0.803511 -0.0140964
0.0323249 -0.0775494 0.269052 0.917733 -0.374625 -0.131994
-0.00361706 0.0857174 0.0786439 -0.999048 0.0312326 0.0304594
0.217633 -0.0677077 0.511655 0.556082 0.430751 0.710793
0.164261 -0.0823918 0.598215 0.21675 0.972882 0.0807525
0.00346619 0.0605846 0.0346099 0.99689 -0.0292517 -0.0731714
-0.0437647 -0.0831946 0.696136 -0.916382 -0.400149 0.0111483
0.0394748 -0.0777787 0.86767 0.940701 -0.225493 0.253446
0.0261117 -0.0539634 0.182706 0.986362 -0.0921352 -0.136384
0.381473 -0.0579563 0.3414 0.11818 -0.992874 -0.0153221
0.0953146 -0.0938505 0.528667 0.110764 -0.993457 -0.0278392
-0.130305 -0.0895085 0.5281 -0.127878 -0.991757 0.00812085
-0.00180433 -0.0148437 0.850249 -0.0985726 0.977553 0.186207
-0.210385 -0.0786729 0.438725 -0.047419 -0.990913 -0.125866
0.173184 -0.0909776 0.615272 -0.52271 -0.850859 -0.0530408
-0.255983 -0.0707825 0.479991 -0.431981 -0.806915 0.402841
-0.0460413 -0.0679145 0.404283 -0.993504 0.108566 -0.0341069
0.20582 -0.079899 0.497377 0.14386 -0.989193 0.0283227
0.0321161 -0.0891693 0.87876 0.897175 -0.379929 0.225237
-0.0660788 -0.0848346 0.636724 -0.612784 0.0982251 0.784122
0.0115448 -0.114228 0.414674 0.249395 -0.967584 -0.0397808
-0.0423851 -0.0501607 0.48923 -0.905506 0.424333 -0.0001723
-0.184559 -0.0809553 0.446541 -0.0562966 -0.990194 -0.127851
-0.0377737 -0.0331987 0.0600028 -0.0518379 -0.997751 -0.0424942
-0.00242603 -0.11596 0.725794 -0.100724 -0.994913 0.00157119
-0.0229338 -0.110342 0.418902 -0.38587 -0.921609 -0.0417215
0.0153985 -0.0390134 0.098664 0.983516 -0.118843 -0.136281
0.0157052 -0.0271376 0.188429 0.630727 0.775725 -0.020817
0.15414 -0.0948603 0.557557 -0.814584 0.567897 -0.118099
-0.0656005 -0.0973475 0.536813 -0.115182 -0.993014 -0.0256354
-0.0363029 -0.0865348 0.329197 -0.899482 -0.425315 -0.100196
-0.0323443 -0.0435809 0.27331 -0.915758 0.398035 -0.0543686
0.366324 -0.0527619 0.334904 -0.244028 0.931175 -0.270855
-0.0703883 -0.0957605 0.506332 -0.0744963 -0.990518 -0.115432
0.117235 -0.0656338 0.546073 -0.0663394 0.997694 -0.0143757
0.0348603 -0.0281047 0.765429 0.749798 0.661601 0.00934056
0.013298 -0.0249263 0.461551 0.258286 0.966068 -0.000310843
-0.115369 -0.0850769 0.596263 -0.426272 -0.790507 0.439761
-0.362391 -0.0511607 0.361538 0.0769835 0.996798 -0.0215967
0.179244 -0.0635829 0.535511 0.256683 0.879883 0.3999
0.029423 -0.0424225 0.235448 0.914891 0.397659 -0.06959
0.0436815 -0.0511753 0.835396 0.971247 0.229342 0.06388
0.0419384 -0.050646 0.404393 0.9072 0.420138 -0.0217248
0.0834124 -0.0948072 0.515452 0.110764 -0.993457 -0.0278392
0.0404304 -0.0899675 0.74538 0.847551 -0.530685 0.00546176
-0.025657 -0.11049 0.526682 -0.40323 -0.915099 -0.000379281
-0.0787531 -0.0297229 0.0365151 -0.0556899 -0.996372 -0.0643502
0.0178612 -0.11323 0.472176 0.339313 -0.940665 -0.00399432
-0.261892 -0.0585789 0.412892 0.140699 0.9831 -0.117126
-0.00423005 0.0160907 0.108247 -0.999987 0.0038221 0.00322092
0.0467755 -0.0633072 0.666397 0.993503 0.113456 0.00893694
0.0438517 -0.0455558 0.789196 0.973231 0.2297 0.00764042
0.292015 -0.0693553 0.418308 0.125608 -0.992079 0.00101505
-0.304368 -0.0677998 0.409944 -0.125608 -0.992079 0.00101505
0.0080859 -0.0228358 0.139848 0.642609 0.766082 -0.0131202
0.134323 -0.0645166 0.545294 -0.063964 0.997895 -0.0106633
-0.0958713 -0.0884883 0.469767 0.0322097 -0.886525 -0.461557
-0.0033664 -0.0110307 0.742029 -0.0989767 0.994807 -0.0236988
-0.334463 -0.0640138 0.379761 -0.125926 -0.992039 0.00101501
-0.0265951 -0.033067 0.3228 -0.714541 0.69908 -0.0267955
-0.0491406 -0.0717355 0.498535 -0.920667 0.388807 -0.0346606
0.300156 -0.0845463 0.482503 0.925661 0.374212 -0.0558256
-0.0201927 -0.0284378 0.0996115 0.0488034 0.997582 0.049481
-0.00411325 3.60738e-05 0.146734 -0.999442 0.032392 0.00819624
0.0893693 -0.0302941 0.0759449 0.111788 -0.993376 0.026618
-0.0019927 -0.0534915 0.0772647 -0.231562 -0.942863 -0.239558
0.164334 -0.084888 0.476607 0.105227 -0.993914 -0.0326044
0.001322 -0.11633 0.570177 0.0846773 -0.996408 0.00023398
0.145764 -0.0877027 0.504403 0.126174 -0.992001 0.00382592
0.235282 -0.0584521 0.478222 -0.0720869 0.997273 -0.0157932
0.0195269 -0.0465841 0.131654 0.987083 -0.0727266 -0.142753
0.126179 -0.07924 0.4525 -0.316181 0.495794 -0.808837
0.327545 -0.0648449 0.399582 0.140183 -0.989929 0.0197067
0.178428 -0.089272 0.582776 0.714303 0.699785 -0.00844709
0.141126 -0.0738713 0.574332 0.527489 0.482165 0.699481
0.0629442 -0.0304833 0.035863 0.0510127 -0.994278 -0.0938517
-0.0290676 -0.03257 0.59982 -0.575576 0.817469 -0.021368
-0.0302875 -0.0259558 0.834454 -0.747027 0.660318 0.0770146
-0.0302961 -0.0611076 0.219821 -0.964094 -0.223359 -0.143644
-0.23432 -0.0588555 0.459834 0.0718384 0.997265 -0.017398
-0.389568 -0.05287 0.366392 -0.475932 0.626608 0.617132
-0.00345169 0.0451994 0.123744 -0.994528 0.0782235 0.0692418
0.0129593 -0.024761 0.5361 0.259225 0.965812 -0.00297583
0.0468141 -0.0639576 0.484552 0.985353 0.170437 -0.00544396
-0.28323 -0.0752294 0.423101 -0.0233413 -0.977933 -0.20761
-0.172273 -0.0843625 0.496253 -0.126174 -0.992001 0.00382719
0.230478 -0.0653968 0.500206 0.556076 0.430772 0.710785
0.0727472 -0.0731198 0.490184 -0.103765 0.988026 -0.114184
0.0583392 -0.068899 0.614567 -0.00715458 0.997872 0.0648112
0.0473212 -0.0638194 0.542091 0.969083 0.246712 -0.00327786
0.0152411 -0.0488043 0.914934 0.428539 0.804857 0.41056
-0.146033 -0.0850293 0.461286 -0.0566824 -0.990629 -0.124259
0.244027 -0.0668778 0.399583 -0.433098 0.51424 -0.740259
-0.0220595 -0.0284703 0.464212 -0.422231 0.906488 -0.000316746
-0.0859657 -0.0679586 0.53857 0.0775239 0.996167 -0.0405186
-0.00611166 -0.115537 0.752386 -0.100831 -0.994899 0.00296838
0.107943 -0.0664876 0.585666 -0.00539424 0.997354 0.0724952
0.00831566 -0.115558 0.441796 0.237677 -0.971246 -0.0138335
0.0649877 -0.0266631 0.0974334 -0.0274157 0.996906 0.0736656
-0.0228322 -0.109594 0.70608 -0.451011 -0.892503 0.00521372
0.132735 -0.0892664 0.51939 0.127878 -0.991757 0.00812086
0.00545975 -0.0188987 0.0990814 0.992538 0.120555 -0.0182908
0.000105174 -0.0224545 0.583925 0.0880947 0.996064 -0.00977993
0.362628 -0.0508421 0.373883 -0.08967 0.995269 -0.0374003
-0.0125705 -0.114752 0.535185 -0.224002 -0.974589 0.00021995
-0.407738 -0.0549689 0.341697 -0.121498 -0.991936 0.0360621
0.294587 -0.0848105 0.466695 0.845146 0.517556 -0.133655
-0.285875 -0.0555404 0.433013 0.0817991 0.996259 -0.0278709
-0.00953903 -0.0686518 0.148784 -0.439979 -0.869895 -0.222937
0.044704 -0.0323141 0.0493911 0.0474233 -0.997378 -0.0546617
0.119992 -0.0203637 0.0447109 -0.0838382 0.995538 0.0433101
0.132129 -0.0888006 0.550473 0.144275 -0.988783 0.0386366
-0.00624541 -0.103286 0.295168 -0.0805153 -0.982482 -0.168066
-0.0457361 -0.0536382 0.708966 -0.970731 0.2398 -0.0133368
0.0303823 -0.100684 0.365763 0.713414 -0.694547 -0.0929767
-0.049076 -0.0786695 0.476115 -0.975613 0.197148 -0.0964934
-0.227125 -0.0771627 0.485589 -0.137845 -0.990202 0.0223537
-0.0343254 -0.0733838 0.27195 -0.96514 -0.234156 -0.116948
0.221557 -0.0753619 0.41702 0.0456457 -0.990731 -0.127944
-0.0314166 -0.0485162 0.234507 -0.966329 0.242246 -0.0867452
-0.285809 -0.0686308 0.411233 -0.116525 -0.776679 -0.619025
0.0133259 -0.113318 0.819325 0.29002 -0.956944 0.0121125
-0.174668 -0.0621804 0.516432 0.0666393 0.997702 -0.0122054
0.0424937 -0.0777339 0.849586 0.968911 -0.22879 0.0941666
0.00438972 -0.116046 0.614287 0.0855684 -0.996329 0.00253872
0.00149526 -0.116105 0.69391 0.100724 -0.994913 0.00157119
0.270294 -0.10664 0.502521 -0.802668 -0.596384 0.00711151
-0.15179 -0.0212373 0.0393429 -0.656984 -0.0979806 0.747511
-0.0464204 -0.060587 0.781812 -0.996916 0.0782486 0.00591183
0.303474 -0.0558486 0.385801 -0.138321 0.984165 -0.11084
0.0422948 -0.0496879 0.571156 0.901533 0.432695 -0.00375837
0.0719315 -0.0243167 0.0612367 -0.0642329 0.997539 0.028102
-0.0069148 -0.0910245 0.236784 -0.299042 -0.929931 -0.214016
0.158678 -0.0199038 0.0135051 0.994923 -0.0997352 0.0134862
-0.0124247 -0.0799923 0.198907 -0.448139 -0.866162 -0.221213
-0.0285529 -0.103126 0.847084 -0.620832 -0.782913 0.0401856
0.0515651 -0.078903 0.478728 0.11852 0.924743 -0.361668
0.0190731 -0.0156983 0.733059 0.462701 0.886281 -0.0203317
0.359036 -0.060649 0.351225 0.106003 -0.993987 -0.0274468
0.0314051 -0.0306905 0.855512 0.837455 0.518919 0.171439
0.162321 -0.0627922 0.533493 -0.070128 0.997413 -0.0157941
0.0642912 -0.0716058 0.510319 -0.0924116 0.989128 -0.114396
0.113454 -0.0202816 0.0311296 -0.0850944 0.995865 0.031809
0.269716 -0.0721567 0.439607 0.125608 -0.992079 0.00101505
-0.0359323 -0.0975319 0.720619 -0.852834 -0.522116 0.008284
-0.0798087 -0.0692777 0.517299 0.0756979 0.996353 -0.0393878
-0.0174818 -0.0279286 0.214498 -0.660652 0.750371 -0.0219734
-0.00257323 0.00722721 0.0465119 -0.959783 -0.0955588 -0.263978
-0.00696157 -0.0203374 0.197814 -0.787697 0.616004 -0.00853072
-0.0272097 -0.0569794 0.903392 -0.907432 0.248734 0.338672
-0.161588 -0.112555 0.553353 0.0125925 -0.987633 -0.156277
-0.0120721 -0.0245883 0.493422 -0.258288 0.966068 -0.000310533
-0.00424595 0.0652393 0.0623888 -0.999969 0.00434754 0.00655206
0.0413675 -0.039239 0.731634 0.923689 0.383094 -0.00611805
-0.283989 -0.10973 0.476774 -0.426902 -0.9012 -0.0747856
-0.0332865 -0.0272036 0.724449 -0.745977 0.664663 -0.0417282
-0.168244 -0.0847746 0.512589 -0.12686 -0.991888 0.00811519
-0.146403 -0.0169061 0.0163457 0.0906214 0.995438 0.0298525
-0.0181986 -0.0272942 0.293541 -0.505754 0.862652 -0.00659731
0.0179185 -0.11332 0.543832 0.32856 -0.944483 0.000213159
0.0170237 -0.10018 0.298987 0.434302 -0.885873 -0.163127
0.265215 -0.0592948 0.40289 -0.140716 0.983097 -0.117126
0.00398901 -0.00506333 0.169843 0.999259 0.0338387 0.0183262
-0.344428 -0.0532761 0.357291 0.139174 0.984055 -0.110752
0.136472 -0.0691785 0.466006 -0.184407 0.931508 -0.313507
0.0464769 -0.0604149 0.680732 0.996566 0.0827782 -0.002143
-0.0275086 -0.105651 0.78258 -0.622102 -0.782927 0.00371486
-0.319215 -0.0653104 0.420151 -0.202624 -0.974228 0.099114
0.0448265 -0.0845288 0.659838 0.927423 -0.340271 0.155252
-0.105382 -0.090839 0.586671 -0.205008 -0.970123 0.129745
0.00676112 -0.021652 0.123361 0.93628 0.351072 -0.0113108
-0.045948 -0.0564086 0.798402 -0.996683 0.0781994 0.0225259
-0.383055 -0.0508588 0.329301 0.1311 0.987105 -0.0918496
-0.11913 -0.0797443 0.45495 0.31604 0.495813 -0.808881
-0.00334561 0.0337966 0.0437452 -0.99705 -0.0308588 -0.0702766
0.0697245 -0.0697394 0.524712 -0.0657804 0.997054 -0.0394399
0.196018 -0.0675384 0.430241 -0.239923 0.919804 -0.31048
0.0225777 -0.0284201 0.576921 0.423851 0.905696 -0.0081038
0.287248 -0.0770103 0.43467 0.94476 -0.295092 -0.142652
-0.0845876 -0.0676691 0.551748 0.0632595 0.997918 -0.0125607
0.288744 -0.0757109 0.456972 0.996496 0.0459871 -0.0698561
-0.179088 -0.0630646 0.472705 0.0841388 0.995589 -0.041509
0.0286924 -0.0794037 0.900512 0.876277 -0.342003 0.339372
0.189519 -0.0800004 0.531613 0.422536 -0.805702 0.4151
0.0599609 -0.0325735 0.0767727 0.0557277 -0.997938 -0.0318574
-0.134956 -0.0258704 0.0393685 -0.0791322 -0.996035 -0.0406499
-0.155924 -0.0646139 0.482497 0.0841388 0.995589 -0.041509
-0.0410201 -0.052866 0.356424 -0.962814 0.264328 -0.0558519
0.00643914 -0.0197664 0.220097 0.801949 0.597366 0.00566015
-0.0451265 -0.0591906 0.832165 -0.995146 0.0784293 0.0594454
0.0346535 -0.0993309 0.694934 0.730288 -0.683051 0.0110056
-0.0384824 -0.0448183 0.382741 -0.813507 0.580695 -0.0316247
-0.0501064 -0.0711503 0.51462 -0.165299 0.981008 -0.101483
-0.062774 -0.0972648 0.520911 -0.115182 -0.993014 -0.0256354
-0.0150499 -0.0318047 0.0388879 0.00833309 -0.979618 -0.200694
-0.0330859 -0.0495311 0.251439 -0.967647 0.242577 -0.0693953
-0.157798 -0.0861835 0.501445 -0.126174 -0.992001 0.00382719
0.0456369 -0.0991854 0.609905 0.425203 -0.902559 0.0677556
0.175058 -0.0700733 0.437362 -0.211794 0.926364 -0.311437
-0.0453321 -0.0528071 0.694507 -0.970731 0.2398 -0.0133368
0.0433811 -0.0554592 0.390053 0.962975 0.268406 -0.0252684
0.142146 -0.0176114 0.0243319 -0.0838382 0.995538 0.0433101
0.00432763 0.00432219 0.0977388 0.999979 0.0055514 0.00328987
-0.0307294 -0.0967594 0.864822 -0.730078 -0.635322 0.2517
0.0268153 -0.082295 0.253798 0.806247 -0.571784 -0.151751
0.0062365 -0.0233576 0.413234 0.087606 0.996155 0.000280259
0.00201454 -0.116127 0.667931 0.0867703 -0.996226 0.00226976
-0.0432347 -0.0794192 0.373428 -0.965354 -0.249571 -0.0761952
0.0460638 -0.0804379 0.419669 0.982658 -0.181674 -0.0371149
0.0208599 -0.0240328 0.658726 0.431315 0.897088 -0.0959199
0.2542 -0.0699507 0.482366 0.648214 -0.0441645 0.760177
0.0454585 -0.100486 0.582519 0.411023 -0.911421 0.0192565
0.0291067 -0.0523148 0.893764 0.793779 0.488047 0.36294
0.0244309 -0.0293035 0.59989 0.575576 0.817469 -0.021368
-0.274361 -0.072669 0.475531 0.396376 0.91384 -0.0882214
-0.141773 -0.0639856 0.548461 0.0666393 0.997702 -0.0122054
0.251057 -0.0582802 0.435104 -0.088858 0.99516 -0.0419644
0.259247 -0.0574669 0.46885 0.2687 0.87855 0.394904
-0.170252 -0.114019 0.574889 -0.585193 -0.80484 -0.0989043
-0.00427289 0.0315682 0.0756466 -0.999847 -0.00796416 -0.0155396
-0.0324065 -0.0316199 0.667884 -0.720475 0.688771 -0.0806853
-0.044599 -0.0768119 0.806523 -0.973024 -0.229977 0.0182714
-0.0443115 -0.0836322 0.671234 -0.972165 -0.231887 0.0335264
-0.114418 -0.0910061 0.560168 -0.144275 -0.988783 0.0386366
0.101833 -0.0666094 0.548264 -0.0648876 0.997806 -0.0131748
0.0420484 -0.0465148 0.655363 0.901019 0.43152 -0.0442113
0.0132725 -0.0249559 0.374845 0.26006 0.965592 -0.000816601
-0.0671095 -0.0253949 0.0808753 0.0580194 0.997486 0.0406756
-0.158547 -0.0877326 0.530003 -0.0426772 -0.972444 -0.229197
0.258073 -0.0731114 0.415628 0.101779 -0.99426 -0.0329818
0.0793263 -0.0955521 0.568959 0.127403 -0.991722 0.0160163
0.136933 -0.0885905 0.535837 0.127878 -0.991757 0.00812086
0.0307423 -0.103911 0.396023 0.645918 -0.76094 -0.0613178
0.174362 -0.063729 0.469352 -0.125822 0.984848 -0.119346
-0.0152272 -0.0242507 0.62565 -0.261932 0.964772 -0.0246357
0.00461471 -0.108302 0.326561 0.118004 -0.983587 -0.1365
0.370777 -0.0594154 0.361546 0.126488 -0.991966 0.00183679
-0.0457179 -0.0742111 0.73855 -0.973501 -0.228598 0.00624507
0.0261881 -0.034237 0.0743071 0.0294016 -0.998902 -0.0364852
-0.0110702 -0.027927 0.0695097 0.0416319 0.998797 0.0258939
-0.0862623 -0.0671999 0.581674 0.0621497 0.998019 -0.00974848
0.281841 -0.0659205 0.407082 0.116008 -0.776907 -0.618836
-0.016675 -0.0259778 0.448019 -0.424241 0.905549 -0.000859206
0.038188 -0.0848732 0.339066 0.899482 -0.425315 -0.100196
-0.00140511 -0.100705 0.277761 -0.113028 -0.974113 -0.195777
0.0401677 -0.0905703 0.727588 0.847551 -0.530685 0.00546176
-0.0464515 -0.0695588 0.701141 -0.996435 -0.0842717 0.00382468
0.0921126 -0.0667975 0.584624 -0.0633095 0.997937 -0.0106628
0.021334 -0.111425 0.627217 0.355841 -0.934279 0.0223858
-0.0137137 -0.0249144 0.260909 -0.505754 0.862652 -0.00659731
0.331083 -0.0641117 0.369541 0.102297 -0.994264 -0.03122
-0.16405 -0.0836623 0.558388 0.0297645 0.986431 0.161459
-0.0172318 -0.113559 0.545643 -0.328258 -0.944588 0.000213179
0.0276082 -0.0349507 0.119462 0.0649618 -0.997817 0.0118479
0.0201869 -0.107043 0.357399 0.423025 -0.900132 -0.10398
0.0378934 -0.0418916 0.607355 0.82554 0.564169 -0.0140162
0.0405981 -0.0525753 0.350524 0.962814 0.264328 -0.0558519
-0.197313 -0.0812322 0.480797 -0.127029 -0.991892 0.00383001
-0.134156 -0.0668696 0.571471 -0.227399 0.898255 0.37607
-0.0535803 -0.0248867 0.0324683 0.0699264 0.997405 0.017121
-0.0455006 -0.05195 0.735099 -0.973184 0.23001 -0.00297315
-0.00413894 0.103919 0.0464829 -0.999933 0.00630412 0.00966057
0.155658 -0.108567 0.551284 -0.937403 -0.289545 -0.193494
-0.0445621 -0.0338094 0.0876523 -0.0608621 -0.997774 -0.027266
-0.0468102 -0.0656028 0.459778 -0.991271 0.131735 -0.00529068
0.16178 -0.0904327 0.542061 0.0426772 -0.972444 -0.229197
-0.0418524 -0.100971 0.497452 -0.683382 -0.728078 -0.0537717
0.159414 -0.0721298 0.442216 -0.373574 0.52058 -0.76775
-0.0384214 -0.0548177 0.307908 -0.967412 0.244786 -0.0647682
-0.00423247 -0.0110127 0.187059 -0.995012 0.0993455 0.00906226
-0.0456894 -0.0689244 0.390836 -0.993774 0.0957425 -0.0569767
0.00313727 -0.0230897 0.499138 0.0880986 0.996112 -0.000295165
0.0235611 -0.0177051 0.750438 0.618457 0.78563 -0.0172224
-0.105695 -0.0923874 0.516812 -0.107657 -0.993798 -0.0278645
0.291976 -0.0726397 0.497065 0.40629 0.912114 -0.0545645
-0.242844 -0.0580239 0.47146 0.0750271 0.996963 -0.0208672
0.158699 -0.07856 0.516417 -0.75099 -0.53225 -0.3908
-0.0200965 -0.0161406 0.799432 -0.465244 0.884351 0.0383584
-0.0366965 -0.104794 0.593137 -0.471962 -0.881556 0.0105573
0.30457 -0.0547584 0.402761 -0.0909409 0.994972 -0.0419565
0.098355 -0.0219897 0.0465052 -0.0759737 0.996604 0.0317726
-0.0163445 -0.112833 0.733319 -0.465796 -0.884888 0.00280611
0.150632 -0.116057 0.608358 -0.779242 -0.610065 0.143537
-0.296764 -0.0670014 0.37713 -0.0408727 -0.991199 -0.125909
-0.0318445 -0.0718522 0.249542 -0.917733 -0.374625 -0.131994
-0.0611004 -0.0978996 0.571619 -0.131603 -0.99115 0.0173675
-0.360428 -0.0527779 0.340823 0.135479 0.985569 -0.101488
0.0306033 -0.108031 0.588415 0.401439 -0.915826 0.010506
-0.010048 -0.0245008 0.128034 -0.708542 0.704693 -0.0371008
-0.030546 -0.105297 0.65262 -0.590999 -0.804403 0.06046
0.0209424 -0.110395 0.73778 0.4662 -0.884675 0.00280494
-0.330216 -0.0644286 0.401497 -0.140183 -0.989929 0.0197067
-0.0334536 -0.0362027 0.619118 -0.709324 0.704669 -0.0173641
0.0022423 -0.011642 0.815855 0.0995277 0.994191 0.0409689
0.0455231 -0.0272612 0.0979979 -0.0301873 0.996978 0.0715837
-0.117438 -0.025594 0.0175902 -0.0545993 -0.992023 -0.113617
0.13534 -0.0195635 0.0440499 -0.0272138 0.993436 0.111103
0.0392263 -0.0443673 0.467614 0.821195 0.570646 -0.00142075
-0.0416121 -0.0657531 0.864157 -0.964065 -0.0351014 0.263337
-0.0436892 -0.0819824 0.752334 -0.926232 -0.376925 0.00469956
0.0309467 -0.0629123 0.226993 0.964094 -0.223359 -0.143644
0.012327 -0.0224747 0.641385 0.277941 0.958886 -0.0573192
-0.20997 -0.0609322 0.459166 0.0890292 0.995122 -0.0425009
-0.127035 -0.089398 0.493682 -0.10827 -0.993661 -0.0302458
-0.122711 -0.0684106 0.581691 -0.368152 0.749001 0.550873
-0.0413365 -0.0478256 0.542878 -0.902426 0.430843 -0.00100995
-0.185066 -0.0657069 0.443497 0.212676 0.925752 -0.312653
0.307278 -0.0672969 0.420087 0.138849 -0.990117 0.0197095
0.14937 -0.069591 0.456266 -0.211794 0.926364 -0.311437
-0.0623312 -0.068752 0.571073 0.0521408 0.998569 -0.0119164
0.0273541 -0.0424432 0.208669 0.925005 0.372608 -0.074359
-0.0909605 -0.0872629 0.615919 -0.423022 -0.78829 0.446823
-0.0198676 -0.110107 0.830057 -0.465482 -0.884247 0.0378662
0.00402199 0.0307706 0.11492 0.999583 0.0181307 0.0224782
0.0149152 -0.082151 0.212397 0.447981 -0.866235 -0.221247
0.0387594 -0.0910744 0.828643 0.8484 -0.529046 0.0180765
0.0326694 -0.10641 0.47044 0.545596 -0.837804 -0.0202586
-0.16614 -0.0842023 0.538779 -0.20165 -0.972657 0.115219
-0.0254284 -0.0309654 0.384475 -0.576625 0.8169 -0.0133371
-0.408535 -0.0497745 0.285906 -0.316669 0.948517 -0.00594785
0.0893808 -0.0935553 0.584527 0.147828 -0.987846 0.0480318
-0.0409056 -0.0754143 0.336414 -0.965858 -0.239038 -0.0998963
0.0468734 -0.0766757 0.433446 0.999489 -0.00375238 -0.0317279
-0.030553 -0.102998 0.385819 -0.676882 -0.731233 -0.0844377
-0.152498 -0.0864392 0.486273 -0.10537 -0.993972 -0.0302658
-0.2261 -0.0623351 0.423149 0.135649 0.983799 -0.117215
-0.0205206 -0.112377 0.499377 -0.339295 -0.940674 -0.00343019
0.0376925 -0.0342653 0.0890022 0.0608621 -0.997774 -0.027266
-0.00364904 0.0232767 0.0526695 -0.99705 -0.0308588 -0.0702766
0.0464878 -0.0657163 0.772337 0.996988 -0.0773746 0.00525849
-0.00199906 -0.0209938 0.264037 -0.122905 0.990993 0.0531604
-0.0251948 -0.0302865 0.533392 -0.57374 0.819033 -0.00252167
0.041609 -0.061181 0.863093 0.962712 0.0713677 0.260945
0.154053 -0.063374 0.546131 -0.00474187 0.997357 0.0725036
-0.0570916 -0.0696156 0.548768 0.0641189 0.997186 -0.0388372
0.00115422 -0.0154135 0.685829 0.0808182 0.987858 -0.132682
-0.289348 -0.0770912 0.499538 0.732514 -0.654373 0.187668
0.0179302 -0.10178 0.882874 0.430201 -0.841734 0.326205
-0.0461906 -0.0583683 0.64532 -0.952589 0.304246 -0.00277462
-0.0107626 -0.0746883 0.937755 -0.625861 -0.246704 0.739888
-0.0620863 -0.0966504 0.602534 -0.146494 -0.987753 0.0537017
-0.265752 -0.100674 0.4901 0.802668 -0.596384 0.00711151
-0.0245923 -0.0240874 0.676559 -0.592575 0.799373 -0.0992792
-0.195211 -0.0792575 0.437786 -0.0456456 -0.990731 -0.127944
0.111366 -0.0224812 0.0650513 -0.0115244 0.993747 0.111056
-0.0248961 -0.0301324 0.495552 -0.57431 0.818638 -0.000315658
-0.0751964 -0.0920699 0.621772 -0.215129 -0.963605 0.158694
0.0622949 -0.0685872 0.585037 -0.0521408 0.998569 -0.0119164
-0.174691 -0.096186 0.575749 -0.892384 0.445352 -0.0728847
-0.217717 -0.0595851 0.487218 0.0750271 0.996963 -0.0208672
-0.0291269 -0.100729 0.356875 -0.69737 -0.708973 -0.105034
0.0183492 -0.0287973 0.0362665 -0.16737 0.910112 -0.379057
0.0300754 -0.0365412 0.325235 0.716651 0.696927 -0.0265501
-0.0230767 -0.0372644 0.183414 -0.864284 0.499322 -0.0607477
0.124017 -0.0665423 0.499392 -0.0794247 0.996017 -0.040509
-0.214674 -0.0773869 0.510169 -0.198758 -0.97447 0.104416
0.26977 -0.0716249 0.406912 0.101779 -0.99426 -0.0329818
0.0203259 -0.110615 0.766977 0.466256 -0.884644 0.00332768
0.392054 -0.0545425 0.365991 0.616396 0.119516 0.778313
0.0269381 -0.0320712 0.382019 0.576625 0.8169 -0.0133371
0.0431247 -0.0581449 0.368707 0.969776 0.23907 -0.0487806
-0.0147576 -0.02832 0.145433 -0.708542 0.704693 -0.0371008
-0.00259174 -0.116233 0.527035 -0.0826672 -0.996577 -9.55697e-05
0.0109195 -0.114549 0.724204 0.290741 -0.9568 0.00176223
0.0218474 -0.0516799 0.151643 0.959994 -0.23222 -0.156479
0.113338 -0.0667014 0.516417 -0.0794247 0.996017 -0.040509
-0.106352 -0.0790975 0.460339 0.31604 0.495813 -0.808881
0.280329 -0.1012 0.452707 -0.00403704 -0.986962 -0.160905
0.087725 -0.0674349 0.55456 -0.0632595 0.997918 -0.0125607
-0.0190788 -0.0693083 0.179417 -0.732934 -0.649592 -0.202083
0.0486195 -0.0659335 0.605478 0.844227 0.53595 -0.00622118
-0.00365588 0.051684 0.0407525 -0.99689 -0.0292517 -0.0731714
0.33632 -0.063767 0.38834 0.126767 -0.991931 0.00183672
0.0042534 -0.00635117 0.078793 0.999561 0.0246395 -0.0164477
0.00418585 0.064732 0.0727603 0.999972 0.00412087 0.00618796
-0.160381 -0.121499 0.597793 -0.0137812 -0.999874 0.0079091
-0.0625314 -0.068693 0.611858 0.00715459 0.997872 0.0648112
0.058051 -0.0254048 0.0680588 -0.0583521 0.997477 0.0404401
0.0138775 -0.0817333 0.928333 0.695493 -0.529559 0.485651
-0.183407 -0.102283 0.599243 -0.982979 -0.183618 -0.00598158
0.0451515 -0.0578786 0.453086 0.961099 0.27619 -0.00283664
0.182 -0.106493 0.603865 0.955357 -0.287774 0.0669197
0.256367 -0.0738393 0.446815 0.125579 -0.992083 0.000986476
0.0445471 -0.0761712 0.817358 0.973054 -0.229855 0.0182338
0.026823 -0.108894 0.438429 0.46693 -0.883969 -0.0239868
0.00833758 -0.115157 0.787092 0.291037 -0.956707 0.00319343
0.171052 -0.10931 0.552735 0.87795 -0.450385 -0.162351
0.326131 -0.0529704 0.405896 -0.0837657 0.996096 -0.0278663
-0.0208972 -0.0354893 0.110899 -0.0649618 -0.997817 0.0118479
0.0336576 -0.0376632 0.407466 0.709107 0.70509 -0.00378471
0.00416117 0.0183434 0.0752358 0.999847 -0.00796415 -0.0155396
0.410647 -0.0528865 0.2985 0.850652 -0.525728 0.000954248
0.039144 -0.0464205 0.860321 0.927959 0.254884 0.271895
0.0435713 -0.0474831 0.822448 0.972913 0.229825 0.0249244
-0.011663 -0.113957 0.808721 -0.291319 -0.956553 0.0118167
0.203872 -0.06065 0.483194 -0.0710083 0.997356 -0.0154618
0.102971 -0.0726916 0.475236 -0.181901 0.933068 -0.310316
0.105611 -0.0925364 0.542068 0.127255 -0.991786 0.0128777
-0.0444442 -0.0477971 0.721307 -0.970244 0.241795 -0.0126803
0.232111 -0.0758724 0.491107 0.198689 -0.974494 0.104329
-0.0287157 -0.0297089 0.65333 -0.57283 0.81582 -0.0793935
-0.0123751 -0.0242101 0.23221 -0.516418 0.856334 0.00210607
0.0143661 -0.0708908 0.169264 0.600318 -0.771286 -0.21151
-0.0160152 -0.113898 0.591335 -0.223998 -0.974588 0.00200423
-0.0575778 -0.0323094 0.0640033 -0.0552564 -0.997692 -0.0394645
0.038698 -0.0931364 0.712413 0.853243 -0.521448 0.00827274
0.0341671 -0.099234 0.738009 0.749578 -0.661885 0.00649948
0.00922194 -0.115495 0.590751 0.232631 -0.972565 0.000399994
-0.0345768 -0.0282376 0.796344 -0.749133 0.661571 0.0335146
0.188462 -0.0823385 0.487135 0.126174 -0.992001 0.00382592
-0.00194313 -0.0975914 0.263161 -0.0691891 -0.974974 -0.211279
0.271487 -0.0568452 0.42498 -0.0909409 0.994972 -0.0419565
-0.096129 -0.0686974 0.506812 0.106575 0.987494 -0.116183
-0.278287 -0.0702063 0.396546 -0.0481692 -0.991926 -0.117315
-0.0320024 -0.10232 0.685435 -0.72679 -0.686306 0.0275668
-0.0410437 -0.0867119 0.820079 -0.920979 -0.389126 0.0194625
-0.0323776 -0.0362062 0.438857 -0.707242 0.706959 -0.00411198
-0.244126 -0.0749037 0.426335 -0.102771 -0.994158 -0.0329781
-0.329169 -0.0641088 0.365492 -0.0543925 -0.993033 -0.104528
0.33936 -0.0538153 0.358865 -0.139222 0.98404 -0.110825
0.0381645 -0.0894893 0.35845 0.899482 -0.425315 -0.100196
-0.0242781 -0.0180915 0.767367 -0.621978 0.782973 0.00986767
-0.375686 -0.0586929 0.36334 -0.145201 -0.989175 0.0211902
0.00974835 -0.111595 0.864001 0.16075 -0.97721 0.138638
0.00398975 0.08577 0.0306889 0.999558 -0.0129442 -0.0267784
0.0387693 -0.0381647 0.680454 0.826892 0.559334 -0.0582646
0.0300655 -0.102735 0.379635 0.676882 -0.731233 -0.0844377
0.16794 -0.0869508 0.529564 0.938462 -0.311312 -0.14958
-0.0420006 -0.0264246 0.0722252 0.0521449 0.998326 0.0250265
-0.26282 -0.0730381 0.431153 -0.125579 -0.992083 0.000986476
0.0208706 -0.0279139 0.471867 0.422231 0.906488 -0.000316746
-0.178243 -0.0888534 0.601863 -0.714303 0.699785 -0.00844709
-0.156793 -0.0835269 0.586987 0.169269 0.98516 -0.0284247
-0.0429414 -0.0495422 0.840785 -0.971247 0.229342 0.06388
0.000696067 -0.011204 0.727616 0.0987093 0.99212 -0.0771621
-0.291579 -0.0691741 0.436392 -0.138852 -0.990117 0.0197095
0.0460786 -0.0583124 0.630547 0.939266 0.343158 -0.00464545
-0.0113112 -0.115019 0.571923 -0.223998 -0.974588 0.00200423
-0.0198033 -0.0274743 0.415477 -0.424241 0.905549 -0.000859206
-0.0159058 -0.0907728 0.250716 -0.444906 -0.872443 -0.202242
0.0248383 -0.0476204 0.171349 0.991561 0.047388 -0.120673
-0.0174868 -0.113359 0.470666 -0.33931 -0.940666 -0.0039147
0.182981 -0.101383 0.581009 0.938336 0.340275 -0.0611522
-0.197339 -0.0639608 0.523738 -0.453764 0.650795 0.60874
-0.0387658 -0.0435906 0.558004 -0.818941 0.573876 -0.00134524
-0.00464392 -0.0917115 0.920471 -0.106667 -0.906652 0.408172
-0.0171113 -0.0508916 0.121944 -0.916232 -0.361257 -0.17324
-0.277062 -0.0707622 0.451868 -0.204583 -0.973276 0.104308
0.0453617 -0.0640299 0.834454 0.995372 -0.0784472 0.0555025
0.152254 -0.118123 0.595181 -0.679716 -0.730039 -0.0709158
0.0254281 -0.110476 0.493965 0.402241 -0.915527 -0.00340478
0.00192759 -0.0229421 0.529488 0.0880982 0.996106 -0.00326176
0.303911 -0.0591243 0.438366 0.541627 0.482825 0.688128
-0.0410767 -0.0405451 0.694713 -0.91467 0.402594 -0.0359991
0.350203 -0.059382 0.400958 0.647493 0.00211732 0.762069
0.00418029 0.0408804 0.095471 0.999984 0.00313495 0.00461871
-0.11164 -0.0699544 0.481219 0.11253 0.986846 -0.11607
0.290974 -0.0553704 0.421698 -0.0748741 0.996999 -0.0196743
-0.0828633 -0.0244402 0.0768329 0.0474735 0.996056 0.0749513
-0.0382532 -0.0914335 0.835965 -0.846762 -0.526851 0.0736371
0.0331682 -0.0997046 0.80743 0.74938 -0.661941 0.0162562
-0.0178802 -0.104137 0.325952 -0.431444 -0.892399 -0.132213
0.122799 -0.0879966 0.580302 0.210238 -0.967108 0.143185
0.0507071 -0.0713717 0.513458 0.165299 0.981008 -0.101483
-0.11235 -0.0278127 0.0672822 -0.269966 -0.93693 0.221993
-0.046696 -0.0661042 0.713557 -0.996435 -0.0842717 0.00382468
-0.298558 -0.0545749 0.430944 0.0773284 0.996787 -0.0208635
-0.0264018 -0.107579 0.664794 -0.601584 -0.798627 0.017046
0.0471547 -0.0729183 0.651334 0.990644 0.0223744 0.134627
0.16239 -0.117446 0.614954 -0.154994 0.98684 0.0460787
0.218994 -0.0604057 0.45259 -0.0890292 0.995122 -0.0425009
0.076489 -0.0962867 0.542813 0.109053 -0.993704 -0.0256921
-0.203547 -0.0657705 0.429661 0.239923 0.919804 -0.31048
-0.269911 -0.100168 0.506254 -0.732233 0.6548 0.187273
-0.0144754 -0.0339909 0.0581306 -0.0294016 -0.998902 -0.0364852
-0.320167 -0.0539383 0.388095 0.0910238 0.995021 -0.0405963
0.0424112 -0.0425899 0.712592 0.922992 0.384335 -0.0193048
-0.0797568 -0.0232315 0.0224958 0.113675 0.984041 -0.136901
0.0718267 -0.0708572 0.61813 0.179921 0.927077 0.328872
0.217536 -0.0596206 0.49824 -0.0030975 0.997313 0.0731976
-0.342892 -0.062876 0.389317 -0.140183 -0.989929 0.0197067
-0.00905423 -0.0148794 0.696008 -0.294113 0.947901 -0.1224
0.318301 -0.0541634 0.386758 -0.0910057 0.995024 -0.0405717
-0.0374011 -0.0331286 0.810836 -0.849711 0.52635 0.0307811
-0.222568 -0.0768991 0.42935 -0.047419 -0.990913 -0.125866
-0.00583103 -0.0200386 0.0966222 -0.911378 0.410975 -0.0221497
0.149636 -0.0816304 0.568866 0.429475 -0.795668 0.427157
0.0188101 -0.0300254 0.875872 0.542281 0.735772 0.405673
0.0954234 -0.0218566 0.0347018 -0.0802855 0.996368 0.0283819
0.21002 -0.0796539 0.468087 0.127027 -0.991892 0.00382873
-0.0371061 -0.0390739 0.646437 -0.834103 0.549195 -0.0515429
0.00316079 0.0152186 0.161367 0.99614 0.0670037 0.0567104
0.011734 -0.114947 0.523072 0.224064 -0.974574 -0.000195432
0.0797476 -0.0249966 0.0822543 -0.0474736 0.996056 0.0749513
-0.126231 -0.0197989 0.0430192 0.0546511 0.996002 0.0706674
-0.0379682 -0.0430245 0.410488 -0.827699 0.560961 -0.0153899
-0.0294641 -0.0891762 0.293798 -0.806247 -0.571784 -0.151751
-0.0724462 -0.0693027 0.530813 0.0756979 0.996353 -0.0393878
0.0061628 -0.0566419 0.934791 0.45811 0.677134 0.575868
-0.0461202 -0.0691089 0.791223 -0.996914 -0.0783146 0.00543219
0.0454965 -0.0994087 0.508999 0.40404 -0.911882 -0.0722728
0.139486 -0.0872212 0.475767 0.0566777 -0.990624 -0.124303
0.0386465 -0.0926927 0.757631 0.847958 -0.53004 0.00509657
-0.288384 -0.0748723 0.452401 -0.996496 0.0459871 -0.0698561
0.0459637 -0.0538526 0.739498 0.973184 0.23001 -0.00297315
-0.30425 -0.0676269 0.393183 -0.103465 -0.994143 -0.0312157
-0.00425913 0.0820658 0.0483038 -0.999933 0.00630412 0.00966057
0.00513787 -0.0197573 0.0759555 0.992538 0.120555 -0.0182908
-0.239284 -0.0734281 0.408369 -0.0456456 -0.990731 -0.127944
-0.0222104 -0.0694243 0.192729 -0.825308 -0.534674 -0.181635
-0.00327591 -0.010722 0.754679 -0.100071 0.994705 -0.0234209
0.0470035 -0.0616476 0.592067 0.95733 0.288974 -0.00356934
-0.182794 -0.0664726 0.537092 -0.444004 0.654674 0.61177
0.0169048 -0.0261018 0.43085 0.424241 0.905549 -0.000859205
-0.0261684 -0.108781 0.641282 -0.527614 -0.84761 0.0564049
-0.045925 -0.0581686 0.610109 -0.939266 0.343158 -0.00464545
0.0186824 -0.0282036 0.240611 0.657909 0.752701 -0.0244285
-0.075877 -0.096166 0.558386 -0.127403 -0.991722 0.0160163
0.0376806 -0.0326183 0.79107 0.850049 0.52663 0.00877656
0.0440288 -0.0552012 0.417478 0.962975 0.268406 -0.0252684
0.00416955 0.0950131 0.0496572 0.999964 0.00573671 0.00619144
-0.160999 -0.0823902 0.601332 0.169269 0.98516 -0.0284247
0.34551 -0.0626106 0.378552 0.126767 -0.991931 0.00183672
0.339931 -0.0524012 0.384398 -0.0759813 0.996915 -0.0196726
-0.000701178 -0.115299 0.402547 -0.087966 -0.995337 -0.0395878
0.400899 -0.0487298 0.336489 -0.0848866 0.995857 -0.0326197
-0.00704177 -0.0233902 0.382947 -0.0876969 0.996146 0.00175276
-0.118226 -0.0910409 0.531162 -0.127878 -0.991757 0.00812085
-0.255441 -0.0575829 0.445374 0.0737082 0.997128 -0.0173956
-0.399536 -0.0484846 0.347628 0.0863483 0.995766 -0.0315176
-0.0371681 -0.0952235 0.741102 -0.847398 -0.53093 0.0055999
-0.286436 -0.10408 0.507656 0.153134 0.975899 0.15547
0.118996 -0.0906414 0.505933 0.107657 -0.993798 -0.0278645
0.285556 -0.075515 0.472108 0.566729 0.82218 0.0532708
0.00808635 -0.0228996 0.603433 0.101623 0.994484 -0.0259837
-0.0245587 -0.0631725 0.913894 -0.897332 0.223305 0.380697
-0.0445515 -0.0482608 0.781373 -0.973232 0.2297 0.00764042
-0.0242145 -0.0192469 0.721326 -0.610061 0.790324 -0.0566941
-0.0533632 -0.082423 0.645663 -0.468711 0.6061 0.642614
-0.0363816 -0.0566378 0.277044 -0.993082 0.0806657 -0.0853336
-0.0733922 -0.0680505 0.577836 0.0632595 0.997918 -0.0125607
0.0653285 -0.0953421 0.614976 0.209807 -0.967202 0.143185
-0.0386251 -0.104078 0.519857 -0.545975 -0.837652 -0.0158126
0.0893961 -0.0302118 0.0635274 0.0738613 -0.996772 -0.031464
0.0386159 -0.0698637 0.302682 0.992543 -0.0836678 -0.0886424
0.00417302 0.0719605 0.0473432 0.999737 -0.00990018 -0.0206793
0.162543 -0.0881254 0.58082 -0.245669 0.963891 0.102767
-0.0354555 -0.103181 0.632924 -0.520814 -0.846728 0.108648
0.26789 -0.095555 0.507499 0.975885 0.153207 0.155484
-0.0325287 -0.0412242 0.301542 -0.832214 0.553167 -0.0377661
0.0876016 -0.0704516 0.499724 -0.106575 0.987494 -0.116183
-0.196263 -0.0799488 0.521645 -0.208847 -0.971148 0.115127
0.172086 -0.113346 0.580262 0.585193 -0.80484 -0.0989043
0.188272 -0.0808756 0.447558 0.0562966 -0.990194 -0.127851
-0.301062 -0.0934383 0.488805 -0.973124 -0.226587 0.0410926
0.366384 -0.0511051 0.353581 -0.0906761 0.995128 -0.0387116
-0.029118 -0.10892 0.567801 -0.401803 -0.915666 0.0105064
0.088554 -0.0671667 0.570932 -0.0642162 0.997849 -0.0131756
-0.217599 -0.0748875 0.417087 0.163001 -0.857691 -0.487644
-0.173882 -0.0694551 0.44 0.211794 0.926364 -0.311437
-0.369336 -0.0502598 0.374219 0.0467812 0.998683 0.0210776
0.396317 -0.0561539 0.342705 0.133844 -0.990976 0.00723829
0.00401416 -0.0501378 0.0662588 0.497507 -0.838381 -0.222721
0.00427849 0.0564015 0.062094 0.999799 -0.0104134 -0.0171584
0.246895 -0.0747737 0.469497 0.137857 -0.9902 0.0223658
-0.00987972 -0.0240169 0.436842 -0.260049 0.965595 -4.1158e-05
-0.0103383 -0.0273824 0.0818452 -0.712606 0.700458 -0.0393822
0.0338635 -0.0992197 0.793451 0.74951 -0.661981 0.00402525
0.00308259 0.0264824 0.149432 0.99614 0.0670037 0.0567104
0.00464685 -0.0219642 0.0579359 0.806094 0.589614 -0.0506728
0.0436271 -0.0964902 0.643744 0.571532 -0.811614 0.120975
-0.0356019 -0.0972944 0.786393 -0.749473 -0.662023 0.00403463
-0.122438 -0.0866917 0.586412 -0.420887 -0.799257 0.429001
0.0421281 -0.0993982 0.479657 0.683382 -0.728078 -0.0537717
0.130783 -0.0891367 0.498509 0.108268 -0.993662 -0.0302377
0.026535 -0.0313405 0.447142 0.574645 0.818399 -0.00247536
0.0209346 -0.0824285 0.230952 0.693301 -0.697234 -0.182205
0.0296179 -0.0885842 0.292385 0.806247 -0.571784 -0.151751
-0.149383 -0.109027 0.615387 -0.986839 0.155005 0.0460756
0.0811874 -0.0690435 0.520571 -0.0756979 0.996353 -0.0393878
0.0235757 -0.109589 0.410698 0.507482 -0.860302 -0.0484035
0.0451133 -0.0781174 0.692805 0.97227 -0.233752 0.00717014
0.0435298 -0.0521572 0.58353 0.901821 0.432094 -0.00364349
0.00431789 -0.0028774 0.0879159 0.999561 0.0246395 -0.0164477
0.046382 -0.0605943 0.5182 0.947663 0.319142 -0.00911002
-0.00343606 0.00703161 0.16798 -0.9885 0.134261 0.0695824
-0.046008 -0.0715556 0.776527 -0.996914 -0.0783146 0.00543219
0.369468 -0.055725 0.384359 0.638505 0.116812 0.760701
0.113286 -0.088531 0.47193 0.0680415 -0.989927 -0.124158
0.0106477 -0.113475 0.839954 0.289007 -0.956615 0.0369224
-0.271296 -0.0961965 0.458903 0.939515 -0.285273 -0.189553
0.0926045 -0.0918922 0.487707 0.0767266 -0.989923 -0.119015
0.0926574 -0.0286827 0.0875584 0.269966 -0.93693 0.221993
0.00421928 0.0123775 0.120031 0.999935 0.0114161 -0.000251646
-0.0432811 -0.0985808 0.483244 -0.683382 -0.728078 -0.0537717
0.0453448 -0.0748745 0.779856 0.973589 -0.228254 0.00487483
0.189587 -0.0613144 0.520102 -0.00412137 0.997309 0.0731901
-0.0303718 -0.0723358 0.899767 -0.933328 -0.0881561 0.348034
0.0966362 -0.0902478 0.603511 0.210238 -0.967108 0.143185
-0.237901 -0.0610122 0.420596 0.135649 0.983799 -0.117215
-0.0334751 -0.0405027 0.332749 -0.826072 0.562243 -0.0385815
0.19169 -0.0817379 0.468865 0.103131 -0.994133 -0.0326158
0.273221 -0.0785855 0.466142 -0.813684 0.567885 -0.124196
0.00368528 0.0980655 0.0646774 0.998648 0.0338715 0.0394354
-0.0682639 -0.0239586 0.0383892 0.0699713 0.997403 0.0170565
-0.396163 -0.0533017 0.308325 0.140882 -0.924387 -0.354488
-0.0603029 -0.0328971 0.0875093 -0.0557277 -0.997938 -0.0318574
0.0350428 -0.0335514 0.0649527 0.0518379 -0.997751 -0.0424942
0.158433 -0.0817318 0.559833 0.429475 -0.795668 0.427157
-0.00013651 -0.0205968 0.641439 -0.141138 0.98456 -0.103543
-0.0419282 -0.0525576 0.374006 -0.912548 0.406203 -0.0474885
-0.0997232 -0.0932675 0.543954 -0.127255 -0.991786 0.0128777
0.278263 -0.0585477 0.393298 -0.138321 0.984165 -0.11084
-0.00143696 0.0508849 0.134505 -0.943087 0.252714 0.216156
-0.0128213 -0.0240212 0.609075 -0.260069 0.965261 -0.0252202
-0.0571752 -0.0769133 0.485639 0.142071 0.938356 -0.315125
0.266233 -0.0624685 0.390137 -0.246911 0.924552 -0.290239
-0.106936 -0.0751996 0.60052 -0.490684 0.548175 0.677299
-0.207344 -0.0628215 0.440705 0.136193 0.98349 -0.119156
0.00324062 -0.030206 0.0259828 0.901306 -0.0122206 -0.433011
-0.0134789 -0.03226 0.884442 -0.394496 0.798256 0.455149
-0.107688 -0.0215517 0.0517454 0.0671866 0.996763 0.044162
0.0241558 -0.0194291 0.718155 0.610061 0.790324 -0.0566941
-0.135927 -0.0665577 0.486186 0.11518 0.986242 -0.11858
0.0176206 -0.0263914 0.496744 0.422231 0.906488 -0.000316746
0.0968874 -0.0262363 0.0183405 0.00270864 -0.951476 -0.307711
0.269772 -0.0930817 0.461764 -0.939482 -0.285391 -0.18954
0.171779 -0.0626881 0.496217 -0.0851968 0.995456 -0.042518
0.0231813 -0.0575179 0.912796 0.756461 0.499253 0.422509
-0.129838 -0.0743896 0.454382 0.181901 0.933068 -0.310316
0.31909 -0.0647946 0.424281 0.430309 -0.811126 0.396118
-0.0127909 -0.114077 0.695008 -0.280892 -0.959734 0.00325771
0.0611589 -0.0977651 0.533111 0.11308 -0.99328 -0.0246311
0.152899 -0.0647571 0.485195 -0.0841388 0.995589 -0.041509
-0.0231216 -0.032795 0.232578 -0.763641 0.644369 -0.0405201
1.05333e-06 -0.10832 0.87909 0.107799 -0.934815 0.338379
-0.193895 -0.0756826 0.426487 0.167406 -0.853517 -0.493441
-0.221812 -0.0771788 0.498663 -0.208847 -0.971148 0.115127
0.030181 -0.0423388 0.245967 0.915757 0.398035 -0.0543686
0.0151719 -0.113329 0.710039 0.280892 -0.959734 0.00325772
0.347329 -0.0536303 0.350029 -0.135525 0.985555 -0.101562
-0.158042 -0.0631394 0.543168 0.0047544 0.997357 0.0725035
-0.04636 -0.0613485 0.489493 -0.947663 0.319142 -0.00911002
0.00195712 -0.0229951 0.464479 0.0881866 0.996104 -0.000282634
0.247963 -0.0577701 0.465184 -0.0750271 0.996963 -0.0208672
-0.0238916 -0.0760589 0.220497 -0.809531 -0.558512 -0.180897
0.280559 -0.0697135 0.443433 0.0540732 0.985672 0.159773
0.00166408 0.0847537 0.0144406 0.921033 -0.144579 -0.361656
0.200037 -0.0614011 0.468995 -0.0890292 0.995122 -0.0425009
0.00129249 -0.0645 0.121708 0.103477 -0.966747 -0.233863
0.301895 -0.0865277 0.498068 0.925661 0.374212 -0.0558256
-0.262398 -0.072037 0.405617 -0.0408727 -0.991199 -0.125909
0.00367658 0.0764597 0.0862438 0.999021 0.0316612 0.0308818
-0.00359916 0.0585033 0.107076 -0.99945 0.0241396 0.0227254
-0.00256246 -0.0106534 0.778004 -0.100092 0.994919 0.0108246
-0.00628274 -0.11592 0.483397 -0.0834772 -0.99651 -0.00019983
-0.0466617 -0.0616807 0.520795 -0.96928 0.244856 -0.0232623
0.0271727 -0.109775 0.511636 0.402241 -0.915527 -0.00340478
-0.0739605 -0.0776626 0.475675 0.160862 0.937246 -0.309344
0.280008 -0.0557068 0.445619 -0.0773284 0.996787 -0.0208635
-0.155316 -0.11913 0.580228 0.73084 -0.663825 -0.158774
0.0379956 -0.0336863 0.72074 0.846752 0.531118 -0.0304037
0.269901 -0.063707 0.468214 0.559832 0.429393 0.708667
0.149754 -0.063954 0.51158 -0.0677367 0.9976 -0.0143738
0.0423307 -0.0850818 0.771514 0.926233 -0.376923 0.00469884
-0.112287 -0.0657026 0.566489 0.063964 0.997895 -0.0106633
0.169607 -0.0854456 0.55553 0.994856 0.057641 -0.0832976
0.028393 -0.0957254 0.32196 0.730947 -0.670877 -0.125061
-0.155987 -0.0836281 0.45466 -0.0562966 -0.990194 -0.127851
0.0286254 -0.0281194 0.668168 0.592576 0.799373 -0.0992792
-0.0963128 -0.0705679 0.490745 0.106575 0.987494 -0.116183
-0.0657404 -0.0682503 0.598225 0.0494861 0.998727 -0.00973314
-0.214705 -0.0645098 0.424773 0.239923 0.919804 -0.31048
-0.0465288 -0.0612567 0.672353 -0.996566 0.0827782 -0.002143
-0.0898023 -0.0224619 0.0400503 0.0802855 0.996368 0.0283819
-0.0188521 -0.108127 0.361355 -0.423025 -0.900132 -0.10398
0.0418637 -0.0340676 0.114082 0.0807245 -0.996648 0.0133109
-0.148936 -0.0641586 0.50756 0.0851968 0.995456 -0.042518
-0.00291123 -0.00331066 0.0515555 -0.959783 -0.0955588 -0.263978
-0.269186 -0.0568107 0.431623 0.0748742 0.996999 -0.0196743
0.0330172 -0.029455 0.837945 0.747534 0.659707 0.0773341
-0.0464436 -0.0601157 0.569969 -0.94271 0.333592 -0.00377028
0.0809852 -0.077382 0.62105 0.460216 0.599745 0.654605
0.0453423 -0.0803754 0.407422 0.971971 -0.228879 -0.0537299
0.00384608 0.113621 0.0148958 0.998019 -0.00970174 -0.0621631
-0.00179254 0.0996099 0.00936149 -0.880354 -0.156246 -0.447843
-0.320528 -0.0653151 0.373283 -0.102297 -0.994264 -0.03122
-0.0273672 -0.0241811 0.692864 -0.608154 0.788317 -0.0932997
0.0128972 -0.0150259 0.835129 0.288918 0.953413 0.0867703
0.0147651 -0.0663206 0.15416 0.739489 -0.642757 -0.200049
-0.0220524 -0.110131 0.40735 -0.408177 -0.911608 -0.0486041
0.0467278 -0.062437 0.729632 0.996717 0.0809448 -0.00158686
0.407992 -0.0492773 0.326754 0.392821 0.919002 -0.0335623
0.286462 -0.0754781 0.507682 -0.522394 -0.851057 -0.0529692
0.125633 -0.068074 0.483573 -0.11518 0.986242 -0.11858
0.0414587 -0.0390055 0.761115 0.924805 0.380405 -0.00530321
0.146849 -0.0925527 0.611248 -0.952404 0.243638 0.183214
0.0455418 -0.0577424 0.554495 0.94271 0.333592 -0.00377028
