-0.0776827 -0.0479143 0.148497 -0.0627762 -0.802851 0.592865
0.160508 -0.0944803 0.439059 0.0420947 -0.989673 0.137024
0.224225 -0.102306 0.474412 -0.067709 0.997587 0.0153553
-0.0163666 -0.0947503 0.485881 0 0.999882 -0.015388
-0.00127987 -0.0498774 0.371279 0.32032 0.94726 0.00967038
-0.157039 -0.107512 0.442648 0.301343 -0.953392 -0.015355
-0.0358121 -0.0445872 0.246243 -0.97733 0.087588 -0.192755
0.00312748 -0.0131271 0.083919 -0.996027 0.0381822 0.0804495
0.0701166 -0.107628 0.519145 0 0.983364 -0.181646
0.0296119 -0.0136445 0.30483 0.453396 0.879413 -0.145141
-0.154584 -0.107764 0.567549 0.330336 -0.943345 0.0312814
0.0529751 -0.0803622 0.390119 0.997908 -0.0389535 -0.0515908
0.0213057 -0.00536922 0.354055 0.0807833 0.995488 -0.0497748
-0.0401612 -0.0903381 0.301923 -0.410002 -0.888925 -0.204231
-0.22362 -0.0931287 0.429433 0.0420947 0.989673 -0.137024
0.153535 -0.0690529 0.596713 -0.294359 0.954051 0.0560335
-0.0323268 -0.106647 0.577551 -0.0390006 -0.999234 -0.00326585
0.0376421 -0.0994118 0.659781 0.770345 -0.617742 0.157999
-0.461507 -0.0852587 0.509716 -0.067041 -0.981175 0.181112
0.0448537 -0.0427887 0.11469 -0.0135649 -0.999789 0.0154144
0.163847 -0.0737917 0.487227 -0.0410039 0.992637 -0.113972
-0.0712567 -0.0950678 0.465256 0 0.999882 -0.015388
-0.00646258 -0.0395946 0.176556 0.999906 -0.0103282 0.00897253
0.475556 -0.077223 0.507604 0.0484451 -0.982237 -0.181281
-0.0516907 -0.0814643 0.365956 -0.99787 -0.0398302 -0.0516578
-0.0267306 -0.0477058 0.202017 -0.971614 0.0823081 -0.221792
-0.0393314 -0.0992115 0.649605 -0.775878 -0.622179 0.104435
-0.0504196 -0.087463 0.576435 -0.996553 -0.0539375 0.0630258
-0.0408015 -0.0131048 0.547985 -0.469112 0.854748 0.222124
0.0526395 -0.0343585 0.420819 0.996279 0.0861188 -0.00335423
0.146564 -0.0490795 0.139577 -0.0256146 0.983085 -0.181348
0.178799 -0.109712 0.525598 0.0457218 -0.998404 -0.033153
0.0169542 -0.0468667 0.667208 0.100201 0.993269 0.0581143
0.0278244 -0.00168837 0.524284 0.0844288 0.99643 0
0.193546 -0.0693387 0.540004 0.330335 0.943344 -0.0313203
-0.123186 -0.0464155 0.0919889 -0.0177432 0.990397 -0.137107
0.00846465 -0.0987791 0.740703 0.123044 -0.981423 0.147206
0.0270157 -0.0470135 0.203582 0.971241 0.0870423 -0.221616
8.64951e-05 -0.0493118 0.276346 -0.32032 0.94726 0.00967038
-0.224979 -0.0991435 0.519066 -0.0646597 -0.802869 0.592639
-0.0264546 -0.0470328 0.0750123 -0.0177432 0.990397 -0.137107
2.4039e-05 -0.00109451 0.237392 0.676055 0.736818 0.00694453
-0.179234 -0.091191 0.489243 0.0502635 0.998468 0.0231289
-0.000486833 -0.0538704 0.734367 -0.12202 0.973253 0.194653
-0.00504686 0.0448552 0.115481 0.999465 -0.029807 -0.0134593
-0.0836741 -0.102805 0.398708 0 -0.990551 -0.137144
0.191671 -0.0683491 0.588543 0.0438226 0.998931 0.0146841
0.00151124 -0.0567235 0.111392 0.0381496 -0.980298 -0.193803
0.111417 -0.0464676 0.09009 -0.0177432 -0.990397 0.137107
0.0425103 -0.100402 0.619766 0.784589 -0.611066 0.104971
0.0427436 -0.109612 0.5084 0 0.983391 -0.1815
-0.162507 -0.0691342 0.529947 0.0457195 0.998404 -0.0331462
0.370067 -0.0816769 0.489863 0.0497056 -0.998645 0.0154126
-0.17211 -0.0815842 0.442725 0.0328033 0.982085 -0.185564
0.28185 -0.0861241 0.486212 0.0497056 -0.998645 0.0154126
0.327469 -0.095502 0.487629 -0.067709 0.997587 0.0153553
-0.321513 -0.0872305 0.44196 0.0420947 0.989673 -0.137024
0.153261 -0.105849 0.591793 -0.317167 -0.946713 0.0560324
-0.0257644 -0.0949649 0.471941 0 0.999882 -0.015388
0.12443 -0.108882 0.503574 -0.0670851 0.996692 -0.045867
0.0485347 -0.0724535 0.325274 0.993961 -0.0406023 -0.101947
-0.426455 -0.0790969 0.475183 0.0497056 0.998645 -0.0154126
-0.0163046 -0.0201272 0.233154 -0.0792018 0.988474 -0.129017
0.00582382 -0.00317824 0.163248 -0.999457 -0.0300846 -0.0134477
-0.131588 -0.101896 0.404593 -0.0741987 -0.987821 -0.136766
-0.0463447 -0.0278938 0.318605 -0.843049 0.525971 -0.112349
-0.0241602 -0.088496 0.744093 -0.759559 -0.603425 0.242795
-0.115989 -0.094427 0.491499 0.0502635 0.998468 0.0231289
0.0329224 -0.0819347 0.2523 0.421165 -0.8783 -0.226294
-0.136521 -0.108397 0.483393 -0.067709 -0.997587 -0.0153553
0.0757841 -0.0951006 0.463124 0 -0.999882 0.015388
0.439241 -0.0878375 0.499807 -0.0671352 0.997476 -0.0231065
0.0228235 -0.0369749 0.188962 0.972007 0.0823414 -0.22005
-0.0385866 -0.0631255 0.69248 -0.977084 0.185023 0.105233
-0.0734927 -0.0959839 0.511204 0 0.983372 0.181602
0.0139625 -0.00221178 0.533904 0.0818925 0.966496 0.243267
0.0702338 -0.110149 0.497219 0 0.999732 -0.0231587
-0.0527342 -0.0359193 0.414799 -0.996426 0.0844046 -0.00328746
0.0296814 -0.0667492 0.729321 0.940895 0.17817 0.288049
0.260071 -0.0872451 0.483814 0.0497056 -0.998645 0.0154126
0.152582 -0.100372 0.393075 -0.375302 -0.91345 -0.157347
0.188891 -0.0930581 0.440612 0.0420947 -0.989673 0.137024
-0.182415 -0.104502 0.600799 -0.0389712 -0.967203 0.250996
-0.0248795 -0.10702 0.527306 -0.0382083 -0.99927 0
-0.0278901 -0.00169393 0.448297 -0.0844288 0.99643 0
0.0541233 -0.0587986 0.486542 0.999269 -0.038227 0
0.309368 -0.0882453 0.438362 0.0420947 -0.989673 0.137024
0.0309438 -0.0969917 0.436855 0 -0.990551 0.137146
-0.0537346 -0.0689592 0.48101 -0.999269 -0.038227 0
0.0401685 -0.0651555 0.680762 0.980839 0.164321 0.104659
0.162347 -0.108044 0.479728 -0.0411659 -0.99912 -0.00799595
-0.00549997 0.00204308 0.11721 0.999906 -0.0103282 0.00897253
-0.0525491 -0.032743 0.507357 -0.996432 0.084405 0
0.0181817 -0.0424882 0.620202 0.0688409 0.992677 0.0992677
-0.00571876 0.00638121 0.150791 0.999465 -0.029807 -0.0134593
0.143536 -0.0815785 0.502604 -0.99193 0.113131 -0.0572305
0.0510298 -0.0686816 0.58668 0.984899 0.126343 0.118369
-0.0415387 -0.076752 0.279204 -0.984839 -0.0412131 -0.168505
-0.0393854 -0.10266 0.628013 -0.371475 -0.92626 0.0636267
-0.194741 -0.0693597 0.598643 -0.294359 0.954051 0.0560335
-0.143059 -0.101906 0.530656 0.753151 -0.657487 0.0218023
0.0293462 -0.0426656 0.141886 -0.016292 -0.998788 -0.0464463
0.385616 -0.0812553 0.467016 0.0497036 -0.998646 0.015369
0.204177 -0.0981015 0.501381 0.992415 -0.113269 -0.0477724
-0.00537884 -0.028869 0.583251 -0.0407746 0.728722 0.683594
-0.198206 -0.103883 0.431701 -0.637983 -0.764214 -0.094631
-0.0528148 -0.0513534 0.113741 -0.0135707 -0.999789 -0.0154144
0.106307 -0.106829 0.427777 0 0.990551 0.137144
0.0666429 -0.102394 0.397834 0 -0.990551 0.137146
0.0039587 0.0501278 0.0641887 -0.996027 0.0381822 0.0804495
-0.185479 -0.075228 0.478609 -0.0405587 0.981805 -0.185512
0.00568686 -0.0931464 0.294202 0.0342438 -0.984049 -0.17457
-0.00456516 -0.0591485 0.12429 -0.0381459 -0.980203 -0.194288
-0.245659 -0.10088 0.476276 -0.067709 -0.997587 -0.0153553
0.0531912 -0.0832076 0.43405 0.999269 -0.038227 0.000273304
0.018764 -0.0200004 0.235641 0.0765086 0.988722 -0.128746
-0.381186 -0.091684 0.476458 -0.0677128 -0.997586 -0.0153874
0.0219193 -0.0970312 0.516875 0 -0.983369 -0.181617
-0.335752 -0.089072 0.520333 0.0298449 0.804184 0.59363
0.46915 -0.081563 0.440867 -0.0741946 0.987824 0.136744
-0.0832301 -0.109454 0.446731 0 -0.990551 -0.137144
-0.000339545 0.00296134 0.0459704 0.996266 0.0312934 0.0804687
-0.00291065 -0.109835 0.4539 0 -0.999882 -0.0153906
0.0209809 -0.10606 0.385545 0.0373031 -0.994346 -0.0994208
-0.34223 -0.0832395 0.478392 0.0497056 0.998645 -0.0154126
-0.00734361 -0.0726498 0.188585 -0.0373768 -0.978166 -0.204439
-0.0428368 -0.00930414 0.434685 -0.485477 0.873356 -0.0395186
-0.110553 -0.110056 0.476699 -0.067709 -0.997587 -0.0153553
-0.376468 -0.0815963 0.502389 0.0502242 0.997683 0.0458978
0.233781 -0.0904558 0.445617 0.0420947 -0.989673 0.137024
0.00434846 0.0772717 0.0929196 -0.999457 -0.0300846 -0.0134477
0.116521 -0.0505646 0.118662 -0.0135707 0.999789 0.0154144
-0.157756 -0.0983711 0.383095 0.464006 -0.233494 -0.854505
-0.283593 -0.0984264 0.494928 -0.0671352 -0.997476 0.0231065
0.280301 -0.0933494 0.520879 -0.0646565 0.802812 -0.592717
0.0463095 -0.0453802 0.305024 0.982111 0.0915168 -0.164566
-0.0502684 -0.0792494 0.590879 -0.995853 -0.0891875 0.0179254
0.222179 -0.0968226 0.522515 -0.0646565 0.802812 -0.592717
-0.0353398 -0.1031 0.361082 -0.0373053 -0.994415 -0.0987237
-0.0968767 -0.0433023 0.12902 -0.014924 0.999624 0.0229921
-0.0580985 -0.107349 0.431529 0 -0.990551 -0.137144
0.0173654 -0.107293 0.587884 0.0390008 -0.999239 0
0.0369181 -0.0143589 0.325339 0.46546 0.876307 -0.124225
-0.0449156 -0.0390026 0.300238 -0.98215 0.0915204 -0.164336
0.183021 -0.0445356 0.126722 -0.0149229 -0.999625 -0.0229782
-0.00373844 -0.00433088 0.200914 -0.913425 0.33149 0.236154
-0.200059 -0.0917098 0.512474 0.0484451 0.982237 0.181281
-0.0376243 -0.0321041 0.261372 -0.977303 0.0905712 -0.191511
0.176538 -0.0876066 0.414095 0.0158984 0.972421 -0.23269
-0.191627 -0.10763 0.468768 -0.247348 -0.968828 -0.0138682
-0.00758459 -0.0472121 0.15687 -0.0627762 -0.802851 0.592865
-0.00375689 0.108076 0.0416094 0.999898 -0.00630691 0.0128226
-0.442516 -0.0872736 0.50583 -0.0670402 -0.98117 0.181138
0.0563505 -0.103327 0.526091 0 0.804495 -0.59396
0.0145311 -0.107415 0.483831 0.0382088 -0.99927 0
-0.00295704 -0.10786 0.409247 -0.0374885 -0.999297 0
0.0559136 -0.0482791 0.0863842 -0.017738 0.990397 0.13711
0.167045 -0.0921063 0.468804 0.0497036 -0.998646 0.015369
0.0511105 -0.0403305 0.557887 0.992346 0.0868732 0.0877682
-0.0935507 -0.096938 0.51637 0 0.983369 0.181617
-0.00726089 -0.106168 0.684873 -0.0597575 -0.996967 0.0498518
-0.191979 -0.107832 0.567226 -0.0456184 -0.99841 0.0331073
-0.148182 -0.0868231 0.614787 0.0555904 -0.0042487 -0.998445
0.294942 -0.0946482 0.517523 -0.0646597 0.802869 -0.592639
0.370723 -0.0857726 0.517621 0.0298449 -0.804184 -0.59363
0.0091277 -0.095193 0.457119 0 -0.999882 0.015388
-0.0459235 -0.0131276 0.480293 -0.869828 0.493355 0
-0.0139037 -0.0415979 0.613461 -0.0691471 0.997092 -0.0320319
0.0534045 -0.0775873 0.479238 0.999269 -0.038227 0
-0.0232987 -0.107061 0.596448 -0.0390006 -0.999234 -0.00326585
0.080753 -0.0433372 0.110708 -0.0135649 -0.999789 0.0154144
0.00323795 -0.0316388 0.341823 0.999845 -0.00432219 0.0170706
-0.0341575 -0.0998524 0.338602 -0.03614 -0.985034 -0.168527
-0.181264 -0.0787654 0.458966 -0.0405587 0.981805 -0.185512
0.146463 -0.105472 0.540722 -0.753151 -0.657487 0.0218023
-0.254378 -0.0900976 0.441877 0.0420947 0.989673 -0.137024
-0.197942 -0.0700977 0.563516 -0.330335 0.943344 -0.0313203
-0.165953 -0.0964949 0.422836 0.0420947 0.989673 -0.137024
-0.0305162 -0.0692304 0.221106 -0.973658 -0.0394068 -0.224581
-0.000297489 -0.0433914 0.0634758 0.996266 0.0312934 0.0804687
0.143691 -0.0446642 0.10729 -0.0177398 -0.99039 0.137162
-0.0474165 -0.0426003 0.12918 -0.0135737 0.99979 -0.0153315
0.416033 -0.0892286 0.470619 -0.0677128 0.997586 0.0153874
0.268678 -0.0924876 0.420222 0.0420947 -0.989673 0.137024
-0.00357654 -0.0163202 0.31275 -0.999831 0.00959994 0.0156867
0.358291 -0.0918515 0.455038 -0.0741987 0.987821 0.136766
0.443154 -0.0783513 0.469635 0.0497036 -0.998646 0.015369
-0.131268 -0.0936037 0.489159 0.0502635 0.998468 0.0231289
-0.145239 -0.0979968 0.604264 0.570925 -0.565321 0.595363
-0.023912 -0.0422891 0.128664 -0.0135649 0.999789 -0.0154144
0.0373899 -0.00608946 0.437183 0.492921 0.869185 -0.0393299
-0.0356311 -0.106619 0.424063 -0.0382083 -0.99927 0.000643829
0.392233 -0.0829722 0.450992 0.0420943 -0.989676 0.137001
0.0438523 -0.0112697 0.403694 0.492921 0.869185 -0.0393299
0.00138149 0.0759575 0.0253516 -0.992423 0.0445336 0.114515
-0.0425026 -0.0610765 0.652925 -0.979757 0.16414 0.114608
-0.180784 -0.109465 0.53344 -0.0457218 -0.998404 0.033153
0.048114 -0.100544 0.54627 0.885265 -0.464137 0.0297189
-0.0542602 -0.052943 0.446399 -0.996432 0.084405 0
-0.0215276 -0.0102109 0.315171 -0.0762003 0.989439 -0.123303
0.17862 -0.104067 0.603065 0.0389125 -0.965747 0.25655
-0.0174353 -0.00230173 0.41009 -0.0826249 0.995396 -0.0485744
0.00236253 -0.00463262 0.283421 0.927511 0.373775 0.00400793
-0.159316 -0.0441775 0.125398 -0.0135737 0.99979 -0.0153315
-0.223557 -0.0890222 0.49194 0.0502635 0.998468 0.0231289
0.161778 -0.0678231 0.570441 -0.0457145 0.998405 -0.0331462
0.0217962 -0.0731319 0.199721 0.437971 -0.863275 -0.250873
-0.0358045 -0.110305 0.490482 0 -0.999732 0.0231587
0.205787 -0.103648 0.480284 -0.067709 0.997587 0.0153553
0.035578 -0.0978996 0.327853 0.422128 -0.888505 -0.179908
-0.00688475 -0.0104845 0.558323 -0.0648487 0.874998 0.479763
0.0639918 -0.106984 0.428891 0 0.990551 0.137144
0.0415249 -0.0594383 0.274881 0.984812 -0.041212 -0.168662
0.19921 -0.104154 0.445312 0.64084 -0.767636 -0.00765647
0.0526886 -0.0343898 0.505828 0.996432 0.084405 0
-0.157556 -0.0937592 0.512221 0.0484414 0.982218 0.181389
-0.0532338 -0.0489525 0.539224 -0.994825 0.0842689 0.056762
0.107722 -0.105901 0.522605 0 0.804495 -0.59396
-0.00605237 -0.0230516 0.149884 0.999906 -0.0103282 0.00897253
-0.450153 -0.080566 0.450578 0.0420943 0.989676 -0.137001
0.0577448 -0.0507634 0.142996 -0.025614 0.983074 -0.18141
0.189952 -0.0909225 0.500946 0.0502637 -0.998468 -0.0231196
0.0130033 -0.000432558 0.510197 0.0844288 0.99643 0
0.135304 -0.097684 0.423664 0.0420947 -0.989673 0.137024
-0.142861 -0.083098 0.510442 0.992092 0.11315 -0.0543163
-0.0106251 -0.0963424 0.313279 -0.0342714 -0.984855 -0.16996
-0.246793 -0.0986496 0.516647 -0.06704 -0.981152 0.181237
0.244285 -0.088682 0.455203 0.0420943 -0.989676 0.137001
-0.145704 -0.0932678 0.46235 0.0497036 0.998646 -0.015369
-0.021182 -0.0456922 0.178147 -0.981419 0.0831387 -0.17293
0.153327 -0.0802583 0.458222 -0.243288 0.954264 -0.173754
0.206214 -0.0894325 0.580978 0.993548 -0.113382 0.00282306
0.0546774 -0.11006 0.468467 0 0.999882 0.0153906
0.000277521 -0.107954 0.657028 0.0598319 -0.998208 0
-0.0249273 -0.00459327 0.376039 -0.0807884 0.995551 -0.0484914
0.173413 -0.100822 0.38718 -0.0102149 -0.983934 -0.178238
0.109183 -0.10993 0.462467 -0.067709 0.997587 0.0153553
0.0399255 -0.0855472 0.688846 0.968881 -0.208094 0.134041
0.0144752 -0.0647702 0.756734 0.424151 0.81026 0.404444
0.0418491 -0.101982 0.370642 0.434923 -0.894781 -0.101036
0.318486 -0.0957435 0.46373 -0.0677128 0.997586 0.0153874
-0.0193416 -0.0482122 0.686057 -0.0833889 0.994892 0.0568866
0.0542175 -0.0570671 0.408884 0.999238 -0.0390055 0.000975114
0.00465874 -0.031398 0.253971 0.970681 -0.240241 -0.00790301
0.0194889 -0.0444251 0.0929477 -0.0177432 -0.990397 0.137107
-0.364532 -0.0920131 0.459591 -0.0741987 -0.987821 -0.136766
0.14135 -0.0869395 0.568949 -0.993552 0.113317 -0.00376204
-0.0506593 -0.0457881 0.345402 -0.991227 0.0896646 -0.0971012
0.000797966 -0.00246042 0.378947 0.0807833 0.995488 -0.0497748
0.0252638 -0.0424535 0.119196 -0.0135649 -0.999789 0.0154144
-0.0416947 -0.00839212 0.511893 -0.493303 0.869858 0
-0.297847 -0.0883199 0.517408 0.0298419 0.80416 0.593664
0.0513557 -0.0952292 0.505653 0 -0.998944 -0.0459558
-0.0272559 -0.0681419 0.73812 -0.939648 0.1841 0.288391
0.018795 -0.00360924 0.3856 0.0826251 0.995398 -0.0485353
-0.128194 -0.0969055 0.43147 0.0420947 0.989673 -0.137024
0.265129 -0.098651 0.509855 -0.0670409 0.981179 -0.181092
0.0366097 -0.0459877 0.598673 0.350432 0.935941 0.0347992
-0.392375 -0.0827119 0.452829 0.0420943 0.989676 -0.137001
-0.215972 -0.103025 0.484726 -0.067709 -0.997587 -0.0153553
-0.000740869 -0.10794 0.576738 -0.0414179 -0.999142 0
0.0306464 -0.0100301 0.55299 0.433123 0.789173 0.435444
0.0818508 -0.106613 0.426217 0 0.990551 0.137144
-0.0819532 -0.0948172 0.481537 0 0.999882 -0.015388
0.00352025 0.0708587 0.0489213 -0.996027 0.0381822 0.0804495
0.0393029 -0.028309 0.278737 0.836802 0.522074 -0.164931
-0.0287043 -0.04063 0.594185 -0.264601 0.706702 0.65617
0.0458316 -0.0167804 0.377722 0.859394 0.508566 -0.0529404
-0.0116298 -0.101393 0.7213 -0.122966 -0.980797 0.151383
-0.00618272 -0.0289526 0.194589 0.999465 -0.029807 -0.0134593
0.151917 -0.089387 0.618764 -0.0471571 -0.0318908 0.998378
-0.0532816 -0.0808 0.448853 -0.999269 -0.038227 0
0.0499562 -0.0939091 0.575555 0.8593 -0.511384 0.00948576
0.0932511 -0.0947896 0.49118 0 -0.999732 -0.0231582
0.19268 -0.105619 0.430156 0.245366 -0.961067 -0.12707
0.00536657 0.0214 0.120283 -0.999912 -0.00975077 0.00897259
0.0136985 -0.0815023 0.232777 0.0354801 -0.981487 -0.188216
-0.0863774 -0.110236 0.49345 0 -0.999732 0.0231587
0.00234292 -0.0957817 0.510109 0 -0.983372 -0.181602
0.163305 -0.10844 0.559403 -0.045616 -0.99841 0.0331073
0.197946 -0.0763353 0.48488 0.299304 0.947031 -0.116406
-0.00432249 0.038561 0.142814 0.986728 -0.122768 -0.106279
0.203841 -0.0862409 0.606325 0.814316 -0.10541 0.570771
0.144115 -0.0952591 0.478753 -0.991356 -0.125451 -0.0384133
-0.46482 -0.0770549 0.483766 0.0497056 0.998645 -0.0154126
0.0205159 -0.107097 0.617583 0.0407039 -0.999111 0.0109434
0.00607008 -0.104366 0.36301 0.0373031 -0.994346 -0.0994208
-0.0478294 -0.108892 0.512302 0 -0.983391 0.1815
0.00482982 0.048417 0.0898274 -0.999912 -0.00975077 0.00897259
-0.0943058 -0.0482488 0.0911326 -0.0177511 -0.990389 -0.137168
-0.162397 -0.10644 0.47034 -0.067709 -0.997587 -0.0153553
-0.288013 -0.0858596 0.48348 0.0497056 0.998645 -0.0154126
-0.00022048 -0.0907147 0.766056 -0.132785 -0.918633 0.372131
0.165615 -0.106147 0.502754 -0.0670851 0.996692 -0.045867
-0.0174382 -0.0696068 0.759128 -0.706035 0.560904 0.432322
0.0161863 -0.0366633 0.158843 0.856476 0.48586 -0.174325
-0.0141827 -0.0248651 0.202164 -0.0832697 0.981974 -0.169685
-0.149419 -0.0457627 0.100098 -0.0177398 0.99039 -0.137162
0.188517 -0.103225 0.404417 0.191232 -0.97308 -0.128631
-0.0809095 -0.050434 0.105184 -0.017738 -0.990397 -0.13711
-0.00587147 -0.102711 0.349252 -0.0352571 -0.984808 -0.170032
0.0542659 -0.0530103 0.461579 0.996432 0.084405 0
-0.349415 -0.0911514 0.445166 -0.0741987 -0.987821 -0.136766
0.262563 -0.0896025 0.442938 0.0420947 -0.989673 0.137024
0.29184 -0.0975528 0.463773 -0.0677128 0.997586 0.0153874
0.395863 -0.0804711 0.484803 0.0497056 -0.998645 0.0154126
-0.214861 -0.101932 0.450032 -0.0741987 -0.987821 -0.136766
-0.0495135 -0.0769362 0.336602 -0.99396 -0.0406023 -0.101952
-0.0420603 -0.0157635 0.341376 -0.854471 0.505653 -0.119143
0.188834 -0.108778 0.543051 0.0457219 -0.998405 0.0331072
-0.0492418 -0.0516966 0.586122 -0.980956 0.125838 0.147954
-0.195053 -0.0893078 0.616345 -0.00223503 -0.372979 0.927837
-0.259943 -0.0874383 0.471685 0.0497036 0.998646 -0.015369
0.131265 -0.0937177 0.479808 0.0497036 -0.998646 0.015369
-0.107107 -0.0950452 0.466724 0 0.999882 -0.015388
0.34418 -0.0943552 0.486809 -0.067709 0.997587 0.0153553
-0.0533698 -0.0479365 0.389405 -0.995095 0.0860164 -0.0488532
-0.0140232 -0.000672669 0.527778 -0.0819654 0.967357 0.239797
-0.156661 -0.108825 0.538649 0.0457195 -0.998406 0.0331072
-0.00340382 -0.034183 0.0983536 0.996266 0.0312934 0.0804687
0.000840297 -0.095951 0.444371 0 -0.990551 0.137146
-0.249132 -0.0949814 0.418422 -0.0741946 -0.987824 -0.136744
-0.0542468 -0.0555696 0.487867 -0.999269 -0.038227 0
0.206088 -0.0918215 0.539527 0.993543 -0.113398 0.00376496
-0.15045 -0.0949319 0.438888 0.0420947 0.989673 -0.137024
-0.184339 -0.0851228 0.426707 -0.0251074 0.979981 -0.197502
0.034675 -0.0641197 0.240475 0.97964 -0.0409955 -0.196533
0.0450661 -0.0898518 0.638297 0.986973 -0.118194 0.109151
-0.143224 -0.0757635 0.549044 0.753144 0.657494 -0.0218282
-0.037604 -0.0966854 0.66977 -0.768957 -0.616629 0.168742
0.253971 -0.100202 0.468872 -0.067709 0.997587 0.0153553
0.0178605 -0.0234389 0.215446 0.462745 0.863085 -0.202365
-0.0528929 -0.0909615 0.494897 -0.999269 -0.038227 0
-0.052552 -0.0697936 0.552511 -0.997219 -0.0394236 0.0632487
0.172942 -0.0916546 0.495584 0.0502635 -0.998468 -0.0231289
0.0141134 -0.0885051 0.269705 0.0344368 -0.984016 -0.174717
0.0492674 -0.0448636 0.332048 0.991228 0.0896647 -0.0970918
0.141148 -0.107643 0.454845 -0.067709 0.997587 0.0153553
-0.0161711 -0.0528252 0.719306 -0.440832 0.866841 0.232923
-0.302031 -0.095317 0.449546 -0.0741987 -0.987821 -0.136766
-0.114221 -0.103418 0.406163 -0.0741987 -0.987821 -0.136766
0.349617 -0.0835492 0.508225 0.0484451 -0.982237 -0.181281
-0.0353041 -0.10665 0.55231 -0.0414166 -0.999112 0.00777048
-0.0456802 -0.109886 0.457187 0 -0.999882 -0.0153906
-0.171601 -0.0705778 0.51194 0.0409946 0.992413 -0.115915
0.327124 -0.0916963 0.437007 -0.0741946 0.987824 0.136744
-0.061918 -0.100909 0.40856 0 0.990551 -0.137146
0.0525909 -0.040773 0.385873 0.995155 0.0860216 -0.0476072
0.0127286 -0.00695405 0.335534 0.0784163 0.988923 -0.126028
-0.335387 -0.0938977 0.457391 -0.0741987 -0.987821 -0.136766
-0.137738 -0.108013 0.502978 -0.0670851 -0.996692 0.045867
0.148499 -0.105794 0.562705 -0.330336 -0.943345 0.0312814
0.0156489 -0.105819 0.674474 0.0596795 -0.995666 0.071331
-0.00214485 0.000333794 0.437172 -0.0843242 0.995195 -0.0497585
0.0481864 -0.0669187 0.610115 0.985126 0.144033 0.0937131
-0.0530953 -0.0859342 0.422503 -0.999239 -0.0390055 0.000278871
0.383747 -0.0857825 0.4333 0.0420947 -0.989673 0.137024
0.00314438 0.105383 0.0750388 -0.974588 -0.166387 -0.149977
0.221338 -0.0894554 0.465469 0.0497036 -0.998646 0.015369
0.160874 -0.0704042 0.517718 -0.0454364 0.992222 -0.115892
0.0972482 -0.110208 0.494659 0 0.999732 -0.0231587
0.0369798 -0.0764225 0.711507 0.94016 0.184201 0.286653
-0.200131 -0.0903942 0.47305 0.0497036 0.998646 -0.015369
0.0061036 -0.0208927 0.182083 -0.999457 -0.0300846 -0.0134477
0.00198782 -0.0286786 0.292963 -0.999911 -0.00958423 0.00929136
-0.156452 -0.0924841 0.478514 0.0497036 0.998646 -0.015369
-0.0470502 -0.0744921 0.631469 -0.983949 0.143861 0.105588
0.00290266 0.0228914 0.0640408 -0.996027 0.0381822 0.0804495
-0.0142299 -0.0989132 0.422977 0 0.990551 -0.137146
-0.0355297 -0.0731557 0.246633 -0.979731 -0.0396526 -0.196355
0.0323574 -0.106756 0.537596 0.0382087 -0.999268 -0.00213622
0.0509403 -0.0238759 0.534 0.854708 0.500995 0.135934
0.162897 -0.104751 0.416201 -0.025376 -0.992524 -0.119386
0.177244 -0.0683689 0.602555 0.0403036 0.997784 0.0529378
0.0961091 -0.0958073 0.445409 0 -0.990551 0.137146
0.0172598 -0.0947246 0.487554 0 -0.999882 0.015388
0.0257545 -0.0189707 0.260958 0.454489 0.876269 -0.159976
-0.00627305 -0.110169 0.496356 0 -0.999732 0.0231587
0.0029635 -0.0255941 0.359909 0.999784 0.00958302 0.0184204
0.00630189 -0.0441093 0.644651 0.0688409 0.992677 0.0992677
-0.122764 -0.050501 0.120034 -0.0135707 -0.999789 -0.0154144
0.0537068 -0.0696867 0.513398 0.999269 -0.038227 0
0.19581 -0.0881526 0.418764 0.531501 0.826928 -0.183567
-0.00283328 -0.107863 0.544306 -0.0382083 -0.99927 0
-0.051201 -0.048849 0.0898911 -0.017738 -0.990397 -0.13711
0.0316862 -0.104417 0.646103 0.371634 -0.926656 0.0565395
-0.172775 -0.0678513 0.554427 0.0457195 0.998404 -0.0331462
0.0154984 -0.000643967 0.450397 0.0844288 0.99643 0
0.171893 -0.105415 0.451878 -0.0741987 0.987821 0.136766
0.236297 -0.0884065 0.485234 0.0497056 -0.998645 0.0154126
-0.2061 -0.0918179 0.536546 -0.993543 -0.113398 0.00376027
-0.236958 -0.101445 0.500106 -0.0671352 -0.997476 0.0231065
-0.0292286 -0.0181462 0.569125 -0.398784 0.803459 0.442069
-0.0532738 -0.0576209 0.378469 -0.997945 -0.038955 -0.0508711
0.00577617 -0.0100707 0.131729 -0.999912 -0.00975077 0.00897259
-0.0161131 -0.0172025 0.255458 -0.0765195 0.988862 -0.127663
0.0486992 -0.0913083 0.34754 0.873895 -0.462605 -0.149342
-0.0192818 -0.0456219 0.648306 -0.0687902 0.991946 0.106352
0.204759 -0.0789367 0.518794 0.99042 0.125237 -0.0581761
-0.0487124 -0.0537933 0.319355 -0.994125 -0.040609 -0.100326
0.338911 -0.0936893 0.457797 -0.0741987 0.987821 0.136766
0.00980212 -0.0168729 0.56956 0.0651388 0.878912 0.472515
-0.20507 -0.0992153 0.580604 -0.993536 -0.11338 0.00559804
-0.41293 -0.0894089 0.468654 -0.0677128 -0.997586 -0.0153874
0.455165 -0.0868622 0.495635 -0.0671365 0.997477 -0.0230712
0.0252041 -0.0907689 0.734695 0.761738 -0.605157 0.231387
-0.155915 -0.0783704 0.463663 0.242869 0.95262 -0.18311
0.00587226 -0.0421234 0.136834 -0.014924 -0.999624 -0.0229921
0.115374 -0.094588 0.474652 0.0497036 -0.998646 0.015369
0.00377822 0.0707256 0.109462 -0.98659 -0.123888 -0.106264
0.0329004 -0.00340483 0.494949 0.493303 0.869858 0
-0.0318291 -0.0951792 0.504565 0 0.998944 0.0459558
-0.148841 -0.0909363 0.415261 0.941406 0.299233 -0.155611
0.201949 -0.072472 0.562729 0.753145 0.657493 -0.0218282
0.447392 -0.0817761 0.442684 0.0420943 -0.989676 0.137001
0.142326 -0.0918932 0.602645 -0.990549 -0.128222 0.048702
-0.0222022 -0.0886581 0.272166 -0.0344372 -0.984043 -0.174569
0.126552 -0.0503254 0.135204 -0.0162863 0.998788 -0.0464464
-0.04833 -0.100986 0.532509 -0.891392 -0.45223 0.0301417
-0.277677 -0.0884343 0.446733 0.0420943 0.989676 -0.137001
-0.172345 -0.072439 0.614737 0.0293303 0.430602 0.902065
-1.67796e-05 -0.0213245 0.0514189 0.996266 0.0312934 0.0804687
-0.190008 -0.091852 0.448981 0.0420943 0.989676 -0.137001
0.0597503 -0.0950638 0.465511 0 -0.999882 0.015388
-0.179012 -0.0677279 0.584919 -0.0438214 0.998905 0.0163803
-0.0156603 -0.106458 0.66901 -0.0597575 -0.996967 0.0498518
-0.393912 -0.0908765 0.50032 -0.0671352 -0.997476 0.0231065
-0.0518185 -0.0241174 0.459496 -0.996432 0.084405 0
0.132992 -0.108584 0.479995 -0.067709 0.997587 0.0153553
-0.0888546 -0.0983634 0.426948 0 0.990551 -0.137146
0.14743 -0.0874478 0.43751 -0.533861 0.830839 -0.157162
-0.402409 -0.0801688 0.483278 0.0497056 0.998645 -0.0154126
-0.117638 -0.109219 0.453508 -0.067709 -0.997587 -0.0153553
-0.00512305 0.0241011 0.100598 0.999906 -0.0103282 0.00897253
0.0434835 -0.0683723 0.654788 0.980669 0.164293 0.106281
0.177295 -0.0689213 0.526689 0.0454483 0.992431 -0.11408
0.297105 -0.0916487 0.420376 -0.0741946 0.987824 0.136744
-0.164954 -0.107301 0.583591 0.0436259 -0.996861 0.0660656
0.12746 -0.101235 0.400429 0.0420947 -0.989673 0.137024
0.387467 -0.0911048 0.505146 -0.0670851 0.996692 -0.045867
-0.192858 -0.0737025 0.493444 -0.32826 0.937417 -0.116167
0.419334 -0.0796319 0.505631 0.0484414 -0.982218 -0.181389
0.0423395 -0.10471 0.420043 0.452496 -0.891766 0.000574563
0.143493 -0.105536 0.517579 -0.06704 0.981152 -0.181237
0.305841 -0.0850765 0.500426 0.0502637 -0.998468 -0.0231196
0.00517427 -0.0337249 0.119036 -0.996027 0.0381822 0.0804495
0.0528839 -0.0626872 0.374847 0.99791 -0.0398317 -0.0508913
-0.0437763 -0.104041 0.405442 -0.44521 -0.895426 0.000576922
0.0379027 -0.106522 0.485704 0.0382088 -0.99927 0
0.0204743 -0.0503923 0.172824 0.983264 -0.0370387 -0.178384
-0.015872 -0.000675622 0.471648 -0.0844288 0.99643 0
-0.326447 -0.0954415 0.499273 -0.0671352 -0.997476 0.0231065
0.0516222 -0.023175 0.44628 0.869828 0.493355 0
0.0350662 -0.0522889 0.654195 0.75512 0.640369 0.14043
-0.0425193 -0.0544066 0.279461 -0.984802 -0.0414385 -0.168667
-0.170685 -0.0921234 0.45592 0.0497036 0.998646 -0.015369
0.00704785 -0.107127 0.42993 0 0.990551 0.137144
-0.0258469 -0.00152081 0.484924 -0.0844288 0.99643 0
-0.198076 -0.0974285 0.408398 -0.0741946 -0.987824 -0.136744
0.0520101 -0.0778176 0.559518 0.998309 -0.0394667 0.0426867
0.196069 -0.100383 0.520541 -0.0646565 0.802812 -0.592717
-0.0540472 -0.0615612 0.40925 -0.999269 -0.038227 0.000955654
0.141688 -0.0856319 0.526625 -0.99193 0.113131 -0.0572305
0.00650293 -0.0416623 0.19887 -0.999457 -0.0300846 -0.0134477
-0.0506869 -0.0966967 0.462737 -0.891797 -0.452436 0
0.019654 -0.0531691 0.714719 0.400987 0.886579 0.230625
-0.138284 -0.050331 0.122675 -0.0135707 -0.999789 -0.0154144
-0.359545 -0.0905385 0.516042 -0.0646597 -0.802869 0.592639
-0.0244942 -0.101526 0.694287 -0.416469 -0.898029 0.141765
-0.00443385 0.0659078 0.0719158 0.999906 -0.0103282 0.00897253
-0.0123131 -0.0445283 0.091273 -0.0177432 0.990397 -0.137107
0.175013 -0.0824496 0.438203 0.0250781 0.978835 -0.20311
0.186374 -0.0918877 0.61543 0.00211404 -0.352788 0.935701
-0.0465065 -0.0973179 0.605613 -0.78658 -0.612616 0.0774189
0.00521942 -0.00806761 0.107418 -0.996027 0.0381822 0.0804495
0.0887701 -0.101068 0.407413 0 -0.990551 0.137146
0.163287 -0.050034 0.125419 -0.0135707 0.999789 0.0154144
0.0948022 -0.0432691 0.128922 -0.014924 -0.999624 -0.0229921
-0.004989 -0.0631018 0.143646 -0.0380136 -0.976802 -0.210744
0.21145 -0.102898 0.456526 -0.0677128 0.997586 0.0153874
-0.00162558 -0.0948708 0.478052 0 0.999882 -0.015388
-0.340443 -0.0890198 0.424899 -0.0741946 -0.987824 -0.136744
-0.00339433 -0.0192318 0.326145 -0.999831 0.00959994 0.0156867
0.0396884 -0.104042 0.594593 0.333805 -0.942021 0.0342165
0.000103347 -0.107967 0.529629 0.0369919 -0.999316 0
-0.42499 -0.0791335 0.50195 0.0502242 0.997683 0.0458978
0.00398758 0.1017 0.055506 -0.999888 -0.00772351 0.0128131
-0.309275 -0.0913044 0.424492 -0.0741946 -0.987824 -0.136744
-0.234832 -0.0996736 0.444556 -0.0741987 -0.987821 -0.136766
-0.0429095 -0.0964262 0.440939 0 0.990551 -0.137146
0.122236 -0.106869 0.435443 -0.0741987 0.987821 0.136766
-0.132203 -0.0947259 0.510684 0.0484414 0.982218 0.181389
-0.0170371 -0.0517344 0.106951 -0.0135619 -0.99979 -0.0153315
-0.0151315 -0.107411 0.558189 -0.0369915 -0.999316 -3.69917e-07
0.0381617 -0.083595 0.274893 0.855693 -0.474924 -0.205513
-0.00454809 -0.0252685 0.271237 -0.999832 -0.00433497 0.0178259
0.186269 -0.108268 0.49112 0.0411495 -0.998668 -0.0311345
-0.227906 -0.101919 0.465517 -0.067709 -0.997587 -0.0153553
-0.446881 -0.0873649 0.485538 -0.0677128 -0.997586 -0.0153874
-0.0349984 -0.0171087 0.300626 -0.453438 0.879494 -0.144514
-0.0178533 -0.110105 0.471442 0 -0.999882 -0.0153906
-0.198038 -0.103967 0.502713 -0.0670851 -0.996692 0.045867
-0.255307 -0.0874753 0.49416 0.0502635 0.998468 0.0231289
0.00227121 -0.00124661 0.0676792 -0.996027 0.0381822 0.0804495
0.426354 -0.0790686 0.477342 0.0497056 -0.998645 0.0154126
-0.223979 -0.0956744 0.410936 0.0420947 0.989673 -0.137024
0.0417364 -0.0137106 0.347954 0.473896 0.871732 -0.124525
-0.233679 -0.0887493 0.47144 0.0497036 0.998646 -0.015369
-0.108546 -0.106671 0.426632 0 -0.990551 -0.137144
0.00237913 0.0300049 0.0541829 -0.996027 0.0381822 0.0804495
0.0114884 -0.0572598 0.127378 0.871823 -0.435803 -0.223606
-0.00510688 4.0669e-05 0.180028 0.986728 -0.122768 -0.106279
0.0734653 -0.0947216 0.487749 0 -0.999882 0.015388
0.412046 -0.0897372 0.486047 -0.067709 0.997587 0.0153553
-0.302106 -0.097017 0.474213 -0.067709 -0.997587 -0.0153553
-0.0046012 -0.0433131 0.234774 0.986595 -0.123866 -0.106243
-0.178341 -0.0944157 0.519658 0.0298419 0.80416 0.593664
0.305473 -0.0969504 0.484733 -0.067709 0.997587 0.0153553
0.205687 -0.0947563 0.556938 0.993544 -0.113381 0.00375973
-0.0213512 -0.0925116 0.293708 -0.0342426 -0.984027 -0.174695
0.0143191 -0.0679567 0.168303 0.439309 -0.865913 -0.23917
0.073958 -0.110234 0.479823 0 0.999882 0.0153906
0.0766179 -0.0953666 0.507861 0 -0.983372 -0.181602
-0.392645 -0.0856278 0.431684 0.0420947 0.989673 -0.137024
-0.0243969 -0.02673 0.21635 -0.482873 0.851467 -0.204545
-0.18845 -0.0689331 0.540566 -0.0457219 0.998404 -0.0331484
0.171846 -0.0920949 0.454015 0.0497036 -0.998646 0.015369
0.0704142 -0.0512427 0.134026 -0.0149237 0.999624 -0.0229921
0.0394842 -0.109788 0.450821 0 0.999882 0.0153906
0.0309514 -0.0544217 0.220385 0.973827 -0.0394137 -0.223848
0.440971 -0.0855741 0.513883 -0.0646597 0.802869 -0.592639
-0.00919523 -0.0114238 0.297618 -0.0762189 0.989681 -0.121335
0.017094 -0.110003 0.464788 0 0.999882 0.0153906
-0.0391198 -0.0596286 0.26171 -0.979512 -0.0409902 -0.197171
0.224378 -0.0892561 0.502463 0.0502242 -0.997683 -0.0458978
-0.309747 -0.0850781 0.463981 0.0497036 0.998646 -0.015369
-0.353186 -0.0825023 0.49083 0.0497056 0.998645 -0.0154126
0.0473144 -0.102116 0.395308 0.44284 -0.890659 -0.103049
-0.452711 -0.0867168 0.469177 -0.0677128 -0.997586 -0.0153874
0.181385 -0.0679682 0.559887 0.0457168 0.998404 -0.0331484
0.0203231 -0.0958021 0.312124 0.0342807 -0.985109 -0.168477
-0.0379581 -0.0433407 0.103171 -0.0177432 0.990397 -0.137107
-0.0181184 -0.0428543 0.145083 -0.0256072 0.983078 0.181389
-0.4314 -0.0865388 0.456328 -0.0741946 -0.987824 -0.136744
-0.175836 -0.102515 0.433069 -0.0741987 -0.987821 -0.136766
-0.156591 -0.100095 0.405153 -0.0741946 -0.987824 -0.136744
-0.00189918 0.0513524 0.0464612 0.996266 0.0312934 0.0804687
-0.0542505 -0.0554733 0.507004 -0.999269 -0.038227 0
-0.171344 -0.0959964 0.61351 0.0466428 -0.68477 0.727265
-0.0788948 -0.110065 0.468804 0 -0.999882 -0.0153906
-0.0130579 -0.0762269 0.206674 -0.0353568 -0.978093 -0.205144
-0.0336459 -0.0534645 0.670607 -0.758022 0.643839 0.104279
0.0535923 -0.0726793 0.45305 0.999269 -0.038227 0
-0.142118 -0.0964907 0.545872 0.993554 -0.113301 0.00375706
-0.0660953 -0.0512184 0.137198 -0.016264 -0.998811 0.0459656
-0.000714835 -0.106645 0.383794 -0.0364828 -0.994376 -0.0994238
0.0497611 -0.0475609 0.578085 0.987382 0.0955975 0.126244
0.101983 -0.043635 0.110075 -0.0135649 -0.999789 0.0154144
-0.281251 -0.0864059 0.502742 0.0502242 0.997683 0.0458978
0.178773 -0.105263 0.466097 -0.067709 0.997587 0.0153553
0.0526903 -0.0344098 0.4819 0.996432 0.084405 0
0.0443676 -0.0103845 0.513888 0.869828 0.493355 0
0.244619 -0.0930198 0.423769 0.0420947 -0.989673 0.137024
-0.085047 -0.0951122 0.503109 0 0.998944 0.0459558
0.469227 -0.0785537 0.459254 0.0420943 -0.989676 0.137001
0.165523 -0.0816161 0.630223 -0.945758 0.175731 0.27324
0.00647769 -0.0441347 0.172888 -0.999912 -0.00975077 0.00897259
0.0534577 -0.0764166 0.413487 0.999238 -0.0390055 0.000975114
0.00474187 0.0376437 0.07981 -0.996027 0.0381822 0.0804495
0.00443529 -0.000523716 0.0941291 -0.996027 0.0381822 0.0804495
-0.199582 -0.106071 0.549794 -0.330336 -0.943345 0.0312814
-0.17531 -0.109035 0.553941 -0.0457218 -0.998404 0.033153
-0.0522068 -0.0603118 0.359617 -0.99787 -0.0398302 -0.0516578
-0.392792 -0.0808547 0.469838 0.0497036 0.998646 -0.015369
-0.0999912 -0.0437978 0.107894 -0.0177398 0.99039 -0.137162
-0.182414 -0.105063 0.418301 -0.0253776 -0.992523 -0.119386
0.406434 -0.0848289 0.433218 0.0420947 -0.989673 0.137024
0.00351851 -0.0157906 0.258911 0.0765086 0.988722 -0.128746
-0.0420216 -0.0790911 0.677096 -0.973064 -0.208993 0.0973065
0.144915 -0.076389 0.606358 -0.83772 0.10618 0.535679
0.0496343 -0.110272 0.491885 0 0.999732 -0.0231587
0.0483703 -0.0290048 0.337408 0.990955 0.0896399 -0.0998689
0.298988 -0.0871881 0.449187 0.0420943 -0.989676 0.137001
-0.0522035 -0.0288613 0.435142 -0.996426 0.0844046 -0.00328746
-0.32974 -0.0952644 0.482202 -0.067709 -0.997587 -0.0153553
0.151499 -0.0471337 0.0904825 -0.0177511 0.990389 0.137168
-0.343693 -0.094161 0.502764 -0.0670816 -0.996681 0.0461252
-0.032041 -0.0645145 0.718741 -0.731552 0.621356 0.28062
-0.019427 -0.0654551 0.174143 -0.868928 -0.440779 -0.225117
-0.176016 -0.0444661 0.121366 -0.0135737 0.99979 -0.0153315
-0.0330168 -0.0947313 0.487117 0 0.999882 -0.015388
-0.00619423 -0.0181525 0.169816 0.999465 -0.029807 -0.0134593
-0.132156 -0.0765495 0.617522 0.0251192 0.545838 -0.837514
-0.00535616 0.0227572 0.141451 0.999465 -0.029807 -0.0134593
0.038499 -0.00764174 0.416778 0.492921 0.869185 -0.0393299
0.0629274 -0.051249 0.115871 -0.0135707 0.999789 0.0154144
-0.00176094 0.0955806 0.0231773 0.991543 0.0612695 0.114406
-0.129967 -0.0940695 0.461146 0.0497036 0.998646 -0.015369
-0.108278 -0.0448525 0.143179 -0.0256612 0.982991 0.181852
-0.0914441 -0.0952089 0.456083 0 0.999882 -0.015388
-0.30647 -0.0967974 0.498779 -0.0671352 -0.997476 0.0231065
-0.388936 -0.0808191 0.484596 0.0497056 0.998645 -0.0154126
0.0243765 -0.0141982 0.285013 0.455581 0.878374 -0.144587
0.0454865 -0.0663165 0.299703 0.984825 -0.0414394 -0.168533
0.0227382 -0.107102 0.504807 0.0382088 -0.99927 0
0.1531 -0.104779 0.425522 -0.245843 -0.962934 -0.110996
-0.0529146 -0.0370575 0.480983 -0.996432 0.084405 0
0.00213869 -0.0447358 0.592437 1 0 0
0.0334874 -0.106599 0.575956 0.0414177 -0.999138 -0.00296158
0.0198205 -0.109095 0.444143 0 0.990551 0.137144
0.291436 -0.097914 0.494258 -0.0671365 0.997477 -0.0230712
-0.0317976 -0.00752073 0.353653 -0.477001 0.877443 -0.0506319
0.146637 -0.104277 0.497394 -0.718021 -0.69465 -0.0436781
-0.0500238 -0.0203568 0.523313 -0.869828 0.493355 0
0.367975 -0.084745 0.445639 0.0420943 -0.989676 0.137001
-0.477045 -0.076309 0.493995 0.0502637 0.998468 0.0231196
0.398614 -0.0903588 0.467238 -0.0677128 0.997586 0.0153874
-0.393775 -0.0821824 0.512619 0.0484452 0.982228 0.181333
-0.171754 -0.10297 0.400405 0.0253578 -0.991813 -0.125158
-0.0659473 -0.0965983 0.439696 0 0.990551 -0.137146
0.042591 -0.0219728 0.563448 0.828953 0.485898 0.27702
-0.0120994 -0.0952417 0.453951 0 0.999882 -0.015388
0.0121088 -0.104629 0.411883 0 0.990551 0.137144
-0.00525532 0.030271 0.120188 0.999898 -0.00630691 0.0128226
0.273683 -0.086744 0.501809 0.0502242 -0.997683 -0.0458978
0.00426496 -0.00895824 0.215298 0.980942 0.191205 0.0345473
-0.0150449 -0.0332586 0.163247 -0.493065 0.855504 -0.158116
-0.150896 -0.0466512 0.141151 -0.0627656 0.802926 0.592765
-0.11258 -0.0476328 0.0890495 -0.0177511 -0.990389 -0.137168
-0.292244 -0.0895427 0.434252 0.0420947 0.989673 -0.137024
-0.416862 -0.0814807 0.454199 0.0420943 0.989676 -0.137001
0.172618 -0.107057 0.432523 -0.0253552 -0.99171 -0.125972
-0.205141 -0.077533 0.546228 -0.993543 0.113398 -0.00376471
0.0749355 -0.0467406 0.0833964 -0.0177432 -0.990397 0.137107
-0.0370768 -0.0498494 0.632264 -0.754089 0.641578 0.140454
0.0667363 -0.109319 0.445761 0 0.990551 0.137144
-0.0521168 -0.0878301 0.379095 -0.99787 -0.0398302 -0.0516578
0.00175384 -0.0343537 0.0769867 -0.996027 0.0381822 0.0804495
-0.0629626 -0.103772 0.525488 0 -0.804495 0.59396
-0.219471 -0.0897173 0.506869 0.0484414 0.982218 0.181389
0.167185 -0.107464 0.582409 -0.0455413 -0.996776 0.06606
0.127028 -0.100612 0.525473 0.0298419 -0.80416 -0.593664
0.00174171 -0.0418972 0.625693 0.0688409 0.992677 0.0992677
-0.17886 -0.10804 0.452818 -0.033245 -0.999386 -0.0110388
-0.00893336 -0.0992423 0.737426 -0.122966 -0.980797 0.151383
0.0238733 -0.00135358 0.472322 0.0844288 0.99643 0
-0.0522567 -0.0520735 0.557621 -0.993226 0.0869503 0.0770778
-0.00237252 -0.0453403 0.352746 0.998325 0.0573356 0.0077399
0.0392428 -0.0449813 0.0914863 -0.0177432 -0.990397 0.137107
0.151449 -0.0910748 0.408838 -0.52712 0.820348 -0.221752
0.131758 -0.0956732 0.439276 0.0420947 -0.989673 0.137024
0.19967 -0.0851269 0.446164 0.633208 0.758054 -0.156214
-0.157991 -0.0847556 0.429194 0.0327234 0.979694 -0.197812
0.0203689 -0.0493699 0.695091 0.390489 0.917391 0.0768901
0.176455 -0.0721109 0.621011 0.194032 0.942786 0.271121
-0.157189 -0.106843 0.49887 -0.0671352 -0.997476 0.0231065
-0.197688 -0.107341 0.523007 -0.330321 -0.943303 -0.0326598
0.0494922 -0.0841033 0.599084 0.991213 -0.088772 0.0980607
-0.000141504 -0.0023378 0.360402 -0.599412 0.800405 0.00754384
-0.06221 -0.0437492 0.103358 -0.0177398 0.99039 -0.137162
0.232098 -0.101531 0.458798 -0.0677128 0.997586 0.0153874
-0.00287721 0.0880158 0.0369032 0.991543 0.0612695 0.114406
0.219708 -0.100009 0.438771 -0.0741987 0.987821 0.136766
-0.0266724 -0.00503842 0.541066 -0.0819654 0.967357 0.239797
0.36702 -0.0926462 0.476502 -0.0677128 0.997586 0.0153874
-0.141924 -0.0832042 0.529897 0.993552 0.113316 -0.00376201
-0.0747678 -0.107772 0.434586 0 -0.990551 -0.137144
0.131359 -0.0504025 0.121211 -0.0135707 0.999789 0.0154144
-0.06357 -0.10996 0.462014 0 -0.999882 -0.0153906
-0.0949594 -0.104729 0.412607 0 -0.990551 -0.137144
-0.00470193 0.06264 0.0929553 0.999898 -0.00630691 0.0128226
0.109528 -0.110167 0.479338 -0.067709 0.997587 0.0153553
-0.00351195 -0.0218505 0.21723 0.84209 -0.399142 -0.362725
-0.269028 -0.0993148 0.47764 -0.067709 -0.997587 -0.0153553
0.034515 -0.0588775 0.697718 0.758004 0.643824 0.1045
0.298134 -0.0855143 0.473192 0.0497036 -0.998646 0.015369
-0.00240624 -0.107877 0.604589 -0.0390008 -0.999239 0
-0.1844 -0.105177 0.485343 -0.067709 -0.997587 -0.0153553
0.211414 -0.0947877 0.421201 0.0420947 -0.989673 0.137024
-0.104683 -0.109781 0.507127 0 -0.998943 0.0459706
-0.0327769 -0.0505645 0.228315 -0.979512 -0.0409902 -0.197171
0.409778 -0.0815456 0.455907 0.0420943 -0.989676 0.137001
0.0165883 -0.0569504 0.152774 0.983262 -0.0376149 -0.178273
-0.158566 -0.0682933 0.560708 0.0457145 0.998404 -0.0331484
0.377451 -0.0910038 0.45931 -0.0741987 0.987821 0.136766
0.202585 -0.0854407 0.468617 0.985546 0.154272 -0.0699977
-0.0983829 -0.108939 0.443014 0 -0.990551 -0.137144
0.0191617 -0.00943485 0.31979 0.0784424 0.989251 -0.123405
-3.72753e-05 0.0243033 0.0339284 0.996266 0.0312934 0.0804687
-0.00424852 0.0865774 0.0813386 0.99918 -0.0356443 -0.0192054
0.0323373 -0.10009 0.680199 0.368739 -0.919438 0.136621
0.054108 -0.0593914 0.4281 0.999238 -0.0390055 0.000975114
0.264927 -0.087305 0.464229 0.0497036 -0.998646 0.015369
-0.108937 -0.0506835 0.1197 -0.0135707 -0.999789 -0.0154144
0.113264 -0.0446901 0.141597 -0.0256612 -0.982991 -0.181852
-0.0123213 -0.0975559 0.519716 0 0.983369 0.181617
0.0948797 -0.0950762 0.464708 0 -0.999882 0.015388
-0.414455 -0.0896475 0.490842 -0.067709 -0.997587 -0.0153553
0.197563 -0.0935121 0.402776 0.941316 0.299498 -0.155645
-0.120465 -0.109429 0.493931 -0.0671352 -0.997476 0.0231065
0.0355529 -0.0472392 0.619879 0.370448 0.920367 0.12527
-0.0942986 -0.050861 0.118324 -0.0135707 -0.999789 -0.0154144
-0.0168382 -0.00473056 0.359743 -0.0807884 0.995551 -0.0484914
-0.0347421 -0.00555045 0.41768 -0.492859 0.869075 -0.0424101
-0.0668737 -0.109957 0.5033 0 -0.998943 0.0459706
-0.010693 -0.0515536 0.597617 -1 0 0
0.163014 -0.0995758 0.609878 -0.028333 -0.685241 0.727765
-0.204454 -0.0937814 0.430607 0.0420947 0.989673 -0.137024
-0.130324 -0.0447172 0.105178 -0.0177398 0.99039 -0.137162
0.0511036 -0.0953353 0.448818 0 -0.990551 0.137146
-0.00426767 -0.0174632 0.246339 -0.0765195 0.988862 -0.127663
0.0522859 -0.0594811 0.565429 0.992194 0.0960633 0.0795212
-0.0248639 -0.109892 0.504721 0 -0.998943 0.0459706
-0.0223918 -0.101107 0.407132 0 0.990551 -0.137146
0.00842624 -0.109805 0.506613 0 0.998943 -0.0459706
-0.327225 -0.0841423 0.468259 0.0497036 0.998646 -0.015369
0.0107908 -0.0715855 0.1841 0.0373683 -0.977955 -0.205446
0.144886 -0.0955056 0.459654 -0.991356 -0.125451 -0.0384133
0.00437289 0.0455025 0.133488 -0.974588 -0.166387 -0.149977
-0.205424 -0.0790457 0.587505 -0.992958 0.11847 -7.1453e-05
-0.172602 -0.0763355 0.470415 0.0328033 0.982085 -0.185564
0.133826 -0.0467056 0.0912709 -0.0177432 -0.990397 0.137107
0.000170719 -0.0486037 0.20977 -0.32032 0.94726 0.00967038
-0.474563 -0.0802419 0.445419 0.0420943 0.989676 -0.137001
0.0541633 -0.0517982 0.510663 0.996432 0.084405 0
0.0381433 -0.0980685 0.521102 0 -0.804518 -0.593928
0.049886 -0.0201138 0.493845 0.869828 0.493355 0
0.0596162 -0.0435405 0.104529 -0.0177398 -0.99039 0.137162
-0.149007 -0.092846 0.495003 0.0502635 0.998468 0.0231289
-0.159085 -0.10161 0.606987 0.0355179 -0.881546 0.470761
-0.00227776 -0.0376445 0.327226 0.999956 0.0043355 0.00836955
-0.0643387 -0.0948111 0.481933 0 0.999882 -0.015388
-0.207955 -0.0800137 0.615255 -0.0554593 0.00423873 -0.998452
0.18014 -0.0913424 0.476093 0.0497036 -0.998646 0.015369
-0.0522211 -0.063522 0.567065 -0.997792 -0.0540045 0.0386727
0.0208712 -0.106873 0.636714 0.0407039 -0.999111 0.0109434
-0.0333497 -0.0518131 0.126418 -0.0135707 -0.999789 -0.0154144
-0.000148235 0.0578079 0.0222726 0.996266 0.0312934 0.0804687
-0.0287742 -0.106871 0.463867 -0.0382083 -0.99927 0
0.0136535 -0.085471 0.253505 0.0343545 -0.981664 -0.187498
-0.0299384 -0.0441222 0.612472 -0.373112 0.926986 0.0385291
0.0358125 -0.0518004 0.127765 -0.0135707 0.999789 0.0154144
0.178438 -0.075452 0.475756 0.0405809 0.982343 -0.182637
-0.0435456 -0.0512511 0.600707 -0.753963 0.647569 0.110427
-0.0182697 -0.0504754 0.160695 -0.983238 -0.037614 -0.178403
0.0516637 -0.025315 0.394477 0.994925 0.0879525 -0.0488775
0.0317832 -0.0897598 0.716748 0.732606 -0.638062 0.23699
0.165134 -0.109335 0.518886 -0.0457223 -0.998465 -0.0312632
0.0844549 -0.098564 0.521774 0 -0.804518 -0.593928
0.0532588 -0.0813953 0.525354 0.999269 -0.038227 0
-0.0159596 -0.0434588 0.630279 -0.0687902 0.991946 0.106352
-0.00256397 -0.105281 0.702476 -0.112429 -0.982667 0.147393
0.436061 -0.0862954 0.457099 -0.0741946 0.987824 0.136744
-0.302428 -0.0850623 0.488647 0.0497056 0.998645 -0.0154126
0.278436 -0.0901942 0.433788 0.0420947 -0.989673 0.137024
0.0223771 -0.0862733 0.750055 0.706035 -0.560903 0.432322
0.0257883 -0.0461468 0.64073 0.370448 0.920367 0.12527
0.18301 -0.107021 0.587604 0.0436282 -0.996861 0.0660656
-0.194954 -0.103456 0.450237 -0.0741987 -0.987821 -0.136766
0.00311191 -0.017824 0.347812 0.999784 0.00958302 0.0184204
-0.0423214 -0.00874756 0.462435 -0.493303 0.869858 0
-0.15656 -0.107593 0.457069 0.301343 -0.953392 -0.015355
0.00203082 -0.0238555 0.302566 -0.999911 -0.00958423 0.00929136
0.0199612 -0.107208 0.424209 0.0382088 -0.99927 0
0.383276 -0.0915857 0.479281 -0.0677128 0.997586 0.0153874
0.033119 -0.0514199 0.106122 -0.017738 0.990397 0.13711
-0.0597545 -0.0469859 0.151255 -0.0627656 0.802926 0.592765
0.34925 -0.0831196 0.463487 0.0497036 -0.998646 0.015369
0.00398551 -0.0507583 0.0975742 -0.017738 0.990397 0.13711
-0.0487054 -0.0321473 0.338023 -0.991146 0.0876185 -0.0997642
-0.00468608 0.0470705 0.0783414 0.999906 -0.0103282 0.00897253
-0.0094717 -0.00426947 0.543696 -0.0792119 0.966706 0.24332
-0.164668 -0.0860514 0.625696 0.938324 -0.169512 0.301354
0.00518028 -0.026125 0.23084 0.999678 -0.0186498 0.0172109
0.204108 -0.0811495 0.502958 0.99042 0.125237 -0.0581761
-0.00467544 -0.0463284 0.675468 -0.100247 0.993721 0.0496849
0.256143 -0.0885031 0.510087 0.0484414 -0.982218 -0.181389
0.160108 -0.075549 0.61623 -0.00260607 0.430786 0.90245
-0.205432 -0.0902768 0.603311 -0.816139 -0.105646 0.568116
-0.051945 -0.0315307 0.535706 -0.994334 0.0870472 0.0610127
-0.0697808 -0.051206 0.119119 -0.0135707 -0.999789 -0.0154144
0.181239 -0.0798606 0.452854 0.0328052 0.982084 -0.185564
-0.0280707 -0.0550632 0.707112 -0.400084 0.884583 0.239677
0.0281792 -0.0994917 0.695817 0.417289 -0.899797 0.12742
-0.0258132 -0.0516871 0.141244 -0.0162863 -0.998788 0.0464464
0.0061654 -0.0349187 0.148102 -0.999912 -0.00975077 0.00897259
-0.319068 -0.0939688 0.515253 -0.06704 -0.981152 0.181237
-0.203974 -0.0856377 0.491465 -0.990611 0.125262 -0.0547709
-0.371587 -0.0818755 0.472084 0.0497036 0.998646 -0.015369
-0.101016 -0.109917 0.45921 0 -0.999882 -0.0153906
-0.0127281 -0.107449 0.639818 -0.0598263 -0.998116 0.013595
0.00261003 -0.00560376 0.300899 0.980599 0.195811 0.00910429
-0.0532235 -0.0823198 0.505973 -0.999269 -0.038227 0
0.0523921 -0.0483638 0.368002 0.995155 0.0860216 -0.0476072
0.123173 -0.0450297 0.101997 -0.0177398 -0.99039 0.137162
-0.0519966 -0.0262197 0.490639 -0.996432 0.084405 0
0.115496 -0.0999292 0.413533 0.0420947 -0.989673 0.137024
-0.00404656 -0.0225529 0.101788 0.996266 0.0312934 0.0804687
-0.145956 -0.0993397 0.448473 0.987328 -0.154645 -0.0356151
-0.452918 -0.0776584 0.499816 0.0502637 0.998468 0.0231196
0.173314 -0.0681708 0.544059 -0.0457145 0.998405 -0.0331462
0.460021 -0.0774707 0.472299 0.0497056 -0.998645 0.0154126
-0.141615 -0.103071 0.418523 -0.0741987 -0.987821 -0.136766
-0.354794 -0.0888159 0.431213 -0.0741946 -0.987824 -0.136744
-0.417351 -0.0848512 0.51744 -0.0646565 -0.802812 0.592717
0.0922134 -0.110205 0.477923 0 0.999882 0.0153906
-0.00457973 -0.0540979 0.616808 0 0 1
0.448255 -0.0871914 0.480336 -0.0677128 0.997586 0.0153874
-0.0445941 -0.0766572 0.656734 -0.988608 -0.11839 0.0929413
-0.0518387 -0.042315 0.367843 -0.994989 0.0879582 -0.0475505
-0.0541997 -0.110195 0.495231 0 -0.999732 0.0231587
-0.0542932 -0.0536248 0.428781 -0.996283 0.0861191 -0.00215293
-0.0339906 -0.00657462 0.389149 -0.485147 0.872761 -0.0540384
0.137257 -0.0767269 0.617759 -0.0402647 0.87495 -0.482537
0.00979137 -0.0569747 0.744075 0.121776 0.97131 0.204275
0.456372 -0.0788123 0.511087 0.0484452 -0.982228 -0.181333
0.162947 -0.0487497 0.103632 -0.0177511 0.990389 0.137168
0.0475817 -0.0745847 0.626576 0.980669 0.164293 0.106281
0.0706393 -0.0968946 0.437556 0 -0.990551 0.137146
-0.0179115 -0.0993174 0.332083 -0.0352663 -0.985064 -0.16854
0.041214 -0.0260343 0.295633 0.836802 0.522074 -0.164931
-0.320748 -0.0848183 0.507388 0.0484414 0.982218 0.181389
0.0475812 -0.102048 0.434455 0.445209 -0.895423 0.00253443
-0.00152375 -0.0186046 0.0690186 0.996266 0.0312934 0.0804687
-0.166441 -0.0917536 0.397083 0.0158973 0.972421 -0.23269
0.387037 -0.0808487 0.494364 0.0502635 -0.998468 -0.0231289
0.15478 -0.0694047 0.532455 -0.0457195 0.998404 -0.0331484
-0.266189 -0.0935025 0.416993 -0.0741946 -0.987824 -0.136744
