-0.0416093 -0.0186064 0.705961 0.953281 -0.295864 -0.0609895
-0.00859795 0.087579 0.0697102 -0.995037 -0.0995037 0
-0.258097 -0.0465363 0.552734 -0.0152189 0.999298 -0.0342325
0.0301822 -0.0268485 0.93453 0.942861 0.290111 0.163857
0 -0.00168649 0.0525024 -1 0 0
-0.279153 -0.0493407 0.47967 0.0163861 -0.999543 0.0253983
0.0499141 -0.0403799 0.636396 0.953224 0.302264 -0.000973863
0.0078845 0.0845472 0.148513 0.927341 -0.0149391 0.37392
-0.0263767 0.0212982 0.820602 -0.95753 0.113993 0.264842
-0.037417 -0.0143047 0.494331 -0.374134 0.926424 -0.0419834
-0.050956 -0.0452297 0.499844 -0.893913 0.446985 -0.0335224
-0.0129847 -0.0421198 0.130269 -0.9341 0.331134 -0.133443
-0.0421626 -0.0244838 0.725824 0.953281 -0.295864 -0.0609895
0 0.0496932 0.0552761 1 0 0
-0.0476993 -0.0463855 0.13211 0 1 0
-0.0409911 -0.0325306 0.78914 0.945158 -0.322814 -0.0496635
0.361065 -0.050274 0.489402 -0.0152189 -0.999298 0.0342325
-0.0383707 -0.00866298 0.628271 -0.352451 0.934855 -0.0427136
-0.0349524 -0.00675735 0.641773 -0.352451 0.934855 -0.0427136
0.0447069 -0.0965233 0.743355 0.772539 -0.632077 0.06051
0.0524118 -0.0804272 0.462888 0.933956 -0.336221 -0.121171
0.0525711 -0.0894933 0.720449 0.771882 -0.63154 0.0731771
0.019408 -0.068315 0.277738 0.675663 -0.737087 -0.0134835
0.0549302 -0.0457241 0.477338 0.0163861 0.999543 -0.0253983
0.119678 -0.0423567 0.613205 -0.0152189 -0.999298 0.0342325
-0.0646538 -0.0463855 0.159798 0 1 0
-0.140158 -0.0427473 0.610907 0.0152189 -0.999298 0.0342325
0.0162006 0.0268393 0.807697 0.384614 0.923078 0
-0.032044 -0.00271091 0.805319 -0.991459 0.118032 0.0554753
-0.00208247 0.032032 0.67901 -0.401376 0.907878 -0.121053
-0.0139611 -0.0437382 0.133088 -0.9341 0.331134 -0.133443
0.0468477 -0.0360007 0.716021 0.952343 0.300713 0.051124
0 -0.00314666 0.0744807 1 0 0
-0.0365952 -0.0106168 0.745574 0.953281 -0.295864 -0.0609895
-0.0610425 -0.0441536 0.534965 -0.0119603 0.999403 -0.0324272
0.123483 -0.0421001 0.622388 -0.0152189 -0.999298 0.0342325
-0.0290957 -0.0266764 0.938615 -0.922162 0.283742 0.262883
-0.0274757 -0.0687461 0.410583 -0.151858 -0.98708 -0.0511133
-0.0326464 -0.0333885 0.932097 -0.941666 0.289743 0.171213
0.0407629 -0.0329091 0.796642 -0.946613 -0.316439 -0.0615599
0.00354171 0.0320941 0.692998 0.38897 0.92125 0
0 0.0341589 0.110601 1 0 0
0.13355 -0.0480075 0.438848 -0.0164422 -0.999508 0.0266962
-0.234508 -0.0496166 0.440782 -0.0164422 0.999508 -0.0266962
0.0943304 -0.0443257 0.54446 -0.0152189 -0.999298 0.0342325
-0.0171379 -0.018691 0.295436 -0.38585 0.920102 -0.0673244
0.0576693 -0.0560039 0.740317 0.819268 0.565011 0.0977908
-0.0376944 -0.0143714 0.495332 -0.374134 0.926424 -0.0419834
0.0683138 -0.0464047 0.459189 -0.0163861 -0.999543 0.0253983
0.139654 -0.0465721 0.498625 0.0163861 0.999543 -0.0253983
0.00514977 0.0696011 0.00560075 0.922658 -0.384979 -0.0222099
-0.323729 -0.0488852 0.513343 -0.0152189 0.999298 -0.0342325
-0.0413213 -0.0545854 0.820372 -0.951034 -0.309087 0
-0.0345896 0.00866589 0.730567 -0.992669 0.0995535 0.0685369
-0.216918 -0.0492738 0.442784 0.0164422 -0.999508 0.0266962
-0.0578645 -0.0791903 0.706925 -0.937027 -0.340738 0.0766644
0.121675 -0.043421 0.583026 -0.0152189 -0.999298 0.0342325
0.00279378 -0.0910309 0.87854 0 -0.998752 0.0499363
0.0527814 -0.0453593 0.49031 -0.0163861 -0.999543 0.0253983
-0.0314744 -0.0463855 0.149209 0 1 0
0 -0.00638152 0.0710745 -1 0 0
-0.181812 -0.0474848 0.489905 0.0163861 -0.999543 0.0253983
0.0350988 -0.0179022 0.403784 0.377033 0.92373 -0.0675899
0 0.0445221 0.0948008 1 0 0
0.0478767 -0.0388432 0.715376 0.836626 0.546365 0.039268
0.185619 -0.0487936 0.441483 0.0164422 0.999508 -0.0266962
-0.0140676 -0.0967586 0.778457 0.0153551 -0.997994 0.0614148
0.0506294 -0.0974229 0.625819 0.780812 -0.624641 0.0124931
-0.0335528 -0.0203967 0.362398 -0.376993 0.923631 -0.0691459
-0.0624619 -0.0602232 0.706097 -0.834951 0.548565 0.0439649
0.365388 -0.0515273 0.449853 -0.0164422 -0.999508 0.0266962
0 -0.0275074 0.0996015 1 0 0
0.00693177 -0.086995 0.34427 0 -0.995275 -0.0970998
-0.052544 -0.0419599 0.599442 -0.0119603 0.999403 -0.0324272
0 0.0285042 0.0407651 -1 0 0
0.00169195 0.0585667 0.0893221 0.894427 -0.447214 0
0.00814211 -0.0783511 0.949405 0.58888 -0.777123 0.222037
-0.0569453 -0.0511212 0.655906 -0.831919 0.554613 -0.0177478
-0.176231 -0.0476722 0.478932 -0.0163861 0.999543 -0.0253983
0.0277787 -0.0463855 0.162208 0 1 0
0.0847565 -0.040349 0.661825 -0.0213168 -0.999598 0.018714
0.0557404 -0.0900638 0.527071 0.94053 -0.338588 -0.0275878
0.0776972 -0.0463855 0.154132 0 -1 0
0.0497018 -0.0449264 0.465695 0.950751 0.308352 -0.0314776
0 0.00510274 0.158281 -1 0 0
-0.0909357 -0.0446778 0.532672 -0.0152189 0.999298 -0.0342325
0.00708988 -0.0926698 0.845761 0 -0.998752 0.0499363
0.219628 -0.0476272 0.503787 0.0152189 0.999298 -0.0342325
0.313996 -0.0515999 0.415484 0.0164422 0.999508 -0.0266962
0.0624888 -0.062908 0.722772 0.937027 -0.340738 0.0766643
-0.0760583 -0.0454489 0.501798 -0.0163861 0.999543 -0.0253983
0.136715 -0.0463855 0.110138 0 1 0
0 0.0397494 0.0702689 -1 0 0
-0.0790744 -0.0415028 0.623316 0.0119603 -0.999403 0.0324272
-0.245405 -0.0487069 0.482837 0.0163861 -0.999543 0.0253983
-0.0336672 -0.0782441 0.810871 -0.950346 -0.308864 0.0380175
0.04778 -0.0336928 0.623045 0.953224 0.302264 -0.000973863
-0.147751 -0.045266 0.540758 0.0152189 -0.999298 0.0342325
-0.00900726 0.0150626 0.865195 -0.304871 0.803501 0.511311
0.303621 -0.0499871 0.470014 0.0163861 0.999543 -0.0253983
0.0429276 -0.0671144 0.411434 0.79442 0.549977 -0.257725
0.0167743 -0.0996665 0.472797 -0.268936 -0.960476 -0.0718271
-0.022537 -0.0655796 0.95439 -0.891003 -0.376348 0.253919
-0.0594878 -0.039494 0.678712 -0.0213168 0.999598 -0.018714
0.00129073 -0.102368 0.538533 0 -1 0
0.151209 -0.0463175 0.511601 0.0152189 0.999298 -0.0342325
-0.0370634 -0.0629865 0.891738 -0.922442 -0.384642 0.0339386
-0.12934 -0.0437858 0.575784 -0.0152189 0.999298 -0.0342325
-0.0167975 -0.0991782 0.743129 0.259505 -0.963918 0.0593178
0.313117 -0.0490777 0.503006 -0.0152189 -0.999298 0.0342325
0.142055 -0.0440024 0.575113 -0.0152189 -0.999298 0.0342325
0 0.0213693 0.131762 -1 0 0
0.0419012 -0.0280175 0.753993 -0.946613 -0.316439 -0.0615599
-0.00219142 -0.00359288 0.415873 -0.376993 0.923631 -0.0691459
0.420006 -0.0537618 0.399833 -0.0164422 -0.999508 0.0266962
0.27736 -0.0490641 0.487509 -0.0152189 -0.999298 0.0342325
0.0993646 -0.0463855 0.11597 0 1 0
0.0410944 -0.0234927 0.737713 0.953281 0.295864 0.0609895
0.325611 -0.0512152 0.437042 -0.0164422 -0.999508 0.0266962
-0.00733523 -0.0912101 0.387475 0 -0.995275 -0.0970998
0.357014 -0.0528062 0.396816 -0.0164422 -0.999508 0.0266962
-0.128141 -0.0458266 0.515675 -0.0152189 0.999298 -0.0342325
-0.0190041 -0.00792151 0.87656 -0.474623 0.879625 0.0315161
-0.165298 -0.045363 0.545727 0.0152189 -0.999298 0.0342325
0.121835 -0.0422364 0.617676 0.0152189 0.999298 -0.0342325
0.00882507 -0.100598 0.714747 -0.0153551 -0.997994 0.0614148
-0.0137394 -0.0108329 0.382124 -0.376993 0.923631 -0.0691459
-0.41769 -0.052755 0.436102 0.0164422 -0.999508 0.0266962
-0.216308 -0.048535 0.470833 -0.0163861 0.999543 -0.0253983
0.232697 -0.0488932 0.467307 -0.0163861 -0.999543 0.0253983
0.0352179 -0.0504676 0.303651 0.939883 -0.328956 -0.0916957
-0.0508769 -0.0492895 0.506768 -0.960199 -0.27434 -0.0524836
-0.0377405 -0.0385758 0.340021 -0.949889 0.298535 -0.0926719
0.30799 -0.0514721 0.416571 -0.0164422 -0.999508 0.0266962
0.0488305 -0.0993571 0.641542 0.780812 -0.624641 0.0124931
0.0610505 -0.0579857 0.637982 0.826794 0.562217 -0.0179911
-0.00107893 -0.0600719 0.123219 0 -0.990621 -0.136637
-0.0276322 -0.0793914 0.861612 -0.671244 -0.738368 0.0651493
0.0349277 -0.0931072 0.419869 0 0 -1
0.0119506 -0.0766155 0.315072 0.947304 -0.315768 -0.0539118
-0.0163579 -0.0896328 0.847716 -0.593061 -0.799016 0.0992551
0.000251246 -0.0938145 0.822867 0 -0.998752 0.0499363
0.029231 -0.00940489 0.529014 0.380235 0.924109 -0.0380091
0.0495103 -0.0778426 0.433298 0.93485 -0.333871 -0.120776
-0.0477976 -0.042893 0.439425 -0.935412 0.349496 -0.0534526
-0.0714364 -0.0441919 0.538186 0.0152189 -0.999298 0.0342325
0.017754 -0.0695952 0.264842 0.675663 -0.737087 -0.0134835
0.00517406 0.0306396 0.678162 0.388371 0.913419 -0.121792
-0.0238241 0.0235784 0.731509 -0.389632 0.920952 0.00590271
0 -0.00256195 0.0595968 1 0 0
0.382606 -0.0513839 0.466002 0.0163861 0.999543 -0.0253983
-0.0567324 -0.0692124 0.777778 -0.938561 -0.341295 0.0511948
0.0787055 -0.0463855 0.172002 0 1 0
-0.179529 -0.0465696 0.516832 -0.0152189 0.999298 -0.0342325
-0.134342 -0.0463855 0.099967 0 -1 0
-0.00794596 0.000427519 0.555137 -0.380235 0.924109 -0.0380091
-0.045536 -0.0273212 0.52475 -0.951222 0.308505 -0.00119569
0.0554008 -0.0617114 0.503578 0.830126 0.541386 -0.133385
-0.422624 -0.0524958 0.446119 0.00625075 0.999493 -0.0312343
-0.0400895 -0.109561 0.668968 0.278818 -0.960341 -0.0022307
0.0279621 -0.105842 0.627546 -0.278819 -0.960344 0
0.0651648 -0.0463855 0.109189 0 1 0
0.0145453 -0.102368 0.646184 0 -1 0
-0.166739 -0.0475199 0.478802 -0.0163861 0.999543 -0.0253983
0 -0.0259471 0.151501 -1 0 0
0.0878671 -0.0448897 0.52512 -0.0152189 -0.999298 0.0342325
0.155701 -0.0446346 0.562726 -0.0152189 -0.999298 0.0342325
-0.0393107 -0.00798652 0.650833 -0.352451 0.934855 -0.0427136
0.035409 -0.108008 0.607038 -0.287356 -0.957821 -0.002299
-0.0220795 -0.100963 0.739895 0.283406 -0.956499 0.0692207
0.00213054 -0.102368 0.662203 0 -1 0
-0.253567 -0.0485792 0.491085 0.0152189 -0.999298 0.0342325
0.0532722 -0.0403871 0.648183 0.0119603 0.999403 -0.0324272
-0.0364838 -0.0497999 0.314231 -0.939883 -0.328956 -0.0916957
0.00603718 -0.0993057 0.732783 0 -0.998053 0.0623783
-0.081978 -0.0463855 0.112971 0 -1 0
0.0390184 -0.0240908 0.400285 0.949676 0.298468 -0.0950336
-0.0755749 -0.0411436 0.633094 -0.0119603 0.999403 -0.0324272
0 -0.00638882 0.22013 -1 0 0
0.160808 -0.0463855 0.0906055 0 -1 0
-0.014526 0.0275066 0.804908 -0.384611 0.92307 -0.00410263
-0.0112013 -0.0866966 0.360953 -0.947304 -0.315768 -0.0539118
0.0239645 -0.0591606 0.228914 0.670509 -0.731464 -0.124013
-0.255835 -0.0480594 0.507266 -0.0152189 0.999298 -0.0342325
-0.0487004 -0.099961 0.593503 -0.765652 -0.643138 0.0122505
-0.00455943 -0.102368 0.519469 0 -1 0
-0.00351009 -0.00990474 0.337411 -0.38585 0.920102 -0.0673244
0.139016 -0.0463807 0.504335 -0.0152189 -0.999298 0.0342325
-0.142934 -0.0446446 0.556756 -0.0152189 0.999298 -0.0342325
-0.272631 -0.0504735 0.43218 0.0164422 -0.999508 0.0266962
0.043216 -0.0463855 0.161311 0 -1 0
0 0.0146183 0.0880301 1 0 0
-0.0150751 -0.0463855 0.102622 0 1 0
-0.0351414 -0.0736003 0.817812 -0.951034 -0.309087 0
-0.0372896 -0.0656136 0.855816 -0.922442 -0.384642 0.0339386
-0.024009 -0.00925672 0.844799 -0.44567 0.894101 0.0442897
-0.0489634 -0.0900067 0.756486 -0.772436 -0.631993 0.0626588
0.0739162 -0.0414956 0.621635 -0.0119603 -0.999403 0.0324272
0 -0.0204502 0.0391502 -1 0 0
-0.171684 -0.047167 0.495878 0.0163861 -0.999543 0.0253983
-0.0486436 -0.0404804 0.477288 -0.950751 0.308352 -0.0314776
-0.224759 -0.0492983 0.446694 0.0164422 -0.999508 0.0266962
-0.0577675 -0.0456117 0.483591 -0.0163861 0.999543 -0.0253983
-0.0345846 0.00131106 0.746477 -0.991031 0.122548 0.0532814
-0.0570154 -0.0873899 0.668821 -0.939687 -0.341705 0.0150351
-0.256242 -0.0496175 0.454134 0.0164422 -0.999508 0.0266962
-0.331018 -0.0522131 0.403011 0.0164422 -0.999508 0.0266962
-0.0382042 -0.0585816 0.363384 -0.93963 -0.329662 -0.0917486
-0.0324428 -0.0678873 0.408756 -0.151858 -0.98708 -0.0511133
-0.0363087 -0.0163906 0.780224 -0.946613 0.316439 0.0615599
0.107403 -0.0423836 0.606964 -0.0152189 -0.999298 0.0342325
0.0422143 -0.0521915 0.381548 0.939883 -0.328956 -0.0916957
0.0456115 -0.0517215 0.791753 0 0 1
0.0593818 -0.0465483 0.4478 -0.0164422 -0.999508 0.0266962
-0.0926782 -0.0471792 0.444686 0.0164422 -0.999508 0.0266962
0 0.0275486 0.0420613 1 0 0
-0.142031 -0.0446141 0.557245 -0.0152189 0.999298 -0.0342325
-0.110225 -0.044759 0.538877 0.0152189 -0.999298 0.0342325
0.0224456 -0.000452754 0.842937 0.959053 0.0992645 0.265263
-0.0428072 -0.0224688 0.48305 -0.9534 0.299639 -0.0352931
-0.0325336 -0.0385447 0.939366 -0.922162 0.283742 0.262883
-0.329781 -0.0520802 0.407223 -0.0164422 0.999508 -0.0266962
-0.201602 -0.0482031 0.474405 0.0163861 -0.999543 0.0253983
-0.00425767 -0.056208 0.104949 -0.670509 -0.731464 -0.124013
0.0252909 -0.0463855 0.151313 0 -1 0
0.217561 -0.0488351 0.459828 -0.0163861 -0.999543 0.0253983
0 -0.0206912 0.129062 -1 0 0
0.25265 -0.0474637 0.52324 -0.0152189 -0.999298 0.0342325
0.181143 -0.0475219 0.488015 -0.0163861 -0.999543 0.0253983
0.0519989 -0.0619546 0.481419 0.830126 0.541386 -0.133385
-0.281302 -0.0509171 0.420911 0.0164422 -0.999508 0.0266962
-0.0853774 -0.045411 0.508796 -0.0152189 0.999298 -0.0342325
-0.0908715 -0.0467092 0.461757 0.0163861 -0.999543 0.0253983
0.0635018 -0.0463855 0.086676 0 -1 0
-0.0341572 -0.0161484 0.850512 -0.951218 0.308518 -0.000508209
-0.00262978 -0.00218992 0.900498 0.497579 -0.829298 -0.254324
-0.202144 -0.0493394 0.431226 -0.0164422 0.999508 -0.0266962
-0.0576923 -0.0463855 0.142882 0 -1 0
0.00814885 -0.010782 0.350761 0.377033 0.92373 -0.0675899
0.0681533 -0.0465945 0.451615 -0.0163861 -0.999543 0.0253983
0.0328935 -0.0189569 0.37765 0.385785 0.919946 -0.069774
-0.0111465 -0.0444493 0.111621 -0.9341 0.331134 -0.133443
0.20951 -0.0456679 0.556484 -0.0152189 -0.999298 0.0342325
0.0302127 -0.0125929 0.849723 0.44567 0.894101 0.0442897
-0.22069 -0.0489304 0.458097 -0.0163861 0.999543 -0.0253983
0.022402 -0.0656969 0.284649 0.675663 -0.737087 -0.0134835
-0.362246 -0.0510807 0.464802 -0.0163861 0.999543 -0.0253983
0.104949 -0.041877 0.621327 -0.0119603 -0.999403 0.0324272
-0.0431214 -0.0450212 0.374412 -0.949889 0.298535 -0.0926719
-0.0897374 -0.0405772 0.655774 -0.0119603 0.999403 -0.0324272
0.0610319 -0.0718528 0.700823 0.937027 -0.340738 0.0766644
0.122567 -0.0463913 0.494719 0.0163861 0.999543 -0.0253983
-0.0143982 -0.0285934 0.196761 -0.383636 0.914823 -0.126182
0.0990312 -0.0469151 0.458919 0.0163861 0.999543 -0.0253983
-0.0128362 0.0115545 0.592625 -0.375308 0.893211 -0.247622
-0.013468 -0.0769403 0.343638 -0.947304 -0.315768 -0.0539118
-0.0472334 -0.0366552 0.472165 -0.950751 0.308352 -0.0314776
-0.179748 -0.0484566 0.450485 0.0164422 -0.999508 0.0266962
0.0733957 -0.0463855 0.115005 0 -1 0
-0.235712 -0.048438 0.487168 -0.0163861 0.999543 -0.0253983
0.227041 -0.0472148 0.51912 -0.0152189 -0.999298 0.0342325
-0.000627553 0.00202103 0.89034 -0.892404 0.107877 0.438153
0.0435565 -0.0205353 0.602238 0.95122 0.308504 -0.00249985
-0.0487021 -0.0388647 0.700041 0.0213168 -0.999598 0.018714
-0.0483293 -0.0987819 0.518271 -0.768093 -0.640071 -0.01849
0.161454 -0.0463855 0.0851258 0 -1 0
-0.0803546 -0.0446445 0.528938 -0.0152189 0.999298 -0.0342325
-0.267353 -0.0507918 0.41701 0.0164422 -0.999508 0.0266962
-0.0501932 -0.0504676 0.500419 -0.960199 -0.27434 -0.0524836
-0.0979911 -0.0427713 0.591461 0.0152189 -0.999298 0.0342325
-0.075033 -0.0439674 0.54634 0.0152189 -0.999298 0.0342325
0.291338 -0.0514079 0.408719 0.0164422 0.999508 -0.0266962
-0.129263 -0.0466133 0.490301 0.0163861 -0.999543 0.0253983
-0.130482 -0.0452514 0.533507 0.0152189 -0.999298 0.0342325
-0.0654273 -0.0651413 0.636294 -0.945321 -0.325974 0.0104312
-0.137161 -0.0463855 0.084584 0 1 0
0 0.0374418 0.172805 1 0 0
-0.111952 -0.0425914 0.602921 0.0152189 -0.999298 0.0342325
-0.193941 -0.0475881 0.493509 0.0152189 -0.999298 0.0342325
0.0353146 -0.045685 0.292391 0.944646 0.314881 -0.0921605
0.0151052 -0.0463855 0.110292 0 -1 0
0.0123225 -0.020004 0.252723 0.383637 0.914823 -0.126182
0.0353936 -0.103621 0.758383 -0.259323 -0.963243 0.0701101
0.147471 -0.0464031 0.507441 -0.0152189 -0.999298 0.0342325
-0.027137 -0.00485337 0.618727 -0.380235 0.924109 -0.0380091
-0.0570096 -0.041888 0.603304 0.0119603 -0.999403 0.0324272
0.0264153 -0.0122417 0.440545 0.377564 0.925029 -0.0420243
0.139806 -0.0435973 0.58594 -0.0152189 -0.999298 0.0342325
-0.0120187 -0.0845424 0.362698 -0.947304 -0.315768 -0.0539118
-0.131041 -0.0471394 0.470742 -0.0163861 0.999543 -0.0253983
-0.0195058 -0.0645188 0.236412 -0.670509 -0.731464 -0.124013
0.0131821 -0.102368 0.598161 0 -1 0
-0.0485336 -0.0601417 0.466455 -0.814713 0.564025 -0.134604
-0.0264341 -0.0183902 0.350389 -0.376993 0.923631 -0.0691459
-0.0874814 -0.0465597 0.465454 0.0163861 -0.999543 0.0253983
-0.146394 -0.0463855 0.0746846 0 -1 0
0.0351496 -0.0551452 0.319753 0.93963 -0.329662 -0.0917486
-0.0479671 -0.0869861 0.450098 -0.756095 -0.642683 -0.123606
0.0383804 -0.0376397 0.90719 0.938612 0.299807 0.170658
-0.0380512 -0.0125975 0.733931 -0.946613 0.316439 0.0615599
-0.125805 -0.047111 0.468484 -0.0163861 0.999543 -0.0253983
-0.156412 -0.0463855 0.105575 0 -1 0
-0.00320836 -0.0996745 0.726882 0 -0.998053 0.0623783
-0.229139 -0.0482188 0.490746 0.0152189 -0.999298 0.0342325
0 0.0115509 0.0517984 1 0 0
-0.0796279 -0.0429603 0.578598 0.0119603 -0.999403 0.0324272
0.290753 -0.0507978 0.431199 -0.0164422 -0.999508 0.0266962
-0.31564 -0.0500111 0.476827 0.0163861 -0.999543 0.0253983
-0.040921 -0.0259885 0.758636 -0.946613 0.316439 0.0615599
0.152472 -0.045394 0.53912 0.0152189 0.999298 -0.0342325
-0.325798 -0.0518779 0.412346 -0.0164422 0.999508 -0.0266962
-0.0337559 -0.0775388 0.816705 -0.922442 -0.384642 0.0339386
-0.00649499 -0.0170366 0.257049 -0.38585 0.920102 -0.0673244
-0.0586069 -0.0828257 0.539702 -0.945005 -0.325865 -0.0278783
0 0.0499762 0.11969 1 0 0
-0.00435207 -0.0344201 0.123973 -0.383636 0.914823 -0.126182
0.0290936 -0.0866147 0.791753 0 0 1
-0.0172133 -0.0705982 0.292576 -0.675663 -0.737087 -0.0134835
0 -0.0239612 0.108931 1 0 0
-0.392635 -0.0526127 0.425998 -0.0164422 0.999508 -0.0266962
0 -0.0119375 0.070191 -1 0 0
0 0.00931443 0.156374 1 0 0
0 -0.00841855 0.0796346 -1 0 0
0 0.0234183 0.0897663 -1 0 0
0 0.0480944 0.114463 -1 0 0
-0.055512 -0.0543295 0.56103 -0.825023 0.561012 -0.0678341
-0.0592968 -0.082463 0.638212 -0.939687 -0.341705 0.0150351
0.00905423 0.0921182 0.0898863 0.995505 -0.0945452 -0.00556139
-0.0206091 -0.0919372 0.419869 0 0 -1
-0.126517 -0.0447163 0.547364 -0.0152189 0.999298 -0.0342325
-0.0482319 -0.0463855 0.192385 0 1 0
-0.0970619 -0.0422152 0.607994 0.0119603 -0.999403 0.0324272
-0.2834 -0.0509426 0.421248 -0.0164422 0.999508 -0.0266962
0.00456867 -0.0464657 0.0584134 0.960034 -0.248898 -0.128004
-0.0235383 -0.00757335 0.842101 -0.955739 0.0999252 0.276727
-0.0273241 -0.0268582 0.274203 -0.944375 0.31479 -0.095205
0.0268877 -0.10245 0.738863 -0.283638 -0.957282 0.0562254
-0.00639578 0.070978 0.024226 -0.922948 -0.38363 -0.0315312
-0.082658 -0.0449369 0.521426 0.0152189 -0.999298 0.0342325
0.0422109 -0.0166596 0.56853 0.95122 0.308504 -0.00249985
0 -0.0266122 0.165858 -1 0 0
-0.0467501 -0.0795807 0.419869 0 0 -1
-0.0145464 -0.0646194 0.210191 -0.670509 -0.731464 -0.124013
0.243518 -0.0474471 0.519664 0.0152189 0.999298 -0.0342325
0.0467173 -0.0457056 0.409198 0.944646 0.314881 -0.0921605
-0.0184814 -0.0463855 0.136583 0 -1 0
0.334598 -0.0520245 0.412277 0.0164422 0.999508 -0.0266962
0.0211257 -0.0412441 0.189429 0.9341 0.331134 -0.133443
0.0152827 0.0171078 0.616364 0.375308 0.893211 -0.247622
0.304752 -0.0490235 0.500869 -0.0152189 -0.999298 0.0342325
-0.170204 -0.048235 0.452903 -0.0164422 0.999508 -0.0266962
0.0595028 -0.0802409 0.672857 0.939737 -0.341723 0.0109352
0.159258 -0.0481671 0.448705 -0.0164422 -0.999508 0.0266962
-0.0205838 -0.101421 0.724148 0.283662 -0.957362 0.0547059
-0.013635 -0.0728492 0.253805 -0.670509 -0.731464 -0.124013
0.317482 -0.0514575 0.422962 0.0164422 0.999508 -0.0266962
0.200819 -0.0453514 0.561857 0.0152189 0.999298 -0.0342325
-0.0464638 -0.0657218 0.430544 -0.814713 0.564025 -0.134604
0.123964 -0.0448149 0.543351 0.0152189 0.999298 -0.0342325
0 0.0186864 0.173784 -1 0 0
-0.0363568 -0.0202398 0.797445 0.945158 -0.322814 -0.0496635
-0.39559 -0.0523828 0.436425 0.0164422 -0.999508 0.0266962
0.354527 -0.0515468 0.442437 -0.0164422 -0.999508 0.0266962
0.149669 -0.0442732 0.570595 -0.0152189 -0.999298 0.0342325
-0.321889 -0.0508981 0.446621 0.0164422 -0.999508 0.0266962
-0.222814 -0.0494812 0.43865 0.0164422 -0.999508 0.0266962
0 0.0357568 0.132966 1 0 0
-0.104519 -0.0463855 0.0954104 0 -1 0
0.00881407 -0.0197029 0.244239 0.383637 0.914823 -0.126182
-0.00941498 -0.0259909 0.960452 -0.437916 0.826325 0.354141
-0.19635 -0.0459194 0.543291 0.0152189 -0.999298 0.0342325
0.0509115 -0.0699348 0.44083 0.815413 0.56451 -0.128176
0 0.0405481 0.0463017 -1 0 0
-0.0880286 -0.0426201 0.592183 -0.0119603 0.999403 -0.0324272
-0.0315506 -0.0694552 0.907582 -0.904284 -0.388851 0.176254
0 0.0228106 0.169984 1 0 0
0.0264757 -0.071856 0.917398 0.600422 -0.784458 0.155303
0.026191 0.00565362 0.621095 0.941813 0.105099 -0.319284
-0.323507 -0.0515182 0.424401 -0.0164422 0.999508 -0.0266962
0.0453587 -0.0382297 0.743062 0.945158 0.322814 0.0496635
0.0601214 -0.0665488 0.514793 0.835705 0.545024 -0.0674206
-0.0386033 -0.0984745 0.45236 -0.76211 -0.635085 -0.125915
-0.211947 -0.0463259 0.538358 0.0152189 -0.999298 0.0342325
-0.0225922 -0.0127966 0.900577 -0.447565 0.865228 0.225976
-0.0465472 -0.0314316 0.694743 0.952343 -0.300713 -0.051124
0.345927 -0.0518616 0.425354 -0.0164422 -0.999508 0.0266962
0.227053 -0.0472105 0.519251 0.0152189 0.999298 -0.0342325
-0.110738 -0.0449352 0.53396 0.0152189 -0.999298 0.0342325
0.00551014 -0.0374204 0.978751 0.389726 0.71913 0.575296
-0.240749 -0.0496805 0.442232 -0.0164422 0.999508 -0.0266962
-0.0460673 -0.0663486 0.791753 0 0 1
0.0601904 -0.0587439 0.730206 0.831261 0.554174 0.0435411
-0.0698864 -0.0461975 0.468355 -0.0163861 0.999543 -0.0253983
-0.0491043 -0.0379274 0.626948 -0.951222 0.308505 -0.00119569
-0.171976 -0.0455298 0.543829 0.0152189 -0.999298 0.0342325
0.0809824 -0.0417213 0.617285 -0.0119603 -0.999403 0.0324272
-0.110783 -0.0465318 0.481584 0.0163861 -0.999543 0.0253983
-0.0752223 -0.0446137 0.527557 0.0152189 -0.999298 0.0342325
0.0478508 -0.03395 0.612508 0.953224 0.302264 -0.000973863
-0.0647222 -0.0465088 0.452773 -0.0163861 0.999543 -0.0253983
0.0484766 -0.0360468 0.574217 0.953224 0.302264 -0.000973863
0.242359 -0.0461204 0.557877 -0.0152189 -0.999298 0.0342325
-0.217428 -0.0456257 0.561236 -0.0152189 0.999298 -0.0342325
0.0717612 -0.0405305 0.650582 0.0119603 0.999403 -0.0324272
0.0293151 -0.0463855 0.182745 0 1 0
0.0200608 0.0251231 0.763285 0.392057 0.919934 -0.00362187
-0.189756 -0.0452596 0.55962 -0.0152189 0.999298 -0.0342325
0 -0.00820328 0.19521 1 0 0
-0.00722605 0.0743846 0.0814718 -0.994132 -0.107989 -0.0063522
-0.00387575 -0.00338643 0.901962 0.497579 -0.829298 -0.254324
-0.0307022 -0.062094 0.297377 -0.944835 -0.314945 -0.0899844
0 0.00369037 0.110516 -1 0 0
-0.190893 -0.0457986 0.544392 -0.0152189 0.999298 -0.0342325
-0.00644187 0.0680665 0.132328 -0.894427 -0.447214 -9.39434e-09
-0.050626 -0.0964755 0.663 -0.780857 -0.624678 0.00624728
0.130545 -0.0470384 0.4744 0.0163861 0.999543 -0.0253983
-0.0220205 -0.0463855 0.105506 0 -1 0
0.00228359 0.032638 0.77139 0.384614 0.923078 0
-0.165927 -0.0447025 0.565288 0.0152189 -0.999298 0.0342325
-0.0410152 -0.01272 0.606117 -0.953214 0.302289 -0.00215565
0.0617804 -0.064237 0.725524 0.937027 -0.340738 0.0766643
0 -0.0132683 0.16024 1 0 0
-0.00270714 -0.102368 0.644371 0 -1 0
0.0392829 -0.0463855 0.119781 0 -1 0
0.082127 -0.0442714 0.540618 0.0152189 0.999298 -0.0342325
0.0223135 -0.0556904 0.208764 0.931012 -0.339893 -0.133002
0 0.0219185 0.0602328 -1 0 0
0 0.0286816 0.0840994 1 0 0
-0.0268121 -0.0463855 0.140963 0 -1 0
-0.0208238 -0.0438994 0.180727 -0.9341 0.331134 -0.133443
-0.0502886 -0.0446706 0.485927 -0.950751 0.308352 -0.0314776
0.242992 -0.0499595 0.433169 0.0164422 0.999508 -0.0266962
-0.069722 -0.0463873 0.460781 0.0163861 -0.999543 0.0253983
-0.041886 -0.0160844 0.519357 -0.953214 0.302289 -0.00215565
0 -0.0139206 0.0782375 1 0 0
-0.0666598 -0.0463855 0.171645 0 1 0
0.0500492 -0.0553865 0.495943 0.830126 0.541386 -0.133385
-0.126172 -0.0454152 0.526811 0.0152189 -0.999298 0.0342325
-0.0104009 -0.0242409 0.216163 -0.383636 0.914823 -0.126182
0.146093 -0.0436836 0.586214 0.0152189 0.999298 -0.0342325
-0.0699987 -0.0398062 0.674009 -0.0213168 0.999598 -0.018714
0 -0.0296504 0.0427385 -1 0 0
0.0319354 -0.00709835 0.609415 0.352451 0.934855 -0.0427136
0.175088 -0.0489725 0.428299 0.0164422 0.999508 -0.0266962
-0.0367502 -0.0463855 0.0990215 0 1 0
0.0325048 -0.0667441 0.386863 0.151858 -0.98708 -0.0511133
-0.0428149 -0.0893645 0.430948 -0.756095 -0.642683 -0.123606
-0.00809026 -0.0563033 0.126233 -0.670509 -0.731464 -0.124013
-0.0261112 -0.100146 0.441991 0.268787 -0.959943 -0.0791347
-0.31188 -0.0510904 0.433258 -0.0164422 0.999508 -0.0266962
0 0.0413898 0.0534605 1 0 0
-0.098573 -0.0413023 0.636687 -0.0119603 0.999403 -0.0324272
-0.0678735 -0.0451324 0.508975 0.0163861 -0.999543 0.0253983
0.291433 -0.0502959 0.450409 -0.0164422 -0.999508 0.0266962
0.361026 -0.0522823 0.4189 0.0164422 0.999508 -0.0266962
0.271726 -0.0479 0.518984 0.0152189 0.999298 -0.0342325
0 0.00420091 0.138372 1 0 0
-0.105739 -0.0410375 0.648949 0.0213168 -0.999598 0.018714
0.0272264 0.0221898 0.793881 0.392057 0.919934 -0.00362187
0.216066 -0.0474858 0.50633 -0.0152189 -0.999298 0.0342325
0.0104342 -0.0962333 0.441292 0 -0.996241 -0.0866298
0 0.0278152 0.0542654 1 0 0
0.0193267 -0.00657492 0.503344 0.37416 0.926489 -0.0402822
0.04153 -0.0292472 0.766023 -0.946613 -0.316439 -0.0615599
-0.0562619 -0.0414479 0.616593 0.0119603 -0.999403 0.0324272
0.00371829 -0.0804271 0.276949 0 -0.995275 -0.0970998
-0.230758 -0.0479161 0.500301 -0.0152189 0.999298 -0.0342325
-0.0379584 -0.0652352 0.384562 -0.944835 -0.314945 -0.0899844
0.00250703 0.0624996 0.0189079 0.922658 -0.384979 -0.0222099
-0.116483 -0.0467757 0.475666 0.0163861 -0.999543 0.0253983
0.0185651 -0.0971944 0.433036 -0.268936 -0.960476 -0.0718271
0.0192523 -0.0653501 0.239944 0.670509 -0.731464 -0.124013
0.00687501 -0.102368 0.542429 0 -1 0
-0.0523772 -0.0955245 0.574602 -0.765599 -0.643093 -0.0170132
0.00159812 -0.102368 0.527331 0 -1 0
0.0379378 -0.0118523 0.730582 0.953281 0.295864 0.0609895
-0.10188 -0.0463855 0.0996176 0 1 0
-0.0382491 -0.012397 0.545542 -0.352451 0.934855 -0.0427136
0.0526859 -0.0543817 0.520984 0.835705 0.545024 -0.0674206
0.125852 -0.0455019 0.524137 0.0152189 0.999298 -0.0342325
0 0.0514641 0.0841128 -1 0 0
0.0352597 -0.0463855 0.119403 0 -1 0
0.135511 -0.0473519 0.465263 0.0163861 0.999543 -0.0253983
-0.0513696 -0.0425936 0.579479 -0.0119603 0.999403 -0.0324272
-0.279207 -0.0511544 0.410736 0.0164422 -0.999508 0.0266962
-0.0494009 -0.0860821 0.45522 -0.933992 -0.336234 -0.120851
0.0385239 -0.0295864 0.827158 0.950871 0.309586 -0.000437838
-0.055343 -0.0539694 0.561952 -0.825023 0.561012 -0.0678341
0.0297774 -0.0567536 0.268976 0.944835 -0.314945 -0.0899844
0.0210292 0.0172306 0.629451 0.392605 0.913099 -0.11005
0.218892 -0.0472741 0.513768 -0.0152189 -0.999298 0.0342325
0.0759915 -0.0463855 0.170163 0 1 0
0.03358 0.00690745 0.75229 0.991031 0.122548 0.0532814
0.160197 -0.0455749 0.537276 0.0152189 0.999298 -0.0342325
-0.0540865 -0.0486961 0.72133 -0.834951 0.548565 0.0439649
-0.0117218 -0.0667051 0.207221 -0.670509 -0.731464 -0.124013
0.258874 -0.050072 0.438737 0.0164422 0.999508 -0.0266962
-0.0151989 -0.0202657 0.262802 -0.38585 0.920102 -0.0673244
-0.152458 -0.0439502 0.581263 -0.0152189 0.999298 -0.0342325
0.188023 -0.0456593 0.547183 0.0152189 0.999298 -0.0342325
0.0249717 -0.0124128 0.423809 0.377564 0.925029 -0.0420243
-0.0897482 -0.0447907 0.528847 -0.0152189 0.999298 -0.0342325
-0.0219158 -0.0658519 0.268757 -0.675663 -0.737087 -0.0134835
-0.0196411 -0.00802227 0.474553 -0.374134 0.926424 -0.0419834
0.212332 -0.0449003 0.580146 0.0152189 0.999298 -0.0342325
0 0.00838485 0.119457 -1 0 0
0.377768 -0.0514573 0.4601 -0.0164422 -0.999508 0.0266962
-0.0112837 -0.00308076 0.509118 -0.374134 0.926424 -0.0419834
0 0.0376371 0.050036 -1 0 0
-0.312898 -0.0517378 0.409645 -0.0164422 0.999508 -0.0266962
-0.0132986 -0.0129836 0.350991 -0.376993 0.923631 -0.0691459
0.00834554 0.0850549 0.0325983 0.995037 -0.0995037 0
0.327083 -0.0499745 0.483036 -0.0152189 -0.999298 0.0342325
-0.215448 -0.0473134 0.511088 -0.0152189 0.999298 -0.0342325
-0.0440604 -0.0372671 0.761513 0.945158 -0.322814 -0.0496635
-0.00316874 -0.0786384 0.258615 0 -0.995275 -0.0970998
-0.111336 -0.0414059 0.638201 -0.0119603 0.999403 -0.0324272
-0.19392 -0.0472414 0.503619 0.0152189 -0.999298 0.0342325
-0.101319 -0.0470661 0.454452 -0.0163861 0.999543 -0.0253983
0.044539 -0.0451803 0.388666 0.944646 0.314881 -0.0921605
0.352585 -0.0514039 0.446588 0.0164422 0.999508 -0.0266962
0.0804438 -0.0402413 0.6627 -0.0119603 -0.999403 0.0324272
-0.198082 -0.0489633 0.442807 -0.0164422 0.999508 -0.0266962
-0.00893106 0.0906861 0.0939043 -0.995371 -0.0960331 -0.00389318
0.324978 -0.0520456 0.40556 0.0164422 0.999508 -0.0266962
0 -0.0225217 0.150762 -1 0 0
-0.0370999 -0.0652585 0.864996 -0.922442 -0.384642 0.0339386
-0.0150329 -0.0703424 0.246577 -0.670509 -0.731464 -0.124013
0.0426212 -0.0977109 0.757577 0.772539 -0.632077 0.06051
0 0.00493557 0.0370084 1 0 0
-0.00876602 -0.0189651 0.944877 -0.42492 0.827479 0.367044
-0.237769 -0.0493953 0.451075 -0.0164422 0.999508 -0.0266962
0 -0.00669419 0.248922 1 0 0
0.350238 -0.0521071 0.418817 -0.0164422 -0.999508 0.0266962
-0.131058 -0.0447573 0.548187 -0.0152189 0.999298 -0.0342325
0 -0.00427811 0.0630381 1 0 0
-0.105846 -0.0464268 0.482535 -0.0163861 0.999543 -0.0253983
-0.0368589 -0.0244736 0.853293 -0.951218 0.308518 -0.000508209
-0.0323064 -0.00694212 0.809631 -0.991459 0.118032 0.0554753
-0.428499 -0.0539088 0.399562 -0.0164422 0.999508 -0.0266962
0 0.0512483 0.0558533 1 0 0
0.130744 -0.0463855 0.0888716 0 -1 0
0.00982966 -0.0686034 0.208187 0.670509 -0.731464 -0.124013
0.0634259 -0.0621502 0.711791 0.831261 0.554174 0.0435411
-0.0298885 -0.0463855 0.116306 0 -1 0
0.346254 -0.0501233 0.487217 0.0152189 0.999298 -0.0342325
-0.0602209 -0.0425698 0.583477 0.0119603 -0.999403 0.0324272
-0.349782 -0.0497568 0.499485 0.0152189 -0.999298 0.0342325
-0.0259867 -0.015613 0.904638 -0.447565 0.865228 0.225976
0.238779 -0.0491611 0.46069 0.0163861 0.999543 -0.0253983
0.0444228 -0.0437918 0.795734 -0.948132 -0.308694 -0.0758535
0.147636 -0.044489 0.563391 0.0152189 0.999298 -0.0342325
-0.0603825 -0.0613238 0.748574 -0.833615 0.543658 0.0975805
-0.092078 -0.0419032 0.615771 -0.0119603 0.999403 -0.0324272
-0.0579775 -0.0826367 0.512251 -0.94064 -0.338627 -0.0229936
-0.0209607 -0.00704405 0.507898 -0.374134 0.926424 -0.0419834
-0.0412478 -0.0287699 0.767909 -0.946613 0.316439 0.0615599
0.0435315 -0.0449833 0.822855 0.951223 0.308505 0
0.0436322 -0.0304502 0.734815 -0.964093 -0.262476 -0.0403807
0.141279 -0.0428738 0.607713 -0.0152189 -0.999298 0.0342325
0.00497202 -0.0353398 0.976515 0.389726 0.71913 0.575296
-0.200625 -0.0490274 0.441974 0.0164422 -0.999508 0.0266962
-0.0863674 -0.044501 0.5358 0.0152189 -0.999298 0.0342325
-0.0318651 -0.106918 0.506736 0.295681 -0.952719 -0.0699898
0.140078 -0.0450252 0.544379 -0.0152189 -0.999298 0.0342325
0 -0.0178883 0.140068 -1 0 0
-0.343076 -0.0510532 0.453863 0.0164422 -0.999508 0.0266962
0.00154258 -0.101979 0.507367 0 -0.996241 -0.0866298
0 0.00165354 0.117469 -1 0 0
-0.0297782 -0.0545709 0.261345 -0.944835 -0.314945 -0.0899844
-0.353426 -0.0516296 0.438656 0.0164422 -0.999508 0.0266962
0.0476714 -0.0396279 0.458565 0.935412 0.349496 -0.0534526
0.0125744 -0.00593894 0.455253 0.37416 0.926489 -0.0402822
0.00165833 0.107493 0.105029 0.780875 0.624687 0
0 0.00737996 0.099662 -1 0 0
-0.0629976 -0.045797 0.479675 0.0163861 -0.999543 0.0253983
0 -0.0163179 0.13927 1 0 0
0.00382048 -1.05267e-05 0.510296 0.37416 0.926489 -0.0402822
0.141093 -0.0463855 0.0784937 0 -1 0
0 0.0367023 0.0554177 1 0 0
0 0.0226021 0.164357 1 0 0
0.0117265 -0.0888298 0.382676 0.947304 -0.315768 -0.0539118
0.0322589 -0.101719 0.440681 -0.295546 -0.952282 -0.076241
-0.0431088 -0.0436902 0.876477 -0.950871 0.309586 0
0.0505775 -0.0436403 0.724581 0.836626 0.546365 0.039268
0.0671593 -0.0462517 0.464464 0.0163861 0.999543 -0.0253983
0.1476 -0.0467782 0.49564 -0.0163861 -0.999543 0.0253983
0.373301 -0.0531005 0.395826 0.0164422 0.999508 -0.0266962
-0.173162 -0.0447696 0.566548 0.0152189 -0.999298 0.0342325
-0.0078391 0.00591045 0.874694 -0.892404 0.107877 0.438153
-0.00909356 0.0914528 0.116536 -0.995371 -0.0960331 -0.00389318
-0.0167701 0.0264914 0.786866 -0.384611 0.92307 -0.00410263
-0.0497637 -0.0404132 0.697454 -0.831424 0.554282 0.0387975
0.144921 -0.0447207 0.555418 0.0152189 0.999298 -0.0342325
0.0416554 -0.0317106 0.776758 -0.946613 -0.316439 -0.0615599
-0.0747455 -0.0463855 0.154514 0 1 0
0.144676 -0.0424945 0.620297 -0.0152189 -0.999298 0.0342325
0.016728 0.0114816 0.59826 0.375308 0.893211 -0.247622
0.133966 -0.0473319 0.465056 -0.0163861 -0.999543 0.0253983
0.0349328 -0.0659347 0.378446 0.151858 -0.98708 -0.0511133
0.0226327 -0.024801 0.249291 0.383637 0.914823 -0.126182
-0.0141066 -0.0840864 0.396714 -0.947304 -0.315768 -0.0539118
0.0229814 -0.104445 0.675868 -0.287356 -0.957821 -0.002299
-0.0299338 -0.00409581 0.635812 -0.978546 0.0983838 -0.181019
-0.0338942 -0.0235168 0.350423 -0.944375 0.31479 -0.095205
0.0176864 -0.00757764 0.465046 0.37416 0.926489 -0.0402822
0.0342629 -0.0577647 0.918228 0.905802 -0.390382 0.164692
-0.273012 -0.0470365 0.544765 -0.0152189 0.999298 -0.0342325
0.140805 -0.0432471 0.596607 0.0152189 0.999298 -0.0342325
0.032681 0.00217355 0.781114 0.991421 0.121133 0.0491074
0.0121197 -0.102368 0.57045 0 -1 0
0.012058 -0.0245659 0.218845 0.383637 0.914823 -0.126182
0 0.0408764 0.152669 1 0 0
-0.0508697 -0.0451909 0.4957 0.0163861 -0.999543 0.0253983
0.02007 0.0251354 0.767392 0.392057 0.919934 -0.00362187
-0.343765 -0.0520276 0.417805 -0.0164422 0.999508 -0.0266962
0.30233 -0.0489188 0.50285 -0.0152189 -0.999298 0.0342325
-0.0492092 -0.0420004 0.47948 -0.950751 0.308352 -0.0314776
0.0936079 -0.0429283 0.584929 -0.0152189 -0.999298 0.0342325
0 -0.018048 0.0665242 1 0 0
-0.000191133 0.0277333 0.64048 -0.391456 0.912125 -0.121614
0.0652643 -0.0644261 0.630368 0.826794 0.562217 -0.0179911
-0.316668 -0.0485724 0.519336 0.0152189 -0.999298 0.0342325
0.0305942 0.0069676 0.647049 0.973114 0.136125 -0.185793
0.276055 -0.0495357 0.469997 0.0163861 0.999543 -0.0253983
-0.0271593 -0.0615984 0.27161 -0.151858 -0.98708 -0.0511133
0.331627 -0.0513504 0.435684 -0.0164422 -0.999508 0.0266962
-0.0713594 -0.044832 0.519466 -0.0152189 0.999298 -0.0342325
-0.0137743 -0.0463855 0.113984 0 1 0
0.0410738 -0.012409 0.664974 0.953224 0.302264 -0.000973863
0 -0.0301495 0.0394698 1 0 0
0.173524 -0.0442225 0.582679 0.0152189 0.999298 -0.0342325
-0.0799348 -0.0449074 0.521078 0.0152189 -0.999298 0.0342325
-0.300783 -0.0515926 0.40762 0.0164422 -0.999508 0.0266962
0.0243369 -0.0500113 0.208415 0.931012 -0.339893 -0.133002
-0.0436192 -0.0454117 0.378256 -0.949889 0.298535 -0.0926719
0.210306 -0.0479401 0.490371 0.0163861 0.999543 -0.0253983
0.14482 -0.0463855 0.116069 0 1 0
-0.0860588 -0.0417272 0.618975 -0.0119603 0.999403 -0.0324272
-0.251429 -0.0478146 0.512454 0.0152189 -0.999298 0.0342325
-0.0573952 -0.0567437 0.563967 -0.825023 0.561012 -0.0678341
-0.0466679 -0.030503 0.604321 -0.951222 0.308505 -0.00119569
-0.413082 -0.0534378 0.407698 -0.0164422 0.999508 -0.0266962
0.00165016 -0.000845994 0.470921 0.37416 0.926489 -0.0402822
-0.212001 -0.0484162 0.472727 -0.0163861 0.999543 -0.0253983
-0.00585378 -0.0696522 0.970842 -0.425181 -0.690955 0.584639
0.137002 -0.042812 0.607617 0.0152189 0.999298 -0.0342325
0 -0.00069714 0.150456 1 0 0
-0.00575349 -0.0360757 0.116231 -0.383636 0.914823 -0.126182
-0.000948563 -0.00872061 0.927842 -0.443719 0.864088 0.237626
-0.205894 -0.045998 0.545239 -0.0152189 0.999298 -0.0342325
-0.00490448 -0.00398167 0.902066 -0.454061 0.852885 0.257713
0.0203317 -0.0189515 0.308266 0.385785 0.919946 -0.069774
-0.0660206 -0.0463855 0.151434 0 -1 0
-0.0481422 -0.0505389 0.45197 -0.932851 -0.358561 -0.0349826
0.314923 -0.0507852 0.446557 0.0164422 0.999508 -0.0266962
0.0503243 -0.0414866 0.700009 0.836626 0.546365 0.039268
-0.0622472 -0.0450053 0.510349 -0.0163861 0.999543 -0.0253983
-0.0319361 0.0141295 0.766991 -0.991543 0.119894 0.0496853
0.375392 -0.0516411 0.451755 0.0164422 0.999508 -0.0266962
-0.0127438 -0.00113271 0.5652 -0.380235 0.924109 -0.0380091
-0.0469599 -0.0383424 0.725858 0.933009 -0.347547 -0.0933012
-0.0661704 -0.0437459 0.549422 0.0119603 -0.999403 0.0324272
-0.00735176 -0.0836797 0.310288 0 -0.995275 -0.0970998
-0.00323586 0.0701978 0.162266 -0.941898 0.039249 0.333598
0.0289941 -0.0688725 0.417534 0.151858 -0.98708 -0.0511133
0.216211 -0.0493933 0.437874 0.0164422 0.999508 -0.0266962
-0.322463 -0.0516985 0.417006 -0.0164422 0.999508 -0.0266962
0 -0.0265423 0.157078 -1 0 0
0 -0.0251996 0.124806 -1 0 0
0.157584 -0.0457345 0.531456 0.0152189 0.999298 -0.0342325
0.200877 -0.0488246 0.449719 -0.0164422 -0.999508 0.0266962
0.0380513 -0.0280859 0.86544 0.951223 0.308505 0
-0.25809 -0.0487298 0.4887 0.0152189 -0.999298 0.0342325
-0.0422859 -0.0464606 0.361723 -0.939883 -0.328956 -0.0916957
-0.328458 -0.049932 0.484889 -0.0152189 0.999298 -0.0342325
0.172547 -0.0469596 0.502343 0.0152189 0.999298 -0.0342325
-0.184975 -0.0466734 0.516225 0.0152189 -0.999298 0.0342325
0.0609805 -0.0745448 0.51525 0.94053 -0.338588 -0.0275878
0.39778 -0.0518068 0.45934 0.0164422 0.999508 -0.0266962
-0.133235 -0.0449219 0.54435 -0.0152189 0.999298 -0.0342325
0.0448069 -0.0858919 0.424969 0.755847 -0.642472 -0.126196
-0.370869 -0.0505957 0.484369 -0.0152189 0.999298 -0.0342325
0.131036 -0.0463855 0.119402 0 1 0
-0.0213268 -0.0131076 0.393106 -0.376993 0.923631 -0.0691459
0 0.0263585 0.122487 1 0 0
-0.0538767 -0.0927857 0.646683 -0.765652 -0.643138 0.0122505
-0.339617 -0.0511999 0.446241 -0.0164422 0.999508 -0.0266962
0.011073 -0.0635514 0.185111 0.670509 -0.731464 -0.124013
0.119401 -0.0476097 0.445026 -0.0164422 -0.999508 0.0266962
0.365394 -0.0522531 0.422684 -0.0164422 -0.999508 0.0266962
0.0348146 -0.0181547 0.854523 0.950871 0.309586 -0.000437838
0 0.0307403 0.0880415 1 0 0
-0.37605 -0.0528245 0.407853 0.0164422 -0.999508 0.0266962
-0.181679 -0.0481815 0.462401 0.0163861 -0.999543 0.0253983
0.000160055 0.0901887 0.15734 0.734545 0.521291 0.434395
-0.0357207 -0.0743536 0.792706 -0.941179 -0.329413 0.0752972
0.00732861 0.0024133 0.564389 0.941813 0.105099 -0.319284
0.0345989 -0.0600206 0.331036 0.944835 -0.314945 -0.0899844
0.293736 -0.0482228 0.519348 -0.0152189 -0.999298 0.0342325
0 0.0116068 0.0693755 1 0 0
0.0380384 -0.0110723 0.572797 0.352451 0.934855 -0.0427136
0.0589357 -0.0463056 0.457038 0.0163861 0.999543 -0.0253983
0.235459 -0.0492838 0.45383 0.0164422 0.999508 -0.0266962
0.354165 -0.0516955 0.436647 0.0164422 0.999508 -0.0266962
-0.036813 -0.0357843 0.913206 -0.939404 0.300202 0.165528
-0.0210068 -0.00930853 0.458163 -0.377592 0.925098 -0.0402218
0.0634336 -0.0429771 0.572107 -0.0119603 -0.999403 0.0324272
-0.176774 -0.0442008 0.584757 0.0152189 -0.999298 0.0342325
-0.171449 -0.0484508 0.44559 -0.0164422 0.999508 -0.0266962
-0.0573127 -0.0559192 0.743196 -0.820091 0.565579 0.0870117
0.0424003 -0.0346143 0.40103 0.949676 0.298468 -0.0950336
0.0633149 -0.0619459 0.71131 0.831261 0.554174 0.0435411
0.0613875 -0.0403482 0.652376 0.0119603 0.999403 -0.0324272
0.123216 -0.0462439 0.500937 -0.0163861 -0.999543 0.0253983
-0.278677 -0.0502472 0.444378 0.0164422 -0.999508 0.0266962
-0.296663 -0.0481979 0.521376 0.0152189 -0.999298 0.0342325
-0.0515194 -0.0452761 0.524791 -0.894399 0.447227 -0.00624079
-0.0168029 0.0243624 0.669892 -0.387912 0.91157 -0.136254
0.0816106 -0.0455425 0.501696 0.0163861 0.999543 -0.0253983
-0.38802 -0.0526273 0.422608 -0.0164422 0.999508 -0.0266962
0.00994666 -0.0984841 0.467176 0 -0.996241 -0.0866298
-0.0420312 -0.0463855 0.194188 0 -1 0
0.182133 -0.0444182 0.580794 0.0152189 0.999298 -0.0342325
-0.0405644 -0.105521 0.710764 -0.771589 -0.631301 0.0781625
-0.0414514 -0.102157 0.729179 -0.771589 -0.631301 0.0781625
0.00689925 -0.0755267 0.235266 0 -0.990621 -0.136637
-0.0422897 -0.0348319 0.779382 0.945158 -0.322814 -0.0496635
-0.103546 -0.0413684 0.636484 -0.0119603 0.999403 -0.0324272
-0.373652 -0.051637 0.450839 0.0164422 -0.999508 0.0266962
0.130273 -0.0480048 0.436928 0.0164422 0.999508 -0.0266962
0.00759465 -0.0703326 0.206302 0.670509 -0.731464 -0.124013
-0.04198 -0.0152818 0.684828 -0.952343 0.300713 0.051124
0 0.00649495 0.122046 1 0 0
0.128773 -0.0439832 0.569768 -0.0152189 -0.999298 0.0342325
0 -0.0103079 0.143013 -1 0 0
-0.0101063 0.0293578 0.693595 -0.389032 0.921218 -0.00340694
-0.0469451 -0.101102 0.66046 -0.780857 -0.624678 0.00624728
-0.0421542 -0.0162588 0.613532 -0.953214 0.302289 -0.00215565
-0.00626002 -0.0119225 0.929567 -0.443719 0.864088 0.237626
0 -0.0153765 0.144758 1 0 0
-0.0473271 -0.0367983 0.711782 -0.952343 0.300713 0.051124
0.0809549 -0.0461743 0.47641 -0.0163861 -0.999543 0.0253983
-0.0272631 -0.00697532 0.568397 -0.380235 0.924109 -0.0380091
-0.199575 -0.04843 0.464167 -0.0163861 0.999543 -0.0253983
-0.0356588 -0.108077 0.572985 0.278819 -0.960344 0
0.00626681 0.101732 0.0573635 0.780875 0.624687 0
0.00941067 -0.0789127 0.283897 0.947304 -0.315768 -0.0539118
0.0162889 -0.0367081 0.970476 0.435397 0.653098 0.619591
-0.0383885 -0.0423136 0.334622 -0.949889 0.298535 -0.0926719
0.189737 -0.0490893 0.43295 0.0164422 0.999508 -0.0266962
-0.0999146 -0.0441106 0.55322 -0.0152189 0.999298 -0.0342325
0.0594326 -0.0463855 0.18056 0 -1 0
0.00226563 -0.0871467 0.345825 0 -0.995275 -0.0970998
0.0627573 -0.0434672 0.556753 -0.0119603 -0.999403 0.0324272
-0.144353 -0.0463855 0.111715 0 -1 0
0.0295164 -0.0829059 0.793386 0.690069 -0.721438 0.0577171
0.0962265 -0.0414004 0.632796 0.0119603 0.999403 -0.0324272
0.0228761 -0.0463855 0.145308 0 1 0
0.0512313 -0.0437373 0.712001 0.836626 0.546365 0.039268
0.0265663 -0.0367346 0.239369 0.941184 0.313727 -0.125491
0.0299753 -0.0288728 0.937895 0.922018 0.283698 0.263436
-0.375339 -0.0519543 0.439996 -0.0164422 0.999508 -0.0266962
0.0468551 -0.0309502 0.572119 0.95122 0.308504 -0.00249985
0.0215561 -0.0351951 0.207452 0.9341 0.331134 -0.133443
-0.019042 -0.020202 0.285698 -0.38585 0.920102 -0.0673244
-0.0490542 -0.0534188 0.495007 -0.960199 -0.27434 -0.0524836
-0.040896 -0.025971 0.41297 -0.949889 0.298535 -0.0926719
-0.00901258 0.0917253 0.0184596 -0.995037 -0.0995037 0
-0.0196817 -0.0321398 0.201913 -0.9341 0.331134 -0.133443
0.0154677 -0.0719855 0.28094 0.675663 -0.737087 -0.0134835
-0.0388305 -0.0118191 0.562989 -0.352451 0.934855 -0.0427136
0.0254956 -0.0463855 0.11551 0 -1 0
-0.0580791 -0.0449386 0.510284 0.0163861 -0.999543 0.0253983
-0.23686 -0.0495828 0.443495 -0.0164422 0.999508 -0.0266962
-0.0111955 -0.00999137 0.379495 -0.376993 0.923631 -0.0691459
0.0490244 -0.0479132 0.448583 0.932851 -0.358561 -0.0349826
-0.0693204 -0.0463855 0.175197 0 -1 0
-0.374577 -0.0512055 0.467844 -0.0163861 0.999543 -0.0253983
-0.244699 -0.0472054 0.527245 0.0152189 -0.999298 0.0342325
0.405573 -0.0519008 0.460621 0.0164422 0.999508 -0.0266962
0 -0.0106509 0.239573 1 0 0
0.0475254 -0.0463855 0.103886 0 -1 0
0.315453 -0.0511837 0.431963 -0.0164422 -0.999508 0.0266962
-0.0334051 0.0115975 0.744756 -0.991031 0.122548 0.0532814
-0.219492 -0.0489388 0.456995 0.0163861 -0.999543 0.0253983
0.0146626 -0.0901153 0.853962 0.593061 -0.799016 0.0992551
0 -0.0162079 0.201762 1 0 0
-0.0412362 -0.0463855 0.123441 0 -1 0
0.0533717 -0.0743507 0.791753 0 0 1
-0.28968 -0.0495286 0.479065 0.0163861 -0.999543 0.0253983
0 0.0494051 0.148789 -1 0 0
0.0716592 -0.0439169 0.546313 0.0152189 0.999298 -0.0342325
-0.290346 -0.0495902 0.477072 -0.0163861 0.999543 -0.0253983
0.0705804 -0.0408175 0.641301 -0.0119603 -0.999403 0.0324272
0 0.0522881 0.0587014 1 0 0
0.156808 -0.0450869 0.550014 0.0152189 0.999298 -0.0342325
0.0453639 -0.0287624 0.493016 0.950751 0.308352 -0.0314776
-0.148272 -0.0469642 0.488757 0.0163861 -0.999543 0.0253983
0.0582869 -0.0550013 0.604243 0.826794 0.562217 -0.0179911
-0.145285 -0.0463855 0.106781 0 1 0
0.0414706 -0.0386289 0.860492 0.951223 0.308505 0
0.0874788 -0.0437634 0.557827 -0.0152189 -0.999298 0.0342325
0.031829 -0.0695752 0.905807 0.91177 -0.370993 0.17618
0.00200033 0.0599976 0.1569 0.906102 -0.342961 0.247702
0.00554954 0.0312464 0.692892 0.38897 0.92125 0
-0.0376018 -0.106567 0.72277 0.286906 -0.95632 0.0560166
-0.0773178 -0.0448468 0.521682 -0.0152189 0.999298 -0.0342325
-0.211783 -0.049195 0.442572 -0.0164422 0.999508 -0.0266962
-0.00293617 -0.0253808 0.965445 -0.389726 0.71913 0.575296
0 0.0144765 0.0767665 -1 0 0
-0.129043 -0.0463855 0.11203 0 -1 0
-0.180346 -0.0468519 0.508956 -0.0152189 0.999298 -0.0342325
-0.149157 -0.0443526 0.568046 -0.0152189 0.999298 -0.0342325
0 0.00879509 0.100897 -1 0 0
-0.380392 -0.051972 0.442447 -0.0164422 0.999508 -0.0266962
0.0371744 -0.0463855 0.158243 0 -1 0
-0.0288182 0.0120285 0.640591 -0.98249 0.0952234 -0.160144
-0.0195487 -0.0363098 0.190635 -0.9341 0.331134 -0.133443
-0.00675765 0.0732063 0.151969 -0.941898 0.039249 0.333598
-0.192361 -0.0488778 0.442485 0.0164422 -0.999508 0.0266962
-0.0488643 -0.0723217 0.419641 0.536854 -0.843616 0.0100064
0.0353211 -0.0158752 0.440578 0.377564 0.925029 -0.0420243
-0.263491 -0.0493721 0.468327 -0.0163861 0.999543 -0.0253983
-0.0174957 0.0188159 0.6293 -0.391456 0.912125 -0.121614
-0.0387586 -0.0463855 0.164059 0 -1 0
-0.0102256 -0.028549 0.184396 -0.383636 0.914823 -0.126182
-0.360549 -0.0526896 0.403356 0.0164422 -0.999508 0.0266962
-0.0325464 0.00145647 0.653236 -0.973114 0.136125 -0.185793
0 -0.000861209 0.126934 -1 0 0
-0.00851597 -0.0909354 0.88045 0 -0.998752 0.0499363
0 -0.021436 0.113353 -1 0 0
-0.0275847 -0.00727322 0.564372 -0.380235 0.924109 -0.0380091
-0.0431676 -0.043871 0.844552 -0.950871 0.309586 0
0.0417086 -0.0261228 0.422349 0.9534 0.299639 -0.0352931
-0.0176185 -0.102839 0.51954 0.278819 -0.960344 0
0.388042 -0.0532864 0.397946 0.0164422 0.999508 -0.0266962
0.020659 -0.06926 0.392085 0.675663 -0.737087 -0.0134835
-0.0401845 -0.109459 0.613146 0.278818 -0.960341 -0.0022307
-0.174874 -0.0476569 0.478659 -0.0163861 0.999543 -0.0253983
0.0341558 -0.0976159 0.420863 0.755847 -0.642472 -0.126196
0.0646275 -0.0675232 0.629887 0.939737 -0.341723 0.0109352
-0.0300798 -0.0122005 0.843138 -0.44567 0.894101 0.0442897
-0.00809718 0.0302 0.711047 -0.386138 0.922441 0
-0.172528 -0.047307 0.490912 0.0163861 -0.999543 0.0253983
-0.0228663 0.0156399 0.835729 -0.95753 0.113993 0.264842
0.0484861 -0.0381511 0.698149 0.952343 0.300713 0.051124
-0.204346 -0.0493633 0.43169 -0.0164422 0.999508 -0.0266962
-0.0496249 -0.088031 0.76826 -0.772436 -0.631993 0.0626588
-0.334738 -0.0517161 0.423909 -0.0164422 0.999508 -0.0266962
0.0313289 -0.0149603 0.887407 0.474623 0.879625 0.0315161
0.0189706 0.0208311 0.650975 0.402799 0.904772 -0.13835
-0.234245 -0.0490151 0.463508 -0.0163861 0.999543 -0.0253983
-0.0881826 -0.0417133 0.620188 -0.0119603 0.999403 -0.0324272
-0.265206 -0.0485732 0.496434 0.0152189 -0.999298 0.0342325
0.0549907 -0.0867522 0.500316 0.933956 -0.336221 -0.121171
-0.0270033 -0.0288939 0.26429 -0.944375 0.31479 -0.095205
0.0484922 -0.0382455 0.698591 0.952343 0.300713 0.051124
0 -0.0202665 0.0746471 1 0 0
0 -0.0200492 0.194388 -1 0 0
-0.0589523 -0.0439016 0.541961 -0.0119603 0.999403 -0.0324272
0 0.0201535 0.138174 -1 0 0
0.134628 -0.0470594 0.476206 0.0163861 0.999543 -0.0253983
-0.00642514 0.0680331 0.120643 -0.894427 -0.447214 -9.39434e-09
0.0112211 -0.0802428 0.3235 0.947304 -0.315768 -0.0539118
-0.0205201 -0.0309081 0.210838 -0.9341 0.331134 -0.133443
-0.131769 -0.0463855 0.135234 0 -1 0
0.00257683 -0.00342113 0.420527 0.377564 0.925029 -0.0420243
0 0.0155001 0.184684 1 0 0
0.0191765 -0.013055 0.381212 0.377033 0.92373 -0.0675899
0 -0.0184418 0.204215 1 0 0
-0.00294648 -0.0935208 0.41116 0 -0.995275 -0.0970998
0.0139358 -0.0768712 0.351453 0.947304 -0.315768 -0.0539118
-0.0240007 -0.0581193 0.226782 -0.931012 -0.339893 -0.133002
0.0242141 -0.0675931 0.378627 0.151858 -0.98708 -0.0511133
-0.011975 -0.0467048 0.113432 -0.931012 -0.339893 -0.133002
0.0314678 -0.0135722 0.856863 0.44567 0.894101 0.0442897
-0.0333212 -0.106983 0.501461 0.295681 -0.952719 -0.0699898
