0.100358 -0.0738228 0.534075 -0.18631 0.973207 0.13475
0.0276737 -0.0325372 0.6106 0.926916 -0.273599 -0.256846
0.0196188 -0.0254558 0.231965 0.714088 0.698321 -0.0492559
-0.252728 -0.0539763 0.545859 -0.183131 0.966742 0.178531
0.023192 -0.0475826 0.725143 -0.350321 -0.753444 -0.556415
0.126434 0.0177586 0.0540488 -0.013142 0.999795 0.0153748
0.0261615 -0.00225472 0.691406 0.932657 0.350676 0.0847218
0.0197937 -0.00662771 0.735249 0.41677 0.908805 0.019402
-0.0342162 -0.0469806 0.717387 -0.350321 0.753444 0.556415
0.0483096 -0.0678441 0.538353 0.836335 -0.544287 -0.0655392
0.0311898 -0.0875202 0.685924 0.385416 -0.922502 -0.0210965
0.0979601 -0.0662827 0.476303 -0.186312 0.973206 0.13475
-0.0284119 -0.0599377 0.266614 -0.892252 -0.444551 -0.0791251
-0.178693 -0.0663975 0.485907 0.0693407 -0.988166 -0.136822
-0.374452 -0.0643469 0.451669 -0.463992 -0.71261 0.526211
0.279785 -0.069748 0.484272 -0.00557757 0.999866 0.0153809
-0.0406641 -0.0190528 0.589509 -0.634034 0.773298 0.00335774
0.282926 -0.0681119 0.445464 0.0693407 0.988166 0.136822
-0.0237926 -0.0430028 0.1574 -0.984988 0.161607 -0.0606699
0.0680067 -0.0413499 0.558864 -0.119454 -0.992722 0.0152664
-0.221184 -0.067937 0.475491 0.0693407 -0.988166 -0.136822
-0.000125365 -0.0043863 0.523091 -0.123082 0.992388 -0.00411284
-0.0478557 -0.0726796 0.453227 -0.18631 -0.973207 -0.13475
-0.162968 -0.0499388 0.525577 0.0478489 0.989418 -0.136979
-0.0244925 -0.0894592 0.636615 -0.414169 -0.909969 -0.0204916
0.00634735 0.00887626 0.204809 -0.996079 -0.0797437 -0.0383088
0.0274932 -0.0580813 0.346507 -0.186319 -0.973204 0.134756
-0.0982634 -0.0745889 0.539212 -0.119457 -0.992722 -0.015271
-0.0309958 -0.0371267 0.543886 -0.119454 0.992722 -0.0152664
-0.0125249 -0.0529375 0.754825 -0.791428 -0.60219 0.104919
-0.0218857 0.00475978 0.696706 -0.796192 0.5876 0.144237
-0.0123314 -0.0228611 0.523973 -0.934345 0.213858 -0.285067
0.024174 -0.0894273 0.640266 0.414122 -0.909867 -0.025381
-0.218218 -0.0708863 0.53594 -0.00557757 -0.999866 -0.0153809
-0.00221185 0.0246294 0.200037 -0.456907 0.715534 0.528439
0.25563 -0.0607198 0.559585 -0.476055 -0.707434 -0.522406
-0.0345666 -0.0734851 0.435317 -0.644558 -0.761814 -0.0646861
0.0397467 -0.0462953 0.807483 0.965018 0.169817 0.199757
0.197674 -0.0553552 0.474334 0.0478705 -0.989413 0.137007
0.00606894 0.00454266 0.149849 -0.992945 0.0305462 0.114572
-0.0788579 -0.0423909 0.642648 -0.120416 0.992459 0.0228982
-0.0130272 -0.00376885 0.680796 -0.140069 0.990015 -0.0158169
0.0125614 -0.0938271 0.818307 0.535051 -0.843815 0.0412044
-0.0507614 -0.0634699 0.671656 -0.981781 -0.189637 0.0120385
-0.0112119 -0.0717505 0.219345 -0.43932 -0.892968 -0.098012
0.121425 -0.0726874 0.626985 -0.120418 0.992459 -0.0229028
-0.203549 -0.0694996 0.495714 0.0693407 -0.988166 -0.136822
0.0253087 -0.0179306 0.794395 0.527076 0.831408 0.175928
-0.00488758 -0.0959389 0.789852 -0.141144 -0.989896 0.0135905
0.0485972 -0.0536548 0.71737 -0.350321 -0.753444 -0.556415
0.041499 -0.0784001 0.700077 0.666181 -0.745788 -0.00174782
0.148208 -0.0660119 0.498571 0.0693407 0.988166 0.136822
-0.298721 -0.0546531 0.444578 -0.0273644 0.999507 -0.0153755
-0.00542337 0.0177177 0.69428 -0.204121 0.951279 0.231092
-0.12221 -0.0542859 0.504875 -0.186318 0.973203 -0.134763
-0.154432 -0.0719676 0.583103 -0.00557757 -0.999866 -0.0153809
0.0212405 0.0207297 0.0804244 0.0750409 0.98776 0.136742
0.00115242 -0.0631372 0.693077 0.209782 -0.977616 -0.0160496
-0.0548931 -0.0394865 0.577424 -0.119454 0.992722 -0.0152664
-0.013818 -0.0888461 0.522512 -0.122893 -0.991335 -0.0463898
-0.0692944 -0.0791864 0.611467 -0.11946 -0.992721 -0.0152739
-0.0312648 -0.060812 0.344576 -0.186312 -0.973206 -0.13475
0.055993 -0.0792823 0.668353 -0.125441 0.991046 -0.0457447
0.0465568 -0.0812226 0.565973 -0.11946 0.992721 0.0152739
0.0401013 0.0263863 0.0942567 0.094782 -0.986088 0.136552
-0.031655 -0.0730535 0.835064 -0.9139 -0.374175 0.157419
-0.0466874 -0.0503595 0.71411 -0.350321 0.753444 0.556415
-0.0546937 0.0159758 0.108641 -0.0131091 -0.999795 -0.0154353
-0.0133911 -0.0436905 0.535366 -0.970777 -0.222197 -0.0906703
-0.0473212 -0.06758 0.52499 -0.836086 -0.544125 -0.0699114
-0.141959 -0.0699645 0.530285 0.0693407 -0.988166 -0.136822
-0.0545985 -0.0450931 0.566611 -0.979668 0.198185 0.0311841
-0.0385465 0.0284019 0.136527 0.00701546 0.999857 -0.0154155
-0.13886 -0.0654011 0.498898 0.0693407 -0.988166 -0.136822
-0.133353 -0.0613007 0.472074 0.0693407 -0.988166 -0.136822
0.0320074 -0.0836847 0.620571 -0.120418 0.992459 -0.0229028
-0.0525277 -0.0394759 0.611895 -0.981706 0.189636 0.0170947
-0.00278462 0.0815462 0.100856 0.992946 0.0305437 0.114568
-0.0124707 -0.0814592 0.341837 -0.461674 -0.886036 -0.0424002
0.0317079 -0.0407578 0.477445 -0.186319 -0.973204 0.134756
-0.289666 -0.069248 0.455347 -0.00558042 -0.999866 -0.0153755
-0.0468147 -0.0709481 0.574287 -0.849307 -0.527761 0.012049
0.0573683 -0.048897 0.454143 -0.186319 -0.973204 0.134756
-0.0431641 -0.0580253 0.792476 -0.969338 -0.170566 0.176896
0.00957354 -0.0954232 0.705394 0.140081 -0.990102 -0.00865316
-0.0750868 -0.0425746 0.53462 -0.119454 0.992722 -0.0152664
0.0562271 -0.0548408 0.409639 -0.186319 -0.973204 0.134756
-0.00798412 -0.0317765 0.187222 0.999377 -0.0328834 0.0128123
-0.0941229 -0.0750706 0.655039 -0.125441 -0.991046 0.0457447
-0.119606 -0.0486197 0.542194 -0.186318 0.973203 -0.134763
-0.212295 -0.0605434 0.598836 -0.476055 0.707434 0.522406
0.324371 -0.068973 0.450057 -0.00557757 0.999866 0.0153809
0.00906688 -0.0473006 0.500329 0.987659 -0.0702743 -0.139971
0.0200638 -0.0431753 0.742232 0.925465 -0.358781 0.121619
0.0528105 -0.0618186 0.551059 0.838083 -0.545425 0.0113424
-0.115379 -0.059109 0.68271 -0.350319 0.753447 0.556412
0.186587 -0.0671894 0.487626 0.0693407 0.988166 0.136822
0.00690783 -0.00875855 0.226944 -0.996079 -0.0797437 -0.0383088
0.30862 -0.0556392 0.433523 0.0478489 -0.989418 0.136979
-0.00541069 0.0299466 0.144906 0.999377 -0.0328834 0.0128123
0.0453445 -0.0461777 0.780341 0.965018 0.169817 0.199757
0.211485 -0.0687562 0.486323 0.0693407 0.988166 0.136822
-0.00264449 -0.0965708 0.723368 -0.14008 -0.9901 -0.00894086
0.00491269 0.0132755 0.212076 -0.970026 -0.191757 -0.149261
0.0204967 -0.0896449 0.812739 0.416387 -0.907974 0.0469584
-0.351116 -0.0618382 0.373904 0.0478705 0.989413 -0.137007
0.000819928 0.0719109 0.0863968 -0.992946 0.0305458 0.114569
0.0294479 -0.0121744 0.488728 0.370493 0.928724 -0.0143835
0.0479726 0.0281069 0.143557 -0.0427614 -0.998027 -0.0459691
0.078896 -0.0780413 0.612134 -0.11946 0.992721 0.0152739
-0.0408592 -0.0779324 0.59842 -0.634006 -0.773187 -0.0147694
-0.352834 -0.0681858 0.410569 0.0693407 -0.988166 -0.136822
0.357637 -0.068433 0.427017 -0.00558042 0.999866 0.0153755
0.00730011 0.025211 0.656433 0.217057 0.964102 0.15295
0.235975 -0.063299 0.434498 0.0693407 0.988166 0.136822
0.312349 -0.0652421 0.409826 0.0693444 0.988164 0.136834
-0.0555772 0.0282523 0.130337 -0.0237724 0.999452 0.0230136
0.0275864 -0.0686619 0.308099 0.713272 -0.697411 -0.0697135
0.0123765 -0.0589336 0.703103 0.566338 -0.820279 0.0800245
-0.0768921 -0.0782959 0.613007 -0.11946 -0.992721 -0.0152739
0.00555381 -0.0951216 0.820424 0.193329 -0.981041 0.0134689
-0.117657 0.0280165 0.0755287 0.00701546 0.999857 -0.0154155
-0.199838 -0.0562988 0.466764 0.0478705 0.989413 -0.137007
0.000532659 -0.0694875 0.172918 0.158987 -0.982049 -0.1015
0.0505848 -0.0306717 0.548165 0.838056 0.545358 0.0156856
0.0264519 -0.0320258 0.25894 0.893754 0.445294 -0.0540065
-0.0517079 -0.0630236 0.576478 -0.849307 -0.527761 0.012049
0.00955494 0.0147109 0.169679 -0.0439427 0.998767 -0.0230896
-0.00715851 -0.0528362 0.491048 -0.970777 -0.222197 -0.0906703
-0.0875887 0.0271644 0.0669154 0.0947717 0.986091 -0.136541
-0.172832 -0.0640705 0.472071 0.0693407 -0.988166 -0.136822
0.0461489 -0.0539868 0.431806 0.978219 -0.183105 -0.0977775
-0.0243083 -0.0278954 0.265968 -0.714048 0.698282 -0.0503718
-0.0459151 -0.0381272 0.59556 -0.119454 0.992722 -0.0152664
0.0077472 -0.00960986 0.383795 0.132538 0.988888 -0.0673338
0.052554 -0.0368876 0.581993 0.981373 0.189572 0.0311321
0.00948745 0.0278246 0.634992 0.222537 0.973048 0.0604611
-0.0522467 -0.0658695 0.410113 -0.18631 -0.973207 -0.13475
0.0131846 -0.0234772 0.182933 0.461592 0.885868 -0.0466032
0.290684 -0.0537823 0.486883 -0.0273656 -0.999507 0.015374
0.109167 -0.0729061 0.539634 -0.18631 0.973207 0.13475
0.0296841 0.0151271 0.149371 -0.0439427 0.998767 -0.0230896
-0.00703956 -0.000857152 0.201727 0.997942 -0.0611855 -0.0191907
-0.16113 -0.0711699 0.533676 -0.00557757 -0.999866 -0.0153809
0.00146647 0.0913391 0.0868204 -0.992946 0.0305458 0.114569
0.338913 -0.060447 0.483322 -0.476055 -0.707434 -0.522406
0.0727218 0.0168853 0.0799432 0.0750409 0.98776 0.136742
0.0516179 -0.0626085 0.615167 0.984568 -0.174571 0.0123062
-0.0187438 -0.0795324 0.366938 -0.395508 -0.917293 -0.0463375
0.0989576 0.0177165 0.0595414 0.0750409 0.98776 0.136742
0.0265304 -0.0406673 0.621371 0.942783 -0.332903 -0.0183312
-0.0311026 -0.0871229 0.666469 -0.414169 -0.909969 -0.0204916
0.127917 -0.0724659 0.616191 -0.034623 0.999134 -0.0230568
-0.381744 -0.0664724 0.383544 0.0693444 -0.988164 -0.136834
0.00746227 -0.012347 0.216383 -0.997942 -0.0611859 -0.0191912
0.290453 -0.0691809 0.451267 -0.00558042 0.999866 0.0153755
-0.0208612 -0.0405694 0.463808 -0.186319 0.973204 -0.134756
-0.141618 -0.0482515 0.581124 -0.0273644 0.999507 -0.0153755
0.0671929 -0.0686328 0.450736 -0.18631 0.973207 0.13475
0.0253769 -0.0610276 0.337992 -0.186312 0.973206 0.13475
0.138697 0.0236895 0.00634629 0.0947718 -0.986091 0.136541
-0.195256 -0.0638508 0.45912 0.0693407 -0.988166 -0.136822
-0.0509281 0.0241823 0.158521 -0.456907 0.715534 0.528439
0.00725149 -0.0106787 0.184217 -0.999377 -0.0328831 0.0128125
-0.120027 -0.0676312 0.516552 -0.186312 -0.973206 -0.13475
0.00727093 -0.051439 0.175192 -0.992945 0.0305462 0.114572
0.00199587 0.0248172 0.666443 0.217057 0.964102 0.15295
0.0664553 0.0161304 0.122791 -0.0439427 0.998767 -0.0230896
-0.0306173 -0.0279733 0.633173 -0.994138 -0.107014 -0.0154167
-0.0461459 -0.072093 0.558548 -0.838134 -0.545458 0.00274003
0.0289069 -0.0177771 0.398801 0.643363 0.760309 -0.0895203
-0.00338347 -0.0961899 0.692774 -0.14008 -0.9901 -0.00894086
0.116332 0.0174213 0.0673479 -0.013142 0.999795 0.0153748
0.00737428 -0.0176578 0.233341 -0.996079 -0.0797437 -0.0383088
-0.00910292 -0.0513322 0.224299 0.999377 -0.0328834 0.0128123
-0.142491 -0.0718415 0.570578 -0.00557757 -0.999866 -0.0153809
0.217604 -0.056384 0.459942 0.0478705 -0.989413 0.137007
0.045221 -0.0270235 0.492691 0.855836 0.515342 -0.0443567
-0.167647 -0.0667641 0.494153 0.0693407 -0.988166 -0.136822
0.0204468 -0.0904107 0.614706 0.414122 -0.909867 -0.025381
0.277183 -0.053535 0.478933 -0.0273644 -0.999507 0.0153755
-0.154602 -0.0517986 0.634721 -0.183092 0.966757 0.178486
-0.178025 -0.0715106 0.56195 -0.00557757 -0.999866 -0.0153809
-0.0344322 -0.0804942 0.682291 -0.166741 -0.969612 0.179024
-0.0272403 0.00734155 0.617767 -0.944933 0.327235 0.00430821
0.116971 0.0175234 0.0862439 -0.0629453 0.996951 -0.0461245
0.00726372 -0.0103615 0.185985 -0.999377 -0.0328831 0.0128125
-0.0393085 -0.0288277 0.402372 -0.852715 0.513462 -0.0960859
-0.0187775 0.00893658 0.696847 -0.796192 0.5876 0.144237
0.208233 -0.0507417 0.5378 -0.0273644 -0.999507 0.0153755
0.027699 -0.0359918 0.70387 0.98211 -0.118346 0.146476
0.115312 -0.0705924 0.660589 -0.166741 0.969612 -0.179024
0.0271726 -0.00441545 0.605429 0.956508 0.0877697 -0.278189
0.044973 -0.0495016 0.432638 -0.186319 -0.973204 0.134756
-0.0329132 -0.0857168 0.664842 -0.634006 -0.773187 -0.0147694
0.226668 -0.0514144 0.544434 -0.056345 -0.998146 -0.0230294
-0.130286 -0.0696177 0.533697 0.0693407 -0.988166 -0.136822
-0.191866 -0.0503209 0.536025 -0.0273644 0.999507 -0.0153755
-0.0317029 -0.0422778 0.700488 -0.166723 0.969623 0.178982
0.0109079 -0.0860197 0.59894 -0.11946 0.992721 0.0152739
0.00953593 -0.0133406 0.808047 0.191084 0.969078 0.156127
0.115772 -0.0469095 0.571087 -0.119452 -0.992723 0.0152711
0.0298263 -0.0532437 0.859535 0.968895 0.123312 0.214562
0.25541 -0.0549973 0.548638 -0.183092 -0.966757 -0.178486
-0.112047 -0.0462432 0.63508 -0.120416 0.992459 0.0228982
0.0782996 0.0198085 0.0557665 0.0750521 0.987755 0.136772
-0.0286159 -0.0130361 0.436697 -0.643731 0.760743 -0.0829527
0.0883956 0.0252627 0.0526214 0.0947718 -0.986091 0.136541
-0.0131526 -0.036206 0.484662 -0.186319 0.973204 -0.134756
-0.157769 -0.0696319 0.627041 -0.162654 -0.970275 0.179193
0.0323061 -0.0707512 0.834573 0.861355 -0.487624 0.142447
0.0942378 0.0184367 0.116128 -0.173391 0.96855 -0.178456
-0.201962 -0.0674531 0.481738 0.0693407 -0.988166 -0.136822
0.0919224 -0.0442806 0.555422 -0.119454 -0.992722 0.0152664
0.0436662 -0.0581991 0.726628 -0.350319 -0.753447 -0.556412
0.0132941 -0.0353128 0.523325 -0.119454 -0.992722 0.0152664
-0.131875 -0.0723375 0.598968 -0.00557757 -0.999866 -0.0153809
-0.0498548 -0.0639897 0.527346 -0.836086 -0.544125 -0.0699114
-0.114265 -0.0474598 0.651658 -0.166737 0.969613 0.179025
-0.0279568 -0.0117352 0.474617 -0.395823 0.918197 -0.0154107
-0.0601448 -0.0410599 0.5162 -0.119454 0.992722 -0.0152664
-0.0452789 0.0198514 0.0735771 0.0750409 -0.98776 -0.136742
-0.126091 0.017903 0.082002 -0.0630468 -0.996938 0.0462523
-0.176402 -0.0498231 0.540867 -0.0273644 0.999507 -0.0153755
0.20217 -0.0582094 0.452152 0.0478705 -0.989413 0.137007
0.34148 -0.0684285 0.420863 -0.00558042 0.999866 0.0153755
-0.0167687 -0.00668944 0.505391 -0.370511 0.928768 -0.0105731
0.0495333 -0.0813473 0.629712 -0.120418 0.992459 -0.0229052
-0.00079034 -0.0873301 0.452946 -0.132634 -0.990146 -0.0449355
-0.217648 -0.0509607 0.540323 -0.0273656 0.999507 -0.015374
0.0459775 -0.0463515 0.416291 0.983161 -0.152272 -0.10103
0.0110146 -0.0943067 0.664018 0.140019 -0.989664 -0.0309675
-0.0224257 -0.0558543 0.17624 -0.881524 -0.46515 -0.0809395
-0.00757936 0.0266821 0.189432 -0.154496 0.971611 0.179172
-0.0610401 -0.0450363 0.487101 -0.186318 0.973203 -0.134763
0.133094 -0.0557915 0.664576 -0.476067 -0.707417 -0.522419
-0.0227413 -0.00801006 0.736149 -0.416776 0.908818 0.0186494
0.175799 -0.0703477 0.515903 0.0693407 0.988166 0.136822
0.0167636 -0.0438118 0.565804 0.951551 -0.28087 -0.125152
0.131316 -0.0719521 0.573713 -0.00557757 0.999866 0.0153809
0.035406 -0.083292 0.660028 0.666119 -0.745719 -0.013733
-0.00606056 -0.0342294 0.892341 -0.179842 0.914565 0.362254
0.0518466 -0.0623869 0.538167 0.836335 -0.544287 -0.0655392
-0.00336067 -0.0221401 0.259898 0.729104 -0.51683 -0.448657
0.102909 -0.0741943 0.549908 -0.119457 0.992722 0.015271
0.107977 -0.0651232 0.481778 -0.186312 0.973206 0.13475
-0.00694733 -0.0162924 0.163017 0.992946 0.0305437 0.114568
0.0321382 -0.0783323 0.696136 -0.166741 0.969612 -0.179024
-0.160129 -0.049564 0.529276 0.0478489 0.989418 -0.136979
-0.129286 -0.0722529 0.592531 -0.00557757 -0.999866 -0.0153809
-0.0163102 -0.0941033 0.768632 -0.416599 -0.908435 0.0345069
0.109329 -0.0616501 0.458564 -0.186312 0.973206 0.13475
-0.36198 -0.056667 0.426247 -0.0273656 0.999507 -0.015374
-0.206717 -0.0710774 0.544194 -0.00557757 -0.999866 -0.0153809
0.160971 -0.0554834 0.486233 0.0478705 -0.989413 0.137007
-0.0635388 -0.0729196 0.476644 -0.18631 -0.973207 -0.13475
-0.00425738 -0.0157977 0.51447 -0.634216 0.55908 -0.534042
-0.0102038 -0.0531361 0.541594 -0.910815 -0.409185 -0.0546284
0.0122027 -0.0852384 0.55829 -0.11946 0.992721 0.0152739
-0.0432727 -0.0763166 0.641488 -0.666163 -0.745769 -0.00749256
0.326778 -0.0556944 0.479193 -0.0746735 -0.996149 -0.0459545
0.0731298 0.0276141 0.127864 -0.154868 -0.971472 -0.179603
-0.136411 -0.0483058 0.568322 -0.0273644 0.999507 -0.0153755
0.174482 -0.0498884 0.533205 -0.0273644 -0.999507 0.0153755
0.0199196 -0.0520836 0.651887 0.817678 -0.575675 -0.00052926
0.0251953 -0.0132811 0.714968 0.902548 0.349899 0.250952
0.232121 -0.0605161 0.425029 0.0478705 -0.989413 0.137007
0.170708 -0.0717171 0.572723 -0.00557757 0.999866 0.0153809
-0.151594 -0.0513075 0.519666 0.0478705 0.989413 -0.137007
0.0042865 0.0243204 0.104197 0.094782 -0.986088 0.136552
0.0351485 -0.0143559 0.620306 0.634035 0.773299 -0.00292863
-0.0267226 -0.0648197 0.367241 -0.18631 -0.973207 -0.13475
0.0467708 -0.0345997 0.445523 0.981059 0.183651 -0.0616014
0.0714689 -0.0751413 0.503654 -0.18631 0.973207 0.13475
-0.0448614 -0.0478919 0.408246 -0.978004 -0.183064 -0.0999817
-0.0485878 -0.0672993 0.537953 -0.836086 -0.544125 -0.0699114
0.102356 -0.0615066 0.447886 -0.186312 0.973206 0.13475
-0.013498 -0.0186127 0.278775 -0.461568 0.885832 -0.0475124
0.019046 -0.0531282 0.703263 0.801385 -0.591364 0.0898367
0.0234928 -0.0315347 0.590143 0.964383 -0.220733 -0.145746
0.00315163 0.0395482 0.115233 -0.992945 0.0305462 0.114572
0.0157739 -0.0311084 0.539525 0.987659 -0.0702743 -0.139971
-0.12942 0.0279071 0.0630807 0.00701546 0.999857 -0.0154155
0.0549225 -0.0751597 0.48091 -0.18631 0.973207 0.13475
-0.0488644 -0.0315746 0.678619 -0.868609 0.495431 0.00811187
-0.178131 -0.0504794 0.603442 -0.183131 0.966742 0.178531
0.0170163 -0.0132018 0.373157 0.394716 0.915628 -0.0763164
0.0791427 -0.0421003 0.628549 -0.120409 -0.992461 -0.0228806
0.232101 -0.0519491 0.551852 -0.0746917 -0.996146 -0.0459762
-0.00568025 -0.0955817 0.807631 -0.141144 -0.989896 0.0135905
0.172411 -0.0497786 0.601797 -0.0746917 -0.996146 -0.0459762
-0.222753 -0.0520672 0.566268 -0.183131 0.966742 0.178531
-0.197719 -0.0616827 0.442213 0.0693444 -0.988164 -0.136834
0.0148134 -0.0706548 0.392918 -0.18631 0.973207 0.13475
0.284327 -0.0693474 0.459875 -0.00558042 0.999866 0.0153755
-0.062337 -0.0411789 0.663511 -0.12544 0.991046 0.0457408
0.0443069 -0.0239667 0.510568 0.855836 0.515342 -0.0443567
-0.0159052 0.0271418 0.116507 0.0947819 0.986088 -0.136552
0.0434866 -0.0819419 0.63574 -0.120418 0.992459 -0.0229052
0.00160931 0.0545586 0.0978647 -0.992946 0.0305458 0.114569
-0.0276343 -0.0277998 0.820438 -0.656438 0.72934 0.192748
-0.0111413 -0.0884683 0.507346 -0.122893 -0.991335 -0.0463898
0.0204324 -0.0280208 0.742953 0.962037 0.115926 0.247076
0.0439073 -0.0660884 0.780384 0.861355 -0.487624 0.142447
0.0203104 0.00242125 0.705715 0.761068 0.561678 0.32449
0.147823 -0.0518087 0.517364 0.0478705 -0.989413 0.137007
0.0204328 -0.00607011 0.672999 0.414251 0.910139 -0.00655606
0.0648608 0.0281961 0.123185 -0.0237725 -0.999452 -0.0230136
-0.0254121 -0.0727962 0.332313 -0.713689 -0.697819 -0.0608021
-0.0125456 -0.0577131 0.713655 -0.554677 -0.8283 0.079072
0.044875 -0.0648378 0.471202 0.854561 -0.514574 -0.0702808
0.0197189 0.0149612 0.161162 -0.0439427 0.998767 -0.0230896
0.0231693 -0.0916689 0.749792 0.416837 -0.908955 -0.00686773
0.186196 -0.0714026 0.574754 -0.034623 0.999134 -0.0230568
-0.155024 -0.0551627 0.490627 0.0478705 0.989413 -0.137007
0.0199937 -0.0291318 0.185282 0.714088 0.698321 -0.0492559
-0.11521 -0.0467199 0.57901 -0.119452 0.992723 -0.0152711
0.000148073 -0.0581044 0.763362 0.0806765 -0.993306 0.0826682
0.00748705 -0.00986581 0.207184 -0.997942 -0.0611871 -0.0191926
0.197332 -0.0636289 0.456465 0.0693407 0.988166 0.136822
0.295812 -0.0558196 0.436694 0.0478489 -0.989418 0.136979
-0.313036 -0.0572627 0.420254 0.0478489 0.989418 -0.136979
-0.0548897 0.021281 0.057978 0.0750521 -0.987755 -0.136772
-0.00794229 0.00541599 0.719712 -0.168099 0.807803 0.564975
-0.0174096 -0.0850471 0.58658 -0.11946 -0.992721 -0.0152739
0.156149 -0.0712003 0.619505 -0.053041 0.997531 -0.0460306
-0.0308772 -0.0075658 0.619366 -0.994223 0.107023 -0.00819139
-0.224054 -0.0621705 0.43239 0.0693444 -0.988164 -0.136834
-0.0708319 -0.0784985 0.57878 -0.11946 -0.992721 -0.0152739
-0.0220018 -0.0265969 0.839975 -0.767539 0.616718 0.174767
0.0186781 -0.00638511 0.747849 0.41677 0.908805 0.019402
0.0466783 -0.0292786 0.728219 0.870111 0.49254 0.0176669
0.366008 -0.0571392 0.446763 -0.0746735 -0.996149 -0.0459545
-0.000928615 -0.0257257 0.113371 0.992945 0.0305468 0.114572
-0.213009 -0.0607588 0.598477 -0.476055 0.707434 0.522406
-0.00982606 0.0157506 0.122655 0.0750409 -0.98776 -0.136742
0.128953 0.0251099 0.0233678 0.0947718 -0.986091 0.136541
-0.012708 -0.0656129 0.170315 -0.459933 -0.882694 -0.0965015
-0.0933289 0.0210902 0.0382627 0.0750521 -0.987755 -0.136772
-0.0119318 -0.0801459 0.931411 -0.71817 -0.674086 0.172744
0.333639 -0.0576851 0.410005 0.0478489 -0.989418 0.136979
-0.0921565 0.0233576 0.123989 -0.456983 0.715426 0.528519
-0.0188479 -0.00668786 0.723326 -0.721108 0.548603 0.42313
-0.231613 -0.0514456 0.533652 -0.0273656 0.999507 -0.015374
-0.0308306 -0.0169754 0.768594 -0.656438 0.72934 0.192748
-0.133748 -0.072354 0.612283 -0.034623 -0.999134 0.0230568
0.178993 -0.0497484 0.550332 -0.0273644 -0.999507 0.0153755
0.0217322 0.0189847 0.0927599 0.0750409 0.98776 0.136742
0.0205904 -0.0688891 0.911097 0.959832 -0.128812 0.249259
-0.00869789 -0.0502748 0.19542 0.999377 -0.0328834 0.0128123
-0.00410307 0.0640179 0.130356 0.999377 -0.0328827 0.012813
0.0397863 -0.0814565 0.665692 -0.125441 0.991046 -0.0457447
0.0136082 -0.0102432 0.387841 0.460915 0.88457 -0.071371
0.0433674 -0.0532135 0.402531 0.978219 -0.183105 -0.0977775
0.0495356 -0.0652574 0.722959 0.868632 -0.495444 0.00379342
0.0241453 -0.0681261 0.273145 0.712128 -0.696293 -0.0897251
0.294748 -0.0693078 0.461083 -0.00558042 0.999866 0.0153755
-0.046682 -0.0618749 0.769487 -0.969338 -0.170566 0.176896
-0.0266126 -0.0433531 0.451657 -0.186319 0.973204 -0.134756
0.150379 -0.0593145 0.462267 0.0478705 -0.989413 0.137007
-0.021092 -0.0832135 0.496205 -0.119457 -0.992722 -0.015271
0.0843311 0.0258399 0.127395 -0.456907 -0.715533 -0.528439
-0.0327697 -0.0584674 0.306396 -0.983429 -0.152313 -0.0983313
0.12059 -0.0722563 0.643432 -0.125439 0.991047 -0.0457314
0.0290729 -0.0575564 0.26087 0.881631 -0.465192 -0.079519
-0.0265472 -0.00961355 0.705099 -0.906557 0.340863 0.248931
0.0464791 -0.0746997 0.702456 -0.166726 0.969622 -0.178982
-0.0437066 -0.0550372 0.410032 -0.978004 -0.183064 -0.0999817
-0.0279358 0.0181384 0.0954685 0.0750409 -0.98776 -0.136742
0.27867 -0.0551081 0.447822 0.0478489 -0.989418 0.136979
0.315875 -0.0679342 0.427482 0.0693407 0.988166 0.136822
0.00603279 0.0104313 0.208449 -0.970044 -0.191705 -0.149211
0.0238707 -0.0637277 0.237324 0.892189 -0.444519 -0.0800156
0.0675932 -0.040765 0.593657 -0.119452 -0.992723 0.0152711
-0.308907 -0.0649762 0.409651 0.0693444 -0.988164 -0.136834
-0.0253428 0.0213038 0.0740273 0.0750521 -0.987755 -0.136772
-0.109486 0.0172856 0.0908686 -0.0439427 -0.998767 0.0230896
-0.0421867 -0.0798495 0.497172 -0.18631 -0.973207 -0.13475
-0.161366 -0.0538118 0.636131 -0.476067 0.707417 0.522419
0.135156 -0.0567696 0.485964 0.0478705 -0.989413 0.137007
0.0565596 -0.0515724 0.433703 -0.186319 -0.973204 0.134756
-0.224745 -0.0708033 0.53291 -0.00557757 -0.999866 -0.0153809
-0.085783 -0.0733057 0.673397 -0.166741 -0.969612 0.179024
-0.172772 -0.0710181 0.6043 -0.053041 -0.997531 0.0460306
-0.0128644 -0.0215678 0.217525 -0.461568 0.885832 -0.0475124
-0.0184472 -0.0534238 0.619143 -0.592259 -0.805466 -0.0212984
-0.0305537 -0.0881751 0.733807 -0.416839 -0.90896 -0.00611403
0.00286711 0.0901153 0.126192 -0.99608 -0.079735 -0.0382993
-0.0252303 -0.0377658 0.682078 -0.166737 0.969613 0.179025
-0.0221794 -0.0676196 0.38118 -0.18631 -0.973207 -0.13475
0.0161072 -0.0736293 0.260147 0.459896 -0.882614 -0.0974011
0.0112282 0.0141561 0.559423 0.648419 0.737304 -0.189565
-0.0299096 -0.0840764 0.796966 -0.667046 -0.741048 0.076791
0.177941 -0.0695261 0.609303 -0.162654 0.970275 -0.179193
-0.370465 -0.0654695 0.382016 0.0693444 -0.988164 -0.136834
0.136639 -0.0526531 0.657095 -0.476067 -0.707417 -0.522419
0.0290128 -0.0778901 0.701443 -0.166726 0.969622 -0.178982
-0.022718 -0.0243666 0.732574 -0.962977 0.116039 0.243332
0.301572 -0.0587391 0.413595 0.0478705 -0.989413 0.137007
0.149634 -0.0719937 0.583061 -0.00557757 0.999866 0.0153809
-0.0311027 -0.0212051 0.651212 -0.99353 -0.11079 0.02498
0.0323126 -0.0195457 0.408257 0.643363 0.760309 -0.0895203
-0.0107822 -0.0853478 0.554286 -0.11946 -0.992721 -0.0152739
0.157849 -0.0598169 0.456028 0.0478705 -0.989413 0.137007
-0.113142 -0.0517242 0.510838 -0.186318 0.973203 -0.134763
-0.174895 -0.0693552 0.509193 0.0693407 -0.988166 -0.136822
-0.0483063 -0.0812323 0.580283 -0.11946 -0.992721 -0.0152739
-0.050798 -0.0620188 0.689361 -0.984601 -0.174577 0.00913265
-0.0769872 0.0270051 0.0731232 0.0947717 0.986091 -0.136541
-0.319845 -0.0595019 0.401702 0.0478705 0.989413 -0.137007
-0.0517333 -0.0581353 0.672101 -0.984541 -0.174566 0.0143473
-0.31555 -0.0692434 0.474073 -0.0346122 -0.999135 0.023042
0.0593092 -0.0802772 0.604267 -0.11946 0.992721 0.0152739
0.0747883 -0.0781362 0.636077 -0.120418 0.992459 -0.0229052
0.0225005 -0.0772662 0.353032 0.461523 -0.885736 -0.0496717
0.0305945 -0.011205 0.602222 0.414251 0.910139 -0.00655606
7.91646e-05 0.0291265 0.0913837 -0.992946 0.0305458 0.114569
0.0145823 -0.00615009 0.534317 0.123082 0.992381 -0.00551651
0.00858502 -0.00445594 0.592216 0.128782 0.991546 -0.0158413
0.0400953 -0.0493536 0.716899 -0.350321 -0.753444 -0.556415
-0.0523645 -0.0519618 0.510084 -0.977663 -0.197778 -0.0711214
0.181024 -0.0499127 0.590709 -0.0746917 -0.996146 -0.0459762
-0.00918713 0.000248708 0.725944 -0.478487 0.71453 0.510389
-0.341471 -0.0559265 0.437883 -0.0273656 0.999507 -0.015374
0.0301051 -0.0765803 0.707521 -0.166726 0.969622 -0.178982
0.0960701 -0.0749515 0.545632 -0.119457 0.992722 0.015271
-0.0208793 -0.0285595 0.207227 -0.6938 0.718533 -0.0484873
-0.0284748 -0.0173173 0.396341 -0.643731 0.760743 -0.0829527
-0.0259507 -0.0844031 0.611524 -0.11946 -0.992721 -0.0152739
-0.110318 -0.052745 0.499561 -0.186318 0.973203 -0.134763
0.00884072 -0.044211 0.246294 -0.997942 -0.0611859 -0.0191912
-0.00507623 0.0173809 0.113485 0.0750409 -0.98776 -0.136742
-0.306385 -0.0575886 0.420223 0.0478489 0.989418 -0.136979
-0.0235373 -0.0871219 0.548663 -0.370271 -0.928178 -0.0372252
-0.0193319 -0.0915725 0.634595 -0.385372 -0.922398 -0.0259001
0.0100319 -0.0160811 0.293207 0.159576 0.985032 -0.0651728
-0.00665704 -0.0199021 0.19944 -0.15097 0.98749 -0.0455221
-0.183212 -0.0707803 0.597422 -0.053041 -0.997531 0.0460306
0.00588319 0.026116 0.175867 -0.997942 -0.0611871 -0.0191926
0.0318658 -0.0169083 0.639947 0.993716 -0.109074 0.0251376
0.00947485 -0.0552805 0.243169 -0.999377 -0.0328831 0.0128125
-0.00596314 0.0245289 0.174093 0.999377 -0.0328827 0.012813
-0.0858779 0.0168465 0.0786934 -0.013142 -0.999795 -0.0153748
0.0307167 -0.0254212 0.648431 0.993716 -0.109074 0.0251376
0.0719749 -0.0410407 0.620313 -0.120409 -0.992461 -0.0228806
0.0291683 -0.0141714 0.764857 0.658341 0.731454 0.177657
-0.109443 -0.0744108 0.615085 -0.11946 -0.992721 -0.0152739
0.174671 -0.061633 0.453534 0.0693407 0.988166 0.136822
0.00647741 -0.0594359 0.573635 0.332432 -0.942698 -0.0284482
-0.298952 -0.0674969 0.4329 0.0693407 -0.988166 -0.136822
0.0105206 -0.0430849 0.724592 -0.166723 -0.969623 -0.178982
-0.14824 -0.051406 0.520126 0.0478705 0.989413 -0.137007
0.285297 -0.0668857 0.435406 0.0693407 0.988166 0.136822
0.0133033 -0.0829576 0.479684 -0.18631 0.973207 0.13475
-0.131206 0.0180349 0.0401542 -0.013142 -0.999795 -0.0153748
-0.00178141 0.0447404 0.101974 0.992945 0.0305468 0.114572
0.0534698 -0.0415755 0.530127 0.978198 0.197888 -0.0629981
0.393218 -0.0670206 0.381687 0.0693444 0.988164 0.136834
0.0294998 -0.0386614 0.260359 0.984958 0.161587 -0.0612212
0.202866 -0.0582273 0.45178 0.0478705 -0.989413 0.137007
0.0548394 -0.0493858 0.572329 0.979801 -0.198211 0.0264893
-0.0188436 -0.0482367 0.405645 -0.186319 0.973204 -0.134756
0.0704334 -0.0474858 0.482399 -0.186318 -0.973203 0.134763
0.246021 -0.0699106 0.543895 -0.053041 0.997531 -0.0460306
0.106797 0.0275282 0.0992978 -0.154868 -0.971472 -0.179603
-0.0335344 -0.0754334 0.448997 -0.644862 -0.762172 -0.0569796
-0.0781427 -0.0746705 0.673121 -0.166741 -0.969612 0.179024
-0.035142 -0.0539232 0.323082 -0.983429 -0.152313 -0.0983313
0.299383 -0.0680167 0.507243 -0.162654 0.970275 -0.179193
0.0170089 -0.0137689 0.547899 0.977447 0.0695483 -0.1994
-0.284754 -0.0537624 0.477627 -0.0273644 0.999507 -0.0153755
-0.339128 -0.0560407 0.426293 -0.0273644 0.999507 -0.0153755
-0.0202981 -0.031135 0.745379 -0.962977 0.116039 0.243332
0.234685 -0.0540378 0.470917 0.0478489 -0.989418 0.136979
0.136963 -0.0721271 0.587137 -0.00557757 0.999866 0.0153809
-0.053019 -0.0557082 0.609811 -0.981781 -0.189637 0.0120385
-0.0059451 -0.0348271 0.496736 -0.837461 0.37623 -0.396371
0.0863595 0.0246966 0.0499465 0.094782 -0.986088 0.136552
-0.0907462 0.0170646 0.0687568 0.0750409 -0.98776 -0.136742
-0.067657 -0.0485243 0.47106 -0.186319 0.973204 -0.134756
-0.109903 -0.0741046 0.59878 -0.11946 -0.992721 -0.0152739
0.0150485 -0.0445953 0.426696 -0.186319 -0.973204 0.134756
-0.181478 -0.0497152 0.581351 -0.056345 0.998146 0.0230294
-0.0513148 -0.05985 0.67996 -0.984541 -0.174566 0.0143473
-0.029378 -0.0706937 0.350741 -0.644558 -0.761814 -0.0646861
-0.379299 -0.066374 0.443595 -0.162783 -0.970225 0.179345
-0.0413046 0.0269882 0.158692 -0.154762 0.971511 0.179484
-0.0413501 -0.0771106 0.572999 -0.634048 -0.773238 -0.0093072
-0.00843992 -0.0524914 0.185604 0.992945 0.0305468 0.114572
-0.00275416 -0.0620014 0.709579 -0.209118 -0.974523 0.0810872
0.0479001 0.0157498 0.117512 -0.0131091 0.999795 0.0154353
-0.0448962 -0.0721849 0.753905 -0.862897 -0.488497 0.129536
-0.000835966 0.02711 0.653752 -0.217023 0.963949 0.153958
0.0463401 -0.0263093 0.651286 0.868561 0.495403 0.0133377
0.00223829 -0.0930515 0.88175 0.190954 -0.971074 0.143358
0.0393623 -0.0647916 0.408042 0.853978 -0.514223 -0.07935
0.142236 -0.0493789 0.634303 -0.183131 -0.966742 -0.178531
-0.280303 -0.0567987 0.435039 0.0478705 0.989413 -0.137007
0.0414493 -0.076316 0.470632 -0.18631 0.973207 0.13475
-0.0295402 -0.0885793 0.7248 -0.416839 -0.90896 -0.00611403
0.0175716 -0.0941765 0.741918 0.416837 -0.908955 -0.00686773
-0.124321 -0.0532042 0.515498 0.0478705 0.989413 -0.137007
-0.324192 -0.0550926 0.461342 -0.0273656 0.999507 -0.015374
-0.0313354 -0.0113269 0.640088 -0.993054 0.108994 0.0443186
0.0439377 -0.0669255 0.406252 -0.18631 0.973207 0.13475
-0.0339666 -0.0494234 0.836745 -0.972597 0.123783 0.196807
0.00335644 0.052013 0.172423 -0.970033 -0.191737 -0.149242
-0.0417576 0.0245316 0.0797134 0.0947819 0.986088 -0.136552
0.00753173 -0.022598 0.175485 -0.999377 -0.0328831 0.0128125
-0.114571 -0.0696593 0.523656 -0.186312 -0.973206 -0.13475
0.0193512 -0.0836118 0.508476 -0.11946 0.992721 0.0152739
0.0134657 -0.00596915 0.541954 0.123082 0.992381 -0.00551651
-0.0998151 -0.0745979 0.551937 -0.119457 -0.992722 -0.015271
-0.0928437 -0.0440303 0.578902 -0.119452 0.992723 -0.0152711
0.00174833 -0.0906426 0.52838 0.122901 -0.991399 -0.0449924
0.046411 -0.0419781 0.685166 -0.166737 -0.969613 -0.179025
0.277261 -0.0699419 0.501303 -0.0346122 0.999135 -0.023042
0.00580721 -0.0546966 0.484482 0.890873 -0.454205 -0.00652838
0.0188365 -0.0348929 0.593998 -0.119454 -0.992722 0.0152664
-0.00567986 -0.0663032 0.149684 -0.158993 -0.982084 -0.101157
-0.0035396 -0.00253948 0.700619 -0.140061 0.989958 0.0191423
0.0692683 -0.0512636 0.453505 -0.186319 -0.973204 0.134756
-0.00525071 -0.0435169 0.912405 -0.160673 0.859737 0.484806
0.16406 -0.0712413 0.609501 -0.053041 0.997531 -0.0460306
0.14054 -0.0505618 0.642448 -0.183131 -0.966742 -0.178531
-0.0502124 -0.0484721 0.447317 -0.186319 0.973204 -0.134756
-0.00450754 -0.00369282 0.609927 -0.128785 0.991573 -0.0140628
0.0386822 -0.0342271 0.371975 0.852241 0.513177 -0.101662
0.0467512 -0.0617803 0.372982 -0.186312 0.973206 0.13475
0.046283 -0.0395129 0.430406 0.977396 0.182965 -0.105927
-0.0172408 0.0261873 0.183784 -0.154496 0.971611 0.179172
-0.029288 -0.0174114 0.401788 -0.643731 0.760743 -0.0829527
-0.0489924 -0.0295546 0.582591 -0.849315 0.527724 0.0130575
0.0786568 -0.0778584 0.627774 -0.120418 0.992459 -0.0229028
-0.0286877 -0.032037 0.70035 -0.982457 -0.114833 0.146944
0.106427 0.0171774 0.0747403 -0.013142 0.999795 0.0153748
-0.177344 -0.0493748 0.576709 -0.056345 0.998146 0.0230294
0.346055 -0.0561441 0.431899 -0.0273656 -0.999507 0.015374
0.00519766 0.0403617 0.166096 -0.997942 -0.0611859 -0.0191912
-0.0427867 -0.0220889 0.717981 -0.870123 0.492547 0.0168609
0.0165781 -0.0537447 0.362734 -0.186319 -0.973204 0.134756
-0.0205915 -0.0738843 0.907969 -0.889103 -0.402882 0.217212
-0.378995 -0.059156 0.383538 0.0478489 0.989418 -0.136979
0.116107 0.0250949 0.100929 -0.456983 -0.715426 -0.528519
-0.0868794 -0.0764953 0.574093 -0.11946 -0.992721 -0.0152739
-0.242921 -0.061809 0.420218 0.0693444 -0.988164 -0.136834
-0.0686217 -0.0507046 0.456648 -0.186319 0.973204 -0.134756
-0.308821 -0.069272 0.48294 -0.034623 -0.999134 0.0230568
0.0196704 -0.00353958 0.569617 0.942235 0.278122 -0.186657
0.207226 -0.0661267 0.469491 0.0693407 0.988166 0.136822
0.320367 -0.0678422 0.489141 -0.162654 0.970275 -0.179193
-0.0299858 -0.0761303 0.453441 -0.18631 -0.973207 -0.13475
0.26803 -0.0627414 0.414227 0.0693444 0.988164 0.136834
0.0794947 -0.0484409 0.689357 -0.166742 -0.969614 -0.179014
0.292859 -0.0694992 0.472838 -0.00557757 0.999866 0.0153809
-0.0318114 -0.0139748 0.477527 -0.616262 0.787164 -0.0243735
-0.2241 -0.055768 0.46212 0.0478705 0.989413 -0.137007
-0.0278475 -0.0332102 0.705051 -0.982457 -0.114833 0.146944
-0.0111992 -0.0501525 0.535843 -0.910815 -0.409185 -0.0546284
-0.0504334 -0.0624704 0.522441 -0.836086 -0.544125 -0.0699114
-0.0134981 -0.0258782 0.526696 -0.977092 0.0695231 -0.201141
-0.038066 -0.0818062 0.537495 -0.11946 -0.992721 -0.0152739
-0.333996 -0.0565391 0.476374 -0.183035 0.966781 0.178418
-0.0276611 -0.0894303 0.723201 -0.416839 -0.90896 -0.00611403
0.00416084 0.0122725 0.131252 -0.992945 0.0305462 0.114572
0.0573017 -0.0795361 0.659266 -0.125441 0.991046 -0.0457447
-0.0936951 -0.0601555 0.426154 -0.186312 -0.973206 -0.13475
0.0029634 -0.021276 0.259548 -0.729103 -0.516832 -0.448657
-0.00304331 -0.00629661 0.737917 -0.168099 0.807803 0.564975
0.0517456 0.0282172 0.135817 -0.0237725 -0.999452 -0.0230136
-0.0721546 0.0278942 0.0882557 0.00695102 0.999858 -0.0153499
-0.266275 -0.0626674 0.414582 0.0693444 -0.988164 -0.136834
-0.194741 -0.0516356 0.502221 0.0478489 0.989418 -0.136979
0.0266831 -0.0439715 0.2015 0.986379 0.152754 -0.0610131
-0.258181 -0.0647565 0.43377 0.0693407 -0.988166 -0.136822
0.0170155 -0.093324 0.663155 0.414122 -0.909867 -0.025381
0.102389 -0.0447597 0.60615 -0.119452 -0.992723 0.0152711
0.033035 -0.0533877 0.844307 0.971367 0.123627 0.202883
0.0276543 -0.0790802 0.842142 0.916257 -0.37514 0.14051
-0.0334358 -0.0654716 0.352397 -0.892066 -0.444458 -0.0816997
0.0231171 0.0154211 0.621858 0.826704 0.56197 0.0274031
-0.387175 -0.0598875 0.375397 0.0478489 0.989418 -0.136979
-0.019447 -0.0718228 0.40776 -0.18631 -0.973207 -0.13475
0.00205826 0.0903235 0.131642 -0.970026 -0.191757 -0.149261
0.200926 -0.0645931 0.604344 -0.463979 0.712631 -0.526195
-0.0247538 -0.0667342 0.266852 -0.712199 -0.696362 -0.0886124
0.0536827 -0.0495415 0.642152 0.981753 -0.189631 0.0141873
-0.0055057 0.0229902 0.199409 -0.456907 0.715534 0.528439
-0.188661 -0.0578765 0.459275 0.0478705 0.989413 -0.137007
-0.0344751 -0.0747178 0.449447 -0.18631 -0.973207 -0.13475
0.0141178 -0.0843972 0.518592 -0.11946 0.992721 0.0152739
0.0132419 -0.00614517 0.505294 0.123082 0.992381 -0.00551651
0.0391602 -0.0408094 0.80562 0.905272 0.370681 0.207555
0.169991 -0.071157 0.536052 -0.00557757 0.999866 0.0153809
-0.0362061 -0.0382276 0.671228 -0.125443 0.991045 0.045749
-0.349091 -0.065853 0.395618 0.0693444 -0.988164 -0.136834
-0.00463608 -0.0924034 0.575213 -0.128681 -0.990789 -0.04216
-0.0290486 -0.0313121 0.69494 -0.993124 -0.11608 0.0151601
-0.0713848 0.0162265 0.106577 -0.0131091 -0.999795 -0.0154353
-0.00684862 -3.62173e-05 0.180114 0.999377 -0.0328834 0.0128123
0.0590303 0.0197782 0.0665593 0.0750409 0.98776 0.136742
-0.0133418 -0.0904833 0.556662 -0.128681 -0.990789 -0.04216
0.0243775 0.0171615 0.104478 0.0750409 0.98776 0.136742
0.00389965 -0.0947551 0.646178 0.140019 -0.989664 -0.0309675
0.223866 -0.0700522 0.564768 -0.162556 0.970314 -0.17907
0.0960687 -0.0442706 0.588504 -0.119452 -0.992723 0.0152711
-0.00652519 -0.006983 0.737862 -0.168099 0.807803 0.564975
0.310253 -0.0607287 0.396194 0.0478705 -0.989413 0.137007
-0.0898273 -0.0507712 0.485486 -0.186318 0.973203 -0.134763
0.0308969 -0.0252449 0.803308 0.764332 0.614141 0.196537
-0.0108466 0.0223743 0.589008 -0.650804 0.74002 -0.169781
-0.190069 -0.060254 0.441615 0.0478705 0.989413 -0.137007
-0.138615 -0.0715466 0.549997 -0.00557757 -0.999866 -0.0153809
0.0470655 -0.0288409 0.696048 0.868514 0.495377 0.0168932
-0.0377926 -0.0425295 0.473062 -0.186319 0.973204 -0.134756
0.182917 -0.071267 0.547887 -0.00557757 0.999866 0.0153809
-0.149156 -0.0717224 0.565253 -0.00557757 -0.999866 -0.0153809
0.0415 -0.0455163 0.456618 -0.186319 -0.973204 0.134756
-0.0294306 -0.0113409 0.748973 -0.416776 0.908818 0.0186494
-0.0369287 -0.0433874 0.81831 -0.972597 0.123783 0.196807
-0.123484 -0.0719915 0.567657 -0.119457 -0.992722 -0.015271
-0.069992 0.0200036 0.0589162 0.0750521 -0.987755 -0.136772
0.0312547 -0.0167526 0.424375 0.643363 0.760309 -0.0895203
-0.0493164 -0.0654815 0.744773 -0.870222 -0.492644 0.00384665
-0.0101577 -0.0608554 0.698156 -0.568031 -0.822735 -0.0211628
-0.195627 -0.0712271 0.568196 -0.034623 -0.999134 0.0230568
0.0382798 -0.0171601 0.683678 0.666212 0.745752 0.00394406
0.0933198 -0.0584539 0.434831 -0.186319 -0.973204 0.134756
-0.293727 -0.0590753 0.413908 0.0478705 0.989413 -0.137007
-0.18855 -0.0714271 0.560342 -0.00557757 -0.999866 -0.0153809
0.00717399 -0.0258342 0.167525 -0.992945 0.0305462 0.114572
0.0674194 -0.0709184 0.467556 -0.18631 0.973207 0.13475
-0.0974548 -0.0451577 0.541672 -0.119454 0.992722 -0.0152664
-0.0186076 -0.061781 0.178528 -0.712199 -0.696362 -0.0886124
0.0228717 0.0217202 0.0725199 0.094782 -0.986088 0.136552
-0.278011 -0.0623076 0.406036 0.0693444 -0.988164 -0.136834
0.0684746 -0.0780027 0.528114 -0.119457 0.992722 0.015271
-0.0609157 0.018546 0.14791 -0.468185 -0.710807 0.524934
0.0126418 -0.0303439 0.520711 0.977447 0.0695483 -0.1994
0.019513 -0.0779587 0.70992 -0.166726 0.969622 -0.178982
0.000158324 -0.0432648 0.11137 -0.992946 0.0305458 0.114569
0.0250467 0.00652214 0.608471 0.929205 0.274276 -0.247692
-0.340456 -0.055788 0.445081 -0.0273656 0.999507 -0.015374
0.0254662 -0.0905039 0.735009 0.416837 -0.908955 -0.00686773
0.129406 -0.071011 0.645319 -0.162654 0.970275 -0.179193
0.0807544 -0.0526111 0.459654 -0.186319 -0.973204 0.134756
-0.0261828 -0.0897549 0.763916 -0.416599 -0.908435 0.0345069
-0.168585 -0.0590221 0.636608 -0.476067 0.707417 0.522419
-0.00980251 -0.00377665 0.718776 -0.140061 0.989958 0.0191423
-0.29313 -0.0693137 0.502548 -0.0530314 -0.997532 0.0460183
-0.348446 -0.0642956 0.474669 -0.463992 -0.71261 0.526211
-0.0213897 -0.0500853 0.676623 -0.817657 -0.57566 -0.00729317
0.243607 -0.0704499 0.516782 -0.00557757 0.999866 0.0153809
0.101903 -0.0496747 0.675167 -0.166742 -0.969614 -0.179014
0.0209929 -0.00686851 0.720381 0.414188 0.91 0.018662
-0.221123 -0.051383 0.556641 -0.0563466 0.998146 0.0230313
-0.243861 -0.068349 0.555841 -0.162783 -0.970225 0.179345
-0.324098 -0.0577078 0.49286 -0.183066 0.966768 0.178457
-0.0205252 -0.0677041 0.379504 -0.18631 -0.973207 -0.13475
-0.0400712 -0.0819505 0.653321 -0.120418 -0.992459 0.0229052
0.108976 -0.0570178 0.46685 -0.186319 -0.973204 0.134756
-0.181488 -0.049732 0.555839 -0.0273644 0.999507 -0.0153755
0.0342197 -0.0605435 0.346722 -0.186312 0.973206 0.13475
0.013328 -0.0394463 0.526453 0.987659 -0.0702743 -0.139971
0.0795216 -0.0767763 0.658124 -0.125441 0.991046 -0.0457447
0.0968366 0.0170237 0.0765374 -0.013142 0.999795 0.0153748
0.0046756 -0.0161475 0.273301 0.159749 0.986102 -0.0456422
-0.0485654 -0.0580483 0.375881 -0.186319 0.973204 -0.134756
0.0356317 -0.0147688 0.678853 0.666212 0.745752 0.00394406
0.143143 -0.0561729 0.487483 0.0478705 -0.989413 0.137007
-0.100439 0.0230102 0.0279955 0.0947819 0.986088 -0.136552
-0.0288507 -0.0101053 0.658336 -0.385489 0.922686 -0.0069693
-0.373705 -0.0596279 0.381977 0.0478489 0.989418 -0.136979
0.0441407 -0.0496629 0.788865 0.971367 0.123627 0.202883
0.00249437 -0.0609196 0.723825 0.203263 -0.976176 0.0759293
-0.022072 -0.0914729 0.768318 -0.416599 -0.908435 0.0345069
-0.340298 -0.0680704 0.469812 -0.162556 -0.970314 0.17907
-0.330549 -0.0555077 0.445671 -0.0273656 0.999507 -0.015374
0.22743 -0.0706607 0.524617 -0.00557757 0.999866 0.0153809
0.0695888 -0.0654515 0.431072 -0.186312 0.973206 0.13475
0.00856723 -0.0357732 0.233614 -0.997942 -0.0611859 -0.0191912
0.000996062 -0.00323808 0.606751 0.128782 0.991546 -0.0158413
0.0172614 -0.0688544 0.224161 0.712128 -0.696293 -0.0897251
0.0312838 -0.0205997 0.624279 0.994115 -0.107012 -0.0168247
0.0214192 -0.00899664 0.481369 0.395846 0.91825 -0.0110791
-0.00486634 -0.0568056 0.155784 0.992945 0.0305468 0.114572
0.0160676 -0.00426042 0.675444 0.140073 0.990042 -0.0139846
0.231453 -0.0553061 0.574286 -0.476067 -0.707417 -0.522419
0.0513598 -0.0435532 0.737929 0.984766 0.173292 0.0143261
-0.047171 -0.0807338 0.539005 -0.11946 -0.992721 -0.0152739
0.0400878 -0.0696904 0.448768 0.836335 -0.544287 -0.0655392
0.0322561 -0.0612197 0.348891 -0.186312 0.973206 0.13475
-0.115349 -0.0626038 0.68025 -0.350299 -0.753491 0.556365
-0.245686 -0.0520023 0.523383 -0.056345 0.998146 0.0230294
-0.377492 -0.0584668 0.38904 0.0478489 0.989418 -0.136979
-0.114598 -0.0463037 0.601279 -0.119452 0.992723 -0.0152711
0.358995 -0.0592889 0.389564 0.0478489 -0.989418 0.136979
0.137132 -0.0553349 0.495634 0.0478705 -0.989413 0.137007
-0.0157151 -0.094748 0.758844 -0.416599 -0.908435 0.0345069
-0.0262725 -0.0428038 0.198194 -0.984988 0.161607 -0.0606699
-0.0250692 0.0218121 0.0716585 0.0947819 0.986088 -0.136552
0.0167732 -0.0418196 0.711912 -0.166723 -0.969623 -0.178982
0.136475 0.0277851 0.0519522 0.00701546 -0.999857 0.0154155
-0.067086 -0.0737539 0.688384 -0.166726 -0.969622 0.178982
-0.168273 -0.0713201 0.546032 -0.00557757 -0.999866 -0.0153809
-0.0403925 -0.0271717 0.420841 -0.852715 0.513462 -0.0960859
0.0372685 -0.0170536 0.719881 0.66886 0.743142 0.0191463
0.0431772 -0.0402588 0.678865 -0.166737 -0.969613 -0.179025
0.33145 -0.0642449 0.392945 0.0693444 0.988164 0.136834
-0.347075 -0.0562954 0.423878 -0.0273644 0.999507 -0.0153755
-0.0894131 -0.0761565 0.644427 -0.125439 -0.991047 0.0457314
0.174444 -0.0500687 0.604778 -0.0746735 -0.996149 -0.0459545
0.01936 -0.079064 0.35591 0.461523 -0.885736 -0.0496717
-0.0276644 -0.00406796 0.6071 -0.954864 0.102786 -0.278694
0.249838 -0.067315 0.456477 0.0693407 0.988166 0.136822
0.0481337 -0.0559235 0.460924 0.980447 -0.183522 -0.0710182
0.0708128 0.0238463 0.0545972 0.094782 -0.986088 0.136552
0.0265804 -0.0618485 0.257097 0.892189 -0.444519 -0.0800156
0.00813629 -0.0547521 0.523242 0.910409 -0.409002 -0.0622332
-0.0389993 -0.0423995 0.47567 -0.186319 0.973204 -0.134756
0.159213 -0.0575669 0.471801 0.0478705 -0.989413 0.137007
0.0720061 -0.0585932 0.404356 -0.186319 -0.973204 0.134756
-0.0125204 -0.0816211 0.696596 -0.166741 -0.969612 0.179024
-0.0925823 0.0260798 0.0556164 0.0947717 0.986091 -0.136541
-0.0414253 -0.0645527 0.429477 -0.853583 -0.513985 -0.084951
0.0296622 -0.0185002 0.694603 0.992222 0.115975 0.0452188
0.0587594 -0.0759088 0.491625 -0.18631 0.973207 0.13475
0.052051 -0.0807677 0.64159 -0.120418 0.992459 -0.0229052
0.040253 -0.0640364 0.380291 -0.18631 0.973207 0.13475
-0.0315268 -0.0307749 0.324173 -0.890276 0.443561 -0.103258
-0.0926228 -0.0483586 0.506774 -0.186318 0.973203 -0.134763
0.0114877 -0.0360882 0.483211 -0.186319 -0.973204 0.134756
-0.0185304 -0.051809 0.379413 -0.186319 0.973204 -0.134756
-0.0359355 -0.0152784 0.627996 -0.666215 0.745756 -0.00231143
0.00156918 0.0291992 0.602402 0.262301 0.959449 -0.10323
-0.196687 -0.0570973 0.462099 0.0478705 0.989413 -0.137007
-0.00106013 -0.00305249 0.746094 -0.141129 0.989812 0.0188529
-0.0367424 -0.0159572 0.694107 -0.666095 0.745621 0.0191613
-0.14936 -0.0569516 0.479687 0.0478705 0.989413 -0.137007
0.110488 -0.0461186 0.581161 -0.119452 -0.992723 0.0152711
0.0228628 -0.0917745 0.745164 0.416837 -0.908955 -0.00686773
-0.130267 -0.0517011 0.659157 -0.183092 0.966757 0.178486
-0.00918019 -0.0594051 0.209606 0.999377 -0.0328834 0.0128123
-0.00442632 0.0480387 0.170574 0.970037 -0.191724 -0.14923
-0.0860161 -0.047084 0.675932 -0.166723 0.969623 0.178982
-0.0238811 -0.0855414 0.522598 -0.370015 -0.927534 -0.0526245
0.23429 -0.0700359 0.554697 -0.053041 0.997531 -0.0460306
0.355617 -0.0601901 0.384234 0.0478489 -0.989418 0.136979
0.00972926 -0.00338651 0.673827 0.140073 0.990042 -0.0139846
-0.040595 -0.0723117 0.782079 -0.862897 -0.488497 0.129536
0.0182197 -0.0667174 0.36919 -0.18631 0.973207 0.13475
-0.0948425 0.0169508 0.0795711 -0.013142 -0.999795 -0.0153748
-0.022461 0.0184125 0.0964933 0.0750409 -0.98776 -0.136742
-0.119245 -0.0488202 0.540247 -0.186318 0.973203 -0.134763
0.00697717 -0.00294164 0.211622 -0.997942 -0.0611859 -0.0191912
0.135704 -0.0486431 0.545138 -0.0273644 -0.999507 0.0153755
-0.0880472 0.0167368 0.107927 -0.0439427 -0.998767 0.0230896
-0.254906 -0.0599619 0.42107 0.0478705 0.989413 -0.137007
-0.0187577 -0.049092 0.72988 -0.791428 -0.60219 0.104919
0.00733023 0.015022 0.550364 0.636487 0.561078 -0.529222
-0.00292175 0.0287684 0.116115 0.992945 0.0305468 0.114572
-0.00724861 -0.0958429 0.714897 -0.14008 -0.9901 -0.00894086
-0.00148196 -0.00431104 0.112457 0.992945 0.0305468 0.114572
-0.00479653 -0.0244176 0.146543 0.992945 0.0305468 0.114572
-0.338996 -0.0599959 0.482635 -0.476055 0.707434 0.522406
0.0154889 -0.0612587 0.325989 -0.18631 0.973207 0.13475
0.00874533 -0.0561291 0.557 0.748057 -0.659543 -0.0735707
-0.0245166 -0.0884694 0.800732 -0.534508 -0.84296 0.0609868
0.00420425 0.0488987 0.121863 -0.992945 0.0305462 0.114572
0.269676 -0.0529303 0.504882 -0.0273656 -0.999507 0.015374
0.132334 -0.072438 0.60567 -0.00557757 0.999866 0.0153809
-0.00991746 -0.0634648 0.138053 -0.43932 -0.892968 -0.098012
0.0438239 -0.0813937 0.555714 -0.11946 0.992721 0.0152739
0.112498 -0.0734006 0.573316 -0.119457 0.992722 0.015271
0.0714807 0.0281936 0.108026 0.00701546 -0.999857 0.0154155
0.0430195 -0.0665593 0.78414 0.861355 -0.487624 0.142447
-0.0248439 -0.0451079 0.694371 -0.941281 -0.33762 0.00186902
0.0510383 -0.0325957 0.577092 0.849132 0.52761 0.0245689
0.316966 -0.0692894 0.469951 -0.0346122 0.999135 -0.023042
0.0590763 -0.0398754 0.637644 -0.120409 -0.992461 -0.0228806
0.148845 -0.0485858 0.572253 -0.0273644 -0.999507 0.0153755
0.131624 -0.0721939 0.622409 -0.034623 0.999134 -0.0230568
0.0293905 -0.0114758 0.532356 0.370493 0.928724 -0.0143835
-0.026588 -0.0376705 0.61357 -0.91441 -0.316665 -0.252146
0.0094469 -0.059217 0.230886 -0.999377 -0.0328831 0.0128125
-0.0156826 -0.0835605 0.905975 -0.745594 -0.631638 0.212419
0.0451205 -0.0478253 0.410172 0.983161 -0.152272 -0.10103
0.170206 -0.0493551 0.593323 -0.056345 -0.998146 -0.0230294
-0.0396373 -0.0380141 0.553797 -0.119454 0.992722 -0.0152664
0.0398172 -0.080029 0.747816 0.669019 -0.74324 -0.00266933
0.28339 -0.0612141 0.402074 0.0478705 -0.989413 0.137007
0.0132344 -0.028362 0.524307 0.977447 0.0695483 -0.1994
0.384448 -0.0581341 0.389013 0.0478489 -0.989418 0.136979
-0.0207353 -0.0517676 0.382761 -0.186319 0.973204 -0.134756
0.0296304 -0.0101118 0.674719 0.992745 0.110694 0.0469457
-0.0343725 -0.0513117 0.835927 -0.972597 0.123783 0.196807
0.106215 0.028079 0.0847899 0.00701546 -0.999857 0.0154155
0.0848776 0.0265561 0.123462 -0.154497 -0.971611 -0.179172
0.0110928 -0.0268217 0.868752 0.506205 0.791548 0.342357
-0.278393 -0.0538876 0.458161 -0.0273644 0.999507 -0.0153755
-0.108805 -0.0502786 0.672009 -0.166742 0.969614 0.179014
0.34664 -0.0583715 0.400506 0.0478489 -0.989418 0.136979
-0.0945143 -0.0758005 0.588649 -0.11946 -0.992721 -0.0152739
-0.107014 0.0252389 0.108596 -0.456907 0.715534 0.528439
-0.2481 -0.0698775 0.481198 -0.00558042 -0.999866 -0.0153755
-0.0195452 -0.0489177 0.900011 -0.898739 0.388017 0.204233
-0.26406 -0.0639048 0.424641 0.0693444 -0.988164 -0.136834
-0.00196175 -0.0531385 0.933065 -0.138426 0.820457 0.554697
