-0.0065819 -0.0367174 0.103238 0.993148 0.0229188 0.114594
-0.163856 -0.0585646 0.0889131 -0.0234445 -0.999463 0.0228885
0.0472501 -0.0916792 0.409948 0.971136 -0.22252 -0.0858994
0.000657383 -0.0870045 0.444264 0.049625 -0.997827 0.043342
-0.362105 -0.101926 0.389367 0.0591344 0.994022 -0.0917742
0.000982453 0.0132959 0.0447057 -0.993148 0.0229199 0.114594
0.040139 -0.014725 0.421689 0.0496059 0.998546 -0.021085
-0.0314849 -0.0820608 0.149203 -0.662541 -0.746177 0.0652596
0.0469277 -0.0727283 0.317212 0.663401 -0.747146 -0.0408901
-0.0402539 -0.0838247 0.478015 -0.030843 -0.999524 -0.00020006
0.382812 -0.105789 0.541883 -0.0902488 0.988472 -0.121568
-0.455943 -0.0959214 0.399303 0.746883 -0.662139 -0.0611368
-0.115053 -0.111412 0.452911 0.0623796 0.998 -0.0102463
-0.0783129 -0.0664946 0.450243 -0.945533 -0.251903 -0.206186
-0.0186141 -0.0605058 0.0627858 -0.00948797 -0.990506 -0.137143
0.0110684 -0.0455779 0.0641176 -0.00946888 -0.990502 0.137171
0.297434 -0.114367 0.475745 -0.0818137 0.996595 0.0102217
-0.0379343 -0.0571843 0.620529 -0.340316 0.92481 0.170031
-0.0866394 -0.0439498 0.46851 -0.880873 0.234675 -0.411085
-0.0432274 -0.0847489 0.514977 -0.0311068 -0.996687 -0.0751432
0.0339881 -0.0652825 0.233097 0.961907 0.179667 -0.206046
0.0230503 -0.0867475 0.220612 0.231469 -0.972808 -0.00816975
0.0331249 -0.129113 0.650959 0.683577 -0.72974 -0.0141861
0.0306927 -0.0995283 0.730097 0.313597 -0.949407 0.0168208
-0.137239 -0.126573 0.438841 -0.0844499 -0.992211 -0.0915778
0.385532 -0.0944869 0.530681 0.0528113 -0.99112 -0.122037
0.103166 -0.0570384 0.12223 -0.141058 0.83156 -0.537225
0.284201 -0.100362 0.499373 0.0623863 -0.997999 0.0102912
-0.150348 -0.108612 0.510705 0.0623863 0.997999 -0.0102912
-0.0226803 -0.0603262 0.188873 -0.930321 -0.173789 -0.322954
-0.353528 -0.10973 0.472594 -0.0818137 -0.996595 -0.0102217
0.0104124 -0.126022 0.933888 0.913007 -0.311977 0.262848
0.00299249 0.0196196 0.0608613 -0.993148 0.0229199 0.114594
0.0761882 -0.125416 0.370002 -0.0844499 0.992211 0.0915778
-0.00139624 -0.0915385 0.296679 -0.231477 -0.97284 0.000394924
-0.0290245 -0.0178817 0.242256 -0.581307 0.81358 -0.0130242
-0.296327 -0.0997261 0.487492 0.0623863 0.997999 -0.0102912
0.0307295 -0.034261 0.690749 0.833383 0.552519 -0.0139779
0.025673 -0.0295028 0.54295 0.922463 0.386081 -0.00170419
0.277837 -0.103385 0.427871 0.0591303 -0.994026 0.0917346
0.0692197 -0.0810511 0.475271 0.312542 -0.941814 -0.123706
-0.0653991 -0.0914296 0.531204 -0.0196884 -0.0587208 -0.99808
-0.0479031 -0.0643737 0.274595 -0.955795 -0.288384 -0.0573632
-0.257054 -0.114637 0.420011 -0.0844499 -0.992211 -0.0915778
0.0152549 -0.115253 0.622264 0.476857 -0.874299 0.0906058
0.0563887 -0.0743493 0.469116 0.974999 -0.203568 -0.0890952
-0.0980754 -0.0508074 0.48994 -0.87077 -0.244191 -0.426767
-0.0408199 -0.126403 0.801848 -0.615075 -0.784533 0.0786823
0.174347 -0.118101 0.381269 -0.0844499 0.992211 0.0915778
0.00611487 0.0190906 0.0961124 -0.999621 -0.024379 0.0128171
0.306668 -0.0993215 0.463969 0.0623796 -0.998 0.0102463
-0.0774196 -0.115788 0.570345 0.0528159 0.991119 0.122038
0.368243 -0.0953891 0.526047 0.0603526 -0.997708 -0.030615
0.0284154 -0.135227 0.738505 0.683577 -0.72974 -0.0141861
-0.0250182 -0.0128857 0.44506 -0.0496146 0.998722 0.00964018
0.0634301 -0.016883 0.487743 0.0307747 0.995882 0.085272
0.0540566 -0.0166574 0.488491 0.0307747 0.995882 0.085272
-0.378326 -0.107541 0.457649 -0.0818137 -0.996595 -0.0102217
-0.462347 -0.0819872 0.589441 0.944449 0.323196 0.0596701
0.0506658 -0.114471 0.769258 0.934038 -0.354257 -0.04556
-0.0369131 -0.0952131 0.684513 -0.468233 -0.883593 0.00447519
0.000687798 -0.0518769 0.0179069 -0.00947544 -0.990506 0.137145
-0.0138871 -0.0297687 0.316787 -0.322123 0.936824 -0.136375
-0.00526716 0.0543973 0.0971566 0.999621 -0.0243747 0.0128238
-0.0248441 -0.0864721 0.241044 -0.188014 -0.982144 -0.00668108
0.0398719 -0.0595025 0.744565 0.983562 0.174692 0.0457064
-0.0307743 -0.0980262 0.723924 -0.468182 -0.883495 0.0155517
-0.0481155 -0.121847 0.375917 0.0591344 0.994022 -0.0917742
-0.0268876 -0.0908075 0.0965033 -0.682793 -0.727658 0.0656329
-0.0588173 -0.0840237 0.511812 -0.0311068 -0.996687 -0.0751432
-0.0468645 -0.111589 0.659994 -0.682657 -0.728758 -0.0537613
-0.0161815 -0.137556 0.698249 -0.243464 -0.969718 -0.0192946
0.394002 -0.095075 0.539136 0.0528159 -0.991119 -0.122038
-0.0423885 -0.0810931 0.73601 -0.159683 0.966435 0.201256
-0.0407357 -0.0134855 0.426304 -0.0496146 0.998722 0.00964018
-0.0311126 -0.0207224 0.53097 -0.00248536 0.0797463 -0.996812
-0.0777387 -0.0633263 0.443739 -0.945533 -0.251903 -0.206186
-0.00276162 0.127003 0.0398521 0.999621 -0.0243795 0.0128171
0.0244416 -0.0231388 0.387431 0.783355 0.61035 -0.117593
0.00233084 -0.100566 0.531344 0.0143565 -0.0263221 -0.99955
0.0491491 -0.118004 0.765635 0.934038 -0.354257 -0.04556
-0.0456212 -0.084966 0.726548 -0.9842 0.174805 0.028155
-0.0815217 -0.0234525 0.473276 -0.392844 0.909503 -0.135931
-0.00102149 -0.057126 0.0371583 -0.00948797 -0.990506 -0.137143
0.238391 -0.103662 0.45689 0.0623796 -0.998 0.0102463
0.00780813 -0.0461261 0.0255982 0.751484 0.632338 -0.188203
0.00765847 -0.0292451 0.177105 -0.997499 -0.0593572 -0.0383845
-0.100929 -0.127758 0.572519 -0.0902434 -0.988483 0.121481
0.0307478 -0.112498 0.531861 0.0322451 -0.0158439 0.999354
-0.134277 -0.122517 0.392163 -0.0844499 -0.992211 -0.0915778
-0.422442 -0.0934078 0.537902 0.0527872 0.991093 0.12226
0.0385437 -0.0780048 0.285238 0.581239 -0.813484 -0.0201322
-0.00401499 -0.0860502 0.457558 -0.0496677 -0.998686 0.0126641
-0.0678154 -0.0779535 0.454507 -0.394059 -0.912637 -0.108676
-0.0438042 -0.0413969 0.183001 -0.943089 0.284596 -0.172011
0.0318347 -0.0999673 0.683984 0.466263 -0.879875 0.0917592
0.0820469 -0.132199 0.490327 -0.0818151 0.996595 0.0102317
-0.0167831 -0.0118993 0.38525 -0.0496146 0.998722 0.00964018
0.0806959 -0.0618423 0.456125 0.942324 -0.251047 -0.221363
-0.054068 -0.0165941 0.430395 -0.39459 0.913545 -0.0986628
0.0235983 -0.0233986 0.694953 0.833383 0.552519 -0.0139779
-0.413772 -0.0973295 0.405865 0.0591303 0.994026 -0.0917346
0.0413845 -0.117539 0.550622 0.754359 -0.645068 0.121777
0.208502 -0.121736 0.482368 -0.0818151 0.996595 0.0102317
-0.0207494 -0.0185604 0.51571 -0.030898 0.991408 0.127107
-0.192855 -0.106005 0.505872 0.0623863 0.997999 -0.0102912
-0.0586298 -0.0241267 0.395092 -0.57244 0.801169 -0.174476
0.174297 -0.0583064 0.0894963 -0.0234445 0.999463 -0.0228885
0.090542 -0.112703 0.476397 0.0623796 -0.998 0.0102463
-0.0156381 -0.0458483 0.759135 -0.2422 0.684007 0.688094
0.0245373 -0.0518122 0.0817923 0.662469 0.706022 -0.250334
0.00457383 0.067002 0.10843 -0.997499 -0.0593572 -0.0383845
-0.366204 -0.107829 0.446899 -0.0844499 -0.992211 -0.0915778
-0.0558234 -0.095506 0.540401 -0.967102 -0.221596 0.124933
-0.077862 -0.0525373 0.431123 -0.945533 -0.251903 -0.206186
-0.0681185 -0.0460178 0.0834821 -0.017263 0.999732 -0.0154158
-0.0233601 -0.0128172 0.446499 -0.0496146 0.998722 0.00964018
0.33387 -0.10634 0.400955 -0.0844597 0.992206 0.0916127
-0.000683618 -0.0765677 0.783045 -0.00123452 -0.967758 0.25188
0.0541611 -0.106022 0.532484 0.754359 -0.645068 0.121777
0.112069 -0.046932 0.0734152 -0.017263 -0.999732 0.0154158
-0.0709131 -0.0289259 0.424213 -0.940526 0.250568 -0.229406
-0.0486718 -0.0179235 0.504044 -0.0306342 0.991334 0.127743
-0.000980291 0.130136 0.0213197 0.993149 0.0229158 0.114588
0.289413 -0.114993 0.472532 -0.0818137 0.996595 0.0102217
-0.269265 -0.1059 0.406146 0.0591344 0.994022 -0.0917742
-0.110131 -0.11135 0.534605 0.061365 0.997996 0.0154283
-0.00786378 -0.030665 0.17281 0.99878 -0.0454899 -0.0192169
-0.0335781 -0.0815146 0.305678 -0.580977 -0.813118 -0.036122
0.0975516 -0.131087 0.506008 -0.0818151 0.996595 0.0102317
-0.0108329 -0.0894375 0.341262 -0.187847 -0.981273 0.0426229
0.326827 -0.0983861 0.536944 0.0528113 -0.99112 -0.122037
0.0444067 -0.0341032 0.231704 0.955917 0.288467 -0.0548557
0.0350135 -0.0465031 0.724639 0.787311 0.59585 0.158442
0.00601171 -0.0263123 0.188799 -0.978101 -0.143788 -0.150479
-0.154917 -0.115444 0.376449 0.0591344 0.994022 -0.0917742
0.462232 -0.102881 0.412306 0.62622 0.772279 0.106926
0.0018582 -0.044976 0.0768446 -0.017263 -0.999732 0.0154158
0.0729082 -0.0760544 0.531359 0.0188048 -0.00247569 0.99982
0.027844 -0.135885 0.796307 0.615749 -0.785374 0.0635701
-0.456912 -0.0880016 0.482286 0.859905 0.510427 -0.00526344
-0.0182423 -0.0970657 0.0510323 -0.693609 -0.710411 -0.11926
0.0331777 -0.0995397 0.636933 0.896548 -0.440526 -0.0462502
-0.0342589 -0.0591525 0.101493 -0.9473 0.270516 -0.171591
-0.108945 -0.129736 0.465509 -0.0818151 -0.996595 -0.0102317
0.0367931 -0.0239576 0.27779 0.581112 0.813306 -0.0290397
0.0160184 -0.121348 0.559437 0.476857 -0.874299 0.0906058
-0.0870411 -0.125637 0.382407 -0.0844499 -0.992211 -0.0915778
0.176258 -0.110193 0.567675 0.0527872 -0.991093 -0.12226
-0.0361298 -0.0207557 0.473276 -0.75447 0.645157 -0.120613
-0.0864043 -0.129961 0.42867 -0.0844499 -0.992211 -0.0915778
-0.0489339 -0.134335 0.441505 -0.0844499 -0.992211 -0.0915778
-0.0411473 -0.0660908 0.674672 -0.982988 0.17459 -0.0570323
0.00216356 0.0655068 0.0444993 -0.993148 0.0229199 0.114594
-0.0326096 -0.0268009 0.172285 -0.642211 0.723128 -0.254263
-0.0290286 -0.0874073 0.113008 -0.662541 -0.746177 0.0652596
0.0369869 -0.104446 0.531787 0.0322451 -0.0158439 0.999354
-0.23914 -0.103318 0.485844 0.0623796 0.998 -0.0102463
0.0143654 -0.115837 0.531886 0.000995971 -0.0319117 -0.99949
-0.00774528 -0.0901886 0.306209 -0.188014 -0.982144 -0.00668108
-0.0232024 -0.13448 0.565633 -0.347594 -0.936934 0.0365019
-0.0298636 -0.0813518 0.209566 -0.663782 -0.747574 -0.0229486
0.0219056 -0.0448765 0.105751 -0.0172704 -0.999732 0.0153914
0.0613357 -0.0477854 0.356928 0.943843 0.251451 -0.214318
-0.0487087 -0.128813 0.381467 -0.0844499 -0.992211 -0.0915778
-0.303992 -0.113523 0.451224 -0.0844499 -0.992211 -0.0915778
0.0719433 -0.0611378 0.418067 0.942324 -0.251047 -0.221363
-0.0596186 -0.133947 0.54319 -0.0828164 -0.996448 0.015287
-0.102884 -0.047445 0.0569733 -0.00946888 0.990502 -0.137171
0.0324843 -0.0422221 0.602618 0.991793 0.111219 -0.0630613
0.0140965 -0.139087 0.667117 0.24351 -0.969898 0
-0.122729 -0.114402 0.408479 0.0591344 0.994022 -0.0917742
-0.146744 -0.109845 0.442366 0.0591303 0.994026 -0.0917346
0.0398538 -0.053593 0.722368 0.983562 0.174692 0.0457064
0.0284235 -0.0278473 0.159123 0.641536 0.722368 -0.258099
0.175324 -0.107208 0.495469 0.0623796 -0.998 0.0102463
0.00643256 -0.0628919 0.776816 0.0918722 0.730427 0.676783
-0.109616 -0.127686 0.425425 -0.0844499 -0.992211 -0.0915778
0.00936985 -0.12559 0.287421 0.324652 -0.944095 -0.0573161
0.00920173 -0.139846 0.60949 0.347766 -0.937397 -0.0185766
-0.235212 -0.115522 0.409453 -0.0844499 -0.992211 -0.0915778
-0.191897 -0.106102 0.502283 0.0623863 0.997999 -0.0102912
0.0410627 -0.0841758 0.463125 0.049625 -0.997827 0.043342
-0.0302993 -0.049644 0.280087 -0.787688 0.613726 0.0537449
-0.0277944 -0.100062 0.681237 -0.468233 -0.883593 0.00447519
0.0811228 -0.0802349 0.499129 0.312542 -0.941814 -0.123706
0.0362929 -0.121862 0.478182 0.758348 -0.648479 -0.0662011
0.177776 -0.107005 0.500247 0.0623863 -0.997999 0.0102912
-0.0738318 -0.0597024 0.0608036 -0.00948797 -0.990506 -0.137143
-0.113051 -0.118664 0.585251 0.0197103 0.918248 0.395516
0.0415621 -0.115716 0.56071 0.808963 -0.584485 0.0628995
0.0339533 -0.0337711 0.156288 0.641536 0.722368 -0.258099
-0.00995425 -0.0583372 0.0465239 -0.00948797 -0.990506 -0.137143
-0.390868 -0.0939541 0.474116 0.0623863 0.997999 -0.0102912
0.420771 -0.0918645 0.495479 0.0623863 -0.997999 0.0102912
-0.0325039 -0.131724 0.751959 -0.683344 -0.729492 -0.0297026
-0.316416 -0.11303 0.515439 -0.0828164 -0.996447 0.0152967
-0.0482114 -0.02468 0.358369 -0.57244 0.801169 -0.174476
0.00466168 -0.0234093 0.141158 0.233423 0.928431 -0.289015
0.0417217 -0.0768815 0.661934 0.982119 0.174436 -0.0708162
-0.0370293 -0.0762895 0.158903 -0.662541 -0.746177 0.0652596
0.0343749 -0.0648334 0.589722 0.982119 0.174436 -0.0708162
0.0797864 -0.0297719 0.459319 0.943843 0.251451 -0.214318
0.0255499 -0.038063 0.211352 0.975821 0.0459619 -0.213684
0.00956592 -0.0902042 0.342528 0.187983 -0.981985 -0.0191748
0.221314 -0.11129 0.378667 0.0591344 -0.994022 0.0917742
0.0118536 -0.0893347 0.211451 0.231469 -0.972808 -0.00816975
-0.0247077 -0.0328379 0.564424 -0.226722 0.723577 0.651946
0.45168 -0.100927 0.450938 -0.0844597 0.992206 0.0916127
-0.043852 -0.060273 0.369589 -0.973362 0.203199 -0.106193
0.00163352 -0.0101801 0.248802 0.231469 0.972802 0.00889635
0.373661 -0.102314 0.39404 -0.0844597 0.992206 0.0916127
-0.00618946 0.0134191 0.0911445 0.999621 -0.0243795 0.0128171
0.202794 -0.105959 0.544345 0.0603493 -0.997707 -0.0306479
-0.0194117 -0.0873289 0.214135 -0.188014 -0.982144 -0.00668108
-0.0729824 -0.0531464 0.40949 -0.945533 -0.251903 -0.206186
-6.49728e-05 0.00345043 0.543387 -0.37318 0.923099 0.0928696
-0.0247271 -0.085879 0.389822 -0.0496677 -0.998686 0.0126641
0.0354737 -0.0522759 0.0174285 -0.00947544 -0.990506 0.137145
-0.0576122 -0.0212325 0.527591 -0.030898 0.991408 0.127107
0.325908 -0.112004 0.473185 -0.0818137 0.996595 0.0102217
-0.00416186 -0.141082 0.626457 -0.347826 -0.937559 0
-0.0385548 -0.0746475 0.231144 -0.580977 -0.813118 -0.036122
-0.00731621 -0.140789 0.770319 -0.24351 -0.969899 0
0.0337034 -0.0815536 0.28889 0.581239 -0.813484 -0.0201322
0.081586 -0.113068 0.532207 0.061365 -0.997996 -0.0154283
0.0506193 -0.0707777 0.338225 0.942324 -0.251047 -0.221363
0.215013 -0.106773 0.431651 0.0591303 -0.994026 0.0917346
0.0182322 -0.0305488 0.238379 0.819417 0.571227 0.0474888
0.00264369 0.13051 0.0373046 -0.999621 -0.0243849 0.0128019
0.0476084 -0.0320923 0.298073 0.955917 0.288467 -0.0548557
-0.14084 -0.058865 0.0705657 -0.017282 -0.999732 -0.0153914
0.166197 -0.0483723 0.0546475 -0.00946888 -0.990502 0.137171
-0.111973 -0.0470176 0.0677561 -0.017263 0.999732 -0.0154158
-0.00530867 -0.0562384 0.0114349 -0.974801 -0.0859936 -0.205834
-0.0362511 -0.0811517 0.624083 -0.887408 -0.448626 -0.106032
0.0128697 -0.0196559 0.386262 0.296216 0.945364 -0.136173
0.271982 -0.116568 0.486576 -0.0818151 0.996595 0.0102317
0.0213449 -0.121995 0.308247 0.758348 -0.648479 -0.0662011
0.179936 -0.0563848 0.0441774 -0.00947073 0.990515 0.137077
0.300577 -0.113481 0.540399 -0.0902621 0.988448 -0.12175
-0.0668869 -0.0745803 0.422813 -0.394059 -0.912637 -0.108676
0.00304663 -0.121894 0.197265 0.358519 -0.932595 -0.041606
0.262767 -0.10185 0.484939 0.0623796 -0.998 0.0102463
0.0541634 -0.0843216 0.622403 0.981414 -0.189977 -0.0271324
0.0462213 -0.0501862 0.41422 0.973667 0.203263 -0.103231
-0.0861281 -0.0811499 0.531093 -0.0216749 -0.0106501 0.999708
0.0137238 -0.0896007 0.352383 0.187983 -0.981985 -0.0191748
-0.0637405 -0.114563 0.458395 0.0623796 0.998 -0.0102463
0.0181079 -0.00456084 0.502452 0.296216 0.945364 -0.136173
-0.271435 -0.101265 0.489178 0.0623863 0.997999 -0.0102912
0.0472743 -0.0465721 0.565398 0.311781 0.847266 0.430039
-0.0421784 -0.0656075 0.725264 -0.97873 0.198439 0.0520569
-0.462951 -0.109707 0.545538 0.786528 -0.61739 0.0142571
0.0341143 -0.100495 0.664188 0.896548 -0.440526 -0.0462502
0.042276 -0.0181671 0.378183 0.575732 0.805776 -0.138776
0.00926123 -0.0462009 0.0656364 0.243011 0.966565 -0.0818403
0.220563 -0.120663 0.474238 -0.0818151 0.996595 0.0102317
-0.0605512 -0.0619452 0.520604 -0.969393 0.22212 -0.104595
0.454818 -0.0998475 0.442144 -0.0844597 0.992206 0.0916127
-0.00157201 -0.00995575 0.233868 -0.188014 0.982125 0.00898161
-0.0205827 -0.0453504 0.0735362 -0.017263 0.999732 -0.0154158
-0.0277675 -0.0270427 0.631621 -0.833328 0.552482 0.018106
-0.240103 -0.103607 0.541261 0.0603493 0.997707 0.0306479
0.0189427 -0.087805 0.230151 0.231469 -0.972808 -0.00816975
0.044506 -0.0454404 0.0944883 -0.017263 -0.999732 0.0154158
-0.40535 -0.101514 0.41459 -0.0844597 -0.992206 -0.0916127
0.0386001 -0.127205 0.755715 0.67698 -0.722698 -0.139304
0.058928 -0.0833013 0.472533 0.0496699 -0.99873 -0.00841377
-0.173582 -0.124891 0.516102 -0.0828164 -0.996447 0.0152967
-0.417263 -0.0922669 0.477725 0.0623863 0.997999 -0.0102912
0.197355 -0.1061 0.469277 0.0623796 -0.998 0.0102463
0.0488735 -0.0584897 0.421801 0.969188 0.222073 -0.106576
-0.175695 -0.0582253 0.0912807 -0.0280119 -0.998526 0.0464855
-0.0300069 -0.0545359 0.540271 -0.990901 0.111119 -0.0759489
-0.204783 -0.116941 0.571106 -0.112383 -0.912608 0.393086
-0.0723837 -0.114549 0.5581 0.0528113 0.99112 0.122037
-0.0091161 -0.0520779 0.0254398 -0.970105 0.0855249 -0.227117
-0.00691361 -0.0320316 0.0729093 -0.979164 0.172126 -0.107754
0.0364465 -0.0611146 0.0995616 -0.0172784 0.999733 0.0153449
0.0494536 -0.0458796 0.0715435 -0.017263 -0.999732 0.0154158
-0.293253 -0.11491 0.495179 -0.0818151 -0.996595 -0.0102317
-0.0558902 -0.0663157 0.602347 -0.805185 0.58633 0.0888532
0.205722 -0.105783 0.544382 0.0603493 -0.997707 -0.0306479
-0.318372 -0.105429 0.37961 0.0591344 0.994022 -0.0917742
-0.0382192 -0.0546031 0.329221 -0.969393 0.22212 -0.104595
-0.00552965 -0.0456958 0.0598198 -0.24309 0.96688 -0.0777884
-0.376667 -0.0945821 0.510067 0.061365 0.997996 0.0154283
0.00906107 -0.0931084 0.759275 0.0681231 -0.769453 0.635061
0.0296966 -0.0814772 0.197514 0.663401 -0.747146 -0.0408901
-0.00895714 -0.134403 0.439301 -0.298614 -0.952707 -0.0563854
0.0976466 -0.046852 0.0624537 -0.017263 -0.999732 0.0154158
0.012607 -0.0129327 0.310039 0.188021 0.982163 0.00190231
0.0531319 -0.0837776 0.441565 0.395492 -0.915955 -0.0679239
-0.433261 -0.0932123 0.540989 0.0527872 0.991093 0.12226
0.0399089 -0.0823389 0.531965 0.0188048 -0.00247569 0.99982
-0.0602911 -0.0601903 0.539367 -0.96899 0.222027 0.108451
-0.0123888 -0.0455958 0.760028 -0.2422 0.684007 0.688094
-0.00820946 -0.0109014 0.435302 -0.296307 0.945655 -0.133934
0.166606 -0.122344 0.420096 -0.0844499 0.992211 0.0915778
-0.0116543 -0.0137754 0.177249 -0.221542 0.931081 -0.28984
0.0685537 -0.127133 0.381564 -0.0844499 0.992211 0.0915778
0.135305 -0.127904 0.497815 -0.0818151 0.996595 0.0102317
0.0184289 -0.0523032 0.0488371 0.695394 0.712232 -0.0956646
0.046192 -0.0482761 0.188285 0.955917 0.288467 -0.0548557
-0.0577795 -0.0574481 0.0434115 -0.00948797 -0.990506 -0.137143
0.0529071 -0.0971335 0.531328 0.000995971 -0.0319117 -0.99949
-0.0747881 -0.116209 0.572621 0.0528159 0.991119 0.122038
0.00384523 0.093591 0.0608022 -0.999621 -0.0243849 0.0128019
-0.0876079 -0.0787092 0.507354 -0.314595 -0.947999 -0.0482567
-0.287265 -0.100204 0.496095 0.0623863 0.997999 -0.0102912
0.0619729 -0.0463094 0.361466 0.943843 0.251451 -0.214318
0.000873554 -0.0171015 0.715626 0.354829 0.877706 0.322069
0.133293 -0.0470638 0.089261 -0.0234801 -0.999457 -0.023113
-0.0445411 -0.0686329 0.239989 -0.955795 -0.288384 -0.0573632
0.0334142 -0.0384129 0.686701 0.833383 0.552519 -0.0139779
-0.0131389 -0.137752 0.640974 -0.347826 -0.937559 0
-0.0695265 -0.133032 0.545986 -0.08379 -0.996007 0.0307963
-0.221105 -0.10484 0.543608 0.0528113 0.99112 0.122037
0.234511 -0.103412 0.504814 0.0623863 -0.997999 0.0102912
0.0124067 -0.0153652 0.156213 0.975821 0.0459619 -0.213684
0.0285938 -0.084911 0.277032 0.581239 -0.813484 -0.0201322
0.407296 -0.0971212 0.412296 0.0591303 -0.994026 0.0917346
-0.0297858 -0.0306374 0.154241 -0.642211 0.723128 -0.254263
-0.0522264 -0.0564943 0.0361382 -0.00948797 -0.990506 -0.137143
0.0269447 -0.0843398 0.498304 0.0308298 -0.999097 0.0292204
0.0467252 -0.0596435 0.224362 0.955233 -0.288215 -0.0668058
0.0208769 -0.0520379 0.609753 0.0958784 0.97272 0.211241
-0.0017159 0.120311 0.02966 0.993149 0.0229158 0.114588
-0.039113 -0.0851023 0.394655 -0.0496677 -0.998686 0.0126641
-0.104597 -0.111885 0.470505 0.0623796 0.998 -0.0102463
0.0404829 -0.0887263 0.531047 0.000995971 -0.0319117 -0.99949
-0.0566881 -0.0397492 0.351227 -0.91553 0.343344 -0.20957
0.177414 -0.107174 0.486061 0.0623796 -0.998 0.0102463
0.0378232 -0.0736352 0.181307 0.662351 -0.745963 0.0694966
0.405734 -0.105642 0.491864 -0.0818137 0.996595 0.0102217
0.0537232 -0.082674 0.459801 0.971136 -0.22252 -0.0858994
0.40667 -0.0939187 0.447402 0.0591303 -0.994026 0.0917346
-0.0904734 -0.112325 0.519468 0.061365 0.997996 0.0154283
0.0164298 -0.0131431 0.625931 0.373789 0.924605 0.0733908
0.0910987 -0.0677037 0.531064 0.0184628 -0.00512503 0.999816
0.0311205 -0.0202126 0.250163 0.663945 0.747601 -0.0164205
-0.00990696 -0.0451573 0.074099 -0.017263 0.999732 -0.0154158
0.249903 -0.118489 0.497084 -0.0818151 0.996595 0.0102317
-0.0192543 -0.0464173 0.133582 -0.0561071 0.981837 0.181238
-0.0315302 -0.0498466 0.248494 -0.820098 0.571701 0.0244543
0.0367626 -0.0748521 0.191098 0.663401 -0.747146 -0.0408901
0.0426885 -0.0262484 0.331605 0.581112 0.813306 -0.0290397
0.0186269 -0.05299 0.0111069 -0.00947544 -0.990506 0.137145
-0.000611281 -0.0857464 0.477599 -0.0496505 -0.99834 0.0291983
0.0223246 -0.0214323 0.558836 0.922463 0.386081 -0.00170419
-0.0407386 -0.0766698 0.311788 -0.580977 -0.813118 -0.036122
0.300682 -0.114333 0.49836 -0.0818151 0.996595 0.0102317
0.0275021 -0.0454411 0.0754015 -0.017263 -0.999732 0.0154158
0.0136781 -0.0862208 0.447399 0.049625 -0.997827 0.043342
-0.0126014 -0.00971065 0.622206 -0.538167 0.840814 0.0583715
-0.0322649 -0.0481291 0.111792 -0.661543 0.705035 -0.255513
0.031198 -0.0575939 0.555277 0.991793 0.111219 -0.0630613
-0.0164939 -0.122409 0.534249 -0.897363 -0.440926 0.0179673
-0.104094 -0.111524 0.50873 0.0623796 0.998 -0.0102463
0.193015 -0.121213 0.557368 -0.0902488 0.988472 -0.121568
0.0184999 -0.102799 0.726723 0.140644 -0.989903 0.0176452
0.00819405 -0.028167 0.128727 0.233423 0.928431 -0.289015
0.0576671 -0.11472 0.48001 0.0623796 -0.998 0.0102463
-0.074335 -0.0479498 0.0513575 -0.00946888 0.990502 -0.137171
-0.108648 -0.115722 0.578202 0.0197103 0.918248 0.395516
0.173004 -0.110877 0.414265 0.0591344 -0.994022 0.0917742
-0.0199795 -0.0992052 0.0752668 -0.682793 -0.727658 0.0656329
-0.0676853 -0.114289 0.461019 0.0623796 0.998 -0.0102463
0.0447371 -0.112687 0.620769 0.809823 -0.585106 -0.042861
-0.319868 -0.101995 0.556857 0.0197103 0.918248 0.395516
0.0659086 -0.0459107 0.107852 -0.0234801 -0.999457 -0.023113
-0.00147688 -0.140093 0.49514 -0.324719 -0.94429 -0.0536154
-0.0888647 -0.0311089 0.480743 -0.881423 0.247178 -0.402487
0.0163891 -0.0133254 0.208823 0.231469 0.972802 0.00889635
0.109671 -0.111158 0.510424 0.0623863 -0.997999 0.0102912
-0.0410612 -0.0650016 0.743959 -0.97873 0.198439 0.0520569
-0.0325393 -0.0809531 0.273972 -0.663782 -0.747574 -0.0229486
-0.027021 -0.0646036 0.0443487 -0.956606 0.262436 -0.126622
0.0498647 -0.103081 0.797635 0.912054 0.311652 0.266517
0.0351038 -0.0869177 0.762322 0.0149673 -0.847166 0.531118
0.0743225 -0.113586 0.489143 0.0623796 -0.998 0.0102463
0.458296 -0.0994186 0.410351 0.62622 0.772279 0.106926
0.453334 -0.100703 0.530886 -0.0902621 0.988448 -0.12175
0.0423486 -0.0684856 0.725603 0.983562 0.174692 0.0457064
-0.0560089 -0.0951674 0.760391 -0.928235 -0.352057 -0.120148
-0.0356443 -0.0420695 0.658186 -0.921912 0.38585 -0.034614
-0.00146029 -0.124876 0.243205 -0.357911 -0.931015 -0.0714921
0.359625 -0.0967872 0.446643 0.0591303 -0.994026 0.0917346
-0.0490588 -0.0331007 0.315062 -0.934997 0.350644 -0.0531927
0.0143379 -0.0126531 0.188675 0.231469 0.972802 0.00889635
0.0138488 -0.0266288 0.727757 0.317858 0.897673 0.305203
-0.0246078 -0.10396 0.581768 -0.897363 -0.440926 0.0179673
0.460588 -0.107001 0.507573 0.745538 0.666428 0.00683526
-0.0407533 -0.0173548 0.501507 -0.0306854 0.992994 0.114112
-0.087076 -0.115343 0.42126 0.0591344 0.994022 -0.0917742
0.0333468 -0.0989898 0.849098 0.902207 0.342246 0.262469
0.0728471 -0.0468685 0.119436 -0.0561071 -0.981837 -0.181238
0.239987 -0.115322 0.411685 -0.0844499 0.992211 0.0915778
-0.0916001 -0.0573991 0.0453975 -0.00948797 -0.990506 -0.137143
0.387405 -0.0941728 0.473898 0.0623863 -0.997999 0.0102912
-0.0990524 -0.130425 0.453502 -0.0818151 -0.996595 -0.0102317
-0.0818023 -0.0529018 0.449638 -0.945533 -0.251903 -0.206186
0.0354752 -0.0147762 0.408288 0.0496059 0.998546 -0.021085
-0.293968 -0.100104 0.533293 0.0603493 0.997707 0.0306479
0.0341598 -0.127438 0.843485 0.575623 -0.81486 0.0682733
-0.0728344 -0.0347723 0.531347 -0.0178423 0.00200082 0.999839
-0.0357107 -0.0734398 0.587031 -0.990901 0.111119 -0.0759489
0.15088 -0.10917 0.453169 0.0623796 -0.998 0.0102463
0.0515309 -0.0149082 0.439811 0.0496059 0.998546 -0.021085
0.141266 -0.111821 0.424494 0.0591344 -0.994022 0.0917742
-0.421775 -0.0924976 0.453065 0.0591303 0.994026 -0.0917346
0.00705349 -0.140009 0.551897 0.347826 -0.937559 0
0.0568949 -0.0620657 0.35218 0.917687 -0.344205 -0.198428
-0.0711154 -0.0518278 0.399318 -0.945533 -0.251903 -0.206186
-0.00722571 -0.00362881 0.584162 -0.538167 0.840814 0.0583715
-0.405612 -0.0982247 0.401426 0.0591344 0.994022 -0.0917742
-0.0531106 -0.102283 0.752658 -0.961105 -0.274913 -0.0264397
0.193969 -0.120721 0.427745 -0.0844499 0.992211 0.0915778
0.0279697 -0.0877991 0.122875 0.683039 -0.72792 0.0599232
0.121901 -0.110563 0.49393 0.0623796 -0.998 0.0102463
-0.0223067 -0.109941 0.549912 -0.897363 -0.440926 0.0179673
0.225901 -0.117854 0.426132 -0.0844499 0.992211 0.0915778
-0.0135694 -0.0854843 0.464525 -0.0496505 -0.99834 0.0291983
-0.235733 -0.105094 0.436493 0.0591303 0.994026 -0.0917346
-0.27502 -0.100855 0.5072 0.0623863 0.997999 -0.0102912
-0.260192 -0.115346 0.430582 -0.0844499 -0.992211 -0.0915778
-0.130724 -0.0470494 0.0912487 -0.0234801 0.999457 0.023113
-0.0206628 -0.0105789 0.46513 -0.296307 0.945655 -0.133934
-0.0901863 -0.077503 0.501374 -0.310069 -0.934362 -0.17557
-0.0396669 -0.082756 0.659458 -0.887408 -0.448626 -0.106032
0.0372992 -0.125979 0.53003 0.758348 -0.648479 -0.0662011
0.0360173 -0.0796815 0.773271 0.692358 -0.561562 0.453087
0.00837436 -0.0127684 0.395575 0.188013 0.982121 0.00947994
0.23361 -0.103871 0.537038 0.0603526 -0.997708 -0.030615
0.0343669 -0.0647379 0.249142 0.982594 0.183531 -0.028747
0.0408996 -0.081349 0.354186 0.57495 -0.804681 -0.148055
-0.0220164 -0.115237 0.261586 -0.818336 -0.570479 -0.0698489
0.0101801 -0.103006 0.895161 0.191036 0.909409 0.369432
-0.0304849 -0.0829133 0.278406 -0.663782 -0.747574 -0.0229486
-0.0260758 -0.136592 0.806352 -0.57599 -0.81538 0.0582288
-0.0353276 -0.0643855 0.595279 -0.990901 0.111119 -0.0759489
-0.00516983 -0.0372279 0.0969647 -0.233242 0.927712 -0.291459
-0.0232019 -0.0373084 0.234673 -0.820098 0.571701 0.0244543
-0.0394122 -0.0610979 0.101808 -0.0172784 -0.999733 -0.0153449
0.0624353 -0.133501 0.460319 -0.0818151 0.996595 0.0102317
-0.0446406 -0.0798676 0.729173 -0.9842 0.174805 0.028155
-0.10116 -0.0466889 0.0769666 -0.017263 0.999732 -0.0154158
-0.00732487 -0.0446022 0.581844 -0.0960518 0.974479 0.202888
-0.0302343 -0.0531235 0.545304 -0.990901 0.111119 -0.0759489
0.0442171 -0.0480249 0.17441 0.942728 0.284487 -0.17416
-0.00130608 0.125466 0.0250773 0.993149 0.0229158 0.114588
-0.0184807 -0.105177 0.688305 -0.139673 -0.983068 0.118615
0.000735244 -0.0140949 0.167908 0.233423 0.928431 -0.289015
0.215732 -0.118271 0.421274 -0.0844499 0.992211 0.0915778
-0.270497 -0.116491 0.467138 -0.0818137 -0.996595 -0.0102217
0.0490534 -0.116702 0.753549 0.934038 -0.354257 -0.04556
-0.0191376 -0.0135332 0.616585 -0.833328 0.552482 0.018106
-0.291177 -0.104593 0.561459 0.0197103 0.918248 0.395516
-0.0335574 -0.127396 0.703229 -0.810517 -0.585607 -0.0112095
-0.0145227 -0.0809435 0.0397116 0.0891301 0.0244576 -0.99572
0.0197866 -0.118945 0.532112 0.0322451 -0.0158439 0.999354
-0.0204884 -0.0142871 0.311513 -0.188014 0.982125 0.00898161
-0.0183201 -0.129618 0.899797 -0.608095 -0.77563 0.169171
0.0986472 -0.0532334 0.492408 0.873508 -0.232714 -0.427584
-0.00234702 -0.0102133 0.245803 -0.188014 0.982125 0.00898161
0.0296114 -0.0184856 0.267772 0.663945 0.747601 -0.0164205
-0.458541 -0.104299 0.537445 0.814969 -0.578891 0.0266596
0.192357 -0.108901 0.423195 0.0591344 -0.994022 0.0917742
0.0239949 -0.0320531 0.729221 0.819188 0.543108 0.184294
0.33716 -0.0972107 0.522902 0.061353 -0.997995 -0.0155457
0.249782 -0.118114 0.459581 -0.0818137 0.996595 0.0102217
0.0977516 -0.0598269 0.0846973 -0.0172784 0.999733 0.0153449
-0.0565819 -0.0509557 0.553602 -0.96899 0.222027 0.108451
-0.00362383 0.0979557 0.085246 0.997493 -0.0594122 -0.0384548
-0.0305722 -0.0141649 0.531887 -0.0242292 0.0101407 0.999655
-0.0459868 -0.0771875 0.362062 -0.970967 -0.222482 -0.0878884
0.199588 -0.110654 0.399549 0.0591344 -0.994022 0.0917742
-0.0764847 -0.0226862 0.46364 -0.39459 0.913545 -0.0986628
0.00543529 -0.0984605 0.0595016 0.601782 -0.790666 -0.112721
0.033002 -0.0672064 0.532125 0.0168418 0.00188863 0.999856
-0.0326506 -0.057205 0.0399174 -0.00948797 -0.990506 -0.137143
-0.0160739 -0.0289099 0.234011 -0.356652 0.928227 0.105806
0.393792 -0.106265 0.52941 -0.08379 0.996007 -0.0307963
0.00558044 -0.0473107 0.594928 0.0958784 0.97272 0.211241
-0.0152913 -0.0883119 0.242676 -0.188014 -0.982144 -0.00668108
0.00510442 0.00804105 0.16187 -0.978101 -0.143788 -0.150479
-0.0944302 -0.0767612 0.527572 -0.959825 -0.269165 0.0792808
-0.34936 -0.0966605 0.463237 0.0623796 0.998 -0.0102463
-0.0164556 -0.122101 0.275354 -0.324005 -0.942213 -0.085178
-0.179647 -0.0579243 0.0947409 -0.0560218 -0.981933 0.180744
0.0120318 -0.0414983 0.113948 0.998522 0.0470311 -0.0272477
-0.0109395 -0.0132856 0.666042 -0.37318 0.923099 0.0928696
-0.0333275 -0.0815252 0.103293 -0.960405 -0.274257 -0.0490442
-0.0465642 -0.0750965 0.366084 -0.973362 0.203199 -0.106193
0.167346 -0.0577473 0.0995149 -0.0560218 0.981933 -0.180744
-0.0504981 -0.0850292 0.744885 -0.518904 0.840698 0.154809
-0.0384436 -0.119858 0.66269 -0.810517 -0.585607 -0.0112095
-0.422745 -0.104207 0.488121 -0.0818137 -0.996595 -0.0102217
0.0969562 -0.0471572 0.530994 0.0177068 0.00491519 0.999831
0.00464988 -0.00415219 0.476013 0.296216 0.945364 -0.136173
0.411125 -0.0925718 0.485362 0.0623863 -0.997999 0.0102912
0.101066 -0.0570576 0.513783 0.959651 -0.269116 0.0815218
-0.0466458 -0.0847586 0.531849 -0.0178207 -0.00234612 0.999838
0.0222089 -0.01331 0.446516 0.0496059 0.998546 -0.021085
-0.0275183 -0.0129697 0.387002 -0.187764 0.98082 -0.0523134
-0.00850637 -0.0646925 0.778535 -0.0929578 0.739042 0.667215
0.0358723 -0.0160953 0.531201 0.00152752 0.0490127 -0.998797
0.00512229 -0.0481904 0.762995 0.226891 0.640771 0.733439
-0.00529193 -0.0018896 0.114414 -0.54918 0.721521 -0.421674
0.142899 -0.127385 0.519763 -0.0828164 0.996448 -0.015287
0.0313036 -0.0828329 0.271294 0.581239 -0.813484 -0.0201322
-0.332409 -0.097816 0.453887 0.0623796 0.998 -0.0102463
0.45896 -0.10429 0.549176 0.921754 0.381329 -0.0704063
-0.182684 -0.107201 0.451316 0.0623796 0.998 -0.0102463
0.114119 -0.11325 0.565616 0.0528159 -0.991119 -0.122038
0.0169787 -0.119107 0.243729 0.357525 -0.930011 -0.0851828
-0.00300936 0.0744042 0.0500513 0.993149 0.0229158 0.114588
-0.00660102 -0.0171123 0.387891 -0.296307 0.945655 -0.133934
-0.211189 -0.105202 0.47246 0.0623796 0.998 -0.0102463
-0.00139505 0.00655973 0.0496294 0.993148 0.0229188 0.114594
-0.0276883 -0.0402132 0.224983 -0.797237 0.555764 0.235667
0.225081 -0.104353 0.470574 0.0623796 -0.998 0.0102463
-0.252898 -0.102302 0.517143 0.061365 0.997996 0.0154283
-0.0222641 -0.0461593 0.187667 -0.965893 0.0454867 -0.254914
0.0404952 -0.0859007 0.531945 0.0188048 -0.00247569 0.99982
0.0280828 -0.132453 0.506667 0.298652 -0.952828 -0.0541002
0.0102278 -0.0132648 0.410248 0.188013 0.982121 0.00947994
0.0383145 -0.0546917 0.66934 0.982119 0.174436 -0.0708162
0.214808 -0.111653 0.378928 0.0591344 -0.994022 0.0917742
-0.0417013 -0.0745665 0.279926 -0.580977 -0.813118 -0.036122
0.031631 -0.12451 0.45071 0.758348 -0.648479 -0.0662011
0.0389182 -0.0778473 0.289687 0.581239 -0.813484 -0.0201322
-0.434708 -0.1018 0.444752 -0.0844597 -0.992206 -0.0916127
0.354092 -0.110032 0.506736 -0.0828164 0.996447 -0.0152967
-0.00192588 -0.0182107 0.717752 -0.315446 0.890861 0.326896
-0.431968 -0.0989183 0.411015 -0.0844597 -0.992206 -0.0916127
0.0286941 -0.0275844 0.160531 0.641536 0.722368 -0.258099
0.00322444 0.0448179 0.137708 -0.776873 -0.409731 -0.478109
0.265479 -0.117196 0.495754 -0.0818151 0.996595 0.0102317
-0.052298 -0.108302 0.533115 -0.758629 -0.64872 0.0603758
-0.0403154 -0.125212 0.815705 -0.920961 -0.349298 0.172691
0.0160938 -0.111522 0.653853 0.138997 -0.978313 0.153572
0.00763685 -0.113465 0.649127 0.138997 -0.978313 0.153572
-0.235198 -0.117713 0.433178 -0.0844499 -0.992211 -0.0915778
-0.0300853 -0.0867961 0.550893 -0.989242 -0.130236 -0.0666207
-0.0689961 -0.0832887 0.506277 -0.0311068 -0.996687 -0.0751432
0.00188083 0.120807 0.0309884 -0.993147 0.0229209 0.114604
-0.193303 -0.111585 0.393517 0.0591344 0.994022 -0.0917742
0.0898627 -0.0374254 0.479441 0.883819 0.23546 -0.404255
0.0487621 -0.0483892 0.227772 0.934487 0.350453 -0.0625847
0.000288463 -0.0369367 0.045129 0.29438 0.92418 -0.243374
-0.0734354 -0.0590227 0.531426 -0.0162364 0.00450704 0.999858
0.0517251 -0.0867936 0.447883 0.971136 -0.22252 -0.0858994
0.00945283 -0.0131796 0.422682 0.0496059 0.998546 -0.021085
-0.246783 -0.109077 0.386224 0.0591344 0.994022 -0.0917742
0.430515 -0.0996306 0.41739 -0.0844597 0.992206 0.0916127
0.0324934 -0.0727731 0.0689265 0.953889 0.272398 -0.126076
-0.041343 -0.0746727 0.276555 -0.580977 -0.813118 -0.036122
-0.0151412 -0.0328987 0.745028 -0.315446 0.890861 0.326896
-0.0328575 -0.100093 0.266161 -0.980829 -0.183224 -0.0663588
-0.0346648 -0.0851696 0.406792 -0.0496677 -0.998686 0.0126641
-0.0835601 -0.0420093 0.461773 -0.940526 0.250568 -0.229406
-0.0773601 -0.0610306 0.531357 -0.0178207 -0.00234612 0.999838
-0.0419761 -0.119542 0.705729 -0.682657 -0.728758 -0.0537613
-0.0309514 -0.0131162 0.531867 -0.0242292 0.0101407 0.999655
0.0434835 -0.0282927 0.290259 0.581112 0.813306 -0.0290397
-0.0499424 -0.100742 0.592433 -0.981691 -0.190031 -0.0130885
-0.038824 -0.0322936 0.55836 -0.263256 0.715398 0.647227
-0.0146656 -0.0421531 0.755804 -0.2422 0.684007 0.688094
0.0452807 -0.0825873 0.706111 0.889833 -0.449852 -0.0763613
0.024239 -0.0383697 0.118915 0.662469 0.706022 -0.250334
-0.010286 -0.0913381 0.168847 -0.229609 -0.964989 0.126791
-0.0593794 -0.0605575 0.089085 -0.0172784 -0.999733 -0.0153449
0.26913 -0.106097 0.563853 0.0197103 -0.918248 -0.395516
-0.0324133 -0.0752361 0.562862 -0.989242 -0.130236 -0.0666207
-0.0484614 -0.111243 0.545326 -0.804278 -0.581099 0.124341
-0.0545911 -0.0757803 0.578692 -0.981691 -0.190031 -0.0130885
0.146141 -0.109905 0.442106 0.0591303 -0.994026 0.0917346
0.0880613 -0.0753774 0.485611 0.387487 -0.897416 -0.210945
-0.0442788 -0.120062 0.397727 0.0591344 0.994022 -0.0917742
-0.107056 -0.123959 0.382686 -0.0844499 -0.992211 -0.0915778
0.0137434 -0.0674976 0.158818 0.957526 -0.045104 -0.284796
-0.0290668 -0.0858559 0.13036 -0.662541 -0.746177 0.0652596
-0.062343 -0.0831658 0.501946 -0.0307537 -0.996631 -0.0760337
0.182503 -0.11223 0.39349 0.0591344 -0.994022 0.0917742
-0.0339316 -0.0910091 0.616242 -0.989242 -0.130236 -0.0666207
0.00506089 -0.104896 0.714937 0.0880947 -0.995032 0.0463825
0.0121989 -0.0134419 0.389505 0.188013 0.982121 0.00947994
-0.223253 -0.118624 0.555971 -0.0902488 -0.988472 0.121568
0.0301975 -0.0172998 0.332269 0.581112 0.813306 -0.0290397
-0.0405141 -0.0766269 0.645036 -0.990901 0.111119 -0.0759489
0.0553514 -0.0796858 0.632914 0.981414 -0.189977 -0.0271324
0.0363748 -0.0689715 0.674782 0.338925 0.921029 0.191925
0.00835539 -0.0117309 0.243493 0.231469 0.972802 0.00889635
-0.00553813 -0.0112719 0.294765 -0.188014 0.982125 0.00898161
-0.0208896 -0.0862487 0.525623 -0.0311068 -0.996687 -0.0751432
0.00390723 -0.080679 0.0405122 -0.0660608 0.067661 -0.995519
-0.365972 -0.108919 0.493133 -0.0818151 -0.996595 -0.0102317
-0.0373757 -0.0806181 0.631237 -0.887408 -0.448626 -0.106032
-0.0117868 -0.0859288 0.436648 -0.0496677 -0.998686 0.0126641
0.047032 -0.0607928 0.233707 0.955233 -0.288215 -0.0668058
-0.0286637 -0.120716 0.384466 -0.787099 -0.613274 -0.0661115
0.0285485 -0.106722 0.635914 0.466263 -0.879875 0.0917592
0.308843 -0.105132 0.388961 0.0591344 -0.994022 0.0917742
-0.0339547 -0.0626323 0.761628 -0.717944 0.543352 0.435115
-0.0898145 -0.131602 0.532484 -0.0828164 -0.996448 0.015287
-0.237795 -0.103726 0.454283 0.0623796 0.998 -0.0102463
0.0356002 -0.0534974 0.631737 0.991793 0.111219 -0.0630613
-0.041836 -0.0167852 0.496259 -0.0306854 0.992994 0.114112
0.0368985 -0.0570854 0.643806 0.982119 0.174436 -0.0708162
-0.0250464 -0.0245408 0.680519 -0.833328 0.552482 0.018106
-0.164087 -0.051833 0.0295123 -0.00946888 0.990502 -0.137171
0.382922 -0.0976896 0.421849 0.0591303 -0.994026 0.0917346
-0.0212131 -0.102352 0.725274 -0.0881756 -0.995946 0.0177836
-0.0439181 -0.0812456 0.34948 -0.970967 -0.222482 -0.0878884
-0.0853128 -0.0556686 0.0324641 -0.00948797 -0.990506 -0.137143
-0.0323269 -0.1066 0.531496 -0.000821601 -0.0263248 -0.999653
0.121801 -0.0579505 0.112519 -0.0561338 0.981818 -0.181334
0.0393271 -0.109332 0.394943 0.786738 -0.612992 -0.0726893
0.123798 -0.128633 0.476845 -0.0818151 0.996595 0.0102317
0.0356013 -0.0156553 0.483448 0.0307747 0.995882 0.085272
0.325891 -0.101994 0.411962 0.0591303 -0.994026 0.0917346
-0.00761327 -0.028548 0.122363 0.999621 -0.0243795 0.0128171
0.41502 -0.104831 0.487134 -0.0818137 0.996595 0.0102217
0.024118 -0.0399503 0.571395 0.0735595 0.746288 0.661547
0.00990802 -0.123252 0.259309 0.357525 -0.930011 -0.0851828
-0.0261758 -0.0287224 0.554786 -0.921912 0.38585 -0.034614
0.0284534 -0.0845398 0.0556028 0.953294 -0.272226 -0.13086
0.300942 -0.114188 0.486315 -0.0818151 0.996595 0.0102317
0.0011887 0.0514942 0.0388531 -0.993148 0.0229199 0.114594
-0.0304645 -0.0185147 0.266989 -0.581307 0.81358 -0.0130242
0.185344 -0.119816 0.409987 -0.0844499 0.992211 0.0915778
0.160503 -0.111334 0.417367 0.0591344 -0.994022 0.0917742
0.235177 -0.104845 0.439548 0.0591303 -0.994026 0.0917346
0.00581957 -0.0970337 0.0523565 0.984397 -0.173051 -0.0318688
-0.0403072 -0.057236 0.6873 -0.982988 0.17459 -0.0570323
0.0109168 -0.0882501 0.403841 0.049625 -0.997827 0.043342
0.0523762 -0.0385587 0.334256 0.911726 0.341917 -0.227702
-0.0570899 -0.0551675 0.0268919 -0.00948797 -0.990506 -0.137143
0.0668533 -0.0459588 0.085896 -0.017263 -0.999732 0.0154158
-0.00653364 0.014189 0.119451 0.999621 -0.0243795 0.0128171
0.198979 -0.119585 0.420065 -0.0844499 0.992211 0.0915778
0.0915128 -0.0519288 0.477123 0.873508 -0.232714 -0.427584
-0.175493 -0.122207 0.42681 -0.0844499 -0.992211 -0.0915778
0.00138047 -0.0614811 0.0839498 -0.0172784 0.999733 0.0153449
0.256364 -0.117989 0.500133 -0.0818151 0.996595 0.0102317
-0.024993 -0.0850195 0.765766 -0.241948 -0.732492 0.63633
-0.0759382 -0.062294 0.434221 -0.945533 -0.251903 -0.206186
-0.130435 -0.0471826 0.077737 -0.0172704 0.999732 -0.0153914
-0.00245094 0.0853326 0.0430259 0.993149 0.0229158 0.114588
0.157548 -0.124839 0.438779 -0.0844499 0.992211 0.0915778
0.362477 -0.108921 0.528727 -0.0837864 0.99601 -0.0307152
-0.0777281 -0.0313489 0.449507 -0.940526 0.250568 -0.229406
-0.253672 -0.111555 0.3835 -0.0844597 -0.992206 -0.0916127
-0.0816849 -0.0572504 0.127542 -0.141058 -0.83156 0.537225
-0.0225227 -0.0867591 0.217918 -0.188014 -0.982144 -0.00668108
-0.0121547 -0.00323324 0.190323 -0.797237 0.555764 0.235667
-0.0194432 -0.114655 0.577243 -0.897363 -0.440926 0.0179673
0.0100444 -0.0117907 0.641414 0.373789 0.924605 0.0733908
0.0205881 -0.0817254 0.0391495 -0.0891293 0.0244592 -0.99572
-0.0992036 -0.112962 0.439242 0.0591303 0.994026 -0.0917346
-0.0507574 -0.0959996 0.584709 -0.981691 -0.190031 -0.0130885
0.0406093 -0.0816573 0.354734 0.57495 -0.804681 -0.148055
-0.0685205 -0.0496161 0.0389217 -0.00947544 0.990506 -0.137145
-0.0176394 -0.087306 0.360337 -0.187847 -0.981273 0.0426229
-0.0112302 -0.0644024 0.051395 -0.99488 0.093839 -0.0375272
0.0915239 -0.11273 0.467797 0.0623796 -0.998 0.0102463
0.0755493 -0.0404068 0.428181 0.943843 0.251451 -0.214318
0.0147634 -0.139594 0.809546 0.186025 -0.982514 0.00776802
-0.204384 -0.121946 0.469873 -0.0818151 -0.996595 -0.0102317
0.105415 -0.0469779 0.0629868 -0.017263 -0.999732 0.0154158
0.0227295 -0.0136597 0.431181 0.0496059 0.998546 -0.021085
-0.0133786 -0.119461 0.575928 -0.139673 -0.983068 0.118615
0.0633221 -0.0584029 0.375551 0.917687 -0.344205 -0.198428
0.123247 -0.117437 0.375278 0.0591344 -0.994022 0.0917742
-0.013283 -0.123622 0.926064 -0.889069 0.303798 0.342436
0.0378463 -0.0738793 0.190905 0.663401 -0.747146 -0.0408901
-0.0606684 -0.0261181 0.392636 -0.57244 0.801169 -0.174476
0.0101013 -0.00502537 0.563632 0.537162 0.839243 0.0844332
-0.081603 -0.0463501 0.0770327 -0.017263 0.999732 -0.0154158
0.168555 -0.11184 0.406706 0.0591344 -0.994022 0.0917742
-0.0294488 -0.0331236 0.709071 -0.824623 0.546711 0.145274
0.0711004 -0.0829613 0.50282 0.0307557 -0.996696 -0.0751725
-0.018597 -0.077281 0.78015 -0.00480732 -0.966891 0.255145
-0.029877 -0.0492433 0.546319 -0.990901 0.111119 -0.0759489
0.115604 -0.112966 0.428622 0.0591344 -0.994022 0.0917742
0.000724435 0.110337 0.0230613 -0.993147 0.0229209 0.114604
0.369349 -0.0951798 0.519561 0.061353 -0.997995 -0.0155457
-0.0214666 -0.0851826 0.457532 -0.0496677 -0.998686 0.0126641
-0.0311416 -0.112308 0.335972 -0.787099 -0.613274 -0.0661115
-0.0742012 -0.01849 0.498035 -0.314548 0.948263 -0.0430911
0.0184908 -0.100319 0.0788413 0.683039 -0.72792 0.0599232
0.0938714 -0.0249313 0.502256 0.311557 0.939246 0.144045
-0.0384538 -0.0130073 0.529259 -0.75447 0.645157 -0.120613
0.0620247 -0.0500176 0.357343 0.943843 0.251451 -0.214318
0.0479378 -0.0662612 0.27835 0.934823 -0.350633 -0.0562393
-0.00534655 -0.0105363 0.182833 -0.221542 0.931081 -0.28984
0.0236118 -0.0242745 0.611741 0.922463 0.386081 -0.00170419
-0.0484466 -0.0867197 0.413366 -0.970967 -0.222482 -0.0878884
0.018983 -0.0204789 0.161461 0.221417 0.930556 -0.291615
-0.0248228 -0.0598601 0.1322 -0.0561122 -0.981837 0.181238
-0.0666277 -0.0459085 0.107027 -0.0234801 0.999457 0.023113
0.00621967 0.0152831 0.0970432 -0.999621 -0.024379 0.0128171
0.169981 -0.122094 0.56731 -0.0902434 0.988483 -0.121481
0.051874 -0.0838003 0.459392 0.049625 -0.997827 0.043342
-0.424194 -0.102065 0.437933 -0.0844597 -0.992206 -0.0916127
0.0518713 -0.123467 0.355954 0.0591344 -0.994022 0.0917742
-0.0886413 -0.131197 0.553323 -0.08379 -0.996007 0.0307963
0.0060553 0.0281431 0.127602 -0.998781 -0.0454775 -0.0191985
-0.120083 -0.0468875 0.0950562 -0.0234801 0.999457 0.023113
-0.000448618 -0.0112559 0.402655 -0.0496146 0.998722 0.00964018
-0.0563342 -0.0525132 0.50155 -0.969393 0.22212 -0.104595
0.100222 -0.0401955 0.500069 0.878454 0.246346 -0.409429
-0.108869 -0.128325 0.431665 -0.0844499 -0.992211 -0.0915778
-0.440098 -0.102789 0.488742 -0.0818137 -0.996595 -0.0102217
0.0351163 -0.0498912 0.630486 0.991793 0.111219 -0.0630613
-0.0558222 -0.0791838 0.421352 -0.394059 -0.912637 -0.108676
0.0134032 -0.135111 0.472435 0.298652 -0.952828 -0.0541002
-0.00772881 -0.0110411 0.217792 -0.231478 0.97284 0.000332086
0.0592175 -0.0607966 0.511061 0.969188 0.222073 -0.106576
0.0654947 -0.0228881 0.431491 0.392675 0.909112 -0.139001
-0.0344855 -0.0810967 0.123574 -0.960405 -0.274257 -0.0490442
-0.0329489 -0.0173186 0.544197 -0.263256 0.715398 0.647227
0.162472 -0.111933 0.409618 0.0591344 -0.994022 0.0917742
-0.00986468 -0.0231941 0.35245 -0.322123 0.936824 -0.136375
0.0601891 -0.0174129 0.495102 0.0307747 0.995882 0.085272
-0.0250809 -0.0450144 0.110572 -0.0234801 0.999457 0.023113
-0.0369924 -0.0267472 0.186413 -0.663642 0.747259 -0.0343899
-0.0780726 -0.0626027 0.444386 -0.945533 -0.251903 -0.206186
0.0860432 -0.0462539 0.0882495 -0.0172704 -0.999732 0.0153914
0.0331649 -0.0508022 0.593258 0.338925 0.921029 0.191925
-0.0348138 -0.0206232 0.329402 -0.581307 0.81358 -0.0130242
0.0445579 -0.114746 0.503149 0.758348 -0.648479 -0.0662011
-0.0680218 -0.114302 0.457714 0.0623796 0.998 -0.0102463
0.40976 -0.0996787 0.398777 -0.0844597 0.992206 0.0916127
-0.0991203 -0.112408 0.452893 0.0623796 0.998 -0.0102463
-0.0118463 -0.0378225 0.100415 -0.233242 0.927712 -0.291459
0.00721463 -0.019975 0.107578 -0.999621 -0.024379 0.0128171
-0.0492152 -0.0368823 0.292883 -0.934997 0.350644 -0.0531927
0.00546249 -0.0908154 0.320326 0.188018 -0.982165 0.000398711
0.0142541 -0.0972408 0.531292 0.000995971 -0.0319117 -0.99949
-0.00793612 -0.025164 0.0931713 -0.979164 0.172126 -0.107754
0.134562 -0.126002 0.430185 -0.0844499 0.992211 0.0915778
-0.00575524 0.0388035 0.105562 0.999621 -0.0243795 0.0128171
-0.0367924 -0.0675373 0.290981 -0.973362 0.203199 -0.106193
-0.0171983 -0.12029 0.551068 -0.897363 -0.440926 0.0179673
0.042483 -0.0185171 0.510177 0.0306367 0.991416 0.127108
-0.249101 -0.118487 0.524382 -0.0828164 -0.996448 0.015287
0.0816537 -0.0809791 0.51368 0.31753 -0.947036 -0.0479425
-0.386626 -0.0964553 0.432836 0.0591303 0.994026 -0.0917346
-0.295066 -0.100724 0.445599 0.0591303 0.994026 -0.0917346
-0.292803 -0.111309 0.41691 -0.0844499 -0.992211 -0.0915778
0.0425475 -0.121058 0.693682 0.809823 -0.585106 -0.042861
-0.109125 -0.111549 0.475649 0.0623796 0.998 -0.0102463
-0.211775 -0.111747 0.379867 0.0591344 0.994022 -0.0917742
-0.0422405 -0.111482 0.831596 -0.929928 -0.317759 0.185103
0.199348 -0.106578 0.443865 0.0591303 -0.994026 0.0917346
-0.0437586 -0.0140997 0.424106 -0.187764 0.98082 -0.0523134
0.0741302 -0.0551247 0.0277622 -0.00948797 0.990506 0.137143
-0.0717867 -0.0597661 0.118166 -0.0560218 -0.981933 0.180744
-0.0571664 -0.0630055 0.573049 -0.96899 0.222027 0.108451
-0.248976 -0.106395 0.413862 0.0591344 0.994022 -0.0917742
-0.0166058 -0.0608159 0.773673 -0.2422 0.684007 0.688094
-0.284179 -0.10076 0.460775 0.0623796 0.998 -0.0102463
-0.0332915 -0.12571 0.484481 -0.758126 -0.64829 -0.0704584
0.384196 -0.106518 0.449289 -0.0844499 0.992211 0.0915778
0.00565189 -0.102973 0.0923083 0.601782 -0.790666 -0.112721
-0.0210091 -0.116161 0.531738 -0.000821601 -0.0263248 -0.999653
-0.00185926 -0.00185541 0.588916 -0.37318 0.923099 0.0928696
-0.284645 -0.100491 0.484129 0.0623863 0.997999 -0.0102912
0.0314959 -0.0541983 0.532126 0.0168418 0.00188863 0.999856
0.000200724 0.0368906 0.149416 -0.776906 -0.409706 -0.478077
0.115416 -0.129179 0.462976 -0.0818151 0.996595 0.0102317
-0.01655 -0.0845593 0.493815 -0.030843 -0.999524 -0.00020006
-0.00430887 -0.047751 0.763722 -0.0824735 0.655689 0.750514
-0.0504298 -0.048274 0.250501 -0.955378 0.288304 -0.0642904
-0.0703628 -0.0621802 0.408514 -0.945533 -0.251903 -0.206186
0.0152284 -0.0283526 0.133485 0.221417 0.930556 -0.291615
0.0909957 -0.0777449 0.510962 0.314631 -0.948107 -0.0458385
-0.0443678 -0.135152 0.476679 -0.0818151 -0.996595 -0.0102317
-0.0381674 -0.0141492 0.403109 -0.187764 0.98082 -0.0523134
0.42403 -0.0924812 0.531057 0.0528413 -0.99115 -0.12178
-0.202756 -0.105636 0.481539 0.0623796 0.998 -0.0102463
-0.0181657 -0.040065 0.173226 -0.965893 0.0454867 -0.254914
0.34853 -0.100294 0.415794 0.0591303 -0.994026 0.0917346
0.00276817 0.0920648 0.0444274 -0.993148 0.0229199 0.114594
0.0323476 -0.0364463 0.371027 0.783355 0.61035 -0.117593
-0.373641 -0.108301 0.513692 -0.0828164 -0.996447 0.0152967
-0.0397498 -0.0749668 0.25755 -0.580977 -0.813118 -0.036122
-0.0304401 -0.079898 0.757183 -0.552716 0.78229 -0.287276
-0.0435993 -0.0761691 0.337566 -0.577705 -0.808537 -0.111916
-0.0602912 -0.0805821 0.449298 -0.394059 -0.912637 -0.108676
0.196358 -0.122496 0.459298 -0.0818137 0.996595 0.0102217
0.044045 -0.117086 0.667749 0.809823 -0.585106 -0.042861
0.0403757 -0.0720496 0.655169 0.982119 0.174436 -0.0708162
0.181772 -0.123779 0.467575 -0.0818151 0.996595 0.0102317
-0.279062 -0.11613 0.500489 -0.0818151 -0.996595 -0.0102317
0.0337836 -0.0634748 0.584868 0.982119 0.174436 -0.0708162
-0.415449 -0.0922917 0.516094 0.061353 0.997995 0.0155457
-0.0366747 -0.0146607 0.477418 -0.0494691 0.995794 0.0771178
0.440311 -0.0987047 0.416394 -0.0844597 0.992206 0.0916127
0.011842 -0.0398084 0.0942766 0.233423 0.928431 -0.289015
-0.00821914 -0.085786 0.461901 -0.0496677 -0.998686 0.0126641
0.00151761 -0.142245 0.618325 0.24351 -0.969898 0
-0.107134 -0.122892 0.585208 -0.112383 -0.912608 0.393086
0.0412689 -0.0836033 0.370142 0.395492 -0.915955 -0.0679239
-0.070842 -0.0776848 0.463225 -0.394059 -0.912637 -0.108676
-0.0351799 -0.124214 0.654262 -0.810517 -0.585607 -0.0112095
