-0.00698543 -0.0546508 0.170005 0.290065 0.920398 0.262162
-0.0455557 -0.0817964 0.523579 0.975168 0.221468 0
-0.0790982 -0.0242034 0.266979 0.53494 -0.832327 0.145155
4.90152e-06 -0.0051619 0.173545 -1 0 0
0.00986868 -0.107519 0.546718 -0.320365 0.947294 0
0.0483874 -0.0963348 0.531908 -0.0737352 0.997278 0.000301959
0.299106 -0.078024 0.467199 -0.0661387 0.997694 0.0152261
0.0254295 -0.0407779 0.21438 -0.92274 -0.368516 0.112897
0.094623 0.0998683 0.0673836 0 -1 0
0.091019 -0.0931763 0.552277 0.0739918 -0.997259 -0.000303005
-0.0277209 -0.0132276 0.551395 0.371347 -0.928494 0
-0.00966294 -0.00674053 0.369801 0.377567 -0.925278 0.0361031
-0.0504562 -0.0629086 0.490124 0.959341 0.282211 0.00472334
0.031398 -0.100366 0.598737 -0.311785 0.950151 0.00160251
0.041763 -0.0324258 0.41961 -0.928407 -0.368184 0.0500028
0.0249228 -0.0277152 0.249281 -0.923903 -0.361988 0.123969
-0.068366 -0.0633034 0.374182 -0.220335 0.975424 0
-0.386375 -0.071344 0.381953 -0.0732056 -0.997312 -0.00309737
0.357341 -0.0738186 0.444602 0.0661386 -0.997694 -0.0152261
-0.0952251 -0.0484413 0.315554 0.920499 0.368272 0.130606
-0.0299334 -0.0291915 0.283322 0.923144 -0.36188 0.1298
-0.131734 -0.0901215 0.441521 0.0739947 0.997259 0.000303016
0.00482849 -0.00685556 0.324774 -0.377669 -0.925029 0.0410857
0.0500862 -0.0510903 0.658681 -0.927549 -0.373603 -0.00858269
4.90152e-06 0.0489682 0.173215 1 0 0
-0.0427342 -0.0354104 0.716582 0.934216 -0.354665 -0.0381111
4.90152e-06 0.0135455 0.256549 -1 0 0
0.0656822 -0.0622398 0.430973 0.25234 0.967639 0
-0.0605255 -0.0587003 0.394067 -0.92619 0.370278 -0.0711725
-0.0552728 -0.095811 0.494935 0.0739947 0.997259 0.000303016
0.094047 -0.0929317 0.441882 -0.0737352 0.997278 0.000301959
-0.0798637 -0.0639436 0.357304 0.219196 0.970379 0.101574
0.000137575 -0.0298754 0.787931 -0.342266 -0.834728 -0.431374
-0.0418817 -0.0294825 0.593433 0.92833 -0.37157 -0.0117529
-0.015714 0.0998683 0.054085 0 -1 0
-0.0401225 -0.0567718 0.305774 0.967639 0.23477 0.0925117
0.0456107 -0.0831448 0.657434 -0.972615 0.232407 0.00257277
-0.126081 -0.0905762 0.484949 -0.0737352 -0.997278 -0.000301959
-0.0612433 -0.0170515 0.393057 -0.543264 -0.839552 0.00397093
-0.0140305 -0.0948826 0.388479 0.311171 0.939933 0.140351
4.90152e-06 -0.00740869 0.108894 1 0 0
4.90152e-06 0.0816237 0.158064 -1 0 0
-0.0762938 -0.00737191 0.414463 -0.532879 -0.846191 0
-0.00337982 -0.00349249 0.572423 0.371347 -0.928494 0
0.0702622 -0.0589771 0.325944 0.219303 0.970355 0.101572
4.90152e-06 0.106347 0.0855894 -1 0 0
0.150947 -0.0888505 0.53304 -0.0661387 0.997694 0.0152261
0.107052 0.0998683 0.0326915 0 -1 0
-0.0873509 -0.0934278 0.425291 -0.0732056 -0.997312 -0.00309737
-0.0439692 -0.0632731 0.362506 0.960318 0.261526 0.0969223
0.012218 -0.0741546 0.255319 -0.288909 0.936632 0.198123
-0.0603474 -0.0954491 0.54306 0.0739947 0.997259 0.000303016
-0.012136 0.0998683 0.0799764 0 1 0
0.0147429 -0.00784468 0.458157 -0.361041 -0.93255 0
0.0158982 -0.00890925 0.380291 -0.377669 -0.925029 0.0410857
0.10686 -0.0919845 0.497947 0.0739918 -0.997259 -0.000303005
-0.36677 -0.0730136 0.417641 -0.0708015 -0.997457 -0.00811529
0.0131409 -0.106239 0.787647 -0.315966 0.9487 0.0115448
0.0573599 -0.0482227 0.416564 0.909127 0.410724 -0.0692346
-0.151062 -0.0887345 0.502511 -0.0737352 -0.997278 -0.000301959
0.0880497 -0.0628788 0.364896 -0.219161 0.970224 0.103124
-0.173332 -0.0871277 0.428881 0.0732056 0.997312 0.00309739
0.0297225 -0.0139391 0.642012 -0.372168 -0.928165 0.000595059
0.254921 -0.0810267 0.46753 -0.0764821 0.99706 -0.00467137
0.2204 -0.083588 0.441261 0.0733477 -0.99728 0.00719501
0.158084 -0.0882104 0.417076 0.0732024 -0.997312 -0.00311752
0.0370069 -0.0717676 0.843136 -0.868857 -0.361441 -0.338302
0.0261399 -0.0151617 0.73193 -0.364525 -0.924301 -0.113088
0.0445594 -0.077783 0.794159 -0.960457 0.268936 -0.0720818
-0.341267 -0.0747113 0.400078 0.0732056 0.997312 0.00309739
0.0857534 -0.0640843 0.387645 -0.220335 0.975424 0
-0.0996933 -0.05667 0.410372 0.928445 0.371451 -0.0037433
0.0558118 0.0998683 0.0901826 0 1 0
0.0351353 -0.0989219 0.824553 -0.326245 0.945178 -0.0142015
0.00561924 -0.00436472 0.607949 -0.368562 -0.929603 0
-0.0667687 -0.0332203 0.288744 -0.965449 -0.219613 0.140279
0.013971 -0.10605 0.836315 -0.326245 0.945178 -0.0142015
-0.0097246 -0.107552 0.81169 0.316308 0.948567 -0.0130143
-0.0886726 -0.0933298 0.485134 0.0739947 0.997259 0.000303016
0.056271 -0.0383966 0.35289 0.965506 -0.219298 0.140377
0.106742 -0.0920195 0.529306 -0.0737352 0.997278 0.000301959
0.0123093 -0.0928044 0.895258 -0.314937 0.885124 -0.342593
0.0750256 -0.0548326 0.276495 0.240592 0.964924 0.10506
-0.043325 -0.0497467 0.763642 0.914752 -0.370149 -0.16192
-0.11498 0.0998683 0.0442812 0 -1 0
0.0204493 -0.103941 0.583741 -0.320365 0.947294 0
0.0313315 -0.0512192 0.250907 -0.942802 0.281641 0.178335
-0.0620148 -0.0353534 0.31812 -0.965513 -0.219301 0.14033
-0.010064 -0.00613648 0.699792 0.368483 -0.929634 0.000622619
-0.0426433 -0.089307 0.780486 0.965198 0.252201 -0.0691958
-0.0349692 -0.0990793 0.521433 0.320245 0.947335 0.000798561
0.045032 -0.084494 0.560539 -0.972615 0.232407 0.00257277
0.0997353 -0.0363918 0.345939 -0.962396 -0.236822 0.133075
0.0373797 -0.0269836 0.382944 -0.92271 -0.379967 0.0650445
-0.0125489 -0.0388471 0.14485 0.936784 0.279843 0.210054
0.0240188 -0.0141926 0.33122 -0.365003 -0.930332 0.0354324
0.0139888 -0.0827169 0.298379 -0.288909 0.936632 0.198123
0.0445341 -0.0877282 0.756507 -0.954463 0.290722 -0.066938
-0.011998 -0.0159733 0.238952 0.36481 -0.927845 0.0775716
0.284359 -0.0789627 0.423734 -0.0732024 0.997312 0.00311752
-0.0377059 -0.0826274 0.353666 0.295336 0.948178 0.117196
-0.018746 -0.0299059 0.195137 0.922416 -0.369758 0.111483
-0.00318211 -0.00343699 0.421565 0.377245 -0.926114 0
-0.0516568 -0.0961007 0.557178 -0.0737352 -0.997278 -0.000301959
0.032868 -0.0887066 0.388918 -0.31135 0.940156 0.138451
0.147801 -0.0889625 0.458997 -0.0737352 0.997278 0.000301959
-0.295495 -0.0780458 0.391889 0.0732056 0.997312 0.00309739
0.0508048 0.0998683 0.0430187 0 -1 0
4.90152e-06 0.0626217 0.0850721 -1 0 0
-0.206857 -0.0846021 0.478912 -0.0737352 -0.997278 -0.000301959
0.087445 -0.0637022 0.415379 -0.220335 0.975424 0
0.0234621 0.0998683 0.0504606 0 -1 0
0.00392823 -0.00370495 0.472643 -0.372168 -0.928165 0.000595059
0.0576679 -0.0258286 0.362916 0.965506 -0.219298 0.140377
0.128454 -0.0903882 0.443561 -0.0737352 0.997278 0.000301959
0.0472306 -0.044637 0.685922 -0.932599 -0.360914 0
0.0421638 -0.0291662 0.491135 -0.937586 -0.347614 -0.00984566
0.0424675 -0.0955708 0.693507 -0.967982 0.25102 0
-0.0481976 -0.0468945 0.67638 0.926357 -0.376545 -0.00877893
-0.133887 -0.0901101 0.54147 -0.0661387 -0.997694 -0.0152261
0.131188 0.0998683 0.0344725 0 -1 0
0.0412315 -0.0262572 0.455163 -0.928407 -0.368184 0.0500028
0.0509795 -0.0620624 0.584262 -0.970137 0.242544 0.00239765
0.173461 -0.0870855 0.435228 0.073321 -0.997279 0.00770985
-0.0130229 -0.0601788 0.859498 0.368248 -0.874617 -0.315338
0.0281829 -0.101044 0.772419 -0.315966 0.9487 0.0115448
0.0426233 -0.071516 0.369953 -0.962206 0.256968 0.0901503
-0.279192 -0.0793279 0.419403 0.0732056 0.997312 0.00309739
-0.0568152 -0.0445521 0.431022 -0.909929 0.411086 -0.055108
-0.155445 -0.0884004 0.469488 -0.0737352 -0.997278 -0.000301959
-0.081189 -0.0938749 0.451386 0.0739947 0.997259 0.000303016
4.90152e-06 0.0177113 0.147678 -1 0 0
-0.0285554 -0.0133875 0.440431 0.361065 -0.932504 0.00831576
0.239603 -0.0822546 0.425923 -0.0732024 0.997312 0.00311752
4.90152e-06 0.00842043 0.308712 -1 0 0
-0.0238958 -0.102892 0.702076 0.316092 0.948729 0
-0.0431654 -0.0854792 0.437383 0.968819 0.24328 0.0469457
0.0474574 -0.0737347 0.505507 -0.972615 0.232407 0.00257277
-0.0376811 -0.0975925 0.740001 0.332029 0.943215 0.0101415
4.90152e-06 0.0871102 0.0724037 1 0 0
0.0194383 -0.0284748 0.769907 -0.342266 -0.834728 -0.431374
-0.0810178 -0.0939148 0.50745 -0.0737352 -0.997278 -0.000301959
-0.0519883 -0.096046 0.457415 -0.0737352 -0.997278 -0.000301959
0.0483242 -0.0626569 0.420669 -0.963204 0.264099 0.0499065
-0.0450194 -0.0391452 0.689938 0.922828 -0.38455 -0.0225617
-0.0805109 0.0998683 0.0353424 0 -1 0
-0.0705147 -0.0497963 0.442815 0 0 -1
-0.264008 -0.0803119 0.45759 0.0739947 0.997259 0.000303016
-0.00104325 -0.0462552 0.833773 0.36143 -0.905678 -0.221619
0.0625353 -0.0379637 0.310481 0.965506 -0.219298 0.140377
-0.0792612 -0.0655508 0.394289 0.220335 0.975424 0
0.0079157 -0.0913165 0.345581 -0.29478 0.947179 0.126322
0.0390118 -0.0549597 0.802083 -0.915567 -0.370479 -0.156465
0.0688501 -0.0262895 0.442815 0 0 -1
-0.036496 0.0998683 0.0832701 0 1 0
-0.131236 -0.0901655 0.464681 0.0739947 0.997259 0.000303016
-0.306512 -0.0774902 0.432557 0.0673431 0.997646 -0.012973
-0.0929465 -0.0202952 0.341688 0.546052 -0.825508 0.142704
0.0134486 -0.106375 0.723173 -0.316158 0.948707 0
-0.00109041 -0.11049 0.634804 0.316092 0.948729 0
-0.00871704 -0.0262389 0.124724 0.941195 -0.314283 0.124008
-0.0483644 -0.0513386 0.405474 0.937138 -0.345512 0.0489184
0.0109245 -0.0159709 0.232562 -0.376261 -0.92315 0.0788743
0.0366609 -0.0625907 0.830045 -0.922787 -0.34347 -0.174621
-0.148874 0.0998683 0.0288282 0 1 0
-0.0509077 -0.062353 0.559726 0.970136 0.242544 0.0030073
-0.224245 -0.083308 0.450903 -0.0737352 -0.997278 -0.000301959
0.0889436 -0.056948 0.310997 -0.219161 0.970224 0.103124
0.0403423 -0.0352937 0.747037 -0.914603 -0.366151 -0.171564
0.195228 -0.085426 0.491522 0.0739918 -0.997259 -0.000303005
0.0803791 -0.00686172 0.40487 -0.554703 -0.832049 0
-0.017203 -0.0089793 0.680235 0.368483 -0.929634 0.000622619
0.0601451 -0.0186456 0.404681 0.972487 -0.225926 -0.0568004
-0.200669 -0.0851186 0.428064 -0.0732056 -0.997312 -0.00309737
0.00125325 -0.110439 0.828406 -0.316151 0.948709 0
0.00331356 -0.00345058 0.588618 -0.368562 -0.929603 0
0.0485728 -0.0692141 0.48238 -0.959339 0.28221 0.00517167
0.0114182 -0.0223965 0.160998 -0.908414 -0.404187 0.106849
-0.07419 0.0998683 0.0540627 0 1 0
-0.0490595 -0.0749475 0.73054 0.965125 0.258743 0.0398227
4.90152e-06 0.0798186 0.130766 -1 0 0
0.0475857 -0.0748309 0.614164 -0.955815 0.293923 0.0052785
0.0440914 -0.0966285 0.452647 -0.0737352 0.997278 0.000301959
0.0675612 -0.0948988 0.493373 0.0739918 -0.997259 -0.000303005
-0.0308757 -0.0556754 0.822564 0.376311 -0.893767 -0.244069
-0.047026 -0.0774939 0.664863 0.959341 0.282211 0.00472334
-0.0429724 -0.0931713 0.644301 0.975168 0.221468 0
4.90152e-06 0.0134153 0.179867 1 0 0
0.22667 -0.0831327 0.480568 -0.0764821 0.99706 -0.00467137
-0.0789558 -0.0620888 0.337624 0.219196 0.970379 0.101574
-0.0990789 -0.0197731 0.409751 0.970114 -0.242649 0
4.90152e-06 0.0166446 0.119158 -1 0 0
0.0497068 -0.0662237 0.529552 -0.959339 0.28221 0.00517167
0.0424891 -0.0510283 0.772426 -0.915567 -0.370479 -0.156465
0.0426553 -0.0330326 0.670705 -0.928394 -0.371596 0
4.90152e-06 0.040918 0.213755 -1 0 0
4.90152e-06 0.103034 0.0424867 -1 0 0
0.0936355 -0.0929656 0.424985 0.0732024 -0.997312 -0.00311752
0.0385512 -0.0680842 0.31831 -0.966697 0.238474 0.0928863
0.0421108 -0.0867161 0.424881 -0.96863 0.243315 0.0505316
-0.039732 -0.0715038 0.834068 0.910112 -0.37982 -0.16563
0.0684496 -0.0165795 0.348122 0.534287 -0.832191 0.148306
-0.238718 -0.0823221 0.426921 -0.0732056 -0.997312 -0.00309737
4.90152e-06 -0.00332254 0.272486 1 0 0
-0.0283633 -0.10127 0.471067 0.320245 0.947335 0.000798561
-0.108745 -0.091855 0.532909 0.0739947 0.997259 0.000303016
-0.0418773 -0.0430588 0.272048 0 1 0
0.00473449 -0.011936 0.251412 -0.364942 -0.927989 0.0751858
-0.00229761 -0.110088 0.526157 0.316092 0.948729 0
-0.044709 -0.0440566 0.383788 0.946346 -0.315445 0.0701665
-0.326406 -0.0760298 0.440185 0.0722465 0.997358 -0.00759041
0.0455974 -0.0382729 0.530364 -0.923059 -0.384659 5.01556e-05
-0.101023 -0.0295607 0.367368 0.962829 -0.236519 0.130458
0.241525 -0.0820308 0.399458 -0.0732024 0.997312 0.00311752
-0.0175903 -0.0799157 0.897004 0.786456 -0.357161 -0.503907
-0.0186332 -0.0158099 0.272112 0.36481 -0.927845 0.0775716
-0.105598 -0.0920762 0.43713 -0.0737352 -0.997278 -0.000301959
-0.167969 -0.0874728 0.515261 -0.0765141 -0.997057 0.00472924
0.320794 -0.0764256 0.441627 -0.0722594 0.997356 -0.00765409
0.0438676 -0.0881238 0.494318 -0.970103 0.242641 0.00498612
4.90152e-06 0.00149223 0.356229 1 0 0
-0.0106031 -0.0994202 0.411343 0.308066 0.941214 0.138607
-0.0328394 -0.0209391 0.351275 0.923022 -0.379977 0.0603977
-0.0518243 -0.0597555 0.639975 0.961597 0.274434 0.00405286
0.204134 -0.0848494 0.423169 -0.0732024 0.997312 0.00311752
0.323577 -0.0760556 0.414612 -0.0732024 0.997312 0.00311752
-0.0877238 0.0998683 0.0240445 0 -1 0
0.0553844 -0.0430588 0.270501 0 -1 0
0.131017 -0.0902156 0.499116 -0.0737352 0.997278 0.000301959
0.00114359 -0.11047 0.491623 -0.320365 0.947294 0
0.054848 -0.043776 0.404939 0.926912 0.371057 -0.0561365
-0.100432 -0.0550671 0.386239 0.928445 0.371451 -0.0037433
-0.0112842 -0.00665382 0.643573 0.371347 -0.928494 0
-0.290708 -0.0783378 0.452142 0.0733434 0.99728 -0.00727881
0.267295 -0.0800691 0.458748 0.0739918 -0.997259 -0.000303005
-0.0398699 -0.024047 0.506448 0.91521 -0.402961 -0.00358888
-0.0332824 -0.099704 0.586046 0.320245 0.947335 0.000798561
0.0462146 -0.0483151 0.384946 -0.946354 -0.315447 0.070054
-0.0116329 -0.00667288 0.458618 0.361065 -0.932504 0.00831576
4.90152e-06 0.0214993 0.204045 1 0 0
0.0159297 -0.0783178 0.280413 -0.288909 0.936632 0.198123
-0.048282 -0.0721827 0.602649 0.959341 0.282211 0.00472334
-0.00943969 0.0998683 0.118522 0 -1 0
-0.26222 -0.0805541 0.435976 0.073321 0.997279 -0.00770985
0.0319773 -0.0145171 0.454237 -0.361041 -0.93255 0
0.0499932 -0.0430588 0.331439 0 -1 0
-0.0403563 -0.0256372 0.568483 0.920703 -0.390264 -0.000644548
-0.0405976 -0.0538316 0.789351 0.926365 -0.345295 -0.150396
0.0361394 -0.0371229 0.306026 -0.921104 -0.383899 0.0647267
0.0114739 -0.00668591 0.647866 -0.368562 -0.929603 0
0.0341041 -0.099323 0.505454 -0.320365 0.947294 0
-0.0373208 -0.0915791 0.837182 0.914548 0.263293 -0.307048
-0.0157213 -0.105615 0.620785 0.316092 0.948729 0
-0.0632288 -0.0536618 0.326872 -0.928076 0.348611 0.130939
0.0324725 -0.0178811 0.365576 -0.930072 -0.362352 0.0605551
0.0278631 -0.0645819 0.854103 -0.367612 -0.873106 -0.320231
-0.0435089 -0.0913226 0.692537 0.968115 0.250485 0.00332674
-0.00751197 -0.108351 0.603928 0.316092 0.948729 0
0.0102875 -0.0102091 0.299681 -0.364942 -0.927989 0.0751858
4.90152e-06 0.0534752 0.0673448 1 0 0
0.104685 -0.0440557 0.390127 -0.936139 0.35163 0
0.0764531 -0.0230298 0.281839 0.563556 -0.813795 0.141923
4.90152e-06 0.0571747 0.12192 1 0 0
0.0688797 0.0998683 0.0610064 0 -1 0
-0.00758529 -0.0178643 0.190815 0.376415 -0.924077 0.0662884
0.0176177 -0.0979546 0.417421 -0.31135 0.940156 0.138451
-0.0446917 -0.0856008 0.564936 0.975168 0.221468 0
-0.0331686 -0.098081 0.452403 0.308066 0.941214 0.138607
-0.0371372 -0.0220392 0.724503 0.925664 -0.375264 -0.0481919
-0.108652 -0.091845 0.476955 0.0739947 0.997259 0.000303016
0.0295597 -0.0618064 0.257012 -0.954524 0.232037 0.187196
-0.0867338 -0.0416245 0.266302 0 0 1
0.00396403 -0.0964992 0.375221 -0.29478 0.947179 0.126322
-0.0816214 -0.0157066 0.324999 0.53494 -0.832327 0.145155
0.073131 -0.0945006 0.542787 0.0739918 -0.997259 -0.000303005
-0.172967 -0.0871088 0.482326 -0.0737352 -0.997278 -0.000301959
0.013707 -0.102096 0.436751 -0.31135 0.940156 0.138451
0.104353 -0.0921595 0.461776 0.0739918 -0.997259 -0.000303005
-0.0401946 -0.025372 0.611198 0.928394 -0.371596 0
0.0312248 -0.0145737 0.591872 -0.372168 -0.928165 0.000595059
4.90152e-06 -0.00886932 0.210734 -1 0 0
0.266136 -0.0802992 0.430235 0.0733431 -0.997301 0.00352211
4.90152e-06 0.0483538 0.193908 -1 0 0
0.362312 -0.0733696 0.422473 -0.0708088 0.997457 0.00811299
-0.00950171 -0.0136585 0.254901 0.36481 -0.927845 0.0775716
0.0446669 -0.0857987 0.540359 -0.972615 0.232407 0.00257277
4.90152e-06 0.0175554 0.0813202 -1 0 0
0.164446 -0.0877356 0.471524 -0.0737352 0.997278 0.000301959
0.135351 -0.0898604 0.464396 0.0739918 -0.997259 -0.000303005
-0.100601 -0.0924698 0.516968 -0.0737352 -0.997278 -0.000301959
0.0985984 -0.019654 0.36749 -0.978444 -0.164366 0.125021
-0.0828067 -0.0240603 0.281467 0.53494 -0.832327 0.145155
0.0407238 -0.0972854 0.613867 -0.316158 0.948707 0
0.0500837 -0.052467 0.709793 -0.922037 -0.38422 -0.0471509
4.90152e-06 0.0464626 0.151467 -1 0 0
0.0514341 -0.0588038 0.460578 -0.969057 0.242274 0.0472435
0.0571736 0.0998683 0.0194061 0 1 0
-0.0472829 -0.0430588 0.32047 0 1 0
0.0448594 -0.0507935 0.353014 -0.917041 -0.393627 0.0639778
0.235788 -0.0824541 0.4495 -0.0737352 0.997278 0.000301959
0.0131425 -0.00722509 0.426633 -0.361041 -0.93255 0
0.407425 -0.0696882 0.403661 -0.149921 0.988553 -0.0169306
0.0523984 -0.0553004 0.540347 -0.94772 -0.319065 -0.00497415
-0.0463304 -0.0805392 0.701697 0.968115 0.250485 0.00332674
-0.0297702 -0.065105 0.260815 0.955529 0.232496 0.18141
4.90152e-06 0.0829665 0.0970823 1 0 0
-0.0315652 0.0998683 0.034878 0 -1 0
-0.32951 -0.0756696 0.419011 -0.0708015 -0.997457 -0.00811529
-0.0555368 -0.0430588 0.344887 0 1 0
-0.114772 0.0998683 0.0640659 0 -1 0
-0.00195305 -0.0133874 0.754299 0.331947 -0.854965 -0.398556
-0.0556746 -0.0508052 0.372016 -0.92619 0.370278 -0.0711725
-0.0440047 -0.0324524 0.463179 0.929518 -0.366492 -0.0409826
-0.0999556 -0.0392183 0.342522 0.96161 -0.240159 0.132779
-0.250044 -0.0813947 0.468812 -0.0765141 -0.997057 0.00472924
0.00150353 -0.10798 0.449263 -0.31135 0.940156 0.138451
0.0363746 -0.0980438 0.741623 -0.332239 0.943195 0
0.0468818 -0.0415824 0.552322 -0.928592 -0.371079 -0.00418656
-0.0182807 -0.00945201 0.531376 0.371347 -0.928494 0
0.333214 -0.0755407 0.439691 0.0722595 -0.997356 0.00765409
0.195711 -0.0855566 0.511646 0.0661386 -0.997694 -0.0152261
-0.0702383 -0.0142292 0.354511 -0.534603 -0.832538 0.145192
0.0426668 -0.0323511 0.623992 -0.928107 -0.371481 -0.024868
4.90152e-06 0.0622422 0.162461 1 0 0
-0.0374386 -0.0197167 0.636142 0.905187 -0.424992 -0.00430286
0.160553 -0.0879999 0.495271 0.0739918 -0.997259 -0.000303005
-0.234561 -0.0825813 0.412116 -0.0732056 -0.997312 -0.00309737
-0.01786 -0.104902 0.779592 0.316151 0.948709 0
0.0277413 -0.040065 0.233613 -0.916002 -0.381772 0.12325
0.0808116 -0.0138371 0.332952 -0.545926 -0.825376 0.143943
0.0315128 -0.100278 0.56868 -0.311785 0.950151 0.00160251
-0.0604051 -0.031808 0.440892 -0.948115 -0.237657 -0.211183
0.0165245 -0.0653474 0.219846 -0.296758 0.934669 0.195778
4.90152e-06 0.00119713 0.149356 1 0 0
0.039864 -0.0516136 0.789173 -0.915567 -0.370479 -0.156465
0.0404606 -0.0837623 0.82615 -0.96646 0.241605 -0.0870794
-0.000437502 -0.0626989 0.881185 0.368248 -0.874617 -0.315338
-0.0490227 -0.0469235 0.590567 0.926357 -0.376545 -0.00877893
-0.0788282 -0.0118047 0.33708 0.53494 -0.832327 0.145155
-0.0226584 -0.0860501 0.343437 0.295336 0.948178 0.117196
0.0472342 -0.0534654 0.370233 -0.893488 -0.445536 0.0563625
0.0265164 -0.0127258 0.529318 -0.372168 -0.928165 0.000595059
-0.0439936 -0.0966613 0.539075 0.0739947 0.997259 0.000303016
0.0175409 0.0998683 0.0928178 0 -1 0
-0.367368 -0.0727327 0.37987 -0.0732056 -0.997312 -0.00309737
0.00642387 -0.108705 0.683877 -0.311785 0.950151 0.00160251
-0.046317 -0.0734432 0.44005 0.968819 0.24328 0.0469457
0.34529 -0.0744233 0.402268 0.0732024 -0.997312 -0.00311752
-0.0675158 -0.0949001 0.486743 0.0739947 0.997259 0.000303016
0.0154308 -0.00825474 0.702574 -0.368562 -0.929603 0
0.0292628 -0.0738057 0.865008 -0.855703 -0.389858 -0.340269
-0.0202033 -0.0657384 0.227062 0.296356 0.934141 0.198881
-0.042917 -0.0835687 0.797602 0.96116 0.267402 -0.0683209
-0.0447966 -0.0846325 0.505172 0.970103 0.242641 0.00498612
-0.0980749 -0.0605793 0.424329 0.928685 0.370849 -0.00377245
0.259876 -0.080961 0.489244 0.0661386 -0.997694 -0.0152261
0.109196 0.0998683 0.0461527 0 -1 0
-0.0334757 -0.0254354 0.332995 0.929659 -0.36238 0.066445
0.0432744 -0.0311262 0.473231 -0.92993 -0.367113 -0.0214227
0.0044004 0.0998683 0.0631894 0 1 0
0.150395 0.0998683 0.0237706 0 1 0
-0.0206825 -0.103962 0.658544 0.316092 0.948729 0
0.0958827 -0.0305107 0.328543 -0.962396 -0.236822 0.133075
0.0853688 -0.0101882 0.387397 -0.554703 -0.832049 0
-0.018421 -0.0471896 0.181937 0.974652 0.122561 0.187168
-0.0401624 -0.0268087 0.665923 0.9286 -0.371082 0
-0.398238 -0.0706144 0.3973 0.0708015 0.997457 0.00811529
-0.0652104 -0.0306986 0.303408 -0.965513 -0.219301 0.14033
0.0143479 -0.105803 0.763964 -0.332239 0.943195 0
-0.132707 0.0998683 0.00611333 0 -1 0
-0.0955223 -0.0555058 0.338248 0.906008 0.40227 0.131638
0.394944 -0.0707065 0.379187 -0.0732024 0.997312 0.00311752
-0.0210098 -0.103841 0.571555 0.320245 0.947335 0.000798561
-0.385266 -0.0716731 0.414255 -0.0708015 -0.997457 -0.00811529
4.90152e-06 0.0226026 0.240437 1 0 0
-0.00732532 -0.0647078 0.205689 0.290065 0.920398 0.262162
-0.013296 -0.00755681 0.415248 0.377245 -0.926114 0
-0.217545 -0.0837734 0.493108 -0.0765141 -0.997057 0.00472924
-0.0441059 -0.0881805 0.594893 0.975168 0.221468 0
0.31196 -0.0769845 0.454922 -0.0661387 0.997694 0.0152261
-0.0893642 -0.0222999 0.316384 0.546052 -0.825508 0.142704
0.032629 -0.0151729 0.412508 -0.377473 -0.925972 0.00948833
-0.088385 -0.012199 0.426995 0.554703 -0.832049 0
0.0414276 -0.094753 0.773467 -0.965911 0.251713 -0.0604684
0.00644329 -0.108678 0.67052 -0.320365 0.947294 0
0.16808 -0.0876208 0.526887 -0.0661387 0.997694 0.0152261
-0.0168662 -0.105164 0.479476 0.320245 0.947335 0.000798561
-0.0179968 -0.104827 0.533652 0.320245 0.947335 0.000798561
-0.0198876 -0.0837518 0.317861 0.295336 0.948178 0.117196
4.90152e-06 0.0369816 0.0956275 -1 0 0
0.0373084 -0.0366263 0.325603 -0.92271 -0.379967 0.0650445
0.102013 -0.0314948 0.402861 -0.970114 -0.242651 -7.511e-05
-0.0200533 -0.0141371 0.298799 0.36481 -0.927845 0.0775716
-0.00152971 -0.0379586 0.803165 0.336069 -0.850157 -0.405328
4.90152e-06 0.0728955 0.0587972 -1 0 0
4.90152e-06 -0.018501 0.100469 -1 0 0
-0.0356899 -0.0765709 0.310679 0.96704 0.238714 0.0885905
0.0322906 -0.0976188 0.846306 -0.323902 0.923565 -0.205222
-0.0271072 -0.0619666 0.848009 0.368248 -0.874617 -0.315338
-0.00501781 -0.00514089 0.718082 0.364435 -0.924331 -0.11313
0.211775 -0.0841884 0.458992 0.0739918 -0.997259 -0.000303005
0.10421 0.0998683 0.0112227 0 -1 0
0.103757 -0.0465248 0.403474 -0.936139 0.35163 0
0.0229485 -0.103156 0.802694 -0.315966 0.9487 0.0115448
4.90152e-06 0.0143821 0.216675 -1 0 0
0.206232 -0.08464 0.405427 0.0732024 -0.997312 -0.00311752
4.90152e-06 0.00240718 0.338785 -1 0 0
-0.00717949 -0.104884 0.853028 0.322243 0.924239 -0.204799
-0.00655432 -0.00476212 0.621058 0.371347 -0.928494 0
-0.028271 -0.0768535 0.291374 0.289007 0.936993 0.196265
4.90152e-06 0.00930384 0.0963389 -1 0 0
-0.0482675 -0.0963166 0.442513 -0.0737352 -0.997278 -0.000301959
0.206955 -0.0845537 0.484068 0.0739918 -0.997259 -0.000303005
0.0479944 -0.0437659 0.50479 -0.913968 -0.405448 -0.0165534
-0.059045 0.0998683 0.0600263 0 -1 0
-0.101744 -0.0304331 0.385148 0.970177 -0.242397 9.61734e-05
-0.0917291 -0.0273861 0.302722 0.962829 -0.236519 0.130458
0.00247445 -0.0476092 0.139478 -0.209185 0.940469 0.267879
0.111122 -0.0916802 0.424353 -0.0732024 0.997312 0.00311752
0.0234157 -0.0114211 0.625196 -0.372168 -0.928165 0.000595059
0.0294703 0.0998683 0.0892546 0 1 0
-0.0600804 -0.054171 0.413182 -0.909929 0.411086 -0.055108
0.283318 -0.0789779 0.404162 -0.0732024 0.997312 0.00311752
0.102209 -0.0923395 0.47932 -0.0737352 0.997278 0.000301959
0.0265419 -0.0145611 0.347536 -0.365003 -0.930332 0.0354324
0.037165 -0.0186392 0.56407 -0.923854 -0.382717 -0.00455175
-0.0383372 -0.0542857 0.292023 0.958068 0.225257 0.177101
-0.0425779 -0.0932789 0.494256 0.970103 0.242641 0.00498612
-0.0192127 -0.00982395 0.608466 0.368483 -0.929634 0.000622619
0.0345849 -0.0172201 0.721533 -0.364525 -0.924301 -0.113088
-0.177528 -0.0867609 0.447004 -0.0737352 -0.997278 -0.000301959
-0.0508295 -0.0629132 0.584664 0.976255 0.216624 0.00106038
4.90152e-06 0.0418685 0.122762 -1 0 0
0.0607712 -0.0953904 0.453196 0.0739918 -0.997259 -0.000303005
-0.0160853 -0.0341886 0.783625 0.331289 -0.84754 -0.414637
-0.0359549 -0.0430588 0.244866 0 1 0
0.352755 -0.0738244 0.385995 0.0732024 -0.997312 -0.00311752
-0.0287124 -0.0135797 0.498027 0.360827 -0.932594 -0.00848395
0.0504777 -0.0961511 0.43557 -0.0737352 0.997278 0.000301959
0.0588823 -0.0955511 0.520768 0.0739918 -0.997259 -0.000303005
-0.0548292 -0.0430588 0.278811 0 1 0
0.0153527 -0.0215418 0.197682 -0.908414 -0.404187 0.106849
0.0347478 -0.0779378 0.308203 -0.31248 0.942597 0.117756
0.00534814 -0.0539358 0.850923 -0.367612 -0.873106 -0.320231
-0.0424723 -0.09543 0.754422 0.954976 0.290878 -0.0584028
0.0908528 -0.0614049 0.433356 -0.157737 0.698302 -0.698208
0.0187402 -0.0907355 0.368166 -0.31248 0.942597 0.117756
-0.0117569 -0.103256 0.439954 0.308066 0.941214 0.138607
-0.0987162 -0.043409 0.43867 0.692721 0.260456 -0.672533
-0.238059 -0.0822484 0.483521 0.0591377 0.997802 0.0298832
-0.0503638 -0.0652025 0.623589 0.976255 0.216624 0.00106038
0.32278 -0.0760407 0.391131 -0.0732024 0.997312 0.00311752
-0.00844361 -0.0418985 0.127512 0.938015 0.28101 0.202885
0.0126359 -0.106583 0.503959 -0.320365 0.947294 0
4.90152e-06 0.0283598 0.17155 1 0 0
0.034106 -0.0994908 0.643046 -0.316158 0.948707 0
0.00783888 -0.0722208 0.239495 -0.296758 0.934669 0.195778
0.0736772 -0.0210819 0.304024 0.534287 -0.832191 0.148306
-0.0162599 -0.0503293 0.825522 0.376311 -0.893767 -0.244069
0.0101353 0.0998683 0.0335573 0 -1 0
-0.0448491 -0.0510594 0.349593 0.917203 -0.393697 0.0611614
-0.0413608 -0.0969994 0.617306 0.320245 0.947335 0.000798561
4.90152e-06 -0.00846615 0.185456 1 0 0
-0.047379 0.0998683 0.0963405 0 -1 0
-0.0279798 -0.0900522 0.866314 0.914548 0.263293 -0.307048
-0.0402513 -0.0278124 0.701771 0.934428 -0.355815 -0.0154928
-0.018758 -0.104373 0.751125 0.332029 0.943215 0.0101415
0.0766878 0.0998683 0.028818 0 -1 0
-0.0674099 -0.0511612 0.290579 -0.928076 0.348611 0.130939
-0.136062 -0.0898456 0.509149 -0.0737352 -0.997278 -0.000301959
0.00643147 -0.108713 0.69856 -0.316158 0.948707 0
-0.0320594 -0.0148875 0.651156 0.368483 -0.929634 0.000622619
0.0351169 -0.0818499 0.340498 -0.31248 0.942597 0.117756
0.140303 -0.0895094 0.518421 0.0739918 -0.997259 -0.000303005
-0.0855867 -0.0935529 0.465851 0.0739947 0.997259 0.000303016
-0.0362905 -0.0166251 0.560776 0.368483 -0.929634 0.000622619
-0.0648468 -0.095093 0.449745 -0.0737352 -0.997278 -0.000301959
-0.0467191 -0.0689739 0.789095 0.901533 -0.40103 -0.162519
0.398933 -0.0706742 0.421292 0.149921 -0.988553 0.0169306
-0.00606821 0.0998683 0.0446299 0 1 0
-0.0185202 -0.104682 0.799736 0.316151 0.948709 0
0.0139371 -0.106143 0.473474 -0.320365 0.947294 0
0.187107 -0.0860532 0.448826 -0.0737352 0.997278 0.000301959
-0.0211474 -0.0118368 0.359294 0.377567 -0.925278 0.0361031
0.0375358 -0.0568928 0.814214 -0.922787 -0.34347 -0.174621
-0.0680755 -0.034912 0.277102 -0.965449 -0.219613 0.140279
-0.0345437 -0.036342 0.295987 0.930937 -0.342679 0.126205
-0.0395252 -0.0321371 0.383001 0.923022 -0.379977 0.0603977
0.00658452 -0.10863 0.612987 -0.320365 0.947294 0
-0.35703 -0.0737922 0.428357 0.0708015 0.997457 0.00811529
0.0675816 -0.036574 0.277934 0.965597 -0.218943 0.140305
0.0401462 -0.0268521 0.689391 -0.928297 -0.371557 -0.0145274
0.00579019 -0.00443249 0.689837 -0.368562 -0.929603 0
0.0381943 0.0998683 0.0399211 0 1 0
0.0381872 -0.0430588 0.263866 0 -1 0
0.0966522 -0.0616224 0.381153 -0.220335 0.975424 0
-0.0160527 -0.0417713 0.164372 0.936784 0.279843 0.210054
-0.165008 -0.0876957 0.415014 -0.0732056 -0.997312 -0.00309737
0.0431407 -0.0944284 0.718641 -0.956259 0.291269 0.0270237
-0.299886 -0.0779936 0.468593 0.0661386 0.997694 0.0152261
-0.0187829 -0.0934143 0.886533 0.322243 0.924239 -0.204799
-0.0439059 -0.0966594 0.511223 0.0739947 0.997259 0.000303016
-0.336798 -0.07499 0.384173 -0.0732056 -0.997312 -0.00309737
0.160424 -0.0880274 0.453323 -0.0737352 0.997278 0.000301959
-0.0210556 -0.0105618 0.574645 0.371347 -0.928494 0
-0.0175785 -0.0181806 0.751335 0.344865 -0.833883 -0.430937
0.049574 -0.04684 0.471936 -0.938242 -0.345919 -0.0064139
0.279113 -0.0792533 0.443592 -0.073321 0.997279 -0.00770993
0.120418 -0.0909868 0.45803 -0.0737352 0.997278 0.000301959
0.0301782 -0.024019 0.752634 -0.343865 -0.835716 -0.428177
-0.082625 -0.00895471 0.367795 0.546052 -0.825508 0.142704
-0.024866 -0.0368178 0.22275 0.922288 -0.369707 0.112702
0.228394 -0.0831986 0.499109 0.0661386 -0.997694 -0.0152261
0.0619918 -0.0953137 0.481562 -0.0737352 0.997278 0.000301959
-0.0629252 -0.0586573 0.42669 -0.909929 0.411086 -0.055108
4.90152e-06 0.0984505 0.0982951 1 0 0
-0.0433229 -0.0371198 0.415014 0.923697 -0.379967 0.0490836
0.0433559 -0.037249 0.719009 -0.926323 -0.374831 -0.0377891
-0.0104746 -0.0694068 0.887657 0.379489 -0.867283 -0.322192
-0.216763 -0.0839091 0.419 -0.0732056 -0.997312 -0.00309737
-0.0739522 0.0998683 0.0694339 0 1 0
-0.123543 -0.090747 0.499945 0.0739947 0.997259 0.000303016
-0.0252859 -0.0929729 0.400645 0.311171 0.939933 0.140351
0.0511671 -0.0430588 0.298147 0 1 0
-0.043082 -0.0967394 0.573302 0.0739947 0.997259 0.000303016
0.0371894 -0.0512746 0.282006 -0.970947 0.163128 0.175076
0.026895 -0.0278368 0.263624 -0.923903 -0.361988 0.123969
0.0803848 -0.0128595 0.437799 -0.432196 -0.637376 -0.637933
0.181215 -0.0864588 0.468588 0.0739918 -0.997259 -0.000303005
4.90152e-06 -0.00977834 0.131365 -1 0 0
-0.201711 -0.084945 0.493094 0.0739947 0.997259 0.000303016
-0.00209593 -0.110155 0.797875 0.316151 0.948709 0
0.00935995 -0.0544654 0.171255 -0.290648 0.921399 0.257969
-0.0621055 -0.0164168 0.409295 -0.543264 -0.839552 0.00397093
-0.0434425 -0.0387169 0.732151 0.92241 -0.384375 -0.0376295
0.0464057 -0.080213 0.693132 -0.972615 0.232407 0.00257277
0.039664 -0.02552 0.634018 -0.928107 -0.371481 -0.024868
-0.0380167 -0.0185277 0.453183 0.928162 -0.368189 0.054342
4.90152e-06 0.000932456 0.295451 -1 0 0
-0.0776116 -0.0941702 0.54971 0.0739947 0.997259 0.000303016
-0.0184912 -0.0578912 0.196117 0.938015 0.28101 0.202885
-0.188808 -0.0858982 0.479162 0.0739947 0.997259 0.000303016
0.0560015 0.0998683 0.0705821 0 -1 0
0.053948 -0.0372535 0.372594 0.972487 -0.225926 -0.0568004
0.0819694 -0.0938342 0.507621 0.0739918 -0.997259 -0.000303005
4.90152e-06 0.0917437 0.0545129 -1 0 0
0.0188955 -0.0458455 0.181312 -0.938246 0.28028 0.202823
-0.0236463 -0.102732 0.718213 0.316327 0.948292 -0.0260827
0.163874 -0.0877584 0.511667 0.0739918 -0.997259 -0.000303005
-0.114202 0.0998683 0.0320008 0 -1 0
0.0305617 -0.10054 0.539003 -0.311785 0.950151 0.00160251
-0.238717 -0.08224 0.457444 -0.0737352 -0.997278 -0.000301959
0.0726823 -0.055573 0.288662 0.240592 0.964924 0.10506
-0.0110736 -0.107164 0.693355 0.316092 0.948729 0
-0.0570144 -0.0502234 0.360187 -0.920208 0.367886 0.133705
0.0563824 -0.0957208 0.468787 0.0739918 -0.997259 -0.000303005
-0.0195384 -0.0225144 0.227941 0.90742 -0.402937 0.119295
0.0801813 0.0998683 0.070641 0 1 0
0.0582735 -0.0527942 0.358426 0.920301 0.368411 0.131605
-0.024243 -0.0145867 0.733332 0.36441 -0.924346 -0.113094
-0.0140214 -0.00797037 0.383862 0.377567 -0.925278 0.0361031
0.0322435 -0.0912947 0.405045 -0.307926 0.940986 0.140451
0.143984 -0.089273 0.425938 0.0732024 -0.997312 -0.00311752
0.191568 -0.0857252 0.408297 -0.0732024 0.997312 0.00311752
-0.0583898 -0.0437201 0.332828 -0.920208 0.367886 0.133705
0.0475351 -0.0963916 0.515975 0.0739918 -0.997259 -0.000303005
-0.143049 -0.0892854 0.452959 0.0739947 0.997259 0.000303016
-0.0568669 -0.0269752 0.381305 -0.972357 -0.225949 -0.0588888
-0.0421464 -0.0744285 0.373758 0.961989 0.256395 0.0940169
0.00897766 -0.0812041 0.91137 -0.786089 -0.358142 -0.503783
0.176249 -0.0868365 0.49933 0.0739918 -0.997259 -0.000303005
0.0852688 0.0998683 0.0552884 0 -1 0
-0.0885493 -0.0546811 0.288818 0.240293 0.965001 0.105033
0.283913 -0.0790106 0.466156 0.0591815 -0.997803 -0.0297919
0.0447943 -0.0385985 0.430442 -0.928407 -0.368184 0.0500028
0.0316676 -0.0872821 0.374828 -0.31248 0.942597 0.117756
-0.0408894 -0.0269347 0.445289 0.928162 -0.368189 0.054342
-0.165877 -0.0876376 0.497353 -0.0737352 -0.997278 -0.000301959
-0.038109 -0.0202935 0.543073 0.920703 -0.390264 -0.000644548
0.0423493 -0.0777348 0.384755 -0.962206 0.256968 0.0901503
-0.0910113 -0.0931873 0.54479 -0.0737352 -0.997278 -0.000301959
-0.0280879 -0.0706438 0.864432 0.864044 -0.369883 -0.341489
-0.133579 0.0998683 0.0297548 0 -1 0
0.0412625 -0.0430235 0.76065 -0.915567 -0.370479 -0.156465
0.00655931 0.0998683 0.0720064 0 1 0
-0.145144 -0.0891884 0.432527 0.073321 0.997279 -0.00770985
0.102181 -0.0321636 0.378374 -0.97006 -0.242867 0
-0.265582 -0.0802628 0.398752 0.0732056 0.997312 0.00309739
0.0472398 -0.0428232 0.606424 -0.927549 -0.373603 -0.00858269
-0.0196766 -0.069733 0.245039 0.296356 0.934141 0.198881
-0.0251312 -0.10031 0.845422 0.322243 0.924239 -0.204799
0.050921 -0.0961553 0.565274 0.0739918 -0.997259 -0.000303005
-0.0512123 -0.0648277 0.748608 0.967912 0.242632 -0.0653905
0.0281578 -0.0133648 0.498089 -0.360908 -0.932563 -0.00848586
0.188162 -0.0859836 0.476527 -0.0737352 0.997278 0.000301959
-0.068861 0.0998683 0.0430673 0 1 0
4.90152e-06 0.0711306 0.0722781 -1 0 0
0.0277852 -0.0204067 0.291955 -0.923903 -0.361988 0.123969
-0.031955 -0.014921 0.528057 0.371347 -0.928494 0
0.111886 -0.0916166 0.514565 0.0739918 -0.997259 -0.000303005
-0.0400531 -0.0859101 0.386085 0.311171 0.939933 0.140351
0.016047 -0.00834955 0.442885 -0.361041 -0.93255 0
0.0432187 -0.037724 0.407625 -0.928407 -0.368184 0.0500028
-0.0947799 -0.0164623 0.372683 0.554703 -0.832049 0
0.00279208 -0.00324383 0.561993 -0.368562 -0.929603 0
0.297871 -0.0779481 0.416439 0.0732024 -0.997312 -0.00311752
0.0785392 -0.0940884 0.475395 -0.0737352 0.997278 0.000301959
0.0034005 -0.00348505 0.52804 -0.368562 -0.929603 0
-0.134106 -0.0899954 0.526452 -0.0737352 -0.997278 -0.000301959
0.000571132 -0.110664 0.65075 -0.320365 0.947294 0
0.0518275 -0.0601694 0.670916 -0.961597 0.274434 0.00427835
0.0253166 -0.10242 0.717161 -0.316158 0.948707 0
4.90152e-06 0.0626467 0.099868 1 0 0
-0.0857121 -0.0640936 0.406047 0.220335 0.975424 0
-0.0414065 -0.0684947 0.350006 0.961989 0.256395 0.0940169
-0.121996 -0.0908478 0.453924 0.0739947 0.997259 0.000303016
-0.0740737 -0.00877 0.393206 -0.532879 -0.846191 0
0.0751749 -0.0943203 0.44829 0.0739918 -0.997259 -0.000303005
-0.0449904 -0.0365593 0.562128 0.920703 -0.390264 -0.000644548
-0.0509367 -0.0503979 0.464484 0.938242 -0.345919 -0.00641391
0.0132523 -0.0364153 0.146804 -0.919239 -0.367118 0.142215
-0.215309 -0.083927 0.463201 0.0739947 0.997259 0.000303016
0.00764005 -0.108273 0.570467 -0.320365 0.947294 0
0.0928869 -0.0494287 0.442331 -0.705843 0.264689 -0.657058
-0.025455 -0.0123051 0.42719 0.361065 -0.932504 0.00831576
0.345255 -0.0747414 0.430659 -0.072312 0.997345 -0.00860806
0.107824 -0.0919282 0.548326 0.0739918 -0.997259 -0.000303005
-0.296462 -0.0780305 0.409841 0.0732056 0.997312 0.00309739
4.90152e-06 0.0170484 0.192986 -1 0 0
-0.0748585 0.0998683 0.016612 0 1 0
-0.345366 -0.0744982 0.413378 -0.0708015 -0.997457 -0.00811529
4.90152e-06 0.0937905 0.11899 1 0 0
-0.057782 -0.0956519 0.57045 -0.0737352 -0.997278 -0.000301959
-0.202675 -0.0849073 0.465843 -0.0737352 -0.997278 -0.000301959
-0.30121 -0.0776919 0.449609 -0.0543979 -0.998433 0.0131243
0.189302 -0.0859473 0.426139 -0.0732024 0.997312 0.00311752
-0.0563392 -0.0430588 0.309457 0 1 0
0.127927 -0.0904145 0.475355 0.0739918 -0.997259 -0.000303005
0.020609 -0.0741931 0.267737 -0.288909 0.936632 0.198123
-0.362979 -0.0734039 0.441917 -0.0661387 -0.997694 -0.0152261
-0.00637003 -0.0114333 0.26671 0.376187 -0.923518 0.0748235
-0.394929 -0.0710964 0.427664 -0.0708015 -0.997457 -0.00811529
-0.199246 -0.0851635 0.408892 -0.0732056 -0.997312 -0.00309737
-0.0056939 -0.0781645 0.909935 0.364449 -0.832911 -0.416456
0.00848558 -0.0988519 0.878329 -0.323902 0.923565 -0.205222
-0.14201 -0.0893957 0.475831 -0.0737352 -0.997278 -0.000301959
0.0234532 -0.0114354 0.687825 -0.368562 -0.929603 0
4.90152e-06 0.0916672 0.0347348 -1 0 0
4.90152e-06 0.00816053 0.161027 1 0 0
-0.0827474 -0.0647633 0.373123 0.220335 0.975424 0
-0.00206594 -0.0129839 0.225933 0.376187 -0.923518 0.0748235
0.0163331 -0.00863011 0.548809 -0.372168 -0.928165 0.000595059
0.134749 0.0998683 0.0205911 0 -1 0
4.90152e-06 0.105673 0.111214 -1 0 0
4.90152e-06 -0.000653008 0.119701 1 0 0
0.0832326 -0.0937484 0.533985 0.0739918 -0.997259 -0.000303005
0.0387487 -0.0219889 0.440834 -0.923428 -0.379977 0.0538428
0.0298565 -0.100759 0.483654 -0.320365 0.947294 0
0.0385135 -0.0228748 0.653395 -0.908056 -0.418849 0
0.0806465 -0.0939238 0.426522 -0.0732024 0.997312 0.00311752
-0.0837652 -0.00911908 0.401082 0.554703 -0.832049 0
0.0855039 -0.0596419 0.329032 -0.219161 0.970224 0.103124
0.396714 -0.0706934 0.393706 0.0708088 -0.997457 -0.008113
-0.132653 -0.0901051 0.426108 0.0732056 0.997312 0.00309739
0.0810151 -0.0939389 0.563083 0.0591815 -0.997803 -0.0297919
-0.0834171 -0.064612 0.429956 0.220335 0.975424 0
0.0193423 -0.0178684 0.250509 -0.376261 -0.92315 0.0788743
0.0944958 -0.092927 0.536188 -0.0737352 0.997278 0.000301959
0.13343 -0.0900242 0.534413 0.0739918 -0.997259 -0.000303005
0.119582 0.0998683 0.0442259 0 -1 0
0.0500641 -0.0683248 0.71739 -0.976424 0.212594 0.0374241
-0.0291839 -0.10113 0.647746 0.316092 0.948729 0
-0.0506674 -0.0628192 0.522322 0.955483 0.294988 0.00587259
0.0217412 -0.0270426 0.228159 -0.906011 -0.403118 0.128997
0.249038 -0.0815433 0.419901 0.0732024 -0.997312 -0.00311752
-0.211798 -0.0842252 0.440684 -0.0737352 -0.997278 -0.000301959
-0.0469527 0.0998683 0.0270195 0 1 0
-0.324624 -0.0759447 0.403844 0.0732056 0.997312 0.00309739
0.0671319 -0.0626859 0.368135 0.219303 0.970355 0.101572
4.90152e-06 0.0299007 0.115013 1 0 0
0.0894433 -0.0215424 0.321507 -0.535172 -0.832687 0.142209
0.071307 -0.0465299 0.266302 0 0 1
-0.0118937 -0.00698558 0.432986 0.377245 -0.926114 0
0.0074249 -0.00501148 0.410615 -0.361041 -0.93255 0
0.0368898 -0.0181516 0.578935 -0.923854 -0.382717 -0.00455175
0.0119079 -0.00918003 0.337515 -0.377669 -0.925029 0.0410857
-0.275825 -0.079484 0.445072 0.0733434 0.99728 -0.00727881
4.90152e-06 0.0735354 0.170045 -1 0 0
-0.0138667 -0.0290132 0.157726 0.922416 -0.369758 0.111483
0.0624156 -0.0454071 0.440095 0.816267 0.345383 -0.463053
0.0259516 -0.0519651 0.223643 -0.942802 0.281641 0.178335
-0.0478781 -0.0457724 0.661974 0.926357 -0.376545 -0.00877893
4.90152e-06 -0.015492 0.11973 1 0 0
-0.104843 -0.0436261 0.409588 0.939897 0.341457 0
0.0932248 0.0998683 0.0284034 0 -1 0
4.90152e-06 0.0423062 0.185606 1 0 0
0.0459134 -0.0815658 0.629224 -0.972615 0.232407 0.00257277
-0.0732076 -0.0944984 0.527607 -0.0737352 -0.997278 -0.000301959
-0.0500895 -0.0604335 0.443602 0.958131 0.281855 0.0504204
-0.355586 -0.073639 0.393233 -0.0732056 -0.997312 -0.00309737
0.0515088 -0.0542027 0.639433 -0.94772 -0.319065 -0.00497415
0.0504654 -0.0643439 0.598443 -0.976267 0.216566 0.00159914
4.90152e-06 -0.0111455 0.161415 -1 0 0
-0.0936749 -0.0929468 0.446153 0.0739947 0.997259 0.000303016
0.102631 -0.0339751 0.430688 -0.970114 -0.242651 -7.511e-05
-0.0673227 -0.0949265 0.504403 -0.0737352 -0.997278 -0.000301959
-0.0461818 -0.0804621 0.652659 0.968115 0.250485 0.00332674
0.0771839 -0.0652392 0.423089 0.25234 0.967639 0
-0.0434632 -0.0913107 0.678339 0.968115 0.250485 0.00332674
0.0183092 -0.104665 0.557807 -0.320365 0.947294 0
0.0473853 -0.0430588 0.313334 0 1 0
0.0231663 -0.102858 0.733273 -0.332446 0.942786 -0.025199
-0.0365211 -0.0986855 0.707644 0.316092 0.948729 0
0.0577651 -0.0451658 0.34076 0.927884 0.347609 0.134907
0.0704115 -0.0635885 0.393142 0.220436 0.97537 -0.00787752
0.0456999 -0.0662946 0.389271 -0.963204 0.264099 0.0499065
-0.0788355 -0.0940552 0.438021 -0.0737352 -0.997278 -0.000301959
0.0505189 -0.0571831 0.433495 -0.969057 0.242274 0.0472435
0.381484 -0.0717908 0.395695 -0.0708088 0.997457 0.00811299
0.0446739 0.0998683 0.081597 0 -1 0
-0.234659 -0.0825314 0.442338 0.0733434 0.99728 -0.00727881
0.0276187 -0.0763172 0.288 -0.288909 0.936632 0.198123
4.90152e-06 -0.00203148 0.378818 -1 0 0
0.0459981 -0.0380356 0.456937 -0.928407 -0.368184 0.0500028
0.0207938 -0.0831439 0.892269 -0.853219 0.171749 -0.492463
0.0203843 0.0998683 0.108988 0 -1 0
-0.00636254 -0.108177 0.839453 0.322243 0.924239 -0.204799
-0.0455009 -0.0877592 0.743106 0.954976 0.290878 -0.0584028
4.90152e-06 0.0461392 0.137171 1 0 0
0.0340663 -0.0174399 0.392632 -0.923428 -0.379977 0.0538428
4.90152e-06 0.012527 0.23151 1 0 0
0.0379858 0.0998683 0.0553847 0 -1 0
-0.0381259 -0.0430588 0.260327 0 -1 0
4.90152e-06 0.0473395 0.0863149 -1 0 0
0.0354402 -0.0800209 0.326715 -0.31248 0.942597 0.117756
0.0517371 -0.0646246 0.735263 -0.969866 0.241825 0.0296764
0.218449 -0.0838051 0.430569 -0.0733431 0.997301 -0.00352211
-0.0409388 -0.0430588 0.30827 0 -1 0
0.0646205 -0.0590219 0.3388 0.240592 0.964924 0.10506
-0.12171 -0.0909142 0.533722 -0.0737352 -0.997278 -0.000301959
4.90152e-06 -0.00199526 0.258066 1 0 0
0.158916 -0.0881834 0.430505 -0.0733431 0.997301 -0.00352211
0.00407062 -0.094244 0.358559 -0.29478 0.947179 0.126322
0.0171899 -0.0431175 0.801175 -0.334556 -0.846539 -0.414058
-0.139416 -0.089566 0.489101 0.0739947 0.997259 0.000303016
-0.0396784 -0.0372593 0.755233 0.896116 -0.411511 -0.166238
4.90152e-06 0.0374447 0.0622294 1 0 0
0.376981 -0.0722922 0.418042 -0.0708088 0.997457 0.00811299
0.0272111 -0.0946024 0.864543 -0.929708 0.206408 -0.305021
0.0865982 -0.0254609 0.287855 -0.535172 -0.832687 0.142209
-0.0490469 -0.0506604 0.423337 0.937138 -0.345512 0.0489184
0.00824364 -0.0272369 0.119052 -0.941813 -0.314489 0.118679
0.0334851 -0.0555052 0.268158 -0.957436 0.224762 0.181103
-0.126677 0.0998683 0.0514199 0 -1 0
-0.191555 -0.0857434 0.436752 -0.073321 -0.997279 0.00770993
0.0498028 -0.0677295 0.652403 -0.976267 0.216566 0.00159914
0.0434803 -0.0502836 0.335875 -0.893488 -0.445536 0.0563625
-0.0951446 0.0998683 0.0345614 0 1 0
0.274767 -0.0796293 0.411761 0.0732024 -0.997312 -0.00311752
-0.0254851 -0.0122691 0.669851 0.368483 -0.929634 0.000622619
0.0326263 -0.0998277 0.518318 -0.311785 0.950151 0.00160251
0.0607106 -0.0175014 0.371326 0.54335 -0.839506 0
-0.0408797 -0.059109 0.319626 0.967639 0.23477 0.0925117
-0.00280949 -0.00326439 0.633427 0.371347 -0.928494 0
0.0413656 -0.0970715 0.654345 -0.316158 0.948707 0
0.0154473 -0.0115963 0.311091 -0.365003 -0.930332 0.0354324
-0.0444802 -0.0354683 0.512287 0.922789 -0.384546 -0.0241999
-0.0207326 0.0998683 0.0970495 0 -1 0
0.0197867 -0.0887136 0.354759 -0.31248 0.942597 0.117756
0.0473295 -0.0751272 0.582958 -0.972615 0.232407 0.00257277
0.052302 -0.057277 0.685507 -0.94772 -0.319065 -0.00497415
-0.276521 -0.0794082 0.459246 -0.0765141 -0.997057 0.00472924
4.90152e-06 0.000688702 0.219959 1 0 0
0.101156 -0.0346436 0.359323 -0.962396 -0.236822 0.133075
4.90152e-06 0.0780749 0.145244 -1 0 0
-0.0379509 -0.0334954 0.351651 0.929659 -0.36238 0.066445
0.00613291 -0.0784427 0.266613 -0.296758 0.934669 0.195778
4.90152e-06 0.0387425 0.163773 1 0 0
-0.033489 -0.0994649 0.776894 0.332029 0.943215 0.0101415
0.00400921 -0.0687526 0.217132 -0.296758 0.934669 0.195778
-0.162101 -0.0879133 0.436186 0.073321 0.997279 -0.00770985
-0.08907 -0.0565066 0.306781 0.240293 0.965001 0.105033
-0.0311907 -0.0360738 0.271982 0.930937 -0.342679 0.126205
0.248992 -0.081582 0.482908 -0.0591815 0.997803 0.0297919
0.049267 -0.0962738 0.545105 -0.0737352 0.997278 0.000301959
-0.0287651 -0.0163048 0.32445 0.377567 -0.925278 0.0361031
0.00146452 -0.0895188 0.317048 -0.29478 0.947179 0.126322
0.100394 -0.0551658 0.41225 -0.91367 0.406453 -0.00203188
4.90152e-06 0.0270259 0.181061 1 0 0
0.0357377 -0.039436 0.778662 -0.334556 -0.846539 -0.414058
4.90152e-06 0.0317821 0.143755 -1 0 0
0.0394293 -0.0430588 0.246321 0 1 0
0.240059 -0.0820944 0.473761 0.0739918 -0.997259 -0.000303005
0.0140629 -0.0102864 0.731008 -0.364495 -0.924308 -0.113127
-0.0252046 -0.0119862 0.452071 0.361065 -0.932504 0.00831576
0.0498319 0.0998683 0.0565279 0 1 0
-0.046723 -0.0803645 0.715156 0.954244 0.294605 0.0512419
-0.0205566 -0.0185244 0.248689 0.36481 -0.927845 0.0775716
-0.0390744 -0.0235378 0.624223 0.955393 -0.294943 -0.0152784
-0.0340315 -0.0993637 0.482815 0.320245 0.947335 0.000798561
-0.0700745 -0.0213198 0.314456 -0.534603 -0.832538 0.145192
-0.00942237 -0.0217057 0.147696 0.376415 -0.924077 0.0662884
-0.022347 -0.0963233 0.416566 0.311171 0.939933 0.140351
0.0954212 -0.0168898 0.430088 -0.554703 -0.832049 0
0.244255 -0.081831 0.458981 -0.0737352 0.997278 0.000301959
-0.243349 -0.0820973 0.491908 -0.0661387 -0.997694 -0.0152261
0.0810681 -0.0118204 0.345489 -0.545926 -0.825376 0.143943
4.90152e-06 0.0590868 0.155726 -1 0 0
-0.0460434 -0.0965062 0.529111 0.0739947 0.997259 0.000303016
-0.0447667 -0.0773032 0.42806 0.968819 0.24328 0.0469457
0.0401654 -0.0252763 0.60312 -0.9286 -0.371082 0
0.00106812 -0.09922 0.388797 -0.31135 0.940156 0.138451
0.0445297 -0.0808137 0.442829 -0.96863 0.243315 0.0505316
-0.0765342 -0.0379422 0.442815 0 0 -1
-0.0694753 -0.0116658 0.424682 -0.532879 -0.846191 0
0.267713 -0.0800976 0.395923 -0.0732024 0.997312 0.00311752
0.0452793 -0.0660014 0.789811 -0.924717 -0.344851 -0.161173
0.0430267 -0.0321026 0.540694 -0.923059 -0.384659 5.01556e-05
0.0587626 0.0998683 0.032977 0 1 0
0.0386262 -0.095318 0.813142 -0.964059 0.251231 -0.0864543
-0.0179205 -0.0905082 0.365589 0.311999 0.941744 0.125597
-0.0805646 0.0998683 0.0789272 0 1 0
4.90152e-06 0.0882961 0.141558 -1 0 0
0.0730461 -0.0562698 0.439774 0.174971 0.696246 -0.696152
0.0279366 -0.0132698 0.710676 -0.364525 -0.924301 -0.113088
4.90152e-06 0.068275 0.131851 1 0 0
0.0439279 -0.0899392 0.668275 -0.967982 0.25102 0
-0.0576509 -0.0325583 0.416022 -0.973501 -0.22144 -0.0570959
-0.399407 -0.0704164 0.383152 0.0708015 0.997457 0.00811529
4.90152e-06 0.0182289 0.131921 1 0 0
-0.183532 -0.0864573 0.517766 0.0661386 0.997694 0.0152261
0.295722 -0.0781232 0.429648 0.076907 -0.997005 0.00808701
-0.133798 0.0998683 0.0189097 0 -1 0
0.0501789 -0.0601324 0.748986 -0.915567 -0.370479 -0.156465
-0.410252 -0.0693229 0.399957 -0.149921 -0.988553 0.0169306
0.00102983 -0.110513 0.72954 -0.316158 0.948707 0
-0.00601389 -0.00454225 0.683198 0.368483 -0.929634 0.000622619
-0.032687 -0.0998676 0.541328 0.320245 0.947335 0.000798561
0.0521577 -0.0574761 0.572358 -0.961597 0.274434 0.00427835
0.0477045 -0.0460867 0.698624 -0.92282 -0.384547 -0.0229617
0.0128268 -0.106582 0.709429 -0.316158 0.948707 0
-0.00346239 -0.0772543 0.256756 0.289007 0.936993 0.196265
0.106216 0.0998683 0.0621873 0 1 0
0.0135617 -0.00751369 0.595078 -0.368562 -0.929603 0
0.155624 0.0998683 0.0109695 0 -1 0
-0.110761 -0.091717 0.5117 -0.0737352 -0.997278 -0.000301959
-0.0258779 0.0998683 0.0783078 0 1 0
-0.0871269 0.0998683 0.0443694 0 1 0
-0.0998619 -0.0924938 0.465999 0.0739947 0.997259 0.000303016
0.0698818 -0.0115372 0.410388 0.532872 -0.846181 0.00503046
-0.0498155 0.0998683 0.0756318 0 1 0
-0.148611 0.0998683 0.0400886 0 1 0
4.90152e-06 0.0347884 0.202985 1 0 0
0.03358 -0.0195624 0.741204 -0.343865 -0.835716 -0.428177
-0.0278173 -0.048223 0.227402 0.958068 0.225257 0.177101
0.0497175 -0.0665031 0.546769 -0.959339 0.28221 0.00517167
-0.0444479 -0.0829741 0.450868 0.968819 0.24328 0.0469457
4.90152e-06 0.108416 0.0525322 -1 0 0
-0.0447985 -0.0851308 0.536947 0.975168 0.221468 0
4.90152e-06 0.00515974 0.108116 -1 0 0
0.138481 -0.089649 0.450678 -0.0737352 0.997278 0.000301959
0.33416 -0.0752585 0.40812 -0.0732024 0.997312 0.00311752
-0.0344167 -0.0180589 0.394871 0.928162 -0.368189 0.054342
0.268692 -0.080064 0.471199 0.0591815 -0.997803 -0.0297919
-0.0152622 -0.00824481 0.512063 0.371347 -0.928494 0
0.0656776 -0.0302481 0.300908 0.965597 -0.218943 0.140305
-0.00877064 -0.00564853 0.499234 0.371347 -0.928494 0
-0.0358083 0.0998683 0.0466273 0 -1 0
0.0147122 -0.0773925 0.899713 -0.786089 -0.358142 -0.503783
-0.149246 -0.088846 0.519855 0.0739947 0.997259 0.000303016
4.90152e-06 0.106604 0.122677 -1 0 0
0.0368835 -0.0193705 0.427325 -0.923428 -0.379977 0.0538428
0.0667079 -0.0155155 0.360366 0.534287 -0.832191 0.148306
0.120039 0.0998683 0.0297346 0 1 0
4.90152e-06 0.0274104 0.0719551 -1 0 0
