-0.011491 -0.00378985 0.564096 -0.536126 -0.803731 -0.258042
0.0396669 -0.104774 0.720816 0.561506 -0.827469 -0.00271092
-0.02363 -0.0540088 0.693464 -0.139073 0.961607 0.236581
-0.0454854 -0.0551501 0.467032 0.00799265 -0.999702 -0.0230736
-0.233173 -0.0567248 0.568705 -0.0740213 -0.989773 0.121945
-0.0535474 -0.0828516 0.478648 -0.829857 -0.557128 -0.0307626
-0.0277803 -0.0509276 0.584233 -0.00483781 0.999975 -0.00512438
-0.0114184 0.0378933 0.701992 -0.172615 0.841655 0.511685
0.0659432 -0.0507819 0.829121 0.97757 0.195851 0.0774535
-0.00398284 -0.0760719 0.190986 0.132655 0.98868 -0.0700971
-0.0448197 -0.0207559 0.375712 -0.826996 0.557913 -0.0693627
-0.0121827 -0.0173727 0.724933 -0.459324 -0.657426 0.597338
-0.00415646 0.0151668 0.65974 -0.197307 0.980322 0.00620678
-0.140261 0.0898609 0.0832249 -6.04943e-05 0.999527 0.0307554
-0.0101659 -0.116309 0.592689 -0.195561 -0.980358 -0.0255722
-0.0472431 -0.0853999 0.364623 -0.82764 -0.559849 -0.0397685
-0.0645292 -0.0638752 0.777107 -0.980899 -0.194516 -0.000250088
0.0545198 -0.0148672 0.650524 0.833796 0.551868 -0.0150416
0.0338603 -0.106006 0.866691 0.555883 -0.829379 0.0558999
0.065556 -0.0586873 0.758439 0.981128 -0.193359 -0.000679619
-0.0650193 -0.0604147 0.696685 -0.98118 -0.193026 0.00515713
0.221673 -0.0550089 0.406434 0.0159684 -0.998809 0.0460985
-0.0466282 -0.0366413 0.269957 -0.82347 0.561662 -0.0801985
0.0264589 -0.109587 0.50223 0.55507 -0.83132 -0.0283544
0.0268718 -0.0991298 0.24061 0.54786 -0.835773 -0.0365178
0.0495011 -0.0354956 0.311804 0.826717 0.558437 -0.0684658
0.132375 0.0886428 0.0900015 -0.0951456 0.988013 -0.121567
-0.00709222 -0.0664445 0.320538 0.410891 0.908839 -0.0719683
-0.0263751 -0.0249895 0.171923 -0.561222 0.823399 -0.0839261
0.061526 -0.0299256 0.590253 0.980068 0.196014 -0.0323247
0.0517302 -0.0202961 0.491339 0.829611 0.556281 -0.047935
-0.060146 -0.0269537 0.569229 -0.830292 0.55604 -0.0378713
-0.0466845 -0.0396739 0.251797 -0.977157 0.198444 -0.0760478
-0.298214 -0.0572136 0.515973 -0.023818 -0.999245 0.0306855
-0.000923104 -0.119103 0.809418 -0.194356 -0.980929 0.00185097
0.0516284 -0.0729137 0.323472 0.97938 -0.196103 -0.048555
-0.0323661 0.0851938 0.0817794 -0.0108314 -0.998824 -0.0472519
0.00301372 0.0485854 0.156114 -0.999871 -0.0155693 0.00384445
0.102835 -0.051385 0.565822 -0.00483781 -0.999975 0.00512438
0.0585488 -0.0825146 0.660064 0.834534 -0.550951 0.00246704
-0.0989263 -0.0515098 0.537773 -0.00483781 0.999975 -0.00512438
-0.0454255 -0.0967712 0.872912 -0.827559 -0.556712 0.0722311
0.363584 -0.053393 0.474354 -0.0111764 -0.999909 -0.00749126
-0.0339608 -0.108528 0.664163 -0.55879 -0.829308 -0.00155589
0.217199 -0.0575484 0.471694 0.013198 0.99885 0.0460993
0.108124 -0.054772 0.4509 0.0159684 -0.998809 0.0460985
-0.362009 -0.0568398 0.428524 -0.0059659 -0.999979 -0.00256043
-0.0231527 -0.0566569 0.233247 0.957405 -0.280786 -0.0673392
-0.0349534 -0.0166993 0.314276 -0.546011 0.834216 -0.0771719
-0.257058 -0.0574513 0.458178 0.013198 -0.99885 -0.0460993
-0.0659915 -0.0564219 0.750783 -0.980888 -0.194514 -0.00478815
0.264483 -0.0548685 0.55638 -0.0705753 -0.990065 -0.121615
0.0235751 0.0879556 0.0763016 0.0390673 -0.99812 0.0472163
-0.000695884 9.16468e-05 0.900515 -0.183998 0.927395 0.325706
0.0380751 -0.084943 0.194329 0.835639 -0.546617 -0.0540076
0.171053 -0.0583101 0.535656 -0.00506851 0.999974 0.00512583
0.428715 -0.0563732 0.401701 -0.0059659 0.999979 0.00256043
-0.0120752 -0.0517638 0.851456 0.781518 -0.565509 0.263494
-0.00428454 -0.000350215 0.256177 0.999855 -0.0166072 0.0038441
0.0658695 -0.056272 0.718817 0.981405 -0.191892 -0.0047722
-0.396689 -0.0549751 0.480527 -0.0705753 0.990065 0.121615
0.0352794 -0.0619177 0.13117 0.918734 0.182753 -0.350042
-0.233832 -0.052845 0.455847 0.00306219 0.999729 -0.0230761
-0.292228 -0.0560869 0.418546 0.013198 -0.99885 -0.0460993
-0.039415 -0.0700158 0.149534 -0.968291 -0.192599 -0.159116
0.0425127 -0.0552275 0.686679 -0.137434 0.961783 -0.236825
0.303967 -0.0572198 0.441681 -0.0059659 0.999979 0.00256043
-0.095939 -0.0550656 0.655795 -0.0705753 0.990065 0.121615
-0.0260048 0.000323208 0.879342 -0.536857 0.805937 0.249499
0.0213301 -0.105696 0.308749 0.55206 -0.833055 -0.035334
0.0163338 0.00132035 0.413433 0.19259 0.979625 -0.056949
0.00447011 0.036349 0.584494 0.18544 0.933487 -0.306942
0.0303355 -0.0592365 0.577233 -0.00506851 0.999974 0.00512583
-0.0467667 -0.0573404 0.515982 0.013198 -0.99885 -0.0460993
0.0226756 0.0107348 0.736095 0.195873 0.980543 0.0129782
0.351389 -0.0549418 0.362953 0.0159684 -0.998809 0.0460985
-0.0596408 -0.0774223 0.853782 -0.976395 -0.195623 0.0915624
-0.0257664 -0.0159139 0.693311 -0.8277 -0.548213 0.119898
0.0561156 -0.0329432 0.434673 0.979435 0.197344 -0.0419805
0.0608426 -0.0780668 0.610599 0.833841 -0.551886 -0.011405
-0.0230074 -0.050691 0.625894 -0.00483781 0.999975 -0.00512438
-0.0351242 0.00313231 0.798954 -0.556106 0.831078 0.00744548
-0.179 -0.0525172 0.477324 0.00306219 0.999729 -0.0230761
0.0835517 -0.0566334 0.490131 0.013198 0.99885 0.0460993
-0.049895 -0.0195832 0.46853 -0.82991 0.555784 -0.0485206
-0.0255585 -0.00534033 0.610736 -0.810603 -0.545876 -0.211994
-0.0163989 -0.0463923 0.22148 0.412405 -0.910017 -0.0423214
0.0613747 -0.0682284 0.544097 0.980458 -0.194872 -0.0269464
-0.0185272 -0.107688 0.344041 -0.192189 -0.980833 -0.032088
-0.401927 -0.0562112 0.389535 0.00799265 -0.999702 -0.0230736
1.91038e-06 0.0788317 0.195214 -0.877625 -0.396058 -0.270023
0.0310267 0.030856 0.681742 0.822916 0.552261 0.133483
0.159779 -0.0571938 0.480449 0.013198 0.99885 0.0460993
-0.0234898 -0.10241 0.266364 -0.546326 -0.836648 -0.0393516
0.0434581 -0.0941352 0.412512 0.830828 -0.555644 -0.0313878
0.212264 -0.0565814 0.582561 -0.0740213 0.989773 -0.121945
-0.124246 -0.0547933 0.637506 -0.139073 0.961607 0.236581
0.0283346 0.087305 0.148218 -0.117698 -0.962858 -0.243006
-0.0104041 -0.11735 0.714389 -0.196803 -0.980443 0.000479867
-0.0429283 -0.0995746 0.530992 -0.55356 -0.832399 -0.0261333
0.0598638 -0.0629121 0.879543 0.963903 -0.190866 0.185636
-0.0747146 -0.0511302 0.589004 -0.00483781 0.999975 -0.00512438
0.0256324 -0.0103737 0.31627 0.545486 0.834463 -0.0782076
-0.0549849 -0.0623476 0.34817 -0.979165 -0.197277 -0.0481413
0.00174233 -0.0466784 0.341845 -0.133292 -0.990385 -0.0370245
0.0128807 -0.0964432 0.920003 0.126687 -0.63983 0.758002
-0.0414839 -0.0745265 0.167644 -0.969177 -0.189597 -0.157318
0.0342859 -0.0549212 0.473245 0.0159684 -0.998809 0.0460985
-0.0277553 0.0885555 0.135501 -0.0193608 0.997831 0.0629238
0.0218038 -0.045759 0.894663 -0.949022 -0.20512 0.239341
0.0575065 -0.0589626 0.38569 0.97938 -0.196103 -0.048555
0.314513 -0.05296 0.462854 -0.00637856 -0.999976 0.00255783
0.0266348 -0.0157792 0.266639 0.545237 0.834083 -0.0838031
-0.00360748 0.00594224 0.519172 -0.522299 -0.808997 -0.269681
0.0378359 -0.100418 0.455466 0.552193 -0.833256 -0.0276953
-0.105527 0.0896771 0.0604856 0.0162906 0.999853 -0.00525667
-0.0501076 -0.00849746 0.698393 -0.835027 0.550168 0.00671874
-0.0028506 0.00954329 0.173171 0.996931 0.0531054 0.057512
-0.00403815 -0.0206645 0.221649 0.996931 0.0531054 0.057512
0.0352133 0.0260218 0.645021 0.973108 0.195409 -0.121972
0.0133595 -0.116739 0.762929 0.197116 -0.980378 0.00184993
-0.0198449 -0.0420169 0.122666 -0.345329 0.762007 -0.547807
-0.042278 -0.0965137 0.425802 -0.553536 -0.832363 -0.0277386
-0.00179664 -0.106059 0.186224 -0.197919 -0.979793 -0.0288679
-0.0265479 -0.0423979 0.916344 0.949164 -0.204511 0.239297
-0.0535704 -0.0547412 0.306991 -0.978329 0.198682 -0.0582891
-0.00918799 -0.111106 0.39258 -0.192189 -0.980833 -0.032088
0.0319073 0.00307454 0.558731 0.553727 0.83142 -0.0461232
0.0018437 0.106664 0.0870201 -0.999871 -0.0155693 0.00384445
-0.206918 -0.0521622 0.512416 -0.00483781 0.999975 -0.00512438
-0.0434837 -0.0152987 0.407938 -0.828039 0.558617 -0.0479502
0.0363729 -0.0924284 0.905985 0.476618 -0.712225 0.515335
0.284602 -0.0527726 0.513217 -0.00948679 -0.999947 -0.00392914
-0.00655471 -0.070556 0.714104 -1 0 0
0.0932348 0.0868768 0.0654274 -0.0302249 0.99954 0.0025724
-0.00283399 0.0101082 0.282548 0.989365 -0.123951 -0.0761077
-0.105719 -0.0550803 0.445052 0.0159684 0.998809 -0.0460985
-0.0574393 -0.0201913 0.791788 -0.833051 0.553188 0.00320086
-0.078701 -0.0582042 0.525554 0.013198 -0.99885 -0.0460993
-0.00790705 -0.0580259 0.419127 0.709503 0.700656 -0.0754087
0.0620935 -0.0362484 0.569118 0.980068 0.196014 -0.0323247
-0.056853 -0.0852956 0.812542 -0.831114 -0.556033 0.00873333
0.0559556 -0.0859376 0.82929 0.829685 -0.556231 0.0472178
0.240523 -0.0577797 0.500861 -0.00506851 0.999974 0.00512583
0.0559239 -0.0176388 0.743519 0.832715 0.553695 0.002568
0.0639174 -0.0366565 0.669812 0.981047 0.193659 0.00658902
0.0362196 -0.0205962 0.913605 0.77606 0.521071 0.355269
-0.0143223 -0.0479336 0.277328 0.115213 -0.992955 -0.0276679
0.00249076 0.073598 0.121397 -0.999871 -0.0155693 0.00384445
-0.325929 -0.0572119 0.478747 -0.0095933 -0.999947 0.00374431
0.0268546 -0.0633818 0.17229 -0.956984 0.279821 -0.076694
-0.0435644 -0.100973 0.592601 -0.557672 -0.829699 -0.0245299
-0.0276506 0.00512541 0.842228 -0.551198 0.828192 0.101381
-0.387682 -0.0550194 0.3487 0.0159684 0.998809 -0.0460985
-0.0107319 0.0128337 0.6048 -0.196886 0.980248 -0.0187108
0.388121 -0.0556133 0.368411 0.00799265 0.999702 0.0230736
0.256254 -0.0532598 0.434902 0.00306219 -0.999729 0.0230761
0.0405602 -0.0517642 0.539474 0.0159684 -0.998809 0.0460985
0.0430243 -0.0517113 0.17425 0.978581 0.191398 -0.0757968
-0.161137 -0.0518003 0.569253 -0.0116037 0.999903 0.00768583
-0.111355 0.0886049 0.0173973 0.0390673 0.99812 -0.0472163
-0.00314892 0.0142723 0.768915 -0.195549 0.980651 0.00920397
0.0617375 -0.0769624 0.638882 0.981224 -0.192488 -0.0121311
-0.284758 -0.0574351 0.477372 -0.00506851 -0.999974 -0.00512583
-0.0141873 -0.114958 0.857248 -0.193203 -0.980037 0.0469112
-0.0454709 -0.100797 0.696667 -0.560027 -0.828474 -0.00069369
0.145654 -0.0516228 0.564561 -0.00637856 -0.999976 0.00255783
0.120091 -0.0522185 0.620245 -0.0229962 -0.999264 -0.0306862
-0.0371734 0.0199825 0.668881 -0.974376 0.198954 0.104921
-0.00107428 -0.054181 0.500788 0.0159684 0.998809 -0.0460985
0.00430973 -0.0161162 0.600962 0.191644 -0.961298 -0.197937
-0.00776181 -0.0508204 0.667485 -0.015589 0.99976 0.0153691
-0.0740958 -0.0590509 0.619593 -0.0114873 -0.999905 0.0076902
0.189684 -0.0521398 0.500514 -0.00483781 -0.999975 0.00512438
0.0264645 0.00873885 0.811854 0.555348 0.831101 0.0293286
0.0209428 -0.0194635 0.685576 0.554692 -0.831564 -0.0286028
-0.131758 -0.0577546 0.500624 0.013198 -0.99885 -0.0460993
-0.364488 -0.0562513 0.401422 0.013198 -0.99885 -0.0460993
0.0186403 0.0844981 0.103867 -0.0294466 0.999553 0.00525196
-0.00599275 -0.00202064 0.34385 -0.192877 0.977731 -0.0827116
0.0119361 0.0133583 0.699356 0.197364 0.980311 0.00620556
0.0540546 -0.0423396 0.356921 0.978633 0.197183 -0.0582755
-0.253009 -0.0526563 0.539472 -0.0405137 0.997295 0.0613323
0.382242 -0.0534768 0.42971 -0.00637856 -0.999976 0.00255783
-0.19076 -0.0582454 0.549059 -0.0095933 -0.999947 0.00374431
0.0949746 0.0871475 0.104237 -0.0637444 0.995988 -0.0628089
-0.0220116 -0.0813722 0.125135 -0.354383 -0.553231 -0.753889
0.125068 0.0883936 0.0345184 -0.0146509 0.999627 0.0230645
-0.019653 -0.054 0.498273 0.0159684 0.998809 -0.0460985
-0.0414651 -0.0962376 0.401294 -0.553536 -0.832363 -0.0277386
-0.298723 -0.0550057 0.379813 0.0159684 0.998809 -0.0460985
-0.016025 -0.0588946 0.558459 0.013198 -0.99885 -0.0460993
0.00664077 -0.0430616 0.227464 -0.133292 -0.990385 -0.0370245
-0.075761 -0.0540072 0.478682 0.0159684 0.998809 -0.0460985
-0.0321943 -0.109824 0.77151 -0.557029 -0.830491 0.0015671
0.0387332 -0.0916698 0.278435 0.825392 -0.562314 -0.0503124
0.0377725 -0.104729 0.588958 0.55908 -0.828703 -0.0260807
0.0574502 -0.0778182 0.493519 0.828896 -0.558559 -0.0307099
0.00254147 -0.0719692 0.251095 -0.133853 0.988499 -0.07038
0.00840715 -0.059499 0.606755 -0.00506851 0.999974 0.00512583
-0.0249068 -0.109979 0.483909 -0.550758 -0.834184 -0.028322
-0.0229414 0.010959 0.715012 -0.197912 0.980134 0.0129699
0.00817268 -0.0416977 0.185465 -0.133292 -0.990385 -0.0370245
0.0515663 -0.011473 0.612361 0.833117 0.552876 -0.0156142
0.324025 -0.0556637 0.392799 0.00799265 0.999702 0.0230736
0.014673 -0.0500521 0.303933 -0.710879 -0.701389 -0.0520103
-0.154588 -0.0533149 0.61366 -0.139073 0.961607 0.236581
0.00119029 0.0501672 0.66757 0.189618 0.980434 0.0528499
-0.152012 0.0903304 0.0454583 0.0145688 0.999891 -0.00256876
0.0223455 0.0108689 0.623641 0.196717 0.980283 -0.0186663
0.342948 -0.0535539 0.496722 -0.0229962 -0.999264 -0.0306862
-0.0380712 -0.0160084 0.343805 -0.546011 0.834216 -0.0771719
-0.0218223 -0.0926871 0.92004 -0.361821 -0.547342 0.754654
0.0144991 -0.0543207 0.858361 -0.949022 -0.20512 0.239341
-0.203996 -0.0544032 0.425682 0.0159684 0.998809 -0.0460985
0.0871691 -0.051229 0.58148 -0.00483781 -0.999975 0.00512438
-0.015521 -0.115907 0.635668 -0.196067 -0.980515 -0.0122008
0.0993358 -0.0586716 0.531892 -0.0059659 0.999979 0.00256043
-0.128652 -0.0515066 0.567597 -0.00637856 0.999976 -0.00255783
-0.387258 -0.0534845 0.439223 -0.00637856 0.999976 -0.00255783
0.0607931 -0.0794137 0.799625 0.833365 -0.552723 -0.00071056
-0.00145808 0.0256676 0.551841 -0.174326 0.903848 -0.390729
-0.0460626 -0.0702066 0.222113 -0.979282 -0.191574 -0.0656156
0.00252384 -0.0185029 0.193799 -0.997295 0.0457302 0.0575361
-0.299719 -0.056884 0.433674 0.013198 -0.99885 -0.0460993
-0.0433187 -0.05897 0.655432 -0.0400529 -0.997313 0.0613334
-0.0277038 -0.0137715 0.294633 -0.546011 0.834216 -0.0771719
0.119156 -0.0566899 0.481162 0.013198 0.99885 0.0460993
-0.0282022 -0.0119728 0.655142 -0.821795 -0.567682 -0.0488915
0.041058 -0.103746 0.685585 0.560273 -0.828308 -0.000689518
-0.000124084 0.00222875 0.380396 -0.192877 0.977731 -0.0827116
-0.0639544 -0.0367416 0.666501 -0.98116 0.193073 0.00694617
-0.3285 -0.053767 0.403342 0.00306219 0.999729 -0.0230761
0.333598 -0.0570784 0.455519 -0.0059659 0.999979 0.00256043
0.0640271 -0.0381743 0.791773 0.980713 0.195452 0.000686974
-0.0589904 -0.0606584 0.432512 -0.979957 -0.195992 -0.0356495
0.18821 -0.0552784 0.42315 0.00799265 0.999702 0.0230736
0.0721497 -0.05505 0.457338 0.0159684 -0.998809 0.0460985
-0.00391206 0.0146976 0.226365 0.9999 -0.0126407 0.00641224
-0.00606793 0.0866831 0.0638873 0.0390673 0.99812 -0.0472163
0.0153471 -0.0317557 0.132002 0.486832 0.758935 -0.43245
0.0487489 -0.0392827 0.279439 0.97695 0.198992 -0.0772663
-0.205832 -0.0573415 0.470467 0.013198 -0.99885 -0.0460993
0.0423428 0.0869828 0.0431166 -0.0146509 0.999627 0.0230645
-0.0213497 -0.0996254 0.171951 -0.561855 -0.826423 -0.0366606
-0.0494985 -0.0512902 0.54767 0.00306219 0.999729 -0.0230761
-0.0564425 -0.0189547 0.607986 -0.833464 0.552369 -0.0150439
0.0278748 0.00295551 0.510424 0.553527 0.831119 -0.0533725
-0.0659653 -0.0479487 0.802552 -0.980832 0.194852 0.00112746
-0.0683709 0.0892276 0.090563 0.0145688 0.999891 -0.00256876
-0.262284 -0.0576872 0.504337 -0.00506851 -0.999974 -0.00512583
0.0282153 -0.112431 0.810726 0.556549 -0.830715 0.0128822
-0.103126 0.0893561 0.100873 -0.0186008 0.997844 0.0629395
0.03421 -0.00380272 0.470886 0.553527 0.831119 -0.0533725
0.0403888 -0.0591295 0.652223 -0.0154706 0.999762 -0.0153691
-0.231423 -0.0523649 0.537877 -0.00948679 0.999947 0.00392914
0.00331899 0.0425233 0.194907 -0.999891 -0.0132635 0.00640798
-0.00624937 -0.107196 0.254728 -0.190193 -0.981285 -0.0301205
0.0474843 -0.0532277 0.505366 0.0159684 -0.998809 0.0460985
0.0582604 -0.0313089 0.86846 0.974754 0.195287 0.108252
-0.0463173 -0.0993324 0.840456 -0.828696 -0.557728 0.046935
-0.00842529 -0.0738799 0.213496 0.132655 0.98868 -0.0700971
0.182416 -0.0520083 0.565445 -0.00948679 -0.999947 -0.00392914
0.0589143 0.0858147 0.0748608 -0.0302249 0.99954 0.0025724
-0.0210123 -0.00301962 0.588811 -0.8047 -0.540199 -0.246257
0.00148548 -0.119148 0.746873 0.197116 -0.98038 0.000477877
0.0532329 -0.0509469 0.604496 -0.00483781 -0.999975 0.00512438
-0.0365777 -0.00673082 0.450404 -0.551099 0.832731 -0.0533735
-0.0238996 0.00425061 0.490007 -0.193229 0.979515 -0.056691
-0.0556067 -0.0477797 0.364799 -0.978728 0.196604 -0.0586344
-0.339321 -0.0570332 0.451206 -0.0059659 -0.999979 -0.00256043
0.381832 -0.0560394 0.389051 0.00799265 0.999702 0.0230736
-0.0423989 -0.0972865 0.451405 -0.553536 -0.832363 -0.0277386
0.00198888 -0.0221951 0.926728 -0.172938 -0.943232 0.283559
-0.425065 -0.0554932 0.462222 -0.0740213 -0.989773 0.121945
-0.00520113 -0.118332 0.682415 -0.196081 -0.980582 -0.00335258
0.0556835 -0.0196718 0.83231 0.826604 0.555323 0.0913425
0.14884 0.0903102 0.0612185 0.0116443 -0.999925 -0.00386595
-0.0655241 -0.0458584 0.719242 -0.9813 0.19247 -0.00216676
0.051956 -0.0621031 0.285774 0.978981 -0.1982 -0.0480989
0.0348795 -0.031862 0.183975 0.833548 0.546666 -0.0797115
-0.00804364 -0.0507644 0.597441 -0.00483781 0.999975 -0.00512438
0.186351 -0.0533798 0.453967 0.0159684 -0.998809 0.0460985
0.000932977 -0.0647021 0.356221 -0.133853 0.988499 -0.07038
0.418744 -0.0564809 0.420545 -0.0059659 0.999979 0.00256043
-0.031999 0.0868684 0.0463489 0.0390673 0.99812 -0.0472163
-0.0223439 0.0256647 0.589119 -0.794848 0.532082 -0.291729
0.0076726 -0.1137 0.476696 0.195362 -0.980367 -0.0267308
-0.0435491 -0.0881438 0.32687 -0.824752 -0.564032 -0.0406353
0.043301 -0.0904308 0.354094 0.8286 -0.558359 -0.0407139
0.0240018 -0.11378 0.602831 0.197389 -0.980249 -0.0122095
0.00901688 0.0114884 0.56945 0.19403 0.979731 -0.0497923
0.0395684 -0.00915325 0.44314 0.553527 0.831119 -0.0533725
0.0595863 -0.081083 0.739749 0.835399 -0.549622 -0.00493163
0.0361938 -0.0828801 0.159621 0.827974 -0.541604 -0.145344
-0.430059 -0.0541244 0.374382 0.00306219 0.999729 -0.0230761
-0.00167753 0.0202304 0.142968 0.996931 0.0531054 0.057512
-0.274455 -0.0544661 0.547876 -0.139073 0.961607 0.236581
-0.0642139 -0.0646606 0.644389 -0.980996 -0.193665 -0.0118956
-0.0097734 0.0842175 0.107558 -0.0294466 -0.999553 -0.00525196
-0.0211704 -0.0930318 0.138365 -0.512337 -0.766225 -0.387828
-0.0506433 -0.0645721 0.272631 -0.977699 -0.199145 -0.0666817
-0.00592081 0.086963 0.160429 -0.117698 0.962858 0.243006
-0.0613983 -0.0782069 0.667217 -0.834423 -0.551118 0.00243128
-0.0339912 -0.106485 0.561781 -0.55356 -0.832399 -0.0261333
-0.0144801 -0.0668456 0.880197 0.797501 0.578549 0.171094
0.00688626 0.00780134 0.863032 0.192331 0.972628 0.130401
0.394048 -0.0556607 0.479691 -0.0740213 0.989773 -0.121945
-0.0229946 -0.0151121 0.248439 -0.545847 0.833966 -0.0809476
0.138028 -0.0585297 0.545837 -0.00506851 0.999974 0.00512583
0.0259879 0.0407878 0.649866 0.541163 0.836324 -0.087778
-0.0574031 -0.0843896 0.742427 -0.832396 -0.554159 -0.00491123
0.233115 -0.0524978 0.549511 -0.0111764 -0.999909 -0.00749126
-0.027998 -0.0120773 0.908772 -0.521101 0.782596 0.340583
0.00975336 -0.115687 0.566341 0.197336 -0.979986 -0.0261779
-0.000875255 0.00549685 0.432908 -0.19454 0.979241 -0.056931
0.0652052 -0.0436132 0.645681 0.980983 0.193647 -0.0131824
0.0389704 -0.0297898 0.240789 0.822929 0.562037 -0.0830848
-0.0521354 -0.0509215 0.608416 -0.00483781 0.999975 -0.00512438
-0.0164879 0.011136 0.812164 -0.19544 0.980106 0.0345852
0.0160331 -0.115197 0.842644 0.19507 -0.980357 0.0291229
-0.0574479 -0.0695348 0.885155 -0.963537 -0.192874 0.185463
-0.061297 -0.0369495 0.540996 -0.980209 0.19542 -0.0316402
-0.366562 -0.0568919 0.460095 -0.0095933 -0.999947 0.00374431
0.287766 -0.0528634 0.451911 -0.00483781 -0.999975 0.00512438
0.023885 -0.0655914 0.9198 -0.798493 0.577139 0.17123
0.2148 -0.0536506 0.438245 0.0159684 -0.998809 0.0460985
0.00413073 -0.112893 0.421206 0.195362 -0.980367 -0.0267308
-0.338838 -0.0548509 0.513088 -0.0705753 0.990065 0.121615
0.0465788 -0.055442 0.210385 0.97695 0.198992 -0.0772663
-0.0494539 -0.00812013 0.77822 -0.831762 0.555116 0.00428309
0.141635 -0.0542036 0.451607 0.0159684 -0.998809 0.0460985
-0.00258603 -0.0269811 0.694385 -0.196248 -0.980294 -0.0226009
-0.0634269 0.0860883 0.0699913 -0.0108314 -0.998824 -0.0472519
0.0623531 -0.0469263 0.515044 0.979728 0.195946 -0.0416981
0.0394967 0.088843 0.116919 0.00936105 -0.999925 -0.00789383
0.283128 -0.0559239 0.417621 0.013198 0.99885 0.0460993
-0.0119454 -0.023979 0.146011 -0.189427 0.948199 -0.255024
-0.0601068 -0.0413688 0.869875 -0.975091 0.193651 0.108157
-0.131968 -0.058569 0.547503 -0.00506851 -0.999974 -0.00512583
0.019582 -0.115489 0.700063 0.198568 -0.980081 -0.00334877
0.0608013 -0.0325981 0.552073 0.980068 0.196014 -0.0323247
0.0640877 -0.0653566 0.689602 0.981404 -0.191892 0.00479558
0.029878 0.00881474 0.707765 0.898689 0.169646 0.404447
-0.100276 -0.057432 0.502647 0.013198 -0.99885 -0.0460993
-0.0212758 0.0115578 0.685547 -0.197307 0.980322 0.00620678
-0.0155328 -0.114195 0.552676 -0.193716 -0.980708 -0.0261873
0.0150108 -0.0159124 0.617174 0.548391 -0.82472 -0.138216
0.0602466 -0.043826 0.480118 0.979728 0.195946 -0.0416981
-0.0600142 -0.0687954 0.50539 -0.979957 -0.195992 -0.0356495
-0.00323901 -0.109451 0.307142 -0.190178 -0.981212 -0.0324724
-0.00797842 -0.114289 0.50057 -0.193715 -0.980701 -0.0264588
0.0624155 -0.0301201 0.716628 0.981191 0.193036 -0.00136021
0.0590927 -0.0225957 0.775027 0.831455 0.555583 0.00321471
-0.0353686 0.0199881 0.636551 -0.972752 0.19472 -0.125845
-0.271243 -0.0553178 0.396097 0.00799265 -0.999702 -0.0230736
0.0554122 -0.0172748 0.807392 0.831455 0.555583 0.00321471
-0.0216007 -0.0482318 0.183704 0.711394 -0.700802 -0.0528745
-0.102607 -0.0518853 0.626284 -0.0405137 0.997295 0.0613323
0.0121468 -0.109052 0.899057 0.186911 -0.935447 0.300006
-0.175996 -0.0562454 0.455257 0.013198 -0.99885 -0.0460993
-0.429442 -0.0563699 0.402109 -0.0059659 -0.999979 -0.00256043
0.00462319 -0.0188451 0.289047 -0.999381 -0.0338325 -0.00961456
-0.149082 -0.0528665 0.477999 0.0159684 0.998809 -0.0460985
0.21204 -0.0522642 0.497352 -0.00483781 -0.999975 0.00512438
0.258983 -0.0525601 0.520994 -0.00948679 -0.999947 -0.00392914
-0.098468 -0.0588135 0.56208 -0.00506851 -0.999974 -0.00512583
-0.207599 -0.0525023 0.566964 -0.0405137 0.997295 0.0613323
-0.0379438 -0.0434393 0.156733 -0.813717 0.54194 -0.210155
0.0200319 -0.00342223 0.35979 0.192247 0.977884 -0.0823599
-0.051797 -0.0408288 0.324515 -0.978728 0.196604 -0.0586344
-0.0255643 -0.0521316 0.536708 0.0159684 0.998809 -0.0460985
-0.0256009 -0.0978277 0.19658 -0.561855 -0.826423 -0.0366606
0.0114562 -0.058319 0.382902 -0.956984 0.279821 -0.076694
-0.0155 -0.0698999 0.900291 0.518609 0.842966 0.143014
-0.267062 -0.0533524 0.429456 0.00306219 0.999729 -0.0230761
0.0291384 -0.0583585 0.155478 -0.957205 -0.281566 -0.0669232
-0.139064 -0.0550508 0.434142 0.0159684 0.998809 -0.0460985
0.127076 -0.0586461 0.59309 -0.0114873 0.999905 -0.0076902
-0.0129312 -0.0771389 0.152149 0.410891 0.908839 -0.0719683
0.32718 -0.0568658 0.425417 0.013198 0.99885 0.0460993
-0.0326957 0.00170094 0.544072 -0.554253 0.831157 -0.044516
-0.0513221 -0.0253307 0.88472 -0.810544 0.540799 0.224842
0.018984 0.0372393 0.694491 0.514491 0.762215 0.392845
0.137458 -0.0578524 0.50111 0.013198 0.99885 0.0460993
0.00290691 0.0323003 0.245457 -0.989366 -0.123949 -0.0761064
-0.0352805 -0.0975973 0.899868 -0.474312 -0.711476 0.518489
0.0435473 -0.00180994 0.720189 0.557495 0.830137 0.00850495
-0.375933 -0.054218 0.377508 0.00306219 0.999729 -0.0230761
-0.0550074 -0.0295114 0.44136 -0.828039 0.558617 -0.0479502
0.427303 -0.0559173 0.368009 0.00799265 0.999702 0.0230736
-0.0219234 -9.74904e-05 0.408144 -0.193229 0.979515 -0.056691
-0.0459652 -0.0474617 0.222232 -0.977157 0.198444 -0.0760478
-0.0574406 -0.019815 0.730678 -0.835043 0.550179 0.0025217
0.013953 -0.0514094 0.556378 0.0159684 -0.998809 0.0460985
-0.00655045 0.0139022 0.741169 -0.196431 0.980421 0.0137748
0.0116137 -0.108958 0.342107 0.193974 -0.980469 -0.032466
-0.0134549 -0.00937072 0.273885 -0.190922 0.978249 -0.0811003
0.0541523 -0.0317732 0.400066 0.829611 0.556281 -0.047935
-0.0498597 -0.0541928 0.483631 0.0159684 0.998809 -0.0460985
-0.0533119 -0.0591468 0.638094 -0.0154706 -0.999762 0.0153691
0.0163778 -0.0132806 0.725306 0.665138 -0.423413 0.615072
-0.0521645 -0.0111452 0.661146 -0.83418 0.55144 0.00760142
-0.0228125 -0.114035 0.83703 -0.193333 -0.980696 0.0292804
0.0534965 -0.0170694 0.567029 0.832622 0.552547 -0.0378541
-0.00465625 -0.106407 0.21766 -0.197919 -0.979793 -0.0288679
0.0441877 -0.0789763 0.228517 0.835639 -0.546617 -0.0540076
-0.122178 -0.0585118 0.522717 -0.0059659 -0.999979 -0.00256043
0.238459 -0.0527989 0.457233 0.00306219 -0.999729 0.0230761
0.0616225 -0.0716823 0.577209 0.980824 -0.192928 -0.0276174
0.0125007 -0.10481 0.215115 0.199585 -0.979412 -0.0303007
-0.132006 0.0900899 0.0686853 0.00936105 0.999925 0.00789383
-0.0464075 0.0852914 0.112856 -0.035781 -0.999329 0.007871
-0.0282327 -0.0207045 0.226386 -0.561222 0.823399 -0.0839261
0.0537128 -0.0900457 0.76594 0.833365 -0.552723 -0.00071056
0.0972113 0.0891416 0.0413316 0.0240051 -0.999446 0.0230635
0.0295932 -0.0419899 0.928779 -0.949022 -0.20512 0.239341
0.0900052 -0.0572017 0.651101 -0.137434 0.961783 -0.236825
0.032065 -0.00306769 0.638159 0.823891 -0.553356 -0.122476
0.0368553 -0.105913 0.833985 0.553997 -0.831754 0.0356601
-0.0597004 -0.0458269 0.458218 -0.979562 0.196771 -0.041697
0.059259 -0.0567947 0.418861 0.979914 -0.19621 -0.0356371
-0.178928 -0.0520436 0.509141 -0.00483781 0.999975 -0.00512438
0.12883 0.0900305 0.0601716 0.0145688 -0.999891 0.00256876
0.0225566 0.0113763 0.652514 0.196717 0.980283 -0.0186663
-0.211043 -0.0522699 0.495305 -0.00483781 0.999975 -0.00512438
-0.00850839 -0.0687569 0.283251 0.410891 0.908839 -0.0719683
0.042359 -0.0119026 0.883574 0.536999 0.807078 0.245472
0.00216636 0.0540899 0.220815 -0.989515 -0.122745 -0.0761192
-0.0210166 -0.106313 0.318866 -0.546408 -0.836774 -0.0353117
0.357039 -0.0568984 0.439824 -0.0059659 0.999979 0.00256043
-0.0620952 -0.0721027 0.597435 -0.980614 -0.194086 -0.0269605
0.0102095 -0.0113508 0.242903 0.190315 0.978271 -0.0822595
-0.0197 0.00409943 0.47308 -0.193229 0.979515 -0.056691
0.0378286 -0.10607 0.763236 0.558522 -0.82949 0.000497431
0.0306555 -0.0167862 0.282885 0.545486 0.834463 -0.0782076
0.18269 -0.0538976 0.599509 -0.139073 -0.961607 -0.236581
-0.0114354 -0.0233185 0.671038 -0.188663 -0.97809 -0.0880161
-0.0407538 -0.0637761 0.922929 -0.661936 -0.1332 0.737631
-0.277198 -0.0574919 0.518889 -0.0115867 -0.999902 0.00787654
0.0701506 -0.0589435 0.559443 -0.00506851 0.999974 0.00512583
-0.022749 0.0407571 0.676979 -0.539878 0.829381 0.143729
-0.398449 -0.0565943 0.417544 -0.0059659 -0.999979 -0.00256043
0.0182101 -0.0496616 0.250321 -0.710879 -0.701389 -0.0520103
0.115465 -0.0568293 0.637839 -0.137434 0.961783 -0.236825
0.142251 0.0893096 0.0067303 0.0390673 -0.99812 0.0472163
0.0349047 0.0029718 0.593804 0.557767 0.828804 -0.0444927
-0.0142074 -0.109382 0.369932 -0.192189 -0.980833 -0.032088
0.258669 -0.0544137 0.406515 0.0159684 -0.998809 0.0460985
-0.0477052 -0.0116291 0.853642 -0.825881 0.551032 0.119516
0.0420871 -0.103204 0.747026 0.558522 -0.82949 -0.000790806
0.0360169 -0.00869718 0.413639 0.550634 0.832996 -0.054036
0.063717 -0.0377867 0.620717 0.980887 0.194114 -0.0134074
-0.01678 -0.116072 0.755035 -0.195351 -0.980731 0.00231759
0.0238457 -0.108038 0.405676 0.55507 -0.83132 -0.0283544
0.0406932 -0.0195285 0.336277 0.823784 0.562621 -0.0695508
-0.0622233 -0.0288876 0.763632 -0.980832 0.194852 0.00112746
-0.0471742 -0.0742264 0.250439 -0.979282 -0.191574 -0.0656156
0.30438 -0.0551116 0.375684 0.00799265 0.999702 0.0230736
0.0105524 -0.0791441 0.135087 -0.133853 0.988499 -0.07038
0.0304666 0.00655789 0.762034 0.557499 0.830144 0.0074368
0.340987 -0.0558512 0.395044 0.00799265 0.999702 0.0230736
-0.00276229 0.0656425 0.147504 0.9999 -0.0126407 0.00641224
0.0552618 -0.0283139 0.459414 0.829611 0.556281 -0.047935
0.00188382 0.0472802 0.130421 -0.997295 0.0457302 0.0575361
-0.0504919 -0.09484 0.789636 -0.832406 -0.554166 0.000332324
-0.239105 -0.053706 0.428624 0.0159684 0.998809 -0.0460985
0.315592 -0.0529789 0.490916 -0.00948679 -0.999947 -0.00392914
0.202614 -0.0521332 0.54994 -0.0116037 -0.999903 -0.00768583
-0.156781 -0.0582916 0.589569 -0.0154706 -0.999762 0.0153691
-0.0115714 -0.0163728 0.185811 -0.198451 0.976644 -0.0823682
0.000230266 -0.052767 0.702171 -0.139073 -0.961607 -0.236581
-0.0604344 -0.0791337 0.630509 -0.833529 -0.552359 -0.0113952
-0.02819 -0.0584756 0.169212 0.957405 -0.280786 -0.0673392
-0.235582 -0.0577335 0.482972 -0.0059659 -0.999979 -0.00256043
-0.00189614 -0.00163142 0.543163 -0.180834 -0.943707 -0.276977
-0.00898586 -0.0595666 0.649797 -0.0114873 -0.999905 0.0076902
0.00454269 -0.0936339 0.715482 0 -1 0
0.0540569 -0.0680552 0.352832 0.97938 -0.196103 -0.048555
0.0135891 0.00606365 0.485916 0.193959 0.97937 -0.0566896
-0.194644 -0.0559832 0.444239 0.013198 -0.99885 -0.0460993
0.0333364 0.00551663 0.675705 0.559247 0.828978 0.00617084
0.0161387 -0.0593001 0.665535 -0.0154706 0.999762 -0.0153691
-0.0137498 -0.0186013 0.628301 -0.547288 -0.825462 -0.138162
-0.0651598 -0.0601206 0.82431 -0.978622 -0.196171 0.0617747
0.0465521 -0.0993987 0.614945 0.559232 -0.828929 -0.0116814
0.0534408 -0.0822537 0.465975 0.828896 -0.558559 -0.0307099
0.0351782 -0.0508743 0.601602 -0.00483781 -0.999975 0.00512438
-0.00162496 0.119331 0.114224 0.999289 -0.0359106 -0.0115267
-0.289094 -0.0573495 0.457687 -0.0059659 -0.999979 -0.00256043
0.307588 -0.0559045 0.408925 0.00799265 0.999702 0.0230736
-0.0079766 -0.047042 0.317521 0.412405 -0.910017 -0.0423214
0.0221026 -0.0540267 0.496845 0.0159684 -0.998809 0.0460985
-0.00518165 -0.0506014 0.626548 -0.00483781 0.999975 -0.00512438
0.0498984 -0.089778 0.875207 0.830014 -0.553024 0.0723884
0.0153821 0.0863988 0.0513012 -0.0146509 0.999627 0.0230645
0.238796 -0.0524012 0.530175 -0.0116037 -0.999903 -0.00768583
-0.0445958 -0.00267673 0.623299 -0.558648 0.829227 -0.0171477
0.00525531 -0.0653737 0.836463 -0.520221 0.841954 0.143121
0.0639805 -0.0540979 0.857169 0.976537 -0.194466 0.0925103
-0.0358686 -0.106807 0.62801 -0.557798 -0.829887 -0.0122367
-0.0480847 -0.035184 0.297496 -0.82419 0.562153 -0.0685152
0.0752992 0.0889322 0.055067 0.0240051 -0.999446 0.0230635
0.00602361 0.0845248 0.0898814 -0.0108314 0.998824 0.0472519
0.0160889 -0.105656 0.266474 0.191955 -0.980977 -0.0289289
0.334434 -0.0531043 0.47733 -0.00948679 -0.999947 -0.00392914
0.0506282 -0.0590156 0.552761 -0.0059659 0.999979 0.00256043
0.000843122 -0.0770977 0.914679 -0.179845 0.975347 0.127886
-0.0300696 0.00473245 0.567122 -0.558139 0.828471 -0.0460151
-0.0459565 -0.0115096 0.493646 -0.82991 0.555784 -0.0485206
-0.0230692 -0.0443913 0.900842 0.949164 -0.204511 0.239297
0.00288335 0.0647024 0.173198 -0.999559 -0.0291279 -0.00576581
-0.0401982 -0.0813864 0.192497 -0.824267 -0.5637 -0.0531637
-0.138694 -0.0538397 0.46051 0.0159684 0.998809 -0.0460985
0.025756 -0.0274657 0.159883 0.546683 0.803003 -0.237328
0.368325 -0.0559703 0.492791 -0.0740213 0.989773 -0.121945
0.1659 -0.0584252 0.563816 -0.0114873 0.999905 -0.0076902
0.0189065 -0.00780848 0.912549 0.181954 0.924193 0.335799
0.145246 -0.0544946 0.623947 -0.139073 -0.961607 -0.236581
-0.0739682 -0.0512544 0.564064 -0.00483781 0.999975 -0.00512438
-0.0475251 -0.0591763 0.582475 -0.00506851 -0.999974 -0.00512583
0.0405589 -0.0172569 0.353062 0.823784 0.562621 -0.0695508
0.0641775 -0.0388565 0.74078 0.980898 0.19451 -0.00215151
0.0924626 -0.0576921 0.510519 0.013198 0.99885 0.0460993
0.00356332 0.0217005 0.189933 -0.999891 -0.0132635 0.00640798
-0.182378 -0.0582232 0.56547 -0.0114873 -0.999905 0.0076902
0.0565877 -0.0410721 0.889311 0.929955 0.186152 0.317066
-0.0894319 0.0885242 0.0338316 0.0390673 0.99812 -0.0472163
0.0545957 -0.0854156 0.855046 0.828434 -0.555114 0.0744698
0.292276 -0.0574337 0.48455 -0.00506851 0.999974 0.00512583
0.120736 -0.0586462 0.551462 -0.00506851 0.999974 0.00512583
-0.0277669 0.0393058 0.650917 -0.819217 0.564434 -0.101481
0.0533737 -0.0902021 0.703667 0.835399 -0.549622 -0.00493163
0.0117445 -0.110006 0.374537 0.193974 -0.980469 -0.032466
-0.00878933 -0.117594 0.784612 -0.195351 -0.980731 0.00231759
0.0322793 -0.104853 0.477393 0.55507 -0.83132 -0.0283544
-0.130799 0.0884874 0.0340958 -0.0146509 -0.999627 -0.0230645
0.406864 -0.0562599 0.389476 0.013198 0.99885 0.0460993
0.0556004 -0.082023 0.519501 0.830828 -0.555644 -0.0313878
0.00919367 -0.0769301 0.168767 -0.133853 0.988499 -0.07038
-0.32387 -0.053203 0.428391 0.00306219 0.999729 -0.0230761
-0.0956325 -0.0517686 0.52082 0.00306219 0.999729 -0.0230761
0.0661412 -0.0558725 0.803678 0.980946 -0.194278 -0.00024975
0.0546483 -0.0785614 0.43141 0.828896 -0.558559 -0.0307099
-0.00871618 -0.0441972 0.249145 0.412405 -0.910017 -0.0423214
0.0432397 -0.0593545 0.626218 -0.0114873 0.999905 -0.0076902
0.402093 -0.0566083 0.444807 -0.0095933 0.999947 -0.00374431
-0.0194836 -0.0636907 0.257572 0.709503 0.700656 -0.0754087
-0.0919103 -0.0512278 0.586192 -0.00483781 0.999975 -0.00512438
-0.0588386 -0.0292665 0.515339 -0.979837 0.195346 -0.0419384
0.0239344 -0.00220588 0.391665 0.549795 0.831728 -0.0771558
-0.0238435 0.00573941 0.515539 -0.193229 0.979515 -0.056691
-0.0249513 -0.107466 0.410748 -0.550758 -0.834184 -0.028322
0.0592631 -0.0813515 0.67818 0.834534 -0.550951 0.00246704
0.00178234 -0.0503298 0.439374 -0.133292 -0.990385 -0.0370245
0.0496096 0.0854593 0.0945606 -0.0294466 0.999553 0.00525196
0.0157043 -0.111199 0.443312 0.194009 -0.980642 -0.0264744
0.00860335 -0.0513582 0.404506 -0.710879 -0.701389 -0.0520103
0.0727663 -0.0591351 0.610631 -0.0114873 0.999905 -0.0076902
-0.00684287 0.00936954 0.851402 -0.19288 0.972415 0.131174
0.0175452 0.0405303 0.617228 0.542349 0.816836 -0.196561
0.167974 -0.0581949 0.505665 -0.0059659 0.999979 0.00256043
-0.057354 -0.0798985 0.528418 -0.829967 -0.557202 -0.0260862
0.0753309 -0.0582899 0.528377 0.013198 0.99885 0.0460993
-0.147712 -0.0581728 0.505118 0.013198 -0.99885 -0.0460993
-0.0629054 -0.0712978 0.71932 -0.981185 -0.193027 -0.00396738
-0.00259709 -0.118237 0.615904 -0.19561 -0.980603 -0.012417
-0.0954867 0.0896032 0.0829849 0.0145688 0.999891 -0.00256876
0.0192663 -0.101151 0.173598 0.563296 -0.825283 -0.0400669
-0.0584225 -0.0790468 0.545089 -0.832659 -0.553242 -0.0245397
0.0244746 0.00130458 0.450205 0.550634 0.832996 -0.054036
0.0264506 -0.113675 0.787444 0.556594 -0.830783 0.00156764
-0.0651799 -0.0439022 0.783638 -0.981015 0.193931 0.00068982
-0.0436903 -0.0529402 0.179554 -0.97859 0.190806 -0.0771643
0.154061 -0.0518602 0.521461 -0.00483781 -0.999975 0.00512438
0.0227587 -0.11254 0.545336 0.195368 -0.980398 -0.0255166
-0.00782634 0.0244348 0.723508 -0.16794 0.804504 0.56971
0.075019 0.0862541 0.0857668 -0.0294466 0.999553 0.00525196
-0.0765773 -0.0528745 0.502941 0.0159684 0.998809 -0.0460985
-0.0447027 -0.0524355 0.673781 -0.0401729 0.997295 0.061549
-0.0547988 -0.0758541 0.401632 -0.97967 -0.197378 -0.0358873
0.191334 -0.0581175 0.518136 -0.00506851 0.999974 0.00512583
-0.322371 -0.055212 0.373802 0.00799265 -0.999702 -0.0230736
-0.0290696 -0.0545769 0.14045 0.957405 -0.280786 -0.0673392
0.0111943 -0.0295056 0.909379 -0.503983 -0.817909 0.277536
0.027794 -0.0529394 0.518432 0.0159684 -0.998809 0.0460985
0.0328179 -0.0939635 0.21608 0.563296 -0.825283 -0.0400669
0.0360065 -0.00117668 0.531311 0.553727 0.83142 -0.0461232
0.0508354 -0.0296241 0.375806 0.826717 0.558437 -0.0684658
0.0162532 0.0115152 0.783259 0.194989 0.980766 0.00878614
-0.0403873 -0.00157845 0.827771 -0.550996 0.828298 0.101612
0.373401 -0.056854 0.451664 -0.00506851 0.999974 0.00512583
0.0172813 -0.0581816 0.685386 -0.0395926 0.997332 -0.0613352
0.00108823 -0.0697928 0.736478 0 0 1
0.00500019 0.0185559 0.537076 0.505332 0.781791 -0.365298
0.0970988 -0.0589362 0.600151 -0.0114873 0.999905 -0.0076902
-0.0292051 -0.0593687 0.601908 -0.00506851 -0.999974 -0.00512583
0.00134008 0.116584 0.0636269 -0.998892 0.0319316 0.0345813
-0.0498687 -0.0751807 0.29736 -0.978727 -0.199355 -0.0484923
0.0401481 -0.0875868 0.256013 0.825392 -0.562314 -0.0503124
0.0655363 -0.0500757 0.590932 0.980485 0.194034 -0.0316318
-0.00219708 0.0951665 0.125873 0.999855 -0.0166072 0.0038441
-0.0292965 0.00723945 0.775781 -0.556106 0.831078 0.00744548
0.187968 -0.0575965 0.481106 0.013198 0.99885 0.0460993
-0.0148445 -0.0584053 0.341408 0.956536 0.281456 -0.0763025
-0.131992 -0.0584869 0.601819 -0.0154706 -0.999762 0.0153691
0.26191 -0.0576767 0.501915 -0.00506851 0.999974 0.00512583
-0.0459149 -0.100529 0.713342 -0.557028 -0.830489 -0.00270742
0.0168966 -0.0212724 0.707141 0.562295 -0.815728 0.135693
0.0152783 -0.00812708 0.292899 0.190307 0.978231 -0.0827473
0.0519986 -0.0799653 0.387578 0.8286 -0.558359 -0.0407139
0.0601032 -0.0395838 0.496684 0.979728 0.195946 -0.0416981
-0.0358112 -0.000404616 0.67385 -0.9782 -0.200361 0.0545924
-0.0182394 -0.111387 0.468133 -0.193715 -0.980701 -0.0264588
0.00456775 -0.0180928 0.264296 -0.999891 -0.0132635 0.00640798
-0.0615525 -0.0257126 0.687684 -0.83418 0.55144 0.00760142
0.00978805 -0.0508553 0.581352 -0.00483781 -0.999975 0.00512438
-0.047163 -0.0997734 0.810214 -0.552867 -0.833167 0.0130861
0.00282832 0.0226905 0.262842 -0.989515 -0.122745 -0.0761192
-0.0546225 -0.0196705 0.555066 -0.830292 0.55604 -0.0378713
-0.00106167 -0.00545185 0.156007 0.996931 0.0531054 0.057512
-0.0194861 -0.072887 0.929684 -0.179978 -0.292543 0.939163
-0.0241098 -0.0510176 0.663757 -0.0111764 0.999909 0.00749126
0.0500409 -0.0750589 0.300115 0.97938 -0.196103 -0.048555
-0.0209849 -0.0199829 0.925586 -0.281359 0.425205 0.860254
-0.196605 -0.0520312 0.531959 -0.00637856 0.999976 -0.00255783
-0.0327672 -0.0510718 0.560795 -0.00483781 0.999975 -0.00512438
-0.048289 -0.00866374 0.576081 -0.832912 0.552002 -0.0393852
-0.319736 -0.0559453 0.522488 -0.0740213 -0.989773 0.121945
-0.0799184 -0.0513731 0.546511 -0.00483781 0.999975 -0.00512438
-0.0638977 -0.0389438 0.617449 -0.981003 0.193543 -0.013174
0.00390109 -0.00689166 0.208443 -0.997295 0.0457302 0.0575361
-0.346434 -0.0557476 0.388672 0.00799265 -0.999702 -0.0230736
0.430569 -0.0563731 0.43466 -0.0095933 0.999947 -0.00374431
0.065258 -0.0598817 0.67057 0.981284 -0.192499 0.0051501
0.168285 -0.0582536 0.580458 -0.0154706 0.999762 -0.0153691
0.0233015 -0.114758 0.739574 0.198569 -0.980087 -0.000309001
-0.30884 -0.0563311 0.419083 0.013198 -0.99885 -0.0460993
-0.0306769 -0.00385195 0.632835 -0.819919 -0.552718 -0.149112
0.0460033 -0.0591813 0.58196 -0.00506851 0.999974 0.00512583
-0.3888 -0.0566734 0.458624 -0.0115867 -0.999902 0.00787654
0.0263755 -0.00477212 0.893782 0.527187 0.792331 0.307058
0.242311 -0.0550189 0.399069 0.0159684 -0.998809 0.0460985
0.297452 -0.0564708 0.531749 -0.0740213 0.989773 -0.121945
0.0373339 -0.104346 0.567264 0.555127 -0.831405 -0.0244949
-0.00702243 -0.0042079 0.320395 -0.192877 0.977731 -0.0827116
0.399684 -0.0547421 0.35165 0.00306219 -0.999729 0.0230761
-0.00368482 -0.045161 0.292991 0.133696 -0.99032 -0.0373014
0.0383896 -0.0992098 0.430142 0.552193 -0.833256 -0.0276953
-0.00213903 -0.0591895 0.568822 0.013198 -0.99885 -0.0460993
-0.00174891 0.0513061 0.115511 0.996931 0.0531054 0.057512
0.00249737 0.0140025 0.809786 0.194864 0.980137 0.0368725
-0.0214445 0.0107231 0.756365 -0.196442 0.980476 0.0087839
0.0545093 -0.0502947 0.337639 0.978633 0.197183 -0.0582755
0.0115838 -0.102113 0.158109 0.194796 -0.971795 -0.132929
-0.0170924 -0.047484 0.875522 0.781518 -0.565509 0.263494
0.115536 0.0875285 0.0703944 -0.0294466 0.999553 0.00525196
0.0156517 -0.00449528 0.336825 0.192247 0.977884 -0.0823599
-0.0501001 0.0875972 0.136518 -0.117698 0.962858 0.243006
-0.0263433 0.0103319 0.655908 -0.559704 0.828502 -0.0177393
-0.00174528 0.0704548 0.100332 0.999211 0.0195131 0.034587
-0.0581257 -0.0466844 0.887556 -0.95976 0.191512 0.205387
-0.138297 0.0889853 0.0172771 -0.0146509 -0.999627 -0.0230645
-0.0776678 -0.0582782 0.644249 -0.0400529 -0.997313 0.0613334
-0.0118549 -0.0553774 0.483444 0.013198 -0.99885 -0.0460993
-0.16685 -0.0578657 0.492984 0.013198 -0.99885 -0.0460993
-0.0960502 -0.0558155 0.46883 0.013198 -0.99885 -0.0460993
0.063766 -0.0366811 0.758229 0.9809 0.19451 0.00112548
0.00368609 0.0201161 0.205809 -0.999891 -0.0132635 0.00640798
0.377421 -0.0567035 0.411197 -0.0059659 0.999979 0.00256043
0.0503407 -0.0758056 0.902587 0.72866 -0.486127 0.482426
-0.0535023 -0.0903314 0.767653 -0.832406 -0.554166 0.000332324
-0.0295685 -0.107949 0.515326 -0.553536 -0.832363 -0.0277386
-0.0509115 -0.0746889 0.316386 -0.978727 -0.199355 -0.0484923
-0.294882 -0.0540567 0.401705 0.0159684 0.998809 -0.0460985
0.00922621 0.0132544 0.610987 0.196229 0.980376 -0.0188974
0.0181239 -0.059415 0.876659 -0.956678 0.205477 0.20627
-0.122425 -0.0521348 0.61725 -0.0405137 0.997295 0.0613323
-0.00875366 -0.0590139 0.401982 0.709503 0.700656 -0.0754087
0.0318649 -0.0999678 0.338135 0.547902 -0.835838 -0.0343141
0.0334782 -0.00510262 0.664644 0.824009 -0.564485 -0.04864
0.0330699 -0.0974726 0.296597 0.547902 -0.835838 -0.0343141
0.0133179 -0.0550585 0.477533 0.0159684 -0.998809 0.0460985
-0.000919107 -0.0184145 0.165505 0.996931 0.0531054 0.057512
0.0462957 -0.0467204 0.229089 0.978581 0.191398 -0.0757968
-0.25447 -0.055381 0.563053 -0.137434 -0.961783 0.236825
-0.0566182 -0.0769322 0.45723 -0.97967 -0.197378 -0.0358873
-0.0218289 0.0109741 0.624146 -0.196886 0.980248 -0.0187108
0.0271336 -0.0227715 0.200002 0.560932 0.823933 -0.0805629
0.00319392 0.041271 0.172799 -0.999891 -0.0132635 0.00640798
0.00941035 -0.0724513 0.230422 -0.412173 0.9082 -0.0727085
-0.224588 -0.0525321 0.470633 0.00306219 0.999729 -0.0230761
-0.0455943 -0.0165108 0.430164 -0.82991 0.555784 -0.0485206
-0.0436293 -0.00258356 0.599874 -0.558139 0.828471 -0.0460151
-0.0226906 -0.0683388 0.18421 0.709503 0.700656 -0.0754087
0.0172514 -0.0716015 0.196588 -0.412173 0.9082 -0.0727085
0.369267 -0.0549972 0.355561 0.0159684 -0.998809 0.0460985
-0.0731944 0.088711 0.0512158 0.0390673 0.99812 -0.0472163
-0.313002 -0.0572267 0.499887 -0.0115867 -0.999902 0.00787654
0.00826429 -0.0665019 0.311233 -0.412173 0.9082 -0.0727085
-0.0139916 -0.116492 0.65842 -0.196081 -0.980582 -0.00335258
0.116353 0.0889834 0.0992045 -0.0460848 -0.991458 -0.122016
0.00287537 -0.108831 0.285947 0.191937 -0.980884 -0.0320576
0.034513 0.00136409 0.835663 0.550474 0.828672 0.101396
0.00086398 0.0680979 0.208156 -0.877625 -0.396058 -0.270023
-0.0694849 -0.0571428 0.663249 -0.137434 -0.961783 0.236825
-0.0314378 0.0177664 0.699903 -0.934832 0.18054 0.30577
0.00709259 -0.0596338 0.643899 -0.0114873 0.999905 -0.0076902
0.000106592 -0.107821 0.233841 0.191955 -0.980977 -0.0289289
0.16949 -0.0530822 0.466256 0.0159684 -0.998809 0.0460985
0.219431 -0.0574873 0.564534 -0.0400529 0.997313 -0.0613334
0.16984 -0.0557081 0.445379 0.013198 0.99885 0.0460993
0.115415 -0.0577084 0.504302 0.013198 0.99885 0.0460993
-0.2663 -0.0526525 0.472815 -0.00483781 0.999975 -0.00512438
0.0255384 0.00094835 0.878279 0.53817 0.805163 0.249171
-0.0600338 -0.0425747 0.481274 -0.979837 0.195346 -0.0419384
0.008385 0.0140131 0.64164 0.196717 0.980283 -0.0186663
-0.0510443 -0.0338331 0.344182 -0.82419 0.562153 -0.0685152
-0.050436 -0.0947452 0.673298 -0.833582 -0.552394 0.00154184
0.359912 -0.054113 0.384184 0.00306219 -0.999729 0.0230761
0.00509548 0.00538126 0.880247 0.188283 0.946972 0.260372
-0.350357 -0.0569919 0.474651 -0.0114873 -0.999905 0.0076902
0.0596982 -0.0229846 0.694716 0.834713 0.550633 0.00759966
-0.0147053 0.0257598 0.56871 -0.793051 0.529588 -0.301007
-0.409819 -0.0543773 0.366111 0.00306219 0.999729 -0.0230761
-0.00901479 0.0116027 0.827979 -0.193362 0.97528 0.106962
-0.0304785 0.000880823 0.858559 -0.551794 0.824322 0.126558
-0.00174135 -0.116586 0.874493 -0.193203 -0.980037 0.0469112
-0.284916 -0.0526912 0.49416 -0.00637856 0.999976 -0.00255783
-0.0523822 -0.0305308 0.387255 -0.826996 0.557913 -0.0693627
-0.17794 -0.0519135 0.53359 -0.00483781 0.999975 -0.00512438
0.0148372 0.012077 0.753093 0.195882 0.980584 0.00920335
0.0397666 0.00030737 0.609873 0.558232 0.829496 -0.0177084
-0.0642672 -0.057705 0.846089 -0.978635 -0.196072 0.0618785
0.0996852 -0.0514516 0.615307 -0.015589 -0.99976 -0.0153691
0.000103022 0.000585323 0.135005 -0.998892 0.0319316 0.0345813
0.272842 -0.0531654 0.536605 -0.0229962 -0.999264 -0.0306862
0.137662 -0.0584236 0.524329 -0.0059659 0.999979 0.00256043
0.0566137 -0.0549141 0.465664 0.0159684 -0.998809 0.0460985
0.00181873 -0.0390285 0.136939 -0.133292 -0.990385 -0.0370245
0.0237652 -0.0512459 0.195759 -0.710879 -0.701389 -0.0520103
0.32867 -0.0552975 0.375326 0.00799265 0.999702 0.0230736
0.0485375 -0.0906697 0.485616 0.830828 -0.555644 -0.0313878
-0.0130441 0.0111278 0.578616 -0.196676 0.979204 -0.0497692
-0.0632187 -0.0607027 0.556232 -0.980614 -0.194086 -0.0269605
-0.106228 0.0879149 0.0411909 -0.0108314 -0.998824 -0.0472519
-0.346332 -0.0569212 0.423791 -0.0059659 -0.999979 -0.00256043
0.0618606 -0.0714936 0.840684 0.978866 -0.19493 0.0618394
0.121363 -0.0587291 0.568247 -0.00506851 0.999974 0.00512583
-0.000648148 -0.0437519 0.266464 0.133696 -0.99032 -0.0373014
0.398103 -0.0565672 0.406173 -0.0059659 0.999979 0.00256043
-0.341854 -0.0532609 0.489131 -0.0111764 0.999909 0.00749126
0.0228114 0.0155737 0.578688 0.942062 0.187854 -0.277901
0.059828 -0.0294131 0.850924 0.974754 0.195287 0.108252
0.007738 -0.0107311 0.580656 0.190855 -0.955163 -0.226358
-0.0583702 0.0856828 0.101149 -0.0294466 -0.999553 -0.00525196
-0.120999 -0.0542938 0.456802 0.0159684 0.998809 -0.0460985
-0.391193 -0.0556533 0.369082 0.00799265 -0.999702 -0.0230736
-0.255308 -0.0542137 0.412013 0.0159684 0.998809 -0.0460985
0.138271 -0.0516285 0.581416 -0.0116037 -0.999903 -0.00768583
0.0361772 -0.044976 0.145842 0.812509 0.541817 -0.215091
-0.0257093 -0.113378 0.610588 -0.557798 -0.829887 -0.0122367
-0.0313941 -0.10121 0.359296 -0.550653 -0.834025 -0.0344071
-0.0491735 -0.0657913 0.90912 -0.900191 -0.180265 0.396435
0.25735 -0.0525944 0.475705 -0.00483781 -0.999975 0.00512438
0.222905 -0.0522303 0.519697 -0.00637856 -0.999976 0.00255783
0.00402899 -0.118269 0.639782 0.197825 -0.980159 -0.0124165
0.0677691 -0.0582351 0.651824 -0.0229991 0.999264 -0.0306914
-0.030501 -0.0632118 0.127407 0.956536 0.281456 -0.0763025
-0.00732405 -0.0522436 0.5406 0.0159684 0.998809 -0.0460985
-0.291768 -0.0538817 0.535324 -0.139073 0.961607 0.236581
0.0963271 -0.0557883 0.468162 0.013198 0.99885 0.0460993
-0.0169532 0.0113091 0.791342 -0.195549 0.980651 0.00920397
0.0655006 -0.0590422 0.779406 0.981128 -0.193359 -0.000679619
-0.14138 -0.0516435 0.578673 -0.0116037 0.999903 0.00768583
-0.00411512 0.00749017 0.245983 0.999855 -0.0166072 0.0038441
-0.245092 -0.0524113 0.521983 -0.0116037 0.999903 0.00768583
0.0493068 -0.00782443 0.765069 0.832711 0.553692 0.00424819
0.0290635 -0.0436381 0.131996 0.753881 0.524846 -0.395222
0.110433 -0.0513819 0.591362 -0.0116037 -0.999903 -0.00768583
-0.000643889 -0.118567 0.831534 -0.193167 -0.980734 0.0291082
0.0476697 -0.0377346 0.910516 0.909818 0.182219 0.372864
-0.316692 -0.0556433 0.394453 0.00799265 -0.999702 -0.0230736
0.00243443 0.0153757 0.681833 0.196748 0.980437 0.00584607
0.0541625 -0.0148092 0.632847 0.833796 0.551868 -0.0150416
0.020343 0.0439092 0.667847 0.540146 0.830846 0.133932
0.0224374 -0.100143 0.197417 0.563296 -0.825283 -0.0400669
-0.0549715 -0.0708856 0.382885 -0.979165 -0.197277 -0.0481413
-0.153686 -0.0584488 0.545528 -0.00506851 -0.999974 -0.00512583
0.0538509 -0.0568321 0.304463 0.978633 0.197183 -0.0582755
0.0506541 -0.0110625 0.59219 0.832622 0.552547 -0.0378541
-0.175736 -0.0528523 0.595009 -0.0401729 0.997295 0.061549
0.043107 -0.0447305 0.192946 0.978581 0.191398 -0.0757968
-0.307426 -0.0572192 0.449517 -0.0059659 -0.999979 -0.00256043
-0.00231914 0.0895611 0.143475 0.999371 -0.0341433 -0.00961446
-0.214691 -0.0567459 0.455025 0.013198 -0.99885 -0.0460993
-0.0466814 -0.0847627 0.343963 -0.82764 -0.559849 -0.0397685
0.111603 0.0874757 0.0517054 -0.0108314 0.998824 0.0472519
-0.0561155 -0.018009 0.624596 -0.833464 0.552369 -0.0150439
0.00214825 -0.0416193 0.205055 -0.133292 -0.990385 -0.0370245
0.0602218 -0.0517827 0.442145 0.979728 0.195946 -0.0416981
-0.274146 -0.0571766 0.447335 0.013198 -0.99885 -0.0460993
