-0.043724 -0.101359 0.616924 -0.558752 -0.829252 -0.0117036
-0.1581 0.0890974 0.071941 -0.0464861 -0.998446 0.0307493
0.018256 0.0339946 0.596082 0.528458 0.793362 -0.302173
-0.135834 -0.0586496 0.579553 -0.0114873 -0.999905 0.0076902
0.0331316 -0.103295 0.448207 0.552193 -0.833256 -0.0276953
-0.00149715 -0.0145031 0.171913 0.996931 0.0531054 0.057512
-0.171192 -0.0518098 0.555114 -0.00637856 0.999976 -0.00255783
-0.0640156 -0.0659961 0.734948 -0.980888 -0.194514 -0.00478815
0.0496516 -0.00821021 0.744488 0.832715 0.553695 0.002568
-0.0490442 -0.0363944 0.906587 -0.898733 0.179441 0.400099
-0.020929 -0.0583551 0.888631 0.956447 0.206676 0.20614
0.0563759 -0.0271868 0.491775 0.829611 0.556281 -0.047935
-0.151277 0.0903038 0.0392726 0.0145688 0.999891 -0.00256876
-0.00465435 -0.0845534 0.123178 -0.0712117 -0.530743 -0.844536
0.187268 -0.058214 0.532934 -0.00506851 0.999974 0.00512583
0.048605 -0.0806084 0.326326 0.825788 -0.562585 -0.0396492
0.260044 -0.0528522 0.452059 0.00306219 -0.999729 0.0230761
0.0394818 -0.0920693 0.298837 0.8286 -0.558359 -0.0407139
-0.301357 -0.0533153 0.426512 0.00306219 0.999729 -0.0230761
-0.0292975 -0.111488 0.645933 -0.557798 -0.829887 -0.0122367
-0.0497965 -0.0159789 0.859245 -0.825881 0.551032 0.119516
-0.31562 -0.0530538 0.441063 -0.00483781 0.999975 -0.00512438
-0.239176 -0.0578691 0.525498 -0.0095933 -0.999947 0.00374431
-0.39627 -0.0550712 0.344604 0.0159684 0.998809 -0.0460985
0.309197 -0.05685 0.430223 0.013198 0.99885 0.0460993
-0.107561 -0.0530904 0.48753 0.0159684 0.998809 -0.0460985
0.129306 -0.053464 0.471902 0.0159684 -0.998809 0.0460985
0.0469319 -0.0901699 0.43427 0.830828 -0.555644 -0.0313878
0.0325314 0.0877666 0.144356 -0.117698 -0.962858 -0.243006
-0.0430618 -0.0962587 0.440217 -0.827888 -0.560016 -0.0313602
-0.415875 -0.0561896 0.383768 0.00799265 -0.999702 -0.0230736
0.0546917 -0.0687095 0.895422 0.930557 -0.184491 0.31627
0.0498009 -0.0932298 0.573607 0.833612 -0.551734 -0.0260903
0.0643623 -0.0585907 0.647857 -0.0400529 0.997313 -0.0613334
0.0562895 -0.0586776 0.35986 0.978981 -0.1982 -0.0480989
-0.00588906 -0.107338 0.257075 -0.190193 -0.981285 -0.0301205
0.371671 -0.0558622 0.384894 0.00799265 0.999702 0.0230736
-0.345815 -0.0553196 0.370344 0.00799265 -0.999702 -0.0230736
0.142482 -0.0586259 0.571132 -0.0095933 0.999947 -0.00374431
0.31026 -0.057173 0.507844 -0.0154706 0.999762 -0.0153691
0.0170939 -0.116013 0.740429 0.197116 -0.98038 0.000477877
0.0503789 -0.0665236 0.274387 0.978009 -0.198003 -0.0655233
0.353643 -0.0543054 0.376682 0.00306219 -0.999729 0.0230761
0.0601347 -0.0804096 0.804976 0.832111 -0.554609 0.000332589
0.0247842 -0.0988262 0.907921 0.498294 -0.747432 0.439374
0.152673 -0.0566344 0.617038 -0.137434 0.961783 -0.236825
-0.00880539 -0.0585305 0.405987 0.709503 0.700656 -0.0754087
-0.0301751 0.0068664 0.750885 -0.557954 0.829806 0.0104538
-0.282934 -0.0526757 0.495266 -0.00637856 0.999976 -0.00255783
0.272145 -0.0527717 0.455058 -0.00483781 -0.999975 0.00512438
0.0579308 -0.0294591 0.493401 0.979435 0.197344 -0.0419805
0.0352237 -0.0880177 0.18133 0.835639 -0.546617 -0.0540076
0.0298779 -0.0373367 0.142037 0.77082 0.514017 -0.376329
0.125926 0.0891587 0.0941649 -0.0460848 -0.991458 -0.122016
0.217666 -0.0578407 0.483091 -0.0059659 0.999979 0.00256043
0.0220099 -0.0521464 0.231301 -0.957205 -0.281566 -0.0669232
-0.0379124 -0.00409984 0.504931 -0.553994 0.830769 -0.0539771
-0.217712 -0.0523829 0.479548 -0.00483781 0.999975 -0.00512438
0.0281857 -0.0964647 0.202476 0.563296 -0.825283 -0.0400669
-0.202609 -0.0520748 0.542348 -0.0116037 0.999903 0.00768583
0.0887081 -0.0530872 0.494131 0.0159684 -0.998809 0.0460985
-0.0650736 -0.0611203 0.769497 -0.980899 -0.194516 -0.000250088
0.00302756 0.0845081 0.0895473 -0.0108314 0.998824 0.0472519
0.0605149 -0.0592111 0.602121 -0.00506851 0.999974 0.00512583
0.317543 -0.0529781 0.486343 -0.0116037 -0.999903 -0.00768583
0.0314804 -0.0509496 0.58343 -0.00483781 -0.999975 0.00512438
-0.416951 -0.0565063 0.433991 -0.0095933 -0.999947 0.00374431
-0.0177466 0.0849417 0.0837565 -0.0108314 -0.998824 -0.0472519
-0.0242099 0.0110182 0.651511 -0.196886 0.980248 -0.0187108
-0.0542019 -0.0591541 0.635893 -0.0114873 -0.999905 0.0076902
0.0361406 0.000664853 0.566325 0.557767 0.828804 -0.0444927
0.00706071 0.0135937 0.606101 0.196229 0.980376 -0.0188974
-0.00356693 0.0339457 0.711191 -0.177439 0.843082 0.507669
0.0452994 -0.0734343 0.219454 0.978009 -0.198003 -0.0655233
0.137821 -0.0583973 0.514421 -0.0059659 0.999979 0.00256043
-0.00460242 -0.0182624 0.289047 0.999371 -0.0341433 -0.00961446
0.00417903 0.0850543 0.0782656 -0.0108314 0.998824 0.0472519
-0.0126646 0.0125991 0.746724 -0.196431 0.980421 0.0137748
0.263887 -0.0576452 0.518872 -0.0114873 0.999905 -0.0076902
-0.00533746 -0.0300871 0.130099 -0.13463 0.703328 -0.698001
0.000795543 -0.107408 0.224419 0.191955 -0.980977 -0.0289289
0.300463 -0.0572847 0.458864 -0.0059659 0.999979 0.00256043
0.0356008 0.085608 0.140515 -0.0629879 0.996035 -0.0628241
-0.36748 -0.0567574 0.477064 -0.023818 -0.999245 0.0306855
0.194806 -0.0520037 0.544882 -0.0116037 -0.999903 -0.00768583
-0.148291 0.088834 0.0782165 -0.0464861 -0.998446 0.0307493
0.0194594 -0.0625229 0.2677 -0.956984 0.279821 -0.076694
0.0224144 -0.0522908 0.534349 0.0159684 -0.998809 0.0460985
-0.0666866 0.0860447 0.076802 -0.0302249 -0.99954 -0.0025724
0.0939284 -0.0589669 0.600896 -0.0114873 0.999905 -0.0076902
-0.00732077 -0.000891886 0.546865 -0.522299 -0.808997 -0.269681
-0.0302992 -0.11105 0.795552 -0.557029 -0.830491 0.0015671
-0.0553873 -0.0171274 0.793373 -0.831762 0.555116 0.00428309
0.0423757 -0.100677 0.557002 0.555127 -0.831405 -0.0244949
-0.0877042 -0.058832 0.555054 -0.00506851 -0.999974 -0.00512583
-0.00258694 0.0772272 0.149775 0.999855 -0.0166072 0.0038441
0.0699881 -0.0585046 0.645583 -0.0400529 0.997313 -0.0613334
0.377958 -0.0547123 0.489257 -0.0705753 -0.990065 -0.121615
0.167562 -0.0568885 0.607203 -0.0740213 0.989773 -0.121945
-0.22337 -0.0525504 0.47 0.00306219 0.999729 -0.0230761
-0.294923 -0.0573319 0.464395 -0.0059659 -0.999979 -0.00256043
-0.00264359 -0.00811704 0.263555 -0.190922 0.978249 -0.0811003
0.0420519 -0.000947721 0.734054 0.557495 0.830137 0.00850495
0.0210447 -0.102047 0.219949 0.54786 -0.835773 -0.0365178
0.0372395 0.00195162 0.768487 0.557499 0.830144 0.0074368
0.180529 -0.0526958 0.589346 -0.0401729 -0.997295 -0.061549
-0.00315174 -0.0213366 0.206905 0.996931 0.0531054 0.057512
0.383611 -0.0567289 0.435552 -0.0059659 0.999979 0.00256043
0.36334 -0.0553357 0.364968 0.00799265 0.999702 0.0230736
0.0234729 0.00624216 0.850191 0.193322 0.972317 0.13125
-0.0454145 -0.00313691 0.72752 -0.561077 0.827721 0.00842477
0.211996 -0.0576068 0.47445 0.013198 0.99885 0.0460993
-0.0176718 -0.0510568 0.668918 -0.0405137 0.997295 0.0613323
-0.2571 -0.0577047 0.502623 -0.00506851 -0.999974 -0.00512583
0.060506 -0.0629779 0.487061 0.980182 -0.194817 -0.035916
-0.0061518 0.0132885 0.809572 -0.19544 0.980106 0.0345852
-0.0468507 -0.0801725 0.283237 -0.824752 -0.564032 -0.0406353
0.152228 0.0887628 0.0702489 -0.0475573 0.998398 -0.030671
0.110888 -0.0515392 0.543327 -0.00483781 -0.999975 0.00512438
-0.109144 -0.0584478 0.620937 -0.0400529 -0.997313 0.0613334
-0.00428613 -0.00325222 0.249311 0.9999 -0.0126407 0.00641224
-0.042041 -0.00481144 0.538835 -0.554253 0.831157 -0.044516
-0.0388521 -0.00518551 0.497865 -0.553994 0.830769 -0.0539771
0.00456303 -0.0190337 0.261612 -0.999891 -0.0132635 0.00640798
-0.061843 -0.0772595 0.6679 -0.981054 -0.193676 0.00476958
0.00168452 0.0970539 0.155888 -0.989366 -0.123949 -0.0761064
-0.255332 -0.053782 0.421357 0.0159684 0.998809 -0.0460985
-0.0296156 0.0848866 0.0912268 -0.0302249 -0.99954 -0.0025724
0.0439571 -0.101515 0.82623 0.553997 -0.831754 0.0356601
-0.0590874 -0.0510839 0.583271 -0.00483781 0.999975 -0.00512438
-0.229868 -0.0560935 0.436543 0.013198 -0.99885 -0.0460993
0.012683 -0.104305 0.199997 0.199585 -0.979412 -0.0303007
0.278253 -0.0543244 0.401665 0.0159684 -0.998809 0.0460985
0.122442 -0.0571865 0.490982 0.013198 0.99885 0.0460993
-0.282626 -0.0556472 0.545633 -0.137434 -0.961783 0.236825
0.0948817 0.0873775 0.109063 -0.0951456 0.988013 -0.121567
0.0637255 -0.0665517 0.634493 0.981224 -0.192488 -0.0121311
0.0228113 -0.00361696 0.7222 0.892067 -0.168757 0.419211
-0.0078746 0.0323672 0.574497 -0.184714 0.927158 -0.325974
-0.397749 -0.0566434 0.434659 -0.00506851 -0.999974 -0.00512583
0.0624088 -0.0739042 0.691164 0.981404 -0.191892 0.00479558
-0.385766 -0.0551671 0.349894 0.00799265 -0.999702 -0.0230736
0.0222318 -0.0484916 0.894018 -0.949022 -0.20512 0.239341
0.00655495 -0.0855585 0.724563 1 0 0
0.00417097 -0.000561898 0.356789 0.190307 0.978231 -0.0827473
0.290459 -0.0573727 0.514508 -0.0115867 0.999902 -0.00787654
-0.0366118 0.0064451 0.683298 -0.970157 -0.194182 0.145219
-0.0957216 -0.0515624 0.529741 0.00306219 0.999729 -0.0230761
0.0528159 -0.0654977 0.317262 0.978981 -0.1982 -0.0480989
0.223982 -0.0528066 0.458818 0.00306219 -0.999729 0.0230761
-0.0733563 0.089314 0.0958918 0.0145688 0.999891 -0.00256876
0.135241 0.0883405 0.0388435 -0.0108314 0.998824 0.0472519
0.0668854 0.0886967 0.122038 -0.0186008 -0.997844 -0.0629395
0.403886 -0.0544577 0.363414 0.00306219 -0.999729 0.0230761
0.0331482 -0.106168 0.534237 0.555127 -0.831405 -0.0244949
-0.07319 -0.052628 0.509455 0.0159684 0.998809 -0.0460985
-0.192937 -0.0580245 0.497263 -0.0059659 -0.999979 -0.00256043
0.183407 -0.0557501 0.602793 -0.137434 0.961783 -0.236825
0.0212776 -0.0519578 0.23936 -0.710879 -0.701389 -0.0520103
0.00395333 0.0131132 0.233013 -0.999891 -0.0132635 0.00640798
-0.307054 -0.0547841 0.38173 0.0159684 0.998809 -0.0460985
-0.281974 -0.0562929 0.425947 0.013198 -0.99885 -0.0460993
-0.0536684 -0.0146138 0.801398 -0.831762 0.555116 0.00428309
-0.0213781 -0.00999282 0.29068 -0.550202 0.831375 -0.0780565
-0.294474 -0.0533836 0.424467 0.00306219 0.999729 -0.0230761
-0.190667 -0.0581084 0.567378 -0.0154706 -0.999762 0.0153691
-0.00429751 -0.0668395 0.713168 0 1 0
-0.0367305 -0.103351 0.520257 -0.553536 -0.832363 -0.0277386
0.00241127 0.0778278 0.117854 -0.999871 -0.0155693 0.00384445
-0.0003924 0.0317725 0.262119 0.950273 -0.257308 -0.175427
-0.0873799 -0.0585617 0.633298 -0.0400529 -0.997313 0.0613334
0.0435436 -0.0975434 0.88172 0.817791 -0.547436 0.177569
0.102367 0.0896864 0.0763143 0.0145688 -0.999891 0.00256876
0.0028465 -0.022966 0.647852 0.189557 -0.978015 -0.0869225
-0.282475 -0.0568551 0.437983 0.013198 -0.99885 -0.0460993
-0.0465244 -0.0947353 0.504422 -0.827888 -0.560016 -0.0313602
0.114066 -0.0520697 0.621713 -0.0405137 -0.997295 -0.0613323
-0.0666077 -0.0534361 0.77513 -0.980712 -0.195455 -0.000695241
-0.0272718 -0.0531651 0.912856 0.956447 0.206676 0.20614
0.144221 -0.054107 0.452804 0.0159684 -0.998809 0.0460985
0.42121 -0.0541106 0.455895 -0.0223958 -0.999266 -0.0310764
-0.0173634 -0.000662303 0.386422 -0.192877 0.977731 -0.0827116
0.284569 -0.0572167 0.44522 0.013198 0.99885 0.0460993
0.412195 -0.0559157 0.373173 0.00799265 0.999702 0.0230736
0.0476369 -0.0842884 0.89707 0.790774 -0.527566 0.310405
0.117456 -0.0548002 0.641525 -0.139073 -0.961607 -0.236581
0.0502329 -0.0509802 0.629994 -0.0116037 -0.999903 -0.00768583
0.243558 -0.0524798 0.485047 -0.00483781 -0.999975 0.00512438
0.0933382 -0.0570778 0.496957 0.013198 0.99885 0.0460993
-0.0270962 -0.0542884 0.489445 0.0159684 0.998809 -0.0460985
-0.0133806 -0.11303 0.493469 -0.193715 -0.980701 -0.0264588
-0.0547491 -0.0840383 0.863978 -0.82889 -0.554422 0.0745522
-0.00381619 0.0141961 0.210427 0.9999 -0.0126407 0.00641224
-0.0642389 -0.0647107 0.728481 -0.980888 -0.194514 -0.00478815
-0.0509393 -0.0159397 0.529092 -0.830292 0.55604 -0.0378713
0.0650158 -0.0431317 0.790726 0.980713 0.195452 0.000686974
0.0209125 -0.110949 0.472204 0.194009 -0.980642 -0.0264744
0.0485341 -0.0527461 0.915771 0.910139 0.183108 0.371642
-0.00651207 0.0477379 0.630514 -0.190086 0.960944 -0.201131
0.00571814 -0.0505801 0.837327 -0.503983 -0.817909 0.277536
-0.0655128 -0.0520053 0.525605 0.0159684 0.998809 -0.0460985
-0.0574556 -0.0647318 0.412988 -0.97967 -0.197378 -0.0358873
0.0388848 0.000396958 0.81306 0.555348 0.831101 0.0293286
0.00303113 0.0550676 0.175954 -0.999891 -0.0132635 0.00640798
-0.0212924 -0.102066 0.22609 -0.561855 -0.826423 -0.0366606
0.0197335 0.0867077 0.0531007 0.0390673 -0.99812 0.0472163
-0.0648507 -0.042332 0.695746 -0.981282 0.192466 0.00658593
0.119542 -0.0586568 0.552346 -0.00506851 0.999974 0.00512583
-0.045703 -0.0718094 0.221425 -0.979282 -0.191574 -0.0656156
0.00423488 -0.0126264 0.22367 -0.999891 -0.0132635 0.00640798
-0.0698526 -0.0591875 0.607243 -0.0095933 -0.999947 0.00374431
0.284791 -0.05292 0.445837 0.00306219 -0.999729 0.0230761
0.353825 -0.0569253 0.478102 -0.0115867 0.999902 -0.00787654
0.0101566 -0.103636 0.908621 0.174176 -0.875071 0.451568
0.196834 -0.0564962 0.454726 0.013198 0.99885 0.0460993
0.0960203 -0.0558089 0.468698 0.013198 0.99885 0.0460993
-0.026043 -0.0595559 0.196778 0.956536 0.281456 -0.0763025
0.00220189 0.0188471 0.158533 -0.997295 0.0457302 0.0575361
-0.267519 -0.0575223 0.528145 -0.0154706 -0.999762 0.0153691
-0.0251592 0.0860173 0.0627195 -0.0108314 -0.998824 -0.0472519
0.0198602 -0.115109 0.81968 0.194957 -0.980514 0.0241691
0.0244027 -0.104161 0.320549 0.55206 -0.833055 -0.035334
-0.047795 -0.032301 0.317666 -0.82419 0.562153 -0.0685152
-0.0438057 -0.0148679 0.41839 -0.82991 0.555784 -0.0485206
0.287005 -0.0565496 0.430068 0.013198 0.99885 0.0460993
0.294522 -0.0554167 0.392315 0.00799265 0.999702 0.0230736
0.329319 -0.0530735 0.481837 -0.00948679 -0.999947 -0.00392914
-0.0017329 0.0956237 0.157342 0.995619 -0.0814445 -0.0459392
0.0429783 -0.101203 0.588495 0.555127 -0.831405 -0.0244949
-0.0173061 -0.0594097 0.598144 -0.00506851 -0.999974 -0.00512583
-0.0381731 -0.012526 0.382083 -0.550202 0.831375 -0.0780565
0.400564 -0.0562517 0.467015 -0.0229991 0.999264 -0.0306914
-0.0294013 0.086322 0.148688 -0.15754 -0.957485 0.241668
0.0228972 -0.0553277 0.479205 0.013198 0.99885 0.0460993
0.0298564 -0.012842 0.319395 0.545486 0.834463 -0.0782076
0.330262 -0.0530391 0.47122 -0.00637856 -0.999976 0.00255783
-0.00395412 0.00579843 0.21538 0.9999 -0.0126407 0.00641224
-0.0970672 -0.0522727 0.636965 -0.0401729 0.997295 0.061549
-0.0397785 -0.10408 0.621337 -0.558752 -0.829252 -0.0117036
-0.031667 -0.110161 0.780434 -0.557029 -0.830491 0.0015671
-0.0475173 -0.0940001 0.517884 -0.829857 -0.557128 -0.0307626
0.0657052 -0.055614 0.620504 0.981129 -0.192988 -0.0118913
-0.0248693 -0.00497444 0.368739 -0.550202 0.831375 -0.0780565
-0.00295382 0.053509 0.153451 0.9999 -0.0126407 0.00641224
-0.00147329 0.116652 0.0664112 0.999211 0.0195131 0.034587
-0.0189363 0.00925364 0.727144 -0.766862 0.134358 0.627591
0.06407 -0.0465429 0.567151 0.980485 0.194034 -0.0316318
0.051296 -0.0536472 0.494955 0.0159684 -0.998809 0.0460985
0.0723433 -0.0552402 0.461631 0.00799265 0.999702 0.0230736
0.240542 -0.0524145 0.494938 -0.00483781 -0.999975 0.00512438
-0.0137105 0.00211374 0.554995 -0.793393 -0.548432 -0.264102
-0.0419579 -0.0976082 0.452256 -0.553536 -0.832363 -0.0277386
0.0451368 -0.072912 0.215448 0.978009 -0.198003 -0.0655233
0.0516281 -0.0103897 0.654504 0.833796 0.551868 -0.0150416
0.0195976 -0.0544022 0.275294 -0.957205 -0.281566 -0.0669232
-0.393247 -0.0566736 0.436107 -0.00506851 -0.999974 -0.00512583
0.0538927 -0.0638238 0.332282 0.978981 -0.1982 -0.0480989
-0.268583 -0.0575003 0.468791 -0.0059659 -0.999979 -0.00256043
-0.0476028 -0.0984698 0.630442 -0.83285 -0.553369 -0.011962
-0.00203678 0.0148359 0.739075 -0.196431 0.980421 0.0137748
-0.0419455 -0.00162991 0.59662 -0.558139 0.828471 -0.0460151
0.352554 -0.0537951 0.398935 0.00306219 -0.999729 0.0230761
0.0247549 0.00959031 0.809444 0.194864 0.980137 0.0368725
-0.282827 -0.0532426 0.432122 0.00306219 0.999729 -0.0230761
0.141292 -0.0573348 0.488798 0.013198 0.99885 0.0460993
-0.417602 -0.0543027 0.368312 0.00306219 0.999729 -0.0230761
0.021853 0.0845104 0.119538 -0.0294466 0.999553 0.00525196
-0.00949378 -0.072513 0.893913 0.518609 0.842966 0.143014
0.29795 -0.0572573 0.514748 -0.0154706 0.999762 -0.0153691
0.224 -0.0577383 0.556489 -0.023818 0.999245 -0.0306855
0.0307753 -0.00929686 0.668432 0.824979 -0.565149 0.00398235
-0.0656822 -0.0465067 0.733252 -0.9813 0.19247 -0.00216676
-0.0217605 -0.108954 0.403753 -0.193715 -0.980701 -0.0264588
0.00273309 0.00506063 0.431777 0.19259 0.979625 -0.056949
0.176822 -0.0521004 0.580457 -0.0111764 -0.999909 -0.00749126
-0.373857 -0.0542845 0.374904 0.00306219 0.999729 -0.0230761
-0.411581 -0.0542877 0.466542 -0.139073 0.961607 0.236581
-0.268712 -0.057539 0.525396 -0.0115867 -0.999902 0.00787654
-0.00222197 -0.0936339 0.713657 0 -1 0
0.0124985 -0.110551 0.395812 0.194009 -0.980642 -0.0264744
-0.430345 -0.0563782 0.433876 -0.0095933 -0.999947 0.00374431
0.00200665 0.0570346 0.218142 -0.989515 -0.122745 -0.0761192
-0.00405234 -0.0176564 0.311862 0.989221 -0.125119 -0.0760703
0.0959171 -0.0582142 0.633374 -0.0400529 0.997313 -0.0613334
-0.0239396 -0.0571687 0.224193 0.957405 -0.280786 -0.0673392
0.0604751 -0.0626133 0.48424 0.980182 -0.194817 -0.035916
-0.324127 -0.0571339 0.455112 -0.0059659 -0.999979 -0.00256043
0.201488 -0.0539345 0.588608 -0.139073 -0.961607 -0.236581
-0.102916 -0.0587579 0.555636 -0.00506851 -0.999974 -0.00512583
-0.0543027 -0.0152321 0.751529 -0.833046 0.553185 0.00448556
0.0725378 -0.0511179 0.589337 -0.00483781 -0.999975 0.00512438
-0.116812 -0.0561307 0.469717 0.013198 -0.99885 -0.0460993
-0.0299335 0.0274165 0.618345 -0.815238 0.547672 -0.188263
0.431146 -0.055789 0.361122 0.00799265 0.999702 0.0230736
-0.0489605 -0.0425723 0.273478 -0.977157 0.198444 -0.0760478
0.0564361 -0.0283069 0.479819 0.829611 0.556281 -0.047935
-0.0224296 -0.0632119 0.228591 0.956536 0.281456 -0.0763025
0.00824478 -0.00293966 0.338048 0.190307 0.978231 -0.0827473
-0.396879 -0.0541331 0.474152 -0.0223958 0.999266 0.0310764
0.428429 -0.0563324 0.385118 -0.0059659 0.999979 0.00256043
0.383495 -0.0561197 0.391957 0.00799265 0.999702 0.0230736
-0.249111 -0.052528 0.48087 -0.00483781 0.999975 -0.00512438
-0.0512063 -0.0509064 0.610476 -0.00483781 0.999975 -0.00512438
-0.0147987 0.0221232 0.720945 -0.4798 0.684918 0.548342
-0.0437259 -0.0030223 0.8201 -0.553624 0.832249 0.0293678
-0.0326617 -0.0869574 0.15444 -0.82279 -0.549459 -0.145297
0.000298528 -0.022691 0.639201 0.189557 -0.978015 -0.0869225
-0.388597 -0.0535314 0.424215 -0.00637856 0.999976 -0.00255783
0.00790077 0.0884322 0.131496 0.00936105 -0.999925 -0.00789383
-0.255294 -0.0549857 0.562667 -0.0705753 0.990065 0.121615
-0.0392154 -0.0885927 0.25367 -0.824267 -0.5637 -0.0531637
0.0291472 -0.000339109 0.872358 0.551065 0.824456 0.12884
-0.054464 -0.0298657 0.42785 -0.828039 0.558617 -0.0479502
-0.380169 -0.0534719 0.460446 -0.00948679 0.999947 0.00392914
-0.110524 -0.0517449 0.51987 0.00306219 0.999729 -0.0230761
-0.0118732 -0.0365119 0.889964 0.504414 -0.817648 0.277522
0.0343668 -0.0895773 0.183856 0.835639 -0.546617 -0.0540076
0.0585697 0.085709 0.0972786 -0.0294466 0.999553 0.00525196
-0.00245191 -0.0390456 0.135053 0.133696 -0.99032 -0.0373014
-0.0595317 -0.0328727 0.514735 -0.979837 0.195346 -0.0419384
0.00295888 0.0264466 0.165614 -0.997295 0.0457302 0.0575361
-0.0238957 -0.0591338 0.903176 0.956447 0.206676 0.20614
-0.182576 -0.0519197 0.540568 -0.00637856 0.999976 -0.00255783
0.3442 -0.0569857 0.48459 -0.0115867 0.999902 -0.00787654
0.01957 -0.0704952 0.918623 -0.520221 0.841954 0.143121
0.146978 -0.0565769 0.470749 0.013198 0.99885 0.0460993
0.0510141 -0.0105396 0.784282 0.832711 0.553692 0.00424819
0.00103447 -0.0872339 0.927149 0.0570567 -0.309434 0.949208
0.0361098 0.0227074 0.646843 0.971716 0.199949 -0.125655
0.175442 -0.0527755 0.470839 0.0159684 -0.998809 0.0460985
-0.0634926 -0.0530311 0.860368 -0.974771 0.194716 0.109121
0.00193903 0.102248 0.140992 -0.999267 -0.0364841 -0.0115688
-0.0961062 -0.0514708 0.542731 -0.00483781 0.999975 -0.00512438
0.0231113 0.0270802 0.593796 0.79447 0.532435 -0.292115
-0.00141137 0.0181591 0.140267 0.996931 0.0531054 0.057512
-0.0281983 0.00836584 0.622611 -0.559704 0.828502 -0.0177393
-0.0535712 -0.0194621 0.535078 -0.830292 0.55604 -0.0378713
-0.0142445 -0.0612962 0.860564 0.956447 0.206676 0.20614
-0.0116623 -0.0530803 0.520968 0.0159684 0.998809 -0.0460985
0.00104717 -0.0597054 0.639752 -0.00506851 0.999974 0.00512583
0.0485699 -0.0977113 0.739383 0.833361 -0.552721 -0.00295532
0.110034 0.0873377 0.0827896 -0.0339801 0.999415 -0.00386398
0.0294555 -0.104853 0.421807 0.552193 -0.833256 -0.0276953
0.00434151 0.0125682 0.827582 0.192807 0.975398 0.106884
-0.00112426 -0.044886 0.294869 0.133696 -0.99032 -0.0373014
-0.305535 -0.0532585 0.515139 -0.0229962 0.999264 0.0306862
0.0021167 -0.0721221 0.878523 -0.179845 0.975347 0.127886
-0.402998 -0.0565557 0.413057 -0.0059659 -0.999979 -0.00256043
0.0268144 -0.0143506 0.282081 0.545486 0.834463 -0.0782076
0.0260876 -0.106017 0.894115 0.529854 -0.791777 0.303883
0.278051 -0.0526339 0.501189 -0.0116037 -0.999903 -0.00768583
-0.279125 -0.0575595 0.496079 -0.00506851 -0.999974 -0.00512583
0.0188559 -0.0528386 0.279324 -0.957205 -0.281566 -0.0669232
-0.161482 -0.0531151 0.468316 0.0159684 0.998809 -0.0460985
0.0221706 -0.0502831 0.20457 -0.710879 -0.701389 -0.0520103
-0.0620421 -0.0628782 0.52974 -0.980207 -0.196042 -0.0275998
0.283236 -0.0526906 0.490195 -0.00637856 -0.999976 0.00255783
0.260054 -0.0575687 0.475619 -0.0059659 0.999979 0.00256043
-0.052228 -0.0922538 0.753901 -0.832406 -0.554166 0.000332324
0.0260685 -0.102621 0.310217 0.547902 -0.835838 -0.0343141
0.0143912 -0.0172174 0.182771 0.197782 0.976895 -0.0809797
-0.0459568 -0.0525496 0.209263 -0.97859 0.190806 -0.0771643
0.0010913 -0.0969258 0.921564 0.126473 -0.639645 0.758194
-0.0376634 -0.0988782 0.405017 -0.550758 -0.834184 -0.028322
0.399287 -0.0565871 0.416707 -0.0059659 0.999979 0.00256043
0.05765 -0.083796 0.677947 0.834534 -0.550951 0.00246704
0.0329058 -0.00516375 0.655338 0.822865 -0.566322 -0.0466094
0.376133 -0.0535036 0.410424 -0.00483781 -0.999975 0.00512438
-0.118347 -0.0564447 0.476081 0.013198 -0.99885 -0.0460993
0.032517 -0.10085 0.369271 0.55206 -0.833055 -0.035334
0.00447569 -0.0630996 0.372155 -0.0355702 0.997061 -0.0678584
-0.181365 -0.0559617 0.447574 0.013198 -0.99885 -0.0460993
-0.0021562 0.0944709 0.112236 0.999855 -0.0166072 0.0038441
0.0587581 -0.0732221 0.494925 0.980182 -0.194817 -0.035916
-0.00317596 -0.00948549 0.310013 0.989365 -0.123951 -0.0761077
-0.172145 -0.0583336 0.541312 -0.00506851 -0.999974 -0.00512583
-0.00856968 -0.104978 0.195982 -0.197919 -0.979793 -0.0288679
-0.0630358 -0.0331062 0.785894 -0.980832 0.194852 0.00112746
-0.0429373 -0.00109799 0.688849 -0.559778 0.828612 0.0070749
-0.183844 -0.057364 0.477248 0.013198 -0.99885 -0.0460993
-0.0154466 0.0363637 0.597389 -0.528975 0.793204 -0.301683
0.0739082 -0.0591492 0.60708 -0.0095933 0.999947 -0.00374431
0.162785 -0.0561584 0.613103 -0.137434 0.961783 -0.236825
-0.0145361 -0.0217814 0.660185 -0.188743 -0.978506 -0.0830744
0.142278 -0.0524616 0.610516 -0.0401729 -0.997295 -0.061549
-0.000445073 0.00438559 0.887257 -0.188019 0.947015 0.260406
-0.107726 0.088282 0.0283381 -0.0146509 -0.999627 -0.0230645
-0.131628 -0.0545691 0.632255 -0.139073 0.961607 0.236581
-0.289926 -0.0559061 0.415115 0.00799265 -0.999702 -0.0230736
0.122712 -0.0515029 0.561575 -0.00483781 -0.999975 0.00512438
-0.169626 -0.0518946 0.529441 -0.00483781 0.999975 -0.00512438
0.293826 -0.0573597 0.471637 -0.00506851 0.999974 0.00512583
-0.0764416 -0.0588216 0.635747 -0.023818 -0.999245 0.0306855
0.208507 -0.0536406 0.440641 0.0159684 -0.998809 0.0460985
-0.0743333 -0.0571087 0.503068 0.013198 -0.99885 -0.0460993
-0.00158691 0.00836974 0.152349 0.996931 0.0531054 0.057512
-0.335109 -0.0558778 0.398236 0.00799265 -0.999702 -0.0230736
0.0650988 -0.060995 0.659275 0.981284 -0.192499 0.0051501
0.236274 -0.0577429 0.488279 -0.0059659 0.999979 0.00256043
0.0459929 -0.0742167 0.232168 0.978009 -0.198003 -0.0655233
0.00113664 0.00804428 0.869701 0.192331 0.972628 0.130401
-0.0470536 -0.0263911 0.357021 -0.826996 0.557913 -0.0693627
-0.0209907 0.0878293 0.149486 -6.04943e-05 0.999527 0.0307554
0.030828 -0.058062 0.130063 -0.957205 -0.281566 -0.0669232
-0.0494802 -0.0566236 0.499674 0.013198 -0.99885 -0.0460993
0.0243854 0.0337116 0.612641 0.814945 0.548195 -0.188007
0.0655238 -0.0589935 0.806654 0.980946 -0.194278 -0.00024975
-0.00265371 0.0742984 0.15449 0.999855 -0.0166072 0.0038441
-0.0520029 -0.0114402 0.637332 -0.834103 0.551389 -0.0155848
0.0262834 -0.0530242 0.17387 -0.957205 -0.281566 -0.0669232
-0.233687 -0.0524544 0.480671 -0.00483781 0.999975 -0.00512438
-0.110522 -0.0588408 0.592497 -0.0114873 -0.999905 0.0076902
0.0646017 -0.0528727 0.550461 0.980458 -0.194872 -0.0269464
0.0379717 0.00846148 0.667683 0.978194 -0.19914 0.0589924
0.218203 -0.0579574 0.51346 -0.00506851 0.999974 0.00512583
-0.11002 -0.0539436 0.468191 0.0159684 0.998809 -0.0460985
-0.0167366 -0.020668 0.927281 -0.256763 0.416208 0.872263
0.023404 0.000435158 0.589061 0.806279 -0.537782 -0.246382
-0.0377066 -0.0771173 0.147734 -0.968291 -0.192599 -0.159116
0.0269541 -0.0492949 0.125862 -0.710879 -0.701389 -0.0520103
-0.0622066 -0.0475043 0.509078 -0.979837 0.195346 -0.0419384
-0.266194 -0.0576421 0.515829 -0.0114873 -0.999905 0.0076902
0.348593 -0.0553648 0.37134 0.00799265 0.999702 0.0230736
0.136329 -0.0517765 0.521039 -0.00483781 -0.999975 0.00512438
0.0292982 -0.0592161 0.657754 -0.0154706 0.999762 -0.0153691
0.145662 -0.0584764 0.587395 -0.0114873 0.999905 -0.0076902
0.0625692 -0.0643635 0.559607 0.980458 -0.194872 -0.0269464
-0.025988 0.00906075 0.812065 -0.553624 0.832249 0.0293678
-0.0436695 -0.0821463 0.254376 -0.824267 -0.5637 -0.0531637
-0.146393 0.088703 0.0337373 -0.0108314 -0.998824 -0.0472519
-0.065388 -0.0592891 0.743633 -0.980888 -0.194514 -0.00478815
0.0591018 -0.0283246 0.526459 0.980068 0.196014 -0.0323247
-0.15211 0.089916 0.0177505 0.0240051 0.999446 -0.0230635
0.00234567 -0.117224 0.568052 0.197336 -0.979986 -0.0261779
0.390887 -0.0563819 0.396694 0.013198 0.99885 0.0460993
0.0584523 -0.0306252 0.500086 0.979435 0.197344 -0.0419805
0.177327 -0.0553638 0.43062 0.00799265 0.999702 0.0230736
-0.0117183 -0.0678669 0.276164 0.410891 0.908839 -0.0719683
-0.0590944 0.0867716 0.0545527 -0.0108314 -0.998824 -0.0472519
0.00377173 0.0213397 0.236146 -0.999381 -0.0338325 -0.00961456
0.0207973 -0.020066 0.183554 0.560932 0.823933 -0.0805629
0.0437363 -0.0529985 0.511631 0.0159684 -0.998809 0.0460985
-0.00360164 0.00387456 0.191525 0.999211 0.0195131 0.034587
0.393954 -0.0535897 0.414781 -0.00637856 -0.999976 0.00255783
0.058716 -0.0563809 0.49177 0.013198 0.99885 0.0460993
0.019287 -0.0743564 0.150636 -0.412173 0.9082 -0.0727085
0.107887 0.0873254 0.0914388 -0.0396788 0.999088 -0.0157627
-0.366533 -0.054395 0.371088 0.00306219 0.999729 -0.0230761
0.00220984 0.0885655 0.160189 -0.998733 -0.0465145 -0.0191884
0.0984096 -0.0512591 0.593547 -0.0116037 -0.999903 -0.00768583
-0.0134594 0.0153357 0.547752 -0.932281 0.191403 -0.306946
0.134445 0.0881464 0.0563244 -0.0302249 0.99954 0.0025724
-0.22797 -0.0577351 0.472655 0.013198 -0.99885 -0.0460993
0.00577845 0.00762837 0.520863 0.93949 -0.192322 -0.283499
0.0863026 -0.0540747 0.473566 0.0159684 -0.998809 0.0460985
-0.0917065 0.0868163 0.099898 -0.0396788 -0.999088 0.0157627
-0.3915 -0.0535369 0.42931 -0.00637856 0.999976 -0.00255783
0.212419 -0.0579407 0.504489 -0.00506851 0.999974 0.00512583
0.217821 -0.0532245 0.573978 -0.0223958 -0.999266 -0.0310764
0.0502199 -0.0520188 0.530611 0.0159684 -0.998809 0.0460985
-0.0382364 -0.0988208 0.414471 -0.550758 -0.834184 -0.028322
0.329751 -0.0530685 0.458468 -0.00637856 -0.999976 0.00255783
-0.0382799 -0.101306 0.489836 -0.553536 -0.832363 -0.0277386
-0.0329187 -0.0508346 0.607223 -0.00483781 0.999975 -0.00512438
0.0441612 -0.0672128 0.184608 0.979414 -0.190406 -0.0670376
0.045089 -0.0745533 0.219695 0.978009 -0.198003 -0.0655233
0.0630497 -0.0592216 0.606677 -0.00506851 0.999974 0.00512583
0.298311 -0.0573134 0.510491 -0.0115867 0.999902 -0.00787654
-0.0655378 -0.0456171 0.689551 -0.98116 0.193073 0.00694617
0.0606501 -0.0634844 0.872657 0.976824 -0.193424 0.0916589
0.133451 -0.0558069 0.457937 0.013198 0.99885 0.0460993
0.0944005 0.0895833 0.0882567 0.00936105 -0.999925 -0.00789383
-0.222114 -0.052216 0.523317 -0.00637856 0.999976 -0.00255783
0.0477896 -0.0519631 0.917208 0.910139 0.183108 0.371642
-0.0514223 -0.0911259 0.847716 -0.827559 -0.556712 0.0722311
-0.0860317 0.0877225 0.03881 -0.0146509 -0.999627 -0.0230645
0.0996304 0.0896517 0.0783362 0.0145688 -0.999891 0.00256876
-0.0053387 0.0421815 0.604377 -0.188619 0.952528 -0.238983
-0.0368297 -0.0990849 0.394893 -0.550758 -0.834184 -0.028322
-0.0548563 -0.0879853 0.651551 -0.833529 -0.552359 -0.0113952
0.0343424 -0.00579326 0.441342 0.550634 0.832996 -0.054036
0.0212659 -0.0360112 0.912529 -0.781191 -0.56595 0.263518
-0.00235657 0.0869706 0.14907 0.999574 -0.0286102 -0.00576503
-0.0571127 -0.0189599 0.68504 -0.83418 0.55144 0.00760142
0.00595139 -0.0936339 0.726356 0 -1 0
0.0449152 -0.0761249 0.221849 0.978009 -0.198003 -0.0655233
-0.0102412 -0.0558555 0.494264 0.013198 -0.99885 -0.0460993
0.155181 -0.051719 0.550714 -0.00637856 -0.999976 0.00255783
0.0585581 -0.0569595 0.400496 0.979914 -0.19621 -0.0356371
-0.0624233 -0.0559151 0.500801 -0.979957 -0.195992 -0.0356495
0.0265732 -0.106372 0.410022 0.552193 -0.833256 -0.0276953
0.00241699 -0.0100126 0.573427 0.189167 -0.946717 -0.260657
0.0361173 -5.59511e-05 0.66968 0.978194 -0.19914 0.0589924
0.296321 -0.0535275 0.417989 0.00306219 -0.999729 0.0230761
0.0200418 -0.103192 0.231104 0.54786 -0.835773 -0.0365178
0.0957818 -0.0513223 0.571399 -0.00483781 -0.999975 0.00512438
0.000215775 0.0711538 0.0731003 -0.998892 0.0319316 0.0345813
-0.119415 -0.0519399 0.510244 0.00306219 0.999729 -0.0230761
0.00238195 0.0855315 0.137713 -0.999891 -0.0132635 0.00640798
0.0811665 -0.0589394 0.56953 -0.00506851 0.999974 0.00512583
-0.194692 -0.054056 0.436425 0.0159684 0.998809 -0.0460985
-0.0604825 -0.04435 0.483488 -0.979837 0.195346 -0.0419384
0.0550898 -0.0676509 0.372034 0.97938 -0.196103 -0.048555
0.00793235 -0.103399 0.162048 0.19785 -0.970899 -0.134949
-0.0305133 -0.0149989 0.301243 -0.546011 0.834216 -0.0771719
-0.0148563 -0.107522 0.316967 -0.192189 -0.980833 -0.032088
0.271096 -0.0558253 0.5516 -0.137434 0.961783 -0.236825
-0.00305174 -0.00626397 0.191253 0.996931 0.0531054 0.057512
-0.210267 -0.055745 0.434605 0.013198 -0.99885 -0.0460993
-2.35636e-05 -0.0539852 0.508499 0.0333558 0.996921 -0.0709684
-0.00523585 -0.00386257 0.320312 -0.192877 0.977731 -0.0827116
-0.01593 -0.115474 0.607672 -0.19561 -0.980603 -0.012417
0.281014 -0.0574942 0.485211 -0.00506851 0.999974 0.00512583
-0.0900717 0.0887691 0.038479 0.0390673 0.99812 -0.0472163
-0.0510915 -0.0682559 0.293572 -0.978727 -0.199355 -0.0484923
0.0537815 -0.069906 0.354754 0.97938 -0.196103 -0.048555
0.0484932 -0.0331937 0.318409 0.826717 0.558437 -0.0684658
0.112247 0.0898118 0.0691125 0.0145688 -0.999891 0.00256876
0.0043723 -0.0118153 0.290388 -0.999381 -0.0338325 -0.00961456
0.0153385 -0.110715 0.422724 0.194009 -0.980642 -0.0264744
-0.251948 -0.0524593 0.502598 -0.00637856 0.999976 -0.00255783
-0.0218472 -0.0862405 0.12863 -0.354383 -0.553231 -0.753889
0.331366 -0.0567114 0.504052 -0.0400529 0.997313 -0.0613334
-0.00824846 -0.114052 0.493755 -0.193715 -0.980701 -0.0264588
-0.0183308 -0.0099387 0.278512 -0.190922 0.978249 -0.0811003
-0.0616613 -0.0749835 0.602893 -0.980898 -0.194143 -0.0121232
-0.12198 -0.0586495 0.553331 -0.00506851 -0.999974 -0.00512583
0.0286634 -0.0966799 0.213625 0.563296 -0.825283 -0.0400669
0.217827 -0.0523341 0.489173 -0.00483781 -0.999975 0.00512438
-0.0963643 0.0869706 0.0657411 -0.0302249 -0.99954 -0.0025724
0.00144601 0.0134659 0.824612 0.192807 0.975398 0.106884
0.411316 -0.0565571 0.431236 -0.00506851 0.999974 0.00512583
-0.000815164 0.0904336 0.0631953 0.996931 0.0531054 0.057512
0.0326922 -0.0972129 0.28424 0.547902 -0.835838 -0.0343141
-0.0977174 -0.0557184 0.466251 0.013198 -0.99885 -0.0460993
-0.271876 -0.0547049 0.39563 0.0159684 0.998809 -0.0460985
-0.0375411 0.0887495 0.0947464 0.0162906 0.999853 -0.00525667
0.0402236 0.0880519 0.0645626 0.0390673 -0.99812 0.0472163
0.0282163 -0.0546597 0.481013 0.0159684 -0.998809 0.0460985
-0.340144 -0.0542214 0.382458 0.0159684 0.998809 -0.0460985
-0.0386258 -0.0810901 0.166691 -0.827579 -0.543419 -0.140739
-0.0634598 -0.0556535 0.528775 -0.980207 -0.196042 -0.0275998
0.402172 -0.0565412 0.405494 -0.0059659 0.999979 0.00256043
0.0739337 -0.0510888 0.596332 -0.00483781 -0.999975 0.00512438
0.398219 -0.0541419 0.47347 -0.0223958 -0.999266 -0.0310764
0.0593119 0.0890311 0.0808449 0.0162906 -0.999853 0.00525667
0.0166113 -0.115598 0.629314 0.197389 -0.980249 -0.0122095
0.0637488 -0.0378933 0.6215 0.980887 0.194114 -0.0134074
-0.0513971 -0.020831 0.479929 -0.82991 0.555784 -0.0485206
-0.0356753 -0.107409 0.685108 -0.560027 -0.828474 -0.00069369
-0.120172 -0.051553 0.549412 -0.00483781 0.999975 -0.00512438
-0.28548 -0.0527699 0.46801 -0.00483781 0.999975 -0.00512438
-0.0269976 0.00649292 0.561556 -0.558139 0.828471 -0.0460151
-0.04346 0.0852643 0.0971932 -0.0294466 -0.999553 -0.00525196
-0.0280863 0.00786963 0.599548 -0.558139 0.828471 -0.0460151
-0.0633459 -0.0695351 0.652164 -0.980996 -0.193665 -0.0118956
-0.0191515 -0.0522776 0.535765 0.0159684 0.998809 -0.0460985
-0.0540236 -0.0551736 0.313124 -0.978329 0.198682 -0.0582891
0.155264 0.0892339 0.0172803 -0.0146509 0.999627 0.0230645
-0.130842 0.0889569 0.0137754 -0.0146509 -0.999627 -0.0230645
0.303532 -0.0528949 0.498655 -0.00948679 -0.999947 -0.00392914
-0.0207176 -0.0625125 0.252633 0.956536 0.281456 -0.0763025
0.000674885 0.0444902 0.110982 -0.998892 0.0319316 0.0345813
-0.0978511 -0.0588099 0.560759 -0.00506851 -0.999974 -0.00512583
0.111845 -0.0586005 0.533285 -0.0059659 0.999979 0.00256043
0.0502299 -0.0509355 0.603878 -0.00483781 -0.999975 0.00512438
0.147054 -0.0516936 0.547355 -0.00483781 -0.999975 0.00512438
-0.0351223 -0.00985005 0.38908 -0.550202 0.831375 -0.0780565
-0.00410715 0.000451207 0.228701 0.9999 -0.0126407 0.00641224
-0.0443028 -0.0590639 0.556895 -0.0059659 -0.999979 -0.00256043
0.3569 -0.0567771 0.484636 -0.023818 0.999245 -0.0306855
0.116774 0.0886437 0.0184122 -0.0146509 0.999627 0.0230645
0.267974 -0.0573693 0.453278 0.013198 0.99885 0.0460993
0.288007 -0.0574677 0.486962 -0.00506851 0.999974 0.00512583
0.00271487 0.0663042 0.187332 -0.999267 -0.0364841 -0.0115688
0.0725663 0.0861309 0.100121 -0.0339801 0.999415 -0.00386398
0.0549832 -0.0873146 0.830154 0.829685 -0.556231 0.0472178
0.0128549 -0.0686919 0.257854 -0.412173 0.9082 -0.0727085
0.17588 -0.0582076 0.520427 -0.00506851 0.999974 0.00512583
0.0909899 -0.0565491 0.486176 0.013198 0.99885 0.0460993
-0.0486826 -0.031144 0.337835 -0.82419 0.562153 -0.0685152
-0.212209 -0.0579051 0.49553 -0.0059659 -0.999979 -0.00256043
-0.0645926 -0.0408805 0.76935 -0.981015 0.193931 0.00068982
0.00293346 0.0553834 0.161369 -0.999891 -0.0132635 0.00640798
0.0327267 -0.109209 0.820575 0.554255 -0.832141 0.0185202
-0.0605137 -0.0635853 0.490477 -0.979957 -0.195992 -0.0356495
0.0367728 -0.103059 0.512749 0.55507 -0.83132 -0.0283544
-0.00379559 0.0501637 0.64856 -0.189213 0.979691 -0.0663689
0.00434709 0.0137973 0.79307 0.195882 0.980584 0.00920335
-0.00686097 -0.0471742 0.331236 0.412405 -0.910017 -0.0423214
-0.348951 -0.053819 0.498593 -0.0223958 0.999266 0.0310764
0.00434143 -0.0936339 0.728051 0 -1 0
0.0337737 0.0288061 0.641929 0.818099 0.564394 -0.110334
0.0207071 -0.059246 0.569553 -0.00506851 0.999974 0.00512583
-0.0647019 -0.0542051 0.563405 -0.980614 -0.194086 -0.0269605
0.0376072 -0.0296329 0.227786 0.833548 0.546666 -0.0797115
-0.0648708 -0.0412682 0.655412 -0.981095 0.193061 -0.0134017
-0.111827 -0.0579096 0.509689 0.013198 -0.99885 -0.0460993
0.0858258 0.0883451 0.0330289 0.0390673 -0.99812 0.0472163
0.0230598 0.0847338 0.138947 -0.0637444 0.995988 -0.0628089
-0.179621 -0.0582631 0.534944 -0.00506851 -0.999974 -0.00512583
0.0215555 -0.0602208 0.249944 -0.956984 0.279821 -0.076694
-0.0635929 -0.0374382 0.61687 -0.981003 0.193543 -0.013174
-0.0578106 -0.0828823 0.620289 -0.833529 -0.552359 -0.0113952
0.0332861 -0.0593163 0.595722 -0.00506851 0.999974 0.00512583
0.180305 -0.0535531 0.599511 -0.139073 -0.961607 -0.236581
0.00380591 0.0175899 0.245788 -0.999381 -0.0338325 -0.00961456
-0.0203763 0.011602 0.705565 -0.197912 0.980134 0.0129699
0.429896 -0.0551572 0.334178 0.00799265 0.999702 0.0230736
0.0534526 -0.0273077 0.881763 0.80904 0.543015 0.224922
0.00322849 -0.0466215 0.846232 -0.172938 -0.943232 0.283559
0.0415665 -0.0593885 0.617995 -0.00506851 0.999974 0.00512583
-0.206571 -0.0527007 0.571137 -0.0229962 0.999264 0.0306862
0.0495824 -0.00827649 0.769952 0.832711 0.553692 0.00424819
-0.0502339 -0.0586313 0.248885 -0.977699 -0.199145 -0.0666817
0.0270374 -0.112133 0.841539 0.554187 -0.831637 0.0354424
-0.00087169 -0.050883 0.454989 0.133696 -0.99032 -0.0373014
-0.0195025 0.00903794 0.832406 -0.193362 0.97528 0.106962
0.159501 -0.0519025 0.518335 -0.00483781 -0.999975 0.00512438
-0.0104313 -0.0756901 0.917367 0.17827 0.975641 0.12785
0.0136229 -0.00799656 0.290635 0.190307 0.978231 -0.0827473
0.354653 -0.0569171 0.441584 -0.0059659 0.999979 0.00256043
0.0337175 0.00752244 0.699041 0.933156 0.180739 0.310729
-0.0109452 -0.0587408 0.556581 0.013198 -0.99885 -0.0460993
0.0271118 -0.106386 0.421168 0.55507 -0.83132 -0.0283544
0.30695 -0.0567536 0.520826 -0.0229991 0.999264 -0.0306914
-0.034523 0.00425543 0.726077 -0.557954 0.829806 0.0104538
-0.336797 -0.0531289 0.452425 -0.00637856 0.999976 -0.00255783
-0.0281734 -0.0026873 0.614745 -0.820215 -0.552348 -0.14886
-0.0617682 -0.0670768 0.853198 -0.976395 -0.195623 0.0915624
0.159502 -0.0531066 0.609925 -0.139073 -0.961607 -0.236581
0.0185129 0.00904849 0.558646 0.196027 0.979368 -0.049119
-0.061976 -0.0585691 0.53825 0.013198 -0.99885 -0.0460993
0.0207923 0.0105264 0.792894 0.194989 0.980766 0.00878614
0.0734575 -0.051597 0.531701 0.0159684 -0.998809 0.0460985
-0.00270907 0.0595316 0.134338 0.999211 0.0195131 0.034587
-0.186489 -0.0582334 0.535949 -0.00506851 -0.999974 -0.00512583
0.370748 -0.0551265 0.353338 0.00799265 0.999702 0.0230736
-0.0170495 -0.026586 0.143219 -0.540877 0.806907 -0.237389
-0.0130442 0.012296 0.768654 -0.196442 0.980476 0.0087839
-0.156898 -0.0527437 0.605546 -0.0401729 0.997295 0.061549
-0.0185097 -0.0360928 0.904173 0.781518 -0.565509 0.263494
-0.0178422 -0.0109601 0.265098 -0.198451 0.976644 -0.0823682
-0.0367414 -0.0986529 0.382881 -0.550653 -0.834025 -0.0344071
-0.116131 0.0883595 0.0303215 -0.0146509 -0.999627 -0.0230645
0.301348 -0.0538214 0.529447 -0.139073 -0.961607 -0.236581
0.0177064 -0.0665078 0.894076 -0.798493 0.577139 0.17123
-0.000668369 0.00509632 0.139449 0.996931 0.0531054 0.057512
-0.00267637 0.0716363 0.169998 0.999371 -0.0341433 -0.00961446
0.27193 -0.0529397 0.446689 0.00306219 -0.999729 0.0230761
0.391665 -0.0544147 0.366898 0.00306219 -0.999729 0.0230761
-0.0155201 0.00784663 0.523368 -0.19454 0.979241 -0.056931
0.285476 -0.0527489 0.472989 -0.00637856 -0.999976 0.00255783
-0.0437572 -0.102104 0.752993 -0.557029 -0.830491 0.0015671
0.267979 -0.0550615 0.389254 0.0159684 -0.998809 0.0460985
-0.154871 0.0900936 0.022576 0.0240051 0.999446 -0.0230635
-0.0222863 0.00556585 0.856891 -0.19288 0.972415 0.131174
0.167002 -0.0517784 0.55695 -0.00637856 -0.999976 0.00255783
-0.0635933 -0.0678392 0.721178 -0.981185 -0.193027 -0.00396738
-0.0557952 -0.0364404 0.41077 -0.979562 0.196771 -0.041697
0.41843 -0.0537278 0.433192 -0.00948679 -0.999947 -0.00392914
-0.390305 -0.0542955 0.372245 0.00306219 0.999729 -0.0230761
-0.327909 -0.0571353 0.489531 -0.0114873 -0.999905 0.0076902
0.291119 -0.0574818 0.495851 -0.0095933 0.999947 -0.00374431
0.0144404 -0.115909 0.619125 0.197389 -0.980249 -0.0122095
0.0761631 -0.0515898 0.53115 0.00306219 -0.999729 0.0230761
-0.0539235 -0.05882 0.545991 0.013198 -0.99885 -0.0460993
-0.00126208 -0.0580427 0.544226 0.013198 -0.99885 -0.0460993
0.00478512 -0.0718232 0.248878 -0.133853 0.988499 -0.07038
-0.0461294 -0.00390446 0.613891 -0.558648 0.829227 -0.0171477
0.0235548 0.0418917 0.645384 0.541163 0.836324 -0.087778
0.0175133 0.0014521 0.419688 0.19259 0.979625 -0.056949
-0.386439 -0.0535164 0.424702 -0.00637856 0.999976 -0.00255783
0.0900989 0.0893444 0.0575233 0.0240051 -0.999446 0.0230635
0.0374903 -0.0939956 0.902785 0.476618 -0.712225 0.515335
-0.174417 -0.0519717 0.518921 -0.00483781 0.999975 -0.00512438
-0.0346903 -0.00508244 0.456634 -0.551099 0.832731 -0.0533735
0.00657986 -0.0525734 0.44855 -0.710879 -0.701389 -0.0520103
0.0237303 0.0101242 0.772591 0.194989 0.980766 0.00878614
0.032341 -0.10477 0.476147 0.55507 -0.83132 -0.0283544
-0.0442547 -0.00286722 0.784267 -0.557973 0.829835 0.00640274
0.0713005 -0.0571452 0.504728 0.013198 0.99885 0.0460993
0.0029306 0.0534732 0.154289 -0.999871 -0.0155693 0.00384445
0.0276281 -0.0623127 0.926203 -0.798493 0.577139 0.17123
-0.0577616 -0.0726809 0.465062 -0.97967 -0.197378 -0.0358873
-0.419553 -0.0557431 0.363149 0.00799265 -0.999702 -0.0230736
0.100285 -0.0523101 0.635471 -0.0401729 -0.997295 -0.061549
-0.0851854 -0.0511661 0.592294 -0.00637856 0.999976 -0.00255783
0.0371596 -0.0997906 0.423091 0.552193 -0.833256 -0.0276953
0.151751 -0.058419 0.537814 -0.00506851 0.999974 0.00512583
0.0440395 -0.0512597 0.549713 0.00306219 -0.999729 0.0230761
-0.062004 -0.0276254 0.690122 -0.981282 0.192466 0.00658593
0.0234899 -0.0593369 0.59005 -0.00506851 0.999974 0.00512583
-0.180834 -0.0523398 0.582002 -0.0405137 0.997295 0.0613323
-0.36452 -0.0539808 0.389302 0.00306219 0.999729 -0.0230761
0.0594069 -0.0539429 0.888362 0.959994 0.192165 0.203676
-0.385704 -0.0561469 0.39237 0.00799265 -0.999702 -0.0230736
-0.327892 -0.0569991 0.499922 -0.023818 -0.999245 0.0306855
-0.13536 0.0900924 0.0472584 0.0145688 0.999891 -0.00256876
-0.0467004 -0.0438705 0.24105 -0.977157 0.198444 -0.0760478
0.00498622 -0.0593825 0.580645 -0.00506851 0.999974 0.00512583
-0.0460995 -0.0661339 0.210673 -0.977699 -0.199145 -0.0666817
0.21863 -0.052794 0.460077 0.00306219 -0.999729 0.0230761
-0.0484318 -0.0511472 0.560863 -0.00483781 0.999975 -0.00512438
-0.0478284 -0.0473826 0.24638 -0.977157 0.198444 -0.0760478
0.203561 -0.056374 0.450153 0.013198 0.99885 0.0460993
0.16511 -0.0577634 0.595518 -0.0400529 0.997313 -0.0613334
0.0881722 0.0894268 0.100864 0.00546934 -0.999861 -0.0157574
-0.202789 -0.058062 0.518632 -0.00506851 -0.999974 -0.00512583
-0.0104055 -0.106955 0.273108 -0.190193 -0.981285 -0.0301205
0.415438 -0.0544773 0.361033 0.00306219 -0.999729 0.0230761
-0.0164273 -0.056922 0.866307 0.956447 0.206676 0.20614
-0.00232389 -0.00978433 0.181887 0.996931 0.0531054 0.057512
6.43151e-05 -0.0151427 0.926638 0.0944241 0.480363 0.871972
0.300256 -0.0528366 0.494026 -0.0116037 -0.999903 -0.00768583
0.0322211 -0.10409 0.453864 0.55507 -0.83132 -0.0283544
-0.0108345 -0.0645269 0.855364 0.797501 0.578549 0.171094
-0.0590321 -0.0216362 0.668557 -0.83418 0.55144 0.00760142
-0.0423199 0.0888401 0.0971709 0.0162906 0.999853 -0.00525667
0.0950869 -0.0522412 0.637747 -0.0401729 -0.997295 -0.061549
-0.00571483 -0.117233 0.594071 -0.195561 -0.980358 -0.0255722
-0.0508041 -0.08668 0.473975 -0.829857 -0.557128 -0.0307626
0.0583252 -0.0386345 0.459471 0.979435 0.197344 -0.0419805
-0.0234307 0.025169 0.591176 -0.794848 0.532082 -0.291729
0.0389147 0.00127007 0.723224 0.557495 0.830137 0.00850495
0.0714364 -0.0513282 0.547258 -0.00483781 -0.999975 0.00512438
0.408296 -0.0547331 0.3509 0.00306219 -0.999729 0.0230761
0.0340923 -0.0265055 0.212479 0.833548 0.546666 -0.0797115
0.0360691 -0.0963449 0.317018 0.547902 -0.835838 -0.0343141
-0.0371507 -0.0591532 0.567711 -0.00506851 -0.999974 -0.00512583
0.00899109 -0.0251953 0.71026 0.206119 -0.97616 0.0680193
-0.423293 -0.0563872 0.394535 -0.0059659 -0.999979 -0.00256043
0.053611 -0.0898784 0.69042 0.835408 -0.549628 0.00156393
0.0221848 -0.0469096 0.895187 -0.949022 -0.20512 0.239341
0.252721 -0.0569316 0.448161 0.013198 0.99885 0.0460993
0.0372281 -0.0855648 0.187517 0.835639 -0.546617 -0.0540076
0.0394886 -0.00764513 0.465797 0.553527 0.831119 -0.0533725
-0.0121038 -0.0735754 0.201873 0.410891 0.908839 -0.0719683
-0.09676 -0.055153 0.449396 0.00799265 -0.999702 -0.0230736
0.0103068 -0.0797106 0.127597 -0.133853 0.988499 -0.07038
0.402832 -0.0565903 0.447733 -0.0095933 0.999947 -0.00374431
0.00772685 0.00612857 0.467036 0.19259 0.979625 -0.056949
-0.00597873 -0.0523603 0.448608 0.711394 -0.700802 -0.0528745
0.23832 -0.0523751 0.501524 -0.00637856 -0.999976 0.00255783
-0.000995483 0.0154334 0.711402 -0.196431 0.980421 0.0137748
0.0151923 0.0128267 0.679764 0.197364 0.980311 0.00620556
-0.00515859 -0.118299 0.792294 -0.195351 -0.980731 0.00231759
0.13555 -0.0541929 0.453948 0.0159684 -0.998809 0.0460985
-0.00418887 -0.052939 0.481939 0.251871 -0.967525 -0.0213504
-0.0548265 -0.0880957 0.722094 -0.834422 -0.551118 -0.00295832
0.0155037 -0.100428 0.151538 0.194796 -0.971795 -0.132929
-0.125943 -0.0553144 0.63791 -0.137434 -0.961783 0.236825
-0.197146 -0.057935 0.570928 -0.023818 -0.999245 0.0306855
-0.0225695 -0.0582924 0.543536 0.013198 -0.99885 -0.0460993
-0.0711013 -0.0574981 0.51243 0.013198 -0.99885 -0.0460993
0.0370244 -0.0446644 0.926275 0.46678 0.0940808 0.879355
0.0329601 -0.0950443 0.240343 0.563296 -0.825283 -0.0400669
0.248324 -0.0528997 0.451555 0.00306219 -0.999729 0.0230761
-0.0391242 -0.0814809 0.175838 -0.834829 -0.54818 -0.050591
-0.107819 -0.0515213 0.611591 -0.015589 0.99976 0.0153691
0.0631224 -0.0336503 0.796263 0.980713 0.195452 0.000686974
-0.366399 -0.0563158 0.490363 -0.0395926 -0.997332 0.0613352
0.0502171 -0.0876002 0.475737 0.830828 -0.555644 -0.0313878
0.01638 -0.0580362 0.688332 -0.0395926 0.997332 -0.0613352
-0.0323028 -0.0483968 0.131966 -0.760812 0.528979 -0.375961
-0.0632314 -0.0407252 0.577371 -0.980578 0.193459 -0.03227
0.0278274 0.00818977 0.777725 0.557499 0.830144 0.0074368
0.269241 -0.0525872 0.495699 -0.00637856 -0.999976 0.00255783
0.193088 -0.051985 0.541257 -0.00637856 -0.999976 0.00255783
0.0253128 -0.0587931 0.670068 -0.0400529 0.997313 -0.0613334
0.0109995 -0.0236516 0.146486 0.188715 0.947795 -0.257042
-0.0585336 -0.0296218 0.506558 -0.979837 0.195346 -0.0419384
-0.00533442 -0.0381044 0.875851 0.173502 -0.94313 0.283552
0.210931 -0.05221 0.547926 -0.00948679 -0.999947 -0.00392914
-0.357818 -0.0568399 0.418793 -0.0059659 -0.999979 -0.00256043
0.0489434 -0.0428192 0.272791 0.97695 0.198992 -0.0772663
-0.061572 -0.0614663 0.867173 -0.97652 -0.194557 0.0925053
-0.0061854 -0.006794 0.287752 -0.190903 0.97815 -0.0823374
-0.0171548 0.00895299 0.551715 -0.194621 0.979649 -0.0490887
0.0288128 0.00752551 0.602683 0.558232 0.829496 -0.0177084
0.0471292 -0.0996491 0.697799 0.560273 -0.828308 -0.000689518
-0.0307326 0.0212722 0.612135 -0.965233 0.193045 -0.176234
-0.00403357 -0.00996022 0.244595 -0.190922 0.978249 -0.0811003
0.00474961 0.00220618 0.390945 0.192247 0.977884 -0.0823599
0.00290556 0.0525963 0.144227 -0.999871 -0.0155693 0.00384445
0.07166 0.0892496 0.103556 0.00936105 -0.999925 -0.00789383
-0.385797 -0.0566696 0.417478 -0.0059659 -0.999979 -0.00256043
-0.124851 -0.0587202 0.586781 -0.0114873 -0.999905 0.0076902
0.0529023 -0.0909252 0.701112 0.835408 -0.549628 0.00156393
0.111912 -0.057346 0.497452 0.013198 0.99885 0.0460993
-0.173705 -0.0519646 0.573594 -0.015589 0.99976 0.0153691
-0.240946 -0.0577422 0.540439 -0.0115867 -0.999902 0.00787654
-0.0404116 0.0883505 0.0707183 0.0390673 0.99812 -0.0472163
0.078426 -0.0590899 0.596174 -0.00506851 0.999974 0.00512583
-0.0527804 -0.0859999 0.514975 -0.829857 -0.557128 -0.0307626
-0.10097 -0.0581208 0.517372 0.013198 -0.99885 -0.0460993
-0.201193 -0.0524266 0.478307 0.00306219 0.999729 -0.0230761
0.0801367 -0.0543702 0.469299 0.0159684 -0.998809 0.0460985
-0.108021 -0.0552485 0.449633 0.00799265 -0.999702 -0.0230736
-0.0251224 -0.0511445 0.903215 0.949164 -0.204511 0.239297
-0.0653415 -0.0463954 0.825566 -0.977668 0.195374 0.0774231
