-0.0546398 -0.0874356 0.508794 -0.965926 -0.258818 0
-0.0310156 -0.097659 0.876266 -0.887389 -0.23778 0.394971
-0.0193294 -0.0203648 0.611136 -0.258818 0.965926 0
-0.183402 -0.0887035 0.44701 -0.0126991 -0.979338 -0.201831
0.361318 -0.0735579 0.389098 0.0948924 -0.995488 -7.70545e-05
-0.0163979 -0.0195793 0.492216 -0.258818 0.965926 0
0.0388478 -0.114417 0.766852 0.706178 -0.706188 0.0511055
0.0198018 -0.126602 0.435071 0.258832 -0.965922 0
-0.0294567 -0.119999 0.304247 -0.695577 -0.695577 -0.179846
-0.0208944 -0.0212558 0.288335 -0.258789 0.965819 -0.0148564
-0.15565 -0.101786 0.584075 -0.707097 0.707117 0
0.0684531 -0.112555 0.552002 0.247465 -0.968897 -8.21444e-05
-0.0509708 -0.101129 0.505237 -0.965926 -0.258818 0
-0.0410364 -0.0798943 0.862018 -0.921367 0.24691 0.300197
-0.00620235 0.0166751 0.135278 -0.998679 -0.0183817 -0.0479838
0.0236823 -0.0215311 0.342391 0.258832 0.965922 0
0.297285 -0.0796639 0.418351 0.0948929 -0.995488 -8.13259e-05
-0.349114 -0.0737084 0.382162 -0.0100222 -0.979881 -0.199333
0.346435 -0.0749777 0.403745 0.094892 -0.995488 -8.13268e-05
-0.0520155 -0.0498635 0.745779 -0.965922 0.258832 0
-0.0552185 -0.0618166 0.617272 -0.965922 0.258832 0
-0.026164 -0.124897 0.651024 -0.258818 -0.965926 0
0.128859 -0.0847535 0.475705 -0.705801 0.705726 -0.0616128
-0.0126308 -0.020674 0.182333 -0.258766 0.965791 -0.0169488
0.0420269 -0.035851 0.540028 0.707107 0.707107 0
0.131985 -0.087391 0.536643 0.459621 0 0.888115
-0.0343654 -0.118904 0.418015 -0.707102 -0.707112 0
0.00402692 -0.00734011 0.0932481 0.998668 -0.0185433 -0.0481461
0.126009 -0.0863012 0.50971 -0.965196 0.258611 -0.0389569
-0.00372971 -0.0826742 0.928535 -0.425667 0.425484 0.798605
0.0508124 -0.0576805 0.792898 0.958815 0.256913 0.121119
0.0422402 -0.0462048 0.81309 0.698768 0.698783 0.153055
-0.130007 -0.0266371 0.0497266 -0.10493 -0.99448 -8.44694e-05
-0.0814094 -0.0248254 0.0410201 0.109428 0.992708 -0.0505646
-0.0804074 -0.0857787 0.477971 0.0649091 0.997165 -0.038067
-0.0051655 -0.0165696 0.39047 -0.258818 0.965926 0
0.0324863 -0.0432371 0.127619 0.960735 0.25761 -0.103083
0.016692 -0.125877 0.813563 0.258752 -0.965409 0.0321498
-0.0361277 -0.104951 0.271848 -0.695572 -0.695582 -0.179848
-0.047668 -0.0898845 0.426246 0.0649091 0.997165 -0.038067
0.0321378 -0.0259619 0.494378 0.707107 0.707107 0
0.00527259 -0.0165979 0.597862 0.258832 0.965922 0
0.0169234 -0.127373 0.714316 0.258832 -0.965922 0
0.157807 -0.0175878 0.0381067 -0.0692859 0.997597 5.39548e-05
-0.0423103 -0.0517356 0.831839 -0.667323 0.667337 0.330666
0.0370466 -0.0308707 0.749099 0.707107 0.707107 0
-0.0557112 -0.0636555 0.425275 -0.965922 0.258832 0
0.0672824 -0.0860579 0.540702 -0.0550551 0.998483 6.09835e-05
0.00511554 0.0347373 0.105739 0.998679 -0.0183817 -0.0479838
0.0455219 -0.0690785 0.218583 0.956812 -0.256644 -0.136547
-0.0133312 -0.12654 0.820709 -0.258736 -0.965412 0.032177
0.189667 -0.0832338 0.420731 0.0122129 -0.979724 -0.199981
-0.115415 -0.100556 0.503662 -0.247465 -0.968897 -8.21444e-05
-0.0242283 -0.0305418 0.111991 -0.703934 0.708635 -0.0481041
-0.140865 -0.0984145 0.559098 -0.254952 0.951504 -0.172159
-0.187788 -0.0799401 0.417631 0.080159 0.996281 -0.0315915
-0.149596 -0.0890729 0.446675 -0.0126991 -0.979338 -0.201831
-0.040712 -0.0345361 0.430684 -0.707107 0.707107 0
0.170584 -0.0799048 0.47428 -0.0684789 0.997653 3.26308e-05
-0.0579294 -0.0719335 0.761452 -0.965922 0.258832 0
-0.0497794 -0.0697559 0.249693 -0.956815 -0.256649 -0.136517
-0.0482927 -0.104977 0.395098 -0.707102 -0.707112 0
-0.143015 -0.0996382 0.500568 -0.706541 -0.706598 -0.0389777
-0.0465309 -0.0723432 0.838944 -0.921367 0.24691 0.300197
0.148286 -0.0903134 0.580248 0.965929 0.258806 0
-0.0491491 -0.0597528 0.810464 -0.958806 0.256943 0.121122
-0.170926 -0.0889643 0.51588 -0.268564 -0.894959 0.35626
0.0514822 -0.0992201 0.722358 0.965922 -0.258832 0
0.00445646 0.124927 0.0577102 0.996337 -0.0200854 -0.0831195
0.143318 -0.0999104 0.629139 0.189808 0.708234 0.679984
-0.131157 -0.0825335 0.479605 0.0550464 0.998484 3.2658e-05
-0.164892 -0.0803437 0.462139 0.0820134 0.996066 -0.0335567
0.275052 -0.0739298 0.380845 -0.0834597 0.995946 -0.0335527
0.359949 -0.0667169 0.399472 -0.069763 0.997564 6.54245e-05
0.0346521 -0.0542584 0.852982 0.667265 0.66735 0.33076
-0.0211308 -0.0208475 0.559329 -0.258818 0.965926 0
0.38511 -0.0682081 0.356184 -0.000144663 -0.981273 -0.19262
-0.0776076 -0.0852129 0.551074 0.0549111 0.998491 0.000301984
0.00403028 0.116371 0.0828785 0.504698 0.572555 0.646112
-0.144804 -0.149062 0.587269 -0.258792 -0.965933 0
-0.357111 -0.0689609 0.358732 -0.00991139 -0.981225 -0.19261
0.28221 -0.0722742 0.41169 -0.0840345 0.995875 -0.0342296
0.033521 -0.0351709 0.183504 0.706518 0.706518 -0.0408072
-0.00154547 -0.131494 0.48517 -0.258818 -0.965926 0
0.0547376 -0.0881513 0.423391 0.965927 -0.258816 0
-0.00534755 0.0714876 0.0964898 -0.998679 -0.0183817 -0.0479838
0.0474528 -0.0412769 0.632626 0.707107 0.707107 0
-0.234479 -0.0758473 0.424851 0.0834597 0.995946 -0.0335527
-0.0397807 -0.0697282 0.181899 -0.952675 -0.255271 -0.165067
0.00737375 0.00132156 0.213182 0.397293 0.886472 0.237329
0.280166 -0.0719901 0.441564 -0.0624386 0.997958 0.0134797
-0.384992 -0.068783 0.359114 0.00015963 -0.981273 -0.19262
0.0509816 -0.101088 0.389151 0.965922 -0.258832 0
0.0151442 -0.0192432 0.688523 0.258832 0.965922 0
-0.294218 -0.0781043 0.450204 -0.252559 -0.911815 0.32374
-0.137238 -0.0991946 0.589113 -0.0977628 -0.364768 0.925952
0.0275629 -0.122657 0.572117 0.38035 -0.826234 0.415538
-0.0575323 -0.0766407 0.546639 -0.965926 -0.258818 0
0.0180844 -0.020031 0.632525 0.258832 0.965922 0
-0.109317 -0.114765 0.613201 0.965929 0.258808 0
-0.000378966 -0.131806 0.647021 -0.258818 -0.965926 0
-0.0289673 -0.0333443 0.0524993 -0.0252615 -0.98006 -0.197091
-0.0337609 -0.0344569 0.20002 -0.706518 0.706518 -0.0408071
-0.0104133 -0.109352 0.227565 -0.253322 -0.945539 -0.20441
0.108066 -0.0260485 0.0268338 0.0207236 -0.972943 -0.230115
-0.309505 -0.0707412 0.38991 0.0816829 0.99607 -0.0342363
-0.00744339 -0.01718 0.756614 -0.258818 0.965926 0
-0.0059613 -0.0073836 0.165267 -0.995604 -0.0904713 -0.0242212
0.112519 -0.0847536 0.447882 -0.0686465 0.99714 -0.0316187
0.0188749 -0.087838 0.146832 0.690173 -0.690298 -0.217139
0.13132 -0.0208091 0.0114224 -0.0973361 0.994836 -0.0287616
0.00552722 0.0812849 0.0964759 0.998679 -0.0183817 -0.0479838
0.0463935 -0.0277383 0.107848 -0.0870157 0.996184 0.00672435
0.00498844 -0.0165218 0.533028 0.258832 0.965922 0
0.124442 -0.0913063 0.547452 -0.96593 -0.258805 0
0.0506463 -0.0572317 0.28138 0.962386 0.25787 -0.0855371
-0.12435 -0.0833564 0.46626 0.0686465 0.99714 -0.0316187
-0.0309025 -0.0247266 0.480636 -0.707107 0.707107 0
-0.00368527 0.0695923 0.0626191 -0.998679 -0.0183817 -0.0479838
0.145446 -0.0965891 0.489366 0.706634 -0.706506 -0.0389559
0.0052917 0.0458746 0.0937758 0.99868 -0.0184373 -0.0479428
-0.00149721 -0.127823 0.301958 -0.253322 -0.945539 -0.20441
0.0570277 -0.0796081 0.627993 0.965928 -0.258812 0
-0.0399077 -0.0337318 0.679726 -0.707107 0.707107 0
-0.0647687 -0.0301611 0.041259 -0.0252615 -0.98006 -0.197091
-0.126368 -0.09735 0.559102 0.70717 -0.707044 0
-0.0515265 -0.0480387 0.486153 -0.965922 0.258832 0
-0.360602 -0.0666715 0.403593 0.069763 0.997564 6.54245e-05
0.00555959 -0.120629 0.273713 0.253367 -0.945528 -0.204407
0.0586205 -0.0736647 0.764602 0.966504 -0.256652 0
0.037796 -0.0524019 0.156877 0.960788 0.257341 -0.103259
-0.0245807 -0.0776247 0.132504 -0.690176 -0.690301 -0.217119
-0.0350077 -0.0368124 0.181224 -0.706269 0.706269 -0.0486675
0.0531915 -0.0905153 0.312605 0.956885 -0.256393 -0.136505
-0.0329021 -0.0267262 0.396942 -0.707107 0.707107 0
-0.0761995 -0.110576 0.542337 -0.247465 -0.968897 -8.21444e-05
-0.0472085 -0.0872345 0.496446 0.0649091 0.997165 -0.038067
0.0254148 -0.120886 0.834721 0.687975 -0.687886 0.23131
0.235227 -0.0754449 0.446707 -0.0697994 0.997561 5.85188e-05
0.00407565 -0.102746 0.18915 0.253341 -0.945536 -0.204403
-0.0289431 -0.0229408 0.642847 -0.258818 0.965926 0
-0.0402842 -0.0283082 0.113227 0.0870157 0.996184 0.00672435
-0.00462772 -0.0119444 0.115159 -0.995624 -0.0895691 -0.0266541
0.113123 -0.0835285 0.502172 -0.0550464 0.998484 3.2658e-05
-0.107626 -0.0225077 0.0297871 0.109428 0.992708 -0.0505646
0.0074941 -0.0171932 0.370328 0.258832 0.965922 0
-0.161812 -0.127206 0.56864 -0.951507 -0.254944 -0.172158
-0.0283217 -0.0643029 0.107374 -0.952675 -0.255271 -0.165067
-0.0524188 -0.0725771 0.275528 -0.956881 -0.256395 -0.136529
0.335381 -0.0691238 0.37523 -0.0816829 0.99607 -0.0342363
-0.0034365 0.0548966 0.0589788 -0.996328 -0.020187 -0.0832023
0.131459 -0.149996 0.61517 -0.258825 -0.965924 0
0.0546241 -0.0761149 0.80183 0.958808 0.256944 0.121106
-0.0554684 -0.0627494 0.365034 -0.965922 0.258832 0
0.117639 -0.0832791 0.489265 -0.0550464 0.998484 3.2658e-05
-0.0382181 -0.0375426 0.791906 -0.698775 0.698775 0.153055
-0.0246991 -0.12529 0.466864 -0.258818 -0.965926 0
0.0457015 -0.0395256 0.578713 0.707107 0.707107 0
-0.173569 -0.0915225 0.489781 -0.0961935 -0.995363 -8.43883e-05
0.0133407 -0.125766 0.307121 0.253367 -0.945528 -0.204407
-0.129946 -0.0822935 0.494993 0.706607 0.706533 -0.0389645
-0.128378 -0.0829727 0.5111 0.706642 0.706498 -0.0389564
-0.228091 -0.0779237 0.484344 -0.130892 0.915762 0.379799
-0.347295 -0.0748956 0.40275 -0.094892 -0.995488 -8.13268e-05
-0.0704572 -0.11204 0.513679 -0.247467 -0.968896 -7.88764e-05
0.0503664 -0.102903 0.587007 0.707102 -0.707112 0
-0.271231 -0.0738754 0.391964 0.0834597 0.995946 -0.0335527
-0.00753458 -0.0172044 0.344065 -0.258818 0.965926 0
-0.271604 -0.0821143 0.446655 -0.0948929 -0.995487 -8.63791e-05
-0.162527 -0.0867138 0.436042 -0.0126991 -0.979338 -0.201831
0.0512906 -0.0999353 0.523109 0.965922 -0.258832 0
0.00992431 -0.0198629 0.187769 0.258794 0.965818 -0.0148564
-0.138654 -0.0837018 0.423671 0.080159 0.996281 -0.0315915
-0.0549775 -0.0609173 0.649934 -0.965922 0.258832 0
-0.0573783 -0.0772152 0.497783 -0.965926 -0.258818 0
-0.0483819 -0.104888 0.707353 -0.707102 -0.707112 0
0.0260303 -0.123762 0.801943 0.258698 -0.965422 0.0321751
-0.00490409 0.113654 0.0593768 -0.99868 -0.018331 -0.0479862
-0.0667717 -0.0860858 0.536298 0.0550551 0.998483 6.09835e-05
0.268011 -0.0778287 0.398402 0.00962845 -0.979883 -0.199342
-0.281187 -0.0723074 0.413236 0.0840345 0.995875 -0.0342296
0.00721767 0.0278565 0.140751 0.998677 -0.0184164 -0.0480145
-0.0158018 -0.0194196 0.688714 -0.258818 0.965926 0
0.38385 -0.0713508 0.380783 0.129802 -0.99154 -7.67308e-05
0.0120368 -0.0184105 0.423693 0.258832 0.965922 0
0.0537178 -0.0562172 0.753222 0.965926 0.258818 0
-0.210633 -0.0879378 0.458531 -0.0961937 -0.995363 -8.63745e-05
0.139597 -0.150457 0.587411 0.258792 -0.965933 0
0.00394513 0.0823737 0.063131 0.998679 -0.0183817 -0.0479838
0.0253159 -0.0219688 0.379156 0.258832 0.965922 0
-0.0919483 -0.0846982 0.546366 0.0550551 0.998483 6.09835e-05
0.151238 -0.111814 0.538842 0.655827 0.655827 -0.373876
-0.076739 -0.0249 0.0800507 0.0870157 0.996184 0.00672435
-0.00391276 -0.130859 0.451192 -0.258818 -0.965926 0
-0.124868 -0.0898633 0.437349 -0.202907 -0.959043 -0.197649
-0.0372198 -0.0310439 0.565419 -0.707107 0.707107 0
-0.0912858 -0.0865294 0.437978 0.0686465 0.99714 -0.0316187
0.140377 -0.148377 0.571128 0.254928 -0.951513 -0.172145
-0.042675 -0.109999 0.775024 -0.706178 -0.706188 0.0511047
0.129801 -0.099574 0.498712 -0.706633 -0.706506 -0.038976
-0.0744259 -0.0870555 0.454726 0.0649091 0.997165 -0.038067
-0.0338139 -0.119455 0.679269 -0.707102 -0.707112 0
0.0442962 -0.118723 0.525911 0.247467 -0.968896 -7.88764e-05
0.0148653 -0.0293508 0.823361 0.254984 0.951652 0.171296
0.0454176 -0.0392417 0.41614 0.707107 0.707107 0
0.100135 -0.029789 0.049845 0.10493 -0.99448 -8.44694e-05
0.148231 -0.148144 0.609134 0.258792 -0.965933 0
0.00248924 0.0894102 0.042712 0.996337 -0.0200854 -0.0831195
-0.103849 -0.0840406 0.522882 0.0550551 0.998483 6.09835e-05
0.0363677 -0.101905 0.260994 0.695572 -0.695582 -0.179846
0.00489068 -0.00782928 0.122924 0.995604 -0.0904713 -0.0242212
0.0427133 -0.0628117 0.189166 0.95688 -0.256398 -0.136532
0.0294048 -0.0292579 0.113142 -0.0870157 0.996184 0.00672435
0.055998 -0.109414 0.469524 0.058099 -0.920664 -0.386009
0.0396332 -0.0605478 0.166852 0.952672 -0.255271 -0.165084
-0.00484017 0.0633825 0.0772848 -0.998669 -0.0184914 -0.0481426
-0.0381385 -0.0319626 0.533917 -0.707107 0.707107 0
-0.0577461 -0.0758425 0.442302 -0.965926 -0.258818 0
0.116794 -0.11566 0.538826 -0.951488 0.255004 -0.172175
-0.0532563 -0.0793868 0.810808 -0.962534 -0.257903 0.0837566
-0.00130718 -0.103536 0.910106 -0.233724 -0.872541 0.429004
0.0563909 -0.0819847 0.368089 0.965928 -0.258812 0
-0.000773501 0.0209287 0.0475054 -0.978315 -0.051718 -0.200562
0.227652 -0.0805797 0.409936 0.00971074 -0.97975 -0.199987
-0.126267 -0.0972492 0.527461 0.70717 -0.707044 0
0.0259635 -0.0730315 0.122294 0.69024 -0.69024 -0.217114
-0.139831 -0.0991145 0.480283 -0.248924 -0.928439 -0.275748
-0.05464 -0.0874347 0.477504 -0.965926 -0.258818 0
0.0252118 -0.0227909 0.263736 0.258803 0.965816 -0.0148547
-0.0527132 -0.0524675 0.601363 -0.965922 0.258832 0
-0.00250831 -0.068309 0.0698925 -0.239999 -0.89558 -0.374616
0.0096317 -0.121761 0.851684 0.252932 -0.943916 0.212247
-0.0318707 -0.119059 0.488895 -0.058108 -0.920666 -0.386001
0.00500584 -0.130567 0.414046 0.258832 -0.965922 0
0.0509069 -0.101367 0.706653 0.965922 -0.258832 0
0.154956 -0.093323 0.510559 0.0961935 -0.995363 -8.43883e-05
0.0529132 -0.0532143 0.513918 0.965926 0.258818 0
-0.00251907 -0.0143289 0.0704957 -0.998679 -0.0183817 -0.0479838
-0.0171797 -0.0197888 0.469716 -0.258818 0.965926 0
0.0291593 -0.0255532 0.778526 0.698775 0.698775 0.15306
-0.0128491 -0.128465 0.733371 -0.258818 -0.965926 0
0.0266987 -0.0485652 0.856947 0.667328 0.667333 0.330666
-0.126788 -0.0956115 0.467212 -0.202907 -0.959043 -0.197649
0.0550031 -0.0610138 0.335967 0.965926 0.258818 0
-0.0104463 -0.121507 0.851836 -0.252914 -0.943929 0.212207
0.00407136 -0.0161439 0.108195 0.995477 -0.0912195 -0.0265538
0.0576914 -0.0760485 0.655723 0.965922 -0.258832 0
0.0551681 -0.0616297 0.733008 0.965926 0.258818 0
-0.138079 -0.0823072 0.469112 0.080159 0.996281 -0.0315915
-0.0585093 -0.0344269 0.0944402 -0.103047 -0.994632 -0.00943761
0.0308202 -0.0246443 0.726532 0.707107 0.707107 0
-0.0941477 -0.0298686 0.0435701 -0.0252615 -0.98006 -0.197091
-0.0345905 -0.118679 0.359529 -0.707102 -0.707112 0
0.15906 -0.0231322 0.0186407 0.00939929 -0.973066 -0.230335
-0.0626359 -0.11404 0.538566 -0.247467 -0.968896 -7.88764e-05
-0.0179785 -0.118217 0.277949 -0.253353 -0.945532 -0.204403
0.0285426 -0.0290716 0.0743742 -0.0870157 0.996184 0.00672435
-0.233895 -0.0764087 0.409636 0.0834597 0.995946 -0.0335527
0.174104 -0.0796645 0.502254 -0.0684521 0.997654 5.85228e-05
0.109797 -0.112975 0.596406 -0.965929 0.258808 0
0.0540642 -0.0895846 0.449592 0.965922 -0.258832 0
-0.00499704 -0.130569 0.399052 -0.258818 -0.965926 0
0.0265078 -0.124805 0.543582 0.258832 -0.965922 0
0.0472937 -0.0871619 0.570623 -0.0550551 0.998483 6.09835e-05
0.143054 -0.0958863 0.474184 0.695602 -0.695658 -0.179439
0.0576055 -0.0707263 0.639301 0.965926 0.258818 0
0.138922 -0.0798738 0.512055 0.258592 0.9652 -0.0389648
0.116839 -0.100192 0.489073 0.247467 -0.968896 -7.88764e-05
0.031235 -0.122058 0.513104 0.247467 -0.968896 -7.88764e-05
0.190287 -0.0786596 0.450063 -0.0820134 0.996066 -0.0335567
0.00336579 -0.129091 0.824293 0.258752 -0.965409 0.0321498
0.016284 -0.106305 0.220749 0.253341 -0.945536 -0.204403
-0.0394697 -0.0612468 0.165315 -0.952635 -0.255389 -0.165117
-0.00483687 -0.130612 0.591574 -0.258818 -0.965926 0
0.0336432 -0.031939 0.241577 0.706518 0.706518 -0.0408071
-0.164547 -0.0803196 0.487019 0.0684789 0.997653 3.26308e-05
-0.0227617 -0.0995871 0.199408 -0.695577 -0.695577 -0.179846
0.0401001 -0.0339242 0.671602 0.707107 0.707107 0
0.0562724 -0.082427 0.68874 0.965928 -0.258812 0
-0.150306 -0.0968962 0.596322 -0.258816 0.965927 0
0.0418112 -0.111458 0.74622 0.707102 -0.707112 0
0.00302083 0.0665407 0.0511761 0.996328 -0.020187 -0.0832023
-0.0476861 -0.105583 0.351973 -0.707102 -0.707112 0
0.0471564 -0.0427754 0.28792 0.706518 0.706518 -0.0408071
-0.0649398 -0.0883872 0.436016 0.0649091 0.997165 -0.038067
-0.147533 -0.0875037 0.552493 -0.965929 0.258806 0
-0.0251846 -0.0657674 0.883746 -0.615551 0.615555 0.492127
0.0340357 -0.0278598 0.659927 0.707107 0.707107 0
-0.24724 -0.0743015 0.460008 0.0512899 0.998044 0.0357294
0.0104491 -0.0283498 0.0394384 0.496428 0.496427 -0.712123
-0.0462977 -0.0401218 0.689125 -0.707107 0.707107 0
0.0324756 -0.0262997 0.529978 0.707107 0.707107 0
-0.112726 -0.10763 0.575639 0.696538 0.696558 -0.172168
-0.0408511 -0.0420183 0.217035 -0.962383 0.257883 -0.0855338
-0.0461263 -0.104365 0.80519 -0.706179 -0.706187 0.0511056
-0.00972966 -0.0189322 0.244907 -0.258789 0.965819 -0.0148564
-0.108993 -0.0288708 0.0600917 -0.103047 -0.994632 -0.00943761
-0.0248445 -0.0218426 0.503254 -0.258818 0.965926 0
0.1563 -0.141957 0.581104 0.69655 -0.69655 -0.172153
0.163271 -0.130425 0.604647 0.965929 -0.258808 0
0.0441993 -0.0380907 0.317831 0.706518 0.706518 -0.0408071
0.0484488 -0.11766 0.501301 0.247467 -0.968896 -7.88764e-05
-0.0139713 -0.128164 0.698325 -0.258818 -0.965926 0
-0.214235 -0.0769095 0.477959 0.0684521 0.997654 5.85228e-05
-0.0948438 -0.105812 0.51766 -0.247465 -0.968897 -8.21444e-05
-0.0503086 -0.0276418 0.04925 0.0973361 0.994836 -0.0287616
0.00219678 0.137976 0.0274707 0.996337 -0.0200854 -0.0831195
-0.0482594 -0.10501 0.378722 -0.707102 -0.707112 0
0.0786016 -0.108974 0.482581 0.202912 -0.959044 -0.197638
0.036277 -0.093563 0.228381 0.695577 -0.695577 -0.179847
-0.0031631 -0.0160331 0.661249 -0.258818 0.965926 0
0.0403988 -0.066421 0.852896 0.921374 0.246912 0.300173
0.075495 -0.105111 0.560724 0.4342 -0.327525 0.839165
-0.0149026 -0.0191786 0.673583 -0.258818 0.965926 0
-0.0123538 -0.0333269 0.837367 -0.242635 0.905622 0.347818
0.147794 -0.130983 0.529842 0.655827 -0.655827 -0.373876
-0.0427972 -0.110472 0.489864 -0.707102 -0.707112 0
0.330175 -0.0745917 0.385551 0.0100188 -0.979879 -0.199341
0.330551 -0.0698913 0.364423 -0.0816829 0.99607 -0.0342363
0.157725 -0.113953 0.550976 0.951504 0.254943 -0.172172
-0.00513519 0.0324738 0.156024 -0.392382 0.605161 0.692688
-0.0186196 -0.0208569 0.274641 -0.258789 0.965819 -0.0148564
-0.0278141 -0.0377633 0.125825 -0.282748 -0.911712 0.298052
-0.0955845 -0.105228 0.481842 -0.202907 -0.959043 -0.197649
0.0672815 -0.0882225 0.436336 -0.0649091 0.997165 -0.038067
0.0769639 -0.0268428 0.100797 0.114888 0.937092 0.329634
-0.164783 -0.124056 0.619478 -0.960178 -0.257284 0.108915
-0.0558535 -0.0829061 0.622609 -0.965926 -0.258818 0
0.0556995 -0.103447 0.455245 0.058099 -0.920664 -0.386009
-0.0135085 -0.128288 0.64475 -0.258818 -0.965926 0
-0.0465963 -0.0467441 0.267428 -0.962383 0.257883 -0.0855338
0.0897714 -0.0979178 0.556144 0.4342 -0.327525 0.839165
-0.143526 -0.0829378 0.526075 -0.148042 0.90023 0.409476
0.12567 -0.0271005 0.0556135 0.103047 -0.994632 -0.00943761
0.113638 -0.106175 0.62356 -0.702898 0.702905 0.108905
0.0456773 -0.107592 0.676211 0.707102 -0.707112 0
0.0113386 -0.0182234 0.706897 0.258832 0.965922 0
0.140988 -0.0993717 0.587603 0.215334 -0.803444 0.555075
0.0459746 -0.0282574 0.0426214 -0.0973361 0.994836 -0.0287616
-0.0121873 -0.128642 0.363334 -0.258818 -0.965926 0
-0.0548177 -0.0603209 0.533532 -0.965922 0.258832 0
-0.131158 -0.0946125 0.581227 0.254984 0.951495 -0.172163
0.0104257 -0.0515213 0.878616 0.221988 0.827657 0.515466
-0.0301849 -0.122327 0.530041 -0.247467 -0.968896 -7.88764e-05
-0.00865978 -0.0496552 0.876381 -0.221988 0.827657 0.515466
-0.0282288 -0.0227494 0.364923 -0.258818 0.965926 0
0.203306 -0.0886452 0.450139 0.0961937 -0.995363 -8.63745e-05
-0.151584 -0.0983942 0.622112 -0.702899 0.702906 0.108885
-0.0331296 -0.030772 0.252889 -0.706518 0.706518 -0.0408072
0.0524762 -0.0816991 0.291029 0.95677 -0.256814 -0.136521
0.377206 -0.0691422 0.407041 0.467606 0 0.883937
-0.119742 -0.145312 0.596755 0.707107 -0.707107 0
0.012714 -0.018592 0.74264 0.258832 0.965922 0
-0.152132 -0.0179815 0.0318334 0.0692859 0.997597 5.39548e-05
0.0380484 -0.115221 0.638251 0.707102 -0.707112 0
-0.0579317 -0.0719421 0.642418 -0.965922 0.258832 0
0.0228827 -0.0258084 0.164961 0.706268 0.706268 -0.0486833
0.00119845 -0.0182097 0.14817 0.258785 0.965786 -0.0169406
-0.0415602 -0.0364955 0.299759 -0.706518 0.706518 -0.0408072
-0.165024 -0.120601 0.586463 -0.965929 0.258808 0
-0.00177753 -0.121466 0.862353 -0.252972 -0.943905 0.212244
0.00376152 -0.0176634 0.288581 0.314235 0.915406 0.251572
-0.00746039 0.0200812 0.148405 -0.998686 -0.0182505 -0.0478789
0.0310825 -0.122187 0.446328 0.707102 -0.707112 0
0.00937236 -0.0368795 0.848698 0.24265 0.905619 0.347814
0.0522197 -0.0798023 0.818117 0.962529 -0.257922 0.0837523
0.0559717 -0.0824658 0.750517 0.965922 -0.258832 0
-0.0546647 -0.0597499 0.398186 -0.965922 0.258832 0
-0.110832 -0.119793 0.565652 0.951507 0.254944 -0.172158
0.0186506 -0.119142 0.283061 0.253367 -0.945528 -0.204407
0.359096 -0.0706989 0.367686 0.00990781 -0.981225 -0.19261
0.19342 -0.0783373 0.470737 -0.0684521 0.997654 5.85228e-05
0.149187 -0.139485 0.54232 0.696597 -0.696507 -0.172135
-0.0389854 -0.0328095 0.549902 -0.707107 0.707107 0
-0.0481715 -0.0419956 0.404684 -0.707107 0.707107 0
0.00592569 0.0483422 0.117389 0.998679 -0.0183817 -0.0479838
0.00651837 0.00700729 0.193376 0.397293 0.886472 0.237329
-0.0115428 -0.0182784 0.538775 -0.258818 0.965926 0
-0.0366019 -0.030426 0.708373 -0.707107 0.707107 0
0.148687 -0.082682 0.430374 -0.080159 0.996281 -0.0315915
-0.156661 -0.136461 0.560326 -0.69655 -0.69655 -0.172153
0.193195 -0.0806762 0.408417 0.0122129 -0.979724 -0.199981
0.0417818 -0.111488 0.408369 0.707102 -0.707112 0
0.0205616 -0.126398 0.655246 0.258832 -0.965922 0
0.0858292 -0.108113 0.504455 0.247467 -0.968896 -7.88764e-05
-0.0384582 -0.120216 0.553073 -0.247467 -0.968896 -7.88764e-05
-0.0197792 -0.0383517 0.0851864 -0.103047 -0.994632 -0.00943761
0.0260113 -0.0221552 0.361326 0.258832 0.965922 0
0.0422749 -0.110994 0.391417 0.707102 -0.707112 0
0.0544465 -0.0881579 0.618039 0.965922 -0.258832 0
-0.138113 -0.0245764 0.0233157 -0.0207236 -0.972943 -0.230115
0.0515782 -0.0988618 0.661669 0.965922 -0.258832 0
0.051263 -0.100038 0.362228 0.965922 -0.258832 0
0.0564524 -0.0806721 0.410734 0.965922 -0.258832 0
0.0550964 -0.0857325 0.736253 0.965922 -0.258832 0
0.0374161 -0.0312402 0.445203 0.707107 0.707107 0
0.0302529 -0.024077 0.76532 0.707107 0.707107 0
-0.0229656 -0.125754 0.418643 -0.258818 -0.965926 0
-0.00411314 -0.0550443 0.0419562 -0.136776 -0.510371 -0.849007
0.0171211 -0.095768 0.174872 0.250827 -0.936152 -0.246386
0.0422061 -0.0360302 0.347556 0.707107 0.707107 0
0.00591276 -0.00977172 0.172192 0.995604 -0.0904713 -0.0242212
-0.0744181 -0.104648 0.460928 -0.058108 -0.920666 -0.386001
0.0299317 -0.0237558 0.558515 0.707107 0.707107 0
0.0518841 -0.0493734 0.432687 0.965926 0.258818 0
-0.0146209 -0.0314629 0.0413107 -0.0207236 -0.972943 -0.230115
-0.0349446 -0.0412148 0.158239 -0.96079 0.257342 -0.103239
-0.00719775 -0.129979 0.578595 -0.258818 -0.965926 0
-0.0252541 -0.029467 0.0903975 0.0870157 0.996184 0.00672435
0.0448638 -0.105069 0.812894 0.706178 -0.706188 0.0511055
0.00372484 0.141169 0.0450158 0.996337 -0.0200854 -0.0831195
-0.00674407 -0.0908458 0.145606 -0.250809 -0.936159 -0.246376
0.0060014 -0.0175623 0.204935 0.995604 -0.0904713 -0.0242212
0.179593 -0.0170426 0.0206902 0.699987 0.714155 5.50746e-05
0.0348496 -0.11842 0.609203 0.707102 -0.707112 0
0.0564204 -0.0663033 0.465113 0.965926 0.258818 0
-0.052333 -0.0510485 0.713629 -0.965922 0.258832 0
-0.0478937 -0.041434 0.660313 -0.707142 0.707072 -3.88366e-06
0.0107828 -0.0180745 0.321859 0.258832 0.965922 0
-0.324468 -0.0701729 0.370744 0.0816829 0.99607 -0.0342363
-0.140387 -0.139089 0.537438 -0.240081 -0.89586 -0.373894
0.0613019 -0.0303138 0.0415739 0.0252615 -0.98006 -0.197091
0.0936203 -0.0847044 0.483583 -0.0649091 0.997165 -0.038067
-0.0271192 -0.0487969 0.0828701 -0.934051 -0.250382 -0.254672
-0.0547073 -0.103437 0.455073 -0.058108 -0.920666 -0.386001
-0.0270873 -0.0827008 0.156608 -0.690237 -0.690237 -0.217129
-0.0040365 -0.130826 0.341277 -0.258818 -0.965926 0
0.0259093 -0.0841588 0.157497 0.69024 -0.69024 -0.217114
-0.0672479 -0.0861283 0.491252 0.0649091 0.997165 -0.038067
0.0575419 -0.0766064 0.536377 0.965922 -0.258832 0
0.137628 -0.0821672 0.484062 -0.0684789 0.997653 3.26308e-05
-0.17221 -0.0797933 0.476346 0.0684789 0.997653 3.26308e-05
0.0283067 -0.124323 0.726188 0.258832 -0.965922 0
0.0319833 -0.0457059 0.840511 0.667324 0.667338 0.330663
-0.0526253 -0.0949537 0.645978 -0.965926 -0.258818 0
-0.0518583 -0.049277 0.379561 -0.965922 0.258832 0
0.00466703 -0.0230059 0.803293 0.255006 0.951644 0.171306
-0.0410535 -0.112216 0.330951 -0.707102 -0.707112 0
-0.0484045 -0.104865 0.743409 -0.707102 -0.707112 0
0.03593 -0.117339 0.328313 0.707102 -0.707112 0
0.0785285 -0.109979 0.524162 0.247467 -0.968896 -7.88764e-05
-0.0317538 -0.121515 0.337429 -0.707102 -0.707112 0
-0.0817013 -0.0902431 0.427667 -0.058108 -0.920666 -0.386001
0.274696 -0.0818185 0.435049 0.0948929 -0.995488 -8.13259e-05
-0.0232836 -0.0277698 0.142308 -0.706204 0.706333 -0.0486787
0.139197 -0.0946372 0.526178 0.284178 -0.878728 0.38351
-0.1135 -0.0243552 0.0780236 -0.530212 0 0.847865
-0.0455379 -0.0925923 0.26489 -0.95688 -0.256398 -0.13653
-0.00347043 0.0511439 0.140656 -0.392382 0.605161 0.692688
-0.0126242 -0.0573239 0.0536077 -0.666814 -0.666934 -0.332503
0.154212 -0.0817284 0.446427 -0.080159 0.996281 -0.0315915
0.251549 -0.0749157 0.410041 -0.0834597 0.995946 -0.0335527
0.0201765 -0.0358014 0.0635905 0.0252615 -0.98006 -0.197091
0.0415438 -0.111726 0.71414 0.707102 -0.707112 0
-0.37424 -0.0657163 0.38095 0.069763 0.997564 6.54245e-05
-0.152433 -0.145915 0.614806 -0.707107 -0.707107 0
0.0872048 -0.0961725 0.442638 0.058099 -0.920664 -0.386009
0.0144526 -0.0702155 0.904024 0.638741 0.638741 0.428976
-0.0113057 -0.0217724 0.0995038 -0.258811 0.965779 -0.0169404
0.0229044 -0.0213574 0.316735 0.258803 0.965816 -0.0148547
0.0303327 -0.0241568 0.420496 0.707107 0.707107 0
0.0571136 -0.0792875 0.517682 0.965928 -0.258812 0
-0.019075 -0.126797 0.621649 -0.258818 -0.965926 0
-0.289535 -0.0788445 0.404436 -0.00963835 -0.979884 -0.199333
0.0111402 -0.0214858 0.113292 0.258838 0.965772 -0.0169538
0.0990372 -0.0991853 0.456064 0.202912 -0.959044 -0.197638
-0.17655 -0.0842024 0.424677 -0.0122078 -0.979728 -0.199962
-0.0402109 -0.0843738 0.21212 -0.95688 -0.256398 -0.13653
0.108761 -0.0974316 0.546508 0.4342 -0.327525 0.839165
0.0565691 -0.0668584 0.411067 0.965926 0.258818 0
-0.178503 -0.0910435 0.464779 -0.0961937 -0.995363 -8.63745e-05
0.0805842 -0.0853219 0.49001 -0.0550464 0.998484 3.2658e-05
0.0522442 -0.088135 0.464269 -0.0649091 0.997165 -0.038067
-0.000315113 -0.0153563 0.313381 -0.258789 0.965819 -0.0148564
0.298798 -0.0774802 0.398176 0.00962845 -0.979883 -0.199342
-0.210121 -0.0812986 0.412499 -0.0122078 -0.979728 -0.199962
0.236424 -0.0854701 0.47362 0.0948929 -0.995487 -8.63791e-05
-0.039412 -0.0413838 0.803993 -0.698775 0.698775 0.153055
0.0429572 -0.0996946 0.444379 0.058099 -0.920664 -0.386009
0.0354243 -0.0638742 0.147707 0.952672 -0.255271 -0.165084
-0.0244239 -0.118287 0.845397 -0.687926 -0.687934 0.231312
-0.0437558 -0.0372953 0.627761 -0.707245 0.706969 0
0.01404 -0.0812535 0.917549 0.86999 0.236354 0.432729
0.00746127 0.0106891 0.163773 0.998679 -0.0183817 -0.0479838
0.037245 -0.116024 0.701269 0.707102 -0.707112 0
-0.0406574 -0.0523728 0.183641 -0.962389 0.257855 -0.085542
-0.0538602 -0.090345 0.332755 -0.965926 -0.258818 0
-0.0596377 -0.114804 0.5239 -0.247467 -0.968896 -7.88764e-05
0.0470879 -0.0406269 0.551459 0.707253 0.706961 0
0.0851673 -0.0244926 0.0394213 -0.109428 0.992708 -0.0505646
-0.252486 -0.0742374 0.447482 0.0697994 0.997561 5.85188e-05
0.00513647 0.0646133 0.0947298 0.998679 -0.0183817 -0.0479838
0.182853 -0.090623 0.464293 0.0961937 -0.995363 -8.63745e-05
-0.321812 -0.0773257 0.415443 -0.094892 -0.995488 -8.13268e-05
0.0354705 -0.0612792 0.863793 0.921374 0.246912 0.300173
0.00212936 -0.0205161 0.22652 -0.029593 -0.999445 0.0153109
-0.0508992 -0.09052 0.800281 -0.962532 -0.257909 0.0837627
0.0453867 -0.107883 0.631045 0.707102 -0.707112 0
-0.31115 -0.0701305 0.407571 0.0697763 0.997563 4.9418e-05
-0.123618 -0.103737 0.54732 0.696596 0.696505 -0.172146
0.0425613 -0.0363854 0.391247 0.707107 0.707107 0
0.115777 -0.141347 0.596769 -0.707107 -0.707107 0
0.0395867 -0.0334108 0.587868 0.707107 0.707107 0
0.0291852 -0.0250448 0.283755 0.706518 0.706518 -0.0408072
0.253847 -0.0741412 0.431644 -0.0697994 0.997561 5.85188e-05
-0.0182515 -0.127017 0.666105 -0.258818 -0.965926 0
-0.0521298 -0.0968033 0.558854 -0.965926 -0.258818 0
0.00473796 -0.0130782 0.136252 0.995604 -0.0904713 -0.0242212
-0.0328763 -0.120393 0.458678 -0.707102 -0.707112 0
-0.0545635 -0.0888011 0.761461 -0.965927 -0.258816 0
-0.134299 -0.109391 0.526639 0.239994 0.895894 -0.373867
-0.0350241 -0.0499615 0.137171 -0.960768 0.257421 -0.103247
0.209828 -0.0880167 0.470647 0.0961937 -0.995363 -8.63745e-05
0.206473 -0.0852766 0.431766 0.0122129 -0.979724 -0.199981
0.0391616 -0.036026 0.266358 0.706518 0.706518 -0.0408071
0.351097 -0.0718918 0.373331 0.0100188 -0.979879 -0.199341
0.32322 -0.0704604 0.433318 0.111177 0.932046 0.344862
-0.0310182 -0.122251 0.585238 -0.707102 -0.707112 0
-0.00337064 0.0237311 0.0736393 -0.998679 -0.0183817 -0.0479838
0.016948 -0.0226928 0.133204 0.258838 0.965772 -0.0169538
-0.0552424 -0.0816729 0.777613 -0.962532 -0.257909 0.0837627
0.0111049 -0.128933 0.360833 0.258832 -0.965922 0
-0.383654 -0.0651126 0.39493 0.0328655 0.99946 6.55552e-05
-0.395106 -0.0698764 0.371841 -0.129808 -0.991539 -0.000103726
0.00910897 -0.0777656 0.0983138 0.250895 -0.936137 -0.24637
-0.0545868 -0.0594594 0.7533 -0.965922 0.258832 0
-0.112323 -0.122034 0.629209 0.708257 0.189816 0.679957
0.0873488 -0.105449 0.474457 0.202912 -0.959044 -0.197638
-0.0282098 -0.103283 0.234775 -0.695577 -0.695577 -0.179846
0.00251123 0.046036 0.0534568 0.996337 -0.0200854 -0.0831195
-0.0541653 -0.0892066 0.600764 -0.965926 -0.258818 0
0.0435752 -0.0504383 0.222302 0.96239 0.257855 -0.0855357
-0.0318129 -0.121456 0.692379 -0.707102 -0.707112 0
-0.000302721 0.0758175 0.031166 -0.976907 -0.0530403 -0.206977
0.0407865 -0.0818221 0.209334 0.956842 -0.256529 -0.136553
-0.0403855 -0.112884 0.510135 -0.707102 -0.707112 0
0.0258663 -0.124977 0.684006 0.258832 -0.965922 0
0.185368 -0.0903827 0.495808 0.0961935 -0.995363 -8.43883e-05
0.116326 -0.0281516 0.0643611 0.103047 -0.994632 -0.00943761
0.104128 -0.0860805 0.424254 -0.0686465 0.99714 -0.0316187
0.0387153 -0.0325394 0.503955 0.707107 0.707107 0
0.0276691 -0.0537144 0.0897168 0.934107 -0.250198 -0.254647
0.0351432 -0.0359649 0.798741 0.698775 0.698775 0.15306
-0.0138447 -0.0189136 0.317796 -0.258789 0.965819 -0.0148564
-0.0456914 -0.108731 0.466341 -0.058108 -0.920666 -0.386001
-0.114112 -0.139682 0.585553 0.707107 -0.707107 0
0.0642705 -0.0261148 0.0527975 -0.109428 0.992708 -0.0505646
0.0311354 -0.122134 0.410864 0.707102 -0.707112 0
0.0580934 -0.0725469 0.332871 0.965926 0.258818 0
-0.0250405 -0.0218951 0.38876 -0.258818 0.965926 0
-0.0162959 -0.019552 0.62306 -0.258818 0.965926 0
-0.0819597 -0.0852471 0.515158 0.0550551 0.998483 6.09835e-05
0.0527322 -0.0525385 0.606663 0.965926 0.258818 0
-0.0437458 -0.0482756 0.230738 -0.962383 0.257883 -0.0855338
0.00745766 -0.115508 0.252379 0.253367 -0.945528 -0.204407
-0.0354996 -0.0821714 0.181667 -0.690237 -0.690237 -0.217129
-0.00711867 -0.112793 0.239398 -0.253322 -0.945539 -0.20441
0.00311876 -0.00983804 0.0812565 0.998679 -0.0183817 -0.0479838
0.0552843 -0.115917 0.530624 0.247467 -0.968896 -7.88764e-05
0.0459895 -0.10728 0.476304 0.707102 -0.707112 0
-0.00184537 0.1473 0.0211852 -0.996434 0.0122914 -0.0834764
0.0674257 -0.0860484 0.514374 -0.0550551 0.998483 6.09835e-05
0.0573357 -0.0784586 0.397059 0.965928 -0.258812 0
-0.103701 -0.0223421 0.0500076 0.0870157 0.996184 0.00672435
-0.0383285 -0.112629 0.798734 -0.706179 -0.706187 0.0511056
0.300465 -0.0793617 0.429566 0.094892 -0.995488 -8.13268e-05
-0.161064 -0.0179642 0.00959133 0.0811819 0.995433 -0.0502218
0.00399622 0.103976 0.0572561 0.996337 -0.0200854 -0.0831195
0.108632 -0.127163 0.594765 -0.965929 -0.258808 0
0.0432469 -0.110023 0.536709 0.707102 -0.707112 0
-0.0667961 -0.112973 0.491516 -0.247467 -0.968896 -7.88764e-05
-0.0477813 -0.0413211 0.602365 -0.707178 0.707035 -5.6456e-05
-0.00184683 0.098534 0.100174 -0.392382 0.605161 0.692688
0.046946 -0.0784923 0.246247 0.95676 -0.256811 -0.136592
-0.0519719 -0.0926681 0.310125 -0.956881 -0.256395 -0.136529
-0.0518422 -0.0978764 0.62981 -0.965926 -0.258818 0
-0.0504517 -0.10197 0.770167 -0.962532 -0.257909 0.0837627
0.0276083 -0.0677437 0.110712 0.69024 -0.69024 -0.217114
0.234355 -0.0760538 0.41903 -0.0834597 0.995946 -0.0335527
0.311303 -0.0701207 0.424919 -0.0697763 0.997563 4.9418e-05
-0.0227338 -0.0667595 0.092808 -0.666814 -0.666934 -0.332503
-0.125443 -0.093098 0.507729 0.965196 -0.258609 -0.0389568
0.0461666 -0.0538761 0.821606 0.958815 0.256913 0.121119
0.0583113 -0.073735 0.583015 0.965922 -0.258832 0
-0.0077994 -0.065841 0.904189 -0.23384 0.872516 0.428991
-0.036678 -0.0310412 0.309664 -0.706518 0.706518 -0.0408072
-0.0155802 -0.0562871 0.883767 -0.221764 0.827699 0.515494
-0.0477512 -0.0871356 0.553052 0.0550551 0.998483 6.09835e-05
0.0460984 -0.0399225 0.361859 0.707107 0.707107 0
-0.030137 -0.0239611 0.376944 -0.707107 0.707107 0
0.266801 -0.0729274 0.449046 -0.0624386 0.997958 0.0134797
0.00896202 -0.0175866 0.444693 0.258832 0.965922 0
-0.0346669 -0.118602 0.640973 -0.707102 -0.707112 0
-0.0237187 -0.0215409 0.41374 -0.258818 0.965926 0
-0.0453154 -0.0391396 0.744221 -0.707107 0.707107 0
-0.264433 -0.0734016 0.451792 0.0698079 0.99756 4.94253e-05
-0.0879885 -0.107562 0.507945 -0.247467 -0.968896 -7.88764e-05
0.0502048 -0.103065 0.409903 0.707102 -0.707112 0
0.0396254 -0.0285701 0.0532954 -0.0973361 0.994836 -0.0287616
0.167569 -0.0819569 0.413127 0.0122129 -0.979724 -0.199981
0.187713 -0.0899555 0.453355 0.0126963 -0.97934 -0.201821
-0.0436852 -0.109584 0.364998 -0.707102 -0.707112 0
0.329091 -0.0766316 0.41109 0.094892 -0.995488 -8.13268e-05
0.00410658 0.0734178 0.0699222 0.998679 -0.0183817 -0.0479838
0.0986866 -0.0239538 0.0171325 0.0207236 -0.972943 -0.230115
0.0289117 -0.105136 0.86929 0.663838 -0.663752 0.344604
0.0649139 -0.113456 0.518003 0.247467 -0.968896 -7.88764e-05
-0.240525 -0.0830629 0.478125 -0.252559 -0.911815 0.32374
0.0618468 -0.0894767 0.570479 0.175211 0.872117 0.456851
-0.125687 -0.0203821 0.0556446 0.0924663 0.995716 5.38335e-05
-0.0559651 -0.0824894 0.400778 -0.965926 -0.258818 0
-0.230512 -0.0860332 0.468737 -0.0948929 -0.995487 -8.63791e-05
0.216853 -0.0764029 0.474989 -0.0624386 0.997958 0.0134797
0.000221732 -0.0204355 0.0554803 0.978315 -0.051718 -0.200562
0.0472745 -0.041208 0.767293 0.698775 0.698775 0.15306
0.0338603 -0.0276844 0.468309 0.707107 0.707107 0
0.110791 -0.11653 0.570715 -0.951507 0.254944 -0.172158
-0.0392222 -0.0348248 0.288205 -0.706518 0.706518 -0.0408072
-0.025672 -0.0972215 0.888535 -0.887389 -0.23778 0.394971
-0.0131244 -0.0402514 0.854859 -0.242641 0.905622 0.347815
0.0328764 -0.0887491 0.196611 0.695577 -0.695577 -0.179847
-0.246774 -0.0844802 0.435185 -0.0948929 -0.995488 -8.13259e-05
0.124746 -0.09244 0.521915 -0.96593 -0.258805 0
-0.329156 -0.0688718 0.42112 0.069763 0.997564 6.54245e-05
0.141179 -0.0231575 0.0175924 0.0207236 -0.972943 -0.230115
0.0565163 -0.0666612 0.573661 0.965926 0.258818 0
-0.00384896 0.0490025 0.0679505 -0.998672 -0.018474 -0.0480996
-0.155467 -0.0809437 0.509256 0.0684521 0.997654 5.85228e-05
0.126577 -0.108069 0.536576 -0.655833 0.655834 -0.37385
-0.0292903 -0.0534959 0.861668 -0.667329 0.667334 0.330662
-0.0148779 -0.019172 0.38335 -0.258818 0.965926 0
0.0141717 -0.128111 0.687352 0.258832 -0.965922 0
-0.0409102 -0.100982 0.44714 -0.058108 -0.920666 -0.386001
-0.00204513 -0.0260144 0.823907 -0.254968 0.951654 0.171308
-0.385405 -0.0665897 0.347935 0.00109999 -0.981522 -0.191347
0.00555731 0.101969 0.0777835 0.998679 -0.0183788 -0.047987
-0.155492 -0.0237742 0.0447126 -0.134327 -0.990937 -8.41692e-05
-0.352663 -0.0674296 0.373437 0.0855821 0.995395 -0.043182
0.0384218 -0.119161 0.569127 0.38035 -0.826234 0.415538
-0.0546087 -0.0585309 0.467205 -0.965507 0.260376 1.86542e-05
0.0544884 -0.0590928 0.447876 0.965926 0.258818 0
-0.0468954 -0.0569484 0.822355 -0.958806 0.256943 0.121122
0.191852 -0.0897541 0.473018 0.0961937 -0.995363 -8.63745e-05
-0.00561738 0.0300102 0.106245 -0.998677 -0.0184017 -0.048013
-0.050745 -0.0451223 0.422349 -0.965922 0.258832 0
0.252838 -0.0839035 0.451061 0.0948929 -0.995487 -8.63791e-05
0.126312 -0.084279 0.432904 -0.0686465 0.99714 -0.0316187
-0.0158187 -0.127669 0.67766 -0.258818 -0.965926 0
-0.0268827 -0.122942 0.814396 -0.706178 -0.706188 0.0511047
-0.0774277 -0.087467 0.438495 0.0686465 0.99714 -0.0316187
0.0393229 -0.033147 0.650554 0.707107 0.707107 0
-0.0108231 -0.0180855 0.564094 -0.258818 0.965926 0
0.160691 -0.0805844 0.489544 -0.0684789 0.997653 3.26308e-05
0.00564831 -0.128913 0.811263 0.258752 -0.965409 0.0321498
0.116388 -0.102526 0.596707 -0.707097 0.707117 0
0.0796539 -0.0320415 0.0739057 0.103047 -0.994632 -0.00943761
-0.00625432 -0.0186019 0.205842 -0.258775 0.965824 -0.0148531
0.102037 -0.0841408 0.527441 -0.0550551 0.998483 6.09835e-05
0.0519684 -0.0974056 0.328441 0.965922 -0.258832 0
-0.00927556 -0.129422 0.521753 -0.258818 -0.965926 0
-0.00469242 0.0595184 0.132648 -0.392382 0.605161 0.692688
0.140568 -0.0255219 0.0384363 0.10493 -0.99448 -8.44694e-05
-0.162337 -0.0172726 0.0278326 0.0692859 0.997597 5.39548e-05
-0.0314313 -0.0252554 0.69047 -0.707107 0.707107 0
-0.013972 -0.128164 0.463386 -0.258818 -0.965926 0
0.05051 -0.0792126 0.272572 0.95677 -0.256814 -0.136521
-0.00578143 0.06704 0.107224 -0.998679 -0.0183817 -0.0479838
0.132488 -0.0806792 0.501183 -0.258592 0.9652 -0.0389682
-0.0191212 -0.020309 0.358131 -0.258818 0.965926 0
-0.0131807 -0.0187173 0.746055 -0.258818 0.965926 0
-0.0020215 -0.0166398 0.771864 -0.254968 0.951654 0.171308
0.159248 -0.0817173 0.434001 -0.080159 0.996281 -0.0315915
0.183785 -0.0789988 0.477152 -0.0684789 0.997653 3.26308e-05
-0.214574 -0.0875558 0.445063 -0.0961937 -0.995363 -8.63745e-05
0.00725021 -0.0171279 0.724242 0.258832 0.965922 0
0.043785 -0.0359875 0.098134 0.103047 -0.994632 -0.00943761
0.050238 -0.103032 0.553961 0.707102 -0.707112 0
0.0819967 -0.0315161 0.0502052 0.0252615 -0.98006 -0.197091
0.00365103 -0.0903426 0.140544 0.250895 -0.936137 -0.24637
0.0145541 -0.124589 0.833235 0.252989 -0.943908 0.212214
0.083915 -0.0851414 0.549361 -0.0550551 0.998483 6.09835e-05
0.0141528 -0.0189775 0.608077 0.258832 0.965922 0
-0.244074 -0.0847385 0.446528 -0.0948929 -0.995487 -8.63791e-05
0.0563164 -0.0822628 0.503403 0.965928 -0.258812 0
-0.0873775 -0.107721 0.542806 -0.247465 -0.968897 -8.21444e-05
-0.0296559 -0.123613 0.44773 -0.707102 -0.707112 0
0.0317289 -0.0372919 0.103976 0.103047 -0.994632 -0.00943761
0.000842885 0.0644697 0.0366235 0.976907 -0.0530403 -0.206977
0.012854 -0.0200709 0.225281 0.258794 0.965818 -0.0148564
0.118489 -0.137279 0.554037 -0.696595 -0.696504 -0.172156
-0.0320356 -0.0684759 0.135262 -0.952675 -0.255271 -0.165067
-0.00721687 -0.0981792 0.173952 -0.250809 -0.936159 -0.246376
-0.0143333 -0.0767794 0.0998865 -0.250868 -0.93614 -0.246387
-0.114006 -0.100915 0.49226 -0.247467 -0.968896 -7.88764e-05
0.35328 -0.0671842 0.412534 -0.069763 0.997564 6.54245e-05
0.0964784 -0.0238142 0.0853092 0.0957981 0.94968 0.298213
0.01444 -0.0190545 0.539041 0.258832 0.965922 0
-0.124868 -0.120342 0.523329 0.895885 0.240035 -0.373863
-0.140737 -0.0906518 0.453779 -0.0126991 -0.979338 -0.201831
0.0409821 -0.0910431 0.85328 0.931712 -0.249657 0.263788
0.00435233 0.0371276 0.0889389 0.998679 -0.0183817 -0.0479838
-0.0926035 -0.023453 0.0709815 0.0870157 0.996184 0.00672435
0.0525954 -0.0520283 0.683103 0.965926 0.258818 0
0.120803 -0.0935981 0.451298 0.202912 -0.959044 -0.197638
-0.0243715 -0.119978 0.294022 -0.253353 -0.945532 -0.204403
-0.082318 -0.106147 0.47268 -0.202907 -0.959043 -0.197649
-0.0822492 -0.0242549 0.0557948 0.0870157 0.996184 0.00672435
0.00333124 -0.0160777 0.586631 0.258832 0.965922 0
0.173421 -0.091537 0.492711 0.0961935 -0.995363 -8.43883e-05
0.00407143 -0.0199886 0.0911353 0.258825 0.965723 -0.0197356
0.0512122 -0.0540766 0.782089 0.958815 0.256913 0.121119
0.0480914 -0.105178 0.620314 0.707102 -0.707112 0
0.0567937 -0.0804814 0.455719 0.965928 -0.258812 0
0.0551624 -0.0605839 0.717952 0.965499 0.260405 2.76063e-05
0.262089 -0.0830224 0.460139 0.0948929 -0.995487 -8.63791e-05
0.0189812 -0.0594477 0.0706174 0.66681 -0.666931 -0.332517
0.048164 -0.0730977 0.835439 0.921266 0.24691 0.300505
0.0319424 -0.0808008 0.881931 0.863142 0.231144 0.448953
0.0415235 -0.111746 0.654771 0.707102 -0.707112 0
-0.0559731 -0.0824598 0.41727 -0.965926 -0.258818 0
0.106471 -0.102839 0.485348 0.247467 -0.968896 -7.88764e-05
0.294838 -0.0786034 0.448315 0.252559 -0.911815 0.32374
-0.00769158 -0.0151989 0.274357 -0.397293 0.886472 0.237329
-0.11753 -0.0960586 0.459878 -0.202907 -0.959043 -0.197649
-0.020799 -0.0306282 0.0740175 -0.705257 0.705385 -0.0710237
0.00694447 -0.00985452 0.214909 0.995604 -0.0904713 -0.0242212
0.112554 -0.135989 0.572871 -0.951505 -0.254944 -0.172167
0.0522251 -0.0506462 0.55239 0.965926 0.258818 0
-0.297486 -0.0729416 0.375802 -0.00963835 -0.979884 -0.199333
0.0548836 -0.0605678 0.522258 0.965926 0.258818 0
0.137289 -0.0813034 0.587399 0.215346 0.803487 0.555008
0.0408708 -0.0346949 0.7212 0.707107 0.707107 0
-0.0238299 -0.0215707 0.429269 -0.258818 0.965926 0
0.0313095 -0.0637772 0.873596 0.615553 0.615553 0.492127
-0.00927846 -0.0216994 0.0756874 -0.258798 0.96573 -0.0197057
0.0222718 -0.0914087 0.899322 0.872512 -0.233838 0.429002
-0.0470324 -0.0892016 0.445218 0.0649091 0.997165 -0.038067
0.0294312 -0.123838 0.703441 0.707102 -0.707112 0
-0.0446731 -0.060802 0.203411 -0.962389 0.257855 -0.085542
-0.147372 -0.148374 0.598662 -0.258792 -0.965933 0
-0.00513962 0.0923409 0.0841736 -0.998679 -0.0183817 -0.0479838
-0.155769 -0.093242 0.481373 -0.0961935 -0.995363 -8.43883e-05
-0.0520495 -0.0971028 0.715568 -0.965926 -0.258818 0
0.0542916 -0.0898158 0.358669 0.965927 -0.258816 0
0.0235931 -0.112776 0.259742 0.253341 -0.945536 -0.204403
-0.23721 -0.0753063 0.448655 0.0697994 0.997561 5.85188e-05
0.0538512 -0.0584992 0.310374 0.962384 0.257879 -0.0855309
-0.115371 -0.0850233 0.433183 0.0686465 0.99714 -0.0316187
0.0137276 -0.0216384 0.144101 0.258838 0.965772 -0.0169538
0.0555488 -0.0630506 0.762106 0.965926 0.258818 0
0.169484 -0.0919162 0.477314 0.0961937 -0.995363 -8.63745e-05
-0.375033 -0.0696422 0.363125 -0.00991139 -0.981225 -0.19261
-0.00575361 0.0442258 0.115384 -0.998679 -0.0183817 -0.0479838
0.104429 -0.103365 0.531496 0.247465 -0.968897 -8.21444e-05
-0.027056 -0.0224351 0.57817 -0.258818 0.965926 0
-0.0039698 0.0157774 0.0891562 -0.998679 -0.0183817 -0.0479838
0.00459666 -0.130676 0.502891 0.258832 -0.965922 0
0.00353031 -0.116839 0.875697 0.245677 -0.917041 0.314131
-0.0403844 -0.112885 0.731893 -0.707102 -0.707112 0
0.337704 -0.0682832 0.391655 -0.0869243 0.995359 -0.0412972
0.0258072 -0.0265495 0.791511 0.254984 0.951652 0.171296
0.0371953 -0.113717 0.476955 0.058099 -0.920664 -0.386009
0.0393141 -0.113955 0.449597 0.707102 -0.707112 0
0.05277 -0.0591907 0.296125 0.962392 0.257859 -0.0855041
-0.0318706 -0.0256947 0.65328 -0.707107 0.707107 0
-0.0445252 -0.0405878 0.280241 -0.706518 0.706518 -0.0408071
-0.15537 -0.134895 0.548766 -0.69655 -0.69655 -0.172153
-0.0581344 -0.0726984 0.721133 -0.965922 0.258832 0
-0.0635246 -0.0875726 0.452383 0.0663819 0.997017 -0.039389
0.147372 -0.081498 0.471369 -0.0684789 0.997653 3.26308e-05
0.0535062 -0.0554274 0.406075 0.965926 0.258818 0
0.0426047 -0.106256 0.301946 0.695572 -0.695582 -0.179846
0.000314344 -0.131693 0.770719 0.258752 -0.965409 0.0321498
0.246094 -0.0760035 0.39132 -0.0834597 0.995946 -0.0335527
0.00808013 -0.0995212 0.914582 0.23375 -0.872523 0.429027
0.0135919 -0.128266 0.349994 0.258832 -0.965922 0
-0.0544329 -0.0820095 0.307357 -0.956881 -0.256395 -0.136529
0.000695905 -0.107208 0.205603 0.253367 -0.945528 -0.204407
-0.00462973 0.128054 0.0598805 -0.998679 -0.0183817 -0.0479838
0.372419 -0.0665757 0.359737 -0.0869243 0.995359 -0.0412972
0.121695 -0.102328 0.5608 -0.696596 0.696505 -0.172146
-0.0524098 -0.0513352 0.50743 -0.965922 0.258832 0
-0.0326078 -0.0264319 0.756075 -0.707107 0.707107 0
0.0171278 -0.0580562 0.884623 0.615608 0.615525 0.492093
0.00891974 -0.0500948 0.0402727 0.389515 -0.389515 -0.834599
0.0310817 -0.0309381 0.207506 0.706628 0.706408 -0.0408152
-0.284238 -0.0720146 0.431199 0.0698079 0.99756 4.94253e-05
0.0499079 -0.0989405 0.785747 0.962522 -0.257943 0.0837611
0.00641335 0.044543 0.128994 0.998679 -0.0183817 -0.0479838
0.122828 -0.098664 0.51274 0.247465 -0.968897 -8.21444e-05
-0.0458065 -0.118338 0.532701 -0.247467 -0.968896 -7.88764e-05
-0.175035 -0.0796002 0.495665 0.0684521 0.997654 5.85228e-05
0.00207379 0.0971098 0.0358716 0.996337 -0.0200854 -0.0831195
-0.235561 -0.0774988 0.39521 -0.00963835 -0.979884 -0.199333
-0.14148 -0.0946236 0.48956 -0.0961935 -0.995363 -8.43883e-05
0.0575003 -0.0767614 0.558993 0.965922 -0.258832 0
0.120595 -0.0964353 0.464853 0.202912 -0.959044 -0.197638
-0.00512566 0.0905624 0.0728297 -0.998686 -0.0181204 -0.0479391
-0.0121669 -0.1168 0.264194 -0.253353 -0.945532 -0.204403
0.000862256 -0.131677 0.735491 0.258832 -0.965922 0
-0.00497901 -0.0012097 0.116668 -0.998679 -0.0183817 -0.0479838
-0.0413432 -0.0363056 0.105003 -0.103047 -0.994632 -0.00943761
-0.0442486 -0.0984082 0.277951 -0.695572 -0.695582 -0.179848
0.010896 -0.022014 0.0815274 0.258825 0.965723 -0.0197356
-0.0433822 -0.0372063 0.581 -0.707107 0.707107 0
-0.293985 -0.071333 0.440611 0.0698079 0.99756 4.94253e-05
0.00635872 0.0691233 0.118441 0.998679 -0.0183817 -0.0479838
-0.0608574 -0.108299 0.567053 -0.4342 -0.327525 0.839165
0.227675 -0.0759776 0.437829 -0.0840345 0.995875 -0.0342296
-0.104525 -0.0999368 0.465345 -0.202907 -0.959043 -0.197649
-0.00442415 -0.0136883 0.125632 -0.995604 -0.0904713 -0.0242212
-0.0637984 -0.0261009 0.0905054 0.0870157 0.996184 0.00672435
-0.0445871 -0.108682 0.716918 -0.707102 -0.707112 0
-0.277036 -0.0815956 0.436688 -0.0948929 -0.995488 -8.13259e-05
0.057855 -0.0705738 0.343649 0.965925 0.258821 0
0.0156396 -0.0193759 0.716903 0.258832 0.965922 0
-0.00610919 0.00486005 0.137865 -0.998679 -0.0183817 -0.0479838
0.103376 -0.0840657 0.497222 -0.0550464 0.998484 3.2658e-05
0.290054 -0.0716071 0.419928 -0.0698079 0.99756 4.94253e-05
0.0569233 -0.0681802 0.697139 0.965926 0.258818 0
-0.0493973 -0.0550171 0.274 -0.962383 0.257883 -0.0855338
0.0264806 -0.124812 0.619432 0.258832 -0.965922 0
-0.0415959 -0.111673 0.587599 -0.707102 -0.707112 0
0.0462266 -0.107043 0.57682 0.707102 -0.707112 0
-0.188738 -0.0900547 0.468692 -0.0961937 -0.995363 -8.63745e-05
0.0876493 -0.0860787 0.457764 -0.0649091 0.997165 -0.038067
0.13915 -0.11606 0.516577 0.249843 0.933395 -0.257588
-0.129826 -0.146393 0.563973 0.25496 -0.951503 -0.172157
0.286652 -0.0806793 0.440578 0.0948929 -0.995488 -8.13259e-05
-0.0439285 -0.104892 0.577142 -0.4342 -0.327525 0.839165
-0.0553521 -0.0847771 0.572542 -0.965926 -0.258818 0
0.0215478 -0.0209591 0.67513 0.258832 0.965922 0
-0.0105066 -0.123766 0.294359 -0.253353 -0.945532 -0.204403
0.0260555 -0.100656 0.21628 0.695572 -0.695582 -0.179846
-0.150836 -0.101872 0.561647 -0.69654 0.69656 -0.17215
-0.256016 -0.0835999 0.443292 -0.0948929 -0.995487 -8.63791e-05
0.0309166 -0.0427601 0.116896 0.960788 0.257341 -0.103259
-0.1 -0.0228152 0.0809965 -0.0957981 0.94968 0.298213
-0.00505943 -0.0165412 0.469742 -0.258818 0.965926 0
0.301097 -0.0753457 0.387796 0.0100188 -0.979879 -0.199341
0.0221863 -0.0211302 0.331658 0.258832 0.965922 0
0.00465458 -0.130661 0.722844 0.258832 -0.965922 0
