0.123521 -0.0748855 0.461859 -0.0841107 0.996338 0.0153325
-0.392212 -0.0392465 0.471824 0.0494872 0.998693 -0.0128165
0.00682099 0.0289578 0.361177 0.33161 0.942772 -0.034871
-0.120784 -0.0754605 0.483784 -0.0846256 -0.996274 -0.0166062
0.00782647 0.0129096 0.176089 0.854256 0.519414 -0.021349
-0.041603 -0.0353452 0.39196 -0.99664 0.0432358 -0.0695686
0.149287 0.000419665 0.0692973 -0.0124293 0.996677 0.0804965
0.00474329 0.0306506 0.496633 0.0413722 0.811041 0.583525
-0.0326294 -0.011292 0.664424 0 1 0
-0.106947 -0.0552184 0.415556 0.0138308 0.990455 -0.137139
-0.0205844 0.0161839 0.409176 0 -0.999728 -0.0233309
0.0287643 -0.0161828 0.630719 0 -1 0
-0.0119722 0.0259695 0.333883 -0.331276 0.941826 -0.0567437
0.039045 -0.0842265 0.510855 0.333383 -0.937221 0.102337
-0.093327 0.00561768 0.0812308 -0.00938026 0.999916 -0.00898041
0.0180893 -0.0536563 0.455186 0.00961664 -0.999815 0.0166665
0.402871 -0.0410724 0.515236 0.0110515 -0.804381 -0.594012
-0.0248301 0.00495525 0.258962 -0.968355 0.224603 -0.108821
0.020424 0.00258747 0.128342 -0.049052 0.917306 -0.395151
-0.0176715 0.0155325 0.621685 -0.24263 0.966188 0.0872473
-0.0122139 0.0434079 0.334 -0.561504 0.772964 -0.295365
-0.0348639 -0.0532501 0.525542 0.00182378 0.999732 0.0230754
-0.402799 -0.0387647 0.497822 0.0499442 0.998567 0.019224
-0.425709 -0.0483087 0.457208 -0.0863211 -0.996186 -0.0127489
-0.33361 -0.0424026 0.502475 0.0494044 0.997716 0.0460576
0.371902 -0.0514505 0.513283 -0.0882051 0.984535 -0.151366
0.0322985 0.000177747 0.357371 0.976996 0.198044 -0.0791064
0.033726 -0.0170594 0.321981 0.979349 0.198522 -0.0382759
0.00592175 0.000797903 0.0424775 -0.0124293 0.996677 0.0804965
-0.16525 -0.0680484 0.413595 -0.0962999 -0.985946 -0.136514
0.0211398 0.0254563 0.407638 0.293954 0.955722 0.0136576
0.42468 -0.0433372 0.413181 -0.0897258 0.989402 0.114164
-0.00219907 0.0554395 0.372852 -0.131819 0.968048 -0.213324
0.0385057 -0.0723359 0.370594 -0.0784929 0.985885 0.147882
0.209997 -0.066726 0.435755 -0.0863211 0.996186 0.0127489
-0.243052 -0.047466 0.510332 0.0444222 0.982403 0.181412
-0.456391 -0.0367413 0.453057 0.040666 0.992587 -0.114535
-0.204824 -0.0485891 0.494776 0.0497658 0.998495 0.0230468
0.332302 -0.0565866 0.470059 -0.0867488 0.996113 0.0153109
-0.0292205 -0.0878694 0.481596 -0.15669 -0.986571 -0.0460979
0.014372 0.0123065 0.661243 0.753807 0.643104 0.134876
-0.402681 -0.0449869 0.520161 -0.0970416 -0.800675 0.591188
0.138183 -0.0736397 0.487648 -0.0863265 0.996003 -0.0229355
0.000198778 0.0629083 0.435342 0.149478 0.981415 0.120335
-0.115291 -0.0528531 0.510993 -0.00339988 0.998931 0.0461024
0.0527435 -0.052653 0.502271 0.00107167 -0.999687 -0.0249963
0.0511287 -0.000223445 0.0621037 -0.0124293 0.996677 0.0804965
0.0416675 -0.0179072 0.450118 0.972378 0.229479 -0.0426652
0.0359501 -0.0858836 0.505762 0.333383 -0.937221 0.102337
0.0296831 0.00405634 0.330819 0.973011 0.225683 -0.0481282
0.0185567 0.0238911 0.33707 0.33146 0.942347 -0.0460123
-0.00539553 0.00433574 0.0677874 0.999547 -0.0272355 0.0128147
-0.185594 -0.0634554 0.394773 -0.0962999 -0.985946 -0.136514
0.13462 -0.0704779 0.528201 -0.129836 0.97505 -0.180054
-0.0709712 0.00572553 0.0698882 -0.00938026 0.999916 -0.00898041
-0.15665 0.00420455 0.0611914 -0.0124255 0.996676 -0.0805191
0.468933 -0.0387051 0.431585 0.040666 -0.992587 0.114535
-0.043716 -0.0296591 0.54311 -0.998292 0.0558152 0.017274
-0.076784 -0.0642169 0.356515 0.0209653 0.988719 -0.148306
0.0198248 0.0170985 0.369935 -2.15798e-05 -0.999728 -0.0233153
0.248955 -0.0604009 0.417408 -0.0962999 0.985946 0.136514
0.0222203 -0.0483751 0.207608 0.558196 -0.81166 -0.172121
0.0417966 -0.07063 0.578278 0.899652 -0.412275 0.14372
-0.369827 -0.0523327 0.509092 -0.0891157 -0.979461 0.180869
-0.0364212 -0.0556521 0.317012 -0.997139 0.0397969 -0.0642708
0.0425225 -0.0532742 0.586884 0.995033 0.0845543 0.0525364
0.0146883 -0.106416 0.402668 0.0799761 -0.984991 0.152962
0.295971 -0.0466161 0.424628 0.0410307 -0.989716 0.137036
-0.0332609 0.0144557 0.499414 -0.803375 0.589391 0.0848909
-0.00872416 -0.00115664 0.0987301 -0.0102958 -0.999856 0.0135143
0.0354055 -0.0171618 0.352334 0.976996 0.198044 -0.0791064
0.0160053 -0.0851256 0.588754 0.085457 -0.989496 0.116594
0.0784547 -0.0618681 0.371938 0.0209653 -0.988719 0.148306
0.415763 -0.0438917 0.519497 -0.0970416 0.800675 -0.591188
0.204051 -0.0679744 0.484289 -0.0867488 0.996113 0.0153109
0.017469 0.0381573 0.329144 0.522529 0.798393 -0.299218
0.245481 -0.0643628 0.484056 -0.0867488 0.996113 0.0153109
0.000674341 0.0236355 0.58181 0.242783 0.966797 0.0797504
-0.131061 0.000115062 0.0803392 -0.00938471 -0.999916 -0.00898067
-0.0229796 0.0219131 0.383357 -0.853669 0.519366 -0.0388334
0.0451261 -0.0819105 0.512865 -0.0922108 0.995428 -0.0248858
0.234885 -0.0468803 0.484445 0.0494872 -0.998693 0.0128165
0.00995164 -0.0760246 0.574444 -0.245764 0.756968 -0.605475
-0.00795472 0.0251166 0.540738 -0.24291 0.967301 0.0729584
-0.141852 -0.0665809 0.38649 -0.0962999 -0.985946 -0.136514
-0.139357 0.000201157 0.0993269 -0.0112128 -0.999574 0.0269547
0.16673 -0.0685483 0.52142 -0.0887071 0.979496 -0.180885
0.103396 0.00308136 0.0390657 -0.0124271 -0.996677 0.0804967
0.021003 0.0218937 0.353297 0.871142 0.487577 -0.0581393
0.195148 0.00364663 0.104649 -0.0490799 -0.917208 -0.395375
-0.0230219 -0.0161828 0.677531 0 -1 0
0.021709 0.00333519 0.0295977 -0.0124271 -0.996677 0.0804967
-0.208114 -0.0673143 0.464364 -0.0867488 -0.996113 -0.0153109
0.19863 -0.0666014 0.426691 -0.0962999 0.985946 0.136514
0.332679 -0.0423757 0.459844 0.0496728 -0.998647 0.015368
-0.320198 -0.0574244 0.455099 -0.0863211 -0.996186 -0.0127489
0.0397341 -0.0664955 0.346562 0.0209653 -0.988719 0.148306
-0.17058 -0.065167 0.396544 -0.0962999 -0.985946 -0.136514
0.0398707 -0.0677959 0.602057 0.951293 -0.288225 0.109403
-0.0404105 -0.053231 0.525153 0.00182378 0.999732 0.0230754
0.0313857 0.010993 0.446689 0.000103703 -0.99944 -0.0334748
0.0375995 -0.094616 0.361971 0.548587 -0.826286 -0.127685
0.0135508 -0.0465258 0.177847 0.295811 -0.939041 -0.175207
-0.189765 -0.0597196 0.527879 -1 0 0
0.00830091 -0.0198 0.0486833 0.988447 0.131943 -0.0745913
0.00218559 0.0061757 0.0617536 -0.0124271 -0.996677 0.0804967
-0.392108 -0.0439772 0.414902 0.0410307 0.989716 -0.137036
0.0235546 -0.0577073 0.407438 0.0209653 -0.988719 0.148306
0.0296183 0.0067119 0.352928 0.858452 0.507556 -0.0738038
-0.018003 -0.0660165 0.352828 0.0209653 0.988719 -0.148306
0.00495587 0.0154798 0.496292 0 -0.989253 0.146216
0.4355 -0.0411178 0.422561 0.0410307 -0.989716 0.137036
0.169687 0.00467942 0.101372 -0.0177763 -0.994079 -0.107194
0.0413543 -0.00845085 0.499217 0.971733 0.229327 0.0560706
0.0316898 -0.0528404 0.496437 0.00880222 -0.999843 0.0153845
-0.0210038 -0.0834668 0.455638 -0.0846256 -0.996274 -0.0166062
-0.0207977 0.0263195 0.487679 -0.199459 0.979805 0.0140693
-0.195702 -0.0494107 0.445435 0.0496728 0.998647 -0.015368
-0.125378 -0.0749781 0.478066 -0.0841107 -0.996338 -0.0153325
-0.271086 -0.0456326 0.505375 0.0494044 0.997716 0.0460576
0.00341729 0.010989 0.446794 -1.81021e-05 -0.999441 -0.033426
-0.189188 -0.0632821 0.396057 -0.0962999 -0.985946 -0.136514
-0.13222 7.09898e-05 0.0864581 -0.00938471 -0.999916 -0.00898067
-0.0589153 0.00139424 0.0432765 -0.0124293 -0.996677 -0.0804965
0.0172961 0.00762483 0.673042 0.62576 0.752119 0.206741
-0.459357 -0.0447744 0.452889 -0.0897258 -0.989402 -0.114164
0.0158945 0.0189321 0.590678 0.276557 0.956902 0.0886296
-0.12718 0.000176649 0.0694309 -0.00938522 -0.999916 -0.00898459
0.0018245 0.0091326 0.0192518 -0.993196 -0.020691 0.114599
-0.0646257 -0.000560839 0.0861706 -0.00938471 -0.999916 -0.00898067
0.0221268 0.0249331 0.438299 0.199452 0.97977 -0.0164462
0.0350679 -0.0955134 0.356901 0.548587 -0.826286 -0.127685
0.218555 -0.0660957 0.444234 -0.0867488 0.996113 0.0153109
0.00100929 0.09289 0.0273091 -0.993196 -0.0206909 0.114599
-0.0801654 0.0005794 0.115184 -0.0177518 -0.994105 0.106954
-0.0233996 -0.00439199 0.226609 -0.949471 0.303052 -0.0816334
0.0474149 -0.0743552 0.561317 -0.241582 0.780639 -0.576403
-0.14339 -0.0608998 0.367152 0.0410307 0.989716 -0.137036
-0.0435518 -0.0292843 0.45989 -0.999189 0.0352186 -0.0195424
-0.438314 -0.0432577 0.423207 -0.0897258 -0.989402 -0.114164
-0.0752195 0.00217988 0.120594 -0.049052 -0.917306 0.395151
0.00503197 0.010453 0.0524252 -0.999547 -0.0272354 0.0128147
-0.0254292 -0.0157562 0.700771 -0.960405 0.15761 0.229743
0.0416167 -0.0168186 0.543265 0.961329 0.272981 0.0364309
0.00398071 0.0367536 0.042926 -0.993196 -0.020691 0.114599
0.450125 -0.045509 0.506481 -0.0891157 0.979461 -0.180869
0.029614 0.0165193 0.394795 9.90598e-05 -0.999728 -0.0233374
-0.274977 -0.0616508 0.493402 -0.0863265 -0.996003 0.0229355
0.0321367 -0.0530014 0.486363 0.00961664 -0.999815 0.0166665
0.367171 -0.0504577 0.428988 -0.0962999 0.985946 0.136514
0.0249605 -0.104177 0.399921 0.263034 -0.964606 -0.0186573
-0.0515664 -0.0714291 0.371481 -0.0784929 -0.985885 -0.147882
-0.085735 -7.26222e-06 0.0647705 -0.0124293 -0.996677 -0.0804965
0.0394188 -0.0937777 0.369902 0.910233 -0.395735 -0.121941
-0.00307261 0.0687133 0.0408268 0.993196 -0.020691 0.114599
-0.369603 -0.0524949 0.508324 -0.0891157 -0.979461 0.180869
0.028848 -0.0833854 0.569649 0.275708 -0.950528 0.143115
0.462326 -0.0357018 0.493377 0.0499442 -0.998567 -0.019224
0.0136625 0.0239085 0.30217 0.33146 0.942347 -0.0460123
-0.0268785 -0.078837 0.606729 -0.413302 -0.899256 0.143249
0.297686 -0.0451033 0.436939 0.040666 -0.992587 0.114535
-0.409298 -0.038248 0.488277 0.0497658 0.998495 0.0230468
-0.0353575 -0.053133 0.476614 0.00961664 0.999815 -0.0166665
0.0604276 -0.0766846 0.548009 -0.132724 0.971898 -0.19442
0.0399484 -0.0707613 0.593569 0.951293 -0.288225 0.109403
-0.167206 -0.0710312 0.474404 -0.0867488 -0.996113 -0.0153109
-0.166539 -0.0708164 0.456651 -0.0867488 -0.996113 -0.0153109
0.0174177 0.0163914 0.258354 0.806139 0.576317 -0.134159
-0.088206 -0.0525751 0.481346 0.00880222 0.999843 -0.0153845
-0.0380159 -0.0464889 0.345208 -0.994362 0.0396861 -0.0983336
-0.124434 -0.0735596 0.424361 -0.0784929 -0.985885 -0.147882
-0.0162688 0.0140508 0.486623 0 -0.989253 0.146216
0.0355332 -0.0458674 0.654944 0.985674 -0.0797327 0.148625
0.0367459 -0.0215391 0.637585 0.881048 0.472815 -0.0141395
-0.0963853 -0.0603298 0.379705 0.0138308 0.990455 -0.137139
0.0333258 0.0115616 0.516903 0.783979 0.61471 0.0866533
-0.189244 -0.0501551 0.431661 0.040666 0.992587 -0.114535
-0.0194101 -0.0895525 0.526403 -0.156826 -0.987429 0.0197389
0.105549 0.000281436 0.108207 -0.0177667 0.994085 -0.107144
-0.120063 -0.0754829 0.481457 -0.0846256 -0.996274 -0.0166062
-0.162646 -0.0693562 0.518984 -0.0891157 -0.979461 0.180869
0.127199 -0.0664956 0.538522 -0.241582 0.780639 -0.576403
-0.338681 -0.0507215 0.409586 -0.0897258 -0.989402 -0.114164
-0.00759501 -0.0979721 0.326986 -0.0838683 -0.95094 -0.29779
-0.225905 -0.0533338 0.397089 0.0410307 0.989716 -0.137036
0.0338612 -0.0856754 0.319308 0.645347 -0.708512 -0.28555
-0.0263058 0.00226892 0.266549 -0.968355 0.224603 -0.108821
0.292606 -0.0475008 0.419246 0.0410307 -0.989716 0.137036
0.121777 -0.0750926 0.46575 -0.0841107 0.996338 0.0153325
-0.00153118 0.0323013 0.0208936 0.993196 -0.0206908 0.1146
-0.478205 -0.0438406 0.463522 -0.0863211 -0.996186 -0.0127489
-0.26839 -0.0617309 0.440815 -0.0863211 -0.996186 -0.0127489
0.159657 -0.0508551 0.468083 0.0496728 -0.998647 0.015368
-0.00694624 0.0135334 0.178623 -0.555183 0.831058 0.0333757
0.0386085 -0.00498586 0.452047 0.970312 0.237201 -0.0472329
-0.0425947 -0.0841588 0.376732 -0.996496 0.0420124 -0.0723271
0.237683 -0.0473455 0.506652 0.0494044 -0.997716 -0.0460576
-0.0448446 -0.0522063 0.550741 -0.998292 0.0558152 0.017274
0.0764827 0.00119223 0.0484902 -0.0124293 0.996677 0.0804965
0.0894242 -0.000176298 0.0692721 -0.00938522 0.999916 0.00898459
-0.00449986 0.0219303 0.0447496 0.993196 -0.020691 0.114599
0.0411344 -0.0399088 0.595035 0.996041 0.0556893 0.0692964
-0.178419 -0.070082 0.476185 -0.0867488 -0.996113 -0.0153109
-0.416723 -0.0436917 0.409999 -0.0897258 -0.989402 -0.114164
0.00275635 -0.0909591 0.505407 0.0472049 -0.998689 0.0198078
-0.0740593 -0.0531799 0.451467 0.00961664 0.999815 -0.0166665
-0.0438382 -0.031555 0.470438 -0.999189 0.0352186 -0.0195424
0.270978 -0.0451658 0.478682 0.0494872 -0.998693 0.0128165
-0.234091 -0.0475539 0.442008 0.0496728 0.998647 -0.015368
-0.0356201 0.00369121 0.433629 -0.971373 0.237461 0.00678355
-0.0805818 -0.0780873 0.434359 -0.0841107 -0.996338 -0.0153325
0.0355802 0.00789811 0.522495 0.783979 0.61471 0.0866533
-0.331406 -0.0452012 0.519497 0.0110515 0.804381 0.594012
-0.0168593 0.0168683 0.379837 -1.7291e-05 -0.999728 -0.0233219
0.204328 -0.0509021 0.421112 0.0410307 -0.989716 0.137036
0.00679694 -0.0493836 0.185687 0.0892312 -0.981981 -0.166584
-0.356525 -0.0545108 0.47225 -0.0867488 -0.996113 -0.0153109
0.0329189 0.0209431 0.437894 0.993482 0.066185 0.0928079
0.312592 -0.044317 0.438461 0.040666 -0.992587 0.114535
0.0014403 0.00888087 0.0296673 0.637845 0.727475 -0.252853
-0.00187169 0.0710766 0.0308454 0.993196 -0.020691 0.114599
-0.0390003 -0.0527029 0.503676 0.00107167 0.999687 0.0249963
0.00486643 -0.0877993 0.434274 0.0465908 -0.997595 -0.0513228
-0.00409728 0.023862 0.567192 -0.24263 0.966188 0.0872473
-0.105752 -0.0531992 0.43202 0.00961664 0.999815 -0.0166665
-0.163375 -0.0655658 0.394342 -0.0962999 -0.985946 -0.136514
-0.0113587 -0.0185055 0.09083 -0.989273 0.132053 -0.0624585
-0.389224 -0.0451225 0.407493 0.0410307 0.989716 -0.137036
0.00535534 0.010525 0.0778007 -0.999547 -0.0272354 0.0128147
0.0664366 -0.0689773 0.361875 -0.0699624 0.988123 0.136816
-0.197646 -0.0642321 0.408885 -0.0962999 -0.985946 -0.136514
0.0286093 -0.0700152 0.34987 -0.0784929 0.985885 0.147882
0.033924 0.00171425 0.576999 0.958863 0.272281 0.080281
-0.394774 -0.0479439 0.4296 -0.0897258 -0.989402 -0.114164
0.00456097 -0.00447657 0.0405107 -0.993196 -0.020691 0.114599
-0.386901 -0.0467176 0.520407 -0.0970416 -0.800675 0.591188
-0.0476623 0.00183022 0.0361408 -0.0124293 -0.996677 -0.0804965
0.0408088 -0.0304553 0.383632 0.99669 0.0420206 -0.0695965
0.0448927 -0.0487586 0.488597 0.999345 0.0352241 -0.00834457
-0.0104665 0.00772832 0.148735 -0.944357 0.312986 -0.101139
0.0278528 -0.0176359 0.228483 0.970652 0.225135 -0.0845532
0.338913 -0.0540634 0.435096 -0.0962999 0.985946 0.136514
-0.0565393 -0.0616332 0.376602 0.0209653 0.988719 -0.148306
0.137716 -0.0730625 0.439473 -0.0867488 0.996113 0.0153109
0.0225257 -0.0803881 0.415794 -0.0784929 0.985885 0.147882
0.0164921 -0.0775679 0.270232 0.348712 -0.857461 -0.378365
0.094716 0.00227052 0.0379532 -0.0124242 0.996679 0.0804775
-0.0839732 0.00226964 0.0363057 -0.0124242 -0.996679 -0.0804775
0.169093 -0.0543013 0.407112 0.0410307 -0.989716 0.137036
0.0229883 0.0211159 0.485543 0.954482 0.0639515 0.291333
0.436022 -0.0476263 0.473712 -0.0863211 0.996186 0.0127489
-0.190863 -0.0689189 0.471017 -0.0867488 -0.996113 -0.0153109
-0.0357447 0.00146846 0.557124 -0.959964 0.272594 0.0645109
-0.355015 -0.0492759 0.522176 -0.0970416 -0.800675 0.591188
0.0423816 -0.018636 0.536699 0.961329 0.272981 0.0364309
-0.00531258 0.000165354 0.0524541 0.999547 -0.0272355 0.0128147
0.39402 -0.0501366 0.445609 -0.0962999 0.985946 0.136514
-0.323289 -0.0429251 0.454496 0.0496728 0.998647 -0.015368
-0.142536 -0.0722892 0.513009 -0.0891157 -0.979461 0.180869
-0.273869 -0.0605606 0.511815 -0.0891157 -0.979461 0.180869
0.0297227 -0.0529373 0.512653 0.00107167 -0.999687 -0.0249963
0.460435 -0.0456767 0.487667 -0.0864688 0.996072 -0.0190693
0.161106 -0.0506242 0.478398 0.0496728 -0.998647 0.015368
0.0137756 0.0275878 0.497278 0.198937 0.977237 0.0737079
-0.0697791 -0.000489492 0.083612 -0.00938471 -0.999916 -0.00898067
0.325433 -0.0570106 0.502606 -0.0865782 0.995185 -0.04594
-0.251485 -0.0537951 0.386099 0.0410307 0.989716 -0.137036
0.00378168 0.0106364 0.457334 0 -0.999439 -0.0334876
-0.0410457 -0.0204342 0.570791 -0.959964 0.272594 0.0645109
-0.0332387 -0.0768395 0.296658 -0.936854 -0.306181 -0.16899
-0.100417 -0.0600122 0.381592 0.0138308 0.990455 -0.137139
-0.0446526 -0.0570141 0.461419 -0.998808 0.0480731 -0.00845345
-0.0754496 0.00373831 0.0428854 -0.0124271 0.996677 -0.0804967
0.0189615 0.0580229 0.441623 0.657276 0.74411 0.119534
0.416052 -0.0459649 0.429172 -0.0897258 0.989402 0.114164
-0.00965358 -0.0801376 0.271909 -0.110459 -0.912476 -0.393937
0.00390468 0.0493252 0.0471126 -0.999547 -0.0272354 0.0128149
-0.28031 -0.0609779 0.461173 -0.0867488 -0.996113 -0.0153109
-0.0248945 -0.0233092 0.705525 -0.853683 -0.166971 0.493301
0.0390335 -0.0504776 0.354404 0.994726 0.0397006 -0.094576
-0.450928 -0.0450768 0.448886 -0.0897258 -0.989402 -0.114164
-0.227015 -0.0506821 0.415908 0.0410307 0.989716 -0.137036
-0.0352554 -0.0820501 0.443225 -0.0841107 -0.996338 -0.0153325
0.010166 0.0335275 0.309609 0.507875 0.776003 -0.374008
0.0283721 -0.102624 0.412527 0.262622 -0.963094 0.05899
0.00263153 0.0306398 0.431635 0.293639 0.954699 0.0482252
0.0279187 0.012258 0.3713 0.858452 0.507556 -0.0738038
0.43763 -0.0474804 0.496566 -0.0863265 0.996003 -0.0229355
-0.361513 -0.0508425 0.427776 -0.0962999 -0.985946 -0.136514
0.132413 -0.0731722 0.515221 -0.131306 0.97486 -0.180019
-0.0371779 0.00122838 0.0419737 -0.0124293 -0.996677 -0.0804965
-0.0216947 -0.0100677 0.710547 -0.943205 0.18448 0.276282
0.0518342 -0.0815264 0.496338 -0.0846256 0.996274 0.0166062
-0.235785 -0.0649372 0.466491 -0.0867488 -0.996113 -0.0153109
-0.223586 -0.0474366 0.484729 0.0494872 0.998693 -0.0128165
0.10382 0.000515809 0.0610866 -0.0124293 0.996677 0.0804965
-0.0762481 -0.000281082 0.0671703 -0.00938522 -0.999916 -0.00898459
0.14387 0.002949 0.0436752 -0.0124271 -0.996677 0.0804967
0.0419698 0.000123202 0.0563975 -0.0124293 0.996677 0.0804965
0.12511 -0.052653 0.455166 0.00880222 -0.999843 0.0153845
0.232441 -0.0495913 0.422162 0.0410307 -0.989716 0.137036
0.181531 -0.0681635 0.425911 -0.0962999 0.985946 0.136514
-0.0573131 -0.0535831 0.436942 0.00961664 0.999815 -0.0166665
0.328784 -0.0470676 0.521976 0.0110515 -0.804381 -0.594012
-0.153195 -0.072366 0.486457 -0.0863265 -0.996003 0.0229355
0.0269352 -0.0116134 0.233985 0.970652 0.225135 -0.0845532
-0.137921 0.00509875 0.070031 -0.00938026 0.999916 -0.00898041
-0.0156696 0.0512962 0.364445 -0.607936 0.769852 -0.194271
0.093267 -0.0528686 0.459375 0.00880222 -0.999843 0.0153845
-0.2454 -0.0571738 0.391594 -0.0962999 -0.985946 -0.136514
0.0601215 -0.0604351 0.384083 0.0209653 -0.988719 0.148306
0.280912 -0.0475693 0.52058 0.0472494 -0.98728 -0.151808
0.0320717 -0.00682552 0.632404 0.943567 0.32517 0.0628141
-0.0372602 -0.0273791 0.348606 -0.976082 0.197859 -0.0900882
-0.0347694 -0.0454061 0.297303 -0.997256 0.0455421 -0.0583688
0.165122 -0.0602004 0.541114 0 1 0
-0.0306604 0.0412989 0.423263 -0.92274 0.385206 -0.0129531
0.0697188 -0.0641433 0.559532 -0.166079 -0.793258 -0.585798
0.0321309 0.0116442 0.451796 0.827856 0.558806 -0.0489001
-0.00417158 -0.0908666 0.523354 -0.0472128 -0.998858 0.00734053
-0.0252816 -0.0785379 0.404922 -0.0784929 -0.985885 -0.147882
-0.00601692 0.0166278 0.390141 -1.72916e-05 -0.999729 -0.0232961
-0.162289 -0.0599448 0.36839 0.0410307 0.989716 -0.137036
-0.0432942 -0.0782412 0.542489 -0.906591 -0.415455 0.0741022
0.45817 -0.0359708 0.472395 0.0494872 -0.998693 0.0128165
-0.0438132 -0.0710297 0.364703 -0.0784929 -0.985885 -0.147882
0.0382581 -0.0764027 0.332129 0.997377 0.0398065 -0.0604464
-0.18998 -0.0495377 0.455674 0.0496728 0.998647 -0.015368
-0.0445444 -0.0410031 0.53189 -0.998292 0.0558152 0.017274
-0.0309175 -0.0781848 0.295358 -0.526568 -0.793121 -0.30608
-0.301436 -0.0465909 0.423173 0.0410307 0.989716 -0.137036
0.152359 -0.0512005 0.469223 0.0496728 -0.998647 0.015368
0.0151901 0.0221453 0.555684 0.242783 0.966797 0.0797504
-0.00200549 0.0183414 0.317638 0 -0.999752 -0.02227
-0.0399361 -0.00420718 0.513301 -0.972745 0.229566 0.0326504
-0.00241857 0.0624804 0.436055 -0.14943 0.981103 0.122911
0.0889121 -0.0530401 0.517115 -0.00472253 -0.998741 -0.0499488
0.0998651 -0.0738527 0.534987 -0.129836 0.97505 -0.180054
0.00143411 0.0243361 0.129094 0.891139 0.445388 0.0866111
0.221848 -0.0476944 0.472457 0.0496728 -0.998647 0.015368
-0.0455327 -0.062659 0.544747 -0.998292 0.0558152 0.017274
0.0246698 -0.000832144 0.0746244 -0.00938472 0.999916 0.00898067
-0.307495 -0.0433219 0.481363 0.0494872 0.998693 -0.0128165
-0.296048 -0.052919 0.395125 -0.0897258 -0.989402 -0.114164
0.202928 -0.0485703 0.489866 0.0497658 -0.998495 -0.0230468
-0.11839 -0.0539664 0.520973 -0.0384978 0.982643 0.181467
-0.0331931 -0.0974429 0.360683 -0.560295 -0.818335 -0.128051
0.0276862 0.002146 0.635241 0.758042 0.646717 0.0844407
0.0532273 -0.0541357 0.536209 -0.0438983 -0.979649 -0.195859
0.00689396 0.00361964 0.714943 0.20492 0.938562 0.277687
0.0315421 0.00363958 0.356696 0.976996 0.198044 -0.0791064
-0.0698233 -0.054208 0.426597 0.0138308 0.990455 -0.137139
0.29987 -0.0437675 0.491115 0.0497658 -0.998495 -0.0230468
0.121526 0.000613269 0.108636 -0.0177699 0.994081 -0.107178
0.0290816 -0.0406537 0.217929 0.996337 0.0455002 -0.0724006
-0.0524439 0.00221861 0.0320702 -0.0124242 -0.996679 -0.0804775
-0.103109 -0.0617036 0.36955 0.0209653 0.988719 -0.148306
-0.0207474 -0.0175606 0.168069 -0.962064 0.236052 -0.136796
0.0459139 -0.0762194 0.497934 0.99926 0.0352211 0.0154263
-0.152834 -0.0605415 0.366912 0.0410307 0.989716 -0.137036
-0.0260735 -0.052778 0.503706 0.00880222 0.999843 -0.0153845
0.0116721 0.00496847 0.699745 0.616439 0.761126 0.201717
0.384952 -0.0521305 0.492832 -0.0864688 0.996072 -0.0190693
0.0790278 -0.0527061 0.478079 0.00880222 -0.999843 0.0153845
-0.4279 -0.0388016 0.445318 0.040666 0.992587 -0.114535
0.0259045 -0.0835888 0.516955 -0.0922108 0.995428 -0.0248858
-0.0157693 0.0244949 0.331574 -0.331276 0.941826 -0.0567437
-0.153328 0.00295495 0.0452092 -0.0124271 0.996677 -0.0804967
0.0261395 -0.0720044 0.361821 -0.0784929 0.985885 0.147882
0.0949866 -0.0635807 0.358184 0.0209653 -0.988719 0.148306
0.284569 -0.0449641 0.505364 0.049767 -0.998022 -0.038418
-0.180715 -0.0659909 0.409643 -0.0962999 -0.985946 -0.136514
-0.0457574 -0.0701772 0.514188 -0.999377 0.0352252 -0.00234004
0.0329985 0.00554907 0.388616 0.853235 0.519102 -0.0502312
0.0566795 -0.0696403 0.361674 -0.0699624 0.988123 0.136816
-0.00441378 0.0377589 0.0622464 0.999547 -0.0272355 0.0128147
-0.00897882 0.0345199 0.402537 0 0 1
-0.0458965 0.00352026 0.0356232 -0.0124271 0.996677 -0.0804967
0.451119 -0.0414488 0.417594 -0.0897258 0.989402 0.114164
0.258843 -0.0560287 0.392807 -0.0962999 0.985946 0.136514
-0.325686 -0.0562811 0.441783 -0.0962999 -0.985946 -0.136514
0.00689493 -0.000418438 0.057688 -0.0124293 0.996677 0.0804965
-0.0416957 -0.0146553 0.53434 -0.972745 0.229566 0.0326504
-0.320466 -0.0576906 0.474824 -0.0867488 -0.996113 -0.0153109
-0.0366029 -0.0373301 0.331176 -0.997139 0.0397969 -0.0642708
0.00908003 -0.106936 0.392086 0.080926 -0.99669 -0.00772791
0.0444643 -0.0545335 0.425876 0.997227 0.0455192 -0.0588806
0.0872468 -0.0782516 0.480329 -0.0846256 0.996274 0.0166062
0.181041 -0.0697049 0.497212 -0.0863265 0.996003 -0.0229355
-0.399011 -0.0484099 0.436659 -0.0962999 -0.985946 -0.136514
0.00700823 -0.0944328 0.314964 0.0840255 -0.95272 -0.292
0.036533 -0.0178655 0.363057 0.973892 0.208539 -0.089696
-0.00521649 0.00260753 0.0501497 0.999547 -0.0272355 0.0128147
-0.323296 -0.0571693 0.456143 -0.0863211 -0.996186 -0.0127489
0.00560926 0.0122908 0.0995129 0.972913 0.23117 -0.00115971
-0.0422902 -0.0795758 0.375261 -0.994638 0.0419341 -0.0945294
0.0427051 0.00191933 0.124025 -0.049052 0.917306 -0.395151
0.0239183 -0.0828043 0.432641 -0.0784929 0.985885 0.147882
0.0829165 -0.000245004 0.106269 -0.0112068 0.999577 -0.0268428
-0.0818005 -0.0713276 0.386706 -0.0699624 -0.988123 -0.136816
-0.0497114 0.00402196 0.042424 -0.0124271 0.996677 -0.0804967
0.247975 -0.0572614 0.394043 -0.0962999 0.985946 0.136514
0.0216983 0.0161956 0.408667 -1.72916e-05 -0.999729 -0.0232961
0.0563966 0.00550617 0.11249 -0.0177521 -0.994103 -0.106974
0.157543 0.00284481 0.0444961 -0.0124271 -0.996677 0.0804967
0.0398502 -0.0342946 0.369786 0.994726 0.0397006 -0.094576
0.0332656 -0.0279 0.284559 0.996951 0.0455282 -0.0633643
-0.000673565 0.0263422 0.131219 -0.54837 0.820859 0.159626
0.158786 -0.0713122 0.444977 -0.0867488 0.996113 0.0153109
0.0223333 0.0182509 0.488317 0.954482 0.0639515 0.291333
-0.397183 -0.051086 0.491934 -0.0864688 -0.996072 0.0190693
-0.413155 -0.0402046 0.438395 0.040666 0.992587 -0.114535
-0.0277913 -0.0829953 0.300918 -0.649442 -0.713008 -0.26428
-0.230591 -0.0535106 0.394409 0.0410307 0.989716 -0.137036
0.0444373 -0.0667158 0.572251 0.995033 0.0845543 0.0525364
0.055915 -0.0002129 0.0627122 -0.0124293 0.996677 0.0804965
0.0127261 -0.104785 0.414201 0.0799761 -0.984991 0.152962
-0.0431488 -0.0190682 0.522076 -0.972745 0.229566 0.0326504
0.259305 -0.0602557 0.423661 -0.0962999 0.985946 0.136514
-0.230518 -0.0613234 0.411066 -0.0962999 -0.985946 -0.136514
-0.176744 -0.0497645 0.4842 0.0494872 0.998693 -0.0128165
-0.150848 -0.0534865 0.41846 0.0410307 0.989716 -0.137036
0.0383907 -0.0305335 0.356015 0.994726 0.0397006 -0.094576
0.17127 -0.0525768 0.418916 0.0410307 -0.989716 0.137036
-0.0181614 0.0337764 0.325137 -0.830413 0.433178 -0.350386
0.132322 0.00059678 0.106693 -0.0177667 0.994085 -0.107144
0.177578 -0.063091 0.512742 0 0 -1
0.194563 0.00157297 0.0620065 -0.0124242 0.996679 0.0804775
0.228508 -0.0652738 0.447163 -0.0867488 0.996113 0.0153109
0.184389 -0.0677397 0.517025 -0.0891157 0.979461 -0.180869
-0.00250188 0.032889 0.0294123 0.993196 -0.0206908 0.1146
-0.221885 -0.0621383 0.410861 -0.0962999 -0.985946 -0.136514
-0.0225185 -0.102667 0.364312 -0.289998 -0.948503 -0.127452
0.293938 -0.0531476 0.395447 -0.0897258 0.989402 0.114164
0.114051 0.00546807 0.0862181 -0.00937951 -0.999916 0.00898635
-0.0213142 -0.0688922 0.338186 -0.0699624 -0.988123 -0.136816
-0.0205108 0.0175746 0.349878 -2.15796e-05 -0.999697 -0.0246081
-0.233614 -0.049491 0.519213 0.0448387 0.982402 0.181316
-0.24477 -0.0527526 0.395639 0.0410307 0.989716 -0.137036
-0.0277878 -0.011292 0.631244 0 1 0
0.0288529 0.00813035 0.579359 0.783454 0.614298 0.0940081
0.0330782 -0.0142601 0.652449 0.881048 0.472815 -0.0141395
0.0044338 0.0371515 0.398624 0 0 -1
-0.416302 -0.0390893 0.507904 0.0464315 0.987311 0.151857
-0.228179 -0.0608815 0.406224 -0.0962999 -0.985946 -0.136514
-0.0453608 -0.0735045 0.428709 -0.998689 0.0455859 0.0232736
-0.0265776 -0.0161828 0.612108 0 -1 0
-0.00544293 0.0196187 0.613486 -0.276782 0.95768 0.0789983
-0.014606 -0.0838874 0.448264 -0.0846256 -0.996274 -0.0166062
0.0870903 -0.0539279 0.426879 0.0138308 -0.990455 0.137139
-0.419666 -0.0377967 0.478786 0.0494872 0.998693 -0.0128165
-0.0421256 -0.0532627 0.52599 -0.00472253 0.998741 0.0499488
0.00956073 0.00551101 0.120215 -0.0177698 -0.994087 -0.107126
0.348389 -0.0436173 0.51588 0.0472494 -0.98728 -0.151808
0.0305388 0.0312794 0.453355 0.989653 0.0651409 0.127845
0.223604 -0.047943 0.450622 0.0496728 -0.998647 0.015368
0.387222 -0.0511719 0.506662 -0.0890181 0.984422 -0.151622
0.177851 -0.0631349 0.540473 0 -1 0
-0.189765 -0.0620174 0.539164 -1 0 0
-0.000402087 0.000615313 0.043886 -0.0124293 -0.996677 -0.0804965
0.297501 -0.0545576 0.409452 -0.0962999 0.985946 0.136514
0.0169642 0.025962 0.36967 0.315623 0.947822 -0.044897
-0.0291708 0.00169049 0.311364 -0.978868 0.198424 -0.0494505
0.0232355 0.0230276 0.408913 0.854257 0.519723 -0.0115108
-0.28261 -0.0560115 0.409448 -0.0962999 -0.985946 -0.136514
-0.275617 -0.0453794 0.449099 0.0496728 0.998647 -0.015368
0.0381668 -0.015682 0.610559 0 0 -1
0.094011 -0.0615553 0.371824 0.0209653 -0.988719 0.148306
0.0160642 0.00307507 0.0255054 -0.0124271 -0.996677 0.0804967
-0.0370626 -0.0746393 0.385184 -0.0784929 -0.985885 -0.147882
-0.257898 -0.0628685 0.502982 -0.0865782 -0.995185 0.04594
0.0288499 -0.0776465 0.400873 -0.0784929 0.985885 0.147882
0.0300042 -0.000569885 0.315617 0.973011 0.225683 -0.0481282
0.0346957 -0.0442214 0.661381 0.985674 -0.0797327 0.148625
0.00709092 0.00140131 0.0795298 0.981513 0.182565 -0.0574581
0.158368 -0.0682892 0.526924 -0.0887071 0.979496 -0.180885
-0.242297 -0.0643733 0.466703 -0.0867488 -0.996113 -0.0153109
0.0310425 -0.0427091 0.243622 0.996337 0.0455002 -0.0724006
0.314885 -0.0433106 0.456611 0.0496728 -0.998647 0.015368
0.401644 -0.0501611 0.451164 -0.0962999 0.985946 0.136514
0.112411 -0.0526629 0.461786 0.00880222 -0.999843 0.0153845
0.364466 -0.0503705 0.426451 -0.0962999 0.985946 0.136514
0.108456 -0.0523997 0.481154 0.00880222 -0.999843 0.0153845
0.0195476 -0.0531049 0.487422 0.00961664 -0.999815 0.0166665
0.167783 -0.0506407 0.455748 0.0496728 -0.998647 0.015368
-0.327142 -0.0459147 0.42036 0.0410307 0.989716 -0.137036
0.135302 -0.0555376 0.527662 0.0448387 -0.982402 -0.181316
-0.450965 -0.0378392 0.445469 0.040666 0.992587 -0.114535
-0.126571 -0.0596239 0.38176 0.0138308 0.990455 -0.137139
0.035901 -0.0384176 0.318466 0.996951 0.0455282 -0.0633643
-0.022754 0.00471446 0.0468366 -0.0124271 0.996677 -0.0804967
-0.0659236 -0.000538853 0.100861 -0.0102958 -0.999856 0.0135143
-0.0300521 0.012613 0.416503 -0.853836 0.519467 -0.0334287
0.160454 0.004831 0.0695328 -0.0124255 -0.996676 0.0805191
-0.0306108 -0.102285 0.391238 -0.262915 -0.964169 -0.0354167
-0.0335208 -0.0601711 0.389603 0.0209653 0.988719 -0.148306
-0.210399 -0.0671418 0.466087 -0.0867488 -0.996113 -0.0153109
0.00995854 -0.00383751 0.729746 0.573438 0.753394 0.321817
0.0422945 -0.070668 0.380629 0.99669 0.0420206 -0.0695965
-0.0934078 -0.0671342 0.362355 -0.0699624 -0.988123 -0.136816
0.0177144 -0.0842865 0.519395 -0.0922108 0.995428 -0.0248858
-0.0918971 -0.00013899 0.0677033 -0.00938522 -0.999916 -0.00898459
0.00967285 -0.0905481 0.509644 0.0472049 -0.998689 0.0198078
0.374555 -0.0409142 0.507053 0.0444222 -0.982403 -0.181412
0.0113779 0.00607146 0.061882 -0.0124271 -0.996677 0.0804967
0.0166812 -0.0681873 0.338542 0.0209653 -0.988719 0.148306
-0.12404 -0.0529719 0.512921 -0.00339988 0.998931 0.0461024
0.0157085 0.00333286 0.195536 0.802016 0.57337 -0.167383
-0.121058 -0.0609533 0.540657 -0.166079 0.793258 0.585798
0.0443515 0.00254665 0.0267582 -0.0124242 0.996679 0.0804775
0.271077 -0.0488069 0.523258 0.0110515 -0.804381 -0.594012
-0.00618437 0.0218225 0.251465 -0.291933 0.94959 -0.114252
-0.0264916 -0.0193629 0.210556 -0.993924 0.0944369 -0.0565366
0.0319166 -0.0863488 0.461835 0.334689 -0.940893 -0.0520014
0.224734 -0.0660092 0.473623 -0.0867488 0.996113 0.0153109
-0.0656374 -0.0661788 0.345011 0.0209653 0.988719 -0.148306
0.00274043 -0.0872529 0.581638 0.138743 -0.984603 0.106339
-0.0154748 -0.00751986 0.723237 -0.807115 0.49148 0.327129
-0.0511358 -0.0806474 0.439186 -0.0841107 -0.996338 -0.0153325
-0.0206344 -0.0577143 0.407804 0.0209653 0.988719 -0.148306
0.0140105 0.00346893 0.184006 0.832626 0.55032 -0.0623074
-0.469186 -0.0353233 0.491538 0.0499442 0.998567 0.019224
0.210472 -0.0513926 0.41573 0.0410307 -0.989716 0.137036
0.133749 -0.0546686 0.416824 0.0138308 -0.990455 0.137139
-0.072593 -0.0548704 0.421534 0.0138308 0.990455 -0.137139
-0.411657 -0.0423785 0.517353 0.0206168 0.851408 0.524099
0.00303751 -0.000959581 0.0662078 -0.00938472 0.999916 0.00898067
0.0417293 -0.0716282 0.575836 0.899652 -0.412275 0.14372
-0.275123 -0.0616672 0.476629 -0.0867488 -0.996113 -0.0153109
0.0425136 -0.0822834 0.494254 -0.0846256 0.996274 0.0166062
0.169462 -0.0586303 0.375736 0.0410307 -0.989716 0.137036
0.425186 -0.0487294 0.488049 -0.0864688 0.996072 -0.0190693
0.016401 -0.0836789 0.444905 -0.0846256 0.996274 0.0166062
0.00787852 0.0179085 0.230091 0.291331 0.947629 -0.130868
-0.0834414 -0.0526832 0.477043 0.00880222 0.999843 -0.0153845
0.396353 -0.0419053 0.429622 0.040666 -0.992587 0.114535
-0.0351905 0.00106975 0.402072 -0.975055 0.214835 -0.0557913
-0.126463 0.000151737 0.071455 -0.00938522 -0.999916 -0.00898459
-0.191347 -0.0670171 0.424555 -0.0962999 -0.985946 -0.136514
-0.275842 -0.0551899 0.39874 -0.0962999 -0.985946 -0.136514
0.227573 -0.0475236 0.497734 0.0497658 -0.998495 -0.0230468
-0.0411655 -0.000504563 0.064046 -0.0124293 -0.996677 -0.0804965
0.0433876 -0.0518185 0.408944 0.997626 0.0432786 -0.0535578
-0.0806368 0.000319939 0.112695 -0.0177699 -0.994081 0.107178
-0.0030743 -0.0907061 0.545966 -0.0860269 -0.996096 0.019811
0.0307913 -0.0977535 0.352898 0.55999 -0.817889 -0.132171
-0.476128 -0.0399463 0.424228 -0.0897258 -0.989402 -0.114164
0.121735 0.00454447 0.0600111 -0.0124255 -0.996676 0.0805191
0.0440209 -0.0729934 0.40363 0.997626 0.0432786 -0.0535578
-0.166286 -0.0549268 0.403435 0.0410307 0.989716 -0.137036
0.00708361 0.00650839 0.0903229 -0.00938026 -0.999916 0.00898041
0.0181801 0.0404812 0.336885 0.563561 0.775795 -0.283797
-0.24801 -0.04623 0.484444 0.0494872 0.998693 -0.0128165
-0.251932 -0.0536451 0.387048 0.0410307 0.989716 -0.137036
-0.31297 -0.0460481 0.42364 0.0410307 0.989716 -0.137036
0.0152583 -0.037003 0.128575 0.574307 -0.80262 -0.161162
0.177063 -0.0658351 0.52896 -0.0970416 0.800675 -0.591188
0.0253534 -0.00555764 0.23514 0.946581 0.30213 -0.112707
0.160422 -0.0636795 0.378635 -0.0962999 0.985946 0.136514
-0.0637962 0.00246793 0.122681 -0.049052 -0.917306 0.395151
-0.0452859 -0.0558885 0.527892 -0.999377 0.0352252 -0.00234004
0.00786757 -0.00892933 0.0599724 0.981513 0.182565 -0.0574581
-0.393112 -0.0394543 0.454355 0.0496728 0.998647 -0.015368
0.0156305 -0.00821575 0.154553 0.965547 0.236907 -0.107681
0.266987 -0.0553911 0.393709 -0.0897258 0.989402 0.114164
0.0344147 -0.0826714 0.522118 -0.0922108 0.995428 -0.0248858
0.153156 -0.0720031 0.502363 -0.0863265 0.996003 -0.0229355
-0.00843769 0.0161892 0.408946 0 -0.999728 -0.0233309
0.0442424 -0.0532084 0.433976 0.998627 0.0480644 0.0208232
-0.127182 -0.0525848 0.458412 0.00880222 0.999843 -0.0153845
0.0028374 -0.00072917 0.731261 0.209771 0.925895 0.314188
0.0369538 -0.00476499 0.413627 0.975766 0.214992 -0.0407375
0.0904481 -0.0551092 0.418008 0.0138308 -0.990455 0.137139
0.0293919 0.00893349 0.569619 0.783454 0.614298 0.0940081
0.0195245 -0.0829626 0.544491 -0.133801 0.971762 -0.194359
-0.0155597 0.0252157 0.518407 -0.198625 0.975707 0.0924292
-0.0315975 -0.0805432 0.581579 -0.539376 -0.83028 0.140388
0.274725 -0.0490526 0.413392 0.0410307 -0.989716 0.137036
0.346915 -0.0454966 0.41746 0.0410307 -0.989716 0.137036
-0.0020588 0.0182785 0.320463 0 -0.999752 -0.02227
-0.354985 -0.0429294 0.435434 0.040666 0.992587 -0.114535
0.00147357 -0.0020946 0.0141833 -0.993196 -0.020691 0.114599
0.0446501 -0.0570605 0.444856 0.998622 0.0480641 -0.0210899
0.164807 -0.0679485 0.525611 -0.0887071 0.979496 -0.180885
0.00940481 -0.0998137 0.33321 0.0840255 -0.95272 -0.292
0.188684 -0.0679479 0.513781 -0.0891157 0.979461 -0.180869
-0.000510686 0.0562208 0.0163679 0.993196 -0.0206908 0.1146
-0.228542 -0.0565609 0.373631 -0.0897258 -0.989402 -0.114164
0.470933 -0.0366965 0.509012 0.0472494 -0.98728 -0.151808
0.265633 -0.0453816 0.482504 0.0494872 -0.998693 0.0128165
0.0650362 -0.0785003 0.535471 -0.133801 0.971762 -0.194359
-0.220959 -0.0563924 0.532618 0.0206168 0.851408 0.524099
0.0439771 -0.0766886 0.402517 -0.0784929 0.985885 0.147882
0.221613 -0.0649336 0.430858 -0.0962999 0.985946 0.136514
-0.0262515 0.0262482 0.474337 -0.958548 0.0642239 0.2776
-0.0265523 -0.0532267 0.476072 0.00961664 0.999815 -0.0166665
-0.213487 -0.052725 0.405205 0.0410307 0.989716 -0.137036
-0.0174059 -0.0907064 0.309914 -0.360975 -0.887614 -0.286073
0.0190428 -0.0837604 0.463257 -0.0846256 0.996274 0.0166062
-0.257869 -0.0629614 0.463068 -0.0867488 -0.996113 -0.0153109
-0.159433 -0.051087 0.453739 0.0496728 0.998647 -0.015368
0.0443698 -0.0461352 0.529267 0.99926 0.0352211 0.0154263
0.388095 -0.0498003 0.514382 -0.0887071 0.979496 -0.180885
-0.0400724 -0.0598342 0.622821 -0.949806 -0.287775 0.122696
-0.108388 -0.07623 0.505676 -0.0922108 -0.995428 0.0248857
0.363276 -0.0496397 0.520317 -0.0980593 0.847565 -0.521553
-0.2783 -0.0613153 0.47174 -0.0867488 -0.996113 -0.0153109
-0.0436389 -0.0345628 0.454831 -0.999189 0.0352186 -0.0195424
0.384403 -0.0480036 0.421966 -0.0897258 0.989402 0.114164
-0.000278343 -0.0832209 0.622324 -0.08555 -0.990573 0.106984
0.0834409 0.00579658 0.0958705 -0.0102884 -0.999857 -0.0134267
0.206891 -0.0671665 0.447822 -0.0867488 0.996113 0.0153109
0.00839988 0.000622745 0.0989614 0.981131 0.182494 -0.0638529
0.0313216 0.00293619 0.0261414 -0.0124271 -0.996677 0.0804967
-0.179147 -0.050397 0.434849 0.0496728 0.998647 -0.015368
0.0314447 -0.0159793 0.274128 0.970652 0.225135 -0.0845532
0.00844879 -0.00213852 0.0914778 0.981513 0.182565 -0.0574581
-0.0377879 -0.0826288 0.490896 -0.0846256 -0.996274 -0.0166062
0.0145751 -0.0842623 0.285948 0.271801 -0.9168 -0.292579
0.114084 -0.0531116 0.516684 -0.00339988 -0.998931 -0.0461024
-0.0627722 -0.0800661 0.46447 -0.0846256 -0.996274 -0.0166062
-0.146999 -0.0684787 0.403827 -0.0962999 -0.985946 -0.136514
0.0081717 0.0498041 0.470424 0.119751 0.790978 0.600011
-0.421447 -0.0470435 0.512954 -0.0887071 -0.979496 0.180885
0.276034 -0.0598742 0.432707 -0.0962999 0.985946 0.136514
-0.0142307 -0.0667993 0.243246 -0.270789 -0.881787 -0.386167
-0.0172364 0.0249052 0.348409 -0.331467 0.942368 -0.0455118
-0.135551 -0.0638305 0.362181 -0.0962999 -0.985946 -0.136514
0.102605 -0.0544134 0.421808 0.0138308 -0.990455 0.137139
0.123444 -0.0616035 0.367778 0.0138308 -0.990455 0.137139
-0.243413 -0.0628535 0.514404 -0.0891157 -0.979461 0.180869
0.0362215 -0.0278798 0.331079 0.996951 0.0455282 -0.0633643
-0.0236774 0.00929336 0.618563 -0.757333 0.646112 0.0947918
0.158549 0.00204772 0.0505671 -0.0124242 0.996679 0.0804775
0.0391619 -0.0978644 0.406195 0.521135 -0.853288 -0.0178604
0.365032 -0.0537089 0.468282 -0.0867488 0.996113 0.0153109
0.016553 0.0109177 0.448917 -1.81021e-05 -0.999441 -0.033426
-0.0358073 -0.0942009 0.351403 -0.560295 -0.818335 -0.128051
0.139292 -0.0521154 0.452006 0.0496728 -0.998647 0.015368
0.156868 -0.0515416 0.43248 0.0496728 -0.998647 0.015368
0.0640678 -0.0575922 0.402736 0.0138308 -0.990455 0.137139
-0.00256372 -0.0380786 0.720722 -0.208902 -0.95681 0.202174
-0.00528628 0.00354736 0.0575908 0.999547 -0.0272355 0.0128147
-0.012781 0.0596676 0.445957 -0.151196 0.981156 0.120303
0.275527 -0.0616494 0.491393 -0.0863265 0.996003 -0.0229355
-0.0440192 -0.0572543 0.407565 0.0209653 0.988719 -0.148306
0.0442161 0.00362109 0.0366122 -0.0124271 -0.996677 0.0804967
-0.155489 -0.0674734 0.402556 -0.0962999 -0.985946 -0.136514
0.00341181 0.0230833 0.0355273 -0.993196 -0.020691 0.114599
-0.0372368 -0.078511 0.571931 -0.539376 -0.83028 0.140388
0.452386 -0.0360982 0.484798 0.0494872 -0.998693 0.0128165
-0.0121584 0.0562462 0.382667 -0.131819 0.968048 -0.213324
0.0288951 -0.0899419 0.32086 0.530095 -0.798433 -0.285488
-0.162619 -0.061511 0.364523 -0.0962999 -0.985946 -0.136514
0.0167471 0.0569043 0.392147 0.615747 0.779744 -0.113383
0.051932 -0.0535353 0.442917 0.00961664 -0.999815 0.0166665
-0.00672916 0.0108849 0.449912 -1.81021e-05 -0.999441 -0.033426
0.054448 -0.000707201 0.097148 -0.0102958 0.999856 -0.0135143
0.0888582 -0.053815 0.526619 -0.0438983 -0.979649 -0.195859
0.00791231 0.0118855 0.471974 0 -0.989253 0.146216
0.0237418 0.0401362 0.469771 0.857297 0.33322 0.392436
-0.0421655 -0.000369777 0.0625316 -0.0124293 -0.996677 -0.0804965
-0.0456273 -0.0775729 0.459662 -0.998808 0.0480731 -0.00845345
-0.302539 -0.0589078 0.451443 -0.0863211 -0.996186 -0.0127489
-0.0274421 0.0152071 0.41762 0 -0.976965 -0.213401
-0.0445128 -0.0572456 0.443582 -0.998808 0.0480731 -0.00845345
-0.0119795 -0.0887176 0.458541 -0.0471518 -0.997567 -0.0513528
-0.084361 -0.0531021 0.450188 0.00961664 0.999815 -0.0166665
-0.223652 -0.0618208 0.526749 -0.0970416 -0.800675 0.591188
0.059841 0.000126199 0.114346 -0.0177699 0.994081 -0.107178
0.297424 -0.0596439 0.471352 -0.0867488 0.996113 0.0153109
-0.152299 -0.0669491 0.396519 -0.0962999 -0.985946 -0.136514
-0.0893557 0.00518688 0.109987 -0.0177763 0.994079 0.107194
-0.0200931 -0.0842639 0.586862 -0.276622 -0.953679 0.118222
-0.0813407 -0.0557126 0.414569 0.0138308 0.990455 -0.137139
0.0457573 -0.0829502 0.429978 0.998627 0.0480644 0.0208232
0.02257 -0.0866743 0.5599 0.275708 -0.950528 0.143115
-0.0252122 -0.011292 0.639296 0 1 0
-0.042405 -0.0455148 0.586831 -0.996741 0.0557285 0.0583304
0.0116684 0.0271955 0.508167 0.198937 0.977237 0.0737079
0.343967 -0.0555297 0.499336 -0.0865689 0.995509 -0.0383218
0.126885 2.70166e-05 0.0962833 -0.0102958 0.999856 -0.0135143
0.306986 -0.0477648 0.413034 0.0410307 -0.989716 0.137036
-0.000706323 0.0766227 0.021747 0.993196 -0.0206908 0.1146
-0.0429934 -0.0536691 0.584566 -0.996741 0.0557285 0.0583304
-0.052485 0.0060426 0.0858832 -0.00938026 0.999916 -0.00898041
-0.0188949 -0.0782183 0.399401 -0.0784929 -0.985885 -0.147882
-0.0965505 0.00101513 0.0537817 -0.0124293 -0.996677 -0.0804965
-0.0288421 0.00233112 0.307428 -0.978868 0.198424 -0.0494505
0.105548 -0.0725037 0.538107 -0.132724 0.971898 -0.19442
-0.0973558 -0.0772396 0.471133 -0.0846256 -0.996274 -0.0166062
-0.143196 0.00094005 0.108074 -0.0177699 -0.994081 0.107178
-0.105109 -0.0540386 0.524182 -0.0384978 0.982643 0.181467
-0.0100713 -0.0678532 0.58159 -0.180681 0.768039 0.614386
0.411422 -0.038274 0.473421 0.0494872 -0.998693 0.0128165
-0.324884 -0.0427298 0.462033 0.0496728 0.998647 -0.015368
0.196192 -0.0682154 0.455444 -0.0867488 0.996113 0.0153109
0.0280727 -0.0161828 0.645502 0 -1 0
0.3981 -0.0389863 0.469358 0.0494872 -0.998693 0.0128165
0.0122103 -0.0439752 0.159627 0.29709 -0.9431 -0.149334
-0.021216 -0.0534287 0.46703 0.00961664 0.999815 -0.0166665
-0.0407778 -0.0531589 0.471928 0.00961664 0.999815 -0.0166665
-0.130025 -0.0629296 0.357571 0.0209653 0.988719 -0.148306
0.00841769 0.0527574 0.364104 0.121356 0.969352 -0.213612
-0.0741102 -0.0775584 0.424309 -0.0784929 -0.985885 -0.147882
-0.00370651 -0.0922615 0.307327 -0.114972 -0.949761 -0.291093
0.0844448 -0.000322809 0.0803789 -0.00938472 0.999916 0.00898067
0.0549649 0.00459539 0.119847 -0.0490482 -0.917306 -0.395151
-0.190091 0.000707177 0.0761042 -0.00938522 -0.999916 -0.00898459
-0.0135735 -0.0779974 0.268356 -0.270789 -0.881787 -0.386167
0.030894 0.0217528 0.455487 0.989795 0.0663175 0.126128
-0.0661506 0.00477309 0.117677 -0.0177346 0.994118 0.106842
0.0431975 -0.0537801 0.433269 0.00961664 -0.999815 0.0166665
-0.0262789 -0.037524 0.193188 -0.987069 0.117942 -0.108561
-0.0357936 -0.0603546 0.388059 0.0209653 0.988719 -0.148306
0.00907073 0.00343086 0.119156 0.948204 0.314257 -0.0463895
-0.0256614 0.00127648 0.0395999 -0.0124293 -0.996677 -0.0804965
0.0361029 -0.0832143 0.541754 0.544154 -0.837636 0.0475683
-0.0397985 -0.0307895 0.610148 -0.994044 0.0844703 0.0688571
0.00516993 0.00415266 0.0548381 0.971309 0.230788 -0.0574104
-0.0444328 -0.0626091 0.56493 -0.180681 0.768039 0.614386
0.458295 -0.0361402 0.501183 0.049767 -0.998022 -0.038418
-0.0442308 -0.0486626 0.428538 -0.998689 0.0455859 0.0232736
0.0358871 -0.00294893 0.569367 0.958863 0.272281 0.080281
-0.256344 -0.0633469 0.48988 -0.0863265 -0.996003 0.0229355
-0.132471 -0.0722754 0.419462 -0.0699624 -0.988123 -0.136816
-0.13483 -0.0565849 0.400878 0.0410307 0.989716 -0.137036
-0.315148 -0.0582507 0.481132 -0.0867488 -0.996113 -0.0153109
0.197379 0.00251461 0.0507794 -0.0124242 0.996679 0.0804775
-0.26082 -0.0458748 0.464729 0.0496728 0.998647 -0.015368
0.376694 -0.0409497 0.507889 0.0464315 -0.987311 -0.151857
0.109683 -0.0762505 0.474609 -0.0846256 0.996274 0.0166062
0.0191248 0.0517087 0.376249 0.60925 0.771516 -0.183242
0.0446864 -0.0493131 0.51601 0.99926 0.0352211 0.0154263
-0.311249 -0.0497891 0.397137 0.0410307 0.989716 -0.137036
-0.0159081 0.0118612 0.231962 -0.834747 0.53458 -0.13199
-0.00839339 -0.0933851 0.312563 -0.0838683 -0.95094 -0.29779
0.0292818 -0.000707519 0.0655688 -0.00938522 0.999916 0.00898459
-0.110001 -0.0762981 0.496396 -0.0921328 -0.995482 0.0229773
0.0214222 -0.0140167 0.71337 0.91926 0.179797 0.350192
0.00532971 -0.0904487 0.544406 0.0860416 -0.996265 0.0073215
0.085975 -0.0532507 0.440343 0.00961664 -0.999815 0.0166665
-0.400107 -0.0426115 0.517277 0.0206168 0.851408 0.524099
-0.0191749 -0.0356292 0.708796 -0.43112 -0.283271 0.856676
0.0408427 -0.0209959 0.574006 0.943567 0.32517 0.0628141
0.0315821 -0.0534868 0.457565 0.00961664 -0.999815 0.0166665
-0.368395 -0.0496018 0.423236 -0.0897258 -0.989402 -0.114164
-0.340682 -0.056035 0.481649 -0.0867488 -0.996113 -0.0153109
0.0990491 -0.068531 0.375328 -0.0699624 0.988123 0.136816
0.102537 -0.0531544 0.436562 0.00961664 -0.999815 0.0166665
-0.0737227 -0.0525143 0.497622 0.00107167 0.999687 0.0249963
0.0894861 0.00438603 0.0530722 -0.0124271 -0.996677 0.0804967
0.175442 0.000918588 0.102529 -0.0177667 0.994085 -0.107144
0.0406213 -0.0535685 0.532247 -0.00472253 -0.998741 -0.0499488
-0.348425 -0.0505758 0.521497 -0.0970416 -0.800675 0.591188
-0.15427 0.00500165 0.0762962 -0.00938026 0.999916 -0.00898041
0.00416414 0.00656616 0.0475237 0.971309 0.230788 -0.0574104
-0.0342068 -0.0823476 0.455772 -0.0846256 -0.996274 -0.0166062
-0.0211316 0.0437227 0.351711 -0.878433 0.412836 -0.240668
0.160937 -0.0602392 0.366669 0.0410307 -0.989716 0.137036
-0.0134309 -0.00110202 0.0929286 -0.00938471 -0.999916 -0.00898067
0.0338057 -0.0828152 0.481783 -0.0846256 0.996274 0.0166062
-0.0323343 0.0055279 0.569064 -0.78411 0.614813 0.0847126
0.179918 0.0028309 0.0477781 -0.0124271 -0.996677 0.0804967
-0.183615 -0.0551644 0.39653 0.0410307 0.989716 -0.137036
-0.0960294 0.00337921 0.0416163 -0.0124271 0.996677 -0.0804967
0.0271562 0.00301889 0.0265223 -0.0124271 -0.996677 0.0804967
0.159567 0.000369335 0.0967114 -0.0102958 0.999856 -0.0135143
0.241659 -0.0634917 0.511812 -0.0891157 0.979461 -0.180869
-0.157168 -0.0581081 0.383189 0.0410307 0.989716 -0.137036
0.303976 -0.0513364 0.38814 0.0410307 -0.989716 0.137036
-0.168088 0.00494725 0.0846661 -0.0093795 0.999916 -0.00898635
-0.0145586 0.0604795 0.425777 -0.139533 0.989915 -0.0244746
0.0850708 -0.0531328 0.447939 0.00961664 -0.999815 0.0166665
0.451815 -0.0443543 0.443322 -0.0897258 0.989402 0.114164
0.160971 -0.0596677 0.370787 0.0410307 -0.989716 0.137036
0.00700406 -0.0816034 0.628385 0.138743 -0.984603 0.106339
-0.0363349 -0.0334235 0.656591 -0.992303 0.0843223 0.0906918
0.263111 -0.0626912 0.492884 -0.0863265 0.996003 -0.0229355
0.0443329 -0.0625051 0.564829 -0.180681 -0.768039 -0.614386
-0.025924 -0.0786067 0.405721 -0.0784929 -0.985885 -0.147882
-0.126053 0.00535555 0.0862245 -0.0093795 0.999916 -0.00898635
-0.0769883 -0.000356151 0.104605 -0.0112068 -0.999577 0.0268428
0.160176 -0.0542544 0.410121 0.0410307 -0.989716 0.137036
-0.0369595 -0.0608959 0.322116 -0.997139 0.0397969 -0.0642708
0.0445952 -0.0669464 0.342869 0.0209653 -0.988719 0.148306
0.0155654 -0.0947468 0.319722 0.271801 -0.9168 -0.292579
0.113659 -0.0624432 0.363127 0.0209653 -0.988719 0.148306
0.0225492 0.0248669 0.508276 0.242475 0.965569 0.0942455
-0.116522 0.000634323 0.0615804 -0.0124293 -0.996677 -0.0804965
0.272504 -0.04794 0.422093 0.0410307 -0.989716 0.137036
0.176274 -0.0502588 0.453119 0.0496728 -0.998647 0.015368
-0.222424 -0.047774 0.465422 0.0496728 0.998647 -0.015368
0.0438751 -0.036007 0.538182 0.99926 0.0352211 0.0154263
-0.0820583 -0.0782335 0.451963 -0.0841107 -0.996338 -0.0153325
0.0325213 -0.0786813 0.585178 0.705344 -0.696689 0.130819
0.287316 -0.06017 0.505999 -0.0865782 0.995185 -0.04594
-0.00962894 -0.0818665 0.623755 -0.138567 -0.98336 0.117486
0.110779 -0.0651738 0.547083 -0.245764 0.756968 -0.605475
-0.031305 0.00623951 0.102836 -0.0102884 0.999857 0.0134267
0.157371 -0.0507419 0.482843 0.0494872 -0.998693 0.0128165
0.299445 -0.0439496 0.464991 0.0496728 -0.998647 0.015368
-0.0119711 0.0281101 0.488114 -0.199459 0.979805 0.0140693
0.0824128 -0.0530672 0.453408 0.00961664 -0.999815 0.0166665
-0.0311262 -0.086815 0.526565 -0.278176 -0.959035 0.0535692
-0.167962 -0.0615422 0.368518 -0.0962999 -0.985946 -0.136514
0.434159 -0.0461738 0.511326 -0.0882051 0.984535 -0.151366
-0.22971 -0.0530516 0.397988 0.0410307 0.989716 -0.137036
0.0500922 0.00037598 0.0545218 -0.0124293 0.996677 0.0804965
-0.0406508 -0.0783425 0.559811 -0.539376 -0.83028 0.140388
