0.0313604 0.00862093 0.392537 0.853235 0.519102 -0.0502312
-0.158141 0.00498661 0.0786633 -0.0093795 0.999916 -0.00898635
-0.0498391 -0.0587955 0.558572 -0.180681 0.768039 0.614386
-0.193671 -0.0643188 0.406707 -0.0962999 -0.985946 -0.136514
0.186181 -0.0690552 0.453359 -0.0867488 0.996113 0.0153109
0.300878 -0.0595315 0.487478 -0.0864688 0.996072 -0.0190693
-0.324097 -0.051369 0.524417 -0.0970416 -0.800675 0.591188
-0.0264413 -0.0192312 0.698924 -0.960405 0.15761 0.229743
0.368469 -0.0406749 0.454686 0.0496728 -0.998647 0.015368
0.253492 -0.0463605 0.456857 0.0496728 -0.998647 0.015368
-0.00870702 -0.0549706 0.213455 -0.0834344 -0.913275 -0.398708
0.123356 0.00311002 0.042502 -0.0124271 -0.996677 0.0804967
-0.0238449 -0.000952743 0.238001 -0.968355 0.224603 -0.108821
0.0411229 0.000349964 0.119531 -0.0177518 0.994105 -0.106954
0.465963 -0.0357204 0.461813 0.0494872 -0.998693 0.0128165
0.476283 -0.0441379 0.496186 -0.0864688 0.996072 -0.0190693
0.308004 -0.0433848 0.492101 0.0497658 -0.998495 -0.0230468
0.0149464 -0.0879605 0.446819 0.156602 -0.98602 -0.0569208
-0.0199059 0.0132541 0.621698 -0.757333 0.646112 0.0947918
-0.105768 0.00536448 0.105613 -0.0177521 0.994103 0.106974
0.238064 -0.048609 0.427727 0.040666 -0.992587 0.114535
0.144651 -0.0723309 0.431168 -0.0867488 0.996113 0.0153109
-0.434344 -0.0478781 0.49099 -0.0864688 -0.996072 0.0190693
-0.0339598 -0.0498715 0.665444 -0.974539 -0.078832 0.209902
0.141945 -0.0632435 0.362452 -0.0962999 0.985946 0.136514
0.00330486 0.0730735 0.0507993 -0.999547 -0.0272354 0.0128149
0.00595599 -0.0830003 0.616819 0.138743 -0.984603 0.106339
-0.108879 -0.0532033 0.519055 -0.00339988 0.998931 0.0461024
-0.0060462 -0.00702726 0.0322487 -0.986879 0.149599 -0.0607444
-0.0264584 0.00799041 0.605225 -0.757333 0.646112 0.0947918
-0.0433698 -0.0394028 0.418244 -0.997524 0.0455327 -0.0535974
0.0300545 -0.0797144 0.415298 -0.0784929 0.985885 0.147882
0.175567 0.00490969 0.0913216 -0.0102884 -0.999857 -0.0134267
-0.415268 -0.0384609 0.452755 0.040666 0.992587 -0.114535
0.0229579 0.0108374 0.451317 0 -0.999441 -0.0334244
0.0233117 0.0171588 0.367363 9.90564e-05 -0.999728 -0.0233244
0.0870076 -0.0757354 0.419002 -0.0784929 0.985885 0.147882
-0.0195545 -0.0582153 0.404617 0.0209653 0.988719 -0.148306
0.163858 -0.0508665 0.453757 0.0496728 -0.998647 0.015368
0.0195889 0.0569083 0.407793 0.629466 0.769782 -0.105871
-0.0349681 -0.0661713 0.349397 0.0209653 0.988719 -0.148306
0.132006 -0.0521562 0.483508 0.00880222 -0.999843 0.0153845
-0.297724 -0.0593413 0.452711 -0.0863211 -0.996186 -0.0127489
0.409921 -0.047937 0.440939 -0.0962999 0.985946 0.136514
-0.033366 0.017557 0.434348 -0.996821 0.0664075 -0.0440192
-0.0325032 0.0171894 0.412155 -0.995203 0.0741556 -0.0638169
0.223276 -0.0653427 0.510846 -0.0891157 0.979461 -0.180869
-0.361912 -0.0407182 0.47414 0.0494872 0.998693 -0.0128165
0.0164197 -0.0757011 0.381306 -0.0784929 0.985885 0.147882
-0.130155 0.00536312 0.0913474 -0.0093795 0.999916 -0.00898635
0.0133366 -0.0534147 0.531044 0.00107167 -0.999687 -0.0249963
-0.0718056 0.00587469 0.0873683 -0.00938026 0.999916 -0.00898041
0.018163 -0.0648629 0.679073 0.506748 -0.779187 0.368882
-0.0289954 0.00109968 0.305522 -0.978868 0.198424 -0.0494505
-0.0396042 -0.0223815 0.60047 -0.959964 0.272594 0.0645109
-0.0355552 0.00239101 0.0273278 -0.0124242 -0.996679 -0.0804775
0.0383201 -0.0662993 0.619482 0.951293 -0.288225 0.109403
0.0533948 -0.0788528 0.541722 -0.133801 0.971762 -0.194359
-0.0414768 -0.0169702 0.452185 -0.970473 0.237241 -0.0435763
-0.334001 -0.0464828 0.414204 0.0410307 0.989716 -0.137036
0.0452251 -0.0610419 0.535832 0.998424 0.0558226 -0.00585269
-0.281741 -0.0450417 0.504005 0.0494044 0.997716 0.0460576
0.0119277 -0.0539422 0.441586 0.00961664 -0.999815 0.0166665
0.00846434 0.0284639 0.46124 0.280004 0.9599 0.0137835
-0.147724 0.0034663 0.0506752 -0.0124271 0.996677 -0.0804967
0.432257 -0.0399351 0.433948 0.040666 -0.992587 0.114535
-0.0361223 -0.0860196 0.471046 -0.209686 -0.97659 -0.0479997
-0.040937 -0.0475075 0.613819 -0.996741 0.0557285 0.0583304
-0.0874837 -0.0584519 0.394166 0.0138308 0.990455 -0.137139
-0.00213968 0.00619747 0.115069 -0.0177521 0.994103 0.106974
-0.000322922 0.014555 0.672037 -0.229274 0.950793 0.20839
0.402848 -0.0424933 0.422403 0.0410307 -0.989716 0.137036
-0.0110892 -0.0554757 0.701876 -0.0652688 -0.910839 0.407568
0.367462 -0.0536147 0.494279 -0.0863265 0.996003 -0.0229355
0.45292 -0.0462013 0.476774 -0.0863211 0.996186 0.0127489
0.0324694 0.000742531 0.360897 0.976996 0.198044 -0.0791064
0.465772 -0.0355778 0.495889 0.0499442 -0.998567 -0.019224
0.00644824 -0.0904241 0.534618 0.0860416 -0.996265 0.0073215
0.0145221 0.0152457 0.417443 0 -0.976965 -0.213401
0.0862196 -0.0749166 0.539066 -0.129836 0.97505 -0.180054
0.146511 -0.057106 0.532178 0.0110515 -0.804381 -0.594012
0.175395 -0.0631349 0.520916 0 -1 0
-0.0400958 -0.0146038 0.433144 -0.971373 0.237461 0.00678355
0.00805663 0.0308186 0.496165 0.0413722 0.811041 0.583525
0.287994 -0.0600999 0.50624 -0.0865782 0.995185 -0.04594
0.0438723 -0.0621477 0.575601 0.995033 0.0845543 0.0525364
0.0869355 -0.000364057 0.0875742 -0.00938472 0.999916 0.00898067
-0.0418091 -0.0146145 0.472409 -0.970473 0.237241 -0.0435763
0.404139 -0.0388573 0.457505 0.0496728 -0.998647 0.015368
-0.00359632 0.0187072 0.301215 0 -0.999752 -0.02227
-0.0359519 0.010685 0.500128 -0.803375 0.589391 0.0848909
0.031169 0.028786 0.404345 0.995383 0.0716342 -0.0638838
0.118763 -0.0579461 0.394664 0.0138308 -0.990455 0.137139
0.0459711 -0.0774625 0.497065 0.99926 0.0352211 0.0154263
0.0275799 -0.101539 0.424362 0.18283 -0.975389 0.123243
0.348631 -0.0432929 0.514074 0.0448387 -0.982402 -0.181316
-0.00353317 0.0707619 0.0637006 0.999547 -0.0272354 0.0128149
0.00903721 0.0259285 0.532066 0.198937 0.977237 0.0737079
0.116273 -0.0733224 0.526087 -0.133801 0.971762 -0.194359
-0.0121471 -0.0549703 0.427297 0.0209653 0.988719 -0.148306
0.182017 -0.0549844 0.398309 0.0410307 -0.989716 0.137036
-0.201248 -0.0564085 0.382266 0.0410307 0.989716 -0.137036
0.0279823 -0.0580807 0.561697 -0.0428267 -0.979673 -0.195975
-0.0516799 -0.0552942 0.542351 -0.0438983 0.979649 0.195859
0.195031 0.00254375 0.0500561 -0.0124242 0.996679 0.0804775
-0.0420821 -0.0462617 0.593062 -0.996741 0.0557285 0.0583304
0.324193 -0.0570142 0.504865 -0.0865782 0.995185 -0.04594
0.0398002 -0.0206389 0.399414 0.974539 0.214722 -0.0645647
-0.132375 -0.0611038 0.370485 0.0138308 0.990455 -0.137139
0.104479 -0.0523478 0.486803 0.00880222 -0.999843 0.0153845
-0.369064 -0.0474813 0.405384 -0.0897258 -0.989402 -0.114164
0.00417423 0.00926489 0.0585433 0.971309 0.230788 -0.0574104
0.223209 -0.0476066 0.473764 0.0496728 -0.998647 0.015368
0.364262 -0.0499921 0.519559 -0.0980593 0.847565 -0.521553
0.0841562 -0.0691847 0.372434 -0.0699624 0.988123 0.136816
-0.0739521 -0.000321345 0.0692528 -0.00938522 -0.999916 -0.00898459
0.0244815 -0.0602985 0.24013 0.637728 -0.700148 -0.321085
0.0215087 -0.0838886 0.521251 -0.0922108 0.995428 -0.0248858
-0.0357843 -0.025639 0.33163 -0.97359 0.225817 -0.0336148
0.265818 -0.0458788 0.448312 0.0496728 -0.998647 0.015368
0.107005 -0.0759773 0.442202 -0.0841107 0.996338 0.0153325
0.0585639 -0.0693919 0.360843 -0.0699624 0.988123 0.136816
0.109586 -0.0575957 0.539502 -0.180681 -0.768039 -0.614386
-0.0409975 -0.0754187 0.392469 -0.0784929 -0.985885 -0.147882
-0.357267 -0.0414021 0.447861 0.040666 0.992587 -0.114535
0.0384783 -0.0290773 0.624539 0.995033 0.0845543 0.0525364
0.0730453 -0.0573881 0.548611 -0.0369455 -0.982722 -0.181364
0.241093 -0.0637903 0.510474 -0.0891157 0.979461 -0.180869
0.0102035 0.0176005 0.348798 0 -0.999696 -0.0246416
0.0620539 -0.0803152 0.513956 -0.0922108 0.995428 -0.0248858
-0.441194 -0.0394693 0.513789 0.0206168 0.851408 0.524099
-0.076712 -0.0738728 0.549691 -0.241582 -0.780639 0.576403
0.0641592 -0.0531342 0.459918 0.00961664 -0.999815 0.0166665
-0.249642 -0.047323 0.511171 0.0444222 0.982403 0.181412
-0.0294043 0.0451393 0.434381 -0.932283 0.360301 -0.0321048
-0.0430392 -0.0813668 0.441517 -0.0841107 -0.996338 -0.0153325
0.044624 -0.0437029 0.507249 0.99926 0.0352211 0.0154263
-0.138803 -0.0727478 0.512366 -0.0891157 -0.979461 0.180869
-0.270977 -0.0618635 0.46591 -0.0867488 -0.996113 -0.0153109
-0.263883 -0.0456184 0.471492 0.0496728 0.998647 -0.015368
0.413525 -0.0400123 0.512708 0.0472494 -0.98728 -0.151808
-0.0818564 -0.0651871 0.34933 0.0209653 0.988719 -0.148306
-0.00669167 0.0278962 0.509167 -0.198625 0.975707 0.0924292
-0.0781907 -0.0787943 0.514995 -0.0922108 -0.995428 0.0248857
0.0268357 -0.0161828 0.612324 0 -1 0
-0.248081 -0.0636159 0.450194 -0.0867488 -0.996113 -0.0153109
-0.280432 -0.059728 0.434754 -0.0962999 -0.985946 -0.136514
-0.137969 -0.0557045 0.406297 0.0410307 0.989716 -0.137036
-0.00982594 0.0603946 0.443741 -0.151196 0.981156 0.120303
0.0312091 -0.0883779 0.320783 0.530095 -0.798433 -0.285488
-0.0239651 -0.0160616 0.640993 1 0 0
0.107513 -0.0648178 0.352838 -0.0699624 0.988123 0.136816
-0.15563 -0.0511891 0.459391 0.0496728 0.998647 -0.015368
-0.0407455 -0.0714258 0.362746 -0.994362 0.0396861 -0.0983336
-0.106801 -0.0589007 0.388976 0.0138308 0.990455 -0.137139
0.269892 -0.054172 0.385426 -0.0897258 0.989402 0.114164
-0.172477 -0.0613271 0.370149 -0.0962999 -0.985946 -0.136514
-0.419185 -0.046924 0.439947 -0.0897258 -0.989402 -0.114164
0.0366916 -0.0532173 0.470782 0.00961664 -0.999815 0.0166665
-0.0304165 0.00826268 0.566967 -0.78411 0.614813 0.0847126
0.0359219 -0.0619765 0.303082 0.997377 0.0398065 -0.0604464
0.0337264 -0.011292 0.678181 0 1 0
-0.0106248 -0.0579345 0.564759 -0.0428267 0.979673 0.195975
0.187303 -0.0693139 0.490616 -0.0863265 0.996003 -0.0229355
-0.406486 -0.0437638 0.412138 0.0410307 0.989716 -0.137036
-0.0294063 -0.0216841 0.242223 -0.994988 0.0454385 -0.089078
-0.261965 -0.0460212 0.451513 0.0496728 0.998647 -0.015368
-0.0189832 0.026701 0.486841 -0.199459 0.979805 0.0140693
0.0239651 -0.0145756 0.639701 -1 0 0
-0.0016026 0.026345 0.278978 -0.293558 0.954878 -0.0450802
-0.0258837 -0.069133 0.342262 -0.0699624 -0.988123 -0.136816
-0.180672 -0.0661279 0.527689 -0.0887071 -0.979496 0.180885
0.101084 0.00400794 0.115486 -0.0490482 -0.917306 -0.395151
-0.181017 -0.054462 0.402381 0.0410307 0.989716 -0.137036
-0.108818 0.00538465 0.0714659 -0.00938026 0.999916 -0.00898041
-0.0629144 -0.0804092 0.485779 -0.0846256 -0.996274 -0.0166062
-0.0574428 -0.0804066 0.457739 -0.0846256 -0.996274 -0.0166062
-0.023896 0.02238 0.422802 -0.842188 0.539076 -0.0107427
0.189724 -0.0491641 0.487081 0.0497658 -0.998495 -0.0230468
-0.0316485 -0.000829066 0.0815745 -0.00938471 -0.999916 -0.00898067
0.0221102 -0.0430449 0.182216 0.567094 -0.803622 -0.180542
-0.00529446 -0.00654342 0.0212271 -0.986879 0.149599 -0.0607444
0.120494 -0.0751166 0.460266 -0.0841107 0.996338 0.0153325
-0.0401374 -0.0263752 0.385099 -0.975781 0.208943 -0.0647684
0.446213 -0.0389284 0.437717 0.040666 -0.992587 0.114535
-0.220306 -0.0519064 0.409075 0.0410307 0.989716 -0.137036
0.010714 -0.106214 0.372743 0.0898806 -0.987557 -0.129049
0.133874 0.000928799 0.109517 -0.0177518 0.994105 -0.106954
0.0663288 -0.000421433 0.106625 -0.0112068 0.999577 -0.0268428
-0.180116 0.00132157 0.0628896 -0.0124242 -0.996679 -0.0804775
0.100896 -0.0646912 0.551435 -0.166079 -0.793258 -0.585798
0.276996 -0.0595073 0.430736 -0.0962999 0.985946 0.136514
-0.0542826 -0.0643332 0.358921 0.0209653 0.988719 -0.148306
0.00554479 -0.0052467 0.0590578 -0.999547 -0.0272354 0.0128147
-0.0561531 -0.0527397 0.505885 0.00107167 0.999687 0.0249963
0.477841 -0.0394407 0.422048 0.040666 -0.992587 0.114535
-0.36555 -0.0406108 0.496947 0.0499442 0.998567 0.019224
-0.0236531 -0.0829511 0.438122 -0.0841107 -0.996338 -0.0153325
0.0275205 -0.0874629 0.470803 0.114102 -0.992473 -0.0444851
-0.0113482 0.0268101 0.344967 -0.331467 0.942368 -0.0455118
-0.0321661 -0.0112262 0.318826 -0.978868 0.198424 -0.0494505
-0.382607 -0.0404789 0.506668 0.0444222 0.982403 0.181412
0.425985 -0.0435545 0.416089 -0.0897258 0.989402 0.114164
0.0126483 0.025526 0.402537 0 0 1
-0.164872 -0.0597847 0.537563 0 1 0
-0.00175083 0.00573117 0.711221 -0.190525 0.941949 0.276465
-0.0255059 0.0110338 0.327664 -0.871554 0.487808 -0.0493617
-0.136334 -0.0631273 0.539312 -0.0970416 -0.800675 0.591188
-0.0642992 0.00317837 0.121978 -0.0490482 0.917306 0.395151
-0.00666479 0.033105 0.305408 -0.0876313 0.926635 -0.365606
0.015491 -0.0413906 0.151365 0.569115 -0.806486 -0.160276
-0.0300287 0.0396401 0.399707 -0.915068 0.395518 -0.0788375
-0.0327024 -0.00944019 0.336608 -0.978868 0.198424 -0.0494505
-0.140937 0.004751 0.0655306 -0.0124255 0.996676 -0.0805191
0.0519664 -0.0544807 0.426429 0.0138308 -0.990455 0.137139
-0.0310004 0.00387205 0.124501 -0.0490482 0.917306 0.395151
0.43114 -0.0438154 0.517023 -0.0980593 0.847565 -0.521553
-0.0536185 0.00401283 0.0429142 -0.0124271 0.996677 -0.0804967
0.00875775 0.0337798 0.308415 0.444388 0.810134 -0.382363
0.150106 -0.0516257 0.505429 0.0494044 -0.997716 -0.0460576
-0.272905 -0.0532116 0.383899 0.0410307 0.989716 -0.137036
0.157418 0.00263769 0.043086 -0.0124242 0.996679 0.0804775
-0.218233 -0.0597535 0.391061 -0.0962999 -0.985946 -0.136514
-0.194386 0.00461044 0.0746389 -0.0093795 0.999916 -0.00898635
-0.0888927 -0.0782508 0.496434 -0.0921328 -0.995482 0.0229773
-0.0701378 -0.0588681 0.393114 0.0209653 0.988719 -0.148306
-0.168157 -0.0502279 0.486598 0.0497658 0.998495 0.0230468
0.0694799 -0.058295 0.397115 0.0138308 -0.990455 0.137139
0.0424835 -0.0693589 0.38412 0.996449 0.0432276 -0.072254
0.164994 -0.0581756 0.380359 0.0410307 -0.989716 0.137036
-0.0849178 0.001368 0.0476164 -0.0124293 -0.996677 -0.0804965
0.014851 -0.00296122 0.159123 0.965547 0.236907 -0.107681
0.0814441 -0.0529745 0.459527 0.00961664 -0.999815 0.0166665
-0.442128 -0.0470324 0.468645 -0.0863211 -0.996186 -0.0127489
-0.299833 -0.0500813 0.398445 0.0410307 0.989716 -0.137036
-0.0337513 0.0107918 0.462394 -0.827296 0.558428 -0.0611459
-0.0793491 -0.0526472 0.481726 0.00880222 0.999843 -0.0153845
0.113631 -0.0704672 0.396769 -0.0699624 0.988123 0.136816
0.0236954 -0.00772986 0.215392 0.946581 0.30213 -0.112707
0.0110147 -0.0892727 0.468493 0.0465908 -0.997595 -0.0513228
-0.00221254 0.0142832 0.0235455 0.993196 -0.0206908 0.1146
0.0542197 -0.0563977 0.54755 -0.0428267 -0.979673 -0.195975
0.0171709 -0.0768724 0.640884 0.399308 -0.86881 0.292784
0.010124 0.0180029 0.618716 0.276557 0.956902 0.0886296
-0.174467 -0.0506659 0.510859 0.049767 0.998022 0.038418
0.0265336 0.0239114 0.473313 0.954482 0.0639515 0.291333
-0.290585 -0.0468567 0.424502 0.0410307 0.989716 -0.137036
0.193734 -0.0623305 0.392391 -0.0962999 0.985946 0.136514
0.349228 -0.0420441 0.445151 0.040666 -0.992587 0.114535
-0.378183 -0.0397568 0.486223 0.0494872 0.998693 -0.0128165
-0.00580082 -0.0904818 0.545404 -0.0860269 -0.996096 0.019811
-0.244263 -0.0553832 0.376792 0.0410307 0.989716 -0.137036
0.230885 -0.0650241 0.444203 -0.0863211 0.996186 0.0127489
0.150164 -0.0517234 0.44234 0.0496728 -0.998647 0.015368
0.0226212 -0.0697787 0.57711 -0.245764 0.756968 -0.605475
0.0187738 0.0164324 0.398506 -1.72916e-05 -0.999729 -0.0232961
-0.020699 0.0242867 0.517169 -0.198625 0.975707 0.0924292
-0.250337 -0.0461051 0.48519 0.0494872 0.998693 -0.0128165
-0.198931 -0.0675942 0.510585 -0.0890181 -0.984422 0.151622
0.0975955 -0.0767517 0.518855 -0.097841 0.99396 -0.0497103
-0.0175806 -0.046469 0.184367 -0.287642 -0.94161 -0.175021
0.00262874 0.0298431 0.345243 0.33161 0.942772 -0.034871
0.307903 -0.058464 0.453084 -0.0863211 0.996186 0.0127489
-0.157602 -0.0712843 0.436453 -0.0867488 -0.996113 -0.0153109
-0.0463719 0.00502188 0.0542891 -0.0124271 0.996677 -0.0804967
-0.0576943 -0.0533311 0.451839 0.00961664 0.999815 -0.0166665
-0.0176149 0.0107564 0.453755 0 -0.999439 -0.0334876
-0.00311544 0.00945034 0.0477946 -0.970843 0.230678 -0.0652019
0.0450998 -0.0533094 0.460409 0.00961664 -0.999815 0.0166665
0.274361 -0.0561232 0.404436 -0.0962999 0.985946 0.136514
-0.045131 -0.0585498 0.487893 -0.999189 0.0352186 -0.0195424
0.111681 0.00410599 0.0530313 -0.0124271 -0.996677 0.0804967
-0.0674889 -0.0574426 0.550038 -0.0369455 0.982722 0.181364
-0.011521 -0.0048709 0.124998 -0.96963 0.237909 -0.0567123
-0.00682888 0.0117017 0.47073 0 -0.989253 0.146216
0.015599 0.0105003 0.461399 0 -0.999439 -0.0334876
0.0404765 -0.0676098 0.362009 0.994286 0.0419193 -0.0981732
-0.0512282 -0.0589012 0.395566 0.0209653 0.988719 -0.148306
-0.460071 -0.038072 0.440219 0.040666 0.992587 -0.114535
0.401617 -0.0386915 0.490949 0.0499442 -0.998567 -0.019224
-0.292203 -0.044534 0.450424 0.0496728 0.998647 -0.015368
0.11595 -0.0617155 0.367724 0.0138308 -0.990455 0.137139
-0.438057 -0.0383397 0.445715 0.040666 0.992587 -0.114535
-0.00227297 0.103752 0.0640744 0.985322 -0.0785632 -0.15155
0.0066246 0.00802046 0.100087 0.972913 0.23117 -0.00115971
-0.0814907 -0.056302 0.541112 -0.0428267 0.979673 0.195975
-0.0213341 -0.0895378 0.51185 -0.156826 -0.987429 0.0197389
0.294442 -0.0440734 0.473203 0.0494872 -0.998693 0.0128165
-0.0435096 -0.0277941 0.549016 -0.998292 0.0558152 0.017274
-0.458064 -0.0457805 0.478725 -0.0863211 -0.996186 -0.0127489
0.105083 0.0051826 0.0653402 -0.0124255 -0.996676 0.0805191
0.138326 -0.073217 0.452983 -0.0867488 0.996113 0.0153109
0.0380947 -0.0171887 0.385146 0.974539 0.214722 -0.0645647
-0.0293966 -0.0509556 0.680598 -0.869225 -0.407898 0.279404
0.173188 -0.0528708 0.416218 0.0410307 -0.989716 0.137036
-0.296138 -0.0460066 0.515796 0.0448387 0.982402 0.181316
-0.0303128 0.0269647 0.389355 -0.995203 0.0741556 -0.0638169
-6.84299e-05 0.061382 0.406967 -0.138498 0.982578 -0.123927
0.20448 -0.0505207 0.423822 0.0410307 -0.989716 0.137036
0.157853 -0.0508523 0.47409 0.0496728 -0.998647 0.015368
-0.165752 -0.0707826 0.449995 -0.0867488 -0.996113 -0.0153109
0.240193 -0.0605961 0.412638 -0.0962999 0.985946 0.136514
-0.0968125 -0.0734205 0.408773 -0.0784929 -0.985885 -0.147882
-0.409456 -0.0501055 0.487496 -0.0864688 -0.996072 0.0190693
0.0932625 -0.00021225 0.0772836 -0.00938472 0.999916 0.00898067
-0.00589825 0.00794847 0.0839166 -0.970843 0.230678 -0.0652019
0.0252418 -0.0299048 0.191284 0.983993 0.117574 -0.133918
-0.0438717 -0.0626048 0.578094 -0.996741 0.0557285 0.0583304
0.0419992 -0.0804555 0.42658 -0.0784929 0.985885 0.147882
-0.450052 -0.0465276 0.490303 -0.0864688 -0.996072 0.0190693
-0.0376259 -0.0272651 0.63674 -0.992303 0.0843223 0.0906918
0.0844403 0.00573908 0.0993865 -0.0102884 -0.999857 -0.0134267
0.15927 -0.0663441 0.397067 -0.0962999 0.985946 0.136514
-0.413319 -0.0381339 0.477018 0.0494872 0.998693 -0.0128165
-0.0665816 -0.0777244 0.42142 -0.0784929 -0.985885 -0.147882
0.0378479 -0.0578016 0.33761 0.997377 0.0398065 -0.0604464
-0.0163479 -0.0331407 0.711715 -0.801205 -0.526438 0.284488
-0.296267 -0.0580268 0.433637 -0.0962999 -0.985946 -0.136514
0.302293 -0.0569132 0.517943 -0.0887071 0.979496 -0.180885
-0.198016 0.00352045 0.104585 -0.0490799 0.917207 0.395375
0.223823 -0.0485377 0.433401 0.040666 -0.992587 0.114535
0.02269 -0.0637252 0.36744 0.0209653 -0.988719 0.148306
-0.101929 -0.068313 0.375226 -0.0699624 -0.988123 -0.136816
-0.0181824 -0.00779316 0.173148 -0.945972 0.307919 -0.1016
0.0337949 -0.0401001 0.28412 0.996951 0.0455282 -0.0633643
-0.0398796 -0.0161828 0.617039 0 -1 0
0.00771398 -0.000227366 0.11971 -0.0177518 0.994105 -0.106954
-0.0259384 -0.0802892 0.553442 -0.133801 -0.971762 0.194359
0.0459004 -0.0756453 0.511746 0.998424 0.0558226 -0.00585269
-0.177708 -0.0678651 0.421058 -0.0962999 -0.985946 -0.136514
0.439349 -0.0368053 0.491002 0.0499442 -0.998567 -0.019224
0.314221 -0.0433153 0.458446 0.0496728 -0.998647 0.015368
-0.107754 -0.074813 0.524322 -0.131306 -0.97486 0.180019
0.0250713 0.00245672 0.254255 0.946581 0.30213 -0.112707
-0.244661 -0.0643782 0.480413 -0.0867488 -0.996113 -0.0153109
0.00396008 0.0560084 0.0691038 -0.9992 -0.0350683 -0.0192155
0.444997 -0.0367497 0.462561 0.0494872 -0.998693 0.0128165
0.0434988 -0.0639516 0.401357 0.996449 0.0432276 -0.072254
-0.033434 -0.0458051 0.274908 -0.994988 0.0454385 -0.089078
0.135943 -0.0675839 0.389566 -0.0962999 0.985946 0.136514
-0.134152 0.00493688 0.104877 -0.0177521 0.994103 0.106974
-0.0235091 0.02381 0.33797 -0.977852 0.087912 -0.189941
0.0106897 0.0219733 0.265783 0.291331 0.947629 -0.130868
0.219103 -0.0666465 0.483179 -0.0867488 0.996113 0.0153109
-0.067135 -0.079779 0.469475 -0.0846256 -0.996274 -0.0166062
-0.413057 -0.049543 0.467984 -0.0863211 -0.996186 -0.0127489
-0.0266485 0.018153 0.533039 -0.783153 0.614062 0.0979737
0.00368241 0.0203801 0.0954871 0.972913 0.23117 -0.00115971
0.162058 0.0045579 0.0663997 -0.0124255 -0.996676 0.0805191
0.0195729 0.0481564 0.363 0.576171 0.793154 -0.197314
0.390234 -0.0404735 0.508933 0.0464315 -0.987311 -0.151857
0.326225 -0.0442818 0.513891 0.0448387 -0.982402 -0.181316
-0.313672 -0.0583275 0.477762 -0.0867488 -0.996113 -0.0153109
0.0192755 -0.0802299 0.558379 -0.132724 0.971898 -0.19442
0.0032372 0.0176527 0.0764087 0.971309 0.230788 -0.0574104
0.102126 0.00293208 0.0370214 -0.0124271 -0.996677 0.0804967
-0.0132272 0.02754 0.437684 -0.27997 0.959784 -0.0207919
-0.0200871 -0.0337864 0.14505 -0.978832 0.159283 -0.128519
-0.114374 -0.0524476 0.474655 0.00880222 0.999843 -0.0153845
0.345826 -0.055352 0.466361 -0.0867488 0.996113 0.0153109
-0.0399416 -0.0402087 0.368013 -0.994638 0.0419341 -0.0945294
0.0647203 0.00585146 0.0773809 -0.00938026 -0.999916 0.00898041
0.0317191 -0.00376561 0.621919 0.958863 0.272281 0.080281
0.00104418 0.0192763 0.0585765 0.637845 0.727475 -0.252853
0.061784 -0.0797316 0.438088 -0.0841107 0.996338 0.0153325
-0.285338 -0.0606367 0.498444 -0.0863265 -0.996003 0.0229355
0.00186501 -0.042147 0.134842 0.0936746 -0.985131 -0.144021
0.429555 -0.0481755 0.472842 -0.0863211 0.996186 0.0127489
0.125152 0.000108432 0.0749049 -0.00938522 0.999916 0.00898459
-0.00194899 0.0886254 0.0346838 0.993196 -0.020691 0.114599
0.0142318 -0.0601429 0.392518 0.0209653 -0.988719 0.148306
-0.152457 -0.0517171 0.435342 0.0496728 0.998647 -0.015368
0.0188774 -0.00902928 0.176079 0.947363 0.308371 -0.0860838
0.0375456 -0.0153734 0.594428 0.943567 0.32517 0.0628141
-0.0975229 -0.0768532 0.447104 -0.0841107 -0.996338 -0.0153325
0.0874873 -0.000118544 0.066419 -0.0124293 0.996677 0.0804965
-0.00953461 -0.00501506 0.732814 -0.523227 0.687426 0.503666
-0.143189 -0.0629099 0.36092 -0.0962999 -0.985946 -0.136514
0.02778 -0.0803867 0.591623 0.275708 -0.950528 0.143115
-0.00167502 0.0021888 0.00454982 -0.975135 0.174319 -0.136841
0.000872965 0.0168173 0.182595 0.552825 0.82753 0.0978653
0.0353925 -0.0470927 0.304233 0.996951 0.0455282 -0.0633643
-0.187456 -0.0584465 0.534755 0.0110515 0.804381 0.594012
0.368056 -0.0465842 0.403275 0.0410307 -0.989716 0.137036
-0.325874 -0.0568645 0.50494 -0.0865782 -0.995185 0.04594
-0.268121 -0.0617017 0.508221 -0.0890181 -0.984422 0.151622
0.354614 -0.0451026 0.418 0.0410307 -0.989716 0.137036
0.026446 -0.0162287 0.696788 0.960872 0.157687 0.227727
-0.166617 -0.0679757 0.524576 -0.0887071 -0.979496 0.180885
-0.204827 -0.0488699 0.451086 0.0496728 0.998647 -0.015368
-0.0384018 -0.083086 0.534267 -0.54246 -0.835028 0.0920089
-0.00323322 0.0171172 0.647016 -0.238629 0.963494 0.121387
0.135246 -0.0718643 0.419989 -0.0962999 0.985946 0.136514
-0.00641181 -0.0880509 0.294657 -0.114972 -0.949761 -0.291093
-0.035007 -0.0390935 0.305324 -0.997139 0.0397969 -0.0642708
-0.0362303 -0.0620209 0.309299 -0.997256 0.0455421 -0.0583688
0.123904 -0.075086 0.476988 -0.0841107 0.996338 0.0153325
-0.0161904 0.00395063 0.0363658 -0.0124271 0.996677 -0.0804967
-0.0248454 -0.0835554 0.522217 -0.0922108 -0.995428 0.0248857
0.0310505 -0.0300837 0.251666 0.996337 0.0455002 -0.0724006
0.0438086 -0.0240167 0.480316 0.998622 0.0480641 -0.0210899
-0.0209856 -0.00665694 0.199285 -0.941362 0.300464 -0.153492
0.030188 -0.0971929 0.346804 0.548587 -0.826286 -0.127685
-0.0343461 -0.07637 0.5957 -0.539376 -0.83028 0.140388
-0.044126 -0.0758476 0.545733 -0.906591 -0.415455 0.0741022
-0.000392388 0.0330899 0.0111664 0.993196 -0.0206908 0.1146
-0.0318168 -0.078402 0.407484 -0.0784929 -0.985885 -0.147882
0.0663698 -0.0536303 0.431118 0.0138308 -0.990455 0.137139
0.198917 -0.0491551 0.504268 0.0494044 -0.997716 -0.0460576
0.0228422 -0.031598 0.16771 0.98277 0.12995 -0.131441
0.0353286 -0.0232417 0.33092 0.979349 0.198522 -0.0382759
-0.0251078 -0.0102034 0.224902 -0.949471 0.303052 -0.0816334
0.0187425 0.0183922 0.501135 0.947807 0.188513 0.257147
-0.0087787 0.011216 0.440008 0 -0.999439 -0.0334951
-0.378761 -0.0486343 0.422997 -0.0897258 -0.989402 -0.114164
-0.12979 -0.0528825 0.43757 0.00880222 0.999843 -0.0153845
0.1352 0.00528904 0.0940048 -0.0102884 -0.999857 -0.0134267
-0.0439032 -0.0257599 0.519694 -0.998292 0.0558152 0.017274
0.0650987 -0.0797952 0.46007 -0.0846256 0.996274 0.0166062
-0.00264959 0.0143037 0.421755 0 -0.976965 -0.213401
0.124253 -0.0525541 0.462085 0.00880222 -0.999843 0.0153845
0.019097 -0.0696249 0.664669 0.577207 -0.793398 0.193267
0.0356947 -0.0820441 0.445148 -0.0846256 0.996274 0.0166062
0.0238631 0.011349 0.286664 0.841058 0.538622 -0.0500777
-0.0326153 -0.0662295 0.274116 -0.935109 -0.305611 -0.179367
-0.194101 -0.0686375 0.471055 -0.0867488 -0.996113 -0.0153109
-0.0597777 -0.000569977 0.0821219 -0.00938471 -0.999916 -0.00898067
-0.115846 -0.0525165 0.500159 0.00182378 0.999732 0.0230754
-0.101806 -0.0651755 0.550723 -0.245764 -0.756968 0.605475
0.426549 -0.0374331 0.480542 0.0494872 -0.998693 0.0128165
-0.00645965 -0.0781261 0.644655 -0.133725 -0.949 0.285512
0.103934 -0.056513 0.40651 0.0138308 -0.990455 0.137139
0.0380471 -0.0301099 0.352579 0.994726 0.0397006 -0.094576
0.319265 -0.055631 0.432557 -0.0962999 0.985946 0.136514
0.0421659 -0.039383 0.397674 0.996449 0.0432276 -0.072254
-0.333346 -0.0496679 0.396262 -0.0897258 -0.989402 -0.114164
-0.226209 -0.0475449 0.468073 0.0496728 0.998647 -0.015368
-0.0839213 -0.0529895 0.4572 0.00961664 0.999815 -0.0166665
0.0278708 -0.0302028 0.214106 0.991642 0.09422 -0.0881435
-0.0815448 -0.0769992 0.5316 -0.131306 -0.97486 0.180019
-0.0987557 -0.0772759 0.480446 -0.0846256 -0.996274 -0.0166062
0.292017 -0.0601864 0.476003 -0.0867488 0.996113 0.0153109
0.0427836 -0.0226362 0.450118 0.972378 0.229479 -0.0426652
-0.0356612 -0.0161828 0.657414 0 -1 0
0.005408 -0.0527098 0.204569 0.0897085 -0.981944 -0.166547
0.00709459 -0.0812614 0.631433 0.138743 -0.984603 0.106339
0.0320959 -0.0703357 0.631918 0.705344 -0.696689 0.130819
0.0744274 -0.0777644 0.425851 -0.0784929 0.985885 0.147882
-0.0659079 -0.0749267 0.402411 -0.0784929 -0.985885 -0.147882
-0.0244048 -0.0835339 0.476991 -0.0846256 -0.996274 -0.0166062
-0.0385255 0.00599821 0.0663593 -0.00938026 0.999916 -0.00898041
0.199823 -0.0677967 0.448769 -0.0867488 0.996113 0.0153109
-0.0132676 0.0108814 0.209775 -0.80755 0.577325 -0.12066
-0.218766 -0.0483978 0.436707 0.0496728 0.998647 -0.015368
-0.00405863 0.0449783 0.335805 -0.106848 0.947112 -0.302592
0.196231 -0.0495306 0.435935 0.0496728 -0.998647 0.015368
0.0389675 -0.00782499 0.545781 0.961329 0.272981 0.0364309
-0.0172948 -0.0532738 0.525578 0.00107167 0.999687 0.0249963
-0.0111217 -0.0702836 0.66908 -0.119408 -0.952473 0.280243
0.142953 0.00470314 0.0652494 -0.0124255 -0.996676 0.0805191
-0.169147 0.00493883 0.0940633 -0.0102935 0.999856 0.0134794
-0.231701 -0.0629063 0.423333 -0.0962999 -0.985946 -0.136514
-0.03187 0.0182833 0.449715 -0.989876 0.0651556 0.126097
-0.0273403 -0.0987484 0.346122 -0.289998 -0.948503 -0.127452
0.108138 -0.0540818 0.423645 0.0138308 -0.990455 0.137139
0.0074229 -0.00095739 0.0705465 -0.00938472 0.999916 0.00898067
-0.0498444 -0.0817511 0.499676 -0.0846256 -0.996274 -0.0166062
0.0335474 -0.0530147 0.484755 0.00961664 -0.999815 0.0166665
0.194836 -0.0683643 0.502776 -0.0865782 0.995185 -0.04594
-0.0267339 0.022027 0.476039 -0.805362 0.59085 -0.0478322
0.0330464 -0.00422083 0.60761 0.958863 0.272281 0.080281
0.0136497 -0.0125618 0.127229 0.965547 0.236907 -0.107681
0.27398 -0.0449921 0.488268 0.0497658 -0.998495 -0.0230468
0.370128 -0.0533917 0.476511 -0.0867488 0.996113 0.0153109
0.0411442 -0.0509693 0.376049 0.99669 0.0420206 -0.0695965
-0.0125144 0.0282699 0.398624 0 0 -1
0.120105 -0.0530023 0.513871 -0.00339988 -0.998931 -0.0461024
0.0704065 -0.053008 0.517862 0.00182378 -0.999732 -0.0230754
0.00445367 -0.0277262 0.740868 0.516958 -0.669202 0.533783
-0.236716 -0.0507857 0.412256 0.0410307 0.989716 -0.137036
-0.0292901 0.00237779 0.620104 -0.78411 0.614813 0.0847126
-0.161573 0.00299911 0.0470287 -0.0124271 0.996677 -0.0804967
8.30904e-05 0.0377264 0.48796 0.119751 0.790978 0.600011
-0.0214269 0.0568577 0.435312 -0.65678 0.743549 0.125602
-0.0753803 -0.0784985 0.432544 -0.0841107 -0.996338 -0.0153325
0.00235372 0.0300637 0.473963 0.280004 0.9599 0.0137835
-0.0204578 0.0494369 0.37182 -0.577631 0.795165 -0.184541
-0.00860729 0.0549407 0.463603 -0.121086 0.799801 0.587926
0.0410043 0.00608993 0.0791608 -0.00938026 -0.999916 0.00898041
0.304827 -0.0483954 0.409126 0.0410307 -0.989716 0.137036
0.378828 -0.0473992 0.412347 -0.0897258 0.989402 0.114164
-0.0344248 -0.048936 0.288662 -0.997256 0.0455421 -0.0583688
-0.0141211 -0.00762937 0.138604 -0.962064 0.236052 -0.136796
0.0916277 -0.077903 0.48174 -0.0846256 0.996274 0.0166062
0.175119 -0.0505353 0.508639 0.0494044 -0.997716 -0.0460576
0.029246 -0.0833023 0.487772 -0.0846256 0.996274 0.0166062
0.0407338 -0.0402151 0.601039 0.996041 0.0556893 0.0692964
0.109838 -0.059944 0.381135 0.0138308 -0.990455 0.137139
-0.0239691 0.0166964 0.351271 -0.870196 0.487047 -0.0744599
-0.0305012 -0.0451376 0.237993 -0.993924 0.0944369 -0.0565366
0.166566 -0.0708944 0.461882 -0.0867488 0.996113 0.0153109
-0.263636 -0.0469784 0.512732 0.0444222 0.982403 0.181412
-0.00357981 -0.00964986 0.11387 0.831079 -0.218487 -0.51144
0.177013 -0.0670346 0.41457 -0.0962999 0.985946 0.136514
0.120901 -0.052352 0.493434 0.00182378 -0.999732 -0.0230754
0.133576 -0.0540397 0.518148 -0.0384978 -0.982643 -0.181467
-0.0209059 0.0247529 0.326674 -0.946603 0.0851026 -0.310968
0.00605164 -0.00747625 0.0335693 0.981513 0.182565 -0.0574581
-0.0089086 -0.0315025 0.0782548 -0.653541 -0.740755 -0.155451
-0.0255776 0.0479061 0.389513 -0.915068 0.395518 -0.0788375
-0.00375671 -0.0865339 0.588867 -0.08555 -0.990573 0.106984
0.131502 0.00405709 0.0554855 -0.0124255 -0.996676 0.0805191
0.332136 -0.0425244 0.451934 0.0496728 -0.998647 0.015368
0.0199858 -0.00130936 0.203499 0.938265 0.309666 -0.154162
-0.196053 -0.0621968 0.393061 -0.0962999 -0.985946 -0.136514
-0.436975 -0.0427923 0.418121 -0.0897258 -0.989402 -0.114164
-0.160315 -0.0717242 0.480445 -0.0867488 -0.996113 -0.0153109
-0.0290953 -0.0426104 0.217498 -0.993924 0.0944369 -0.0565366
0.0245871 -0.00175404 0.67905 0.861226 0.462177 0.21138
0.187626 -0.0533438 0.527849 0.0110515 -0.804381 -0.594012
-0.448563 -0.0365729 0.46257 0.0494872 0.998693 -0.0128165
-0.0139219 0.00582591 0.690008 -0.615704 0.760219 0.207308
-0.167449 -0.0567998 0.389559 0.0410307 0.989716 -0.137036
-0.0324097 -0.020776 0.276234 -0.994988 0.0454385 -0.089078
-0.0417278 -0.0537547 0.43564 0.00961664 0.999815 -0.0166665
-0.403967 -0.0390845 0.504346 0.0444222 0.982403 0.181412
0.00246601 -0.103148 0.343514 0.0871341 -0.987967 -0.127781
0.148539 -0.0545833 0.41123 0.0410307 -0.989716 0.137036
-0.00158877 0.104971 0.034513 0.993196 -0.020691 0.114599
-0.0100855 -0.0642681 0.577105 -0.180681 0.768039 0.614386
-0.0262129 -0.103849 0.401988 -0.261787 -0.960033 0.0990118
0.0227654 -0.0529251 0.496351 0.00961664 -0.999815 0.0166665
-0.0381747 0.000110282 0.470056 -0.972196 0.229436 -0.0468425
0.238333 -0.0467507 0.481235 0.0494872 -0.998693 0.0128165
0.336103 -0.041982 0.475308 0.0494872 -0.998693 0.0128165
0.13474 -0.0523936 0.448639 0.0496728 -0.998647 0.015368
0.190718 -0.0494032 0.462032 0.0496728 -0.998647 0.015368
-0.147111 -0.0679311 0.399951 -0.0962999 -0.985946 -0.136514
-0.27002 -0.0594951 0.425726 -0.0962999 -0.985946 -0.136514
-0.416894 -0.0487376 0.505046 -0.0890181 -0.984422 0.151622
0.177406 -0.0502278 0.451473 0.0496728 -0.998647 0.015368
-0.0076803 0.0527867 0.364032 -0.121494 0.970462 -0.20843
0.0938276 -0.0527224 0.507342 0.00182378 -0.999732 -0.0230754
-0.428246 -0.037609 0.500412 0.049767 0.998022 0.038418
0.386548 -0.0517216 0.502003 -0.0865782 0.995185 -0.04594
-0.0106704 -0.104857 0.362204 -0.0898943 -0.98771 -0.127856
-0.00429402 0.0226268 0.25332 -0.291933 0.94959 -0.114252
-0.0141916 0.0473067 0.347963 -0.561504 0.772964 -0.295365
-0.00989282 -0.00463718 0.10212 -0.977657 0.181852 -0.105431
-0.0162591 -0.0901481 0.490259 -0.0471518 -0.997567 -0.0513528
-0.0143977 -0.0840033 0.454159 -0.0846256 -0.996274 -0.0166062
0.0213383 0.00569289 0.656109 0.639055 0.768099 0.0404048
-0.0212464 -0.0635611 0.241794 -0.350257 -0.861259 -0.368174
-0.342334 -0.0556796 0.467888 -0.0867488 -0.996113 -0.0153109
0.26288 -0.0506747 0.405223 0.0410307 -0.989716 0.137036
-0.00574262 -0.00385734 0.0774475 0.999547 -0.0272355 0.0128147
0.029487 -0.0646789 0.259267 0.535497 -0.778654 -0.327017
0.293349 -0.0585802 0.435576 -0.0962999 0.985946 0.136514
0.0348689 -0.0259968 0.657319 0.988605 0.084008 0.124914
0.0413212 -0.0762908 0.398455 -0.0784929 0.985885 0.147882
-0.393886 -0.0514742 0.486604 -0.0864688 -0.996072 0.0190693
-0.408109 -0.049133 0.448299 -0.0962999 -0.985946 -0.136514
-0.0872763 -0.0533627 0.432876 0.00961664 0.999815 -0.0166665
0.0187567 -0.0821971 0.425854 -0.0784929 0.985885 0.147882
-0.0115912 0.0211449 0.576442 -0.24263 0.966188 0.0872473
0.0121839 0.00625348 0.693505 0.62576 0.752119 0.206741
-0.139425 -0.0727601 0.429424 -0.0863211 -0.996186 -0.0127489
0.457272 -0.0377744 0.443791 0.040666 -0.992587 0.114535
-0.0364235 -0.023783 0.347438 -0.976082 0.197859 -0.0900882
0.0223826 -0.08396 0.294069 0.358944 -0.882619 -0.303549
0.0151111 -0.0913413 0.308628 0.271801 -0.9168 -0.292579
-0.0387315 -0.0526878 0.502327 0.00880222 0.999843 -0.0153845
-0.032148 -0.0763794 0.292797 -0.526568 -0.793121 -0.30608
0.0325196 0.0165437 0.445154 0.993368 0.0653854 0.0945735
-0.0387707 0.00109929 0.0438179 -0.0124293 -0.996677 -0.0804965
0.417825 -0.0492831 0.479452 -0.0867488 0.996113 0.0153109
-0.0427229 -0.0960306 0.424473 -0.481265 -0.876476 -0.0132139
0.0414163 -0.00908877 0.500751 0.971733 0.229327 0.0560706
0.0145182 0.0169395 0.376758 -2.15798e-05 -0.999728 -0.0233153
0.0455946 -0.0660282 0.551317 0.998424 0.0558226 -0.00585269
0.180589 -0.0646153 0.530033 -0.0970416 0.800675 -0.591188
0.00569863 -0.00568454 0.091289 -0.9992 -0.0350685 -0.0192164
-0.185635 -0.0495626 0.468105 0.0496728 0.998647 -0.015368
0.295104 -0.0442453 0.459803 0.0496728 -0.998647 0.015368
-0.0373782 -0.00643089 0.566195 -0.959964 0.272594 0.0645109
-0.0240412 -0.00538121 0.689532 -0.855924 0.471851 0.211545
-0.184407 -0.0696002 0.489086 -0.0863265 -0.996003 0.0229355
0.267059 -0.0456039 0.462171 0.0496728 -0.998647 0.015368
0.0167487 -0.0620419 0.379502 0.0209653 -0.988719 0.148306
0.112194 -0.0530423 0.437719 0.00961664 -0.999815 0.0166665
-0.0628752 -0.0634413 0.363652 0.0209653 0.988719 -0.148306
0.474609 -0.0350033 0.48431 0.0494872 -0.998693 0.0128165
0.351838 -0.0410997 0.483304 0.0494872 -0.998693 0.0128165
0.0220153 0.0188223 0.342706 0.871142 0.487577 -0.0581393
0.152747 0.000390326 0.0723582 -0.00938522 0.999916 0.00898459
-0.128191 -0.0746822 0.474266 -0.0841107 -0.996338 -0.0153325
0.00226725 -0.088305 0.572514 0.138743 -0.984603 0.106339
0.0113492 0.0185263 0.309337 0 -0.999752 -0.02227
0.0484339 -0.0812377 0.461687 -0.0846256 0.996274 0.0166062
0.0277091 0.0482521 0.416182 0.922367 0.385051 -0.0312346
0.0644203 0.00328026 0.0355113 -0.0124271 -0.996677 0.0804967
0.206293 -0.0581404 0.369834 -0.0897258 0.989402 0.114164
-0.0150622 -0.0297707 0.110424 -0.983672 0.131305 -0.123075
-0.322598 -0.0427634 0.497165 0.0499442 0.998567 0.019224
-0.00814923 -0.0236389 0.741128 -0.741793 -0.428656 0.515749
-0.308258 -0.0474656 0.414813 0.0410307 0.989716 -0.137036
-0.03136 -0.0111216 0.301013 -0.97359 0.225817 -0.0336148
-0.0135456 0.0273647 0.37519 -0.315747 0.948195 -0.0350716
0.0763344 -0.0788191 0.519143 -0.097217 0.994204 -0.0458955
-0.322657 -0.0550799 0.43097 -0.0962999 -0.985946 -0.136514
0.421797 -0.0386473 0.448822 0.040666 -0.992587 0.114535
-0.0445726 -0.0444733 0.484707 -0.999189 0.0352186 -0.0195424
-0.0247267 0.0236008 0.461685 -0.805362 0.59085 -0.0478322
0.347529 -0.0520965 0.426968 -0.0962999 0.985946 0.136514
-0.00291864 7.311e-05 0.0509879 -0.0124293 -0.996677 -0.0804965
0.152591 -0.059703 0.37304 0.0410307 -0.989716 0.137036
-0.21585 -0.0574177 0.371081 -0.0897258 -0.989402 -0.114164
-0.0138258 0.00977287 0.67582 -0.615704 0.760219 0.207308
0.0102965 -0.0786733 0.268782 0.110266 -0.910882 -0.397663
0.278174 -0.0590075 0.518431 -0.0887071 0.979496 -0.180885
0.029868 -0.0756136 0.615822 0.705344 -0.696689 0.130819
-0.00669378 -0.0667935 0.24017 -0.110459 -0.912476 -0.393937
0.035189 -0.00888656 0.36934 0.973892 0.208539 -0.089696
0.00418885 0.0406554 0.0508512 -0.999547 -0.0272354 0.0128149
0.254476 -0.0617925 0.431354 -0.0962999 0.985946 0.136514
0.322971 -0.0571438 0.451942 -0.0863211 0.996186 0.0127489
-0.23047 -0.0612434 0.410454 -0.0962999 -0.985946 -0.136514
-0.311753 -0.0447813 0.512944 0.0464315 0.987311 0.151857
0.454984 -0.0460606 0.492334 -0.0864688 0.996072 -0.0190693
-0.357492 -0.0534046 0.443443 -0.0962999 -0.985946 -0.136514
0.186108 -0.0676804 0.42565 -0.0962999 0.985946 0.136514
0.0293936 0.0452256 0.434925 0.932651 0.360443 -0.0155736
0.0375854 -0.00922034 0.405243 0.975766 0.214992 -0.0407375
-0.299332 -0.0437172 0.482082 0.0494872 0.998693 -0.0128165
0.00410548 0.0180626 0.330052 0 -0.999696 -0.0246416
-0.0288853 -0.0624544 0.375037 0.0209653 0.988719 -0.148306
-0.284275 -0.0495101 0.407228 0.0410307 0.989716 -0.137036
-0.389717 -0.0499802 0.512465 -0.0882051 -0.984535 0.151366
0.324695 -0.0515585 0.405849 -0.0897258 0.989402 0.114164
-0.239322 -0.0576613 0.390828 -0.0962999 -0.985946 -0.136514
-0.283374 -0.0445592 0.489794 0.0497658 0.998495 0.0230468
-0.012249 -0.075486 0.377659 -0.0784929 -0.985885 -0.147882
-0.0739107 -0.0703354 0.375505 -0.0699624 -0.988123 -0.136816
0.0144117 -0.0903364 0.509027 0.0472049 -0.998689 0.0198078
-0.342834 -0.0428375 0.440545 0.040666 0.992587 -0.114535
0.00362577 -0.0374188 0.101392 0.115487 -0.984364 -0.133008
0.0010094 -0.0893234 0.460328 0.0471516 -0.99756 -0.0514791
-0.0438502 -0.0521627 0.416345 -0.997524 0.0455327 -0.0535974
-0.0286145 -0.0137759 0.252426 -0.949471 0.303052 -0.0816334
0.0484141 2.24353e-05 0.0586402 -0.0124293 0.996677 0.0804965
0.240002 -0.0582517 0.395571 -0.0962999 0.985946 0.136514
0.156986 -0.064288 0.534351 -0.0970416 0.800675 -0.591188
-0.246833 -0.0562197 0.53053 -0.0970416 -0.800675 0.591188
-0.26523 -0.0625996 0.481243 -0.0867488 -0.996113 -0.0153109
0.00426949 0.0176023 0.215362 0.382053 0.917523 -0.110393
0.0114253 0.016449 0.631432 0.276557 0.956902 0.0886296
-0.0439051 -0.0196865 0.49996 -0.998292 0.0558152 0.017274
0.0139152 0.00170548 0.0324744 -0.0124293 0.996677 0.0804965
0.358549 -0.0433053 0.430912 0.040666 -0.992587 0.114535
0.0407262 -0.0802867 0.543275 -0.133801 0.971762 -0.194359
0.228455 -0.0613726 0.526568 -0.0970416 0.800675 -0.591188
-0.388812 -0.0506782 0.445846 -0.0962999 -0.985946 -0.136514
0.295534 -0.0454527 0.434675 0.040666 -0.992587 0.114535
0.0355147 -0.00461009 0.57945 0.958863 0.272281 0.080281
0.0140471 0.0206473 0.577324 0.242783 0.966797 0.0797504
-0.213325 -0.0666435 0.450245 -0.0867488 -0.996113 -0.0153109
0.318735 -0.0431118 0.50188 0.0494044 -0.997716 -0.0460576
-0.420686 -0.0452603 0.426708 -0.0897258 -0.989402 -0.114164
0.0452539 -0.0628953 0.510265 0.99926 0.0352211 0.0154263
0.0604313 -0.0707392 0.371529 -0.0699624 0.988123 0.136816
-0.0853018 -0.000270361 0.104329 -0.0112068 -0.999577 0.0268428
-0.207801 -0.0488886 0.508024 0.0494044 0.997716 0.0460576
0.019456 -0.0161828 0.683831 0 -1 0
0.00677069 0.0435341 0.478969 0.119751 0.790978 0.600011
-0.022899 0.0236799 0.40987 -0.842188 0.539076 -0.0107427
-0.00314987 0.0825165 0.0587856 0.999547 -0.0272354 0.0128149
-0.0228909 0.0050562 0.661927 -0.759114 0.647632 0.0657128
0.171418 0.00149783 0.0593639 -0.0124242 0.996679 0.0804775
0.256086 -0.0625158 0.509988 -0.0891157 0.979461 -0.180869
0.128716 -0.0739966 0.512653 -0.097217 0.994204 -0.0458955
0.0304392 0.0142636 0.523852 0.783979 0.61471 0.0866533
0.399207 -0.0412096 0.434638 0.040666 -0.992587 0.114535
0.441101 -0.0376332 0.50602 0.0464315 -0.987311 -0.151857
-0.00237743 0.0252482 0.556623 -0.24263 0.966188 0.0872473
0.0345566 -0.053653 0.445878 0.00961664 -0.999815 0.0166665
0.0392587 -0.0880054 0.349644 0.905898 -0.406193 -0.119818
-0.0545526 -0.0683242 0.565967 -0.245764 -0.756968 0.605475
-0.114541 0.00193547 0.0451633 -0.0124242 -0.996679 -0.0804775
0.340399 -0.0499827 0.404533 -0.0897258 0.989402 0.114164
0.0386614 -0.0759825 0.33906 0.997377 0.0398065 -0.0604464
0.00940974 -0.0303807 0.075475 0.653173 -0.74032 -0.159033
0.220324 -0.0545381 0.390063 0.0410307 -0.989716 0.137036
-0.196245 -0.0499951 0.430563 0.040666 0.992587 -0.114535
-0.401512 -0.0387775 0.472452 0.0494872 0.998693 -0.0128165
-0.105835 -0.076298 0.456623 -0.0841107 -0.996338 -0.0153325
-0.109396 -0.0655309 0.358951 -0.0699624 -0.988123 -0.136816
0.00204093 -0.00114293 0.104836 -0.0102958 0.999856 -0.0135143
0.065055 -0.0622459 0.558411 -0.180681 -0.768039 -0.614386
0.0296759 -0.00208994 0.301853 0.973011 0.225683 -0.0481282
0.0265116 -0.0840533 0.569714 0.275708 -0.950528 0.143115
-0.0435736 -0.0258912 0.467119 -0.999189 0.0352186 -0.0195424
-0.233453 -0.0473801 0.455369 0.0496728 0.998647 -0.015368
-0.126741 -0.056985 0.400801 0.0138308 0.990455 -0.137139
0.210545 -0.0514787 0.524278 0.0448387 -0.982402 -0.181316
0.35625 -0.0544409 0.499875 -0.0865689 0.995509 -0.0383218
0.148189 0.00512688 0.0838852 -0.00937951 -0.999916 0.00898635
0.101983 -0.0527797 0.460165 0.00880222 -0.999843 0.0153845
0.343587 -0.0419171 0.50266 0.049767 -0.998022 -0.038418
0.0438089 -0.0760626 0.560516 -0.241582 0.780639 -0.576403
-0.118985 -0.0662155 0.3688 -0.0699624 -0.988123 -0.136816
-0.178214 -0.0504564 0.43401 0.0496728 0.998647 -0.015368
0.245333 -0.0466729 0.499504 0.0499442 -0.998567 -0.019224
0.0334972 -0.070891 0.2866 0.934945 -0.305557 -0.180315
0.0473132 -0.0563309 0.413535 0.0138308 -0.990455 0.137139
0.194603 0.00452747 0.0986489 -0.0177763 -0.994079 -0.107194
-0.0387728 -0.0306178 0.624744 -0.994044 0.0844703 0.0688571
-0.476345 -0.0440224 0.465127 -0.0863211 -0.996186 -0.0127489
0.0355399 -0.0861264 0.433327 0.0896107 -0.417353 0.904316
-0.0419175 -0.0253127 0.572839 -0.994044 0.0844703 0.0688571
-0.0371513 -0.0497118 0.332017 -0.997139 0.0397969 -0.0642708
0.0365523 0.00946939 0.502554 0.783979 0.61471 0.0866533
0.0022407 0.0534409 0.0890933 -0.831054 -0.218501 -0.511475
0.0295308 -0.000350251 0.114952 -0.0177667 0.994085 -0.107144
0.0166403 -0.106258 0.391665 0.0906295 -0.995785 -0.0140685
0.0326785 -0.0484175 0.262549 0.996337 0.0455002 -0.0724006
-0.376624 -0.0526258 0.462188 -0.0863211 -0.996186 -0.0127489
-0.0871831 -0.0702713 0.381829 -0.0699624 -0.988123 -0.136816
0.0436932 -0.0398086 0.558175 0.996041 0.0556893 0.0692964
0.0289169 0.0332199 0.463462 0.954482 0.0639515 0.291333
-0.0211078 -0.0385976 0.160689 -0.909186 -0.383578 -0.162015
0.105811 -0.0765359 0.502896 -0.0921328 0.995482 -0.0229773
-0.372145 -0.0408392 0.447456 0.040666 0.992587 -0.114535
0.171393 -0.0530728 0.523233 0.0448387 -0.982402 -0.181316
-0.0344365 -0.0691797 0.627303 -0.702266 -0.693649 0.160228
0.380958 -0.0508999 0.441908 -0.0962999 0.985946 0.136514
0.119843 -0.0714983 0.407392 -0.0699624 0.988123 0.136816
-0.0452924 -0.0558716 0.530912 -0.999377 0.0352252 -0.00234004
-0.00331038 0.0310601 0.0950123 0.985316 -0.0785767 -0.151587
-0.086926 -0.000274474 0.0775902 -0.00938471 -0.999916 -0.00898067
-0.0112056 -0.0773918 0.38981 -0.0784929 -0.985885 -0.147882
-0.0256688 -0.037676 0.187428 -0.987841 0.13062 -0.0843105
0.0217585 0.0251445 0.416139 0.293954 0.955722 0.0136576
0.001053 -0.0542804 0.703642 0.0312928 -0.436697 0.899064
0.177047 -0.0697241 0.445124 -0.0867488 0.996113 0.0153109
0.237915 -0.0473351 0.443869 0.0496728 -0.998647 0.015368
-0.0254042 0.0516388 0.404844 -0.919536 0.383869 -0.0842575
0.0156401 0.0229009 0.295779 0.33146 0.942347 -0.0460123
-0.38353 -0.039634 0.475146 0.0494872 0.998693 -0.0128165
0.029093 -0.0294604 0.22865 0.991642 0.09422 -0.0881435
0.0369503 -0.0976721 0.381164 0.563536 -0.823069 -0.0705981
-0.144789 -0.0514827 0.490504 0.0497658 0.998495 0.0230468
0.0255204 -0.0532209 0.225489 0.535497 -0.778654 -0.327017
0.406795 -0.0387431 0.502087 0.049767 -0.998022 -0.038418
0.0353645 -0.0420321 0.65812 0.985674 -0.0797327 0.148625
0.159198 -0.0533156 0.417194 0.0410307 -0.989716 0.137036
0.0279752 0.00774439 0.337597 0.872148 0.48814 -0.0328251
0.0293624 -0.0587908 0.668153 0.894016 -0.419532 0.157249
-0.0578985 -0.0732419 0.386927 -0.0784929 -0.985885 -0.147882
0.049133 -0.0807355 0.433927 -0.0841107 0.996338 0.0153325
0.0451539 -0.0892229 0.416922 0.898728 -0.437969 -0.0216988
-0.0111227 -0.0155882 0.0943849 -0.98173 0.182609 -0.0534751
0.0244698 -0.0507395 0.696027 0.879299 -0.389219 0.274486
-0.0383011 -0.0582034 0.560106 -0.0369455 0.982722 0.181364
-0.254244 -0.0575732 0.400717 -0.0962999 -0.985946 -0.136514
0.209229 -0.0673959 0.475992 -0.0867488 0.996113 0.0153109
-0.0178079 -0.0539271 0.439099 0.00961664 0.999815 -0.0166665
0.025289 0.00869881 0.606575 0.758042 0.646717 0.0844407
-0.12511 -0.0741591 0.428717 -0.0784929 -0.985885 -0.147882
0.221818 -0.0489765 0.513312 0.0444222 -0.982403 -0.181412
-0.0276038 -0.0161828 0.612392 0 -1 0
-0.0294017 0.0186809 0.506601 -0.803375 0.589391 0.0848909
0.191281 -0.0649714 0.527739 -0.0980593 0.847565 -0.521553
0.00387922 -0.00383519 0.0139247 0.976093 0.147964 -0.159215
0.0364362 0.000191283 0.430616 0.974125 0.225826 0.00910483
0.015786 -0.0535674 0.461843 0.00961664 -0.999815 0.0166665
0.379724 -0.0526013 0.491946 -0.0864688 0.996072 -0.0190693
-0.360489 -0.0485412 0.522273 -0.0970416 -0.800675 0.591188
0.0147772 -0.0669205 0.347256 0.0209653 -0.988719 0.148306
-0.161901 -0.0713455 0.498006 -0.0863265 -0.996003 0.0229355
-0.243099 -0.0485012 0.426873 0.040666 0.992587 -0.114535
0.0414455 -0.0727317 0.374793 -0.0784929 0.985885 0.147882
-0.465649 -0.0450216 0.497433 -0.0865689 -0.995509 0.0383218
-0.0412787 -0.0739611 0.574691 -0.901747 -0.413235 0.126843
-0.0430965 -0.0893479 0.385924 -0.895119 -0.43621 -0.0921042
-0.00198678 0.0063497 0.0673303 -0.00938026 0.999916 -0.00898041
-0.0215182 -0.0979199 0.335523 -0.27039 -0.91204 -0.308337
-0.010264 -0.0260995 0.0645964 -0.940723 -0.317322 -0.119775
-0.172177 -0.0701291 0.507246 -0.0865782 -0.995185 0.04594
-0.128569 -0.0708072 0.530781 -0.129836 -0.97505 0.180054
-0.00320053 -0.0355831 0.728024 -0.210144 -0.927593 0.308886
0.0454103 -0.0712644 0.455578 0.999345 0.0352241 -0.00834457
-0.175456 -0.0648415 0.397632 -0.0962999 -0.985946 -0.136514
-0.00989043 -0.0596494 0.224518 -0.110459 -0.912476 -0.393937
-0.160803 -0.0687984 0.415874 -0.0962999 -0.985946 -0.136514
0.0624702 -0.0761437 0.549318 -0.132724 0.971898 -0.19442
-0.0157279 -0.0851337 0.589214 -0.138567 -0.98336 0.117486
0.174328 -0.060034 0.364141 0.0410307 -0.989716 0.137036
0.239178 -0.057318 0.530299 -0.0970416 0.800675 -0.591188
0.40654 -0.0447483 0.411153 -0.0897258 0.989402 0.114164
0.044366 -0.0342911 0.486592 0.999345 0.0352241 -0.00834457
0.0454793 -0.0779167 0.411501 -0.0784929 0.985885 0.147882
0.0104518 -0.0797909 0.566597 -0.132724 0.971898 -0.19442
0.0134611 0.044579 0.33928 0.522529 0.798393 -0.299218
0.241521 -0.0469741 0.45567 0.0496728 -0.998647 0.015368
-0.178027 -0.061321 0.515175 -1 0 0
0.0147717 0.0064256 0.0891353 -0.00938026 -0.999916 0.00898041
0.0368921 -0.0496231 0.327224 0.997377 0.0398065 -0.0604464
-0.0441716 -0.0479358 0.456211 -0.998808 0.0480731 -0.00845345
-0.00278867 -0.0437245 0.146271 -0.093678 -0.985168 -0.143765
0.141812 -0.0589788 0.381498 0.0410307 -0.989716 0.137036
-0.331384 -0.0421477 0.48899 0.0497658 0.998495 0.0230468
0.124033 -0.0523642 0.474551 0.00880222 -0.999843 0.0153845
