0.0223987 0.0158519 0.871555 -0.222293 0.187927 -0.956697
-0.0366902 0.038615 0.532277 -0.933229 0.35109 0.0762867
0.228425 -0.0573496 0.560971 -0.0169738 0.999594 -0.0228918
0.409522 -0.0401244 0.552733 -0.00517342 -0.999867 0.0154338
-0.196083 -0.0395811 0.516265 -0.00517784 0.999868 -0.0153798
-0.00733422 0.0104551 0.0768419 -0.99297 -0.0206412 -0.116554
-0.0115437 0.00251401 0.132946 -0.936683 0.323721 -0.133528
0.0293084 -0.00388784 0.799393 0.982921 0.141057 0.11819
-0.0141585 0.0157679 0.209868 -0.818988 0.561518 -0.118132
-0.0144189 0.0446816 0.338278 -0.540032 0.818456 -0.1962
-0.045349 -0.0131032 0.609155 -0.989461 0.14157 0.0303962
-0.0347472 0.0364381 0.431607 -0.924812 0.348177 -0.15328
-0.0131073 -0.0662428 0.610799 -0.173016 -0.984817 0.0141597
0.0614117 -0.0375257 0.513693 -0.0860662 -0.996223 0.011492
-0.0290522 -0.0371106 0.870472 0.58522 -0.509865 -0.63052
0.0376023 0.00743721 0.647486 0.908164 0.412761 0.0697587
-0.273371 -0.039706 0.574568 -0.00561051 0.998914 0.0462574
0.01949 -0.0110705 0.220289 0.985894 -0.107021 -0.128684
0.0445438 -0.0323804 0.57189 0.989919 -0.141635 -0.000274255
-0.0233953 -0.00516341 0.375205 -0.89505 -0.418087 -0.155204
-0.209695 -0.0394257 0.576239 -0.00561051 0.998914 0.0462574
-0.0376259 -0.0545089 0.640781 -0.400909 -0.801405 0.443872
0.0381314 -0.0103058 0.326916 0.97445 -0.116288 -0.192159
-0.038847 -0.0354032 0.528692 -0.0860662 0.996223 -0.011492
-0.0919552 -0.058455 0.588085 -0.0209016 -0.983174 0.181472
0.0223974 -0.0119104 0.047119 -0.0056387 0.990537 0.13713
-0.0330943 -0.0312838 0.327536 -0.911803 -0.35008 -0.214616
0.0152504 -0.0652921 0.51807 0.485827 -0.873384 -0.0342392
0.164621 -0.0445183 0.473648 -0.0118618 -0.990479 0.137153
-0.0445278 -0.020521 0.373375 -0.989756 -0.0433233 -0.136037
0.02804 0.0150936 0.288228 0.920824 0.351909 -0.168058
-0.0392059 0.0307829 0.485872 -0.993369 0.114944 -0.00245543
-0.196193 -0.0576521 0.540278 -0.0169714 -0.999738 -0.0153778
-0.0487536 -0.0398688 0.455817 -0.195509 0.971433 -0.134516
-0.156583 -0.0457465 0.464083 -0.0118618 0.990479 -0.137153
0.0483675 -0.00794909 0.110901 -0.0181284 -0.983223 -0.181503
-0.372885 -0.0478207 0.596207 -0.0376976 -0.803911 0.593554
-0.422714 -0.0463253 0.48292 -0.0118618 0.990479 -0.137153
0.00469325 -0.0246857 0.101642 0.873068 -0.480892 -0.0805846
-0.4217 -0.0403436 0.569982 -0.00518472 0.999719 0.0231463
0.0210933 -0.0625346 0.58969 0.49121 -0.870894 0.016007
-0.0313062 -0.0154171 0.791788 -0.980887 -0.146414 0.128151
-0.106112 -0.0390206 0.522417 -0.00517784 0.999868 -0.0153798
0.0249186 0.00403781 0.363656 0.979768 -0.125057 -0.156255
-0.0244832 0.0258716 0.512913 -0.477252 0.877634 0.0446122
-0.0416242 -0.0625239 0.517088 -0.0820058 -0.996566 -0.0114959
0.0426655 0.00156414 0.543757 0.906122 0.422835 -0.0123698
0.0458834 -0.0203253 0.391325 0.997394 -0.0436576 -0.0574363
0.278975 -0.0480745 0.45974 -0.0235552 0.990272 0.137138
0.0317412 0.0260612 0.407149 0.977916 0.124849 -0.167608
0.0116306 -0.0254586 0.775817 0.679155 -0.732907 0.0399615
-0.387855 -0.054249 0.530533 -0.0169673 -0.999738 -0.0153478
0.396675 -0.0539748 0.522568 -0.0235431 0.990279 0.137087
0.0575751 -0.0553037 0.622353 -0.438372 0.723064 -0.533862
0.130576 -0.0590054 0.561219 -0.0169712 0.999592 -0.0229864
-0.464287 -0.0533529 0.556658 -0.0169673 -0.999738 -0.0153478
0.0305151 -0.062878 0.468536 -0.0820058 0.996566 0.0114959
-0.0628262 -0.0375401 0.522856 -0.082005 0.996514 -0.0153282
-0.0150758 -0.0106904 0.814618 -0.981081 0.167872 0.0964334
0.280635 -0.0563089 0.567689 -0.0169712 0.999592 -0.0229864
0.21366 -0.0406751 0.505647 -0.0118647 -0.990486 0.137103
0.0137548 -0.0345943 0.514448 0.570232 -0.820191 -0.046059
0.328311 -0.0401472 0.523978 -0.00517784 -0.999868 0.0153798
0.164478 -0.0504908 0.605827 -0.0376976 0.803911 -0.593554
-0.00522902 0.0194928 0.00691559 -0.981268 -0.056614 -0.184141
-0.013556 0.0304081 0.644489 -0.495917 0.868251 0.0143803
-0.130741 -0.0587843 0.570713 -0.0169712 -0.999592 0.0229864
0.128308 -0.0391303 0.522758 -0.00517784 -0.999868 0.0153798
0.130486 -0.0122063 0.109725 -0.0483457 0.803637 -0.593153
-0.011904 -0.0217615 0.168036 -0.823686 -0.56473 -0.0511894
0.0153974 -0.0321575 0.866506 0.75464 0.652634 0.0677274
0.0204907 0.00836236 0.815291 0.723039 0.681397 0.113635
6.281e-05 0.0638205 0.544834 0.149331 0.736593 0.659645
0.31521 -0.0542958 0.510895 -0.0235431 0.990279 0.137087
-0.0144722 -0.0269728 0.238414 -0.81876 -0.561353 -0.120477
0.235451 -0.0400184 0.512277 -0.0118647 -0.990486 0.137103
0.00265328 0.0585389 0.38611 0.196283 0.956748 -0.214722
0.304663 -0.0399702 0.576478 -0.00561051 -0.998914 -0.0462574
-0.0765997 -0.0491407 0.427964 -0.277972 -0.951515 -0.131721
-0.0586387 -0.0366634 0.557448 -0.082005 0.996514 -0.0153282
0.039699 0.0267452 0.487336 0.993069 0.117511 -0.00244039
0.442275 -0.0537085 0.561398 -0.0169738 0.999594 -0.0228918
0.041933 -0.0628203 0.544982 -0.0820058 0.996566 0.0114959
-0.0436058 -0.0281428 0.430243 -0.922351 -0.344076 -0.175726
0.339386 -0.0396688 0.558737 -0.00517342 -0.999867 0.0154338
-0.236996 -0.0569539 0.53992 -0.0169714 -0.999738 -0.0153778
0.435438 -0.0479618 0.485801 -0.0235552 0.990272 0.137138
-0.0175498 0.0123547 0.314391 -0.975553 0.141592 -0.168072
0.000396161 -0.0454702 0.803271 0.162266 -0.965423 0.204029
-0.194605 -0.0422786 0.597125 -0.00929976 0.983348 0.181493
0.364237 -0.0451681 0.48622 -0.0118618 -0.990479 0.137153
-0.0897973 -0.0153949 0.0927327 -0.0066616 -0.999859 -0.0153885
0.192998 -0.0485967 0.448743 -0.0235552 0.990272 0.137138
-0.0529808 -0.0481967 0.386941 -0.213003 0.971824 -0.100935
0.0456731 -0.0101061 0.577836 0.98991 0.141634 -0.00420899
-0.0057002 0.0155771 0.693953 -0.137817 0.981858 0.130236
-0.00588973 -0.0566014 0.335977 -0.204991 -0.974534 -0.0908959
0.211837 -0.0485233 0.605484 -0.0376976 0.803911 -0.593554
-0.0448857 -0.0166854 0.629637 -0.987812 0.140977 0.0659766
0.00548733 0.00251584 0.79254 0.408294 0.903883 0.127636
0.149078 -0.0387821 0.552387 -0.00517784 -0.999868 0.0153798
-0.364887 -0.0539003 0.51657 -0.0235431 -0.990279 -0.137087
-0.0324158 -0.0536643 0.56296 -0.741961 -0.670435 0.00314344
-0.133326 -0.0584188 0.520743 -0.0169714 -0.999738 -0.0153778
-0.018249 -0.00248331 0.338307 -0.89505 -0.418087 -0.155204
-0.0287784 -0.0196989 0.488565 -0.800784 -0.598195 -0.030132
-0.225357 -0.0418505 0.498167 -0.0118647 0.990486 -0.137103
-0.125351 -0.0436222 0.476723 -0.0118618 0.990479 -0.137153
0.371965 -0.0403554 0.576634 -0.00561064 -0.998914 -0.0462606
0.00700849 0.071756 0.490852 0.211806 0.977135 -0.01858
-0.0252181 -0.0151323 0.687082 -0.874555 -0.481383 0.0585206
0.100449 -0.0150311 0.0737503 -0.00666867 0.999858 0.0154545
-0.413049 -0.0412678 0.51862 -0.0118647 0.990486 -0.137103
0.00571714 0.0661209 0.0318775 0.996231 0.0487926 -0.071709
-0.473218 -0.0514137 0.517215 -0.0235552 -0.990272 -0.137138
-0.0358035 -0.0208506 0.732063 -0.988443 -0.12884 0.0798799
-0.031831 -0.0189764 0.576063 -0.863606 -0.490821 0.115235
-0.0290251 -0.0391022 0.744829 -0.917366 -0.384718 0.102136
-0.0222128 -0.014034 0.116074 -0.0483457 -0.803637 0.593153
0.244299 -0.0392883 0.551512 -0.00517342 -0.999867 0.0154338
0.0169511 -0.000336673 0.182872 0.990929 0.107568 -0.080552
-0.156178 -0.00861663 0.103745 -0.0182082 0.983065 0.182348
-0.0676568 -0.0154492 0.0866746 -0.0066616 -0.999859 -0.0153885
-0.11944 -0.0103366 0.0530828 -0.00563981 0.990526 -0.137212
0.021461 0.0577625 0.414384 0.564774 0.806019 -0.1771
0.249235 -0.0438312 0.485928 -0.0118618 -0.990479 0.137153
0.0131277 0.0316592 0.510716 0.170204 0.984495 0.042429
0.0107903 -0.00023672 0.12312 0.933311 0.322556 -0.157759
-0.0066807 0.0330948 0.576985 -0.172678 0.984452 -0.0322013
0.0190078 -0.0336064 0.281976 0.784401 -0.588388 -0.196254
0.261903 -0.0563422 0.576855 -0.0173902 0.998778 -0.0462512
0.038859 -0.0155451 0.0804404 -0.0066616 0.999859 0.0153885
0.0329599 0.0215119 0.451969 0.685911 0.676169 0.268926
0.0276348 -0.0122571 0.666779 0.981443 -0.175367 0.0775684
0.0463659 -0.0576929 0.438039 -0.166647 0.980743 0.10184
0.0392271 0.0305221 0.525013 0.99325 0.115279 0.0128454
-0.0340065 0.0145866 0.636101 -0.742595 0.66899 0.0317027
-0.0326609 0.031594 0.354592 -0.78556 0.591869 -0.180517
0.0054541 0.0590103 0.063943 0.999179 0.0404975 -0.00143721
-0.088468 -0.0384846 0.551323 -0.00517784 0.999868 -0.0153798
0.0305385 -0.0529665 0.366624 -0.166647 0.980743 0.10184
0.0335339 0.0326241 0.361961 0.778427 0.601037 -0.181124
0.0465312 -0.0262563 0.478051 0.98904 -0.146778 0.0160039
-0.185653 -0.0534969 0.482875 -0.0235431 -0.990279 -0.137087
0.00435153 0.0947105 0.00664039 0.993638 0.112553 -0.00386827
-0.293972 -0.0557056 0.578543 -0.0173902 -0.998778 0.0462512
0.0264031 -0.0195483 0.630488 0.865618 -0.497421 0.0572466
-0.371796 -0.0480941 0.475825 -0.0235552 -0.990272 -0.137138
-0.0833112 -0.0529846 0.461598 -0.0235431 -0.990279 -0.137087
0.0345771 -0.0399107 0.346354 0.770748 -0.580704 -0.262166
-0.256229 -0.0401161 0.513369 -0.0118647 0.990486 -0.137103
0.0282924 0.0188292 0.578856 0.664183 0.740716 0.100995
0.125076 -0.0149372 0.0782978 -0.00666867 0.999858 0.0154545
-0.0474067 -0.021777 0.47944 -0.988779 -0.14674 0.027995
0.0446913 0.0139733 0.388635 0.990082 0.121081 -0.0712507
0.0387932 -0.0458202 0.500411 0.90619 -0.422865 0.00241691
-0.0735806 -0.0595511 0.502587 -0.0895018 -0.995869 -0.0153182
-0.094212 -0.0397383 0.588506 -0.00930565 0.983346 0.181504
0.0123514 0.0216242 0.760139 0.524188 0.846735 0.0909227
-0.012949 -0.0257175 0.421879 -0.527306 -0.834165 -0.161607
-0.245522 -0.0567703 0.57355 -0.0169712 -0.999592 0.0229864
-0.3398 -0.0401777 0.525869 -0.00517784 0.999868 -0.0153798
0.0291263 -0.0403043 0.739421 0.90289 -0.416787 0.10525
-0.0437515 0.0144332 0.376838 -0.982218 0.12012 -0.144287
0.0179742 0.0203596 0.739779 0.48846 0.868463 0.0847255
0.0267586 0.0298487 0.322728 0.787567 0.593381 -0.166244
0.0309862 0.0464611 0.542697 0.754386 0.589239 0.289309
0.0923195 -0.0525095 0.607676 -0.0376976 0.803911 -0.593554
0.0227296 -0.0157295 0.719216 0.865618 -0.497421 0.0572466
-0.15116 -0.0390965 0.53265 -0.00517784 0.999868 -0.0153798
-0.0395632 -0.00701547 0.0780526 -0.00667006 0.999861 -0.0152745
0.0129234 0.0450087 0.442608 0.0815257 0.56615 0.820261
0.00544688 0.0296831 0.691057 0.180079 0.981954 0.0577668
0.0328717 -0.0355679 0.605043 -0.0890282 -0.995436 -0.034368
-0.00665063 0.0342334 0.0692292 -0.998717 0.0207642 -0.0461837
0.399753 -0.0541455 0.572459 -0.0173902 0.998778 -0.0462537
0.0300357 0.0145618 0.68731 0.754369 0.65209 0.0755375
0.0721037 -0.015466 0.0974854 -0.00838469 0.999699 -0.0230793
0.28247 -0.055966 0.525869 -0.0169673 0.999738 0.0153478
-0.337912 -0.0398614 0.567923 -0.00518472 0.999719 0.0231463
0.129528 -0.0542891 0.478959 -0.0235431 0.990279 0.137087
0.209618 -0.0572086 0.526262 -0.0169714 0.999738 0.0153778
0.0689376 -0.0376683 0.547215 -0.082005 -0.996514 0.0153282
0.147285 -0.0113371 0.0481108 -0.00563587 0.990539 0.137116
0.0332425 -0.0410674 0.693345 0.920081 -0.385856 0.0675721
-0.310526 -0.0444815 0.486533 -0.0118618 0.990479 -0.137153
0.00216389 -0.0366984 0.627231 0 -1 0
-0.177172 -0.0579167 0.574159 -0.0169712 -0.999592 0.0229864
0.0675597 -0.0418337 0.46896 -0.195509 -0.971433 0.134516
-0.00729286 -0.0156839 0.613215 0 0 -1
0.0471713 -0.0135059 0.422157 0.99311 -0.116845 -0.00895323
0.108809 -0.0593038 0.564315 -0.0169712 0.999592 -0.0229864
0.000106726 -0.0673751 0.457385 0.187337 -0.965088 0.183058
0.0623924 -0.0380282 0.594633 -0.1359 -0.981343 -0.136003
-0.0282159 -0.0570913 0.392814 -0.574504 -0.81417 0.0840937
-0.234878 -0.047124 0.460907 -0.0118618 0.990479 -0.137153
-0.0198222 -0.00741306 0.760625 -0.981081 0.167872 0.0964334
-0.0221163 -0.0521664 0.721922 -0.765468 -0.630044 0.130777
-0.323454 -0.0557525 0.560247 -0.0169738 -0.999594 0.0228918
0.031509 -0.00447285 0.426609 0.928086 -0.349479 -0.12853
-0.00513173 0.0346931 0.268969 -0.21377 0.961099 -0.174903
0.432858 -0.0404631 0.538613 -0.00517342 -0.999867 0.0154338
-0.0162238 0.0296794 0.544359 -0.490943 0.87074 -0.0280405
0.185356 -0.0405099 0.588013 -0.00930565 -0.983346 -0.181504
-0.169366 -0.0576715 0.511922 -0.0169673 -0.999738 -0.0153478
0.0548257 -0.0611286 0.591492 -0.0911709 0.995236 -0.0345282
-0.0233042 0.0549975 0.408565 -0.541818 0.821163 -0.179235
0.00699212 0.0104218 0.841769 0.143437 0.964656 0.221052
-0.0372183 -0.034447 0.680024 -0.912169 -0.401771 0.0807941
0.039123 -0.0167262 0.699055 0.986843 -0.135117 0.0887882
0.153525 -0.0402644 0.50341 -0.0118647 -0.990486 0.137103
-0.00825833 -0.0273426 0.772065 -0.411522 -0.911008 0.0267314
-0.0258376 0.0205656 0.676157 -0.755223 0.652829 0.0587661
0.416359 -0.043216 0.504832 -0.0118647 -0.990486 0.137103
0.0280169 -0.0226563 0.52568 0.805593 -0.590367 -0.0498774
-0.373031 -0.0549349 0.558793 -0.0169714 -0.999738 -0.0153778
0.00410258 -0.0362725 0.255812 0.211697 -0.953286 -0.215478
0.0953618 -0.0384616 0.55514 -0.00517784 -0.999868 0.0153798
-0.032104 0.00408559 0.729989 -0.920222 0.385917 0.0652682
-0.00547404 0.0059845 0.0362894 -0.996295 -0.0487767 -0.0708293
0.0100664 -0.0634404 0.646394 0.174488 -0.982814 0.0602556
-0.101321 -0.059506 0.556106 -0.0169714 -0.999738 -0.0153778
-0.0898328 -0.042169 0.484146 -0.0118618 0.990479 -0.137153
-0.0188136 -0.0639677 0.536896 -0.486112 -0.873897 0.000100664
-0.00581222 0.0380431 0.0280307 -0.997095 -0.0151749 -0.074644
0.0404198 -0.0409674 0.403147 0.93449 -0.348604 0.0721385
-0.286853 -0.0398818 0.527279 -0.00517784 0.999868 -0.0153798
0.0667962 -0.0607457 0.542499 -0.0820058 0.996566 0.0114959
-0.124364 -0.0149329 0.0777147 -0.00666867 -0.999858 -0.0154545
-0.358729 -0.0400673 0.572017 -0.00561051 0.998914 0.0462574
-0.21886 -0.0392337 0.546519 -0.00517784 0.999868 -0.0153798
0.0873658 -0.0113224 0.0455418 -0.00563587 0.990539 0.137116
-0.0664088 -0.0607768 0.567395 -0.0819599 -0.996372 0.0229124
-0.00654698 0.0148346 0.162045 -0.590567 0.794423 -0.141854
-0.410545 -0.0541731 0.550672 -0.0169714 -0.999738 -0.0153778
0.042729 -0.0286913 0.636705 0.986895 -0.139407 0.0812607
-0.0695672 0.0676783 0.871112 0.587103 0.504936 -0.632732
0.463887 -0.0508689 0.511679 -0.0235552 0.990272 0.137138
-0.0473543 0.0126571 0.424285 -0.990962 0.114131 -0.0704875
-0.0652922 -0.0508181 0.622456 -0.400909 -0.801405 0.443872
-0.405094 -0.0461786 0.59362 -0.0282129 0.804164 0.593738
-0.052878 -0.0126885 0.0539926 -0.0056387 -0.990537 -0.13713
0.211924 -0.0446115 0.477066 -0.0118618 -0.990479 0.137153
0.324509 -0.0397095 0.551113 -0.00517342 -0.999867 0.0154338
0.0289588 -0.0187933 0.475593 0.800883 -0.598269 -0.0257149
-0.331942 -0.0526696 0.502022 -0.0235431 -0.990279 -0.137087
-0.131266 -0.0539688 0.603226 -0.0376976 -0.803911 0.593554
0.0274133 -0.0320687 0.785364 0.89832 -0.414678 0.145136
-0.0360036 -0.0602592 0.445796 -0.166647 -0.980743 -0.10184
-0.271926 -0.0552771 0.510551 -0.0235431 -0.990279 -0.137087
-0.00539945 -0.0357129 0.568604 -0.139865 -0.986774 0.0819407
0.0999166 -0.0407902 0.494975 -0.0118618 -0.990479 0.137153
0.275887 -0.0483224 0.601688 -0.0376976 0.803911 -0.593554
-0.0388113 0.0335404 0.461249 -0.993064 0.11751 -0.00394479
0.10157 -0.0493233 0.438286 -0.0235552 0.990272 0.137138
0.274164 -0.0508818 0.479184 -0.0235552 0.990272 0.137138
-0.0215741 -0.00162963 0.229788 -0.985159 0.106974 -0.134235
0.00384892 0.021065 0.787154 0.170657 0.977079 0.127249
-0.387635 -0.0452914 0.487353 -0.0118618 0.990479 -0.137153
0.00234326 0.072391 0.52139 0.211326 0.974923 0.0697519
-0.0165782 -0.0268269 0.661292 -0.426457 -0.904081 0.0277704
0.0102377 -0.0667107 0.613267 0.173016 -0.984819 0.0140505
-0.33927 -0.05524 0.541368 -0.0169714 -0.999738 -0.0153778
0.024865 0.0240161 0.641218 0.495898 0.868217 0.0168614
0.116432 -0.0585581 0.511155 -0.0169714 0.999738 0.0153778
-0.22308 -0.0396328 0.521997 -0.00517784 0.999868 -0.0153798
-0.0328032 -0.0512822 0.467276 -0.718856 -0.694512 -0.029988
-0.0360245 -0.0488645 0.493355 -0.729496 -0.683586 -0.0233495
0.0180807 -0.0251625 0.43669 0.558716 -0.810267 -0.176927
0.263668 -0.0565255 0.541506 -0.0169714 0.999738 0.0153778
-0.0399253 0.00650647 0.608852 -0.908301 0.416953 0.0337511
-0.0178295 0.046002 0.440949 -0.275317 0.551325 0.787554
-0.0191825 -0.00677264 0.0850485 -0.00667006 0.999861 -0.0152745
0.423802 -0.0405267 0.574046 -0.00561064 -0.998914 -0.0462606
-0.0126413 -0.0201578 0.39254 -0.526979 -0.833647 -0.165308
0.030645 0.0511985 0.429955 0.651174 0.473468 0.593128
0.0584114 0.0612364 0.86194 0.645535 -0.55807 0.521385
-0.0187052 -0.0436334 0.30949 -0.538793 -0.796902 -0.273221
-0.0245097 -0.0166216 0.265035 -0.916129 -0.350196 -0.195117
-0.00813065 0.0507471 0.35586 -0.201222 0.956619 -0.210691
0.0210808 -0.0584641 0.428172 0.575865 -0.8161 0.0485889
0.0283135 -0.0581319 0.567467 0.741964 -0.670438 0.0010409
0.0238533 0.0627988 0.492188 0.571998 0.820166 -0.012095
-0.0226655 -0.0083704 0.83976 -0.983045 0.144726 0.112595
-0.43508 -0.0506059 0.504832 -0.0235552 -0.990272 -0.137138
0.0316703 -0.0181811 0.300107 0.912336 -0.348746 -0.21452
0.0462588 -0.020479 0.545036 0.98964 -0.143569 0.000391631
-0.0230715 0.0633372 0.492607 -0.563415 0.826085 -0.0121579
0.433322 -0.0499716 0.589455 -0.0376976 0.803912 -0.593552
0.0294274 -0.0445891 0.649779 -0.378464 -0.809712 -0.448477
-0.301946 -0.0400052 0.577564 -0.00561064 0.998914 0.0462606
0.00789568 -0.0286119 0.20539 0.595937 -0.801671 -0.0467189
-0.0243215 -0.0598163 0.62262 -0.489084 -0.864728 0.114203
0.0104607 0.0102286 0.157998 0.821843 0.557431 -0.11766
0.0124123 -0.0232012 0.803933 0.679155 -0.732907 0.0399615
-0.225982 -0.0499259 0.602686 -0.0376976 -0.803911 0.593554
0.358243 -0.054921 0.570745 -0.0169712 0.999592 -0.0229864
0.382584 -0.0543433 0.530848 -0.0169673 0.999738 0.0153478
-0.061484 -0.0564026 0.450352 -0.166647 -0.980743 -0.10184
-0.0145771 0.0418608 0.376989 -0.517505 0.81866 -0.248968
-0.0100417 -0.016856 0.87158 0.221634 -0.196349 -0.955157
0.203413 -0.0572017 0.580284 -0.0173902 0.998778 -0.0462512
-0.0358119 1.54483e-06 0.70448 -0.911013 0.401261 0.0951026
0.260696 -0.0397403 0.52767 -0.00517784 -0.999868 0.0153798
-0.0147465 -0.0338763 0.514025 -0.571449 -0.819347 -0.0460134
0.00864521 -0.0129378 0.0539747 -0.0056387 0.990537 0.13713
-0.266319 -0.0440531 0.485803 -0.0118618 0.990479 -0.137153
-0.176298 -0.0393804 0.522657 -0.00517784 0.999868 -0.0153798
-0.0210049 0.0278805 0.476629 -0.486671 0.873141 -0.0278416
0.309011 -0.0443954 0.487024 -0.0118618 -0.990479 0.137153
-0.0289848 -0.0636668 0.581026 -0.0839931 -0.996318 0.0171961
-0.00456645 -0.0266928 0.13059 -0.599751 -0.798427 -0.0530319
0.0142356 -0.0664481 0.537158 0.170358 -0.985382 0.000341865
-0.0307535 0.00947 0.395812 -0.979932 -0.125078 -0.155208
0.0500834 -0.0109355 0.0459084 -0.00563981 -0.990526 0.137212
0.155503 -0.0585656 0.554759 -0.0169714 0.999738 0.0153778
-0.006107 0.0103811 0.101522 -0.772012 0.311449 0.554072
0.0221321 0.0140357 0.25553 0.925516 0.336049 -0.174616
0.108025 -0.0394435 0.5862 -0.00930565 -0.983346 -0.181504
-0.00932862 -0.0142295 0.352475 -0.478647 -0.861227 -0.170834
0.0392981 0.00684724 0.480512 0.993058 -0.117509 -0.0052689
-0.000806732 0.011549 0.729574 -0.14379 0.98103 0.130015
-0.119507 -0.0589814 0.542068 -0.0169714 -0.999738 -0.0153778
-0.00658619 -0.0295448 0.711463 -0.144987 -0.989217 0.0207214
0.0218944 -0.0134162 0.847033 0.975811 -0.164632 0.14384
0.0178828 0.029719 0.574023 0.490966 0.870782 -0.0262917
0.420354 -0.0413128 0.518927 -0.0118647 -0.990486 0.137103
-0.128848 -0.0487919 0.439692 -0.0118618 0.990479 -0.137153
0.0168336 0.00194195 0.746994 0.674253 0.728338 0.122089
0.0536112 -0.044934 0.419686 -0.213003 -0.971824 0.100935
0.00718969 0.0713438 0.473368 0.20722 0.977587 -0.0372059
-0.0456962 -0.0244034 0.545336 -0.98964 -0.143569 -0.000252476
0.00502835 0.0307385 0.321837 0.185857 0.945713 -0.266617
-0.153727 -0.0399837 0.586784 -0.00930565 0.983346 0.181504
-0.021227 0.0319675 0.304005 -0.787638 0.593435 -0.165714
-0.194489 -0.0575691 0.575707 -0.0173902 -0.998778 0.0462537
0.374352 -0.0477181 0.596253 -0.0376976 0.803911 -0.593554
0.056534 -0.058784 0.465184 -0.166647 0.980743 0.10184
0.0461042 -0.022784 0.526409 0.98943 -0.143538 0.0205936
-0.0448495 -0.0302901 0.574867 -0.989919 -0.141635 0.000359899
-0.00422708 0.0925065 0.0430695 -0.992659 0.0953952 0.074346
-0.442683 -0.0528588 0.578009 -0.0209026 -0.983158 0.181558
-0.245646 -0.0564855 0.519001 -0.0169673 -0.999738 -0.0153478
-0.462286 -0.0406895 0.533811 -0.00517342 0.999867 -0.0154338
-0.0335448 0.00945312 0.586638 -0.864919 0.491713 0.10066
-0.0202659 -0.0266394 0.607576 -0.662732 -0.747831 0.0391921
0.00669336 0.000308439 0.871935 0.221893 -0.196569 -0.955052
-0.0130084 0.0258206 0.717693 -0.524476 0.8472 0.0847204
0.05541 -0.0412496 0.45552 -0.195509 -0.971433 0.134516
-0.125213 -0.0398765 0.587665 -0.00930565 0.983346 0.181504
0.181698 -0.0388793 0.560418 -0.00517754 -0.999722 -0.0229894
0.0471761 -0.0190623 0.502694 0.98893 -0.146762 0.0218734
-0.348478 -0.0534411 0.585702 -0.0209086 -0.983137 0.181674
-0.000418004 0.0628326 0.403223 -0.20791 0.954407 -0.214197
0.0108916 -0.0173365 0.373423 0.526689 -0.833188 -0.168514
0.317666 -0.0480434 0.599412 -0.0376976 0.803911 -0.593554
-0.00564024 0.0326483 0.604147 -0.173076 0.984049 0.0411427
0.41895 -0.0540853 0.55424 -0.0169714 0.999738 0.0153778
-0.043856 -0.0626682 0.545517 -0.0820058 -0.996566 -0.0114959
-0.0119167 0.0189249 0.787157 -0.486676 0.865291 0.120076
-0.263078 -0.0484163 0.459477 -0.0235552 -0.990272 -0.137138
-0.0319068 -0.0192194 0.302812 -0.911803 -0.35008 -0.214616
-0.0177693 -0.0574393 0.695738 -0.507531 -0.861381 0.0208716
-0.0181158 -0.0635805 0.448197 -0.450485 -0.865758 -0.218005
0.0213521 0.0185644 0.341304 0.97518 0.141505 -0.170293
0.341903 -0.053228 0.507766 -0.0235431 0.990279 0.137087
0.0161145 -0.00692026 0.0740459 -0.00667006 -0.999861 0.0152745
0.235127 -0.0543107 0.594045 -0.0209043 0.983176 -0.181462
-0.0122049 0.0265717 0.246178 -0.573698 0.802412 -0.164334
0.014018 -0.00892664 0.139088 0.992002 -0.106497 -0.0677541
-0.182541 -0.045787 0.466036 -0.0118618 0.990479 -0.137153
0.143191 -0.0447106 0.470406 -0.0118618 -0.990479 0.137153
-0.238634 -0.0411032 0.588499 -0.0092858 0.983419 0.181112
0.157793 -0.0394921 0.583912 -0.00930565 -0.983346 -0.181504
-0.0464291 -0.0618885 0.496281 -0.0820058 -0.996566 -0.0114959
0.11577 -0.0151391 0.095787 -0.00838534 0.999696 -0.023186
-0.0239303 -0.0310168 0.809201 -0.897812 -0.414443 0.1489
0.310483 -0.0399744 0.529215 -0.00517784 -0.999868 0.0153798
0.117912 -0.0519953 0.460393 -0.0235431 0.990279 0.137087
-0.353036 -0.0507287 0.491627 -0.0235552 -0.990272 -0.137138
-0.183472 -0.0391526 0.539879 -0.00517784 0.999868 -0.0153798
0.00933684 0.0212992 0.209879 0.590539 0.794389 -0.142161
0.0399858 -0.0421201 0.370373 0.934063 -0.274279 -0.228688
0.269772 -0.0551469 0.50924 -0.0235431 0.990279 0.137087
-0.00382249 0.0324474 0.529557 -0.170215 0.984559 0.0408638
-0.113137 -0.0399378 0.502274 -0.0118618 0.990479 -0.137153
0.351709 -0.0400781 0.536351 -0.00517784 -0.999868 0.0153798
0.0278337 -0.0115751 0.819366 0.951321 0.142 0.273539
-0.0245346 0.0453039 0.553931 -0.662974 0.55853 0.498508
-0.16413 -0.0425469 0.487843 -0.0118618 0.990479 -0.137153
0.00665845 -0.0476032 0.302536 0.197326 -0.93503 -0.294586
0.107454 -0.0563815 0.490282 -0.0235431 0.990279 0.137087
-0.00232007 -0.0279348 0.81817 -0.144987 -0.989217 0.0207214
0.0324377 0.0182225 0.552735 0.737271 0.675277 -0.0207965
-0.0298993 -0.0477612 0.342425 -0.213003 0.971824 -0.100935
0.0860287 -0.0388232 0.52849 -0.00517784 -0.999868 0.0153798
-0.298484 -0.0556921 0.525731 -0.0169673 -0.999738 -0.0153478
0.202701 -0.0577556 0.554192 -0.0169714 0.999738 0.0153778
-0.018258 -0.00917531 0.201656 -0.991877 -0.107704 -0.0676721
0.378131 -0.0446401 0.491235 -0.0118647 -0.990486 0.137103
-0.0373262 0.000576482 0.323 -0.9773 0.116648 -0.176855
-0.12063 -0.0565394 0.493686 -0.0235431 -0.990279 -0.137087
0.00562466 0.0365194 0.00387461 0.983619 -0.0567682 -0.171086
-0.0498691 -0.0151451 0.452267 -0.978112 0.136978 0.156637
0.334578 -0.0552336 0.535766 -0.0169673 0.999738 0.0153478
0.304411 -0.0483286 0.465943 -0.0235552 0.990272 0.137138
-0.041575 -0.0590581 0.87166 -0.587536 0.505313 -0.632029
-0.102598 -0.00742965 0.0784667 -0.00667006 0.999861 -0.0152745
-0.262846 -0.0395634 0.539897 -0.00517784 0.999868 -0.0153798
0.0314362 0.0110889 0.596582 0.862583 0.495832 0.100509
0.0886731 -0.110745 0.861886 -0.645544 -0.558076 0.521368
-0.0420472 0.00581 0.486086 -0.902347 0.43089 -0.0101938
0.0143083 -0.0244043 0.749646 0.679155 -0.732907 0.0399615
-0.0100744 0.0245154 0.621938 -0.137817 0.981858 0.130236
-0.0393182 -0.0384142 0.361624 -0.906521 -0.348052 -0.238914
0.0213567 -0.0284255 0.5842 0.41231 -0.902973 0.120994
-0.0247344 0.0157901 0.35893 -0.97774 0.124826 -0.168649
0.0668454 -0.00928001 0.113512 -0.0483845 -0.803381 -0.593497
-0.210806 -0.0537745 0.489199 -0.0235431 -0.990279 -0.137087
-0.0454228 -0.0259263 0.398564 -0.998657 -0.0437129 -0.0278115
0.372787 -0.0403399 0.526425 -0.00517784 -0.999868 0.0153798
-0.00551147 0.0752793 0.0138776 -0.991743 0.0508112 0.117748
0.163691 -0.0388246 0.562094 -0.00517754 -0.999722 -0.0229894
-0.0339337 -0.0383248 0.624886 -0.143674 0.980278 0.135697
0.0295466 0.00413782 0.761746 0.90605 0.418246 0.0643668
0.238135 -0.0569162 0.538725 -0.0169714 0.999738 0.0153778
0.0853904 -0.0575729 0.593619 -0.0209016 0.983174 -0.181472
-0.0302566 -0.0370241 0.446558 -0.213003 0.971824 -0.100935
0.188913 -0.0400859 0.507761 -0.0118647 -0.990486 0.137103
-0.00250408 -0.00953003 0.315594 -0.167829 -0.969985 -0.175962
-0.0454647 -0.00688858 0.5211 -0.989102 0.143515 0.032881
0.079064 -0.0593752 0.523036 -0.0169714 0.999738 0.0153778
-0.00752589 -0.00816687 0.0641458 -0.00563981 0.990526 -0.137212
-0.188183 -0.0388966 0.558078 -0.00517342 0.999867 -0.0154338
-0.0156801 -0.0483729 0.764063 -0.484336 -0.861131 0.154509
0.01317 0.0319511 0.485991 0.166585 0.985886 -0.0166865
0.253513 -0.0494838 0.465543 -0.0235552 0.990272 0.137138
0.00906894 -0.0306626 0.231629 0.577419 -0.807175 -0.122703
0.0165332 0.0146882 0.670862 0.423127 0.896998 0.127897
0.0458487 -0.0625053 0.565951 -0.0839931 0.996318 -0.0171961
0.00586148 0.0453776 0.562892 0.0816356 0.476818 0.875203
-0.0271561 -0.000175396 0.805632 -0.902221 0.416479 0.11199
0.0457472 -0.00455915 0.377185 0.98619 -0.0431672 -0.159891
-0.0178819 -0.0069791 0.77961 -0.981081 0.167872 0.0964334
0.0328198 -0.0521726 0.865248 0.75464 0.652634 0.0677274
0.0605224 -0.0155902 0.0927463 -0.0066616 0.999859 0.0153885
-0.0283603 0.0275242 0.866014 -0.754033 -0.653342 0.067657
0.0046569 0.00704365 0.0217958 0.997107 -0.0395523 0.0649074
-0.144595 -0.0551895 0.48805 -0.0235431 -0.990279 -0.137087
-0.111835 -0.0541588 0.474979 -0.0235431 -0.990279 -0.137087
0.0372706 -0.005968 0.562126 0.98747 -0.144586 0.0632327
0.00207271 -0.059752 0.358105 0.0728972 -0.993029 -0.092621
0.0429971 0.00177566 0.523089 0.905374 0.422485 0.0424683
0.023042 -0.0081801 0.382977 0.728594 -0.667328 -0.154349
-0.440914 -0.0402553 0.554775 -0.00517342 0.999867 -0.0154338
0.00311783 0.0217649 0.650079 0.137819 0.981872 0.130127
0.0467547 -0.0543276 0.406267 -0.166647 0.980743 0.10184
-0.0231275 0.0603753 0.534544 -0.552556 0.800702 0.231427
-0.0812405 -0.0391437 0.506039 -0.00517784 0.999868 -0.0153798
-0.0264476 -0.0532794 0.663106 -0.744448 -0.664133 0.0687372
0.0227289 -0.058991 0.399789 0.575865 -0.8161 0.0485889
-0.403157 -0.0403829 0.533848 -0.00517342 0.999867 -0.0154338
-0.0247898 -0.0571244 0.4159 -0.574504 -0.81417 0.0840937
0.0134096 0.0373515 0.359104 0.517917 0.819311 -0.245948
0.188251 -0.0518721 0.471583 -0.0235431 0.990279 0.137087
-0.428718 -0.0487137 0.591451 -0.0376976 -0.803912 0.593552
-0.16255 -0.0583532 0.565974 -0.0169712 -0.999592 0.0229864
0.0389661 -0.000255348 0.673582 0.912605 0.401963 0.0746854
0.00966591 -0.0373594 0.53724 0.206738 -0.976101 -0.0669837
-0.0392961 -0.00684846 0.10053 -0.0083656 0.999707 0.0227374
0.0601645 -0.0382615 0.484009 -0.195509 -0.971433 0.134516
0.0463009 -0.0171014 0.596796 0.989512 0.141219 0.0303928
0.403505 -0.0542349 0.546913 -0.0169673 0.999738 0.0153478
0.0150275 0.0306406 0.274663 0.553137 0.814269 -0.176081
-0.0911793 -0.0123238 0.11277 -0.0483457 -0.803638 0.593151
0.234629 -0.0545803 0.499112 -0.0235431 0.990279 0.137087
-0.369782 -0.0403026 0.527841 -0.00517784 0.999868 -0.0153798
0.00618959 0.0278243 0.71616 0.18798 0.977273 0.0979819
-0.0240532 -0.022064 0.630839 -0.662732 -0.747831 0.0391921
0.331726 -0.0407705 0.581921 -0.00930565 -0.983346 -0.181504
0.465942 -0.0531984 0.566124 -0.0169738 0.999594 -0.0228918
-0.150964 -0.0484989 0.443721 -0.0118618 0.990479 -0.137153
-0.194867 -0.042208 0.492948 -0.0118618 0.990479 -0.137153
0.184537 -0.0575855 0.52309 -0.0169714 0.999738 0.0153778
0.00732224 -0.0544019 0.750853 0.186027 -0.967076 0.173659
0.302133 -0.0408672 0.511915 -0.0118647 -0.990486 0.137103
-0.0210463 -0.0616076 0.5043 -0.477448 -0.877982 -0.0345156
0.167841 -0.0555773 0.494844 -0.0235431 0.990279 0.137087
-0.0420191 -0.0121796 0.352466 -0.989756 -0.0433233 -0.136037
0.209431 -0.0409838 0.589348 -0.0092858 -0.983419 -0.181112
-0.428058 -0.0538181 0.567153 -0.0169738 -0.999594 0.0228918
0.0134116 -0.0201081 0.174023 0.826498 -0.560592 -0.0513464
0.0204729 0.031729 0.299582 0.78882 0.591883 -0.165641
0.394651 -0.0432449 0.502744 -0.0118647 -0.990486 0.137103
0.0491806 -0.00491654 0.439854 0.988807 0.138476 0.0555402
-0.055779 -0.0614029 0.581317 -0.0839931 -0.996318 0.0171961
0.0380996 -0.0469682 0.578092 0.908371 -0.418164 0.00125995
0.0281296 0.0217137 0.382838 0.977916 0.124849 -0.167608
0.296194 -0.0536106 0.590803 -0.0209043 0.983176 -0.181462
-0.079299 -0.0549408 0.60521 -0.0376976 -0.803911 0.593554
0.0869441 -0.0463452 0.453737 -0.0118618 -0.990479 0.137153
-0.284188 -0.039506 0.550783 -0.00517342 0.999867 -0.0154338
-0.460919 -0.044379 0.500286 -0.0118647 0.990486 -0.137103
-0.0281659 -0.00894595 0.414434 -0.917457 -0.376852 -0.127497
0.031061 0.00523778 0.401211 0.979768 -0.125057 -0.156255
0.0353018 0.0393198 0.395815 0.80164 0.582871 -0.132796
-0.0303592 -0.0391145 0.426648 -0.213003 0.971824 -0.100935
0.0258111 0.0364427 0.340956 0.786113 0.592286 -0.176703
0.0368849 -0.047236 0.474262 0.718975 -0.694627 -0.0238577
-0.41917 -0.0536787 0.528001 -0.0169673 -0.999738 -0.0153478
0.00847622 0.0113859 0.0857577 0.996976 0.04431 -0.0638398
-0.00458045 -0.0364426 0.501626 -0.211606 -0.975963 -0.052155
-0.03358 -0.0114265 0.468229 -0.932328 -0.361293 -0.0152511
-0.316222 -0.0400597 0.525597 -0.00517784 0.999868 -0.0153798
-0.295189 -0.0561332 0.550786 -0.0169714 -0.999738 -0.0153778
-0.387843 -0.0541073 0.577562 -0.0209026 -0.983158 0.181558
-0.282903 -0.0415648 0.588733 -0.00929976 0.983348 0.181493
0.0180518 -0.00528824 0.771732 0.870718 0.478895 0.111848
-0.0219503 0.0129995 0.652208 -0.658401 0.74265 0.122392
-0.000445798 0.0571523 0.0808246 -0.245863 0.435458 0.865984
0.459073 -0.053105 0.534747 -0.0169673 0.999738 0.0153478
-0.0844182 -0.0151654 0.0755223 -0.00666867 -0.999858 -0.0154545
-0.141116 -0.011157 0.0480514 -0.00563981 0.990526 -0.137212
-0.0700783 -0.0423174 0.469128 -0.195509 0.971433 -0.134516
0.0344008 0.0467762 0.498899 0.934575 0.355741 -0.00426274
0.444393 -0.0503379 0.504496 -0.0235552 0.990272 0.137138
0.0351484 -0.0504446 0.523003 0.729633 -0.683715 -0.013032
0.122501 -0.0403346 0.500219 -0.0118618 -0.990479 0.137153
0.0326428 -0.052752 0.603599 0.742842 -0.669212 0.0184741
0.0204773 -0.0556575 0.696825 0.507413 -0.86118 0.0300041
-0.0337394 0.0263464 0.417585 -0.974556 0.114064 -0.192952
-0.0314127 0.0524491 0.47545 -0.801085 0.598529 -0.00513454
-0.00554339 0.0135963 0.058748 -0.99134 -0.066332 -0.11334
0.0167319 -0.0632605 0.48359 0.477552 -0.878174 -0.0274773
-0.175724 -0.0392941 0.577516 -0.00561051 0.998914 0.0462574
0.381625 -0.05319 0.514314 -0.0235431 0.990279 0.137087
-0.0792679 -0.0386594 0.573921 -0.00517754 0.999722 0.0229894
0.00249912 -0.00157365 0.826735 0.143785 0.980995 0.130289
0.0342376 0.0117487 0.315098 0.920204 0.353303 -0.16853
0.0291784 -0.0156376 0.104795 -0.00969512 0.998889 -0.0461179
-0.0239402 0.0594041 0.44185 -0.788347 0.599653 -0.137572
0.038491 0.0356457 0.468421 0.934569 0.355738 -0.00550138
-0.0127493 -0.0629907 0.645964 -0.174509 -0.982931 0.0582458
-0.10795 -0.0387759 0.572529 -0.00517754 0.999722 0.0229894
0.0832535 -0.0152128 0.0780851 -0.00666867 0.999858 0.0154545
0.130408 -0.040048 0.588328 -0.00930565 -0.983346 -0.181504
0.00350588 -0.068314 0.582781 0.172767 -0.984963 -0.000390109
0.0118608 0.0319274 0.595334 0.173075 0.984041 0.0413294
0.124758 -0.0584438 0.583037 -0.0173902 0.998778 -0.0462512
-0.0644883 -0.0606385 0.520158 -0.0895018 -0.995869 -0.0153182
0.0331784 0.0184443 0.510707 0.72909 0.683206 0.0407134
0.170761 -0.0497901 0.453541 -0.0235552 0.990272 0.137138
-0.0189475 0.0290489 0.282884 -0.788082 0.591329 -0.171049
0.0131911 -0.00844525 0.86171 0.908968 0.158752 0.385454
-0.0199626 0.0194952 0.335825 -0.889527 0.41529 -0.190464
-0.0341187 0.0160538 0.542726 -0.737303 0.675305 -0.0186395
-0.0142285 -0.0124473 0.147733 -0.992006 -0.106545 -0.0676238
-0.014966 -0.0202401 0.798277 -0.874555 -0.481383 0.0585206
0.151757 -0.014791 0.0973726 -0.009702 0.99888 -0.0463021
-0.357449 -0.0399813 0.544547 -0.00517342 0.999867 -0.0154338
0.0364444 -0.0081273 0.717845 0.989222 0.128943 0.0693868
-0.0374076 -0.0480899 0.573649 -0.741961 -0.670435 0.00314344
-0.0436498 -0.0439361 0.408272 -0.213003 0.971824 -0.100935
-0.213809 -0.0574888 0.549107 -0.0169714 -0.999738 -0.0153778
-0.0415348 0.0203508 0.444214 -0.818746 0.397279 0.414517
0.345272 -0.04854 0.474488 -0.0235552 0.990272 0.137138
0.22217 -0.0391 0.556297 -0.00517342 -0.999867 0.0154338
-0.00361878 0.0942076 0.0242923 -0.995086 0.0774673 -0.0616735
-0.31695 -0.0556494 0.543351 -0.0169714 -0.999738 -0.0153778
-0.019603 -0.0402924 0.791562 -0.73002 -0.661516 0.171662
-0.00322439 -0.015842 0.0843066 -0.0066616 -0.999859 -0.0153885
-0.0407856 -0.0416143 0.510726 -0.902391 -0.430912 0.00197824
0.0375015 -0.0625512 0.490042 -0.0820058 0.996566 0.0114959
0.0193799 -0.027909 0.46083 0.556183 -0.830131 -0.0392688
-0.00677983 0.026806 0.228383 -0.573698 0.802412 -0.164334
-0.0208158 0.0240025 0.589154 -0.413367 0.905288 0.0978842
-0.0537908 -0.0434036 0.434799 -0.213003 0.971824 -0.100935
-0.00158148 -0.00743161 0.00785472 -0.459213 -0.291454 -0.839153
0.0113779 0.0112403 0.711913 0.408294 0.903883 0.127636
-0.0452933 -0.00809315 0.559898 -0.989907 0.141633 -0.00485065
0.0727625 -0.0465098 0.615226 -0.472849 -0.708759 -0.523521
-0.31547 -0.0480373 0.46574 -0.0235552 -0.990272 -0.137138
0.287755 -0.0397341 0.573431 -0.00561051 -0.998914 -0.0462574
0.0185587 -0.0260658 0.646937 0.679155 -0.732907 0.0399615
-0.0387056 -0.0201485 0.698762 -0.987674 -0.12874 0.0890247
-0.311134 -0.0425248 0.500719 -0.0118647 0.990486 -0.137103
0.00478505 -0.029341 0.852225 0.124288 -0.835907 0.534614
-0.0318015 -0.0438876 0.383735 -0.213003 0.971824 -0.100935
-0.401322 -0.050886 0.501056 -0.0235552 -0.990272 -0.137138
0.125478 -0.038717 0.548677 -0.00517784 -0.999868 0.0153798
0.0487048 -0.023104 0.455149 0.969086 -0.154603 0.192278
0.0477152 -0.0121356 0.474313 0.98876 0.146737 0.02865
-0.133429 -0.00749035 0.0940955 -0.00840739 0.999696 0.0231761
0.385983 -0.054676 0.556259 -0.0169714 0.999738 0.0153778
-0.00343485 0.0338019 0.498856 -0.166458 0.985135 0.0424227
0.0471768 0.00397868 0.406967 0.991136 0.114151 -0.0679642
0.0302748 -0.0480896 0.669813 0.754745 -0.652416 0.0686565
0.000519308 -0.0671626 0.629505 0.173557 -0.977569 0.119316
-0.0575194 -0.00719157 0.0743661 -0.00667006 0.999861 -0.0152745
-0.0172758 -0.0210449 0.851917 -0.727068 -0.394646 0.561807
-0.0450293 -0.00575664 0.574255 -0.989907 0.141633 -0.00485065
-0.0419688 -0.0306688 0.642561 -0.986687 -0.140816 0.0813553
0.370372 -0.0398484 0.557486 -0.00517342 -0.999867 0.0154338
-0.232103 -0.0391872 0.562454 -0.00517754 0.999722 0.0229894
0.0983157 -0.0072139 0.0907038 -0.00666574 -0.999861 0.0153015
0.19014 -0.0393402 0.529927 -0.00517784 -0.999868 0.0153798
-0.343525 -0.0474508 0.598269 -0.0282129 0.804164 0.593738
0.0178851 -0.0561934 0.348444 0.43329 -0.879747 -0.195718
0.126397 -0.00919308 0.0616228 -0.00563781 -0.990524 0.137224
-0.0021346 -0.0682212 0.527425 -0.166444 -0.98509 -0.0435122
0.0256069 -0.00938909 0.698923 0.981443 -0.175367 0.0775684
0.00254071 -0.00952086 0.632618 0 1 0
-0.220989 -0.0570292 0.527152 -0.0169714 -0.999738 -0.0153778
-0.332133 -0.0412447 0.511784 -0.0118647 0.990486 -0.137103
-0.356422 -0.0548603 0.535599 -0.0169673 -0.999738 -0.0153478
0.0322661 -0.0259784 0.767605 0.986615 -0.141621 0.0808333
0.448996 -0.0405923 0.572405 -0.00561064 -0.998914 -0.0462606
0.110481 -0.0561904 0.598219 -0.0209043 0.983176 -0.181462
0.043228 -0.00643153 0.632705 0.987866 0.140985 0.0651498
0.39085 -0.0401192 0.567199 -0.00518472 -0.999719 -0.0231463
-0.0291048 0.0388409 0.414719 -0.899127 0.338508 -0.277457
-0.0399989 0.0112037 0.511534 -0.993319 -0.114956 -0.0100871
-0.165837 -0.0397502 0.50819 -0.0118647 0.990486 -0.137103
0.144763 -0.0390884 0.531023 -0.00517784 -0.999868 0.0153798
0.325258 -0.0545508 0.582365 -0.0209026 0.983158 -0.181558
0.140021 -0.0148676 0.0802444 -0.00666867 0.999858 0.0154545
0.306016 -0.0395044 0.558202 -0.00517342 -0.999867 0.0154338
0.0676357 -0.0122812 0.0516574 -0.00563587 0.990539 0.137116
-0.249989 -0.0569153 0.551748 -0.0169714 -0.999738 -0.0153778
-0.0460068 -0.0582844 0.6229 -0.151593 -0.979106 0.13554
-0.264601 -0.0563397 0.530457 -0.0169714 -0.999738 -0.0153778
-0.0388328 -0.0350478 0.658808 -0.912169 -0.401771 0.0807941
0.0450241 -0.01416 0.0642988 -0.0056387 0.990537 0.13713
-0.231803 -0.0573024 0.560526 -0.0169738 -0.999594 0.0228918
-0.266449 -0.0556945 0.582943 -0.0209026 -0.983158 0.181558
-0.072877 -0.0890574 0.871803 0.585151 -0.50981 -0.630628
-0.0308419 0.0388966 0.37109 -0.778894 0.601415 -0.177828
-0.0224957 0.0304514 0.567699 -0.412775 0.460675 0.785745
0.0291941 -0.00970021 0.281046 0.975656 -0.115924 -0.186162
-0.0116237 -0.0366984 0.639779 0 -1 0
0.136511 -0.0417419 0.491268 -0.0118618 -0.990479 0.137153
-0.0159592 -0.065552 0.567295 -0.486112 -0.873897 0.000100664
0.0263485 -0.0212816 0.60687 0.662721 -0.747819 0.0395862
-0.14059 -0.0455129 0.464387 -0.0118618 0.990479 -0.137153
0.024746 0.0175418 0.609642 0.658431 0.742684 0.122018
-0.170189 -0.0412892 0.593016 -0.00929976 0.983348 0.181493
-0.0101867 -0.0105892 0.0467686 -0.00563981 0.990526 -0.137212
0.304945 -0.0556344 0.529115 -0.0169673 0.999738 0.0153478
0.0267709 -0.0230235 0.502902 0.807096 -0.58967 -0.0297366
-0.379973 -0.0400417 0.548182 -0.00517342 0.999867 -0.0154338
0.0147594 0.0652479 0.427897 0.208059 0.955089 -0.210989
0.129681 -0.0562288 0.492997 -0.0235431 0.990279 0.137087
0.129527 -0.0587551 0.538412 -0.0169714 0.999738 0.0153778
-0.179655 -0.0577715 0.529792 -0.0169714 -0.999738 -0.0153778
0.185257 -0.0506838 0.604246 -0.0376976 0.803911 -0.593554
-0.12754 -0.0408305 0.497073 -0.0118618 0.990479 -0.137153
-0.113972 -0.0587347 0.519924 -0.0169714 -0.999738 -0.0153778
0.0216611 0.053017 0.393703 0.540919 0.819819 -0.187893
0.0359968 -0.0349549 0.546212 -0.0860662 -0.996223 0.011492
0.308807 -0.0557476 0.571298 -0.0169712 0.999592 -0.0229864
0.349931 -0.0551613 0.548022 -0.0169714 0.999738 0.0153778
0.0334685 -0.0337973 0.725671 0.917874 -0.384931 0.0966148
0.276069 -0.0404161 0.512919 -0.0118647 -0.990486 0.137103
-0.454004 -0.0404553 0.56757 -0.00518472 0.999719 0.0231463
-0.301486 -0.0470995 0.59979 -0.0282129 0.804164 0.593738
-0.368358 -0.0431668 0.501033 -0.0118647 0.990486 -0.137103
-0.221708 -0.0559006 0.506431 -0.0235431 -0.990279 -0.137087
-0.0410518 0.00202795 0.629555 -0.907729 0.41669 0.0489608
-0.0329424 -0.00112229 0.748961 -0.920222 0.385917 0.0652682
0.0191497 0.028063 0.528907 0.485624 0.873032 0.0445603
-0.201544 -0.0450306 0.473142 -0.0118618 0.990479 -0.137153
0.00615241 0.0319747 0.255306 0.213887 0.961626 -0.171834
0.0183671 0.00944608 0.220449 0.934817 0.326565 -0.139547
-0.0302583 -0.00325004 0.282652 -0.975313 -0.115883 -0.187976
-0.0246092 0.0242309 0.637241 -0.492092 0.870384 0.016681
-0.26037 -0.039257 0.558927 -0.00517342 0.999867 -0.0154338
0.00246233 -0.042653 0.282717 0.201749 -0.955988 -0.213037
-0.125518 -0.039021 0.528926 -0.00517784 0.999868 -0.0153798
-0.231015 -0.0445854 0.478905 -0.0118618 0.990479 -0.137153
0.0162875 -0.0598459 0.665111 0.506674 -0.859926 0.0617135
-0.430852 -0.0404399 0.539444 -0.00517342 0.999867 -0.0154338
-0.0166156 0.00633473 0.832146 -0.706506 0.656538 0.264209
0.0280452 0.0422308 0.415398 0.886 0.36382 -0.287471
0.186793 -0.0569561 0.585282 -0.0209016 0.983174 -0.181472
-0.0177023 -0.0573692 0.35347 -0.0726319 -0.989415 -0.125629
0.299829 -0.0559151 0.541733 -0.0169714 0.999738 0.0153778
0.0734442 -0.0543176 0.458702 -0.277972 0.951515 0.131721
-0.0696795 -0.0579848 0.478999 -0.166647 -0.980743 -0.10184
0.0329998 -0.0389686 0.630525 -0.143674 -0.980278 -0.135697
-0.0170455 0.0549608 0.389369 -0.563932 0.804817 -0.185071
-0.0406944 -0.0415055 0.549132 -0.906192 -0.422865 0.0012936
-0.14359 -0.00764647 0.0821609 -0.00666574 0.999861 -0.0153015
-0.00558818 0.0420873 0.0532085 -0.99792 0.0125726 -0.0632193
-0.00404321 0.0715194 0.0677724 -0.977011 0.128274 0.170277
-0.0751518 -0.0383413 0.536709 -0.082005 0.996514 -0.0153282
0.00896569 -0.0283209 0.726669 0.426466 -0.9041 0.0270257
-0.453466 -0.0520857 0.518675 -0.0235552 -0.990272 -0.137138
-0.112909 -0.0587931 0.579948 -0.0173902 -0.998778 0.0462512
0.0820562 -0.0397767 0.50075 -0.0118618 -0.990479 0.137153
-0.0112019 -0.0631836 0.405425 -0.217175 -0.975965 -0.018074
-0.0618971 -0.0483712 0.404077 -0.213003 0.971824 -0.100935
0.351566 -0.0405888 0.57992 -0.00930565 -0.983346 -0.181504
-0.0143448 0.0323558 0.45122 -0.0797496 0.553816 0.828811
0.0495588 -0.0475482 0.637589 -0.472849 -0.708759 -0.523521
0.0387281 0.0354303 0.434059 0.561759 0.55378 0.614617
-0.404291 -0.0542254 0.566992 -0.0169738 -0.999594 0.0228918
0.0184664 0.0642084 0.444571 0.551261 0.822947 -0.137368
-0.0321743 -0.0426291 0.396639 -0.213003 0.971824 -0.100935
0.0141634 -0.0144496 0.830457 0.981052 0.167867 0.0967318
-0.182801 -0.0484532 0.446804 -0.0118618 0.990479 -0.137153
-0.328175 -0.0450123 0.484226 -0.0118618 0.990479 -0.137153
0.00732765 -0.0660487 0.439864 0.16127 -0.981979 -0.0985377
0.429437 -0.0401732 0.556248 -0.00517342 -0.999867 0.0154338
-0.453454 -0.042978 0.586987 -0.0282261 0.804043 0.593901
-0.277585 -0.05264 0.492473 -0.0235431 -0.990279 -0.137087
0.216368 -0.0539601 0.491495 -0.0235431 0.990279 0.137087
0.0174331 0.0302969 0.454724 0.443774 0.888664 0.115501
0.360059 -0.04107 0.515463 -0.0118647 -0.990486 0.137103
0.0329937 -0.0633639 0.528336 -0.0820058 0.996566 0.0114959
-0.0291045 0.0252165 0.317293 -0.788731 0.591816 -0.166302
-0.181775 -0.0581301 0.555445 -0.0169714 -0.999738 -0.0153778
0.281542 -0.0527167 0.493706 -0.0235431 0.990279 0.137087
-0.0266356 0.00296169 0.669404 -0.861482 0.495199 0.112364
-0.0147651 -0.00511715 0.857362 -0.694174 0.389896 0.605065
-0.441985 -0.0464323 0.483814 -0.0118618 0.990479 -0.137153
-0.0166645 -0.0203122 0.222111 -0.808003 -0.575771 -0.124973
-0.321925 -0.0401744 0.578794 -0.00561064 0.998914 0.0462606
-0.0932828 -0.0503784 0.444484 -0.0235431 -0.990279 -0.137087
-0.012365 0.0119571 0.17932 -0.818988 0.561518 -0.118132
-0.147308 -0.0387812 0.551853 -0.00517784 0.999868 -0.0153798
0.0949766 -0.0589994 0.516165 -0.0169714 0.999738 0.0153778
-0.173864 -0.0550067 0.491756 -0.0235431 -0.990279 -0.137087
0.00230253 -0.0626674 0.685236 0.180367 -0.983522 0.0123126
0.236301 -0.0395211 0.533711 -0.00517784 -0.999868 0.0153798
-0.0125564 -0.0312522 0.592828 -0.412214 -0.902762 0.122882
-0.295043 -0.0508964 0.482876 -0.0235552 -0.990272 -0.137138
0.087995 0.0930795 0.860713 -0.645019 0.559092 0.520928
0.187082 -0.0571621 0.509597 -0.0235431 0.990279 0.137087
-0.0858964 -0.0595528 0.570403 -0.0169712 -0.999592 0.0229864
0.0292669 -0.0611417 0.443271 -0.166647 0.980743 0.10184
-0.00185925 -0.0383961 0.55123 -0.197346 -0.972598 0.122917
0.248456 -0.0394421 0.569853 -0.00518472 -0.999719 -0.0231463
-0.0446924 -0.00515804 0.59353 -0.989516 0.14122 0.0302351
-0.0386512 -0.0023649 0.684618 -0.987384 0.128703 0.092239
0.417728 -0.0473872 0.478609 -0.0235552 0.990272 0.137138
0.0187915 -0.00699736 0.108701 -0.0181375 -0.983207 -0.18159
0.0562704 -0.0406354 0.617513 -0.183191 -0.966749 -0.17843
-0.0489505 -0.00650395 0.435082 -0.971764 -0.15503 -0.177876
-0.0247146 -0.02742 0.558518 -0.763417 -0.643149 0.059607
0.000403728 -0.0143825 0.116704 -0.018127 0.983226 -0.181489
0.0920319 -0.0593233 0.575854 -0.0169712 0.999592 -0.0229864
0.0316189 0.0521786 0.475185 0.801059 0.598509 -0.00956359
-0.0367814 0.0404397 0.510754 -0.937156 0.348886 -0.00423499
-0.000102887 0.110042 0.0529335 -0.703236 0.353221 0.617004
-0.0510439 -0.0381357 0.471662 -0.195509 0.971433 -0.134516
0.0738838 -0.0603435 0.558195 -0.0820058 0.996566 0.0114959
-0.40412 -0.0466774 0.478769 -0.0118618 0.990479 -0.137153
0.0280673 0.0235244 0.470391 0.71892 0.694573 -0.0268877
-0.112535 -0.0386944 0.545784 -0.00517784 0.999868 -0.0153798
0.0318886 -0.0353559 0.480686 -0.0860662 -0.996223 0.011492
-0.0293171 0.0217171 0.556503 -0.741885 0.670209 -0.0206521
-0.345 -0.0425273 0.503631 -0.0118647 0.990486 -0.137103
-0.00877436 -0.0318959 0.446641 -0.200538 -0.963437 -0.177688
-0.0158883 -0.00324231 0.165881 -0.99105 0.106489 -0.0804961
-0.338344 -0.0546972 0.517768 -0.0235431 -0.990279 -0.137087
0.041135 -0.0256227 0.354424 0.98619 -0.0431672 -0.159891
-0.309445 -0.0545199 0.584354 -0.0209016 -0.983174 0.181472
0.460612 -0.0469435 0.482771 -0.0235552 0.990272 0.137138
0.14758 -0.0552886 0.598832 -0.0209043 0.983176 -0.181462
0.0429978 0.0111956 0.369066 0.982084 0.120103 -0.145209
0.0474344 -0.0218903 0.437291 0.977369 -0.155925 -0.142956
-0.0302939 -0.062993 0.476932 -0.0820058 -0.996566 -0.0114959
0.00580453 0.0225983 0.0154878 0.995601 -0.0509957 0.0786032
-0.118224 -0.0151861 0.0928716 -0.00838534 -0.999696 0.023186
-0.0991814 -0.0135694 0.06226 -0.0056387 -0.990537 -0.13713
-0.0044044 0.0262882 0.735516 -0.188025 0.977509 0.0955073
0.256812 -0.0404342 0.511122 -0.0118647 -0.990486 0.137103
-0.00365482 -0.0064812 0.0973447 -0.00666574 0.999861 -0.0153015
-0.0449573 -0.0284533 0.589519 -0.989576 -0.141586 0.0263348
-0.135028 -0.00928714 0.0612984 -0.00563781 0.990524 -0.137224
0.0335129 -0.0536584 0.385681 0.804797 -0.585177 0.0993456
0.00595562 0.0182436 0.806125 0.16444 0.978357 0.12561
-0.0280585 0.0321342 0.336334 -0.78556 0.591869 -0.180517
-0.038411 -0.0139556 0.0625504 -0.0056387 -0.990537 -0.13713
-0.0989623 -0.0453054 0.462285 -0.0118618 0.990479 -0.137153
0.0394649 -0.060607 0.614095 -0.143723 0.980271 -0.13569
-0.0423763 -0.00936843 0.650679 -0.986987 0.139446 0.0800696
-0.0457551 -0.0290331 0.500138 -0.98896 -0.146767 0.0204415
0.0129238 -0.0622621 0.412884 0.0731459 -0.996417 -0.0424592
0.381618 -0.0401374 0.542535 -0.00517342 -0.999867 0.0154338
0.196322 -0.0391472 0.568773 -0.00517754 -0.999722 -0.0229894
0.170993 -0.0411301 0.498668 -0.0118618 -0.990479 0.137153
-0.0227021 0.00516424 0.689855 -0.861482 0.495199 0.112364
0.0311087 0.0158958 0.66236 0.75493 0.652576 0.0650048
0.00892656 0.0470552 0.382431 0.185857 0.945713 -0.266617
-0.00807168 0.0191527 0.664487 -0.137817 0.981858 0.130236
0.378183 -0.0476157 0.473467 -0.0235552 0.990272 0.137138
-0.0226813 -0.0126475 0.246707 -0.932527 -0.338499 -0.125743
-0.072424 -0.0425168 0.609754 -0.378464 0.809712 0.448477
-0.163928 -0.0582008 0.540347 -0.0169714 -0.999738 -0.0153778
0.00501093 -0.0272426 0.416755 0.190162 -0.96762 -0.165981
0.0833041 -0.00823543 0.108963 -0.0181284 -0.983223 -0.181503
0.0348493 -0.0368351 0.457517 -0.195509 -0.971433 0.134516
0.0432512 -0.0304076 0.417498 0.93449 -0.348604 0.0721385
0.34104 -0.0553163 0.566256 -0.0169712 0.999592 -0.0229864
0.0360626 -0.00562892 0.48783 0.934502 -0.355714 -0.0131865
-0.00783054 0.029905 0.679209 -0.180212 0.982679 0.0432014
