-0.00275812 0.033194 0.558982 -0.172678 0.984452 -0.0322013
0.20737 -0.0571143 0.517646 -0.0169673 0.999738 0.0153478
0.00805638 -0.0670112 0.619062 0.173016 -0.984819 0.0140505
0.0367866 -0.00711713 0.536043 0.930683 -0.354538 -0.0901818
-0.0172561 -0.0276541 0.62293 -0.411522 -0.911008 0.0267314
-0.0251402 -0.00897481 0.827348 -0.95105 0.14196 0.274503
-0.0253365 -0.0169606 0.432316 -0.793135 -0.586078 -0.165678
-0.152127 -0.0586156 0.554285 -0.0169714 -0.999738 -0.0153778
0.0072182 -3.40492e-06 0.871967 -0.221987 0.187666 -0.956819
0.16386 -0.0444977 0.473731 -0.0118618 -0.990479 0.137153
0.235884 -0.0501532 0.601749 -0.0376976 0.803911 -0.593554
0.250101 -0.0568653 0.548621 -0.0169714 0.999738 0.0153778
-0.314874 -0.0489233 0.472035 -0.0235552 -0.990272 -0.137138
-0.000906182 -0.0258833 0.0608567 -0.893604 -0.448825 -0.0053036
0.0246714 0.0249448 0.529824 0.485624 0.873032 0.0445603
-0.132306 -0.0516214 0.460164 -0.0235431 -0.990279 -0.137087
-0.0944626 -0.0588608 0.585422 -0.0173902 -0.998778 0.0462512
-0.0313633 -0.0255465 0.310823 -0.911803 -0.35008 -0.214616
-0.0400997 -0.0391169 0.433327 -0.922351 -0.344076 -0.175726
-0.0302056 -0.00215813 0.646242 -0.979765 0.175067 0.0970199
-0.00624219 0.0596798 0.394767 -0.196433 0.957481 -0.21129
0.016396 -0.0567983 0.348056 0.203415 -0.96707 -0.152966
0.00736879 -0.0379737 0.539101 0.206738 -0.976101 -0.0669837
-0.0732161 -0.0972107 0.866421 -0.754642 0.652634 0.0677076
0.0334608 0.00219919 0.721189 0.919872 0.38577 0.0708328
0.0439582 -0.060588 0.461979 -0.166647 0.980743 0.10184
-0.00924107 0.0700399 0.527825 -0.208102 0.962895 0.171836
-0.051995 -0.0429081 0.43578 -0.213003 0.971824 -0.100935
0.0263746 -0.0528735 0.667229 0.754745 -0.652416 0.0686565
-0.18733 -0.0578234 0.570718 -0.0169712 -0.999592 0.0229864
0.0319892 0.00662884 0.612207 0.870718 0.478895 0.111848
-0.35532 -0.0509556 0.493657 -0.0235552 -0.990272 -0.137138
-0.0398883 0.0245329 0.462695 -0.992818 0.119613 -0.00235438
-0.377542 -0.0544828 0.573527 -0.0173902 -0.998778 0.0462537
0.29172 -0.0558298 0.52722 -0.0169673 0.999738 0.0153478
0.400845 -0.0539333 0.52433 -0.0169673 0.999738 0.0153478
-0.00530858 0.0162551 0.0268892 -0.996295 -0.0487767 -0.0708293
0.00936651 -0.0305874 0.642172 0.138963 -0.990084 0.0205703
-0.340824 -0.0535321 0.509778 -0.0235431 -0.990279 -0.137087
0.0394669 0.00820703 0.482002 0.993058 -0.117509 -0.0052689
0.00663826 -0.029153 0.729646 0.138963 -0.990084 0.0205703
-0.0265875 -0.0424073 0.743311 -0.735096 -0.666116 0.126186
-0.189338 -0.0523834 0.475464 -0.0235431 -0.990279 -0.137087
-0.0122574 0.0316961 0.456208 -0.142514 0.989683 0.0147156
-0.00451031 0.0818944 0.0522802 -0.998929 0.0404873 -0.022396
-0.0536632 -0.0538986 0.413931 -0.277972 -0.951515 -0.131721
-0.0153112 0.0200841 0.315385 -0.889527 0.41529 -0.190464
-0.0335724 0.0104061 0.413348 -0.981977 -0.125339 -0.141458
-0.0374373 0.0053125 0.568024 -0.942193 0.166613 0.290709
0.201947 -0.0577618 0.553762 -0.0169714 0.999738 0.0153778
-0.194274 -0.0521841 0.474872 -0.0235431 -0.990279 -0.137087
0.103729 -0.0577183 0.59072 -0.0209016 0.983174 -0.181472
0.30599 -0.0491508 0.472152 -0.0235552 0.990272 0.137138
0.295381 -0.0558166 0.53041 -0.0169673 0.999738 0.0153478
-0.0061407 0.0661661 0.539519 -0.170666 0.841831 0.512048
-0.0186709 -0.00596988 0.769826 -0.981081 0.167872 0.0964334
0.362949 -0.0432812 0.499739 -0.0118647 -0.990486 0.137103
0.008449 0.0327195 0.504527 0.166469 0.985198 0.0408903
-0.0183614 -0.030464 0.496347 -0.571591 -0.81955 -0.040272
-0.00890022 -0.0273999 0.421909 -0.206648 -0.964185 -0.166266
-0.128897 -0.0385935 0.557847 -0.00517342 0.999867 -0.0154338
0.195508 -0.0458564 0.466656 -0.0118618 -0.990479 0.137153
-0.468391 -0.0529107 0.532392 -0.0169673 -0.999738 -0.0153478
0.0311945 -0.00732727 0.632886 0.981443 -0.175367 0.0775684
0.0395872 0.00808949 0.503991 0.993349 -0.11496 -0.00641012
-0.014916 0.0219883 0.744025 -0.48814 0.867894 0.0920804
0.0055724 0.0244262 0.0270005 0.997355 -0.0151788 -0.0710825
-0.036494 -0.0211379 0.32543 -0.911803 -0.35008 -0.214616
-0.345507 -0.0468957 0.472124 -0.0118618 0.990479 -0.137153
0.0209565 0.0166584 0.756729 0.769648 0.633484 0.0796297
0.00366815 -0.0307024 0.43414 0.206227 -0.962221 -0.177766
0.0474893 -0.0616509 0.59581 -0.0911709 0.995236 -0.0345282
-0.0162908 -0.0200694 0.779876 -0.865634 -0.49743 0.0569287
0.190995 -0.0566931 0.50688 -0.0235431 0.990279 0.137087
0.0363144 -0.0320961 0.703419 0.912568 -0.401946 0.0752322
-0.0259791 -0.00689796 0.0798131 -0.00667006 0.999861 -0.0152745
-0.0781704 -0.0126996 0.113321 -0.0483457 -0.803638 0.593151
0.0495627 -0.0364771 0.515853 -0.0860662 -0.996223 0.011492
-0.420648 -0.0401275 0.560882 -0.00517754 0.999722 0.0229894
0.00420496 -0.0321627 0.601221 0.138963 -0.990084 0.0205703
0.0644717 -0.0607254 0.578113 -0.0839931 0.996318 -0.0171961
-0.0394829 -0.0567084 0.417295 -0.166647 -0.980743 -0.10184
0.00799146 0.0326629 0.570509 0.172682 0.984475 -0.031472
0.0393737 -0.0624418 0.493912 -0.0820058 0.996566 0.0114959
-0.160028 -0.0513826 0.604902 -0.0376976 -0.803911 0.593554
-0.00295315 -0.00952086 0.633427 0 1 0
-0.00964527 -0.00664875 0.315146 -0.478647 -0.861227 -0.170834
-0.241372 -0.0570232 0.565614 -0.0169712 -0.999592 0.0229864
-0.0262514 -0.0425656 0.744433 -0.735096 -0.666116 0.126186
0.0166813 -0.0185772 0.217312 0.942509 -0.329143 -0.0578011
0.0295602 0.0120465 0.290176 0.920824 0.351909 -0.168058
0.0164067 -0.065286 0.582274 0.491273 -0.871006 9.62398e-05
-0.00669366 -0.0288455 0.194207 -0.599942 -0.79868 -0.0466866
0.0402468 -0.060181 0.616344 -0.143723 0.980271 -0.13569
0.296357 -0.0556169 0.518482 -0.0169673 0.999738 0.0153478
-0.0191983 -0.0484564 0.752569 -0.484336 -0.861131 0.154509
0.0384698 -0.0332422 0.353238 0.911243 -0.349865 -0.217329
0.0153157 -0.0190203 0.802726 0.865618 -0.497421 0.0572466
0.355184 -0.0504374 0.489892 -0.0235552 0.990272 0.137138
0.175515 -0.0582594 0.556942 -0.0169714 0.999738 0.0153778
-0.00296401 0.0692632 0.0722988 -0.902966 0.232725 0.361237
-0.122471 -0.0401168 0.501789 -0.0118618 0.990479 -0.137153
0.0299053 -0.0342883 0.756562 0.90289 -0.416787 0.10525
0.0505812 -0.0622142 0.554132 -0.0820058 0.996566 0.0114959
0.343389 -0.0421803 0.505999 -0.0118647 -0.990486 0.137103
0.463909 -0.0485995 0.495295 -0.0235552 0.990272 0.137138
0.147084 -0.0391382 0.577624 -0.00561051 -0.998914 -0.0462574
0.309274 -0.055486 0.524233 -0.0169673 0.999738 0.0153478
0.0288146 0.0561782 0.490594 0.801059 0.598509 -0.00956359
-0.119524 -0.00800126 0.0699433 -0.00563781 0.990524 -0.137224
0.0981493 -0.00880435 0.0632683 -0.00563781 -0.990524 0.137224
-0.361025 -0.0547139 0.531151 -0.0169673 -0.999738 -0.0153478
0.0302803 0.0231932 0.396488 0.977916 0.124849 -0.167608
0.0346654 -0.0440779 0.644436 -0.378464 -0.809712 -0.448477
-0.452306 -0.0496038 0.500554 -0.0235552 -0.990272 -0.137138
0.413418 -0.0481268 0.48321 -0.0235552 0.990272 0.137138
0.00270753 -0.00542621 0.87195 -0.221987 0.187666 -0.956819
0.360204 -0.039873 0.563424 -0.00517754 -0.999722 -0.0229894
-0.0398309 -0.0356246 0.51687 -0.0860662 0.996223 -0.011492
0.323495 -0.0557288 0.55574 -0.0169714 0.999738 0.0153778
-0.0289191 -0.0205214 0.511477 -0.806959 -0.58957 -0.0349827
-0.205896 -0.0507651 0.602825 -0.0376976 -0.803911 0.593554
0.0385967 -0.06229 0.60087 -0.0911709 0.995236 -0.0345282
-0.0149126 0.0137025 0.205278 -0.818988 0.561518 -0.118132
-0.0104243 -0.0652144 0.482979 -0.166564 -0.985805 -0.0210916
-0.00411898 0.0480299 0.560676 -0.118728 0.693469 0.710636
0.301313 -0.0554725 0.517009 -0.0235431 0.990279 0.137087
-0.0489667 -0.0606331 0.87101 0.585121 -0.509782 -0.630679
0.344808 -0.0417698 0.586672 -0.00929976 -0.983348 -0.181493
-0.160511 -0.0581043 0.530302 -0.0169714 -0.999738 -0.0153778
0.128591 -0.053796 0.475236 -0.0235431 0.990279 0.137087
-0.0344677 0.0461816 0.518777 -0.936599 0.34975 0.0213822
-0.0812923 -0.0399362 0.59024 -0.00930565 0.983346 0.181504
0.218596 -0.0459004 0.468335 -0.0118618 -0.990479 0.137153
-0.462202 -0.0403832 0.553621 -0.00517342 0.999867 -0.0154338
0.0236842 0.0266499 0.580708 0.490966 0.870782 -0.0262917
-0.459038 -0.0405162 0.569071 -0.00518472 0.999719 0.0231463
-0.0456995 -0.0109977 0.557198 -0.989628 0.143591 -0.00424001
0.0274913 0.0352986 0.344596 0.786113 0.592286 -0.176703
0.0414891 -0.024882 0.658158 0.986821 -0.139397 0.0821779
0.360651 -0.0486621 0.478012 -0.0235552 0.990272 0.137138
0.00751824 -0.0594865 0.359544 0.0728972 -0.993029 -0.092621
0.00495959 0.0763375 0.0273851 0.997343 0.0395618 -0.0611765
0.0509445 -0.0398956 0.458807 -0.195509 -0.971433 0.134516
-0.0370045 -0.00323245 0.487243 -0.937085 -0.34886 -0.0129964
0.397219 -0.040404 0.574619 -0.00561064 -0.998914 -0.0462606
0.0406138 0.0184293 0.469121 0.992812 -0.119611 -0.00413008
0.0351563 -0.00859835 0.500573 0.93704 -0.348843 -0.0162357
-0.424216 -0.0420449 0.584093 -0.00931146 0.983312 0.181688
0.00403969 0.0874438 0.0217865 0.991814 0.0772126 0.101698
0.0869115 -0.038753 0.53335 -0.00517784 -0.999868 0.0153798
0.0183111 0.0190456 0.751306 0.48846 0.868463 0.0847255
-0.114838 -0.0589755 0.53653 -0.0169714 -0.999738 -0.0153778
-0.359504 -0.0515213 0.49846 -0.0235552 -0.990272 -0.137138
0.00766692 -0.027812 0.764189 0.426466 -0.9041 0.0270257
-0.0282117 -0.0108554 0.662754 -0.981452 -0.175369 0.0774437
-0.0974851 -0.00729426 0.0986761 -0.00840739 0.999696 0.0231761
-0.351317 -0.0400001 0.541272 -0.00517342 0.999867 -0.0154338
-0.119142 -0.0546383 0.479697 -0.0235431 -0.990279 -0.137087
0.283132 -0.0544963 0.587512 -0.0209016 0.983174 -0.181472
0.0483393 0.00610421 0.42749 0.991136 0.114151 -0.0679642
0.295056 -0.052321 0.595055 -0.0376976 0.803912 -0.593552
-0.00366751 -0.0682903 0.571077 -0.170358 -0.985382 -0.00039027
0.0361787 0.0144087 0.56374 0.741916 0.670237 -0.0185156
-0.000467488 -0.0158207 0.0817246 -0.0066616 -0.999859 -0.0153885
-0.00245692 0.0719717 0.464059 -0.207204 0.977511 -0.0392398
-0.248023 -0.0393449 0.565724 -0.00517754 0.999722 0.0229894
0.151117 -0.0584023 0.539304 -0.0169714 0.999738 0.0153778
0.0283091 -0.0208721 0.501988 0.807096 -0.58967 -0.0297366
-0.21907 -0.0394393 0.575395 -0.00561051 0.998914 0.0462574
0.234633 -0.0397255 0.519858 -0.00517784 -0.999868 0.0153798
0.00365686 0.0171022 0.818021 0.160057 0.952279 0.259896
-0.029953 -0.002854 0.409287 -0.917457 -0.376852 -0.127497
0.171792 -0.0520343 0.469929 -0.0235431 0.990279 0.137087
0.220962 -0.0538456 0.491457 -0.0235431 0.990279 0.137087
-0.0401803 0.0165997 0.544866 -0.98065 0.121333 0.153634
-0.0047668 -0.0622414 0.683719 -0.180374 -0.983558 0.00883686
0.330138 -0.0480752 0.468532 -0.0235552 0.990272 0.137138
0.0222199 0.0140256 0.255976 0.925516 0.336049 -0.174616
-0.0413156 -0.0370539 0.608663 -0.1359 0.981343 0.136003
0.286871 -0.0545501 0.58679 -0.0209016 0.983174 -0.181472
-0.032555 0.021219 0.566561 -0.683973 0.388983 0.617149
0.432175 -0.0536938 0.543364 -0.0169673 0.999738 0.0153478
0.18193 -0.0576168 0.522244 -0.0169714 0.999738 0.0153778
0.0969206 -0.0385731 0.548417 -0.00517784 -0.999868 0.0153798
0.0114245 0.0670362 0.432643 0.202132 0.970574 -0.130879
-0.0340311 -0.0119261 0.760783 -0.989362 0.128961 0.0673206
-0.282067 -0.0398934 0.577561 -0.00561051 0.998914 0.0462574
-0.00778396 0.0429114 0.444798 -0.0797496 0.553816 0.828811
0.376163 -0.0402824 0.531304 -0.00517784 -0.999868 0.0153798
0.0491967 -0.0124604 0.116007 -0.0483457 0.803638 -0.593151
0.0328722 -0.035167 0.504423 -0.0860662 -0.996223 0.011492
-0.0360816 0.0423111 0.510071 -0.937156 0.348886 -0.00423499
-0.060227 -0.00703539 0.101026 -0.00840739 0.999696 0.0231761
0.110347 -0.0552328 0.482482 -0.0235431 0.990279 0.137087
0.0367131 0.00542252 0.670555 0.912605 0.401963 0.0746854
0.00797648 0.0234815 0.631981 0.137819 0.981872 0.130127
-0.00651999 0.0257854 0.616125 -0.137817 0.981858 0.130236
0.0663982 -0.0374879 0.570261 -0.0856334 -0.996063 -0.0229053
-0.00601056 -0.0199101 0.0959292 -0.962398 -0.270048 -0.0294017
-0.0144764 0.0380372 0.308042 -0.552111 0.8166 -0.16834
0.181941 -0.0482078 0.448502 -0.0118618 -0.990479 0.137153
-0.0198805 0.0285069 0.571972 -0.490943 0.87074 -0.0280405
0.252965 -0.0393361 0.551322 -0.00517342 -0.999867 0.0154338
0.178793 -0.0582069 0.557146 -0.0169714 0.999738 0.0153778
-0.0209519 0.0148931 0.646089 -0.658401 0.74265 0.122392
0.0355054 0.0438258 0.495947 0.937164 0.348889 -0.000995046
0.135526 -0.0481137 0.445167 -0.0118618 -0.990479 0.137153
-0.382022 -0.0423803 0.588071 -0.00931146 0.983312 0.181688
-0.217642 -0.0446109 0.477565 -0.0118618 0.990479 -0.137153
0.0880245 -0.0592118 0.522301 -0.0169714 0.999738 0.0153778
0.0564028 -0.0617207 0.562141 -0.0819599 0.996372 -0.0229124
-0.22142 -0.0411914 0.502588 -0.0118647 0.990486 -0.137103
-0.0118083 -0.0285281 0.432475 -0.559454 -0.811338 -0.169536
-0.00868413 -0.0347271 0.613215 0 0 -1
0.0305215 -0.0548658 0.612325 0.742842 -0.669212 0.0184741
0.242539 -0.0478508 0.45632 -0.0118618 -0.990479 0.137153
0.180727 -0.0579395 0.541896 -0.0169714 0.999738 0.0153778
-0.332113 -0.0454683 0.481274 -0.0118618 0.990479 -0.137153
-0.0292173 0.0549951 0.523154 -0.805945 0.590653 0.0397682
-0.0150614 0.031329 0.484083 -0.477595 0.878264 -0.023554
-0.0630382 -0.0558742 0.447986 -0.277972 -0.951515 -0.131721
-0.0251231 -0.00829306 0.115086 -0.0181284 0.983223 0.181503
-0.0979786 -0.0558827 0.485052 -0.0235431 -0.990279 -0.137087
-0.00562305 0.0755807 0.0128078 -0.991743 0.0508112 0.117748
-0.0302111 -0.0194741 0.523232 -0.806053 -0.590704 -0.0367189
0.243235 -0.0566371 0.577505 -0.0173902 0.998778 -0.0462512
-0.0153655 -0.0590529 0.687596 -0.507531 -0.861381 0.0208716
0.139199 -0.00850359 0.0671258 -0.00563781 -0.990524 0.137224
-0.0285499 -0.0527062 0.645876 -0.744448 -0.664133 0.0687372
0.38132 -0.0534368 0.516044 -0.0235431 0.990279 0.137087
0.0189928 -0.000633188 0.207592 0.990929 0.107568 -0.080552
0.0343874 -0.0253596 0.742796 0.986615 -0.141621 0.0808333
-0.0249646 0.0350913 0.332566 -0.78556 0.591869 -0.180517
-0.0447163 0.0102604 0.382899 -0.990281 0.121106 -0.068393
-0.0295307 0.0506749 0.436516 -0.795668 0.587934 -0.145757
0.0352201 -0.0156284 0.0842758 -0.0066616 0.999859 0.0153885
0.0354988 -0.0174183 0.742165 0.988605 -0.128862 0.0778135
0.181161 -0.0575925 0.580214 -0.0173902 0.998778 -0.0462512
-0.0234625 0.0443432 0.409579 -0.723933 0.583475 -0.368072
0.0060418 0.0406623 0.00615103 0.995517 -0.0158657 -0.0932404
0.45944 -0.0410994 0.523851 -0.0118647 -0.990486 0.137103
0.0132851 -0.0242353 0.770135 0.679155 -0.732907 0.0399615
-0.0720713 -0.0958543 0.866106 -0.754642 0.652634 0.0677076
0.102803 -0.0446299 0.467496 -0.0118618 -0.990479 0.137153
-0.0178415 0.0486188 0.364122 -0.540032 0.818456 -0.1962
0.267687 -0.056309 0.531869 -0.0169714 0.999738 0.0153778
0.00492312 0.0308514 0.670378 0.180195 0.982585 0.0453567
-0.114729 -0.0440453 0.472749 -0.0118618 0.990479 -0.137153
0.0211324 0.0598047 0.429294 0.374608 0.534623 0.757527
-0.0818826 -0.0593612 0.579345 -0.0173902 -0.998778 0.0462512
0.000719919 0.0500002 0.345508 0.201278 0.956908 -0.209317
0.0142474 -0.0257754 0.725534 0.679155 -0.732907 0.0399615
-0.127083 -0.0587382 0.575417 -0.0169712 -0.999592 0.0229864
-0.128783 -0.038945 0.534967 -0.00517784 0.999868 -0.0153798
0.0454663 -0.0145093 0.611924 0.989512 0.141219 0.0303928
-0.135789 -0.0482459 0.444235 -0.0118618 0.990479 -0.137153
-0.0346168 0.0475825 0.427976 -0.800619 0.582129 -0.141901
-0.0697875 -0.0408485 0.479313 -0.195509 0.971433 -0.134516
-0.454505 -0.0415691 0.579961 -0.0092858 0.983419 0.181112
0.174803 -0.0415379 0.594127 -0.00929976 -0.983348 -0.181493
-0.15368 -0.0580148 0.51694 -0.0169714 -0.999738 -0.0153778
0.193776 -0.057709 0.541313 -0.0169714 0.999738 0.0153778
-0.00446682 -0.00744659 0.0424894 -0.993816 -0.0955118 0.056634
-0.00953427 -0.0158132 0.0851661 -0.0066616 -0.999859 -0.0153885
-0.431235 -0.0495232 0.496353 -0.0235552 -0.990272 -0.137138
-0.212275 -0.0491738 0.456221 -0.0235552 -0.990272 -0.137138
-0.0289402 -0.0443644 0.373106 -0.213003 0.971824 -0.100935
0.343562 -0.055412 0.557288 -0.0169714 0.999738 0.0153778
0.150456 -0.0504059 0.454502 -0.0235431 0.990279 0.137087
0.0367139 -0.00551215 0.519817 0.936567 -0.349736 -0.0229469
-0.122614 -0.0389914 0.577422 -0.00561051 0.998914 0.0462574
-0.00767167 0.0494179 0.390023 -0.185794 0.94539 -0.267802
0.0313765 -0.00934863 0.292095 0.974484 -0.115785 -0.192289
-0.0913917 -0.0151704 0.0788516 -0.00666867 -0.999858 -0.0154545
-0.00500678 -0.0658788 0.633572 -0.171796 -0.977876 0.119353
0.0422711 0.0147392 0.367019 0.9826 0.117281 -0.144023
-0.0461686 0.0220926 0.424752 -0.926276 0.364395 -0.0960662
-0.209059 -0.0572583 0.52888 -0.0169714 -0.999738 -0.0153778
0.159312 -0.0578598 0.582655 -0.0173902 0.998778 -0.0462512
-0.146644 -0.0474296 0.451069 -0.0118618 0.990479 -0.137153
-0.0366587 0.0404354 0.516645 -0.936975 0.348819 0.0200621
-0.0846435 0.0875452 0.860582 0.644979 0.559059 0.521014
-0.126118 -0.0110165 0.111032 -0.0483445 0.803649 0.593137
-0.0410944 0.00758247 0.476671 -0.902347 0.43089 -0.0101938
0.0671133 -0.0591957 0.486462 -0.166647 0.980743 0.10184
0.322457 -0.0483631 0.469292 -0.0235552 0.990272 0.137138
0.136808 -0.0559834 0.492448 -0.0235431 0.990279 0.137087
-0.112179 -0.0563086 0.490567 -0.0235431 -0.990279 -0.137087
-0.171245 -0.0470394 0.456015 -0.0118618 0.990479 -0.137153
-0.0704527 -0.00719769 0.0796137 -0.00667006 0.999861 -0.0152745
-0.0220706 0.0204751 0.715047 -0.524476 0.8472 0.0847204
0.0204962 -0.0370245 0.871124 0.587535 0.505316 -0.632028
0.0259614 -0.0280179 0.805719 0.891275 -0.427889 0.150131
0.0262749 0.0168812 0.282634 0.918827 0.351146 -0.180151
0.0287444 0.0136098 0.706176 0.769206 0.63312 0.0864933
0.00470758 -0.065679 0.432909 0.21525 -0.967318 -0.13403
-0.189631 -0.0528288 0.478732 -0.0235431 -0.990279 -0.137087
0.0316803 0.0400785 0.379091 0.783078 0.604628 -0.145654
0.0484998 -0.0703847 0.866032 0.75464 0.652634 0.0677274
0.00145251 0.0211547 0.789679 0.170657 0.977079 0.127249
0.0348691 -0.0129577 0.539804 0.927154 -0.369019 -0.064893
0.252881 -0.0443696 0.482356 -0.0118618 -0.990479 0.137153
0.0359054 -0.00832125 0.72589 0.989222 0.128943 0.0693868
0.299767 -0.0560664 0.551501 -0.0169714 0.999738 0.0153778
0.210197 -0.0542249 0.492348 -0.0235431 0.990279 0.137087
-0.0421253 -0.0155973 0.0852448 -0.0066616 -0.999859 -0.0153885
-0.205994 -0.0392264 0.57004 -0.00517754 0.999722 0.0229894
-0.0107824 -0.0238627 0.173051 -0.82652 -0.560603 -0.050878
0.300758 -0.0436635 0.491595 -0.0118618 -0.990479 0.137153
-0.239895 -0.0567292 0.528513 -0.0169714 -0.999738 -0.0153778
-0.19397 -0.0576128 0.535271 -0.0169714 -0.999738 -0.0153778
0.0214008 -0.0204445 0.698637 0.874594 -0.481405 0.0577486
-0.124293 -0.0393381 0.584705 -0.00561064 0.998914 0.0462606
0.0455179 -0.0163527 0.618807 0.989512 0.141219 0.0303928
-0.241501 -0.0411914 0.504326 -0.0118647 0.990486 -0.137103
0.459404 -0.052405 0.522001 -0.0235552 0.990272 0.137138
0.104696 -0.0393152 0.506042 -0.0118647 -0.990486 0.137103
-0.0352976 0.0415278 0.446723 -0.922291 0.357402 -0.147117
-0.00719499 0.0330755 0.486101 -0.166603 0.985993 -0.00781655
-0.0334962 0.0255355 0.340576 -0.918591 0.361371 -0.160004
-0.0371296 -0.00315607 0.494216 -0.937085 -0.34886 -0.0129964
0.01587 -0.0249955 0.238059 0.808391 -0.576048 -0.121131
-0.0536862 -0.00706125 0.0812232 -0.00667006 0.999861 -0.0152745
-0.0820057 -0.0110675 0.0462676 -0.00563981 0.990526 -0.137212
0.123125 -0.012739 0.057245 -0.00563587 0.990539 0.137116
0.00639627 0.0599084 0.547769 0.149331 0.736593 0.659645
-0.0140189 -0.0584209 0.715669 -0.519678 -0.839462 0.158865
-0.0385473 -0.00180781 0.684952 -0.987384 0.128703 0.092239
0.0248845 -0.0245959 0.482885 0.807096 -0.58967 -0.0297366
-0.030015 -0.00815395 0.425431 -0.930083 -0.350231 -0.110831
-0.432301 -0.0443706 0.49787 -0.0118647 0.990486 -0.137103
0.109723 -0.0518356 0.457834 -0.0235431 0.990279 0.137087
0.0380055 -0.00156882 0.512942 0.936891 -0.348788 -0.0241455
0.0375947 0.0382419 0.505852 0.937164 0.348889 -0.000995046
0.0295313 -0.0635219 0.586753 -0.0839931 0.996318 -0.0171961
-0.0118047 0.035007 0.568109 -0.216148 0.473532 0.853842
0.0426916 -0.0484816 0.645056 -0.472849 -0.708759 -0.523521
0.00282335 0.0549209 0.370002 0.196459 0.957608 -0.210692
-0.0943555 -0.0386668 0.570845 -0.00517754 0.999722 0.0229894
-0.0269921 0.0581511 0.468091 -0.800933 0.598416 -0.0201237
-0.00154267 -0.0113569 0.324748 -0.167829 -0.969985 -0.175962
-0.0808773 -0.0566204 0.487444 -0.0235431 -0.990279 -0.137087
0.104665 -0.0385681 0.564232 -0.00517754 -0.999722 -0.0229894
0.00211394 0.10525 0.0216433 0.985534 0.150595 0.0777384
-0.0323813 0.0162418 0.403597 -0.97774 0.124826 -0.168649
0.0730017 -0.0987713 0.866563 0.75464 0.652634 0.0677274
-0.163718 -0.0580602 0.57667 -0.0173902 -0.998778 0.0462512
-0.247816 -0.0458573 0.471174 -0.0118618 0.990479 -0.137153
0.262607 -0.0393554 0.553304 -0.00517342 -0.999867 0.0154338
0.0107942 0.0405249 0.364168 0.517917 0.819311 -0.245948
-0.122388 -0.0570393 0.592249 -0.0209016 -0.983174 0.181472
-0.0333415 0.0156582 0.629067 -0.742595 0.66899 0.0317027
0.0615192 -0.0795799 0.861624 -0.645544 -0.558076 0.521368
0.350794 -0.045712 0.481129 -0.0118618 -0.990479 0.137153
-0.0129386 -0.0124707 0.354722 -0.526979 -0.833647 -0.165308
-0.128157 -0.0584484 0.516961 -0.0169714 -0.999738 -0.0153778
-0.00538748 0.0260415 0.736105 -0.188025 0.977509 0.0955073
0.042883 0.00167133 0.566073 0.908321 0.41814 -0.0105938
0.025822 0.0247617 0.600755 0.491766 0.869807 0.0400282
0.127389 -0.0110323 0.0483872 -0.00563981 -0.990526 0.137212
0.156939 -0.0390265 0.539143 -0.00517784 -0.999868 0.0153798
0.0453377 -0.0473149 0.379302 -0.213003 -0.971824 0.100935
-0.238806 -0.0393868 0.569622 -0.00517754 0.999722 0.0229894
0.0196582 0.0282864 0.466766 0.486723 0.873234 -0.0237322
0.157765 -0.00884824 0.0654007 -0.00563781 -0.990524 0.137224
0.156083 -0.0581104 0.525808 -0.0169714 0.999738 0.0153778
-0.043511 -0.0360672 0.50606 -0.0860662 0.996223 -0.011492
-0.00973068 0.00915413 0.147757 -0.821799 0.557398 -0.118124
-0.337376 -0.0396789 0.560125 -0.00517754 0.999722 0.0229894
-0.319972 -0.0447415 0.485472 -0.0118618 0.990479 -0.137153
0.0372793 -0.0578977 0.635454 -0.151593 0.979106 -0.13554
0.0135009 -0.0661895 0.609682 0.17275 -0.984864 0.014158
-0.000142513 0.0727172 0.470409 -0.207204 0.977511 -0.0392398
-0.0379676 0.0337683 0.446919 -0.980576 0.118138 -0.156571
-0.170609 -0.0583024 0.554323 -0.0169714 -0.999738 -0.0153778
-0.00746166 -0.0586069 0.357297 -0.0726319 -0.989415 -0.125629
0.016571 -0.0587446 0.678128 0.506674 -0.859926 0.0617135
-0.363422 -0.0545186 0.521081 -0.0169673 -0.999738 -0.0153478
-0.096498 -0.0432389 0.476996 -0.0118618 0.990479 -0.137153
-0.044793 -0.0312837 0.530468 -0.9894 -0.143534 0.022025
0.197403 -0.0575861 0.537322 -0.0169714 0.999738 0.0153778
-0.332755 -0.0445072 0.48827 -0.0118618 0.990479 -0.137153
-0.0641401 -0.0154751 0.0868365 -0.0066616 -0.999859 -0.0153885
0.00482551 -0.0130957 0.0717745 0.981808 -0.128899 -0.139419
-0.0147331 0.0607445 0.407486 -0.196433 0.957481 -0.21129
0.0863361 -0.00819096 0.108419 -0.0181284 -0.983223 -0.181503
-0.016429 -0.0218935 0.761419 -0.679128 -0.732878 0.0409306
-0.380937 -0.0546884 0.564092 -0.0169738 -0.999594 0.0228918
0.0120212 -0.0206574 0.393373 0.526689 -0.833188 -0.168514
-0.0128707 -0.0305061 0.248637 -0.577168 -0.806824 -0.126143
0.0610356 -0.0412603 0.616006 -0.183191 -0.966749 -0.17843
0.224117 -0.0483937 0.604879 -0.0376976 0.803911 -0.593554
0.0423154 0.0085311 0.455023 0.85929 0.416952 0.296264
0.0387569 0.0308073 0.53931 0.918652 0.365635 0.149631
-0.367493 -0.0546009 0.53094 -0.0169673 -0.999738 -0.0153478
-0.211897 -0.0507177 0.467305 -0.0235431 -0.990279 -0.137087
0.402688 -0.0536641 0.578252 -0.0209026 0.983158 -0.181558
-0.0236419 -0.0538285 0.692021 -0.755826 -0.653351 0.04312
-0.035963 -0.0476588 0.356207 -0.213003 0.971824 -0.100935
0.0276391 0.00709651 0.770121 0.919872 0.38577 0.0708328
0.00463472 0.0310975 0.248675 0.213679 0.960691 -0.177242
-0.212423 -0.0391192 0.551782 -0.00517342 0.999867 -0.0154338
0.0375982 -0.0492221 0.447799 0.699876 -0.689938 -0.18482
-0.00258744 -0.0111579 0.0423507 -0.00563981 0.990526 -0.137212
-0.0407102 -0.041174 0.463499 -0.887078 -0.461424 -0.0134428
0.0740987 -0.0387057 0.586854 -0.0962942 -0.994287 -0.0460432
-0.224668 -0.0394065 0.537242 -0.00517784 0.999868 -0.0153798
0.299844 -0.0538826 0.505272 -0.0235431 0.990279 0.137087
-0.139998 -0.0427631 0.601594 -0.0282261 0.804043 0.593901
-0.205053 -0.0571416 0.516862 -0.0169673 -0.999738 -0.0153478
0.340597 -0.0436847 0.494889 -0.0118647 -0.990486 0.137103
0.018469 -0.000232107 0.201685 0.990929 0.107568 -0.080552
0.00468896 0.0473671 0.561192 0.120054 0.701214 0.702771
-0.17997 -0.0388476 0.559426 -0.00517754 0.999722 0.0229894
-0.038413 -0.00414084 0.541326 -0.92504 -0.368178 -0.0935224
-0.0364549 -0.00676905 0.0980838 -0.0083656 0.999707 0.0227374
0.0214246 -0.02407 0.442246 0.558716 -0.810267 -0.176927
0.0536447 -0.0457128 0.412257 -0.213003 -0.971824 0.100935
-0.275614 -0.0565447 0.561128 -0.0169738 -0.999594 0.0228918
0.293808 -0.0440934 0.48789 -0.0118618 -0.990479 0.137153
-0.0451851 -0.00756203 0.553336 -0.989907 0.141633 -0.00485065
0.0345827 -0.0353064 0.593036 -0.0890282 -0.995436 -0.034368
-0.0400642 -0.000615662 0.662002 -0.907859 0.412622 0.0744028
0.351199 -0.0417187 0.586068 -0.00929976 -0.983348 -0.181493
-0.0431575 -0.0354125 0.555946 -0.082005 0.996514 -0.0153282
0.0127156 -0.0264137 0.733592 0.411519 -0.911 0.0270304
0.0459447 -0.0261733 0.510658 0.98893 -0.146762 0.0218734
0.306688 -0.0439793 0.595318 -0.0282261 -0.804043 -0.593901
-0.00963674 -0.0165415 0.866338 -0.771308 -0.433216 0.46627
0.0116667 -0.0355115 0.512867 0.211581 -0.975849 -0.0543314
-0.0457406 -0.000844204 0.378067 -0.990281 0.121106 -0.068393
0.00471384 0.0100997 0.844653 0.143437 0.964656 0.221052
-0.023967 0.0554787 0.542688 -0.512085 0.751334 0.416252
0.0306778 -0.0551735 0.517662 0.737317 -0.675324 -0.0173345
0.257872 -0.0397619 0.577655 -0.00561051 -0.998914 -0.0462574
0.00660845 -0.0181776 0.367951 0.167901 -0.970404 -0.173566
0.442229 -0.0490856 0.495082 -0.0235552 0.990272 0.137138
0.0502787 -0.0704191 0.871856 0.221995 0.187669 -0.956817
-0.256697 -0.0568849 0.55718 -0.0169714 -0.999738 -0.0153778
-0.00660922 -0.00422084 0.867321 -0.388015 0.49291 0.778771
-0.0512374 -0.0367278 0.506664 -0.0860662 0.996223 -0.011492
0.127129 -0.0560563 0.597028 -0.0209043 0.983176 -0.181462
-0.364715 -0.039796 0.558991 -0.00517342 0.999867 -0.0154338
0.196106 -0.0532833 0.483127 -0.0235431 0.990279 0.137087
0.12517 -0.0389234 0.535151 -0.00517784 -0.999868 0.0153798
0.154356 -0.0564195 0.498612 -0.0235431 0.990279 0.137087
-0.309723 -0.0397858 0.541214 -0.00517342 0.999867 -0.0154338
0.0271581 0.0570672 0.528125 0.801223 0.591553 0.0900425
0.00996113 -0.0510464 0.766712 0.186027 -0.967076 0.173659
0.0181677 -0.0642733 0.533478 0.485827 -0.873384 -0.0342392
0.318262 -0.0402678 0.517641 -0.0118647 -0.990486 0.137103
-0.0133377 -0.0162433 0.860492 -0.771308 -0.433216 0.46627
-0.00303813 0.030815 0.678503 -0.180212 0.982679 0.0432014
0.0419499 -0.00500175 0.648386 0.987124 0.139465 0.0783323
-0.21444 -0.0517565 0.475246 -0.0235431 -0.990279 -0.137087
0.0617453 -0.0153942 0.0805414 -0.0066616 0.999859 0.0153885
-0.412896 -0.0430039 0.506064 -0.0118647 0.990486 -0.137103
-0.209666 -0.0473167 0.457335 -0.0118618 0.990479 -0.137153
-0.0100666 -0.065232 0.631553 -0.173536 -0.977453 0.120293
0.470865 -0.0437476 0.505708 -0.0118647 -0.990486 0.137103
-0.0304773 -0.0143161 0.614434 -0.865634 -0.49743 0.0569287
-0.0186301 -0.0114066 0.854437 -0.807079 -0.140862 0.573394
-0.00727335 -0.0676491 0.534772 -0.170208 -0.984516 -0.0419161
0.000410246 -0.000910468 0.824044 0.137819 0.981872 0.130127
0.0263595 -0.00801198 0.692513 0.981443 -0.175367 0.0775684
0.104961 -0.0386644 0.568352 -0.00517754 -0.999722 -0.0229894
-0.207605 -0.0572756 0.5284 -0.0169714 -0.999738 -0.0153778
-0.0122637 0.0307738 0.626256 -0.173218 0.984857 0.00728296
0.0254402 0.0606521 0.487944 0.801059 0.598509 -0.00956359
0.10726 -0.0387586 0.571932 -0.00517754 -0.999722 -0.0229894
-0.227517 -0.0395871 0.526462 -0.00517784 0.999868 -0.0153798
-0.343893 -0.0549399 0.576309 -0.0173902 -0.998778 0.0462512
0.0219544 -0.0178204 0.254724 0.921969 -0.334666 -0.194866
0.0543096 -0.0612503 0.500459 -0.0895018 0.995869 0.0153182
-0.0565821 -0.0411318 0.619882 -0.183191 0.966749 0.17843
0.00813655 -0.0562692 0.333728 0.203415 -0.96707 -0.152966
0.046628 -0.0178763 0.566285 0.98964 -0.143569 0.000391631
-0.0463553 0.00214003 0.452398 -0.871191 0.422726 0.249658
0.212516 -0.0574696 0.567507 -0.0169712 0.999592 -0.0229864
-0.010213 0.0296334 0.254148 -0.572491 0.800723 -0.176343
0.322593 -0.0434701 0.593873 -0.0282261 -0.804043 -0.593901
0.444999 -0.0407771 0.52493 -0.0118647 -0.990486 0.137103
-0.171372 -0.0572134 0.507269 -0.0235431 -0.990279 -0.137087
0.0177792 0.0620585 0.422194 0.564774 0.806019 -0.1771
0.0796722 -0.101997 0.860553 0.645005 0.55908 0.520959
0.0651561 -0.0392574 0.484072 -0.195509 -0.971433 0.134516
-0.0305721 -0.0486762 0.354256 -0.771277 -0.581103 -0.259714
0.0545448 -0.0116617 0.0466438 -0.00563587 0.990539 0.137116
-0.0419321 -0.0154711 0.076965 -0.00666867 -0.999858 -0.0154545
0.405518 -0.051736 0.588366 -0.0209043 0.983176 -0.181462
-0.00907445 -0.000269856 0.111927 -0.966323 0.198704 -0.163512
-0.0565845 -0.0369519 0.527279 -0.0860662 0.996223 -0.011492
0.00933687 0.0308472 0.652735 0.174649 0.983681 0.0432455
0.0117285 0.0358379 0.350522 0.517917 0.819311 -0.245948
-0.29826 -0.0557677 0.530406 -0.0169673 -0.999738 -0.0153478
0.0112518 -0.0159496 0.0947723 -0.0066616 0.999859 0.0153885
0.006047 0.0329162 0.260444 0.213887 0.961626 -0.171834
0.0939901 -0.0385972 0.567901 -0.00517754 -0.999722 -0.0229894
0.0124153 -0.0554345 0.334141 0.203415 -0.96707 -0.152966
0.114823 -0.0465132 0.607867 -0.0282261 -0.804043 -0.593901
-0.0328248 -0.0525334 0.501465 -0.729579 -0.683664 -0.0178304
0.195357 -0.0544449 0.491389 -0.0235431 0.990279 0.137087
-0.0142729 0.0312802 0.466278 -0.477595 0.878264 -0.023554
-0.045439 -0.0356683 0.565704 -0.0819742 0.996485 0.0172829
0.0265308 0.0244342 0.560481 0.490966 0.870782 -0.0262917
0.105605 -0.0585901 0.505919 -0.0235431 0.990279 0.137087
-0.01703 -0.0236827 0.240003 -0.808003 -0.575771 -0.124973
-0.0297197 0.0261295 0.323464 -0.787638 0.593435 -0.165714
-0.0446077 -0.0336917 0.493505 -0.902391 -0.430912 0.00216784
0.047888 -0.0138674 0.477221 0.98876 0.146737 0.02865
0.0268168 0.00530871 0.657844 0.861514 0.495218 0.112043
-0.267434 -0.0406859 0.510223 -0.0118647 0.990486 -0.137103
-0.0182581 0.0346321 0.566607 -0.270976 0.491586 0.827596
-0.00799519 -0.0130258 0.342671 -0.478647 -0.861227 -0.170834
-0.0178153 -0.0473592 0.763019 -0.484336 -0.861131 0.154509
-0.0317306 -0.0375123 0.332717 -0.771277 -0.581103 -0.259714
-0.0142 0.000688657 0.768601 -0.658401 0.74265 0.122392
-0.459195 -0.0527662 0.576609 -0.0209026 -0.983158 0.181558
-0.00983203 0.0311236 0.331417 -0.470985 0.846588 -0.247916
0.0146681 -0.0333963 0.266541 0.568801 -0.795129 -0.210321
0.128995 -0.0150463 0.0870481 -0.00666867 0.999858 0.0154545
-0.0746537 -0.0387077 0.51022 -0.082005 0.996514 -0.0153282
0.21388 -0.0575415 0.552613 -0.0169714 0.999738 0.0153778
0.269305 -0.0483823 0.460301 -0.0235552 0.990272 0.137138
0.0494811 -0.0688416 0.862351 0.645005 0.55908 0.520959
0.0411729 0.00575328 0.584841 0.907854 0.417925 0.0337701
-0.339994 -0.0397888 0.564316 -0.00517754 0.999722 0.0229894
-0.216504 -0.0402115 0.5848 -0.00930565 0.983346 0.181504
0.0121933 -0.0311211 0.446296 0.206227 -0.962221 -0.177766
0.334433 -0.0554296 0.566207 -0.0169712 0.999592 -0.0229864
-0.0187937 0.00247382 0.209286 -0.990932 0.107601 -0.0804688
0.378681 -0.0403568 0.575849 -0.00561064 -0.998914 -0.0462606
-0.0340721 -0.0118557 0.507278 -0.937085 -0.34886 -0.0129964
0.0710535 0.0700642 0.864438 -0.645001 0.559075 0.520968
-0.0319809 0.0149245 0.661129 -0.74474 0.664222 0.0645911
0.0436479 -0.00687458 0.627297 0.987866 0.140985 0.0651498
0.0295569 0.0213728 0.600506 0.741536 0.669894 0.0369586
-0.235348 -0.0477863 0.603863 -0.0282129 0.804164 0.593738
0.0089943 -0.0289591 0.704866 0.426466 -0.9041 0.0270257
-0.0224637 -0.000826295 0.35875 -0.914367 -0.375583 -0.151228
0.0892272 -0.038562 0.567442 -0.00517754 -0.999722 -0.0229894
-0.0271026 -0.0279699 0.296618 -0.912442 -0.348787 -0.214005
0.261274 -0.0430728 0.492446 -0.0118618 -0.990479 0.137153
-0.00675912 0.025103 0.621016 -0.137817 0.981858 0.130236
-0.0873979 -0.0418503 0.486237 -0.0118618 0.990479 -0.137153
0.0411243 -0.0403405 0.584557 0.908138 -0.418057 0.0226948
0.109379 -0.00740841 0.0992857 -0.00840739 -0.999696 -0.0231761
0.0277102 -0.0155293 0.107449 -0.00969512 0.998889 -0.0461179
-0.188546 -0.0549264 0.596075 -0.0209043 -0.983176 0.181462
0.00554061 0.0341343 0.0249056 0.997131 -0.0122947 -0.0746884
-0.0100033 0.00634716 0.866102 -0.754033 -0.653342 0.067657
0.0148578 0.0692517 0.512181 0.571087 0.81886 0.0576912
-0.0137595 -0.0421018 0.295242 -0.540454 -0.796001 -0.272565
-0.246946 -0.0566197 0.576485 -0.0173902 -0.998778 0.0462512
-0.404106 -0.0543604 0.561236 -0.0169738 -0.999594 0.0228918
0.0435117 -0.00882509 0.633584 0.987866 0.140985 0.0651498
0.423504 -0.0530921 0.520798 -0.0235431 0.990279 0.137087
0.387707 -0.054109 0.521996 -0.0235431 0.990279 0.137087
-0.0348803 0.00352253 0.589566 -0.978919 0.174916 0.105465
-0.0596635 -0.0584225 0.466824 -0.166647 -0.980743 -0.10184
-0.0268348 -0.0491396 0.344194 -0.771277 -0.581103 -0.259714
-0.19975 -0.0559674 0.503142 -0.0235431 -0.990279 -0.137087
-0.0305026 0.0164075 0.578799 -0.862384 0.495718 0.102752
-0.375425 -0.040057 0.54567 -0.00517342 0.999867 -0.0154338
-0.00558378 0.0393367 0.0247162 -0.997095 -0.0151749 -0.074644
0.0215492 0.0637992 0.523594 0.569949 0.819753 0.0562451
0.046589 -0.0167394 0.570049 0.98991 0.141634 -0.00420899
-0.22069 -0.0574401 0.562757 -0.0169738 -0.999594 0.0228918
0.00487083 0.0863793 0.0357101 0.993506 0.0954767 -0.0618788
0.0431416 -5.07841e-05 0.603533 0.908287 0.416946 0.0342195
0.0455363 -0.0219928 0.60239 0.989572 -0.141585 0.0264894
-0.0102469 0.00702814 0.84948 -0.421486 0.881414 0.213209
0.000347656 -0.00675451 0.0780102 -0.00667006 -0.999861 0.0152745
0.231448 -0.0571318 0.545365 -0.0169714 0.999738 0.0153778
-0.0127972 -0.0329455 0.57958 -0.412214 -0.902762 0.122882
0.0184694 -0.0230743 0.70491 0.662721 -0.747819 0.0395862
0.0273137 0.0208348 0.655007 0.745013 0.664465 0.05867
0.00467268 0.00374367 0.0510577 0.99637 -0.040383 0.0749399
0.127552 -0.0475278 0.448708 -0.0118618 -0.990479 0.137153
-0.397786 -0.0400179 0.5557 -0.00517342 0.999867 -0.0154338
-0.00721248 -0.026814 0.166121 -0.599942 -0.79868 -0.0466866
-0.253816 -0.042103 0.59314 -0.00929976 0.983348 0.181493
-0.00543413 -0.0284392 0.772302 -0.144987 -0.989217 0.0207214
0.00538314 0.0486382 0.0216786 0.993399 0.0122484 0.114051
-0.184822 -0.0389557 0.563033 -0.00517754 0.999722 0.0229894
0.326408 -0.0551217 0.519443 -0.0169673 0.999738 0.0153478
0.42271 -0.0401858 0.553173 -0.00517342 -0.999867 0.0154338
0.00176849 -0.0346304 0.841086 0.137538 -0.925021 0.354147
0.187318 -0.0507594 0.463386 -0.0235431 0.990279 0.137087
0.00716683 0.0145116 0.162922 0.594886 0.791267 -0.141447
-0.0114231 0.0604294 0.546099 -0.150649 0.743095 0.652008
0.0305489 -0.0028901 0.414839 0.919758 -0.377774 -0.106457
0.0402107 -0.0569854 0.421154 -0.166647 0.980743 0.10184
-0.0309452 -0.035426 0.605924 -0.0890282 0.995436 0.034368
-0.256598 -0.0436787 0.597292 -0.0282261 0.804043 0.593901
0.0560337 -0.0364591 0.56105 -0.0819742 -0.996485 -0.0172829
0.0149526 0.0230391 0.616922 0.408294 0.903883 0.127636
0.0184123 0.0309466 0.355191 0.760151 0.612691 -0.216289
0.0443176 -0.0307906 0.375449 0.98619 -0.0431672 -0.159891
-0.0869883 -0.00776522 0.106047 -0.0181238 0.983236 0.181435
0.264771 -0.0464657 0.468246 -0.0118618 -0.990479 0.137153
0.280518 -0.0397892 0.531168 -0.00517784 -0.999868 0.0153798
-0.0225221 0.0472813 0.438276 -0.393238 0.56121 0.728291
0.0229336 -0.0421546 0.316115 0.774855 -0.583799 -0.242442
-0.0130046 0.0424823 0.375764 -0.517505 0.81866 -0.248968
0.0460224 -0.0241478 0.520836 0.98943 -0.143538 0.0205936
0.0178838 -0.0563901 0.713847 0.52018 -0.840273 0.152818
-0.268749 -0.0393033 0.558742 -0.00517342 0.999867 -0.0154338
-0.0206122 -0.0629389 0.572253 -0.491272 -0.871004 0.00189284
0.0299172 -0.0345598 0.57541 -0.0819742 -0.996485 -0.0172829
-0.122556 -0.0562103 0.491639 -0.0235431 -0.990279 -0.137087
0.0351787 -0.00614263 0.589092 0.978875 -0.172956 0.109038
0.207033 -0.0393058 0.573244 -0.00518472 -0.999719 -0.0231463
-0.0228489 0.0193737 0.717369 -0.770075 0.633835 0.072372
0.216109 -0.0574901 0.551727 -0.0169714 0.999738 0.0153778
0.0895782 -0.0590211 0.511621 -0.0169714 0.999738 0.0153778
0.339507 -0.0479761 0.469426 -0.0235552 0.990272 0.137138
0.0221402 -0.0148535 0.0683671 -0.0056387 0.990537 0.13713
0.0492576 -0.064486 0.871912 -0.221627 -0.196339 -0.955161
0.0364203 -0.0500089 0.454756 0.671166 -0.661635 0.334328
0.082055 -0.0593823 0.578826 -0.0173902 0.998778 -0.0462512
0.0350461 -0.0197039 0.744132 0.988605 -0.128862 0.0778135
-0.0553127 0.0496547 0.866023 0.754641 0.652634 0.0677115
-0.00764119 0.0167206 0.815812 -0.164403 0.978133 0.127387
0.0206781 0.0203317 0.340684 0.908507 0.373062 -0.188256
0.0117076 -0.0618143 0.668165 0.174488 -0.982814 0.0602556
0.301664 -0.039769 0.539598 -0.00517784 -0.999868 0.0153798
-0.000527889 0.0327685 0.6376 -0.174809 0.984581 0.00642269
-0.104077 -0.0074092 0.0804514 -0.00667006 0.999861 -0.0152745
-0.114094 -0.0442736 0.471045 -0.0118618 0.990479 -0.137153
-0.0250796 -0.0416194 0.756254 -0.735096 -0.666116 0.126186
0.0356503 -0.062783 0.496935 -0.0820058 0.996566 0.0114959
-0.0357422 -0.0350907 0.578392 -0.0819742 0.996485 0.0172829
0.028839 0.0230361 0.581941 0.741916 0.670237 -0.0185156
-0.0052372 0.0033563 0.786576 -0.137817 0.981858 0.130236
-0.39766 -0.04022 0.542561 -0.00517342 0.999867 -0.0154338
-0.0397192 -0.0181162 0.690455 -0.987674 -0.12874 0.0890247
0.252032 -0.0553203 0.507446 -0.0235431 0.990279 0.137087
0.0976711 -0.00727421 0.097744 -0.00840739 -0.999696 -0.0231761
0.0387157 0.0130191 0.494882 0.887137 0.461365 -0.011379
0.0628336 -0.0153946 0.0810375 -0.0066616 0.999859 0.0153885
0.011159 -0.0595023 0.362579 0.0728972 -0.993029 -0.092621
-0.257872 -0.046717 0.465835 -0.0118618 0.990479 -0.137153
0.0219095 -0.0234221 0.640749 0.662721 -0.747819 0.0395862
-0.136833 -0.0422554 0.487587 -0.0118618 0.990479 -0.137153
-0.0265407 -0.0256074 0.536711 -0.799195 -0.597449 -0.0658938
-0.0031363 -0.0346425 0.243238 -0.21502 -0.96825 -0.127505
0.00966801 -0.0667774 0.450956 0.16127 -0.981979 -0.0985377
-0.048865 0.0434111 0.870955 0.587103 0.504936 -0.632732
0.0298746 -0.04403 0.378298 -0.213003 -0.971824 0.100935
0.111053 -0.0095411 0.0584803 -0.00563781 -0.990524 0.137224
0.0363678 -0.0608806 0.452376 -0.166647 0.980743 0.10184
-0.0355732 0.00929558 0.570731 -0.683973 0.388983 0.617149
0.0133286 0.0293046 0.667455 0.495383 0.867315 0.0485788
-0.0512059 -0.0154859 0.103451 -0.009702 -0.99888 0.0463021
-0.0166105 0.0168083 0.65561 -0.408279 0.903849 0.127928
0.374543 -0.0502747 0.492043 -0.0235552 0.990272 0.137138
0.0736333 -0.0481426 0.431045 -0.213003 -0.971824 0.100935
0.0327874 -0.0304728 0.745387 0.917874 -0.384931 0.0966148
-0.302571 -0.0406597 0.513453 -0.0118647 0.990486 -0.137103
-0.0258462 0.000891272 0.811896 -0.895404 0.429888 0.115969
0.286778 -0.0551808 0.512406 -0.0235431 0.990279 0.137087
0.0575102 -0.0155045 0.101118 -0.00838469 0.999699 -0.0230793
0.00825619 0.0555051 0.409704 0.163796 0.833455 -0.527753
0.043474 -0.0248882 0.634181 0.986895 -0.139407 0.0812607
0.280201 -0.0559747 0.523924 -0.0169673 0.999738 0.0153478
-0.405009 -0.0401344 0.55057 -0.00517342 0.999867 -0.0154338
-0.132326 -0.0582504 0.508683 -0.0169673 -0.999738 -0.0153478
0.353208 -0.0402024 0.528774 -0.00517784 -0.999868 0.0153798
-0.00700618 -0.0366984 0.643514 0 -1 0
0.00581667 0.0223139 0.0151494 0.995601 -0.0509957 0.0786032
0.0690145 -0.0593414 0.593412 -0.154703 0.97155 -0.179326
-0.29449 -0.0560968 0.547654 -0.0169714 -0.999738 -0.0153778
-0.0013192 0.0329712 0.544457 -0.172678 0.984452 -0.0322013
0.361463 -0.0399742 0.546353 -0.00517342 -0.999867 0.0154338
0.0160933 -0.0167041 0.197058 0.942509 -0.329143 -0.0578011
-0.0374968 0.0380522 0.865854 -0.754033 -0.653342 0.067657
-0.0456866 -0.0244618 0.541016 -0.98964 -0.143569 -0.000252476
-0.0452136 -0.0277501 0.556903 -0.98964 -0.143569 -0.000252476
-0.00259915 -0.0255613 0.858626 -0.120377 -0.836723 0.534233
-0.0361232 0.00386199 0.68521 -0.911013 0.401261 0.0951026
-0.215696 -0.0573373 0.541336 -0.0169714 -0.999738 -0.0153778
0.00690221 -0.0672684 0.615245 0.173016 -0.984819 0.0140505
0.045131 -0.0360689 0.455152 0.855072 -0.432445 0.286082
0.0803471 0.0873903 0.871125 0.221893 -0.196569 -0.955052
-0.0194238 -0.0257786 0.261012 -0.798861 -0.569257 -0.194339
-0.0418033 -0.0190036 0.664508 -0.987404 -0.135194 0.0821938
-0.389925 -0.0512192 0.590522 -0.0376976 -0.803912 0.593552
0.346866 -0.0409765 0.514996 -0.0118647 -0.990486 0.137103
0.198723 -0.0391155 0.547424 -0.00517784 -0.999868 0.0153798
-0.447773 -0.0406694 0.530243 -0.00517342 0.999867 -0.0154338
-0.0276904 0.00730227 0.642188 -0.861482 0.495199 0.112364
0.0813674 -0.05091 0.610538 -0.0376976 0.803911 -0.593554
-0.0219048 0.0102915 0.668885 -0.658401 0.74265 0.122392
0.00252034 -0.0308546 0.675562 0.138963 -0.990084 0.0205703
-0.419281 -0.0537646 0.533717 -0.0169673 -0.999738 -0.0153478
0.0238815 -0.0589653 0.374178 0.43329 -0.879747 -0.195718
0.0231632 0.0166318 0.623722 0.658431 0.742684 0.122018
-0.00634049 0.0593194 0.393225 -0.196433 0.957481 -0.21129
-0.0220054 0.0348925 0.379493 -0.719221 0.659183 -0.219545
0.143859 -0.039304 0.581595 -0.00561051 -0.998914 -0.0462574
-0.0120465 0.0303106 0.653633 -0.174634 0.983593 0.0452573
0.0761323 -0.0471735 0.613081 -0.472849 -0.708759 -0.523521
-0.0366702 -0.0118179 0.721791 -0.989362 0.128961 0.0673206
-0.0776101 -0.0383229 0.551052 -0.082005 0.996514 -0.0153282
-0.211811 -0.0415613 0.499084 -0.0118647 0.990486 -0.137103
0.0594762 -0.0153488 0.0766229 -0.00666867 0.999858 0.0154545
-0.194541 -0.0574254 0.57879 -0.0173902 -0.998778 0.0462512
0.0109051 -0.0184563 0.129331 0.936878 -0.323789 -0.131988
0.155371 -0.0401548 0.587627 -0.00930565 -0.983346 -0.181504
-0.172802 -0.0512399 0.604284 -0.0376976 -0.803911 0.593554
-0.00801123 -0.031488 0.608032 -0.138963 -0.990086 0.0204583
-0.0294526 -0.00698211 0.417889 -0.917457 -0.376852 -0.127497
-0.467603 -0.052105 0.521243 -0.0235552 -0.990272 -0.137138
-0.450277 -0.0402577 0.55987 -0.00517754 0.999722 0.0229894
0.0806187 -0.0389143 0.520742 -0.00517784 -0.999868 0.0153798
-0.0173452 0.0294421 0.520244 -0.485706 0.87318 0.0405762
-0.0640405 -0.0567397 0.457781 -0.166647 -0.980743 -0.10184
0.0313636 -0.053078 0.477081 0.729371 -0.683468 -0.0298247
-0.205846 -0.0572547 0.525099 -0.0169714 -0.999738 -0.0153778
-0.00662057 0.0360519 0.0394083 -0.996083 -0.0151595 0.0871157
-0.0317746 -0.0419159 0.402662 -0.213003 0.971824 -0.100935
-0.00635814 0.0441598 0.0772291 -0.980789 0.140242 0.135595
0.0136671 -0.00468475 0.803124 0.861514 0.495218 0.112043
0.17873 -0.057693 0.523667 -0.0169714 0.999738 0.0153778
0.0345995 -0.0107925 0.0463042 -0.00563981 -0.990526 0.137212
0.021727 0.0296939 0.364653 0.88847 0.41483 -0.196306
0.464866 -0.0405217 0.545544 -0.00517342 -0.999867 0.0154338
-0.0407722 -0.0246388 0.667626 -0.987404 -0.135194 0.0821938
0.30546 -0.0499938 0.478148 -0.0235552 0.990272 0.137138
-0.242494 -0.0429244 0.491894 -0.0118618 0.990479 -0.137153
-0.30635 -0.0555424 0.524677 -0.0169673 -0.999738 -0.0153478
-0.0538745 -0.0688671 0.861705 0.645547 -0.558082 0.521357
-0.287543 -0.0558036 0.520901 -0.0169673 -0.999738 -0.0153478
-0.0315982 -0.032628 0.746253 -0.903533 -0.417084 0.0983334
-0.324445 -0.039859 0.570836 -0.00518472 0.999719 0.0231463
0.177393 -0.0579408 0.538303 -0.0169714 0.999738 0.0153778
0.00367564 -0.0292233 0.746275 0.138963 -0.990084 0.0205703
0.211204 -0.0575304 0.565831 -0.0169712 0.999592 -0.0229864
-0.283946 -0.0494226 0.470328 -0.0235552 -0.990272 -0.137138
-0.0258911 0.0111375 0.757131 -0.770075 0.633835 0.072372
0.267903 -0.0565806 0.549763 -0.0169714 0.999738 0.0153778
0.237684 -0.0484974 0.455701 -0.0235552 0.990272 0.137138
-0.00921816 0.0293502 0.249318 -0.573698 0.802412 -0.164334
0.0127058 0.0058985 0.849201 0.423556 0.885743 0.189891
0.0431899 -0.00329721 0.6265 0.987866 0.140985 0.0651498
-0.0166034 -0.0310547 0.484689 -0.562854 -0.825358 -0.044494
0.00862175 -0.0278836 0.202154 0.595937 -0.801671 -0.0467189
0.197015 -0.0392499 0.538111 -0.00517784 -0.999868 0.0153798
-0.00853445 -0.0234551 0.399147 -0.189896 -0.966266 -0.173983
0.009077 -0.0615214 0.388874 0.0731459 -0.996417 -0.0424592
0.0144136 -0.0260049 0.718501 0.679155 -0.732907 0.0399615
0.458361 -0.0442726 0.500833 -0.0118647 -0.990486 0.137103
-0.0313895 0.00191148 0.626943 -0.979765 0.175067 0.0970199
-0.224808 -0.0570988 0.574463 -0.0173902 -0.998778 0.0462537
0.0327776 0.0190662 0.481167 0.71892 0.694573 -0.0268877
0.00553495 0.0111028 0.0589743 0.994483 -0.0403065 -0.0968413
-0.169069 -0.0577368 0.51585 -0.0169673 -0.999738 -0.0153478
-0.00675547 -0.0460999 0.297836 -0.197343 -0.935081 -0.294412
0.0350804 0.0120104 0.320249 0.920204 0.353303 -0.16853
0.382367 -0.0546719 0.563752 -0.0169738 0.999594 -0.0228918
-0.0174393 -0.0223498 0.236508 -0.808003 -0.575771 -0.124973
-0.0141343 -0.0195363 0.869015 0.751579 -0.651842 -0.101154
0.112488 -0.0498495 0.609997 -0.0376976 0.803911 -0.593554
-0.0392063 -0.0446058 0.57538 -0.908368 -0.418163 0.0029171
0.033165 0.0153598 0.640103 0.745917 0.665271 0.0319787
0.0468828 -0.0163696 0.427537 0.99311 -0.116845 -0.00895323
0.171841 -0.0450636 0.470334 -0.0118618 -0.990479 0.137153
-0.00267215 0.0911714 0.0599591 -0.891196 0.229691 0.391168
-0.0541905 -0.00987939 0.0537013 -0.00563981 0.990526 -0.137212
0.0215026 0.0158855 0.637225 0.658431 0.742684 0.122018
-0.444306 -0.053686 0.560877 -0.0169738 -0.999594 0.0228918
-0.392877 -0.0400494 0.55201 -0.00517342 0.999867 -0.0154338
0.207457 -0.0577254 0.557476 -0.0169714 0.999738 0.0153778
0.00494063 0.00532175 0.854357 0.11147 0.77484 0.622251
-0.195417 -0.057668 0.540458 -0.0169714 -0.999738 -0.0153778
-0.0951071 -0.0386133 0.54519 -0.00517784 0.999868 -0.0153798
0.016858 -0.00965796 0.359148 0.768626 -0.619524 -0.159387
-0.0426081 -0.0156889 0.0985436 -0.00838469 -0.999699 0.0230793
-0.0300185 -0.0534232 0.415422 -0.787631 -0.608239 0.0984078
0.430278 -0.0538552 0.551775 -0.0169673 0.999738 0.0153478
0.43958 -0.0534607 0.536367 -0.0169673 0.999738 0.0153478
-0.0190509 0.0210843 0.61761 -0.408279 0.903849 0.127928
-0.0116879 0.0245444 0.737045 -0.48814 0.867894 0.0920804
0.145511 -0.0393031 0.517318 -0.00517784 -0.999868 0.0153798
0.0284231 -0.0486915 0.685196 0.755435 -0.653012 0.0537985
0.245564 -0.0501716 0.469144 -0.0235552 0.990272 0.137138
-0.0188163 -0.0365218 0.809438 -0.73002 -0.661516 0.171662
0.00296889 0.0267064 0.733488 0.18798 0.977273 0.0979819
0.0345908 -0.00255881 0.439835 0.922225 -0.347272 -0.170012
-0.00174689 -0.0539576 0.758629 -0.185946 -0.966658 0.176055
0.00662124 0.0398418 0.0729653 0.997607 0.0667516 0.0180089
-0.0171735 0.0285285 0.633224 -0.495917 0.868251 0.0143803
0.0755284 -0.0594411 0.58573 -0.0925338 0.994644 -0.0460597
-0.315339 -0.0397161 0.547615 -0.00517342 0.999867 -0.0154338
-0.0126877 -9.68506e-05 0.78165 -0.67433 0.728421 0.121168
0.0599671 -0.0402552 0.611267 -0.143674 -0.980278 -0.135697
-0.0308709 0.0446026 0.394617 -0.800619 0.582129 -0.141901
-0.0333514 -0.00691182 0.104582 -0.00970875 0.998889 0.0461179
-0.0209195 0.00271487 0.714317 -0.861482 0.495199 0.112364
0.275276 -0.0463203 0.470205 -0.0118618 -0.990479 0.137153
-0.175682 -0.0579512 0.537087 -0.0169714 -0.999738 -0.0153778
0.0190698 -0.00293301 0.344678 0.913969 -0.375396 -0.154075
0.0144693 0.0312948 0.471042 0.486723 0.873234 -0.0237322
0.162862 -0.0581698 0.537151 -0.0169714 0.999738 0.0153778
