0.0332913 -0.0489416 0.588165 0.940684 0.339262 0.00401081
-0.00159008 0.0670478 0.111691 -0.967641 0.148492 0.204011
0.224812 -0.0838998 0.44022 0.0775028 -0.995773 -0.0492962
-0.0260666 -0.0902898 0.273254 -0.886993 -0.456126 -0.072066
-0.174883 -0.0909142 0.51613 -0.166512 -0.984773 0.0499676
0.0338442 -0.0511451 0.644875 0.940684 0.339262 0.00401081
0.000531879 -0.0278206 0.572001 0.0219225 0.999692 0.0116489
-0.0356792 -0.0584016 0.581191 -0.989559 0.144122 0.00161863
-0.272614 -0.0714587 0.374713 0.149141 0.983557 -0.101848
0.049362 -0.102631 0.475492 0.116685 -0.991954 -0.0491059
-0.117291 -0.0985466 0.557632 -0.166503 -0.984775 0.0499566
0.00439299 -0.114739 0.642325 0.110928 -0.99376 -0.0116796
-0.00225112 0.0341845 0.0649089 -0.999857 0.0144176 0.00879724
-0.015879 -0.031516 0.652375 -0.413443 0.910468 0.0105891
0.0544291 -0.0417131 0.108331 -0.0820322 0.990011 0.114668
0.0207334 -0.035309 0.745467 0.613229 0.789726 0.0168262
0.036042 -0.0716302 0.612433 0.996436 -0.0843463 -0.00093478
-0.0362088 -0.0610113 0.490568 -0.989615 0.143737 0.00162577
0.0364345 -0.0623024 0.403988 0.99901 -0.0444741 0.000797865
0.00147503 -0.0260748 0.319131 0.0221094 0.999755 -0.000550193
-0.0364472 -0.0626005 0.3857 -0.998989 -0.0449611 -2.07949e-06
0.0292138 -0.0429509 0.67541 0.808155 0.58893 0.00691379
-0.031357 -0.0831384 0.294444 -0.93715 -0.34236 -0.0673685
-0.110589 -0.0369616 0.0782387 -0.63138 -0.399974 0.664364
0.0341284 -0.0945698 0.38757 0.959131 -0.282962 4.96419e-05
0.0438145 -0.101227 0.433943 0.116685 -0.991954 -0.0491059
0.0349121 -0.0843437 0.825001 0.973414 -0.229003 -0.00480443
-0.0659477 -0.080419 0.552226 0.08517 0.992375 -0.0890987
0.260711 -0.080512 0.428228 0.0775028 -0.995773 -0.0492962
-0.032901 -0.0875215 0.365487 -0.974817 -0.223006 -4.28323e-05
0.180979 -0.0808372 0.417728 -0.115092 0.988071 -0.102323
0.035938 -0.0741557 0.729417 0.996436 -0.0843463 -0.00093478
-0.105219 -0.0320544 0.0173173 0.162631 0.986679 -0.00397158
0.0337789 -0.0498065 0.546947 0.940684 0.339262 0.00401081
-0.0550024 -0.0828051 0.60747 -0.0618222 0.986597 0.151013
-0.0333206 -0.0560203 0.843591 -0.936517 0.340366 0.0841799
0.120155 -0.097289 0.519374 0.0984183 -0.993928 -0.0492015
0.217678 -0.0817532 0.385642 0.0775034 -0.995773 -0.0492943
0.123094 -0.0297663 0.0134751 0.0892607 -0.981208 -0.171064
0.205192 -0.0751483 0.437166 -0.151653 0.982724 -0.106092
0.102076 -0.0331642 0.0517847 -0.156476 0.987591 0.0133791
0.0335861 -0.0477587 0.377766 0.941667 0.336546 4.51006e-05
0.0178529 -0.0300534 0.294384 0.420617 0.907218 -0.00614942
-0.0282197 -0.0713919 0.886391 -0.97749 -0.0449348 0.20614
-0.0249252 -0.035005 0.390522 -0.741439 0.671021 -3.71856e-05
0.099821 -0.034504 0.0785699 -0.0823105 0.99003 0.114309
0.171427 -0.0881724 0.437771 0.0984201 -0.993928 -0.0492039
0.00120875 -0.0301037 0.751937 0.0219248 0.999534 0.0212563
-0.022344 -0.0342398 0.559272 -0.613157 0.789908 0.00917821
0.284217 -0.0665729 0.406261 -0.140209 0.986153 -0.0885592
0.0282323 -0.0443725 0.241829 0.94237 0.330243 -0.0536572
0.0104941 -0.0464756 0.895647 0.264177 0.906824 0.328453
-0.0231359 -0.0333124 0.352442 -0.613047 0.790007 -0.00792935
-0.0298249 -0.103199 0.384434 -0.593612 -0.803813 -0.0388364
0.0261289 -0.104154 0.448445 0.684186 -0.725601 0.0734347
0.125565 -0.0344975 0.0423107 0.159718 -0.985063 -0.0643582
0.274442 -0.0702968 0.44723 0.35737 0.779604 0.5143
-0.0176485 -0.0735737 0.161706 -0.896055 -0.413572 -0.161379
-0.287876 -0.067034 0.428962 -0.0704279 0.980151 0.185322
0.415293 -0.0595536 0.332166 0.594004 0.300424 0.74626
-0.02823 -0.053293 0.0982886 -0.0861316 -0.98051 -0.176581
-0.0520308 -0.08034 0.580321 0.0302497 0.999481 0.0111025
0.202603 -0.0723205 0.486624 -0.0672888 0.997672 0.01109
0.117845 -0.0978401 0.565935 0.202107 -0.97433 0.0991689
-0.0309731 -0.0437646 0.526639 -0.875681 0.482857 0.00558887
0.31972 -0.0735996 0.406909 0.265263 -0.944535 0.193622
-0.337858 -0.0620221 0.380679 0.0672866 0.997672 0.0110988
0.0818481 -0.0800988 0.539163 -0.108257 0.990139 -0.0889116
-0.0324106 -0.108477 0.566422 -0.054931 -0.997268 -0.0493777
0.0574895 -0.0402664 0.0599512 -0.145136 0.988804 0.034669
-0.032507 -0.0918661 0.785472 -0.931206 -0.36441 -0.00779828
-0.108178 -0.0963378 0.476131 -0.0984152 -0.993928 -0.0492119
0.0260726 -0.0864751 0.25466 0.87094 -0.477762 -0.114925
0.0279304 -0.0907418 0.298815 0.872641 -0.482702 -0.0741385
0.0170381 -0.109438 0.702471 0.516092 -0.856275 -0.0210433
-0.149277 -0.0801831 0.459269 0.116664 0.987435 -0.106593
-0.0314094 -0.0920002 0.652276 -0.848116 -0.529629 -0.0138851
0.0162066 -0.110689 0.733216 0.516078 -0.856349 -0.0181792
-0.023988 -0.0541397 0.175985 -0.991817 -0.043724 -0.119945
-0.0496569 -0.0417418 0.0720237 0.156471 0.987592 0.013402
-0.126743 -0.077851 0.54877 -0.0527131 0.987115 0.151081
0.0083576 -0.0394798 0.873248 0.157641 0.960536 0.229171
0.0133983 -0.0892945 0.927135 0.874087 -0.400516 0.27488
0.0312751 -0.105059 0.488594 0.0551478 -0.997417 -0.0460148
0.00271331 -0.0141564 0.115375 0.999458 0.0317047 0.00889768
-0.19806 -0.074135 0.500651 -0.0704279 0.980151 0.185322
-0.0328311 -0.0852713 0.332992 -0.9387 -0.342926 -0.0352785
-0.0127766 -0.0901697 0.200675 -0.566888 -0.805993 -0.170334
0.0583824 -0.0800426 0.570984 -0.0302563 0.999481 0.0110994
0.258611 -0.076796 0.359815 -0.469177 0.0739348 -0.880004
0.0183766 -0.0334813 0.721611 0.413592 0.9104 0.0106315
0.0360596 -0.0699037 0.475381 0.996432 -0.0843955 -0.000936216
0.0219219 -0.107599 0.835661 0.679337 -0.730956 0.0648432
-0.346995 -0.0672261 0.315369 0.207417 0.955509 -0.209717
-0.00434627 -0.0987089 0.229963 -0.183179 -0.965921 -0.182874
0.073222 -0.0846629 0.500198 -0.0912534 0.990075 -0.106888
-0.0662414 -0.0912323 0.444987 0.0953345 0.9723 -0.213413
0.0363604 -0.067036 0.681391 0.998855 -0.0478375 -0.000507117
0.0341894 -0.0551591 0.313159 0.988851 0.142558 -0.0430208
-0.257884 -0.0693244 0.417322 0.140213 0.986155 -0.0885372
-0.0222468 -0.0569584 0.129703 -0.159707 -0.985063 -0.0643818
-0.212145 -0.0867599 0.47801 -0.0774985 -0.995773 -0.049303
0.010776 -0.0513295 0.069642 0.916116 -0.364837 -0.166209
0.0196659 -0.108523 0.401717 0.313473 -0.949597 1.86792e-05
-0.0355926 -0.0591867 0.702984 -0.989563 0.144094 0.00165095
0.411703 -0.060928 0.2801 -0.207397 0.955507 -0.209746
-0.0325899 -0.0904925 0.730038 -0.931179 -0.364547 -0.00338794
0.0389322 -0.0527118 0.106101 0.159714 -0.985063 -0.0643653
0.309436 -0.072123 0.335374 0.0775034 -0.995773 -0.0492943
0.0199192 -0.0312307 0.460343 0.613167 0.789899 0.00924003
-0.0311485 -0.0556928 0.24965 -0.987786 0.14093 -0.0664698
-0.210883 -0.0844803 0.429986 -0.0774971 -0.995773 -0.0493045
-0.248275 -0.0825769 0.453146 -0.15367 -0.986853 0.0500729
0.0333813 -0.0622465 0.858988 0.948922 0.222193 0.224005
-0.103949 -0.0865777 0.448959 0.115106 0.98807 -0.102318
-0.0359394 -0.0727579 0.563469 -0.996433 -0.0843794 -0.00104041
-0.0506194 -0.0977807 0.422132 0.0953317 0.972299 -0.213416
-0.0710838 -0.0824289 0.524932 0.0851667 0.992375 -0.0891021
-0.280183 -0.0682691 0.393764 0.140221 0.986153 -0.08855
0.379844 -0.0668243 0.339038 0.0775028 -0.995773 -0.0492962
-0.0364412 -0.0659158 0.642061 -0.998854 -0.0478497 -0.000612388
0.293072 -0.0687747 0.370585 -0.151653 0.982724 -0.106092
0.235351 -0.0793884 0.482579 0.64377 -0.109297 0.757374
0.0021145 -0.112892 0.462699 0.117025 -0.993062 -0.0114886
-0.0349971 -0.0524003 0.464774 -0.989555 0.144149 0.00162391
-0.0227223 -0.0999536 0.308011 -0.745699 -0.660984 -0.0838651
0.237174 -0.0696384 0.455095 -0.0672888 0.997672 0.01109
0.0200471 -0.0709351 0.16781 0.883506 -0.438647 -0.164334
0.294828 -0.0655151 0.417195 0.0424163 0.987598 0.151163
0.0828803 -0.0948748 0.419484 -0.143674 0.966611 -0.212181
0.00068124 -0.0212587 0.198921 0.858548 0.480515 0.178887
-0.335363 -0.0645066 0.349656 0.151667 0.982723 -0.106083
-0.0109061 -0.0275428 0.448228 -0.280771 0.95971 0.0111685
-0.0291113 -0.0873068 0.872888 -0.95581 -0.216109 0.199307
-0.108207 -0.0820109 0.579668 -0.35233 0.781198 0.515358
0.0503942 -0.108062 0.60004 0.179759 -0.982447 0.049854
-0.14092 -0.0933022 0.557134 -0.271048 -0.942965 0.193264
0.0139793 -0.110266 0.580732 0.0551478 -0.997417 -0.0460148
0.0249537 -0.0354949 0.333858 0.7414 0.670979 -0.0105902
0.231015 -0.0840914 0.453843 0.0775028 -0.995773 -0.0492962
0.0213135 -0.0375093 0.827592 0.613232 0.789724 0.016826
-0.0900624 -0.0938493 0.419299 0.143696 0.96661 -0.212172
0.0464019 -0.101984 0.637246 0.635338 -0.110687 0.764261
-0.0176307 -0.0509303 0.079844 -0.0892419 -0.981209 -0.171072
0.0107378 -0.111563 0.486883 0.19949 -0.979866 -0.00816326
0.0701308 -0.0881461 0.615008 0.354439 0.780542 0.514905
-0.0273189 -0.0426349 0.796422 -0.74119 0.671146 0.0141849
-0.0333809 -0.0892294 0.835997 -0.970941 -0.23055 0.0641833
0.0920345 -0.0976737 0.470896 0.0984183 -0.993928 -0.0492015
-0.0279718 -0.0407162 0.279693 -0.879547 0.474991 -0.0279588
0.0623771 -0.0875709 0.482521 -0.091245 0.990076 -0.106882
0.101842 -0.0831633 0.483556 -0.116652 0.987435 -0.106605
0.256802 -0.069396 0.418229 -0.140209 0.986153 -0.0885592
0.0433998 -0.104973 0.508623 0.116685 -0.991954 -0.0491059
0.369742 -0.0648602 0.303679 -0.207402 0.955504 -0.209755
0.186745 -0.0877141 0.45742 0.0775028 -0.995773 -0.0492962
0.0266008 -0.101746 0.77795 0.78543 -0.618811 -0.0131145
0.0342296 -0.0700438 0.308562 0.99506 -0.0835941 -0.0535528
-0.0260831 -0.0702521 0.205493 -0.981665 -0.154701 -0.111363
-0.175468 -0.0890907 0.464329 -0.098411 -0.993928 -0.0492144
0.142577 -0.0849886 0.424099 -0.143677 0.966609 -0.212189
0.0210286 -0.105206 0.665371 0.671335 -0.740885 -0.0199733
-0.0116734 -0.110597 0.367708 -0.289841 -0.957075 -1.6323e-05
0.159789 -0.0900897 0.453222 0.0984201 -0.993928 -0.0492039
-0.195795 -0.083918 0.394914 -0.0774971 -0.995773 -0.0493045
-0.0209003 -0.0558517 0.1521 -0.631296 -0.40044 0.664163
0.0133358 -0.0556093 0.0939514 0.958518 -0.248932 -0.138841
0.00292639 -0.0145659 0.092899 0.999458 0.0317047 0.00889768
0.0296622 -0.0949091 0.659734 0.89517 -0.445591 -0.0109584
0.306441 -0.0647983 0.390837 -0.140206 0.986154 -0.0885544
-0.231915 -0.082165 0.416283 -0.0774971 -0.995773 -0.0493045
-0.0365662 -0.0785453 0.535924 -0.991871 -0.127247 -0.000734751
0.0817441 -0.0877567 0.462531 -0.115096 0.98807 -0.102329
-0.103038 -0.095815 0.455293 -0.0984152 -0.993928 -0.0492119
0.0148115 -0.0292721 0.224653 0.442498 0.896686 -0.0122609
-0.206247 -0.0858814 0.450994 -0.0774971 -0.995773 -0.0493045
-0.151553 -0.0814782 0.444651 0.115106 0.98807 -0.102318
0.272024 -0.077639 0.38798 0.0775028 -0.995773 -0.0492962
-0.0362651 -0.0667313 0.418396 -0.998855 -0.0478497 -4.9277e-05
-0.063026 -0.101881 0.492711 -0.116681 -0.991954 -0.0491151
-0.0493582 -0.108314 0.598943 -0.179765 -0.982446 0.0498376
-0.0121484 -0.114686 0.82342 -0.398584 -0.916924 -0.0195148
0.400938 -0.0578354 0.318763 -0.140206 0.986154 -0.0885544
-0.188377 -0.0893935 0.493839 -0.0774971 -0.995773 -0.0493045
-0.0217554 -0.0321475 0.413159 -0.613068 0.79003 -3.31357e-05
0.17917 -0.0890095 0.47017 0.0984201 -0.993928 -0.0492039
-0.0978953 -0.100323 0.536048 -0.0984152 -0.993928 -0.0492119
0.159353 -0.0753963 0.49716 -0.10826 0.990138 -0.0889148
-0.00975595 -0.0327364 0.0645652 -0.936033 0.342921 -0.0790427
-0.012935 -0.0817675 0.935704 -0.843869 -0.358402 0.39929
0.0192342 -0.0316928 0.535145 0.413436 0.910471 0.0106351
0.0357688 -0.084039 0.432336 0.991802 -0.127778 -0.00130813
-0.0134691 -0.0339032 0.107337 -0.848839 0.526182 -0.0510441
-0.432125 -0.05798 0.29402 -0.999998 -0.00203788 6.82815e-06
-0.0597195 -0.10089 0.464852 -0.116667 -0.991956 -0.0491178
0.00216057 0.0479299 0.105637 0.999867 0.00248966 -0.0161176
0.126293 -0.0937127 0.459406 0.0984183 -0.993928 -0.0492015
-0.103634 -0.0357679 0.0377431 -0.0892449 -0.981209 -0.171068
0.0188849 -0.0378086 0.15522 0.897332 0.434921 -0.0750927
-0.375641 -0.0593804 0.354405 -0.0424489 0.987595 0.151179
0.0989154 -0.0991348 0.514175 0.0984183 -0.993928 -0.0492015
0.0204834 -0.107429 0.527026 0.0551478 -0.997417 -0.0460148
0.0357795 -0.0577983 0.359106 0.989267 0.14411 -0.0241661
0.0963637 -0.0783932 0.554288 -0.0460272 0.998878 0.0111002
0.0400758 -0.0503406 0.0876719 0.0861512 -0.98051 -0.176572
-0.23467 -0.080412 0.385211 -0.0774971 -0.995773 -0.0493045
-0.310574 -0.07417 0.416657 -0.265279 -0.944538 0.193586
-0.0314427 -0.105646 0.508153 -0.054931 -0.997268 -0.0493777
0.0706512 -0.0384581 0.07537 -0.157427 0.98746 0.0118251
-0.345421 -0.0707435 0.364019 -0.0774985 -0.995773 -0.049303
0.0319261 -0.101568 0.402547 0.94933 -0.314282 -7.84437e-05
0.000556573 -0.0271964 0.518387 0.0219225 0.999692 0.0116489
-0.0790201 -0.0878711 0.608506 -0.352307 0.781227 0.51533
-0.00764931 -0.111568 0.419695 -0.181086 -0.983422 -0.00947989
0.0850515 -0.0357376 0.046166 -0.145136 0.988804 0.034669
-0.00126164 -0.0740607 0.11978 -0.110727 -0.962735 -0.246742
0.313434 -0.067329 0.354826 -0.149137 0.983555 -0.101873
0.118766 -0.0772747 0.525661 -0.10826 0.990138 -0.0889148
-0.0115682 -0.0341889 0.839411 -0.279888 0.952708 0.118361
-0.171127 -0.090423 0.482555 -0.098411 -0.993928 -0.0492144
-0.0362205 -0.0630827 0.666287 -0.989586 0.143934 0.0016267
-0.063149 -0.0389175 0.0350157 0.162631 0.986679 -0.00397158
-0.0175532 -0.110756 0.605207 -0.0607426 -0.997097 0.0459156
0.00969788 -0.114316 0.848004 0.384293 -0.920609 0.0692662
-0.00193977 -0.0290111 0.671613 -0.0219223 0.999692 0.0116467
0.0329128 -0.0569403 0.2781 0.988975 0.141665 -0.0431166
0.365167 -0.0619242 0.330984 -0.151645 0.982726 -0.10608
-0.0465364 -0.0908189 0.4653 0.0904517 0.990603 -0.102584
0.00119146 -0.0264855 0.456188 0.0219157 0.999692 0.011649
-0.103103 -0.077927 0.540116 0.0460225 0.998879 0.0111108
0.0364435 -0.0647827 0.632589 0.998854 -0.0478628 -0.000508994
0.0298322 -0.0411179 0.447021 0.808054 0.589068 0.00691716
0.00931174 -0.107111 0.29852 0.293732 -0.950712 -0.09934
0.0103208 -0.0272373 0.275312 0.286212 0.958162 -0.00279326
-0.000210865 -0.0286109 0.640524 -0.0219156 0.999692 0.0116466
-0.0807386 -0.0437833 0.0732156 -0.159707 -0.985063 -0.0643818
-0.146397 -0.075795 0.508522 0.108267 0.990139 -0.0889002
0.00603721 -0.11699 0.811838 0.382351 -0.923809 -0.0196202
0.0555333 -0.0813757 0.551496 -0.0851638 0.992374 -0.0891111
-0.0260709 -0.0831153 0.240627 -0.87084 -0.477724 -0.115831
-0.0590847 -0.0919885 0.626318 -0.584383 0.302833 0.752854
0.00140564 0.100736 0.0536004 0.999856 0.014417 0.00890083
-0.0316645 -0.102075 0.424951 -0.109631 -0.993177 -0.0397683
-0.0342469 -0.0583848 0.303569 -0.988872 0.142252 -0.0435488
-0.111333 -0.0941041 0.437328 -0.0984152 -0.993928 -0.0492119
-0.00111528 -0.110302 0.317051 -0.117478 -0.987942 -0.100848
-0.0024225 -0.0276448 0.55343 -0.0219156 0.999692 0.0116466
-0.400269 -0.0575935 0.322496 0.140221 0.986153 -0.08855
-0.0226543 -0.105752 0.740022 -0.68395 -0.729363 -0.0155422
-0.00775346 -0.11385 0.689493 -0.382333 -0.923879 -0.0163885
0.351094 -0.0613777 0.358231 -0.140206 0.986154 -0.0885544
0.0221362 -0.103071 0.337399 0.747695 -0.662753 -0.0413553
0.135643 -0.0919446 0.442394 0.0984201 -0.993928 -0.0492039
0.22118 -0.0716734 0.478096 0.0424163 0.987598 0.151163
-0.0510781 -0.105357 0.625681 -0.280555 -0.940299 0.192684
0.0776177 -0.10107 0.51067 0.0984183 -0.993928 -0.0492015
-4.5843e-06 0.0710745 0.0355473 -0.992627 -0.0260225 -0.118384
-0.0363624 -0.0681314 0.686493 -0.998855 -0.0478292 -0.00061251
-0.00781712 -0.0270386 0.166751 -0.315802 0.948793 -0.00776661
0.0176954 -0.0320693 0.627197 0.413592 0.9104 0.0106315
0.369735 -0.0598435 0.345803 -0.140206 0.986154 -0.0885544
-0.00616221 -0.0263079 0.414221 -0.163265 0.986582 -8.82462e-06
0.141713 -0.0290469 0.051251 0.684459 0.541276 0.488402
0.0833342 -0.0975314 0.450618 0.0984183 -0.993928 -0.0492015
-0.0231417 -0.0343195 0.51284 -0.613157 0.789908 0.00917821
0.197893 -0.0746906 0.452537 -0.140209 0.986153 -0.0885592
-0.0300723 -0.104535 0.481997 -0.109631 -0.993177 -0.0397683
0.0571447 -0.0808829 0.594024 0.0618141 0.986596 0.15102
-0.144467 -0.0933564 0.488486 -0.098411 -0.993928 -0.0492144
0.142371 -0.0880733 0.559442 0.623679 0.088697 0.776632
0.0359856 -0.060529 0.559816 0.989559 0.144119 0.00173607
0.0319495 -0.0738073 0.867776 0.976722 -0.054045 0.207589
-0.239249 -0.0736855 0.402039 0.151656 0.982726 -0.106064
-0.342782 -0.0693047 0.330812 -0.0774971 -0.995773 -0.0493045
-0.00659455 -0.026862 0.140998 -0.325292 0.945573 -0.00878046
0.035467 -0.0801006 0.806051 0.990357 -0.138507 -0.00288369
-0.0195148 -0.0337503 0.210083 -0.767951 0.639531 -0.0353693
0.138043 -0.0930925 0.470381 0.0984183 -0.993928 -0.0492015
0.0124294 -0.0718054 0.936058 0.884235 0.187761 0.427637
-0.00713679 -0.111962 0.450768 -0.181086 -0.983422 -0.00947989
-0.0362909 -0.0706965 0.754265 -0.998856 -0.0478133 -0.0010666
0.0292595 -0.0458269 0.125842 -0.0820322 0.990011 0.114668
-0.149953 -0.0878306 0.406157 0.143696 0.96661 -0.212172
0.0758571 -0.102398 0.533747 0.116671 -0.991956 -0.0491029
-0.0824302 -0.0968855 0.435702 -0.0984152 -0.993928 -0.0492119
0.0206529 -0.107663 0.372995 0.319414 -0.947003 -0.0340524
0.0279837 -0.0431828 0.784391 0.741616 0.670673 0.0142567
-0.0357379 -0.0849715 0.443001 -0.996048 -0.0887977 -0.00157612
0.0269231 -0.0388154 0.290532 0.810212 0.585702 -0.0225575
-0.261783 -0.0678142 0.440121 0.0672866 0.997672 0.0110988
0.0364409 -0.0663749 0.762294 0.989559 0.144096 0.00310747
-0.0426409 -0.106691 0.541722 -0.054931 -0.997268 -0.0493777
-0.0234739 -0.038748 0.809351 -0.613241 0.789718 0.0167619
-0.00053254 0.10538 0.0888063 -0.96764 0.148495 0.204014
-0.0362897 -0.071369 0.783291 -0.998856 -0.0478133 -0.0010666
-0.0174605 -0.03029 0.485208 -0.413443 0.910468 0.0105891
0.0144363 -0.107219 0.877791 0.521593 -0.834871 0.175872
-0.00635701 -0.0318214 0.819071 -0.163343 0.986346 0.0209649
0.330256 -0.0626713 0.376818 -0.140206 0.986154 -0.0885544
-0.00825702 -0.115347 0.842573 -0.383439 -0.921023 0.0684975
0.0118691 -0.113823 0.778428 0.398591 -0.916922 -0.019473
0.0765473 -0.100066 0.488248 0.0984183 -0.993928 -0.0492015
-0.0905576 -0.0811828 0.516518 0.108267 0.990139 -0.0889002
-0.125647 -0.0333609 0.0351286 -0.0861438 -0.980512 -0.176565
-0.0018828 0.0664117 0.053954 -0.999857 0.0144176 0.00879724
-0.231077 -0.0705835 0.445752 0.140213 0.986155 -0.0885372
-0.0461455 -0.084935 0.520856 0.0851667 0.992375 -0.0891021
-0.0361931 -0.0770315 0.479145 -0.991378 0.131022 0.00148215
0.327125 -0.0668742 0.339173 -0.149125 0.983558 -0.101856
0.00021595 0.0266741 0.0469502 0.992639 -0.0260232 -0.118283
-0.00376034 -0.116306 0.751778 -0.117285 -0.992874 -0.0211146
0.0402253 -0.0429779 0.0650102 -0.145141 0.988804 0.0346624
0.00158219 0.0779851 0.0750443 0.999846 0.00177126 -0.0174449
-0.310313 -0.0642543 0.404587 -0.0424489 0.987595 0.151179
0.00979954 -0.0329336 0.0639339 0.940981 0.328211 -0.0826615
0.0544217 -0.0898673 0.467516 -0.0904424 0.990603 -0.102594
-0.0635285 -0.0870607 0.486282 0.0912589 0.990075 -0.106879
-0.124113 -0.0965715 0.512719 -0.098411 -0.993928 -0.0492144
-0.0801656 -0.101634 0.527083 -0.0984152 -0.993928 -0.0492119
0.018883 -0.0320911 0.582893 0.413436 0.910471 0.0106351
-0.0761901 -0.079472 0.568018 0.0302508 0.999481 0.0111109
-0.00191376 0.0680177 0.0940742 -0.999865 0.00248949 -0.0162234
-0.0815507 -0.0852034 0.486888 0.116663 0.987435 -0.106592
0.106555 -0.0878784 0.435326 -0.143677 0.966609 -0.212189
0.0162999 -0.0377035 0.123237 0.953231 0.292423 -0.0764192
0.0983428 -0.10009 0.583574 0.202107 -0.97433 0.0991689
-0.0185539 -0.0385027 0.147568 -0.897169 0.43487 -0.0773072
-0.0362695 -0.066523 0.369452 -0.998982 -0.0451137 -6.15827e-05
-0.1298 -0.0939276 0.470693 -0.0984152 -0.993928 -0.0492119
-0.303861 -0.0742462 0.369436 -0.0774971 -0.995773 -0.0493045
0.409048 -0.0578781 0.305739 -0.151645 0.982726 -0.10608
0.00903832 -0.0310741 0.762559 0.163363 0.986343 0.0209819
0.0359489 -0.0589239 0.447571 0.989556 0.144141 0.0017343
-0.192944 -0.085191 0.416143 -0.0774971 -0.995773 -0.0493045
-0.0660081 -0.0392333 0.0784456 0.157425 0.98746 0.0118422
-0.320392 -0.0719017 0.348071 -0.0774971 -0.995773 -0.0493045
-0.146998 -0.0912763 0.45154 -0.0984152 -0.993928 -0.0492119
-0.0215357 -0.0611612 0.899386 -0.831315 0.448351 0.328478
-0.013663 -0.0962785 0.911676 -0.684208 -0.670467 0.286937
0.121375 -0.0319745 0.0252442 0.0892619 -0.981209 -0.17106
0.032547 -0.0462482 0.489683 0.875689 0.482843 0.00568399
0.0839763 -0.036679 0.0327142 0.0892607 -0.981208 -0.171064
0.363599 -0.0689348 0.368073 0.153652 -0.986856 0.0500732
0.0283136 -0.074352 0.884763 0.976725 -0.0562258 0.206996
-0.0232378 -0.0369973 0.228639 -0.75055 0.659759 -0.0373261
-0.0159147 -0.0329234 0.754787 -0.41365 0.910231 0.0193343
0.0327967 -0.0498337 0.7458 0.875806 0.482553 0.010276
-0.0338619 -0.0484759 0.387391 -0.941247 0.337717 -0.000967666
0.168368 -0.0914941 0.498752 0.0984183 -0.993928 -0.0492015
0.0222151 -0.054799 0.161895 0.990238 -0.0655075 -0.123038
0.0364279 -0.0677261 0.821175 0.999113 -0.0420598 0.00186508
-0.332314 -0.0728175 0.387578 -0.15367 -0.986853 0.0500729
0.234892 -0.082153 0.420783 0.0775028 -0.995773 -0.0492962
-0.01359 -0.0314635 0.717628 -0.280853 0.959686 0.0111696
0.00580903 -0.116774 0.797244 0.382349 -0.92381 -0.0196204
-0.0320846 -0.0465279 0.591194 -0.875765 0.482705 0.00559006
0.00250695 0.00925931 0.121152 0.999867 0.00249032 -0.0161159
0.00189008 0.0491392 0.0560575 0.992639 -0.0260227 -0.118278
0.0221874 -0.0340402 0.550018 0.613042 0.789997 0.00924377
0.0282776 -0.108227 0.553679 0.0551478 -0.997417 -0.0460148
0.027461 -0.0671559 0.214436 0.991941 -0.0738789 -0.102932
-0.0314187 -0.0434052 0.425763 -0.875681 0.482857 0.00558887
0.205001 -0.0852071 0.50618 0.489557 -0.718301 0.494345
-0.293285 -0.0664588 0.393177 0.140213 0.986155 -0.0885372
-0.264292 -0.077196 0.366817 -0.0774971 -0.995773 -0.0493045
0.134334 -0.0779416 0.499279 -0.108257 0.990139 -0.0889116
-0.0156447 -0.108934 0.646352 -0.514271 -0.857369 -0.021087
0.0249023 -0.0376113 0.640904 0.741562 0.670838 0.00786105
-0.0134506 -0.028023 0.328941 -0.280787 0.959767 -0.00239078
0.0346745 -0.109513 0.608566 0.0610097 -0.996855 0.0505788
-0.109645 -0.078787 0.560851 -0.0527131 0.987115 0.151081
0.133228 -0.0764925 0.536105 -0.0460234 0.998879 0.0111048
-0.257321 -0.0797035 0.406503 -0.0774971 -0.995773 -0.0493045
-0.0554967 -0.103569 0.508932 -0.116667 -0.991956 -0.0491178
-0.0361612 -0.0776374 0.618765 -0.882684 0.469966 -0.000675587
0.116074 -0.0786002 0.557386 0.0526976 0.987115 0.151087
-0.00486354 -0.0693018 0.93921 -0.223136 0.823553 0.521509
-0.0358759 -0.0718317 0.398907 -0.996636 -0.0819534 -4.91675e-05
0.00550316 -0.0264253 0.172894 0.184982 0.982736 -0.00344372
0.0364202 -0.0792676 0.491825 0.993589 -0.113055 -0.00063266
0.279735 -0.0664542 0.426881 -0.0672971 0.997671 0.0110798
-0.0943861 -0.0346713 0.0752949 0.157425 0.98746 0.0118423
0.0194028 -0.0793894 0.186712 0.889477 -0.427022 -0.162738
0.110138 -0.0999002 0.552087 0.0984183 -0.993928 -0.0492015
0.0357297 -0.0776 0.778639 0.996437 -0.0843196 -0.00173466
-0.416355 -0.0621057 0.300801 -0.0587637 -0.997051 -0.049365
0.0364298 -0.0655824 0.698039 0.999162 -0.0409394 0.000388535
-0.365812 -0.0685483 0.351736 -0.0774985 -0.995773 -0.049303
-0.095934 -0.0996311 0.51816 -0.0984152 -0.993928 -0.0492119
0.0300353 -0.0566056 0.232821 0.993966 0.0572816 -0.0935495
0.00148237 0.0937786 0.0709271 0.999846 0.00177126 -0.0174449
-0.128165 -0.0283048 0.0092695 0.162631 0.986679 -0.00397158
0.0997624 -0.081673 0.499819 -0.108257 0.990139 -0.0889116
0.0726873 -0.102241 0.609363 0.280568 -0.940278 0.192766
0.0353338 -0.0792945 0.712532 0.990351 -0.138573 -0.00157094
-0.381155 -0.0618852 0.308223 0.149136 0.983558 -0.10184
-0.0420983 -0.10164 0.439097 -0.054931 -0.997268 -0.0493777
0.0583693 -0.107059 0.586348 0.116685 -0.991954 -0.0491059
0.00157735 -0.0288662 0.659769 0.0219225 0.999692 0.0116489
-0.148366 -0.0780495 0.481013 0.108267 0.990139 -0.0888972
0.0286811 -0.046622 0.840044 0.805836 0.584279 0.0961613
0.0618215 -0.104006 0.532865 0.116685 -0.991954 -0.0491059
-0.286225 -0.0781632 0.420827 -0.0774985 -0.995773 -0.049303
0.15563 -0.0790896 0.462432 -0.116648 0.987436 -0.106599
0.337916 -0.0706597 0.350594 0.0775028 -0.995773 -0.0492962
-0.167208 -0.0774591 0.464878 0.116663 0.987435 -0.106592
-0.035384 -0.059333 0.333062 -0.989287 0.143969 -0.0241898
0.275018 -0.0756128 0.351757 0.0775034 -0.995773 -0.0492943
-0.313208 -0.0646306 0.381989 0.140213 0.986155 -0.0885372
0.196598 -0.0775013 0.427655 -0.151653 0.982724 -0.106092
-0.0175411 -0.0463527 0.0554626 0.162624 0.98668 -0.00395209
0.0565245 -0.0854343 0.507308 -0.0912534 0.990075 -0.106888
-0.306351 -0.0712532 0.337219 0.207417 0.955509 -0.209717
0.0197103 -0.0797504 0.917252 0.957021 -0.0747063 0.280231
-0.0142112 -0.0303884 0.609641 -0.280853 0.959686 0.0111696
-0.148201 -0.0296849 0.032001 -0.201727 -0.976975 -0.0694687
-0.351936 -0.0616301 0.354077 0.140221 0.986153 -0.08855
0.157094 -0.0891469 0.428787 0.0984201 -0.993928 -0.0492039
0.104857 -0.0392844 0.0641884 0.159718 -0.985063 -0.0643582
0.00716703 -0.0317795 0.810286 0.163339 0.986347 0.0209832
0.00331947 -0.0922101 0.937816 0.344668 -0.857908 0.381048
0.0214401 -0.0319189 0.366889 0.613068 0.79003 3.15157e-05
-0.0217912 -0.035082 0.668684 -0.613157 0.789908 0.00917821
-0.0128796 -0.0287312 0.194744 -0.442468 0.896625 -0.016909
-0.191406 -0.0753235 0.455782 0.140213 0.986155 -0.0885372
-0.16544 -0.0840571 0.412861 0.143696 0.96661 -0.212172
0.034745 -0.0482684 0.0735018 0.0892619 -0.981209 -0.17106
-0.0345951 -0.0510312 0.352428 -0.940533 0.339117 -0.0199596
0.000716678 -0.080973 0.146654 0.110919 -0.963718 -0.242783
0.233253 -0.0778847 0.379305 -0.207402 0.955504 -0.209755
0.0975843 -0.0898498 0.595552 0.584281 0.302893 0.752909
-0.00295389 0.00383962 0.148331 -0.999865 0.00248949 -0.0162234
0.0468989 -0.0415534 0.0462302 -0.162624 0.98668 -0.00396951
6.25171e-05 0.081282 0.108618 0.967618 0.148497 0.204119
0.000173098 -0.0309177 0.0505246 0.0200645 0.790013 -0.612762
0.13409 -0.0783331 0.549354 0.0787371 0.979532 0.185251
0.0589661 -0.0905418 0.456997 -0.0904424 0.990603 -0.102594
-0.0114592 -0.0994762 0.243834 -0.293942 -0.942921 -0.15652
-0.0654777 -0.0476751 0.0949045 -0.159707 -0.985063 -0.0643818
-0.016828 -0.101268 0.276773 -0.548929 -0.830589 -0.0937998
-0.0296253 -0.098569 0.811334 -0.895152 -0.445658 -0.00952355
0.0720056 -0.0454135 0.109833 0.631156 -0.400885 0.664028
0.259265 -0.0724603 0.384585 -0.149125 0.983558 -0.101856
-0.127072 -0.0344449 0.0452695 -0.159704 -0.985063 -0.0643851
0.046914 -0.0881856 0.490027 -0.091245 0.990076 -0.106882
-0.121385 -0.0790683 0.502525 0.108267 0.990139 -0.0889002
-0.0290899 -0.0407332 0.318218 -0.810346 0.585799 -0.0134064
-0.00101814 -0.11548 0.860902 -0.114486 -0.97856 0.171209
-0.0101218 -0.11158 0.630573 -0.496531 -0.86785 -0.0171498
-0.0862512 -0.0876233 0.458772 0.115106 0.98807 -0.102318
0.173933 -0.0742822 0.50599 -0.0460234 0.998879 0.0111048
0.169385 -0.0763881 0.473902 -0.10826 0.990138 -0.0889148
0.18568 -0.08311 0.524034 0.633341 0.087813 0.768875
0.0152171 -0.10883 0.353401 0.546 -0.836576 -0.0450002
0.0333438 -0.0915813 0.372177 0.870081 0.347595 -0.34948
-0.0778836 -0.0394405 0.0453747 -0.0892449 -0.981209 -0.171068
0.00376352 -0.113312 0.527403 0.193799 -0.981003 -0.00867762
-0.0330429 -0.0509549 0.78276 -0.875803 0.482561 0.0101842
-0.0295477 -0.0410524 0.4782 -0.80807 0.589047 0.00683029
-0.00798671 -0.0884887 0.183451 -0.304691 -0.92595 -0.223114
0.0986005 -0.0856841 0.463584 -0.115092 0.988071 -0.102323
-0.0981519 -0.0882179 0.439642 0.115106 0.98807 -0.102317
0.077721 -0.0919499 0.436302 -0.143674 0.966611 -0.212181
-0.0279118 -0.0425472 0.761294 -0.74119 0.671146 0.0141849
-0.259818 -0.0723913 0.384445 0.149141 0.983557 -0.101848
-0.0187224 -0.108992 0.56158 -0.054931 -0.997268 -0.0493777
-0.00297051 -0.0130751 0.141315 -0.999809 0.0108738 -0.0162225
-0.0626586 -0.105201 0.558894 -0.116681 -0.991954 -0.0491151
-0.0179303 -0.0441623 0.125522 -0.993442 0.0438317 -0.105599
0.0704446 -0.0829288 0.51995 -0.0851578 0.992375 -0.0891079
0.1146 -0.0309865 0.0375048 -0.156476 0.987591 0.0133791
-0.0356779 -0.057196 0.475515 -0.989556 0.144141 0.0016355
0.115941 -0.0367425 0.0527902 0.159718 -0.985063 -0.0643582
-0.0559024 -0.104181 0.522253 -0.116667 -0.991956 -0.0491178
-0.209013 -0.086308 0.46396 -0.0774971 -0.995773 -0.0493045
0.0120576 -0.11071 0.416488 0.193804 -0.98104 1.15484e-05
0.0423422 -0.0811326 0.601663 0.0458452 0.987447 0.151149
0.00426384 -0.0325404 0.836579 0.0218288 0.992574 0.119667
0.39223 -0.0580888 0.329728 -0.140206 0.986154 -0.0885544
0.246003 -0.0724044 0.404245 -0.151653 0.982724 -0.106092
-0.0278098 -0.0983302 0.698101 -0.785446 -0.618671 -0.0179147
-0.0359171 -0.0732316 0.580466 -0.996433 -0.0843794 -0.00104041
0.0635957 -0.0476587 0.0899649 0.159714 -0.985063 -0.0643653
-0.00245189 0.0144721 0.074396 -0.999857 0.0144176 0.00879724
0.0105822 -0.0291759 0.59563 0.280846 0.959687 0.0111978
0.190972 -0.0886956 0.483891 0.0775028 -0.995773 -0.0492962
0.0329979 -0.0493823 0.686451 0.875689 0.482843 0.00568399
0.00144112 0.0291874 0.139982 0.967618 0.148497 0.204119
-0.023289 -0.0335787 0.439245 -0.613042 0.789997 0.00917687
0.0301732 -0.0913479 0.861269 0.912326 -0.36027 0.194594
-0.184427 -0.0796515 0.523964 -0.357452 0.779575 0.514287
0.00873623 -0.0270224 0.21035 0.288403 0.957503 -0.00343718
0.00913216 -0.101096 0.249262 0.293962 -0.94299 -0.156067
0.202533 -0.0780011 0.414141 -0.149125 0.983558 -0.101856
0.0355863 -0.0703568 0.347926 0.996326 -0.0806364 -0.0288372
0.0183003 -0.0615602 0.137885 0.941948 -0.295005 -0.160333
-0.160798 -0.0751937 0.519527 -0.0527177 0.987113 0.151089
-0.00296638 -0.0178923 0.102649 -0.998043 0.0619151 0.0087799
0.0201804 -0.109202 0.795822 0.683959 -0.729356 -0.0154709
-0.0465952 -0.0514954 0.12686 -0.252685 -0.965486 0.0631403
-0.00374151 -0.0583584 0.059047 -0.379873 -0.89457 -0.235461
-0.0351563 -0.0550848 0.605309 -0.989555 0.144148 0.00163188
0.0291676 -0.0398698 0.404132 0.808075 0.58908 4.36772e-05
-0.0449436 -0.103146 0.475325 -0.116667 -0.991956 -0.0491178
-0.0236928 -0.105715 0.45597 -0.684206 -0.725589 0.0733654
-0.0449751 -0.0430783 0.113355 0.0820232 0.990011 0.114672
0.018966 -0.108754 0.387031 0.31347 -0.949598 1.45593e-05
0.00235369 -0.0259667 0.0764652 0.992638 -0.0259053 -0.11832
0.253625 -0.0699455 0.457393 0.0704331 0.980143 0.185359
-0.0298131 -0.0663828 0.236331 -0.991493 -0.0779354 -0.104251
0.0210257 -0.107394 0.74798 0.683959 -0.729356 -0.0154709
0.105048 -0.0975182 0.493784 0.0984183 -0.993928 -0.0492015
0.307381 -0.072105 0.422404 0.64377 -0.109297 0.757374
-0.12457 -0.0872918 0.425804 0.143696 0.966611 -0.212165
-0.0262448 -0.0496132 0.865427 -0.77176 0.586819 0.24501
-0.0363753 -0.0703499 0.817798 -0.998856 -0.0478133 -0.0010666
-0.154478 -0.0904014 0.548435 -0.486347 -0.719678 0.49551
-0.0184688 -0.0666335 0.148623 -0.887018 -0.426002 -0.178105
-0.032522 -0.0716718 0.278717 -0.995473 -0.0789086 -0.052977
-0.406133 -0.0636502 0.337037 -0.265304 -0.944524 0.193618
-0.00339806 -0.0129083 0.167778 -0.999809 0.0108775 -0.0162214
0.0161359 -0.0289224 0.393336 0.413466 0.910519 2.23475e-05
-0.224906 -0.0844561 0.451538 -0.0774971 -0.995773 -0.0493045
0.350394 -0.067636 0.386488 0.64377 -0.109297 0.757374
0.0357932 -0.0580569 0.464324 0.989555 0.144147 0.0017311
-0.0310538 -0.0455993 0.29445 -0.942289 0.332987 -0.034792
0.0347567 -0.0803986 0.387461 0.957793 -0.287458 5.24331e-05
-0.0354254 -0.0880579 0.40862 -0.99605 -0.0887978 0.000155002
0.148506 -0.0947721 0.52524 0.0984183 -0.993928 -0.0492015
-0.0251663 -0.0352728 0.366385 -0.741442 0.671017 -3.81138e-05
0.00315998 -0.00818101 0.156033 0.999811 0.0108772 -0.0161175
0.0174211 -0.0325211 0.676556 0.413592 0.9104 0.0106315
0.00639723 -0.0263937 0.422161 0.163253 0.986517 0.0115043
-0.022805 -0.106495 0.782001 -0.768102 -0.640182 -0.0136507
-0.305699 -0.0755945 0.399559 -0.0774985 -0.995773 -0.049303
-0.0635126 -0.10639 0.585822 -0.179765 -0.982446 0.0498376
0.393775 -0.0603386 0.304702 -0.149137 0.983555 -0.101873
0.152364 -0.092857 0.494272 0.0984183 -0.993928 -0.0492015
-0.00744007 -0.0312701 0.784698 -0.163368 0.986342 0.0209662
0.291804 -0.0702227 0.358553 -0.149125 0.983558 -0.101856
0.0736378 -0.0417839 0.0565316 0.0861569 -0.980512 -0.17656
-0.106126 -0.0388707 0.0610279 -0.159704 -0.985063 -0.0643851
-0.146771 -0.0948973 0.524214 -0.098411 -0.993928 -0.0492144
0.114981 -0.0986656 0.536834 0.0984183 -0.993928 -0.0492015
0.0354379 -0.106339 0.521324 0.0551478 -0.997417 -0.0460148
0.282167 -0.0781932 0.415122 0.0775028 -0.995773 -0.0492962
0.0277549 -0.0392011 0.507584 0.741419 0.670996 0.00786783
0.073692 -0.0796287 0.57543 -0.0302452 0.999481 0.0111078
-0.414071 -0.061423 0.283684 -0.0774985 -0.995773 -0.049303
-0.0295683 -0.0894273 0.309331 -0.868328 -0.490328 -0.074739
0.0143839 -0.110303 0.551595 0.496271 -0.868114 0.00961276
-0.0333845 -0.0523303 0.808005 -0.940694 0.33918 0.00714102
0.138123 -0.0288455 0.0160059 0.0867666 -0.981472 -0.170833
0.0496018 -0.0983536 0.419971 -0.0953116 0.972298 -0.213429
0.0362855 -0.0606974 0.388137 0.989548 0.144152 -0.00399689
0.0284648 -0.042639 0.733786 0.741616 0.670673 0.0142567
-0.0307485 -0.0438032 0.565157 -0.875681 0.482857 0.00558887
0.0255242 -0.0454794 0.856737 0.737223 0.667761 0.102945
-0.0357845 -0.0606775 0.718281 -0.989561 0.144107 0.00163347
0.0914844 -0.0423595 0.086966 0.252682 -0.965485 0.0631714
-0.101154 -0.0876413 0.591915 -0.584407 0.302688 0.752893
0.130869 -0.0956778 0.508258 0.0984183 -0.993928 -0.0492015
-0.00475962 -0.0261237 0.38433 -0.0219171 0.99976 -1.14939e-06
-0.00231081 0.0136478 0.0917824 -0.999857 0.0144176 0.00879724
-0.0183457 -0.108966 0.391442 -0.313468 -0.949599 -1.66712e-05
-0.119278 -0.0771317 0.53562 0.0460253 0.998879 0.0111051
-0.134995 -0.0811873 0.465598 0.116664 0.987435 -0.106593
0.0352672 -0.0795267 0.627533 0.99136 0.13102 0.00627231
-0.102289 -0.100634 0.551128 -0.098411 -0.993928 -0.0492144
-0.0867585 -0.0997975 0.503171 -0.0984152 -0.993928 -0.0492119
-0.215881 -0.0721282 0.48254 -0.0424362 0.987598 0.151163
0.0152205 -0.0286079 0.33766 0.413456 0.910516 -0.00388133
-0.0329158 -0.089968 0.745583 -0.931206 -0.36441 -0.00779827
0.00331719 -0.0261051 0.291661 0.0223864 0.999749 0.000407309
0.138304 -0.0794142 0.478384 -0.116648 0.987436 -0.106599
-0.162941 -0.0923811 0.527019 -0.166512 -0.984773 0.0499676
-0.0118326 -0.027866 0.235845 -0.288402 0.957498 -0.00475059
-0.374343 -0.0610614 0.325843 0.151656 0.982726 -0.106064
0.0216538 -0.0965172 0.888337 0.7696 -0.579083 0.269032
0.219586 -0.0734989 0.43187 -0.151653 0.982724 -0.106092
-0.122243 -0.085297 0.440746 0.115106 0.98807 -0.102317
-0.0257603 -0.0573975 0.191828 -0.991817 -0.043724 -0.119945
0.0298452 -0.0948124 0.643809 0.630234 -0.394684 0.668603
0.211245 -0.0830586 0.401898 0.0775028 -0.995773 -0.0492962
0.181162 -0.0792272 0.43307 -0.115092 0.988071 -0.102323
0.0377272 -0.0930553 0.448976 0.689371 0.722167 -0.0569488
0.0832207 -0.0896405 0.606614 0.584281 0.302891 0.752909
0.0344392 -0.0530531 0.666723 0.940684 0.339262 0.00401081
0.147782 -0.0891543 0.410309 0.0984201 -0.993928 -0.0492039
-0.288054 -0.0749474 0.358754 -0.0774971 -0.995773 -0.0493045
0.0658866 -0.0814221 0.541085 -0.0851638 0.992374 -0.0891111
0.0479584 -0.0423132 0.0951831 -0.157427 0.98746 0.0118251
-0.32851 -0.0644204 0.360254 0.151667 0.982723 -0.106083
-0.0236409 -0.0350738 0.544414 -0.613157 0.789908 0.00917821
0.299349 -0.0750248 0.378134 0.0775028 -0.995773 -0.0492962
0.0327906 -0.0475863 0.32615 0.941357 0.336824 -0.0199393
-0.0364131 -0.0663162 0.627534 -0.998854 -0.0478497 -0.000612388
-0.0188117 -0.0321263 0.590313 -0.413593 0.9104 0.0105909
0.0288271 -0.0453843 0.097131 -0.156471 0.987592 0.0133867
-0.00221771 -0.112652 0.87627 -0.120263 -0.978011 0.170383
0.0270227 -0.0993871 0.70121 0.775967 -0.630512 -0.018176
-0.0283263 -0.0453285 0.0872838 0.156471 0.987592 0.013402
0.0357859 -0.0588867 0.537333 0.989558 0.144127 0.00173324
0.0150586 -0.0284669 0.353485 0.413456 0.910516 -0.00388133
-0.350631 -0.0610243 0.36842 0.0672866 0.997672 0.0110988
0.00106343 -0.0690208 0.0998586 0.0729199 -0.966115 -0.247599
-0.185255 -0.0872553 0.445749 -0.0774971 -0.995773 -0.0493045
0.0025155 -0.0114164 0.0746294 0.99264 -0.0260208 -0.118277
0.0558658 -0.106154 0.562104 0.116685 -0.991954 -0.0491059
0.00241042 0.0335533 0.118916 0.999867 0.00248966 -0.0161176
-0.279341 -0.0779416 0.405531 -0.0774971 -0.995773 -0.0493045
-0.285188 -0.0760021 0.37555 -0.0774971 -0.995773 -0.0493045
-0.00207725 0.0381866 0.078112 -0.999857 0.0144176 0.00879724
-0.0121669 -0.109629 0.345111 -0.289513 -0.955991 -0.0475843
0.284959 -0.0758858 0.440541 0.489557 -0.718301 0.494345
0.116118 -0.0935729 0.43623 0.0984201 -0.993928 -0.0492039
-0.212177 -0.0821641 0.385241 -0.0774971 -0.995773 -0.0493045
-0.200497 -0.0775219 0.421764 0.149141 0.983557 -0.101848
0.0300882 -0.0892905 0.314522 0.870021 -0.487277 -0.0749956
-0.0718844 -0.10025 0.480824 -0.116681 -0.991954 -0.0491151
-0.0135974 -0.0635309 0.919872 -0.140585 0.906179 0.398842
-0.036123 -0.0704081 0.548664 -0.996432 -0.0843955 -0.00104032
0.0166319 -0.0317421 0.186288 0.76766 0.63928 -0.0449362
-0.141389 -0.0902665 0.419926 -0.0984152 -0.993928 -0.0492119
0.0173544 -0.0463891 0.0546458 -0.162624 0.98668 -0.00396951
-0.0118809 -0.0307884 0.702606 -0.280853 0.959686 0.0111696
0.113232 -0.0324712 0.0706203 -0.0822932 0.990029 0.114329
0.00973996 -0.109639 0.330637 0.291712 -0.955324 -0.0475384
0.221378 -0.0758273 0.407542 -0.149125 0.983558 -0.101856
0.0285472 -0.0939116 0.335175 0.887818 -0.458746 -0.0364894
0.0320258 -0.0476342 0.301361 0.940982 0.336689 -0.0345437
-0.324108 -0.0630415 0.388958 0.0672866 0.997672 0.0110988
-0.0353151 -0.0788791 0.652619 -0.990352 -0.138558 -0.0020468
-0.0363988 -0.0661891 0.59427 -0.998854 -0.0478497 -0.000612388
-0.0452732 -0.108412 0.611748 -0.179765 -0.982446 0.0498376
-0.101593 -0.0805834 0.509754 0.108267 0.990139 -0.0889002
0.0975694 -0.0923541 0.421021 -0.143674 0.966611 -0.212181
-0.00270485 0.0132004 0.134419 -0.999865 0.00248949 -0.0162234
-0.0224854 -0.0927171 0.254793 -0.748601 -0.649876 -0.131366
-0.0173992 -0.0474086 0.113954 0.157425 0.98746 0.0118423
-0.0311228 -0.0450535 0.614529 -0.875681 0.482857 0.00558887
0.239345 -0.0827816 0.440481 0.0775028 -0.995773 -0.0492962
0.121115 -0.0951974 0.479043 0.0984183 -0.993928 -0.0492015
0.0305269 -0.0966877 0.814182 0.895161 -0.445643 -0.00942934
0.145823 -0.0758302 0.528733 -0.0460234 0.998879 0.0111048
0.024648 -0.0485008 0.182904 0.975454 0.198019 -0.0963253
0.0246365 -0.0390704 0.765016 0.741224 0.671105 0.0143102
0.00860878 -0.112395 0.628568 0.398575 -0.916988 -0.0164681
-0.0107185 -0.0839749 0.170246 -0.562764 -0.800129 -0.207582
-0.00206547 -0.115246 0.662641 -0.117266 -0.993029 -0.0119066
0.0248685 -0.0383869 0.710279 0.741562 0.670838 0.00786105
0.0273473 -0.0378776 0.433121 0.741419 0.670996 0.00786783
-0.163615 -0.0888441 0.435647 -0.098411 -0.993928 -0.0492144
-0.0324453 -0.0645846 0.266719 -0.995473 -0.0789086 -0.052977
-0.411516 -0.0566411 0.315292 0.140221 0.986153 -0.08855
-0.00913333 -0.0569385 0.0722779 -0.846244 -0.50107 -0.181107
-0.252641 -0.0766984 0.365531 0.207423 0.955505 -0.20973
0.205689 -0.0719562 0.472576 -0.0672888 0.997672 0.01109
-0.0256423 -0.0366848 0.495106 -0.74142 0.670996 0.00778486
0.0193527 -0.0315083 0.266946 0.620958 0.783739 -0.0128124
0.0359926 -0.0747815 0.792672 0.996436 -0.0843405 -0.00173629
0.370137 -0.0667028 0.321322 0.0775034 -0.995773 -0.0492943
0.270838 -0.0672657 0.419729 -0.140206 0.986154 -0.0885544
-0.0785816 -0.0797996 0.546509 0.108267 0.990139 -0.0889002
-0.246275 -0.0688816 0.442058 0.0672927 0.997672 0.0110899
0.090582 -0.102336 0.57183 0.166497 -0.984775 0.0499729
-0.0242026 -0.0375266 0.704769 -0.741568 0.670832 0.00778805
0.181281 -0.0900203 0.512339 0.166494 -0.984776 0.0499677
-0.0229241 -0.0408633 0.845675 -0.606244 0.787786 0.10891
-0.00235311 0.0481526 0.118103 -0.999865 0.00248869 -0.0162244
-0.244515 -0.0692755 0.455864 -0.0424489 0.987595 0.151179
0.0267374 -0.0502353 0.202811 0.976076 0.207375 -0.0653598
-0.00509237 -0.116536 0.770857 -0.382351 -0.923808 -0.0196604
0.105475 -0.0795551 0.51645 -0.108257 0.990139 -0.0889116
0.0237699 -0.0811806 0.902307 0.957224 -0.179174 0.2272
-0.300202 -0.0693968 0.427727 -0.593908 0.301123 0.746055
0.132002 -0.0956379 0.558206 0.271032 -0.942962 0.193298
-0.060365 -0.0421265 0.0516414 -0.0892419 -0.981209 -0.171072
-0.00637561 -0.0264021 0.307525 -0.16459 0.986362 -0.000775233
-0.209588 -0.0732245 0.450368 0.140213 0.986155 -0.0885372
0.283206 -0.0690194 0.382421 -0.151653 0.982724 -0.106092
0.249055 -0.0686989 0.442668 -0.0672888 0.997672 0.01109
0.0189037 -0.0449976 0.134483 0.994134 -0.00917508 -0.107763
0.162994 -0.0821475 0.541693 0.584281 0.302893 0.752909
0.0354471 -0.0569933 0.573281 0.989559 0.144119 0.00173377
-0.0961235 -0.0971873 0.469182 -0.0984152 -0.993928 -0.0492119
0.0360439 -0.104138 0.475231 0.109895 -0.992728 -0.0491446
0.261658 -0.0777477 0.373879 0.0775028 -0.995773 -0.0492962
-0.0349743 -0.0816955 0.689124 -0.984709 -0.174184 -0.00296949
0.121228 -0.0925295 0.425375 0.0984201 -0.993928 -0.0492039
-0.000125883 0.10865 0.0283047 -0.992626 -0.0260255 -0.118391
0.229014 -0.0763254 0.391553 -0.149125 0.983558 -0.101856
0.0744811 -0.103808 0.558948 0.116671 -0.991956 -0.0491029
-0.204207 -0.0863528 0.502973 -0.265279 -0.944538 0.193586
0.257686 -0.0792841 0.398667 0.0775028 -0.995773 -0.0492962
-0.0510315 -0.0412062 0.0597706 0.145136 0.988804 0.0346787
-0.0151564 -0.091372 0.214284 -0.566888 -0.805993 -0.170334
0.0654804 -0.0395418 0.0970251 -0.157424 0.98746 0.0118296
-0.0340965 -0.0528685 0.73977 -0.940694 0.33918 0.00714102
0.0172241 -0.0306103 0.520606 0.413436 0.910471 0.0106351
-0.0104332 -0.107699 0.307391 -0.290597 -0.951666 -0.099424
0.0208215 -0.0461421 0.0740259 -0.145141 0.988804 0.0346624
0.172113 -0.0904657 0.485469 0.0984201 -0.993928 -0.0492039
0.100432 -0.0358627 0.0366186 0.0892619 -0.981209 -0.17106
-0.190724 -0.0731478 0.48876 0.0672866 0.997672 0.0110988
0.0146508 -0.0291752 0.493555 0.280774 0.959709 0.0111993
0.038663 -0.0847521 0.52774 -0.0429504 0.994664 -0.0938007
0.0343196 -0.0744183 0.855215 0.99405 -0.0849115 0.0682305
-0.00979237 -0.11342 0.71415 -0.496531 -0.86785 -0.0171498
-0.0333286 -0.0879585 0.377759 -0.933845 0.305596 -0.185859
-0.246791 -0.0741262 0.386766 0.149141 0.983557 -0.101848
0.0788375 -0.0991701 0.474726 0.0984183 -0.993928 -0.0492015
0.00964024 -0.111478 0.451295 0.193799 -0.981003 -0.00867762
0.030277 -0.07406 0.250352 0.982293 -0.164756 -0.0891932
0.00313872 -0.10337 0.908949 0.429405 -0.853336 0.295683
0.0285771 -0.0414977 0.625967 0.741419 0.670996 0.00786783
-0.0191795 -0.107821 0.530051 -0.496277 -0.868111 0.0095612
0.223253 -0.0716167 0.446616 -0.140209 0.986153 -0.0885592
0.111963 -0.0975565 0.508392 0.0984183 -0.993928 -0.0492015
-0.00522694 -0.114057 0.601381 -0.547698 -0.836618 -0.00986666
-0.026616 -0.0974564 0.332534 -0.889365 -0.455738 -0.0365185
0.00591292 -0.0267323 0.0917832 0.383172 0.923664 -0.00494299
0.3604 -0.0685512 0.343351 0.0775028 -0.995773 -0.0492962
0.0132608 -0.0312835 0.709079 0.280846 0.959687 0.0111978
0.0234995 -0.107902 0.540907 0.0551478 -0.997417 -0.0460148
0.0363278 -0.0653046 0.748681 0.989559 0.144096 0.00310747
-0.0235417 -0.0338865 0.336027 -0.744176 0.667898 -0.0107295
-0.0351992 -0.0603661 0.319412 -0.989402 0.143159 -0.0242754
0.0363327 -0.0639827 0.648674 0.989575 0.14401 0.00175037
0.00667581 -0.114907 0.722161 0.382296 -0.923976 -0.0108447
0.0833438 -0.0435516 0.076111 0.159714 -0.985063 -0.0643653
0.0356165 -0.0586733 0.61617 0.98956 0.144113 0.00172347
-0.360114 -0.0673695 0.318971 -0.0774971 -0.995773 -0.0493045
-0.034126 -0.053288 0.755819 -0.940694 0.33918 0.00714102
0.0234472 -0.0366396 0.688625 0.613042 0.789997 0.00924377
-0.0224916 -0.0985269 0.294716 -0.745699 -0.660984 -0.0838651
0.387238 -0.0589949 0.348665 0.0424594 0.987589 0.151215
0.147928 -0.0916633 0.461284 0.0984201 -0.993928 -0.0492039
0.0107831 -0.0754625 0.139493 0.591011 -0.776437 -0.21875
0.00874979 -0.112079 0.50023 0.19949 -0.979866 -0.00816326
0.0606194 -0.0998928 0.446924 0.116671 -0.991956 -0.0491029
-0.0691678 -0.0982311 0.433598 -0.116667 -0.991956 -0.0491178
-0.10099 -0.0835984 0.48048 0.116663 0.987435 -0.106592
-0.00937605 -0.111994 0.504535 -0.19949 -0.979866 -0.00818412
0.036326 -0.065137 0.434551 0.998854 -0.0478678 -0.000507748
0.00302409 -0.0229842 0.132717 0.998042 0.0619177 0.00888549
-0.00224852 0.0127465 0.107131 -0.999844 0.00177176 -0.0175482
-0.00510172 -0.0262734 0.430582 -0.163256 0.986517 0.0114857
0.0159582 -0.0305115 0.561386 0.413592 0.9104 0.0106315
-0.0354272 -0.0791247 0.72348 -0.990352 -0.138558 -0.0020468
-0.0628027 -0.079881 0.568363 0.0302508 0.999481 0.0111109
-0.00273803 -0.0119665 0.128339 -0.9998 0.00956729 -0.0175451
-0.0362528 -0.0718052 0.768296 -0.998856 -0.0478133 -0.0010666
0.36144 -0.0643702 0.314119 -0.207397 0.955507 -0.209746
-0.0147098 -0.0532676 0.0915527 -0.0861316 -0.98051 -0.176581
0.137874 -0.0937673 0.483675 0.0984183 -0.993928 -0.0492015
-0.152347 -0.0764815 0.493629 0.108267 0.990139 -0.0888972
-0.0201819 -0.032668 0.246114 -0.620874 0.783654 -0.0200218
0.357025 -0.0678732 0.324349 0.0775034 -0.995773 -0.0492943
-0.068972 -0.0896912 0.617719 -0.584409 0.302687 0.752892
0.0126242 -0.0303325 0.64354 0.280846 0.959687 0.0111978
-0.144629 -0.0804332 0.552376 -0.35233 0.781198 0.515358
-0.250728 -0.0808241 0.418773 -0.0774971 -0.995773 -0.0493045
-0.0122904 -0.107442 0.883167 -0.519388 -0.836942 0.172522
0.0321513 -0.0446922 0.418229 0.875703 0.482851 4.73897e-05
0.00442877 -0.0261926 0.187195 0.177002 0.984207 -0.00255653
0.335901 -0.0724339 0.384105 0.153635 -0.986859 0.0500511
-0.221585 -0.0832656 0.422275 -0.0774971 -0.995773 -0.0493045
0.158531 -0.0929015 0.507505 0.0984183 -0.993928 -0.0492015
0.0345765 -0.0830473 0.666754 0.973345 -0.22933 -0.00271484
-0.236718 -0.0824084 0.428748 -0.0774971 -0.995773 -0.0493045
0.00301656 -0.0263456 0.44075 0.0219157 0.999692 0.011649
-0.0200568 -0.108478 0.75364 -0.68395 -0.729363 -0.0155422
-0.0969643 -0.101518 0.566796 -0.166503 -0.984775 0.0499566
0.0205468 -0.106074 0.681386 0.671335 -0.740885 -0.0199733
0.0019897 0.0505998 0.0691985 0.999856 0.014417 0.00890093
0.0335139 -0.0861269 0.360139 0.937784 -0.345428 -0.0352333
-0.0361076 -0.0433481 0.0583839 0.145134 0.988804 0.0346838
-0.135347 -0.0914115 0.430969 -0.0984152 -0.993928 -0.0492119
-0.0889735 -0.0867039 0.599932 -0.352307 0.781227 0.51533
0.034921 -0.0537067 0.600331 0.989552 0.144169 0.00173643
-0.0305294 -0.0421651 0.457963 -0.875681 0.482857 0.00558887
-0.0242399 -0.101581 0.657663 -0.772404 -0.634877 -0.0179711
-0.0876949 -0.0825067 0.505259 0.108267 0.990139 -0.0888972
0.381538 -0.0647247 0.299288 0.0775034 -0.995773 -0.0492943
-0.0231509 -0.098453 0.876316 -0.784026 -0.592953 0.183605
-0.00187352 0.02003 0.0624382 -0.992627 -0.0260225 -0.118384
0.00389515 -0.0261139 0.231127 0.0223027 0.999751 6.46589e-05
0.120527 -0.0916519 0.577172 0.634811 -0.110651 0.764704
0.0502163 -0.105079 0.526965 0.116685 -0.991954 -0.0491059
-0.0117268 -0.111168 0.462955 -0.19949 -0.979866 -0.00818412
-0.0289625 -0.0992048 0.795659 -0.785427 -0.618813 -0.0131997
0.123056 -0.0826125 0.465445 -0.116652 0.987435 -0.106605
-0.0206427 -0.109032 0.424483 -0.19949 -0.979866 -0.00818412
-0.0296732 -0.107345 0.540513 -0.054931 -0.997268 -0.0493777
0.212542 -0.0850645 0.444458 0.0775028 -0.995773 -0.0492962
0.0359585 -0.0706061 0.361483 0.996326 -0.0806364 -0.0288372
-0.00661504 -0.0353021 0.856984 -0.157623 0.960435 0.229607
0.0292392 -0.0980885 0.763362 0.7854 -0.61885 -0.0131179
-0.00891916 -0.0816064 0.156375 -0.325734 -0.914722 -0.239125
-0.0320492 -0.0455263 0.510236 -0.875681 0.482857 0.00558887
0.0215182 -0.101224 0.307522 0.74982 -0.656355 -0.0834766
0.0569911 -0.101219 0.465099 0.116671 -0.991956 -0.0491029
0.117845 -0.0799733 0.496731 -0.108257 0.990139 -0.0889116
0.00517514 -0.112008 0.36268 0.181095 -0.983466 9.54734e-06
