0.00100478 0.0959785 0.131332 0.533381 0.640357 0.552673
0.206834 -0.0808934 0.486902 -0.000954313 -0.999999 -0.000785653
-0.00834962 -0.0949287 0.587472 -0.164782 -0.986093 -0.0216269
0.0745752 0.0848569 0.0511818 0.0017773 0.998336 -0.0576311
0.0406687 -0.0195458 0.612091 0.852464 0.522606 0.013694
-0.0241525 -0.0755952 0.241109 -0.262978 -0.963817 -0.0435872
0.351541 -0.0608581 0.396702 0.554491 0.83105 -0.0435384
0.100176 -0.0792658 0.40672 -0.00842209 -0.999965 0.000266083
-0.0102859 -0.00700277 0.236832 -0.296752 0.954776 -0.0184553
0.0463584 -0.0547591 0.755166 0.991374 0.0749385 0.107527
0.00257517 -0.00287439 0.305025 0.296247 0.95506 -0.00987762
-0.133348 0.0836006 0.0336683 0.0172999 0.998021 -0.0604472
-0.176529 -0.0757661 0.473614 0.0109063 0.999178 -0.039051
0.255359 -0.0788966 0.483054 0.0469852 -0.998344 0.0331912
-0.358167 -0.0824785 0.481825 -0.831533 -0.555178 0.0182006
-0.0483577 -0.0346298 0.600273 -0.976833 0.213829 0.00858627
0.00124029 -0.00233651 0.0682384 0.999768 -0.0166102 -0.0137252
-0.357353 -0.0815933 0.546478 -0.834011 -0.551455 0.0179782
-0.353716 -0.0824826 0.361653 -0.810323 -0.54376 -0.218405
-0.358361 -0.0677396 0.502026 -0.828791 0.559269 0.0179805
-0.0338783 -0.0356988 0.149571 -0.99961 -0.0176432 -0.0216542
-0.0144222 -0.0936418 0.453607 -0.158482 -0.986755 -0.0346104
0.00244617 0.0101515 0.140807 0.99978 -0.0154955 -0.0141326
-0.0342698 -0.0842474 0.370509 -0.775743 -0.553285 -0.303476
-0.0060765 -0.0769932 0.929893 -0.501324 0.615368 0.608273
-0.135603 -0.0796341 0.391241 0.00910656 -0.999958 0.000287671
0.00749151 -0.0751793 0.926895 0.500944 0.615677 0.608275
0.0449043 -0.0704396 0.738602 0.945494 -0.317814 0.0709606
0.0359114 -0.0444427 0.130216 0.999783 -0.0170769 -0.0119609
-0.0835057 -0.0763201 0.469466 0.012929 0.999872 -0.00943574
-0.110096 -0.0804717 0.386585 0.00835712 0.987653 -0.156433
0.108727 0.0845532 0.0516947 0.0109417 0.999855 0.0130797
0.0138719 -0.0708117 0.0579745 0.26367 -0.964037 -0.0333371
0.0101417 -0.0756059 0.167108 0.26367 -0.964037 -0.0333371
0.0132062 -0.000744286 0.688209 0.248117 0.96873 -0.000628796
-0.109654 -0.0793896 0.419458 0.00910656 -0.999958 0.000287671
-0.202993 -0.0769132 0.436872 0.0109063 0.999178 -0.039051
0.0455537 -0.0260692 0.575828 0.852788 0.521561 0.026966
-0.294595 -0.0749077 0.43258 0.0356354 0.996311 -0.0780651
0.0185638 -0.00531479 0.437365 0.292455 0.955598 -0.0360895
-0.0135284 -0.000887736 0.546734 -0.194797 0.980064 -0.0391036
-0.0723789 0.084427 0.0511512 -0.0137799 0.999676 -0.0213829
0.327216 -0.0715955 0.463807 -0.0247597 0.998172 -0.0551395
-0.0361761 -0.049931 0.252516 -0.999637 0.014403 -0.0227664
0.00236069 0.0426621 0.0953936 0.999768 -0.0166102 -0.0137252
0.00571016 -0.00512667 0.181277 0.296247 0.95506 -0.00987762
0.00136202 -0.0134773 0.0548126 -0.997971 0.0635893 0.00305798
-0.047215 -0.0787865 0.539334 0.00910656 -0.999958 0.000287671
-0.358453 -0.0797654 0.377962 -0.979931 -0.194472 -0.0437647
-0.0454162 -0.0723455 0.591652 -0.947671 -0.319246 0.0010517
-0.0701506 0.0848572 0.0698287 -0.0137799 0.999676 -0.0213829
0.14362 -0.0814483 0.482073 -0.149095 -0.967168 -0.205806
-0.248877 -0.0801957 0.457596 -0.0463961 -0.998372 0.0331903
0.00386477 0.00114719 0.524002 0.236304 0.971341 -0.0256282
-0.00373113 -0.0971562 0.653848 -0.164782 -0.986093 -0.0216269
-0.0674261 -0.0790152 0.384149 0.00910656 -0.999958 0.000287671
0.164898 -0.0803524 0.384806 0.0247004 0.987347 -0.156639
-0.00166545 0.0138311 0.0904599 -0.999756 -0.01513 -0.0160786
0.344472 -0.0586512 0.415624 -0.19318 0.980186 -0.0437816
0.175649 -0.0775242 0.423856 -0.0082131 0.999206 -0.0389903
-0.0264672 -0.0409879 0.824691 -0.538599 0.786066 0.303333
-0.069352 -0.0790219 0.421891 0.00910656 -0.999958 0.000287671
0.305465 -0.0781047 0.442104 0.0199251 -0.999511 0.0240972
0.0264206 -0.0369474 0.814302 0.538095 0.786417 0.303317
0.0325262 -0.0578082 0.0783228 0.948815 -0.314826 -0.0252174
-0.00387811 -0.0753749 0.119651 -0.19095 -0.980922 -0.0364821
-0.0388579 -0.0336994 0.773543 -0.770856 0.593121 0.232354
0.0261254 -0.0689714 0.0944211 0.729203 -0.683135 -0.0398669
-0.0123156 -0.0961378 0.515121 -0.158482 -0.986755 -0.0346104
0.331056 -0.076797 0.5246 -0.979619 -0.200038 0.0182089
-0.271819 -0.0798354 0.382471 0.00199689 0.992133 -0.125172
0.0398651 -0.0470602 0.371174 0.996841 0.0149185 -0.0780082
-0.00298595 0.0714785 0.118322 -0.999756 -0.01513 -0.0160786
0.03604 -0.0518461 0.168601 0.995668 -0.0920998 -0.0127553
-0.00142397 -0.0930471 0.386232 -0.0727998 -0.939964 -0.333418
0.0168198 -0.0929381 0.405053 0.0780925 -0.996333 -0.0349496
-0.165164 -0.0782479 0.409449 -0.0300826 0.999469 -0.0125309
-0.0318754 -0.0229531 0.235957 -0.905564 0.423785 -0.0189664
0.0309874 -0.0683067 0.177636 0.800637 -0.597767 -0.0406878
0.118635 -0.0773582 0.422699 0.0128242 0.999854 -0.0112733
0.247086 -0.0804615 0.447694 0.0469852 -0.998344 0.0331912
-0.0373447 -0.0356916 0.311506 -0.960599 0.277486 -0.0158186
0.0177675 -0.000970683 0.565006 0.194402 0.980876 -0.00945286
-0.0849124 0.0843445 0.0553709 -0.0137799 0.999676 -0.0213829
-0.162405 -0.0798799 0.38504 0.00910656 -0.999958 0.000287671
0.0490501 -0.0378326 0.543354 0.981189 0.192666 -0.0121602
-0.0131672 -0.0946797 0.551597 -0.164495 -0.983866 0.0703453
-0.00477764 -0.0972797 0.667453 -0.164782 -0.986093 -0.0216269
-0.0558458 -0.0788802 0.486924 0.00910656 -0.999958 0.000287671
0.0109146 0.079801 0.0387156 -0.0778313 -0.971743 -0.222842
-0.0187956 -0.0915035 0.872668 -0.671342 -0.734594 0.0983483
0.0213062 -0.010643 0.233261 0.712718 0.701434 -0.00484998
0.319257 -0.0741835 0.420531 -0.0247597 0.998172 -0.0551395
-0.344605 -0.0908508 0.424611 0.194296 -0.979966 -0.043767
-0.105518 -0.0793333 0.484379 0.00910656 -0.999958 0.000287671
0.0347345 -0.0843477 0.561206 0.709016 -0.689565 0.147635
0.0422082 -0.0785966 0.456596 0.99941 -0.0146211 -0.0310728
0.269261 -0.0806898 0.409434 0.0469852 -0.998344 0.0331912
-0.035294 -0.0491147 0.2143 -0.999637 0.014403 -0.0227664
-0.0244766 0.075125 0.0744229 -0.0624619 -0.997455 0.0343709
-0.0169311 -0.00863878 0.171972 -0.711804 0.702261 -0.012808
-0.0111421 -0.0966765 0.708159 -0.214508 -0.976639 -0.0127495
0.0224365 -0.00232693 0.621805 0.194423 0.980887 0.007731
0.329758 -0.0782197 0.379525 -0.0393937 0.986691 -0.157763
-0.0262928 -0.0114668 0.757729 -0.672748 0.729269 0.124806
0.0653098 0.0816114 0.0272073 0.000847957 0.993474 -0.114054
-0.337404 -0.0863331 0.379885 0.556405 -0.829771 -0.0435187
-0.0498556 -0.0548007 0.676946 -0.997185 0.0748083 0.00517054
0.0529514 -0.0788396 0.513609 -0.00842209 -0.999965 0.000266083
-0.258585 -0.0811351 0.402731 -0.025615 -0.999358 0.025061
-0.0277428 0.0850561 0.112571 -0.465582 0.433078 0.771801
-0.259912 -0.0807699 0.378144 0.00910656 -0.999958 0.000287671
0.338797 -0.0877649 0.50761 -0.550781 -0.834451 0.0182131
0.342198 -0.0891181 0.489641 -0.193865 -0.980863 0.0179984
-0.245306 -0.0806376 0.3758 0.00910656 -0.999958 0.000287671
0.0744064 -0.0790335 0.463907 -0.00842209 -0.999965 0.000266083
0.0378612 -0.0763211 0.810058 0.931566 -0.357715 0.0649992
0.0491037 -0.0420267 0.644964 0.997137 0.0753908 0.00589768
0.0339543 -0.0582023 0.136975 0.948815 -0.314826 -0.0252174
0.319569 -0.0786251 0.408853 0.0199251 -0.999511 0.0240972
-0.213 -0.0811368 0.429765 0.150636 -0.966658 -0.207079
-0.031187 -0.0304877 0.034736 -0.905564 0.423785 -0.0189664
0.0361037 -0.0324676 0.24576 0.905462 0.424422 -0.00204831
-0.0456523 -0.071549 0.620668 -0.947671 -0.319246 0.0010517
-0.288311 -0.0729893 0.459932 0.0356354 0.996311 -0.0780651
-0.0262029 -0.0793335 0.34294 -0.19095 -0.980922 -0.0364821
0.0887254 0.0849366 0.0636545 0.00811978 0.999739 -0.0213352
-0.0401488 -0.0185886 0.609342 -0.852768 0.522104 0.0139261
-0.0121947 -0.0932011 0.424608 -0.0775561 -0.996895 -0.0136404
-0.0320732 -0.0225753 0.25384 -0.905564 0.423785 -0.0189664
0.0213469 -0.0776474 0.279192 0.191513 -0.980683 -0.0397998
-0.137229 -0.0818785 0.497126 -0.025615 -0.999358 0.025061
-0.183791 -0.0789492 0.398237 -0.0300826 0.999469 -0.0125309
0.13429 0.083819 0.0350432 0.0017773 0.998336 -0.0576311
0.0365051 -0.0349296 0.180993 0.999839 0.0149634 -0.00994708
-0.0455331 -0.0511518 0.465979 -0.997768 -0.0208247 -0.0634459
-0.0310118 -0.0760428 0.865108 -0.937407 -0.300154 0.176566
0.0261286 -0.0061957 0.489364 0.648214 0.760798 -0.031695
0.00327274 0.063705 0.108709 0.996399 -0.0727719 0.0435104
0.0621742 0.0850098 0.0557369 0.0109417 0.999855 0.0130797
-0.0359513 -0.0551138 0.284681 -0.995195 -0.0926406 -0.0316983
0.0145018 -0.0386036 0.834398 0.289017 0.868519 0.402672
-0.00335601 0.0833498 0.127933 0.998726 -0.0144265 0.0483496
0.0220145 0.0865601 0.114342 0.00811978 0.999739 -0.0213352
0.0475727 -0.0365806 0.698136 0.951837 0.30643 0.0103158
0.0966372 -0.0792393 0.394185 -0.00842209 -0.999965 0.000266083
0.303732 -0.0799956 0.384308 0.0398716 -0.998663 0.032906
-0.0493331 0.0768335 0.077788 -0.103467 -0.98571 0.132933
-0.35606 -0.084667 0.512141 -0.834011 -0.551455 0.0179782
-0.238075 -0.0810248 0.436468 0.00157262 -0.999998 -0.000806673
-0.349463 -0.0794711 0.574925 -0.538366 -0.797417 0.272558
0.178715 -0.079935 0.377583 -0.00842209 -0.999965 0.000266083
0.0756452 -0.0790661 0.380831 -0.00842209 -0.999965 0.000266083
0.0343302 -0.0844516 0.701721 0.674462 -0.738232 -0.0107246
0.0220094 -0.0935801 0.434952 0.0780925 -0.996333 -0.0349496
-0.0496118 -0.0573489 0.727447 -0.993354 0.0745075 0.0877249
-0.0476117 -0.030243 0.559553 -0.981345 0.192131 -0.00686909
-0.0298747 -0.0915226 0.402461 -0.0775561 -0.996895 -0.0136404
-0.0319134 -0.086883 0.621155 -0.674083 -0.738655 -0.000944025
0.01617 -0.0960092 0.838981 0.246736 -0.969013 -0.011627
0.337311 -0.069491 0.354516 -0.805112 0.540191 -0.244926
-0.0187157 -0.0126775 0.0497099 -0.711804 0.702261 -0.012808
0.0305074 -0.0779595 0.330962 0.191513 -0.980683 -0.0397998
-0.0416978 -0.0831557 0.528591 -0.869804 -0.493352 -0.00676115
0.0276536 -0.0176271 0.154375 0.711472 0.702699 -0.00473448
-0.0419764 -0.0553434 0.4113 -0.995319 -0.0783525 -0.0565756
0.0324069 -0.0772531 0.351225 0.729203 -0.683135 -0.0398669
-0.0441919 -0.0607483 0.447898 -0.997835 -0.0173189 -0.0634501
-0.0240749 -0.0934214 0.752543 -0.67396 -0.738487 0.0203541
-0.0264836 -0.0706996 0.167936 -0.728565 -0.683293 -0.0479968
-0.333703 -0.063943 0.413256 0.830539 0.555238 -0.0437615
0.0268982 -0.00488583 0.573712 0.60239 0.797886 0.0224276
-0.0371642 -0.0428117 0.300406 -0.999637 0.014403 -0.0227664
-0.0354534 -0.0229882 0.370476 -0.95907 0.277063 -0.0584931
-0.000325749 -0.018623 0.0376978 -0.999756 -0.01513 -0.0160786
-0.014287 -0.00806504 0.188395 -0.132523 0.991153 -0.00730867
0.00604228 -0.0954664 0.45305 0.0780925 -0.996333 -0.0349496
-0.0334961 -0.049123 0.139732 -0.948612 -0.315428 -0.0253053
0.00391346 0.00160807 0.645442 0.248117 0.96873 -0.000628796
0.040121 -0.0223469 0.718675 0.851577 0.523867 0.0195034
0.0354215 -0.0400463 0.0829884 0.999783 -0.0170769 -0.0119609
0.293522 -0.0796918 0.4059 0.0398716 -0.998663 0.032906
-0.255231 -0.0775665 0.479839 -0.075145 0.915187 0.395961
-0.239644 -0.0810965 0.42363 -0.025615 -0.999358 0.025061
0.0468369 -0.0520813 0.484199 0.998031 -0.0202205 -0.0593672
0.00394673 0.0414672 0.0560819 0.996399 -0.0727719 0.0435104
-0.0384452 -0.0440669 0.353597 -0.997873 0.0143776 -0.0635884
-0.0484684 -0.0345306 0.585217 -0.976833 0.213829 0.00858627
0.335845 -0.0636119 0.531945 -0.559446 0.828667 0.0182057
0.0267777 -0.023507 0.786496 0.761624 0.605037 0.232077
-0.00487683 0.0888039 0.0453616 -0.965206 0.25506 -0.0576338
-0.0207172 -0.0046499 0.479749 -0.23681 0.97088 -0.0362332
0.302198 -0.0729138 0.451176 -0.0247597 0.998172 -0.0551395
0.0579235 -0.0782494 0.406857 0.00457149 0.994751 -0.102226
0.00140677 0.00915779 0.0664553 0.999768 -0.0166102 -0.0137252
0.355527 -0.0636604 0.50651 0.554928 0.831704 0.0179972
0.375317 -0.0730308 0.332453 1 0.000811942 2.90779e-07
-0.0019765 0.0208055 0.103238 -0.999756 -0.01513 -0.0160786
0.00307931 0.00669634 0.223095 0.998668 -0.0513549 -0.00496658
-0.350017 -0.0889272 0.491185 -0.195634 -0.980508 0.0181975
-0.0363005 -0.0410722 0.263582 -0.999637 0.014403 -0.0227664
0.0265844 -0.0531499 0.0305474 0.248208 -0.0828043 -0.965161
0.0312333 -0.0785769 0.85894 0.936403 -0.299216 0.183356
0.100968 -0.0793764 0.503235 -0.149095 -0.967168 -0.205806
-0.355049 -0.0869889 0.44837 -0.555822 -0.831102 0.0181971
0.0493912 -0.0500436 0.698849 0.997137 0.0753908 0.00589768
-0.0205685 -0.0093176 0.770072 -0.521214 0.794885 0.310636
-0.266734 -0.0790687 0.466532 -0.0463961 -0.998372 0.0331903
0.0814087 -0.0790995 0.437678 -0.00842209 -0.999965 0.000266083
-0.361395 -0.0757902 0.428559 -0.980709 -0.194626 0.0181979
-0.360037 -0.071389 0.40511 -0.979805 0.195109 -0.0437575
-0.019383 -0.0928555 0.562576 -0.164495 -0.983866 0.0703453
0.00857459 -0.097254 0.762599 0.215116 -0.976573 0.00550049
-0.0531198 -0.0788628 0.460999 0.00910656 -0.999958 0.000287671
0.00340261 0.0513641 0.160758 0.999768 -0.0166102 -0.0137252
0.0166093 -0.00160671 0.702357 0.248117 0.96873 -0.000628796
-0.0407673 -0.0494768 0.382999 -0.994463 -0.0782864 -0.0701058
-0.360087 -0.0790984 0.463695 -0.981551 -0.190354 0.0179814
0.0419921 -0.0240493 0.672492 0.851636 0.523331 0.0289989
-0.16121 -0.0818251 0.474743 -0.025615 -0.999358 0.025061
-0.00241949 -0.0746048 0.0913114 -0.19095 -0.980922 -0.0364821
-0.0377906 -0.0197432 0.449737 -0.965253 0.259093 -0.0340342
0.122756 -0.0794445 0.449588 -0.00842209 -0.999965 0.000266083
-0.0617164 0.0847231 0.0581242 -0.0137799 0.999676 -0.0213829
0.00511998 -0.0959607 0.622218 0.215044 -0.97637 -0.0214166
0.00155268 -0.00943889 0.0990789 0.99978 -0.0154955 -0.0141326
0.021647 -0.0113692 0.178322 0.712718 0.701434 -0.00484998
0.348668 -0.059176 0.453428 0.194465 0.980744 0.0179984
0.0862549 -0.079144 0.423745 -0.00842209 -0.999965 0.000266083
-0.0318457 -0.0700094 0.258607 -0.98844 -0.143398 -0.0492269
-0.00315503 0.0102707 0.23676 -0.990628 -0.135958 -0.0130672
-0.0823058 -0.0791408 0.418548 0.00910656 -0.999958 0.000287671
0.0906842 0.0842456 0.0410889 0.0017773 0.998336 -0.0576311
-0.0364049 -0.0812827 0.801147 -0.658996 -0.751685 0.0263468
-0.237586 -0.0793282 0.389524 0.018643 0.99733 -0.0706049
0.0369177 0.0780951 0.0998453 0.0897231 -0.987243 0.131531
-0.0896366 -0.0764853 0.443566 0.012929 0.999872 -0.00943574
-0.0275792 0.0764771 0.0920772 -0.103467 -0.98571 0.132933
-0.00134945 -0.00201094 0.0393739 -0.996149 -0.0759943 0.0437195
-0.188136 -0.0751651 0.485749 0.0109063 0.999178 -0.039051
0.0376254 -0.0541461 0.308965 0.995668 -0.0920998 -0.0127553
0.0352979 -0.0921701 0.476237 0.159163 -0.98716 -0.013514
0.0443469 -0.0777314 0.545945 0.709016 -0.689565 0.147635
-0.230905 -0.0807352 0.46649 -0.0463961 -0.998372 0.0331903
0.0477343 -0.0659264 0.64967 0.947865 -0.318646 0.00400198
0.00319289 0.0664531 0.127221 0.999768 -0.0166102 -0.0137252
-0.335884 -0.0840204 0.551584 0.797198 -0.538683 0.272573
0.0173643 -0.0938076 0.628028 0.165399 -0.986131 -0.0137564
0.0380876 -0.0550758 0.351756 0.995668 -0.0920998 -0.0127553
-0.0586057 -0.0780217 0.533606 -0.211776 0.856561 0.470589
0.0160825 0.084823 0.0548157 0.000847957 0.993474 -0.114054
0.343315 -0.0638525 0.559476 -0.192315 0.942726 0.27255
-0.0262964 -0.00570375 0.672446 -0.704018 0.71016 0.0057169
-0.0316975 -0.0332234 0.0468857 -0.99961 -0.0176432 -0.0216542
0.0320867 0.0821251 0.0314351 0.000847957 0.993474 -0.114054
-0.00624971 -0.097965 0.726888 -0.214539 -0.976686 0.00758553
-0.155912 -0.0798003 0.456169 0.00910656 -0.999958 0.000287671
0.00639747 -0.0030791 0.397972 0.292455 0.955598 -0.0360895
0.00331625 0.0352198 0.174004 0.999768 -0.0166102 -0.0137252
-0.0166812 -0.00764816 0.288341 -0.132523 0.991153 -0.00730867
0.0497725 -0.0534978 0.677255 0.99754 0.0699099 0.0051608
-0.0451364 0.0789144 0.0964845 -0.103467 -0.98571 0.132933
-0.0271087 -0.09319 0.541422 -0.158243 -0.984554 0.0749153
-0.0225716 -0.0923017 0.417873 -0.0775561 -0.996895 -0.0136404
0.026359 -0.0151403 0.325361 0.712718 0.701434 -0.00484998
-0.00142598 0.00234481 0.656843 -0.194985 0.980806 -0.000636635
0.0411002 -0.0320753 0.422865 0.963898 0.259337 -0.0603787
0.00219689 -0.0971272 0.491801 0.0780925 -0.996333 -0.0349496
-0.0114807 -0.0805718 0.299178 -0.19095 -0.980922 -0.0364821
0.0381837 -0.0202417 0.450601 0.894072 0.446145 -0.0398713
0.286348 -0.0790089 0.435806 0.0469852 -0.998344 0.0331912
-0.0250353 -0.0900871 0.838311 -0.667136 -0.744584 0.0228676
0.33878 -0.0851172 0.553444 -0.530017 -0.802993 0.272552
0.339436 -0.0729947 0.576418 -0.94455 0.183153 0.272544
0.351448 -0.0627073 0.36963 0.543645 0.810733 -0.21717
-0.0490221 -0.0625321 0.583784 -0.937237 -0.348672 0.0038782
0.0456466 0.0852044 0.0598071 0.00811978 0.999739 -0.0213352
0.0477219 -0.0661329 0.622468 0.937444 -0.348136 0.000297877
-0.0420384 -0.0269667 0.731809 -0.847401 0.52074 0.103638
0.001238 -0.0133191 0.081072 0.99978 -0.0154955 -0.0141326
0.0501994 -0.0593636 0.588353 0.947865 -0.318646 0.00400198
-0.00447996 -0.0968522 0.541526 -0.164495 -0.983866 0.0703453
0.191283 -0.0787894 0.399332 0.0258885 0.992117 -0.122611
0.356933 -0.0701876 0.55392 0.94264 0.192699 0.272573
-0.0431174 -0.0422403 0.429974 -0.996433 0.0642942 -0.0546535
-0.0252586 -0.0184385 0.0974725 -0.7131 0.700947 -0.0127206
0.020415 -0.00183143 0.553079 0.236214 0.971016 -0.0364746
-0.0390459 0.0796194 0.035609 0.0378488 -0.974076 -0.223031
0.0391145 -0.0298319 0.4008 0.963898 0.259337 -0.0603787
-0.0345788 -0.0158439 0.461659 -0.64826 0.75999 -0.0466267
0.319161 -0.0773925 0.387345 -0.0393937 0.986691 -0.157763
0.259996 -0.0739522 0.47138 0.0811622 0.915032 0.395131
-0.0371355 -0.0586937 0.332324 -0.995195 -0.0926406 -0.0316983
-0.17204 -0.0766827 0.450334 0.00746326 0.999273 -0.0373974
0.366431 -0.0765298 0.354615 0.901517 0.000496658 0.432744
0.195768 -0.0802182 0.386887 -0.0267503 0.997181 -0.0701013
-0.0264223 -0.0191285 0.124687 -0.7131 0.700947 -0.0127206
0.0124261 -0.00016005 0.598623 0.194423 0.980887 0.007731
0.0416975 -0.0218448 0.628129 0.85218 0.522418 0.0294594
-0.00344037 0.0649268 0.0377627 -0.996749 -0.0241902 -0.0768464
-0.363822 -0.0767457 0.334597 -0.0395365 -0.995901 -0.0813574
0.0107574 -0.0933772 0.909153 0.66843 -0.730445 0.140184
-0.132337 -0.0755335 0.485914 0.012929 0.999872 -0.00943574
-0.027909 -0.0864115 0.849634 -0.664048 -0.741016 0.0996748
0.0404923 -0.0736573 0.785833 0.932098 -0.357924 0.0555364
-0.00258322 0.00453817 0.160853 -0.999286 -0.0364096 -0.0100427
0.0337316 -0.0696882 0.251933 0.800637 -0.597767 -0.0406878
0.0387797 -0.0823843 0.429313 0.877813 -0.4782 -0.0277332
0.0348013 -0.0612658 0.207089 0.948815 -0.314826 -0.0252174
-0.200725 -0.0810077 0.487999 0.00157262 -0.999998 -0.000806673
0.0457626 -0.0476196 0.46462 0.998031 -0.0202205 -0.0593672
0.0432368 -0.02342 0.600145 0.852654 0.52229 0.0139298
-0.0498125 -0.0521981 0.647617 -0.997185 0.0748083 0.00517054
0.329375 -0.0754427 0.39699 -0.0393937 0.986691 -0.157763
0.0634779 -0.0775759 0.468437 -0.0781114 0.996933 -0.00489245
0.0248907 -0.00381545 0.604383 0.70983 0.70435 0.00566946
-0.351865 -0.0607042 0.472924 -0.555477 0.831333 0.0182053
-0.111013 0.0839884 0.0464636 0.0172999 0.998021 -0.0604472
-0.333484 -0.0665596 0.530024 0.833656 0.551991 0.0179769
-0.0299005 -0.0545313 0.0723575 -0.948612 -0.315428 -0.0253053
0.0348913 -0.0147519 0.710983 0.70983 0.70435 0.00566946
-0.020063 -0.0338698 0.0284685 -0.309988 -0.00551136 -0.950724
-0.00856483 6.44512e-05 0.526647 -0.23681 0.97088 -0.0362332
-0.0823839 0.0777838 0.0463477 -0.0624619 -0.997455 0.0343709
-0.0442809 -0.042439 0.761556 -0.890958 0.435439 0.12879
0.00460622 -0.00295152 0.373631 0.292673 0.95621 -0.00198068
0.0199037 0.0802803 0.0334863 -0.0778313 -0.971743 -0.222842
0.0334784 -0.0233969 0.263716 0.9605 0.278086 -0.0104278
0.230292 -0.0803661 0.389917 -0.00842209 -0.999965 0.000266083
-0.337028 -0.0687771 0.357475 0.80473 0.540762 -0.244921
-0.00271745 0.000887409 0.509632 -0.293122 0.955742 -0.0252213
0.109293 -0.07688 0.514235 0.105292 0.910714 0.399391
-0.0164472 -0.0791549 0.287074 -0.19095 -0.980922 -0.0364821
0.00290319 0.0416187 0.0379486 0.996827 -0.0210866 -0.0767567
0.154114 -0.0806726 0.470825 -0.149095 -0.967168 -0.205806
-0.028765 -0.0100374 0.471678 -0.736567 0.675729 -0.0293083
0.308769 -0.0763177 0.400282 -0.0603759 0.994963 -0.0800268
0.024276 -0.094004 0.480389 0.159163 -0.98716 -0.013514
0.100023 -0.0792534 0.448413 -0.00842209 -0.999965 0.000266083
0.0359064 -0.0669561 0.30491 0.989495 -0.142926 -0.0217262
-0.0476835 -0.0348235 0.519253 -0.979096 0.191711 -0.0679511
0.352274 -0.0869651 0.525878 0.56001 -0.828285 0.0182124
-0.0161721 -0.0874077 0.373554 -0.0727998 -0.939964 -0.333418
-0.30238 -0.0729088 0.454248 0.0596182 0.995518 -0.0734138
0.0143294 -0.0449042 0.848562 0.23872 0.92021 0.310204
0.190287 -0.0800233 0.412121 -0.00842209 -0.999965 0.000266083
0.00502165 -0.0979882 0.800426 0.221121 -0.974947 -0.0241564
-0.0217826 -0.00629046 0.442753 -0.23681 0.97088 -0.0362332
0.0234584 -0.00265503 0.637736 0.194423 0.980887 0.007731
-0.219269 -0.080399 0.380694 0.00910656 -0.999958 0.000287671
-0.150371 -0.0797577 0.429026 0.00910656 -0.999958 0.000287671
0.141811 -0.0784262 0.392925 0.0279407 0.987259 -0.156649
0.0263188 0.0861054 0.0946737 0.00811978 0.999739 -0.0213352
0.0501616 -0.0568118 0.550721 0.999151 -0.0202417 -0.0358957
0.0030243 0.0336223 0.154672 0.999768 -0.0166102 -0.0137252
-0.0423962 -0.0682475 0.422171 -0.981692 -0.18462 -0.0468569
-0.0290442 -0.0701267 0.202698 -0.98844 -0.143398 -0.0492269
0.355607 -0.062133 0.424148 0.554491 0.83105 -0.0435384
0.0413758 -0.0563445 0.808049 0.992686 -0.00972446 0.12033
-0.0441019 -0.0287824 0.71828 -0.851888 0.523373 0.0191923
-0.0145961 -0.0942057 0.470478 -0.158482 -0.986755 -0.0346104
-0.359792 -0.0680242 0.419394 -0.830539 0.555238 -0.0437739
-0.343165 -0.0607748 0.543932 0.199295 0.979774 0.0179835
-0.355802 -0.062438 0.43198 -0.555477 0.831333 0.0182053
-0.0741984 -0.0790424 0.504173 0.00910656 -0.999958 0.000287671
0.0129564 -0.072223 0.0915439 0.26367 -0.964037 -0.0333371
-0.00230152 0.000573605 0.492907 -0.293122 0.955742 -0.0252213
-0.027591 -0.0908659 0.651107 -0.674083 -0.738655 -0.000944025
0.0522403 -0.0781753 0.442227 -0.0552135 0.998473 0.00176641
-0.0124896 -0.00467379 0.412466 -0.293122 0.955742 -0.0252213
-0.0479022 -0.0788352 0.391734 0.00910656 -0.999958 0.000287671
0.021086 -0.0115088 0.0755198 0.711472 0.702699 -0.00473448
0.337533 -0.0610197 0.465269 -0.555888 0.831062 0.0179971
-0.324221 -0.0729048 0.443945 0.016379 0.998342 -0.0551914
-0.275477 -0.0763952 0.424363 0.0473899 0.995746 -0.0790202
0.0858683 -0.0785257 0.388489 -0.00507229 0.999987 0.000269601
-0.00773054 -0.00421517 0.339959 -0.296752 0.954776 -0.0184553
0.0222093 -0.0124165 0.109482 0.712718 0.701434 -0.00484998
0.139712 -0.0774229 0.440939 0.0128242 0.999854 -0.0112733
-0.042288 -0.0775031 0.707073 -0.716308 -0.697721 -0.00943734
-0.0376537 -0.0807806 0.59764 -0.716308 -0.697721 -0.00943734
-0.0503022 -0.0547806 0.561839 -0.996954 0.0692801 -0.035817
-0.359985 -0.0756766 0.39398 -0.979468 -0.196849 -0.0435022
0.0837016 0.0776504 0.0226719 -0.0778313 -0.971743 -0.222842
0.039833 -0.0218865 0.469182 0.894072 0.446145 -0.0398713
-0.0280281 -0.0901564 0.740108 -0.67396 -0.738487 0.0203541
0.000258141 -0.0296578 0.0310283 -0.997971 0.0635893 0.00305798
-0.112186 -0.0784528 0.407609 0.00428517 0.999991 0.00011539
0.154635 -0.0797231 0.41181 -0.00842209 -0.999965 0.000266083
0.352384 -0.0848466 0.367057 0.541189 -0.812176 -0.217909
-0.358086 -0.0808608 0.534925 -0.834011 -0.551455 0.0179782
-0.0431929 -0.0269225 0.705455 -0.85204 0.523279 0.0143805
0.00400304 -0.0980184 0.704811 0.215044 -0.97637 -0.0214166
-0.0422881 -0.0410627 0.41624 -0.996433 0.0642942 -0.0546535
-0.0375236 -0.04889 0.312342 -0.999637 0.014403 -0.0227664
0.00410897 -0.0927318 0.930201 0.318966 -0.917615 0.237158
-0.0133574 -0.0557552 0.881193 -0.195415 0.931796 0.305891
0.0303843 0.0853238 0.0595955 0.00811978 0.999739 -0.0213352
-0.334126 -0.065108 0.515262 0.833656 0.551991 0.0179769
0.0567312 0.0841825 0.0437211 -0.0509376 0.97327 -0.223946
-0.00247499 0.0232038 0.131977 -0.999756 -0.01513 -0.0160786
0.0360726 0.0855243 0.0711558 0.00811978 0.999739 -0.0213352
0.00115515 -0.0171845 0.0643916 -0.997971 0.0635893 0.00305798
-0.0439867 -0.0705159 0.754703 -0.945906 -0.31862 0.0611846
-0.00306964 0.0178447 0.174917 -0.999733 -0.0173463 -0.0152686
0.00303946 0.0527481 0.0957259 0.996399 -0.0727719 0.0435104
0.149349 -0.0754895 0.489109 -0.021592 0.999065 -0.0374515
-0.0170747 -0.00685868 0.359117 -0.29323 0.956033 -0.00410227
0.0136805 -0.0781569 0.254857 0.191513 -0.980683 -0.0397998
-0.0127703 -0.0747142 0.152954 -0.262978 -0.963817 -0.0435872
0.0103104 -0.0956567 0.46801 0.0780925 -0.996333 -0.0349496
0.0351717 -0.012603 0.626037 0.60239 0.797886 0.0224276
-0.0340459 -0.0228318 0.347992 -0.7131 0.700947 -0.0127206
-0.0164959 -0.0062296 0.400072 -0.293122 0.955742 -0.0252213
0.229585 -0.0811261 0.418282 -0.149095 -0.967168 -0.205806
-0.0519931 0.0761705 0.0547588 -0.0624619 -0.997455 0.0343709
-0.09985 -0.0760641 0.474206 0.012929 0.999872 -0.00943574
-0.0361446 -0.082027 0.777663 -0.659165 -0.751901 0.0121299
0.0173894 -0.0742276 0.175885 0.191513 -0.980683 -0.0397998
-0.354331 -0.0772333 0.335953 -0.0395365 -0.995901 -0.0813574
-0.0785629 -0.0791009 0.438813 0.00910656 -0.999958 0.000287671
-0.0148716 -0.0847193 0.922606 -0.941922 -0.216277 0.256919
0.090465 -0.0791825 0.412293 -0.00842209 -0.999965 0.000266083
0.163654 -0.0810955 0.497485 0.0261988 -0.999343 0.0250496
0.0352096 -0.0828321 0.584548 0.716766 -0.697314 0.000461641
-0.0450464 -0.078803 0.41351 0.00910656 -0.999958 0.000287671
-0.0118174 -0.0739356 0.129989 -0.262978 -0.963817 -0.0435872
-0.317397 -0.0787639 0.424198 -0.0393024 -0.998929 0.0244061
-0.334182 -0.0670496 0.550142 0.80222 0.531177 0.272569
0.0487753 -0.0399376 0.673781 0.997137 0.0753908 0.00589768
-0.285592 -0.079114 0.387969 0.00199689 0.992133 -0.125172
-0.00830147 -0.0826624 0.338747 -0.19095 -0.980922 -0.0364821
0.0414055 -0.0385672 0.75933 0.76769 -0.610977 0.193286
0.0684882 -0.0770886 0.487733 -0.0781114 0.996933 -0.00489245
0.0769454 -0.0790444 0.503445 -0.00842209 -0.999965 0.000266083
-0.00510201 -0.00463143 0.276158 -0.296752 0.954776 -0.0184553
0.046149 -0.0645738 0.749436 0.932098 -0.357924 0.0555364
-0.15725 -0.0812391 0.502157 -0.025615 -0.999358 0.025061
-0.0366997 -0.0120908 0.567022 -0.602883 0.797514 0.0224307
0.00105247 -0.00608587 0.0270189 0.996827 -0.0210866 -0.0767567
0.00930604 -0.0749259 0.140835 0.26367 -0.964037 -0.0333371
0.0130857 -0.0799364 0.295842 0.191513 -0.980683 -0.0397998
-0.0303271 -0.0882463 0.564202 -0.708687 -0.690075 0.146831
-0.0240944 -0.0222575 0.789453 -0.606584 0.700635 0.375721
-0.355228 -0.0627308 0.411912 -0.555037 0.830674 -0.0437628
0.276616 -0.0809153 0.386528 0.0261988 -0.999343 0.0250496
-0.343252 -0.0891582 0.509069 0.19445 -0.980744 0.0181969
0.214152 -0.0812645 0.437926 0.0261988 -0.999343 0.0250496
0.0259894 -0.0713844 0.14721 0.191513 -0.980683 -0.0397998
0.0163927 -0.0932768 0.578295 0.165399 -0.986131 -0.0137564
-0.0385368 -0.0596638 0.363982 -0.993049 -0.0924463 -0.0728498
-0.184137 -0.0781762 0.410426 0.015184 0.99329 -0.114647
-0.344536 -0.0733736 0.325554 0.940495 -0.199388 -0.27516
0.023616 -0.0937223 0.452038 0.159163 -0.98716 -0.013514
-0.0593099 -0.0789154 0.474321 0.00910656 -0.999958 0.000287671
-0.0365986 -0.0360954 0.275471 -0.99961 -0.0176432 -0.0216542
-0.330614 -0.0783296 0.485663 0.980608 -0.195132 0.0181998
0.00892258 -0.00324864 0.413945 0.292455 0.955598 -0.0360895
0.0103982 -0.00646804 0.19979 0.993317 0.101273 -0.0553583
0.0434654 -0.0540591 0.789321 0.997024 -0.00976696 0.0764721
0.121427 0.0778274 0.00900529 0.0960466 -0.987966 0.121237
-0.0541594 -0.0788815 0.428982 0.00910656 -0.999958 0.000287671
-0.0391005 -0.0156295 0.528492 -0.648992 0.760779 -0.00491418
0.291418 -0.0778915 0.463086 0.0398716 -0.998663 0.032906
-0.351838 -0.0890477 0.416245 -0.555382 -0.830443 -0.0437603
0.164081 -0.0816252 0.475907 0.0261988 -0.999343 0.0250496
0.0233321 -0.0106492 0.766594 0.688166 0.669616 0.279362
-0.00315201 0.011858 0.190912 -0.999286 -0.0364096 -0.0100427
0.109689 -0.0784046 0.39974 -0.00526691 0.999961 -0.00712202
-0.306101 -0.0752273 0.419787 0.0596182 0.995518 -0.0734138
0.10847 -0.0793282 0.434595 -0.00842209 -0.999965 0.000266083
-0.029399 0.0782599 0.103881 -0.103467 -0.98571 0.132933
-0.118041 -0.0755085 0.508145 0.012929 0.999872 -0.00943574
-0.338474 -0.0691515 0.566871 0.80222 0.531177 0.272569
-0.122986 -0.0795104 0.421736 0.00910656 -0.999958 0.000287671
0.233234 -0.0804617 0.379004 -0.00259562 0.996155 -0.0875665
0.00351974 -0.0946909 0.425305 0.0780925 -0.996333 -0.0349496
-0.0410088 -0.0787066 0.71808 -0.674083 -0.738655 -0.000944025
-0.0110429 0.086518 0.109384 -0.0137799 0.999676 -0.0213829
0.0400604 -0.0551204 0.379477 0.994506 -0.0777258 -0.0701165
-0.0321017 -0.0322205 0.0647257 -0.99961 -0.0176432 -0.0216542
0.0371207 -0.0250155 0.756972 0.746233 0.58078 0.325316
0.0364519 -0.0305122 0.347848 0.9605 0.278086 -0.0104278
0.0394293 -0.0398513 0.778236 0.697273 0.70793 0.11245
0.02464 -0.005405 0.730585 0.705037 0.699437 0.117095
0.00787731 -0.00139774 0.464544 0.236304 0.971341 -0.0256282
0.0337942 -0.0355442 0.794851 0.761624 0.605037 0.232077
0.0386318 -0.0613629 0.828206 0.985349 0.0722806 0.154478
0.359963 -0.0686877 0.456326 0.979576 0.20025 0.0182074
0.0373612 -0.0286305 0.377581 0.964032 0.259372 -0.0580344
0.0206079 -0.0100651 0.214232 0.712718 0.701434 -0.00484998
0.00278275 0.0199932 0.0468217 0.996399 -0.0727719 0.0435104
0.102344 0.0777054 0.0231289 0.0960466 -0.987966 0.121237
0.049335 -0.0431364 0.620052 0.997137 0.0753908 0.00589768
-0.0184542 -0.0703914 0.0916607 -0.262978 -0.963817 -0.0435872
0.0185972 -0.0691775 0.0480905 0.26367 -0.964037 -0.0333371
0.0341971 -0.0279712 0.207924 0.9605 0.278086 -0.0104278
-0.0179305 -0.0930023 0.442688 -0.0775561 -0.996895 -0.0136404
0.00294656 0.00183058 0.606711 0.248117 0.96873 -0.000628796
-0.120527 -0.0798172 0.390159 0.00835712 0.987653 -0.156433
0.00663387 -0.090488 0.377115 0.0755818 -0.967026 -0.243203
-0.0317438 -0.0406599 0.0550795 -0.99961 -0.0176432 -0.0216542
-0.0391812 -0.0510122 0.810523 -0.659993 0.720254 0.213642
-0.0274376 -0.00764414 0.493497 -0.736567 0.675729 -0.0293083
-0.0179643 -0.0893215 0.89464 -0.671342 -0.734594 0.0983483
0.000318463 -0.00195364 0.0800718 0.995908 -0.0819764 0.0380525
-0.00354014 -0.0813095 0.27745 -0.19095 -0.980922 -0.0364821
0.0215303 -0.00307585 0.526828 0.236304 0.971341 -0.0256282
0.00794787 -0.078382 0.230035 0.26367 -0.964037 -0.0333371
0.0176539 -0.00346546 0.47896 0.292455 0.955598 -0.0360895
-0.202079 -0.0802387 0.393756 0.00910656 -0.999958 0.000287671
0.0416624 -0.056889 0.405965 0.994963 -0.0777607 -0.0632657
-0.335762 -0.0616804 0.424917 0.554966 0.830721 -0.0437631
-0.00260809 -0.0962933 0.605944 -0.164782 -0.986093 -0.0216269
-0.0397265 -0.0222571 0.485502 -0.965253 0.259093 -0.0340342
-0.0253454 -0.00486063 0.684834 -0.704018 0.71016 0.0057169
0.0366345 -0.0456124 0.192329 0.999783 -0.0170769 -0.0119609
0.0121096 -0.0958491 0.687314 0.215044 -0.97637 -0.0214166
-0.238412 -0.0812087 0.411615 0.150636 -0.966658 -0.207079
-0.225564 -0.0762291 0.449352 0.00866895 0.999201 -0.0390147
0.0254973 -0.0566906 0.862611 0.643193 0.70256 0.304487
-0.0634073 -0.0786625 0.413432 0.00428517 0.999991 0.00011539
0.038733 -0.014681 0.571204 0.852597 0.52185 0.0274132
-0.0490228 -0.0407952 0.644209 -0.997578 0.0693194 0.00578958
0.359668 -0.080366 0.470967 0.9808 -0.194183 0.0179945
0.0243811 -0.01402 0.196726 0.712718 0.701434 -0.00484998
-0.328731 -0.0775901 0.453991 -0.0393024 -0.998929 0.0244061
-0.00678596 0.0862826 0.0801102 -0.967462 0.252547 -0.0153843
0.0381442 -0.0450746 0.330491 0.999839 0.0149634 -0.00994708
0.0259498 -0.0149128 0.298134 0.712718 0.701434 -0.00484998
-0.33658 -0.0641735 0.370998 0.538592 0.810329 -0.230838
0.0494255 -0.0425265 0.595707 0.99754 0.0699099 0.0051608
0.0304524 -0.0770916 0.312709 0.729203 -0.683135 -0.0398669
-0.358742 -0.0716989 0.370667 -0.901585 -0.00176749 0.432599
0.0464607 -0.0695576 0.588967 0.937444 -0.348136 0.000297877
0.00411477 -0.00529172 0.117469 0.296247 0.95506 -0.00987762
-0.0454014 -0.0712415 0.729053 -0.945906 -0.31862 0.0611846
-0.0362184 -0.0640912 0.319304 -0.995195 -0.0926406 -0.0316983
0.00160135 -0.0128402 0.119671 -0.997971 0.0635893 0.00305798
-0.352131 -0.0864455 0.371626 -0.540715 -0.812492 -0.217908
0.00212899 0.0129116 0.11452 0.999768 -0.0166102 -0.0137252
0.0374505 -0.034857 0.323964 0.9605 0.278086 -0.0104278
-0.0210183 -0.09427 0.784944 -0.214539 -0.976686 0.00758553
-0.0216568 -0.00390246 0.505919 -0.23681 0.97088 -0.0362332
-0.141786 -0.0799006 0.475798 0.150636 -0.966658 -0.207079
0.044236 -0.0632792 0.46299 0.98097 -0.183866 -0.0623741
-0.156134 -0.0782036 0.407521 0.00582702 0.999959 -0.00691384
0.0034504 0.0725771 0.147706 1 0.000301831 6.73248e-06
-0.0441755 -0.0750972 0.672461 -0.716308 -0.697721 -0.00943734
0.0203021 -0.00903129 0.318805 0.712718 0.701434 -0.00484998
-0.000181909 0.00254412 0.582876 -0.194985 0.980806 -0.000636635
0.0365332 -0.0899657 0.413397 0.97499 -0.222227 -0.00306298
0.00457542 -0.000525589 0.757014 0.154574 0.98497 0.0770833
0.14171 -0.0795977 0.473775 -0.00842209 -0.999965 0.000266083
0.0406282 -0.0788827 0.733427 0.674448 -0.738179 0.0145435
-0.00220558 0.0300559 0.108777 -0.999756 -0.01513 -0.0160786
-0.177868 -0.0816882 0.457895 0.150636 -0.966658 -0.207079
0.144084 -0.0817135 0.372612 0.0279407 0.987259 -0.156649
-0.00846951 -0.0794924 0.254394 -0.19095 -0.980922 -0.0364821
0.0163814 0.0777937 0.111592 0.0897231 -0.987243 0.131531
-0.31323 -0.0797569 0.390265 -0.0393024 -0.998929 0.0244061
-0.0301424 -0.0928777 0.503015 -0.0775561 -0.996895 -0.0136404
0.131987 -0.0817552 0.504287 0.0261988 -0.999343 0.0250496
0.00255407 -0.0738166 0.0553525 0.26367 -0.964037 -0.0333371
0.101907 -0.0787667 0.383661 0.0279407 0.987259 -0.156649
0.0116871 -0.0600462 0.895514 0.23872 0.92021 0.310204
-0.348168 -0.0603153 0.392781 -0.19718 0.979401 -0.0435141
-0.00442618 0.0551118 0.0685627 -0.996149 -0.0759943 0.0437195
0.0499034 -0.0583632 0.717868 0.99754 0.0699099 0.0051608
0.0265717 -0.0713768 0.885733 0.936259 0.217967 0.275518
0.355691 -0.0631903 0.479725 0.554928 0.831704 0.0179972
-0.035415 -0.011958 0.547631 -0.602547 0.797187 -0.0378106
-0.00375158 0.0455162 0.0479096 -0.996749 -0.0241902 -0.0768464
-0.176074 -0.0769582 0.496657 -0.103367 0.911012 0.399215
-0.033698 -0.0518639 0.830333 -0.659993 0.720254 0.213642
-0.303804 -0.0798858 0.377833 0.0390043 0.991352 -0.125298
-0.0833347 -0.080039 0.37961 -0.0290713 0.999576 -0.00154834
0.0309288 0.0750526 0.0524319 -0.0778313 -0.971743 -0.222842
0.00291827 0.00468086 0.211553 0.998668 -0.0513549 -0.00496658
-0.0263721 -0.00553146 0.515428 -0.736567 0.675729 -0.0293083
-0.340849 -0.0883323 0.528737 0.190159 -0.981589 0.0179794
-0.0512963 0.0851507 0.0714008 -0.0137799 0.999676 -0.0213829
0.100788 -0.0792544 0.468762 -0.00842209 -0.999965 0.000266083
0.0372555 -0.031647 0.360625 0.959375 0.277778 -0.0493811
0.0534176 0.0798829 0.0235137 -0.0778313 -0.971743 -0.222842
-0.0286403 -0.0211578 0.137203 -0.7131 0.700947 -0.0127206
0.0313783 -0.0234013 0.0354963 0.905462 0.424422 -0.00204831
-0.02599 -0.0923915 0.701665 -0.674083 -0.738655 -0.000944025
-0.0168621 -0.053293 0.871454 -0.195415 0.931796 0.305891
0.119231 -0.0794193 0.433106 -0.00842209 -0.999965 0.000266083
0.0329596 -0.0580437 0.0975671 0.948815 -0.314826 -0.0252174
0.0283935 -0.0892835 0.766269 0.659538 -0.751406 0.0199482
-0.0301156 -0.0921649 0.450774 -0.0775561 -0.996895 -0.0136404
-0.03812 -0.0813015 0.685736 -0.674083 -0.738655 -0.000944025
-0.318211 -0.0718812 0.4652 0.0483683 0.939727 0.338486
0.00389744 0.00159652 0.621336 0.248117 0.96873 -0.000628796
0.294015 -0.0781363 0.452509 0.0398716 -0.998663 0.032906
0.0592461 0.0772758 0.073463 0.0155456 -0.996837 -0.0779403
-0.0501792 -0.0538295 0.601028 -0.997578 0.0693194 0.00578958
-0.087062 -0.0791738 0.454556 0.00910656 -0.999958 0.000287671
0.0817535 -0.076358 0.469453 0.0128242 0.999854 -0.0112733
0.00993452 -0.0969615 0.527516 0.159163 -0.98716 -0.013514
0.0139661 -0.00596725 0.347611 0.296247 0.95506 -0.00987762
-0.0320313 -0.0868248 0.659786 -0.674083 -0.738655 -0.000944025
-0.00352074 0.0439307 0.177497 -0.999756 -0.01513 -0.0160786
0.269746 -0.0792039 0.453442 0.0469852 -0.998344 0.0331912
-0.112189 -0.0763894 0.445127 -0.0110704 0.999243 -0.0373062
-0.00672029 -0.0327348 0.826938 -0.224584 0.862822 0.452879
-0.0432087 -0.0748203 0.578607 -0.716308 -0.697721 -0.00943734
-0.0133823 -0.0261433 0.810059 -0.353412 0.799663 0.485427
-0.0176077 -0.0943314 0.487854 -0.158482 -0.986755 -0.0346104
-0.000411934 -0.00430159 0.217808 -0.296752 0.954776 -0.0184553
0.000664684 -0.00027663 0.440531 0.236304 0.971341 -0.0256282
-0.136585 -0.0815956 0.374501 -0.0290713 0.999576 -0.00154834
0.0209981 -0.0927669 0.597112 0.165399 -0.986131 -0.0137564
0.25616 -0.0805843 0.388756 -0.00842209 -0.999965 0.000266083
-0.090462 -0.076014 0.492379 0.012929 0.999872 -0.00943574
0.0400006 -0.0664731 0.383288 0.998166 -0.0167506 -0.0581686
-0.0154624 -0.0784706 0.263523 -0.19095 -0.980922 -0.0364821
-0.0486286 -0.0630537 0.63198 -0.937237 -0.348672 0.0038782
0.348559 -0.071214 0.581296 0.797198 0.538685 0.272568
-0.333359 -0.084507 0.469321 0.830816 -0.556249 0.018196
-0.0109162 -0.096258 0.867641 -0.246024 -0.968288 0.0434797
-0.00330823 0.0609027 0.148313 -0.999756 -0.01513 -0.0160786
-0.0323929 -0.0923087 0.474231 -0.0775561 -0.996895 -0.0136404
-0.00976567 -0.0955996 0.62885 -0.164782 -0.986093 -0.0216269
-0.0278397 -0.0906155 0.632837 -0.674083 -0.738655 -0.000944025
-0.340403 -0.0600058 0.472109 0.19505 0.980625 0.0181988
-0.00690497 -0.0043407 0.32019 -0.296752 0.954776 -0.0184553
-0.14028 -0.0772884 0.506015 -0.0907904 0.912737 0.398332
-0.302624 -0.0799325 0.40016 -0.0393024 -0.998929 0.0244061
0.0498913 -0.0485425 0.587183 0.99754 0.0699099 0.0051608
-0.285352 -0.0768718 0.412435 0.0473899 0.995746 -0.0790202
-0.33864 -0.0609619 0.487053 0.558983 0.828984 0.0179811
0.21485 -0.0802314 0.407435 -0.00842209 -0.999965 0.000266083
-0.135054 -0.0758357 0.466744 -0.0110704 0.999243 -0.0373062
0.0314609 -0.0246408 0.774941 0.733133 0.604718 0.311177
-0.0035213 0.0599727 0.162436 -0.999756 -0.01513 -0.0160786
-0.00210968 -0.0910771 0.939286 -0.318415 -0.917806 0.237158
0.0920776 -0.0784775 0.521517 0.111473 0.873552 0.473794
-0.0489616 -0.0417765 0.66651 -0.997578 0.0693194 0.00578958
0.0270995 -0.091903 0.558311 0.165013 -0.983328 0.0764031
0.00830522 -0.0973589 0.863658 0.246687 -0.968579 0.0316316
0.0453196 -0.0690263 0.490091 0.998619 -0.0167582 -0.0497978
-0.0490363 -0.0617381 0.651721 -0.937237 -0.348672 0.0038782
-0.0426524 -0.0329733 0.453093 -0.893212 0.445089 -0.0637797
0.324153 -0.0733189 0.433985 -0.0247597 0.998172 -0.0551395
0.0496044 -0.0608276 0.612695 0.947865 -0.318646 0.00400198
0.0393021 -0.086347 0.514176 0.877813 -0.4782 -0.0277332
-0.0334315 -0.0270279 0.22585 -0.960599 0.277486 -0.0158186
0.0823144 0.0777421 0.0437381 0.0629466 -0.997435 0.0340872
0.0427606 -0.0786615 0.420137 -0.0552341 0.998472 0.00148734
0.0746553 0.0819967 0.0850276 0.47433 0.427183 0.769757
-0.249114 -0.078735 0.39486 0.018643 0.99733 -0.0706049
-0.0827768 0.0799971 0.0792199 0.0694899 -0.989841 -0.124038
0.0464372 0.0854366 0.0709916 0.00811978 0.999739 -0.0213352
-0.0848311 -0.0762067 0.479674 0.012929 0.999872 -0.00943574
-0.0617914 0.0797829 0.0899612 -0.103467 -0.98571 0.132933
0.048142 -0.0641293 0.529963 0.982389 -0.184107 0.0318698
0.0298587 -0.0092788 0.661129 0.70983 0.70435 0.00566946
-0.0244194 -0.0214165 0.0314372 -0.258876 0.256721 -0.93117
0.0155664 -0.00692471 0.303031 0.296247 0.95506 -0.00987762
-0.146407 -0.077015 0.438524 -0.0110704 0.999243 -0.0373062
0.0427742 -0.0771066 0.474097 0.99941 -0.0146211 -0.0310728
0.00728357 -0.0977217 0.730061 0.215116 -0.976573 0.00550049
-0.0471938 -0.0667368 0.692396 -0.947671 -0.319246 0.0010517
0.360742 -0.074551 0.406896 0.980029 -0.19403 -0.0435273
-0.0174164 -0.00238541 0.739039 -0.248497 0.967733 0.0417494
-0.0053637 -0.0714853 0.03687 -0.262978 -0.963817 -0.0435872
-0.0270897 -0.063846 0.109742 -0.800343 -0.59831 -0.0384186
-0.0279344 0.0764551 0.0513146 0.0378488 -0.974076 -0.223031
-0.101835 -0.0757004 0.510017 0.012929 0.999872 -0.00943574
-0.148258 -0.0815944 0.49718 -0.025615 -0.999358 0.025061
-0.0160995 -0.0200938 0.797976 -0.585212 0.714882 0.382715
0.0376197 -0.044968 0.277927 0.999839 0.0149634 -0.00994708
-0.344127 -0.0898189 0.482805 0.19445 -0.980744 0.0181969
0.326435 -0.0774574 0.451614 0.0199251 -0.999511 0.0240972
0.0320927 -0.0844191 0.820709 0.667516 -0.744094 0.0273228
-0.0494814 -0.0454787 0.621268 -0.997578 0.0693194 0.00578958
-0.00220283 0.0337066 0.0315387 -0.996749 -0.0241902 -0.0768464
-0.0103403 0.0847066 0.0532545 0.0153647 0.993385 -0.1138
-0.090591 -0.0757937 0.515543 0.012929 0.999872 -0.00943574
0.05123 0.0761676 0.0550676 0.0629466 -0.997435 0.0340872
0.00625848 -3.93613e-05 0.501102 0.236304 0.971341 -0.0256282
0.350291 -0.0598823 0.407299 0.196614 0.979503 -0.0437842
0.181303 -0.0749668 0.489946 -0.0110635 0.999239 -0.0374066
0.132394 -0.078292 0.396912 -0.00507229 0.999987 0.000269601
0.0457114 -0.0368907 0.478458 0.97957 0.192364 -0.0586415
0.034374 -0.0837544 0.656483 0.674462 -0.738232 -0.0107246
-0.0208855 -0.0118855 0.213728 -0.711804 0.702261 -0.012808
-0.037406 -0.0158195 0.657725 -0.852412 0.522667 0.0145836
-0.0309187 -0.0550604 0.117124 -0.948612 -0.315428 -0.0253053
0.0505428 -0.0567962 0.573049 0.99754 0.0699099 0.0051608
-0.023562 -0.0357981 0.816401 -0.538599 0.786066 0.303333
0.354373 -0.0863237 0.490483 0.56001 -0.828285 0.0182124
0.0353084 -0.0785316 0.833506 0.948899 -0.303249 0.087352
0.20952 -0.0773972 0.415657 -0.0374673 0.998519 -0.0394509
-0.0179719 -0.0748704 0.91248 -0.905278 0.210143 0.369205
0.0369528 -0.0445941 0.21748 0.999783 -0.0170769 -0.0119609
-0.30307 -0.0746936 0.429486 0.0596182 0.995518 -0.0734138
0.0171531 -0.00774186 0.248403 0.189824 0.981801 -0.00584451
-0.0307256 -0.0537827 0.093958 -0.948612 -0.315428 -0.0253053
0.08468 0.0848082 0.0523207 0.0109417 0.999855 0.0130797
0.359587 -0.0780617 0.369391 0.90058 -0.180467 0.395459
-0.00600082 -0.00765103 0.0942928 -0.132523 0.991153 -0.00730867
-0.0173674 -0.068946 0.0531417 -0.262978 -0.963817 -0.0435872
-0.0446999 -0.0648661 0.773099 -0.945906 -0.31862 0.0611846
0.0390904 -0.0543667 0.364183 0.998166 -0.0167506 -0.0581686
-0.0373328 -0.0806816 0.565956 -0.716308 -0.697721 -0.00943734
-0.34268 -0.0593721 0.412118 0.194895 0.979847 -0.0437623
0.0825633 -0.0791063 0.448514 -0.00842209 -0.999965 0.000266083
-0.0019094 0.000620354 0.118517 -0.999733 -0.0173463 -0.0152686
0.351022 -0.0801278 0.346304 0.810712 -0.543182 -0.218402
-0.0999361 0.0845303 0.0585808 0.0172999 0.998021 -0.0604472
-0.0197852 -0.00630559 0.429294 -0.23681 0.97088 -0.0362332
-0.0325559 -0.0330711 0.0863881 -0.99961 -0.0176432 -0.0216542
0.0478287 -0.078793 0.526697 -0.00842209 -0.999965 0.000266083
0.00333939 -0.0755799 0.112555 0.26367 -0.964037 -0.0333371
-0.0111352 -0.000119665 0.717177 -0.248674 0.968557 0.00764665
4.31621e-05 -0.000918003 0.766052 0.149231 0.949807 0.27495
-0.0410385 -0.0395438 0.395244 -0.996433 0.0642942 -0.0546535
-0.0397825 -0.0788553 0.616879 -0.716308 -0.697721 -0.00943734
0.13562 -0.0795485 0.466281 -0.00842209 -0.999965 0.000266083
0.0433428 -0.0394523 0.430966 0.995894 0.0648755 -0.0631344
0.0254766 -0.0757289 0.251793 0.191513 -0.980683 -0.0397998
0.0158747 -0.0760758 0.918303 0.907358 0.203651 0.367734
0.291122 -0.0760937 0.416381 -0.0603759 0.994963 -0.0800268
-0.078419 -0.0788361 0.398604 0.00835712 0.987653 -0.156433
0.0640438 0.085435 0.0776147 0.00811978 0.999739 -0.0213352
0.0311911 -0.092948 0.536024 0.165013 -0.983328 0.0764031
-0.046207 -0.0557269 0.478078 -0.997768 -0.0208247 -0.0634459
0.00339502 0.00761748 0.273904 0.999171 -0.0404741 -0.00445151
-0.0280444 -0.0735391 0.232052 -0.728565 -0.683293 -0.0479968
-0.033125 -0.0459597 0.121062 -0.999637 0.014403 -0.0227664
0.0349663 -0.0470292 0.0549092 0.999783 -0.0170769 -0.0119609
0.236817 -0.0808843 0.438812 -0.000954313 -0.999999 -0.000785653
-0.0254983 -0.0923159 0.615663 -0.214508 -0.976639 -0.0127495
0.00173365 -0.00731616 0.0479769 -0.997971 0.0635893 0.00305798
-0.0495055 -0.046507 0.532581 -0.999683 -0.0208599 0.0140704
-0.323966 -0.0746436 0.413194 0.0596182 0.995518 -0.0734138
0.00463585 -0.0512562 0.874526 0.193763 0.926563 0.322393
0.0479519 -0.0377032 0.51322 0.97957 0.192364 -0.0586415
0.0292262 -0.0863388 0.838459 0.667516 -0.744094 0.0273228
0.0397846 -0.0738832 0.795909 0.931566 -0.357715 0.0649992
0.0466202 0.0829882 0.0390609 0.000847957 0.993474 -0.114054
-0.136816 -0.0796284 0.449412 0.00910656 -0.999958 0.000287671
0.0311911 -0.0869419 0.615931 0.716766 -0.697314 0.000461641
-0.0238421 -0.0916539 0.822105 -0.667136 -0.744584 0.0228676
0.135527 0.0804837 0.0256962 0.0629466 -0.997435 0.0340872
0.00589305 0.0900966 0.100244 0.959294 0.281959 -0.0159178
-0.0297063 -0.0798155 0.355106 -0.0727998 -0.939964 -0.333418
-0.042909 -0.0611332 0.794904 -0.989859 -0.0102662 0.141682
0.0344869 -0.0297751 0.0889913 0.905462 0.424422 -0.00204831
-0.141908 -0.0806813 0.383562 0.00835712 0.987653 -0.156433
0.0682403 0.0773335 0.0577396 0.063006 -0.997421 0.0343811
-0.330145 -0.0763241 0.392654 0.061591 0.985416 -0.158628
0.197216 -0.0811305 0.460987 0.0261988 -0.999343 0.0250496
-0.021699 -0.013092 0.192783 -0.711804 0.702261 -0.012808
0.0484829 -0.0633428 0.678068 0.947865 -0.318646 0.00400198
-0.0355444 -0.044881 0.227977 -0.999637 0.014403 -0.0227664
0.0402127 -0.0360341 0.391693 0.963898 0.259337 -0.0603787
0.129353 0.0796943 0.0179388 0.0960466 -0.987966 0.121237
0.0018443 -0.0100981 0.141935 -0.997971 0.0635893 0.00305798
-0.0166906 0.0783773 0.0448277 0.0378488 -0.974076 -0.223031
0.3429 -0.0596089 0.489215 -0.19565 0.980509 0.0180022
-0.0418425 -0.07142 0.780511 -0.931236 -0.35825 0.0667596
0.0106387 -0.0812521 0.316486 0.191513 -0.980683 -0.0397998
0.0278094 -0.01556 0.362032 0.711282 0.700099 -0.0627573
-0.0482745 -0.0650181 0.534133 -0.98216 -0.184705 -0.0352855
0.165796 -0.0765371 0.452585 -0.0110635 0.999239 -0.0374066
-0.277506 -0.0781529 0.395716 0.00199689 0.992133 -0.125172
0.0239013 -0.00401358 0.515072 0.292455 0.955598 -0.0360895
-0.0785936 0.0833306 0.0320271 0.0153647 0.993385 -0.1138
0.0244389 -0.0920061 0.583944 0.165399 -0.986131 -0.0137564
0.00195099 0.0250351 0.0868821 0.999768 -0.0166102 -0.0137252
0.279006 -0.0730939 0.458655 -0.0133515 0.997004 -0.0761874
0.357241 -0.0843398 0.461491 0.831946 -0.554565 0.0179975
0.134349 -0.0819427 0.491113 -0.149095 -0.967168 -0.205806
-0.200092 -0.0802153 0.412398 0.00910656 -0.999958 0.000287671
-0.00812842 0.0771131 0.111933 -0.103467 -0.98571 0.132933
-0.0288896 -0.0667937 0.189885 -0.98844 -0.143398 -0.0492269
-0.0212777 -0.0948369 0.519069 -0.158482 -0.986755 -0.0346104
-0.00283911 0.0131684 0.165136 -0.999733 -0.0173463 -0.0152686
-0.0133599 -0.0780649 0.241607 -0.19095 -0.980922 -0.0364821
0.0451899 -0.0295142 0.680065 0.851758 0.52375 0.0139269
0.036488 -0.0151976 0.682989 0.60239 0.797886 0.0224276
-0.00607051 -0.0940625 0.92039 -0.326107 -0.940611 0.0943639
-0.0397838 -0.0623072 0.381522 -0.995813 -0.0172839 -0.0897654
-0.0444317 -0.0460494 0.441624 -0.995319 -0.0783525 -0.0565756
0.343739 -0.0762142 0.330456 -0.94286 -0.186154 -0.276338
0.0472627 -0.0664184 0.555595 0.936907 -0.347954 -0.0336543
-0.0952512 -0.0803743 0.38685 -0.0290713 0.999576 -0.00154834
-0.00210406 0.0144961 0.0363049 -0.996749 -0.0241902 -0.0768464
0.265287 -0.0764338 0.417352 -0.0133515 0.997004 -0.0761874
0.0764353 0.0779093 0.0687889 0.0155456 -0.996837 -0.0779403
0.012543 -0.077014 0.221223 0.191513 -0.980683 -0.0397998
-0.0286954 -0.0695614 0.87424 -0.965188 0.0702239 0.251954
-0.202277 -0.0762417 0.454253 0.0109063 0.999178 -0.039051
