-0.00326346 -0.000134218 0.754712 -0.155111 0.984885 0.0770817
0.0431888 -0.0787943 0.546542 0.709016 -0.689565 0.147635
-0.351027 -0.0885156 0.395853 -0.555382 -0.830443 -0.0437603
-0.129541 -0.0795859 0.391139 0.00835712 0.987653 -0.156433
0.0446842 -0.0540914 0.45005 0.994963 -0.0777607 -0.0632657
-0.0404964 -0.0798896 0.430696 -0.966541 -0.25469 -0.0305325
0.0351805 -0.0703563 0.294215 0.989495 -0.142926 -0.0217262
0.0238568 -0.0145535 0.0399982 0.711472 0.702699 -0.00473448
-0.0273057 -0.0167116 0.307389 -0.7131 0.700947 -0.0127206
0.0426843 -0.0767612 0.697733 0.674462 -0.738232 -0.0107246
-0.18513 -0.077875 0.415863 0.00746326 0.999273 -0.0373974
0.22522 -0.0803194 0.405065 -0.00842209 -0.999965 0.000266083
-0.0214184 -0.0150057 0.0722603 -0.711804 0.702261 -0.012808
0.247735 -0.0749182 0.442106 -0.0374673 0.998519 -0.0394509
0.0257523 -0.0923792 0.626484 0.165399 -0.986131 -0.0137564
-0.00183877 0.0998159 0.120579 -0.0747887 0.996509 -0.0370967
-0.166228 -0.0812052 0.494333 -0.025615 -0.999358 0.025061
-0.053995 -0.0788881 0.400905 0.00910656 -0.999958 0.000287671
-0.0353204 -0.0287556 0.310245 -0.960599 0.277486 -0.0158186
0.0663664 -0.0789562 0.499913 -0.00842209 -0.999965 0.000266083
0.00872335 -0.0018006 0.457076 0.236304 0.971341 -0.0256282
0.00273737 0.00338154 0.188612 0.998668 -0.0513549 -0.00496658
-0.164622 -0.0757918 0.47562 0.00746326 0.999273 -0.0373974
-0.0200543 -0.0113388 0.197506 -0.711804 0.702261 -0.012808
-0.13381 -0.0772051 0.429695 -0.0110704 0.999243 -0.0373062
0.0376702 -0.0460761 0.281342 0.999839 0.0149634 -0.00994708
-0.3458 -0.0588874 0.457287 -0.19505 0.980624 0.0182038
0.0487341 -0.0382712 0.641194 0.951837 0.30643 0.0103158
-0.00280651 0.0214988 0.154195 -0.999756 -0.01513 -0.0160786
-0.0422852 -0.0361362 0.759493 -0.983081 -0.019125 0.182169
-0.157972 -0.0798369 0.394228 0.00910656 -0.999958 0.000287671
0.00327943 0.0465207 0.157646 0.999768 -0.0166102 -0.0137252
-0.106158 0.0789829 0.0269999 0.0378488 -0.974076 -0.223031
0.335001 -0.0648421 0.374547 -0.829608 0.556627 -0.0437766
0.0475553 -0.0546971 0.497167 0.998031 -0.0202205 -0.0593672
-0.0306526 -0.00875612 0.610988 -0.602883 0.797514 0.0224307
0.0327907 -0.0225158 0.223862 0.9605 0.278086 -0.0104278
-0.24678 -0.0812509 0.41018 -0.025615 -0.999358 0.025061
0.163943 -0.0798032 0.405407 -0.00842209 -0.999965 0.000266083
0.33302 -0.0823631 0.39087 -0.831257 -0.55416 -0.0437941
-0.196337 -0.0816024 0.447719 -0.025615 -0.999358 0.025061
0.0663342 -0.0771848 0.502533 -0.0781114 0.996933 -0.00489245
0.0380216 -0.0527977 0.330156 0.995668 -0.0920998 -0.0127553
0.00818744 -0.0969891 0.699903 0.215044 -0.97637 -0.0214166
0.00348324 0.00109554 0.518527 0.236304 0.971341 -0.0256282
0.0117554 -0.0882285 0.926743 0.646526 -0.694408 0.315915
0.05114 -0.0783135 0.48595 -0.0552135 0.998473 0.00176641
0.081425 -0.082074 0.53007 -0.149095 -0.967168 -0.205806
0.016046 -0.00526246 0.418347 0.292455 0.955598 -0.0360895
-0.0614809 -0.0793951 0.384927 -0.0290713 0.999576 -0.00154834
-0.024892 -0.0637628 0.0626644 -0.800343 -0.59831 -0.0384186
0.0483992 -0.0527576 0.510693 0.998031 -0.0202205 -0.0593672
0.190153 -0.0775778 0.419426 -0.0082131 0.999206 -0.0389903
0.0145194 -0.096166 0.523407 0.159163 -0.98716 -0.013514
-0.00728684 -0.00722384 0.175544 -0.132523 0.991153 -0.00730867
0.00287368 0.0415892 0.134059 0.999768 -0.0166102 -0.0137252
0.0528177 -0.0789227 0.535985 -0.149095 -0.967168 -0.205806
0.0327691 -0.0122083 0.480849 0.648214 0.760798 -0.031695
0.011652 -0.0961062 0.694438 0.215044 -0.97637 -0.0214166
-0.0460852 -0.0482465 0.473708 -0.997768 -0.0208247 -0.0634459
0.194563 -0.0800549 0.42865 -0.00842209 -0.999965 0.000266083
-0.0387105 -0.0466228 0.80154 -0.849303 0.414938 0.326359
-0.0153365 0.0866603 0.117961 0.0172999 0.998021 -0.0604472
0.0204662 0.0863118 0.116081 0.506858 0.125533 0.85284
0.0018295 -0.0670664 0.915526 0.194634 0.885867 0.421138
-0.00784143 -0.0782557 0.217854 -0.19095 -0.980922 -0.0364821
-0.105551 -0.075834 0.490772 0.012929 0.999872 -0.00943574
-0.00314335 0.0431501 0.154766 -0.999756 -0.01513 -0.0160786
0.0242329 -0.0940286 0.481677 0.159163 -0.98716 -0.013514
0.00880426 -0.0936913 0.91579 0.32623 -0.939086 0.108123
-0.144376 -0.0797094 0.407058 0.00910656 -0.999958 0.000287671
-0.00790007 -0.0470613 0.859363 -0.238536 0.917184 0.319177
0.0418048 -0.0259757 0.727469 0.84081 0.517309 0.159469
-0.0214624 -0.0715708 0.135888 -0.262978 -0.963817 -0.0435872
0.0819798 -0.0782532 0.407896 0.00457149 0.994751 -0.102226
-0.310425 -0.0739244 0.433944 0.0596182 0.995518 -0.0734138
-0.00283464 0.0355535 0.0391523 -0.996749 -0.0241902 -0.0768464
-0.167082 -0.0799243 0.379037 0.00910656 -0.999958 0.000287671
0.0274964 -0.0364494 0.811102 0.538095 0.786417 0.303317
0.324162 -0.0773866 0.456429 0.0199251 -0.999511 0.0240972
0.00433591 -0.0145309 0.0295196 0.0202413 0.409363 -0.912147
0.0340942 -0.0291573 0.0433689 0.905462 0.424422 -0.00204831
0.0954615 -0.0763303 0.487507 0.0128242 0.999854 -0.0112733
0.0029652 0.00791558 0.187542 0.998668 -0.0513549 -0.00496658
0.0174232 -0.0763186 0.227571 0.191513 -0.980683 -0.0397998
-0.342126 -0.0889814 0.393752 0.196618 -0.979514 -0.0435106
-0.00726596 0.0760533 0.104745 -0.103467 -0.98571 0.132933
0.00528419 -0.0751443 0.115342 0.26367 -0.964037 -0.0333371
-0.334899 -0.0799061 0.36379 0.803049 -0.534976 -0.262512
0.00977257 -0.0953628 0.641676 0.215044 -0.97637 -0.0214166
-0.374659 -0.0764029 0.321578 0.0055976 -0.999984 -0.000358099
-0.211134 -0.0803208 0.395159 0.00910656 -0.999958 0.000287671
0.0464124 -0.0657772 0.739389 0.945494 -0.317814 0.0709606
0.0312933 -0.0231889 0.0419347 0.905462 0.424422 -0.00204831
0.0479969 -0.0383956 0.71291 0.951837 0.30643 0.0103158
-0.0456612 -0.0787933 0.466572 0.00910656 -0.999958 0.000287671
0.0254943 -0.0141278 0.344718 0.712718 0.701434 -0.00484998
0.134334 0.0805874 0.0309335 0.0629466 -0.997435 0.0340872
-0.0417967 -0.0323106 0.445734 -0.893212 0.445089 -0.0637797
0.0199331 -0.0946765 0.807766 0.246736 -0.969013 -0.011627
0.336664 -0.0848343 0.550161 -0.530017 -0.802993 0.272552
0.335188 -0.085751 0.490207 -0.554376 -0.832071 0.0180034
0.0498068 -0.0560016 0.70455 0.99754 0.0699099 0.0051608
0.0319832 -0.0851202 0.803372 0.65951 -0.75137 0.0221267
-0.156755 -0.0798176 0.422975 0.00910656 -0.999958 0.000287671
-0.143334 -0.075308 0.494734 0.012929 0.999872 -0.00943574
-0.000412654 -0.0991483 0.719393 -0.164782 -0.986093 -0.0216269
0.0391291 -0.0249869 0.421843 0.963898 0.259337 -0.0603787
0.263245 -0.0761477 0.421454 -0.0133515 0.997004 -0.0761874
0.0280564 -0.0183481 0.107887 0.711472 0.702699 -0.00473448
-0.0262699 -0.0920382 0.625091 -0.674083 -0.738655 -0.000944025
0.0147094 -0.0529225 0.0280896 0.0637454 -0.23643 -0.969555
0.0225347 -0.0928091 0.414146 0.0780925 -0.996333 -0.0349496
0.00169953 0.00214535 0.599594 0.248117 0.96873 -0.000628796
0.12349 0.0798235 0.028606 0.0629466 -0.997435 0.0340872
0.268694 -0.0780393 0.398388 -0.018746 0.991951 -0.12523
0.240086 -0.0740435 0.471511 -0.0374673 0.998519 -0.0394509
0.00399225 -0.0965036 0.547899 0.158868 -0.984785 0.0704216
-0.290157 -0.0761185 0.471003 0.0516726 0.911229 0.408646
-0.0317081 -0.0380662 0.0513189 -0.99961 -0.0176432 -0.0216542
0.00270526 -0.0747164 0.0825683 0.26367 -0.964037 -0.0333371
-0.0202659 -0.00919857 0.32674 -0.7131 0.700947 -0.0127206
0.0373973 -0.0765438 0.374415 0.722567 -0.677052 -0.139632
-0.227485 -0.0776414 0.412756 0.00866895 0.999201 -0.0390147
0.0468143 -0.0685955 0.600617 0.937444 -0.348136 0.000297877
-0.356992 -0.0650572 0.40388 -0.831901 0.553215 -0.0435096
0.205584 -0.0752454 0.473857 -0.0374673 0.998519 -0.0394509
-0.00580061 0.000107534 0.746517 -0.155111 0.984885 0.0770817
-0.0474756 -0.0663783 0.611723 -0.937237 -0.348672 0.0038782
-0.026978 -0.0161951 0.317476 -0.7131 0.700947 -0.0127206
0.0376998 -0.0376953 0.296919 0.999839 0.0149634 -0.00994708
-0.0272821 -0.0683396 0.879314 -0.965188 0.0702239 0.251954
-0.000336803 -5.85043e-05 0.130581 -0.990628 -0.135958 -0.0130672
-0.000297375 0.00450264 0.226333 0.277207 -0.959199 0.0556205
-0.0448174 -0.0554779 0.776743 -0.995045 -0.0103199 0.0988926
0.0245371 0.0858588 0.0824405 0.00811978 0.999739 -0.0213352
0.000264067 -0.00387509 0.0773561 0.995908 -0.0819764 0.0380525
-0.115839 -0.0794323 0.466994 0.00910656 -0.999958 0.000287671
-0.00129254 0.00974171 0.0711212 -0.999756 -0.01513 -0.0160786
0.0116371 -0.0963199 0.704032 0.215044 -0.97637 -0.0214166
0.22529 -0.0758822 0.439025 -0.0374673 0.998519 -0.0394509
-0.351421 -0.0722773 0.326287 -0.0488462 0.996218 -0.0718546
-0.188338 -0.0801179 0.378687 0.00910656 -0.999958 0.000287671
0.0399318 -0.0197008 0.64796 0.852288 0.522869 0.0145875
-0.359876 -0.0781511 0.485222 -0.981551 -0.190354 0.0179814
-0.00822738 0.0831754 0.040173 0.0153647 0.993385 -0.1138
0.338708 -0.0846704 0.36568 -0.539038 -0.805081 -0.247552
-0.112071 -0.0784531 0.406363 0.00428517 0.999991 0.00011539
-0.143887 -0.0813344 0.512019 -0.025615 -0.999358 0.025061
-0.0498674 -0.05256 0.642268 -0.997185 0.0748083 0.00517054
0.0337702 -0.0915818 0.415269 0.159163 -0.98716 -0.013514
-0.242724 -0.0806132 0.3787 0.00910656 -0.999958 0.000287671
0.0281673 -0.0900123 0.673042 0.716766 -0.697314 0.000461641
-0.352301 -0.0626307 0.376531 -0.556883 0.82945 -0.0435227
0.163271 -0.0797922 0.425618 -0.00842209 -0.999965 0.000266083
-0.0187202 -0.0953477 0.521923 -0.158482 -0.986755 -0.0346104
0.0503345 0.0836196 0.0427297 -0.0509376 0.97327 -0.223946
-0.00660367 -0.0033736 0.39333 -0.293122 0.955742 -0.0252213
0.344877 -0.0677028 0.340757 -0.188604 0.956966 -0.220557
0.0322503 -0.0113256 0.491428 0.648214 0.760798 -0.031695
0.0312967 -0.0223363 0.0910386 0.9605 0.278086 -0.0104278
-0.0663279 -0.0795422 0.380972 -0.0290713 0.999576 -0.00154834
-0.292917 -0.0771677 0.471428 -0.135286 -0.99013 0.0366189
-0.0482809 -0.062614 0.729465 -0.945906 -0.31862 0.0611846
-0.0469456 -0.0677836 0.613459 -0.937237 -0.348672 0.0038782
0.00721579 -0.003912 0.343879 0.296247 0.95506 -0.00987762
0.0121024 -0.0822907 0.349122 0.191513 -0.980683 -0.0397998
-0.0028421 0.0399003 0.139092 -0.999756 -0.01513 -0.0160786
-0.198617 -0.0814563 0.451214 -0.025615 -0.999358 0.025061
-0.358864 -0.0696055 0.523282 -0.980582 0.195264 0.0181981
-0.00386186 -0.0953594 0.563851 -0.164495 -0.983866 0.0703453
0.0147637 -0.0728629 0.124345 0.26367 -0.964037 -0.0333371
-0.340927 -0.0845223 0.559976 0.530476 -0.802683 0.272571
0.0463037 -0.0303202 0.656686 0.852099 0.523185 0.0143405
-0.00164594 0.0194223 0.0839857 -0.999756 -0.01513 -0.0160786
-0.219014 -0.0756605 0.465371 0.00866895 0.999201 -0.0390147
-0.290339 -0.0806509 0.385943 -0.0463961 -0.998372 0.0331903
0.0316763 -0.077779 0.346873 0.729203 -0.683135 -0.0398669
-0.350043 -0.0894442 0.463041 -0.195634 -0.980508 0.0181975
-0.0165261 -0.0102156 0.0630095 -0.711804 0.702261 -0.012808
0.00272442 0.00154362 0.205012 0.998668 -0.0513549 -0.00496658
0.349269 -0.0730742 0.320204 0.0103312 0.00299063 -0.999942
-0.0919692 0.0827709 0.0253357 0.0153647 0.993385 -0.1138
-0.0363887 -0.0599097 0.312429 -0.995195 -0.0926406 -0.0316983
0.0029968 0.0374347 0.148055 0.999768 -0.0166102 -0.0137252
0.355436 -0.084621 0.535258 0.56001 -0.828285 0.0182124
-0.0321343 -0.0618618 0.184565 -0.995195 -0.0926406 -0.0316983
0.00314199 0.0401193 0.0414617 0.996827 -0.0210866 -0.0767567
-0.0353061 -0.028915 0.306582 -0.960599 0.277486 -0.0158186
0.105585 0.0800975 0.0143194 0.000847957 0.993474 -0.114054
0.00117211 -0.00304889 0.0641344 0.999768 -0.0166102 -0.0137252
0.0377055 -0.0160654 0.647723 0.852288 0.522869 0.0145875
0.30109 -0.0753639 0.417934 -0.0603759 0.994963 -0.0800268
-0.0483112 -0.0347759 0.609204 -0.976833 0.213829 0.00858627
-0.107277 0.0814448 0.0169781 0.0242898 0.974409 -0.223465
-0.00260076 0.0596926 0.105462 -0.999756 -0.01513 -0.0160786
0.208366 -0.0801157 0.383677 -0.00259562 0.996155 -0.0875665
0.0981505 -0.079232 0.469483 -0.00842209 -0.999965 0.000266083
0.332592 -0.0839729 0.444598 -0.830589 -0.556596 0.0179983
-0.0210374 -0.0867822 0.892657 -0.664048 -0.741016 0.0996748
-0.352908 -0.0841616 0.554398 -0.538366 -0.797417 0.272558
-0.0382627 -0.01697 0.648883 -0.852412 0.522667 0.0145836
0.0129464 -0.0796921 0.289152 0.191513 -0.980683 -0.0397998
0.0496469 -0.059323 0.722436 0.947865 -0.318646 0.00400198
-0.0255454 -0.0641953 0.0830104 -0.800343 -0.59831 -0.0384186
-0.330324 -0.0744281 0.507433 0.980582 0.195264 0.018191
-0.00382867 0.0746281 0.116101 -0.996149 -0.0759943 0.0437195
0.00213079 0.0148906 0.112256 0.999768 -0.0166102 -0.0137252
0.0227198 -0.0122939 0.202235 0.712718 0.701434 -0.00484998
0.166887 -0.0812122 0.489448 0.0261988 -0.999343 0.0250496
-0.0758158 -0.0811487 0.531553 -0.211776 0.856561 0.470589
-0.0188639 -0.0229055 0.799001 -0.585212 0.714882 0.382715
-0.359669 -0.0766148 0.51281 -0.981551 -0.190354 0.0179814
-0.237605 -0.0761451 0.448828 0.00866895 0.999201 -0.0390147
0.0272603 0.0778717 0.104757 0.0897231 -0.987243 0.131531
-0.0403249 -0.0218158 0.689338 -0.852043 0.523281 0.0141283
0.0342335 -0.0846514 0.70939 0.674462 -0.738232 -0.0107246
-0.00266955 -0.00386651 0.276618 -0.296752 0.954776 -0.0184553
0.353615 -0.0833054 0.36437 0.541189 -0.812176 -0.217909
-0.243409 -0.0764454 0.439847 0.00866895 0.999201 -0.0390147
-0.014726 -0.00695082 0.310915 -0.296752 0.954776 -0.0184553
0.0404757 -0.0278766 0.430928 0.963898 0.259337 -0.0603787
0.0263711 -0.00435654 0.558354 0.602488 0.798077 -0.00908873
0.0376065 -0.0407035 0.283021 0.999839 0.0149634 -0.00994708
0.289277 -0.0807772 0.378472 0.0469852 -0.998344 0.0331912
0.268855 -0.0783408 0.395977 -0.018746 0.991951 -0.12523
0.243322 -0.0743074 0.461758 -0.0374673 0.998519 -0.0394509
-0.0336754 -0.0108178 0.603046 -0.602883 0.797514 0.0224307
0.0373584 0.0761918 0.0852595 0.0897231 -0.987243 0.131531
-0.0677732 0.0813609 0.0209063 0.0242898 0.974409 -0.223465
0.132208 -0.0755526 0.497308 -0.021592 0.999065 -0.0374515
0.0601295 -0.0776983 0.41853 -0.0552341 0.998472 0.00148734
-0.0337411 -0.0110247 0.533588 -0.648992 0.760779 -0.00491418
-0.0126941 5.62952e-05 0.582276 -0.194985 0.980806 -0.000636635
0.0200254 0.0856908 0.116641 0.47433 0.427183 0.769757
0.00424143 -0.0956808 0.600637 0.215044 -0.97637 -0.0214166
0.0207825 -0.0947445 0.730716 0.215116 -0.976573 0.00550049
-0.0327496 0.0856704 0.0837429 -0.0137799 0.999676 -0.0213829
-0.34327 -0.065838 0.35111 0.188053 0.957073 -0.22056
0.0484815 -0.0374381 0.639751 0.951837 0.30643 0.0103158
0.190457 -0.0800185 0.435417 -0.00842209 -0.999965 0.000266083
0.0858669 -0.079134 0.449002 -0.00842209 -0.999965 0.000266083
-0.0346405 -0.0250037 0.334778 -0.960599 0.277486 -0.0158186
0.00496282 -0.00645632 0.0684294 0.189824 0.981801 -0.00584451
-0.0230692 -0.0128451 0.282954 -0.7131 0.700947 -0.0127206
-0.0163691 -0.000669993 0.588903 -0.194985 0.980806 -0.000636635
0.0282761 -0.00788445 0.68604 0.70983 0.70435 0.00566946
-0.106868 -0.0803249 0.387684 0.00835712 0.987653 -0.156433
0.0494375 -0.0601896 0.70304 0.947865 -0.318646 0.00400198
0.0519836 0.0849425 0.0519672 0.0017773 0.998336 -0.0576311
0.344463 -0.0813386 0.343617 -0.190818 -0.953383 -0.23377
0.0463483 -0.0692418 0.713967 0.947865 -0.318646 0.00400198
0.00208415 -0.00187136 0.768237 0.149231 0.949807 0.27495
-0.120509 -0.0783702 0.413458 0.00582702 0.999959 -0.00691384
-0.0308123 0.0852689 0.0637252 -0.0137799 0.999676 -0.0213829
0.00800698 -0.00242476 0.428341 0.292455 0.955598 -0.0360895
0.118625 0.0794826 0.0276146 0.0629466 -0.997435 0.0340872
0.0128655 -0.0959747 0.535278 0.158868 -0.984785 0.0704216
0.0979835 -0.0792458 0.412383 -0.00842209 -0.999965 0.000266083
-0.000551118 -6.95735e-05 0.106889 0.995908 -0.0819764 0.0380525
-0.116733 -0.081011 0.379153 -0.0290713 0.999576 -0.00154834
-0.23449 -0.0742443 0.476048 0.0473899 0.995746 -0.0790202
0.0365439 -0.0586163 0.256822 0.995668 -0.0920998 -0.0127553
0.0346164 -0.0840702 0.693468 0.674462 -0.738232 -0.0107246
0.159786 -0.0797588 0.440706 -0.00842209 -0.999965 0.000266083
0.0140245 -0.0319719 0.819195 0.353656 0.794577 0.493533
0.0481404 -0.0328678 0.554084 0.976707 0.214371 -0.00942792
0.0263913 -0.0918186 0.702074 0.716766 -0.697314 0.000461641
-0.352451 -0.0882553 0.470004 -0.55946 -0.828662 0.0179793
0.00011896 -0.025532 0.0344984 0.995908 -0.0819764 0.0380525
0.00314309 0.0404895 0.155013 0.999768 -0.0166102 -0.0137252
0.0466365 -0.0690828 0.590483 0.937444 -0.348136 0.000297877
-0.148275 -0.080955 0.512594 -0.0907904 0.912737 0.398332
-0.0907932 0.0844322 0.0595782 0.0172999 0.998021 -0.0604472
-0.342691 -0.0886225 0.383121 0.196618 -0.979514 -0.0435106
-0.0299016 -0.00882378 0.633579 -0.602883 0.797514 0.0224307
0.319208 -0.0736015 0.431089 -0.0247597 0.998172 -0.0551395
-0.355074 -0.0703892 0.354947 -0.0488462 0.996218 -0.0718546
-0.00164639 -0.00699492 0.0983191 -0.296752 0.954776 -0.0184553
-0.333774 -0.0710735 0.55536 0.944403 0.183859 0.272577
0.0783646 0.0813317 0.0248678 0.000847957 0.993474 -0.114054
0.331616 -0.0717904 0.375154 -0.979452 0.196868 -0.0437861
-0.0438171 -0.0627754 0.442556 -0.997835 -0.0173189 -0.0634501
0.0602183 -0.0786562 0.401001 -0.00526691 0.999961 -0.00712202
-0.356488 -0.078151 0.348235 -0.0395365 -0.995901 -0.0813574
-0.165679 -0.0811428 0.497384 -0.025615 -0.999358 0.025061
-0.000379794 -0.0188178 0.0412416 -0.999756 -0.01513 -0.0160786
-0.0152058 0.0778943 0.047189 0.0378488 -0.974076 -0.223031
-0.330535 -0.0726523 0.396536 0.979357 0.197401 -0.0435037
-0.0479005 -0.0426625 0.500263 -0.979096 0.191711 -0.0679511
0.306021 -0.0746621 0.470913 0.0245081 0.937922 0.345978
-0.145713 -0.0755971 0.476297 -0.0110704 0.999243 -0.0373062
-0.0181288 -0.00789573 0.281015 -0.132523 0.991153 -0.00730867
0.352861 -0.0605638 0.445597 0.554928 0.831704 0.0179972
0.00434486 -0.0960196 0.553871 0.158868 -0.984785 0.0704216
0.127233 -0.0761031 0.48549 -0.021592 0.999065 -0.0374515
0.121262 0.0779858 0.0104264 0.0960466 -0.987966 0.121237
0.338544 -0.0606263 0.405676 -0.553497 0.8317 -0.0437769
-0.044696 -0.0675069 0.467436 -0.981692 -0.18462 -0.0468569
0.00319877 0.0258347 0.0470648 0.996399 -0.0727719 0.0435104
0.0274039 -0.0162672 0.315927 0.712718 0.701434 -0.00484998
0.00353242 0.0434513 0.0688882 0.996399 -0.0727719 0.0435104
-0.00139768 0.0028204 0.0841714 -0.999756 -0.01513 -0.0160786
0.00232971 0.0351618 0.102213 0.999768 -0.0166102 -0.0137252
-0.176115 -0.0801296 0.503594 -0.124661 0.893426 0.431567
-0.046733 -0.0350879 0.725986 -0.945024 0.303593 0.121492
-0.300125 -0.0763232 0.467631 -0.135286 -0.99013 0.0366189
-0.0289754 -0.0129562 0.40967 -0.736567 0.675729 -0.0293083
0.0273322 -0.0178116 0.078695 0.711472 0.702699 -0.00473448
-0.00292195 0.0271101 0.156093 -0.999756 -0.01513 -0.0160786
0.206054 -0.0757883 0.45967 -0.0374673 0.998519 -0.0394509
-0.211682 -0.0760915 0.455962 0.00866895 0.999201 -0.0390147
0.0345796 -0.066133 0.239064 0.989495 -0.142926 -0.0217262
0.260374 -0.0743826 0.472299 0.0811622 0.915032 0.395131
-0.0934908 -0.07925 0.393045 0.00910656 -0.999958 0.000287671
-0.0373312 -0.0161259 0.495331 -0.64826 0.75999 -0.0466267
-0.00227954 0.027448 0.0345039 -0.996749 -0.0241902 -0.0768464
0.00408577 -0.000915555 0.447859 0.236304 0.971341 -0.0256282
0.0209782 -0.0930542 0.617473 0.165399 -0.986131 -0.0137564
0.0367759 -0.040012 0.200573 0.999839 0.0149634 -0.00994708
-0.0399907 -0.0501246 0.372706 -0.994463 -0.0782864 -0.0701058
0.0382553 -0.0160489 0.506697 0.735718 0.675769 -0.0453345
-0.0909133 -0.0792011 0.481593 0.00910656 -0.999958 0.000287671
-0.0221534 -0.0160787 0.0542727 -0.711804 0.702261 -0.012808
0.193617 -0.0756714 0.467552 -0.0082131 0.999206 -0.0389903
-0.0160981 -0.00803049 0.22592 -0.132523 0.991153 -0.00730867
-0.00439257 0.0549495 0.0532542 -0.996749 -0.0241902 -0.0768464
0.339672 -0.0879778 0.524299 -0.550781 -0.834451 0.0182131
-0.183377 -0.0800704 0.386854 0.00910656 -0.999958 0.000287671
0.04297 -0.0787782 0.428295 -0.00842209 -0.999965 0.000266083
-0.137656 -0.0796359 0.449853 0.00910656 -0.999958 0.000287671
-0.0387723 -0.0373757 0.360243 -0.997873 0.0143776 -0.0635884
-0.0522635 0.0833792 0.036007 0.0153647 0.993385 -0.1138
-0.32943 -0.0752266 0.455298 0.979702 -0.199652 0.0179699
-0.0469053 0.0764472 0.0720394 -0.06229 -0.997476 0.0340838
0.322555 -0.0781523 0.425996 0.0199251 -0.999511 0.0240972
-0.0267119 -0.0870396 0.852939 -0.664048 -0.741016 0.0996748
-0.0178399 -0.0945113 0.654983 -0.214508 -0.976639 -0.0127495
-0.0330433 -0.0350817 0.110525 -0.99961 -0.0176432 -0.0216542
-0.00343813 0.0514146 0.165318 -0.999756 -0.01513 -0.0160786
0.0405896 -0.0737424 0.402252 0.99941 -0.0146211 -0.0310728
-0.341704 -0.076443 0.337416 0.942995 -0.185449 -0.276351
-0.0285236 -0.0925494 0.546853 -0.158243 -0.984554 0.0749153
0.0999565 -0.0768577 0.445839 0.0128242 0.999854 -0.0112733
0.077776 -0.0790825 0.386682 -0.00842209 -0.999965 0.000266083
-0.274541 -0.0731314 0.466052 0.0473899 0.995746 -0.0790202
0.0810456 0.0778618 0.0226777 -0.0778313 -0.971743 -0.222842
0.341392 -0.0613613 0.371252 -0.188604 0.956966 -0.220557
0.258898 -0.0766782 0.415274 -0.0133515 0.997004 -0.0761874
0.220102 -0.080329 0.489879 0.0469852 -0.998344 0.0331912
0.0073623 -0.00686669 0.0774251 0.189824 0.981801 -0.00584451
0.0356263 -0.0920646 0.472401 0.159163 -0.98716 -0.013514
0.0142862 -0.0815582 0.341581 0.191513 -0.980683 -0.0397998
0.0311188 -0.0608767 0.0710646 0.800637 -0.597767 -0.0406878
0.000414887 -0.00211965 0.31321 0.296247 0.95506 -0.00987762
-0.344827 -0.0886056 0.373088 0.196618 -0.979514 -0.0435106
-0.010804 -0.0721017 0.0833232 -0.262978 -0.963817 -0.0435872
-0.170575 -0.0799519 0.393517 0.00910656 -0.999958 0.000287671
-0.294248 -0.0806761 0.381592 0.044416 -0.997422 0.0563578
-0.115926 -0.079443 0.432602 0.00910656 -0.999958 0.000287671
0.00213231 -0.0979877 0.892542 0.246687 -0.968579 0.0316316
-0.0426785 -0.078775 0.435745 0.00910656 -0.999958 0.000287671
0.0017442 -0.00623918 0.0464393 0.998773 -0.0434408 0.023772
0.019774 -0.0943535 0.696088 0.215044 -0.97637 -0.0214166
-0.211858 -0.0785183 0.403648 0.0169629 0.993301 -0.114303
-0.103831 -0.0793369 0.418593 0.00910656 -0.999958 0.000287671
-0.0330172 -0.0360278 0.110092 -0.99961 -0.0176432 -0.0216542
0.069815 0.0849906 0.0589871 0.00811978 0.999739 -0.0213352
0.0501033 0.0770352 0.0828958 0.0897231 -0.987243 0.131531
0.105971 0.0784105 0.0260015 0.0960466 -0.987966 0.121237
-0.010747 -0.0904896 0.381058 -0.0727998 -0.939964 -0.333418
0.122571 0.0844269 0.0497742 0.0109417 0.999855 0.0130797
-0.00778356 -0.0968329 0.669981 -0.164782 -0.986093 -0.0216269
-0.359319 -0.071549 0.388263 -0.980233 0.193 -0.0435242
0.0286375 -0.0189535 0.105355 0.711472 0.702699 -0.00473448
-0.0687027 -0.0795929 0.392874 -0.0290713 0.999576 -0.00154834
0.0364809 -0.0154779 0.686008 0.886297 -0.463117 -7.36381e-07
-0.151232 -0.079771 0.409848 0.00910656 -0.999958 0.000287671
0.0315033 -0.00876458 0.588012 0.60239 0.797886 0.0224276
0.0113555 -0.0800107 0.289348 0.191513 -0.980683 -0.0397998
0.00640382 -0.0978706 0.738037 0.215116 -0.976573 0.00550049
0.13812 -0.0795819 0.419675 -0.00842209 -0.999965 0.000266083
0.3725 -0.0761745 0.334358 -0.00498934 -0.999987 -0.0003581
-0.147628 -0.0756384 0.47576 -0.0110704 0.999243 -0.0373062
0.359371 -0.0806937 0.406825 0.831292 -0.554129 -0.0435277
0.308475 -0.0782158 0.385116 -0.0614563 0.990217 -0.125274
0.341099 -0.063083 0.364032 -0.188604 0.956966 -0.220557
-0.0333314 -0.0574402 0.209226 -0.995195 -0.0926406 -0.0316983
0.353275 -0.0856541 0.37382 0.553983 -0.831376 -0.043773
-0.00158391 0.00534411 0.168913 -0.990628 -0.135958 -0.0130672
-0.00732693 -0.0949518 0.580735 -0.164782 -0.986093 -0.0216269
0.081348 0.0775363 0.0394998 0.0629466 -0.997435 0.0340872
-0.021457 -0.0137322 0.144232 -0.711804 0.702261 -0.012808
-0.00285536 0.032498 0.146882 -0.999756 -0.01513 -0.0160786
0.115015 0.0844294 0.0450227 0.0017773 0.998336 -0.0576311
-0.130131 0.0822053 0.0178101 0.0242898 0.974409 -0.223465
0.00219582 -0.0957308 0.451991 0.0780925 -0.996333 -0.0349496
-0.0636953 -0.0773051 0.526542 0.0758136 0.997121 -0.00142218
0.169935 -0.0779448 0.414281 -0.0082131 0.999206 -0.0389903
-0.250754 -0.0803679 0.378586 0.00199689 0.992133 -0.125172
0.00218837 0.00187948 0.54036 0.194402 0.980876 -0.00945286
0.0428728 -0.0471575 0.787218 0.890699 0.43597 0.128788
-0.311688 -0.0780508 0.389095 0.061591 0.985416 -0.158628
-0.343788 -0.0588429 0.445728 0.19505 0.980625 0.0181988
0.0165276 -0.0713928 0.0957832 0.26367 -0.964037 -0.0333371
0.0483875 -0.0631146 0.718825 0.947865 -0.318646 0.00400198
-0.0423568 -0.0787871 0.38337 0.00910656 -0.999958 0.000287671
0.0503747 -0.0540678 0.568577 0.99754 0.0699099 0.0051608
-0.00281089 -0.00171479 0.41211 -0.293122 0.955742 -0.0252213
-0.0404261 -0.0216013 0.675114 -0.852236 0.522974 0.0138856
0.0417657 -0.0819817 0.516884 0.877813 -0.4782 -0.0277332
-0.222083 -0.0809048 0.374788 0.00199689 0.992133 -0.125172
-0.0316069 -0.0866831 0.565371 -0.708687 -0.690075 0.146831
-0.35519 -0.0622865 0.443728 -0.555477 0.831333 0.0182053
0.346554 -0.0790192 0.332782 0.189014 -0.956243 -0.223324
-0.0183667 -0.0571084 0.877094 -0.640904 0.699252 0.316683
0.0535867 0.082923 0.0385444 0.000847957 0.993474 -0.114054
0.0302682 -0.0683093 0.163523 0.800637 -0.597767 -0.0406878
0.330581 -0.0693833 0.409126 -0.979452 0.196868 -0.0437861
-0.243185 -0.0811044 0.37287 0.00199689 0.992133 -0.125172
-0.253885 -0.0796941 0.465684 -0.0463961 -0.998372 0.0331903
-0.00560118 0.0737989 0.0629971 -0.996749 -0.0241902 -0.0768464
-0.218293 -0.08038 0.416121 0.00910656 -0.999958 0.000287671
0.0411424 0.0851517 0.0552568 0.0017773 0.998336 -0.0576311
-0.0414995 -0.0241232 0.703929 -0.85204 0.523279 0.0143805
0.0365852 -0.0222099 0.39316 0.963898 0.259337 -0.0603787
-0.148346 -0.0797329 0.451239 0.00910656 -0.999958 0.000287671
-0.0360307 -0.0497047 0.246275 -0.999637 0.014403 -0.0227664
-0.133464 -0.0802475 0.386752 0.00835712 0.987653 -0.156433
-0.047497 -0.0658026 0.702761 -0.947671 -0.319246 0.0010517
-0.352765 -0.0880781 0.468414 -0.55946 -0.828662 0.0179793
0.0617326 -0.077543 0.503007 -0.0781114 0.996933 -0.00489245
-0.0484508 -0.0426285 0.72809 -0.993354 0.0745075 0.0877249
0.199985 -0.0800996 0.432182 -0.00842209 -0.999965 0.000266083
0.0363263 -0.0544283 0.209593 0.995668 -0.0920998 -0.0127553
-0.0123091 -0.0698382 0.0423509 -0.262978 -0.963817 -0.0435872
-0.0315927 -0.0217342 0.270945 -0.7131 0.700947 -0.0127206
0.100271 -0.082001 0.516074 -0.149095 -0.967168 -0.205806
0.00226752 -0.0992923 0.827851 0.221121 -0.974947 -0.0241564
0.0446622 -0.0785967 0.443538 -0.0552135 0.998473 0.00176641
0.0258932 -0.0702381 0.1185 0.191513 -0.980683 -0.0397998
-0.0372684 -0.026513 0.384755 -0.964576 0.258919 -0.0505318
0.00279797 0.00374272 0.197063 0.998668 -0.0513549 -0.00496658
-0.0256881 -0.00535507 0.704051 -0.704018 0.71016 0.0057169
0.111825 0.0797209 0.0110854 0.000847957 0.993474 -0.114054
0.0371923 -0.0141159 0.620853 0.886952 -0.461862 2.81551e-05
-0.0896646 -0.0792186 0.381184 0.00910656 -0.999958 0.000287671
0.00196939 0.00719132 0.109817 0.999768 -0.0166102 -0.0137252
-0.319775 -0.0747918 0.414589 0.0596182 0.995518 -0.0734138
0.0551089 0.0817078 0.0279712 0.000847957 0.993474 -0.114054
0.202196 -0.0769513 0.432944 -0.0082131 0.999206 -0.0389903
0.00186473 0.00423739 0.105768 0.999768 -0.0166102 -0.0137252
-0.0479802 -0.0789903 0.39278 -0.0290713 0.999576 -0.00154834
0.323074 -0.0740012 0.422117 -0.0247597 0.998172 -0.0551395
-0.0253623 -0.0916656 0.568313 -0.164782 -0.986093 -0.0216269
0.0248302 -0.0738346 0.202004 0.191513 -0.980683 -0.0397998
-0.0325004 -0.0495683 0.107956 -0.948612 -0.315428 -0.0253053
0.0230432 -0.0128997 0.162151 0.712718 0.701434 -0.00484998
0.0163037 -0.00821781 0.14086 0.189824 0.981801 -0.00584451
-0.0483444 -0.034614 0.541974 -0.981345 0.192131 -0.00686909
0.0433547 -0.0372925 0.751955 0.941556 0.303073 0.147035
0.226296 -0.0802136 0.48458 0.0469852 -0.998344 0.0331912
0.0387486 -0.0352216 0.369524 0.959375 0.277778 -0.0493811
0.0211024 -0.0305805 0.809683 0.603134 0.705364 0.372412
0.156568 -0.0760947 0.468802 -0.021592 0.999065 -0.0374515
0.107709 -0.0793066 0.491696 -0.00842209 -0.999965 0.000266083
0.0455682 -0.0716092 0.710232 0.947865 -0.318646 0.00400198
0.0184609 -0.0927696 0.403917 0.0780925 -0.996333 -0.0349496
-0.00177793 0.0673015 0.158021 -0.535619 0.572538 0.620736
-0.0435436 -0.076192 0.476302 -0.957016 -0.288414 -0.0306289
-0.0488258 -0.0586494 0.520198 -0.997835 -0.0173189 -0.0634501
0.164439 -0.0815677 0.477824 0.0261988 -0.999343 0.0250496
-0.336015 -0.0839905 0.3687 0.803049 -0.534976 -0.262512
-0.0270274 -0.00734145 0.728024 -0.705822 0.699333 0.112912
-0.0151359 -0.0933515 0.567266 -0.164782 -0.986093 -0.0216269
0.287518 -0.0749066 0.433441 -0.0133515 0.997004 -0.0761874
-0.000987444 -0.0968085 0.617088 -0.164782 -0.986093 -0.0216269
0.336289 -0.0850198 0.372948 -0.555821 -0.830148 -0.043788
0.00753991 0.000547843 0.533039 0.236214 0.971016 -0.0364746
-0.18494 -0.0812451 0.473617 -0.025615 -0.999358 0.025061
0.106603 -0.0771534 0.427175 0.0128242 0.999854 -0.0112733
-0.0109983 -0.0973654 0.842198 -0.246096 -0.968948 -0.0240078
-0.356578 -0.0856262 0.458718 -0.834011 -0.551455 0.0179782
0.133855 -0.0760566 0.482912 -0.021592 0.999065 -0.0374515
0.00251565 0.0144289 0.140848 0.999768 -0.0166102 -0.0137252
-0.278685 -0.0762634 0.4241 0.0473899 0.995746 -0.0790202
0.244949 -0.0804873 0.398477 -0.00842209 -0.999965 0.000266083
-0.00180016 -0.0631003 0.0299089 -0.0649067 -0.24124 -0.968292
0.0368408 0.0777867 0.0384442 -0.0778313 -0.971743 -0.222842
-0.109825 0.0826868 0.0640923 -0.522169 0.130532 0.842794
-0.0112403 0.0841195 0.0480077 0.0153647 0.993385 -0.1138
0.00169554 -0.0121615 0.136295 -0.997971 0.0635893 0.00305798
-0.00450121 -0.0080189 0.0325248 -0.0209002 0.411635 -0.911109
-0.0584064 -0.077635 0.495722 0.0746726 0.997205 0.00238987
0.0602386 -0.0780248 0.409146 0.00457149 0.994751 -0.102226
0.0358943 -0.0320854 0.232421 0.905462 0.424422 -0.00204831
-0.006631 -0.0761288 0.154331 -0.19095 -0.980922 -0.0364821
-0.0382179 -0.0703062 0.368349 -0.983916 -0.142749 -0.107391
-0.0158747 -0.0953941 0.795503 -0.220603 -0.97527 -0.013507
-0.0928162 -0.0769866 0.423383 -0.0110704 0.999243 -0.0373062
0.0101734 -0.0769899 0.207381 0.26367 -0.964037 -0.0333371
-0.00748052 -0.0960834 0.895293 -0.299988 -0.953435 0.031137
-0.0342751 -0.0108854 0.589329 -0.602883 0.797514 0.0224307
-0.0285166 -0.0201904 0.774724 -0.779727 0.579855 0.236205
0.132631 -0.0795234 0.465752 -0.00842209 -0.999965 0.000266083
0.000807411 -0.0193397 0.0572123 0.99978 -0.0154955 -0.0141326
0.00281078 0.0500614 0.0964695 0.996399 -0.0727719 0.0435104
-0.0305538 -0.019036 0.353793 -0.710855 0.69883 -0.0795046
0.17979 -0.0808701 0.383712 -0.0267503 0.997181 -0.0701013
-0.0483016 -0.0635475 0.666605 -0.937237 -0.348672 0.0038782
0.0187772 -0.00866209 0.148112 0.712718 0.701434 -0.00484998
0.0235893 -0.00245678 0.598535 0.70983 0.70435 0.00566946
0.0360115 -0.0824289 0.767533 0.674448 -0.738179 0.0145435
0.00397498 0.0451798 0.0616444 0.996399 -0.0727719 0.0435104
-0.0351813 -0.0284399 0.307338 -0.960599 0.277486 -0.0158186
0.0161913 -0.0692573 0.0321703 0.0637454 -0.23643 -0.969555
0.0105867 -0.0047581 0.385176 0.292673 0.95621 -0.00198068
-0.0292291 -0.0222483 0.125354 -0.905564 0.423785 -0.0189664
-0.00808657 -0.00761867 0.136501 -0.132523 0.991153 -0.00730867
-0.0306195 -0.0409976 0.814324 -0.794081 0.521973 0.311415
-0.0103622 0.000535522 0.606371 -0.194985 0.980806 -0.000636635
0.0019294 -0.00577103 0.124981 0.999409 -0.0330876 -0.00931123
-0.197238 -0.0762426 0.455638 0.0109063 0.999178 -0.039051
0.041586 -0.0762822 0.57791 0.716766 -0.697314 0.000461641
-0.0488976 -0.0422841 0.683607 -0.997578 0.0693194 0.00578958
0.245455 -0.0765825 0.480394 0.0854271 0.897466 0.432732
0.0476808 -0.0473558 0.737814 0.991374 0.0749385 0.107527
0.00819658 -0.00674275 0.125342 0.189824 0.981801 -0.00584451
0.00586509 -0.097931 0.865169 0.246687 -0.968579 0.0316316
-0.0328543 -0.0673953 0.271245 -0.98844 -0.143398 -0.0492269
-0.341081 -0.0902309 0.428061 0.19445 -0.980744 0.0181969
-0.0996802 0.0800058 0.0621237 -0.103467 -0.98571 0.132933
0.0281554 -0.0900714 0.602194 0.716766 -0.697314 0.000461641
-0.0358098 -0.0522288 0.265178 -0.948612 -0.315428 -0.0253053
-0.00314945 0.071385 0.128576 -0.999756 -0.01513 -0.0160786
-0.336007 -0.0670112 0.55544 0.80222 0.531177 0.272569
-0.0380628 -0.0164255 0.641055 -0.852412 0.522667 0.0145836
-0.0630445 -0.0774792 0.436578 0.0545413 0.99849 -0.0065149
0.0405265 -0.0202295 0.503273 0.894072 0.446145 -0.0398713
0.0188774 -0.00820906 0.228354 0.712718 0.701434 -0.00484998
-0.0279907 -0.0930254 0.498162 -0.158482 -0.986755 -0.0346104
-0.0410226 -0.0842043 0.518226 -0.869804 -0.493352 -0.00676115
0.00422584 -0.0890892 0.94026 0.646526 -0.694408 0.315915
0.0026206 0.0327031 0.0717923 0.996399 -0.0727719 0.0435104
-0.357755 -0.0677481 0.384241 -0.831901 0.553215 -0.0435096
-0.00236412 -0.0199738 0.807949 -0.266201 0.81531 0.514204
0.0917732 -0.0792015 0.382323 -0.00842209 -0.999965 0.000266083
0.014794 -0.0907645 0.903519 0.66843 -0.730445 0.140184
0.0023841 9.6427e-05 0.470524 0.236304 0.971341 -0.0256282
0.00114827 0.00271579 0.0554212 0.999768 -0.0166102 -0.0137252
-0.020774 -0.00929963 0.349655 -0.7131 0.700947 -0.0127206
-0.035108 -0.0275018 0.319345 -0.960599 0.277486 -0.0158186
0.131773 -0.0795331 0.402099 -0.00842209 -0.999965 0.000266083
0.0166264 -0.0869433 0.366898 0.179754 -0.922027 -0.342863
0.217393 -0.0808747 0.450209 -0.000954313 -0.999999 -0.000785653
-0.0428961 -0.0774333 0.554356 -0.708687 -0.690075 0.146831
-0.0496131 -0.0475166 0.622977 -0.997578 0.0693194 0.00578958
0.360622 -0.0767039 0.458488 0.9808 -0.194183 0.0179945
-0.0737364 -0.0808796 0.529869 0.150636 -0.966658 -0.207079
0.364832 -0.0715919 0.341909 0.0482521 0.996248 -0.071846
-0.124906 -0.0757294 0.475334 0.012929 0.999872 -0.00943574
-0.0194083 -0.0935037 0.472501 -0.158482 -0.986755 -0.0346104
-0.169147 -0.0799238 0.446054 0.00910656 -0.999958 0.000287671
-0.00363709 -0.0981926 0.784674 -0.220642 -0.975339 0.00549354
-0.273356 -0.0758812 0.472504 -0.075145 0.915187 0.395961
0.0776498 0.0844811 0.0447659 0.0017773 0.998336 -0.0576311
-0.114009 -0.0767576 0.435806 -0.0110704 0.999243 -0.0373062
-0.125179 -0.0758327 0.464021 0.012929 0.999872 -0.00943574
0.0263974 -0.0573105 0.86214 0.643193 0.70256 0.304487
0.0609408 -0.0781 0.408445 0.00457149 0.994751 -0.102226
-0.162641 -0.0768466 0.49988 -0.103367 0.911012 0.399215
0.30496 -0.0764283 0.401781 -0.0603759 0.994963 -0.0800268
-0.11603 0.0837818 0.0416158 0.0172999 0.998021 -0.0604472
-0.102688 -0.0757191 0.506869 0.012929 0.999872 -0.00943574
0.0269952 -0.0760126 0.266091 0.191513 -0.980683 -0.0397998
-0.159542 -0.0815188 0.488663 -0.025615 -0.999358 0.025061
0.0779914 -0.0763586 0.484771 -0.0781114 0.996933 -0.00489245
-0.224642 -0.0792849 0.393553 0.018643 0.99733 -0.0706049
-0.034717 -0.035376 0.188027 -0.99961 -0.0176432 -0.0216542
-0.0365814 -0.0647042 0.332491 -0.995195 -0.0926406 -0.0316983
-0.00217167 0.00708465 0.128346 -0.999733 -0.0173463 -0.0152686
-0.0212727 -0.0153602 0.044726 -0.711804 0.702261 -0.012808
0.043588 -0.0760716 0.493007 0.955887 -0.290386 -0.0442298
-0.0411237 -0.0788059 0.38309 -0.0290713 0.999576 -0.00154834
-0.0197822 -0.0119235 0.150325 -0.711804 0.702261 -0.012808
-0.0295504 -0.0186286 0.327586 -0.7131 0.700947 -0.0127206
0.0258188 -0.00816994 0.43564 0.648214 0.760798 -0.031695
0.119643 -0.0794144 0.464248 -0.00842209 -0.999965 0.000266083
-0.0270389 -0.0912781 0.579462 -0.674083 -0.738655 -0.000944025
0.0495411 -0.0417378 0.560397 0.997549 0.0699107 0.00302217
0.0503522 -0.0545307 0.579198 0.99754 0.0699099 0.0051608
0.000306391 -0.0978349 0.507752 0.0780925 -0.996333 -0.0349496
0.0314418 -0.0120307 0.729208 0.705037 0.699437 0.117095
-0.0405792 -0.0845447 0.486035 -0.869804 -0.493352 -0.00676115
-0.172959 -0.0799772 0.38112 0.00910656 -0.999958 0.000287671
-0.0311497 -0.0523192 0.0916145 -0.948612 -0.315428 -0.0253053
0.323114 -0.0773736 0.457834 0.0199251 -0.999511 0.0240972
0.32086 -0.0726354 0.447835 -0.0247597 0.998172 -0.0551395
-0.022382 -0.092938 0.610889 -0.214508 -0.976639 -0.0127495
0.0491308 -0.0443153 0.669647 0.997137 0.0753908 0.00589768
0.00190213 -0.00968765 0.152274 -0.997971 0.0635893 0.00305798
0.114355 -0.0777313 0.414422 0.00457149 0.994751 -0.102226
0.00663631 0.0862456 0.0768237 0.959294 0.281959 -0.0159178
-0.150736 -0.0797697 0.398791 0.00910656 -0.999958 0.000287671
0.0492409 -0.0498847 0.523866 0.998031 -0.0202205 -0.0593672
-0.0286593 -0.0920101 0.431175 -0.0775561 -0.996895 -0.0136404
-0.00135691 -0.00736489 0.0914141 -0.999733 -0.0173463 -0.0152686
0.0158471 -0.0705777 0.0668287 0.26367 -0.964037 -0.0333371
-0.0241259 -0.092695 0.777207 -0.67396 -0.738487 0.0203541
-0.0379967 -0.015212 0.519479 -0.64826 0.75999 -0.0466267
-0.332859 -0.0832019 0.402144 0.830158 -0.555808 -0.0437651
0.00262985 0.0420949 0.115686 0.999768 -0.0166102 -0.0137252
-0.00237562 0.0425818 0.107564 -0.999756 -0.01513 -0.0160786
-0.0323987 -0.0338464 0.0797606 -0.99961 -0.0176432 -0.0216542
0.0497446 -0.0474624 0.600892 0.99754 0.0699099 0.0051608
-0.0480882 -0.0643022 0.650324 -0.937237 -0.348672 0.0038782
-0.181892 -0.0800608 0.373298 0.00910656 -0.999958 0.000287671
0.00406272 -0.0955174 0.56153 0.158868 -0.984785 0.0704216
-0.0395893 -0.0299917 0.422731 -0.965253 0.259093 -0.0340342
-0.000447207 -0.0142837 0.0735482 0.995908 -0.0819764 0.0380525
0.0224522 -0.0691748 0.0757423 0.191513 -0.980683 -0.0397998
0.0475695 -0.0665323 0.635293 0.937444 -0.348136 0.000297877
-0.149841 -0.0785757 0.506785 -0.0907904 0.912737 0.398332
0.0627437 0.0853506 0.0731682 0.00811978 0.999739 -0.0213352
-0.0399873 -0.0638375 0.384074 -0.995813 -0.0172839 -0.0897654
-0.0772013 0.0845003 0.0576856 -0.0137799 0.999676 -0.0213829
-0.0467334 -0.0483249 0.483926 -0.997768 -0.0208247 -0.0634459
0.0308832 -0.0691308 0.187694 0.800637 -0.597767 -0.0406878
0.00820141 -0.079703 0.266588 0.191513 -0.980683 -0.0397998
0.102285 -0.0821957 0.517778 0.0261988 -0.999343 0.0250496
-0.00862633 0.000740479 0.563123 -0.194797 0.980064 -0.0391036
-0.211991 -0.0776244 0.416632 0.00866895 0.999201 -0.0390147
-0.0704722 -0.0767448 0.486952 0.0545413 0.99849 -0.0065149
0.12585 -0.0799274 0.380616 0.0279407 0.987259 -0.156649
0.0363201 -0.0547391 0.21135 0.995668 -0.0920998 -0.0127553
0.0461193 -0.0315603 0.69007 0.959606 0.281128 0.0110816
0.0380474 -0.0358686 0.351964 0.9605 0.278086 -0.0104278
-0.0469756 -0.0304932 0.53649 -0.852464 0.520713 -0.0465083
-0.0568316 -0.077771 0.443876 0.0545413 0.99849 -0.0065149
-0.0703209 0.0843485 0.0461576 -0.0137799 0.999676 -0.0213829
-0.00611106 0.000716011 0.528256 -0.23698 0.971469 -0.0093622
-0.0484221 -0.0391091 0.704503 -0.976833 0.213829 0.00858627
0.0403623 -0.0787541 0.379602 -0.00507229 0.999987 0.000269601
0.00596025 9.08964e-05 0.503289 0.236304 0.971341 -0.0256282
0.165163 -0.0798006 0.453866 -0.00842209 -0.999965 0.000266083
0.0482307 -0.0638442 0.697877 0.947865 -0.318646 0.00400198
0.0393356 -0.0737514 0.803068 0.931566 -0.357715 0.0649992
-0.00189686 0.0166017 0.102242 -0.999756 -0.01513 -0.0160786
0.334169 -0.0838842 0.388342 -0.829935 -0.556158 -0.0435376
-0.0227652 -0.0922797 0.56272 -0.164495 -0.983866 0.0703453
0.0332842 -0.0616149 0.150345 0.989495 -0.142926 -0.0217262
0.00170197 0.0022742 0.0419364 0.996399 -0.0727719 0.0435104
0.114215 -0.0768674 0.461203 0.0128242 0.999854 -0.0112733
0.319896 -0.0729582 0.442426 -0.0247597 0.998172 -0.0551395
-0.0320445 -0.0929023 0.513216 -0.158482 -0.986755 -0.0346104
-0.0317922 -0.0123806 0.72945 -0.705822 0.699333 0.112912
-0.11869 0.0798866 0.0415038 -0.06229 -0.997476 0.0340838
-0.242863 -0.0806122 0.386606 0.00910656 -0.999958 0.000287671
-0.00301736 0.0252821 0.0447556 -0.996749 -0.0241902 -0.0768464
0.0315125 -0.0561946 0.0320759 0.248208 -0.0828043 -0.965161
-0.343247 -0.0834186 0.35226 0.191352 -0.953276 -0.233773
0.10344 0.084081 0.0386311 0.0017773 0.998336 -0.0576311
0.18921 -0.0775027 0.42155 -0.0082131 0.999206 -0.0389903
-0.237587 -0.0805631 0.390323 0.00910656 -0.999958 0.000287671
0.107655 -0.0793188 0.444348 -0.00842209 -0.999965 0.000266083
-0.00772478 0.0863765 0.100629 -0.0137799 0.999676 -0.0213829
-0.0150193 -0.0491793 0.0280033 -0.20739 -0.156052 -0.965732
-0.0240152 -0.00315631 0.636926 -0.704018 0.71016 0.0057169
-0.320789 -0.0781536 0.443717 -0.0393024 -0.998929 0.0244061
-0.065176 -0.0789826 0.426386 0.00910656 -0.999958 0.000287671
-0.348749 -0.0894442 0.476962 -0.195634 -0.980508 0.0181975
-0.00275909 0.0643473 0.110926 -0.999756 -0.01513 -0.0160786
0.0471498 -0.0570963 0.492519 0.994963 -0.0777607 -0.0632657
0.10059 -0.0763911 0.48795 0.0128242 0.999854 -0.0112733
-0.0214977 -0.0934692 0.481083 -0.158482 -0.986755 -0.0346104
0.0318753 -0.0242477 0.0798254 0.905462 0.424422 -0.00204831
-0.0499546 -0.0542215 0.553243 -0.996954 0.0692801 -0.035817
0.344831 -0.0720391 0.324247 -0.946523 0.190249 -0.260577
-0.29949 -0.0783443 0.391372 0.0390043 0.991352 -0.125298
0.327068 -0.0770891 0.466364 0.0199251 -0.999511 0.0240972
0.105497 0.0828087 0.0660617 0.506858 0.125533 0.85284
0.0293636 -0.0888167 0.621526 0.716766 -0.697314 0.000461641
0.00600799 -0.0957547 0.621742 0.215044 -0.97637 -0.0214166
0.0504066 -0.0552509 0.578442 0.99754 0.0699099 0.0051608
-0.00586788 -0.0186121 0.0277702 -0.0209002 0.411635 -0.911109
-0.18337 -0.0816751 0.458073 -0.025615 -0.999358 0.025061
0.00107955 0.0046393 0.234725 -0.276631 -0.959258 0.0574473
-0.0581918 -0.0789286 0.39297 0.00910656 -0.999958 0.000287671
-0.082664 -0.0791451 0.414891 0.00910656 -0.999958 0.000287671
0.0299954 -0.00979487 0.708126 0.70983 0.70435 0.00566946
-0.00749265 -0.0973002 0.796235 -0.220603 -0.97527 -0.013507
0.0295301 -0.0886959 0.691995 0.674462 -0.738232 -0.0107246
0.3327 -0.0646122 0.440726 -0.831507 0.555223 0.0179938
0.344386 -0.0902878 0.44943 -0.189482 -0.981715 0.0182156
0.00397287 -0.00290721 0.34377 0.296247 0.95506 -0.00987762
0.312408 -0.0782987 0.383364 -0.0393937 0.986691 -0.157763
-0.101896 0.0784831 0.0311835 -0.0624619 -0.997455 0.0343709
-0.0364095 -0.0154203 0.494016 -0.64826 0.75999 -0.0466267
0.207525 -0.0801683 0.412615 -0.00842209 -0.999965 0.000266083
0.265549 -0.0806673 0.374208 -0.00842209 -0.999965 0.000266083
-0.0260214 -0.0180499 0.161646 -0.7131 0.700947 -0.0127206
0.0370931 -0.0635971 0.335651 0.995668 -0.0920998 -0.0127553
0.0419484 -0.0787661 0.441411 -0.00842209 -0.999965 0.000266083
0.33096 -0.0733196 0.532267 -0.981552 0.190328 0.0182207
0.0351962 -0.067371 0.275294 0.989495 -0.142926 -0.0217262
-0.065937 -0.0789618 0.522568 0.00910656 -0.999958 0.000287671
-0.214623 -0.0803461 0.417604 0.00910656 -0.999958 0.000287671
0.339558 -0.0897246 0.42815 -0.193865 -0.980863 0.0179984
-0.360617 -0.0744501 0.481379 -0.979725 0.199537 0.0179814
-0.0328927 -0.0415554 0.108845 -0.99961 -0.0176432 -0.0216542
0.0278916 -0.0780588 0.320822 0.191513 -0.980683 -0.0397998
0.0415609 -0.0799124 0.474722 0.877813 -0.4782 -0.0277332
-0.0492234 -0.0397407 0.59703 -0.997578 0.0693194 0.00578958
0.0244522 -0.067305 0.0392954 0.191513 -0.980683 -0.0397998
0.335892 -0.0830639 0.553094 -0.796856 -0.539199 0.272552
-0.00193009 -0.0957985 0.562226 -0.164495 -0.983866 0.0703453
-0.23188 -0.0801993 0.481248 -0.0463961 -0.998372 0.0331903
-0.0332229 -0.0195942 0.376324 -0.735401 0.674701 -0.0629606
-0.0157649 -0.0857073 0.368237 -0.185313 -0.953007 -0.239659
-0.0534784 -0.0788768 0.423664 0.00910656 -0.999958 0.000287671
0.268767 -0.0778695 0.399722 -0.018746 0.991951 -0.12523
0.00593834 -0.00357078 0.338558 0.296247 0.95506 -0.00987762
-0.0105058 0.0847682 0.0537695 0.0153647 0.993385 -0.1138
0.0143878 -0.0010362 0.704736 0.248117 0.96873 -0.000628796
0.019248 -0.00143325 0.556122 0.236214 0.971016 -0.0364746
0.00373044 -0.0753086 0.928653 0.169792 0.771216 0.613512
0.23789 -0.0797057 0.483444 0.0469852 -0.998344 0.0331912
-0.0441468 -0.0707957 0.468092 -0.992415 -0.113054 -0.0482886
0.013443 0.0741934 0.0622857 -0.0778313 -0.971743 -0.222842
-0.16651 -0.0799193 0.378239 0.00910656 -0.999958 0.000287671
-0.0435683 -0.0321433 0.471713 -0.893212 0.445089 -0.0637797
-0.228331 -0.0792366 0.393261 0.018643 0.99733 -0.0706049
0.165463 -0.0767256 0.447649 -0.0110635 0.999239 -0.0374066
-0.122758 -0.0795 0.450545 0.00910656 -0.999958 0.000287671
-0.144495 -0.0800215 0.474391 0.150636 -0.966658 -0.207079
-0.0124922 -0.0696655 0.039637 -0.262978 -0.963817 -0.0435872
-0.000729591 -0.0981771 0.520209 -0.158482 -0.986755 -0.0346104
-0.0495036 -0.0463482 0.62785 -0.997578 0.0693194 0.00578958
-0.368362 -0.076302 0.350599 -0.901585 -0.00176749 0.432599
-0.173793 -0.079967 0.442871 0.00910656 -0.999958 0.000287671
-0.0338629 -0.0281903 0.776714 -0.779727 0.579855 0.236205
0.00311867 0.0643231 0.113272 0.996399 -0.0727719 0.0435104
-0.00147823 -0.0746481 0.0875482 -0.19095 -0.980922 -0.0364821
-0.0178695 -0.0950252 0.801444 -0.220603 -0.97527 -0.013507
-0.0155338 -0.0852072 0.36607 -0.185313 -0.953007 -0.239659
0.00675382 -0.0541149 0.881468 0.193763 0.926563 0.322393
0.0289992 -0.0196762 0.0524463 0.711472 0.702699 -0.00473448
0.251868 -0.0765327 0.418409 -0.0133515 0.997004 -0.0761874
0.00810154 -0.0463352 0.8576 0.23872 0.92021 0.310204
0.037367 -0.0521432 0.824793 0.650437 0.710534 0.268466
-0.149596 -0.081764 0.376315 0.00835712 0.987653 -0.156433
0.332957 -0.0677195 0.547518 -0.834007 0.551453 0.0182138
0.0244666 -0.0858957 0.368191 0.179754 -0.922027 -0.342863
-0.0087345 -0.0932973 0.91919 -0.674113 -0.725125 0.140592
-0.154198 -0.0797984 0.408766 0.00910656 -0.999958 0.000287671
0.00257953 0.000418149 0.156319 0.999171 -0.0404741 -0.00445151
0.00259624 0.0401458 0.0847982 0.996399 -0.0727719 0.0435104
-0.0476821 -0.0306498 0.558235 -0.981345 0.192131 -0.00686909
0.023528 0.0804619 0.0314285 -0.0778313 -0.971743 -0.222842
0.049053 -0.0612389 0.710563 0.947865 -0.318646 0.00400198
-0.32096 -0.0784756 0.430263 -0.0393024 -0.998929 0.0244061
0.167482 -0.0799056 0.457537 -0.149095 -0.967168 -0.205806
0.036862 -0.0786384 0.811625 0.931566 -0.357715 0.0649992
0.0119667 -0.00585361 0.298633 0.296247 0.95506 -0.00987762
0.21068 -0.0808804 0.465647 -0.000954313 -0.999999 -0.000785653
-0.13366 0.080454 0.0307509 -0.06229 -0.997476 0.0340838
-0.195214 -0.0779893 0.410797 0.00746326 0.999273 -0.0373974
-0.0491626 -0.0445385 0.664937 -0.997578 0.0693194 0.00578958
0.00257783 0.0273462 0.129745 0.999768 -0.0166102 -0.0137252
-0.234171 -0.0775453 0.41373 0.00866895 0.999201 -0.0390147
-0.00347444 -0.0814827 0.281764 -0.19095 -0.980922 -0.0364821
-0.0486583 -0.0533636 0.515853 -0.997768 -0.0208247 -0.0634459
-0.340271 -0.0609829 0.523342 0.19505 0.980625 0.0181988
0.0498107 -0.0457169 0.563445 0.997549 0.0699107 0.00302217
-0.0202102 -0.00583312 0.757635 -0.544214 0.830421 0.119297
0.155946 -0.0772565 0.438169 -0.021592 0.999065 -0.0374515
0.332518 -0.0645305 0.429795 -0.831507 0.555223 0.0179938
-0.0898164 0.0841385 0.048904 -0.0137799 0.999676 -0.0213829
-0.00308995 0.0494302 0.0891327 -0.996149 -0.0759943 0.0437195
0.045022 -0.0405343 0.456343 0.995894 0.0648755 -0.0631344
-0.204512 -0.0802586 0.401649 0.00910656 -0.999958 0.000287671
-0.199392 -0.0758093 0.466121 0.0109063 0.999178 -0.039051
-0.0048677 0.0620521 0.0705667 -0.996149 -0.0759943 0.0437195
0.0476817 -0.03487 0.637262 0.951837 0.30643 0.0103158
-0.0317436 -0.0434558 0.0573483 -0.99961 -0.0176432 -0.0216542
-0.321291 -0.0745448 0.416706 0.0596182 0.995518 -0.0734138
0.0357242 -0.0318526 0.205464 0.905462 0.424422 -0.00204831
0.183508 -0.0793976 0.393759 0.0247004 0.987347 -0.156639
0.0121804 -0.00729285 0.162323 0.189824 0.981801 -0.00584451
-0.158822 -0.0816997 0.482183 -0.025615 -0.999358 0.025061
0.0147133 -0.0956565 0.535559 0.158868 -0.984785 0.0704216
-0.0141808 -0.0958985 0.768648 -0.214539 -0.976686 0.00758553
0.330463 -0.0714533 0.402488 -0.97991 0.194629 -0.0435413
0.333656 -0.083744 0.500393 -0.828074 -0.560323 0.018217
0.00207975 -0.00333808 0.245332 0.296247 0.95506 -0.00987762
0.0321087 -0.0221701 0.170267 0.9605 0.278086 -0.0104278
