-0.0217399 -0.107118 0.36049 0.0650197 0.988492 0.13659
-0.173691 -0.0583056 0.571124 -0.539418 0.842038 9.80203e-06
-0.282383 -0.04181 0.456264 1 0 -1.79003e-05
0.186462 -0.0324613 0.495498 -0.0510703 0.996387 -0.0678643
0.119792 -0.029566 0.588179 -0.0510726 0.996386 -0.0678678
-0.00143266 0.0712558 0.0501511 0.974224 0.108464 0.197796
0.0362436 -0.035227 0.800593 -0.83182 -0.553247 -0.0446381
0.169326 -0.0312514 0.444058 0.0944049 -0.981634 0.165779
-0.0190574 -0.0138597 0.360733 0.20028 -0.978514 -0.0489695
-0.0435478 -0.101699 0.753575 0.60412 0.79627 -0.0315215
-0.0372677 -0.105615 0.665836 0.445391 0.894864 -0.0290685
-0.0277346 -0.111606 0.741863 0.0721055 0.989059 0.128699
-0.0519402 -0.0849986 0.462989 0.932596 -0.356234 0.0579847
0.0756118 -0.0301628 0.612663 -0.0510726 0.996386 -0.0678678
0.195943 -0.0273336 0.4521 0.094404 -0.981634 0.165777
-0.448914 -0.0316343 0.310156 0.0510657 0.996387 -0.0678639
0.0473646 -0.0653986 0.477927 -0.977124 -0.209099 0.0388173
-0.0294205 -0.0225815 0.516197 0.542139 -0.837293 0.0708989
-0.107453 -0.0185689 0.585809 0.0624493 -0.994162 -0.0879858
-0.215909 -0.0250622 0.454187 -0.0943942 -0.981634 0.165781
0.116256 -0.030804 0.572664 -0.0510696 0.996387 -0.067863
-0.0980787 -0.0331791 0.473359 -0.330554 -0.717618 0.612991
-0.132222 -0.0343005 0.509312 0.0510669 0.996387 -0.0678674
0.0492402 -0.0568568 0.724818 -0.981243 -0.19256 0.00913622
-0.0874022 -0.0328847 0.563823 0.0510669 0.996387 -0.0678674
-0.329603 -0.0290801 0.437434 0.0510669 0.996387 -0.0678674
-0.297366 -0.0317823 0.42202 0.0510669 0.996387 -0.0678674
0.243805 -0.0299624 0.489035 -0.0510696 0.996387 -0.067863
0.0474297 -0.0880047 0.403577 -0.986605 0.132647 0.0949542
-0.228666 -0.0224963 0.462117 -0.0943942 -0.981634 0.165781
-0.175966 -0.0349602 0.46671 0.0510669 0.996387 -0.0678674
-0.113413 -0.030344 0.581551 0.0510669 0.996387 -0.0678674
-0.209938 -0.0366169 0.416825 0.0510657 0.996387 -0.0678639
0.00290199 -0.0256908 0.853655 -0.173261 -0.772279 -0.6112
0.345331 -0.0312677 0.343503 0.0550033 -0.994376 0.090508
-0.226678 -0.0361019 0.411789 0.0510657 0.996387 -0.0678639
-0.271813 -0.0297751 0.394449 -0.0943859 -0.981638 0.165763
-0.0519267 -0.0918164 0.714142 0.986034 0.166238 0.0100891
0.0207697 -0.113464 0.548657 -0.00209089 0.999875 -0.0156909
-0.391632 -0.0329658 0.333711 0.0510657 0.996387 -0.0678639
0.0419496 -0.0542742 0.288762 -0.977213 -0.211973 0.011081
0.0205028 0.103994 0.0237888 0.0246658 -0.994231 0.104382
0.244049 -0.0310143 0.40291 0.0944049 -0.981634 0.165779
-0.0470181 -0.0171055 0.613732 0.13392 -0.987134 -0.0873664
0.0539798 -0.0755183 0.738358 -0.965396 -0.260375 -0.0146558
0.0477714 -0.0745755 0.421879 -0.986654 -0.158782 0.0360977
0.0569127 -0.0937066 0.559481 -0.90604 -0.422656 0.0213011
0.00988562 -0.109269 0.697188 -0.0478878 0.998729 -0.0157106
0.0288995 0.1087 0.0666337 0.0246658 -0.994231 0.104382
-0.0248941 -0.112697 0.755637 0.0167676 0.995065 -0.0978026
-0.0427854 -0.0667958 0.865875 0.968377 -0.0704911 -0.239325
-0.042506 -0.0871953 0.860291 0.934793 0.228841 -0.271649
0.0194413 0.100336 0.0247062 -0.0367961 0.995669 -0.085374
-0.131547 -0.0311665 0.466076 -0.0944004 -0.981631 0.165797
-0.0523645 -0.0858675 0.747012 0.985918 0.166212 -0.0184372
-0.0275878 -0.0263449 0.826573 0.818791 -0.530771 -0.218777
-0.0411944 -0.0398098 0.707686 0.811462 -0.578198 -0.084945
-0.0465614 -0.0499001 0.603491 0.965832 -0.258561 0.0177275
0.0147485 -0.113785 0.520361 0.0100895 0.99987 -0.012571
0.177166 -0.0254412 0.526909 1 0 -3.6343e-05
0.0243872 -0.0691381 0.901615 -0.288457 0.0257241 -0.957147
0.0428703 -0.0640332 0.275185 -0.987782 0.138709 0.0710458
0.0292938 -0.0277502 0.458452 -0.675647 -0.735668 0.0478861
-0.117678 -0.019202 0.544818 -0.0943924 -0.981635 0.165778
0.106827 0.103669 0.0316118 -0.000821208 0.999998 0.0015426
0.0234522 -0.0453504 0.880473 -0.514419 -0.715841 -0.47217
-0.0458484 -0.099728 0.717099 0.505866 0.862552 -0.0101834
0.397441 -0.02168 0.370831 0.094404 -0.981634 0.165777
-0.0198037 -0.114125 0.49043 0.000564567 0.999963 -0.00856047
-0.198413 -0.0344894 0.456732 0.0510669 0.996387 -0.0678674
0.00568903 0.0631298 0.13648 -0.988137 -0.114271 -0.102602
0.36186 -0.0304839 0.392537 -0.0510703 0.996387 -0.0678639
0.000147302 0.00396152 0.0832725 -0.970442 0.116015 0.21162
0.000645098 0.0717374 0.0483989 -0.970442 0.116015 0.21162
0.0357469 -0.0348924 0.805701 -0.83182 -0.553247 -0.0446381
-0.251891 -0.0211103 0.499244 0.282073 -0.863859 -0.417351
-0.0499349 -0.0392086 0.49917 0.0510669 0.996387 -0.0678674
0.36968 -0.0262377 0.359652 0.0944049 -0.981634 0.165779
0.0951808 -0.0223013 0.606826 -0.471593 -0.532451 -0.70292
-0.0427397 -0.101384 0.777031 0.60412 0.79627 -0.0315215
-0.300776 -0.0290992 0.458845 0.0510669 0.996387 -0.0678674
-0.114192 -0.0347588 0.51615 0.0510669 0.996387 -0.0678674
-0.109857 0.10457 0.0499411 0.0208973 0.997615 -0.0657886
-0.0436875 -0.0439081 0.69856 0.899467 -0.435815 -0.0320158
-0.0321716 -0.0533589 0.880687 0.776379 -0.379646 -0.503095
-0.0365265 -0.0399288 0.208004 0.976599 -0.21184 0.0371286
0.0490331 -0.0792157 0.441061 -0.997204 -0.0731791 0.0151622
-0.0023041 -0.0758635 0.206595 0.143975 0.963842 0.224231
0.0986213 -0.0269242 0.509945 0.094404 -0.981634 0.165777
-0.227589 -0.0189687 0.483618 -0.0943924 -0.981635 0.165778
-0.154232 0.103399 0.00504808 0.0265328 0.999647 0.00154232
0.0559206 -0.0178927 0.614754 -0.0624511 -0.994163 -0.087979
0.00219966 -0.0641505 0.163675 -0.237478 0.933522 0.268591
0.0512706 -0.105465 0.430697 -0.828446 0.513637 0.22328
-0.154374 -0.0246221 0.49183 -0.0943942 -0.981634 0.165781
0.389087 -0.0229346 0.410123 -0.471593 -0.532451 -0.70292
-0.0028811 -0.0125862 0.459632 0.321094 -0.945197 -0.0591769
-0.25781 -0.0274012 0.416479 -0.0944004 -0.981631 0.165797
-0.05693 -0.0185957 0.621971 0.0624493 -0.994162 -0.0879858
-0.0518027 -0.0652824 0.795456 0.882045 -0.319415 0.346367
0.0254274 -0.0145975 0.258776 -0.802989 -0.592039 0.0685408
0.032005 -0.108877 0.648294 -0.398491 0.916728 -0.02853
-0.0409194 -0.0431123 0.810683 0.83182 -0.553244 -0.0446805
0.0493914 -0.0569658 0.738758 -0.981243 -0.19256 0.00913622
-0.275543 -0.0216889 0.484456 0.282073 -0.863859 -0.417351
-0.0870704 0.110853 0.0733978 -0.0246615 -0.994231 0.104383
-0.00488697 0.0885915 0.124546 0.807396 0.0677125 -0.586112
-0.0712062 -0.0356991 0.53469 0.0510669 0.996387 -0.0678674
0.436062 -0.0308287 0.331636 -0.0510703 0.996387 -0.0678639
-0.035338 -0.037283 0.194185 0.935162 -0.350828 0.0489137
-0.00782393 0.0964659 0.122036 0.906355 0.421556 -0.0284732
-0.0415932 -0.0182946 0.632885 0.131412 -0.968654 -0.210809
-0.189084 -0.0357293 0.445548 0.0510657 0.996387 -0.0678639
0.0454418 -0.089687 0.37611 -0.921245 0.366668 0.129856
-0.00971111 -0.0109489 0.330551 0.200692 -0.97962 -0.00813868
0.226316 -0.0181419 0.496616 -0.0624511 -0.994163 -0.087979
-0.192399 -0.01775 0.514569 0.000458121 -0.999867 0.0163273
-0.265401 -0.0211201 0.449349 -0.0943942 -0.981634 0.165781
0.0721328 0.106503 0.0354887 0.0246658 -0.994231 0.104382
0.206719 -0.0201899 0.488264 0.094404 -0.981634 0.165777
0.393087 -0.0286577 0.395849 -0.0510703 0.996387 -0.0678643
0.278363 -0.0383845 0.490713 1 0 -1.79003e-05
0.404645 -0.0304944 0.314535 0.0944049 -0.981634 0.165779
0.415775 -0.0295385 0.365844 -0.0510703 0.996387 -0.0678639
0.0345348 -0.0826225 0.268527 -0.486087 0.855374 0.179037
0.151042 -0.0184147 0.553132 -0.0624511 -0.994163 -0.087979
-0.03188 -0.0370422 0.359895 0.985619 -0.145322 -0.0862399
0.338303 -0.0223778 0.400376 0.094404 -0.981634 0.165777
0.36164 -0.029494 0.407235 -0.0510703 0.996387 -0.0678643
0.273958 -0.0491317 0.470597 0.546502 -0.837458 -9.78878e-06
-0.241519 -0.0316417 0.466106 0.0510669 0.996387 -0.0678674
0.0931307 0.107019 0.0354423 0.0246658 -0.994231 0.104382
0.050245 -0.077497 0.505331 -0.96905 -0.246506 0.0133341
-0.463135 -0.0286079 0.34389 0.0510657 0.996387 -0.0678639
0.0390066 -0.104505 0.742138 -0.650689 0.755424 0.0770618
-0.0742011 -0.0367138 0.517538 0.0510669 0.996387 -0.0678674
-0.0504765 -0.0848277 0.448229 0.972324 -0.229739 0.0424983
-0.136195 0.110232 0.055879 -0.0246615 -0.994231 0.104383
-0.275402 -0.0338062 0.377691 -0.314449 0.714821 0.624623
0.00797122 0.0595549 0.0804177 -0.936079 0.19082 0.295539
-0.0288993 -0.112637 0.592051 0.158739 0.987292 -0.0074607
-0.350732 -0.0312427 0.389786 0.0510657 0.996387 -0.0678639
-0.45536 -0.0322973 0.284669 -0.390558 0.517939 0.761055
-0.10422 0.11107 0.0768557 0.471523 -0.0143989 -0.881736
0.174156 -0.0323569 0.506292 -0.0510703 0.996387 -0.0678643
-0.0287156 -0.0373338 0.154785 0.960412 -0.210541 0.182433
-0.0502658 -0.0833212 0.451551 0.972324 -0.229739 0.0424983
0.000489445 0.036766 0.0668573 -0.970442 0.116015 0.21162
-0.0303086 -0.0684642 0.208198 0.687903 0.687306 0.233239
0.00791525 -0.00973652 0.155375 -0.999725 0.0222652 0.00738495
-0.0412847 -0.054144 0.376501 0.802652 -0.596155 0.0186932
-0.169853 -0.0532863 0.524484 -1 0 1.81715e-05
-0.0491155 -0.0648723 0.839168 0.987798 -0.0947277 -0.123622
0.0129514 -0.0143803 0.417964 -0.317713 -0.947601 -0.0333258
0.0353295 -0.107152 0.657287 -0.398491 0.916728 -0.02853
-0.102668 0.10262 0.0262811 0.0267445 0.995987 -0.085403
0.325056 -0.0227264 0.405856 0.094404 -0.981634 0.165777
-0.013213 -0.0124151 0.224803 0.287578 -0.955519 0.0654445
0.0892303 -0.0376745 0.492128 -0.0510708 0.996387 -0.0678654
-0.0058451 0.0631383 0.135049 0.988132 -0.114271 -0.102653
-0.0150401 -0.0144108 0.197455 0.391333 -0.920011 0.0209221
-0.174957 -0.0381619 0.538215 -0.546556 -0.837423 1.98631e-05
0.026112 -0.113858 0.51285 -0.0377619 0.999262 -0.00705372
-0.00977829 -0.0392523 0.875509 0.0893945 -0.86711 -0.490029
0.0367349 -0.0671358 0.227836 -0.899302 0.406957 0.160128
0.0455698 -0.0600386 0.43543 -0.98092 -0.193025 0.0231646
0.000666975 -0.00735777 0.0918611 -0.970442 0.116015 0.21162
0.314032 -0.0293759 0.444797 -0.0510696 0.996387 -0.067863
-0.033793 -0.112446 0.425898 0.0269149 0.997003 0.0725342
0.416178 -0.0210414 0.363942 0.094404 -0.981634 0.165777
-0.105762 0.102404 0.00801404 -0.0908859 0.483499 0.870614
-0.00943933 -0.0707395 0.189152 0.142096 0.951265 0.273686
-0.0826461 -0.0325584 0.572191 0.0510669 0.996387 -0.0678674
-0.0342111 -0.0253088 0.520621 0.542139 -0.837293 0.0708989
0.00193558 -0.00935362 0.336828 -0.195932 -0.980053 -0.0332573
-0.0436603 -0.0576858 0.853538 0.914015 -0.330974 -0.234592
0.02426 -0.0208049 0.824345 -0.828322 -0.554522 -0.0799278
-0.0350933 0.101705 0.0367774 0.0267445 0.995987 -0.085403
0.0447937 -0.0829038 0.349928 -0.960136 0.267966 0.0795861
0.453034 -0.0218223 0.365118 -0.255095 -0.890062 -0.377778
-0.0408152 -0.0550982 0.860973 0.914015 -0.330974 -0.234592
-0.466655 -0.0261011 0.32046 1 -0.000406451 -0.000339547
-0.000433594 -0.0278736 0.0889018 0.201723 -0.904911 0.374757
0.0789035 -0.01993 0.613238 -0.255726 -0.889907 -0.377717
-0.0914818 0.104754 0.014261 -0.024661 -0.994231 0.104382
-0.0299083 0.103012 0.0536417 0.0267445 0.995987 -0.085403
0.360526 -0.0260511 0.36597 0.0944049 -0.981634 0.165779
0.397852 -0.033524 0.320816 -0.0510703 0.996387 -0.0678639
-0.167481 -0.0309252 0.447045 -0.0943859 -0.981638 0.165763
0.0337583 -0.0356125 0.326996 -0.988899 -0.143565 -0.0383056
-0.22793 -0.0305078 0.492978 0.0510669 0.996387 -0.0678674
0.0569103 -0.0915196 0.62069 -0.888026 -0.403042 -0.221286
0.115332 -0.0180288 0.553103 0.094404 -0.981634 0.165777
-0.0740666 0.103392 0.0442478 0.0267445 0.995987 -0.085403
0.316734 -0.0306739 0.423706 -0.0510703 0.996387 -0.0678643
-0.0357278 -0.069852 0.883072 0.866901 -0.0631044 -0.494469
0.139714 -0.0189377 0.567082 -0.0624511 -0.994163 -0.087979
0.0979513 -0.0188325 0.595538 -0.0624511 -0.994163 -0.087979
0.0685771 -0.0389482 0.48897 -0.0510703 0.996387 -0.0678639
0.0445622 -0.0765807 0.8617 -0.937959 0.229651 -0.259794
-0.182052 -0.0258854 0.46859 -0.0943942 -0.981634 0.165781
0.0249036 -0.0138697 0.258926 -0.802989 -0.592039 0.0685408
0.337728 -0.0198597 0.415614 0.094404 -0.981634 0.165777
0.0377383 -0.0374097 0.794725 -0.832629 -0.553785 0.00712694
0.0393803 -0.0420038 0.818456 -0.863848 -0.488393 -0.123446
-0.00414172 -0.101076 0.833922 0.0244506 0.992483 -0.119914
0.00364007 -0.112082 0.622999 -0.0230886 0.961919 -0.272359
-0.317358 -0.0201274 0.452749 0.255042 -0.890094 -0.377737
-0.225488 -0.0362093 0.411107 0.0510657 0.996387 -0.0678639
0.192475 -0.0299851 0.438374 0.0944049 -0.981634 0.165779
-0.00913392 0.0586981 0.101486 0.999614 0.0250301 0.0120307
-0.0493668 -0.0647426 0.582637 0.985615 -0.168011 0.0183001
-0.0090097 -0.0121216 0.782531 0.0975792 -0.995133 0.0137245
0.0284211 -0.0277917 0.380741 -0.8626 -0.499491 -0.0801884
0.00893676 0.0467558 0.12334 -0.999725 0.0222652 0.00738495
0.269068 -0.0326683 0.430295 -0.0510708 0.996387 -0.0678654
-0.4028 -0.0200489 0.379691 0.000458121 -0.999867 0.0163273
0.100638 -0.0189779 0.595275 -0.0624511 -0.994163 -0.087979
0.270677 -0.0315012 0.44622 -0.0510703 0.996387 -0.0678643
0.00830944 0.0175053 0.126606 -0.999725 0.0222652 0.00738495
0.255534 -0.0336886 0.4255 -0.0510703 0.996387 -0.0678639
0.177168 -0.0339543 0.56643 1 0 -3.6343e-05
-0.0550157 -0.0921836 0.480414 0.940507 -0.339069 0.0218894
-0.129955 -0.031997 0.462065 -0.0943859 -0.981638 0.165763
0.171531 -0.056913 0.561409 0.539418 0.842038 -1.96041e-05
0.122765 -0.0330182 0.535256 -0.0510703 0.996387 -0.0678643
-0.279648 -0.0307686 0.384104 -0.0943977 -0.981633 0.165787
0.0167366 -0.0146566 0.208122 -0.281768 -0.957258 0.065295
-0.0290162 -0.0418949 0.865361 0.625596 -0.750263 -0.213858
0.174947 -0.0591017 0.538043 0.539418 0.842038 -1.96041e-05
0.0460021 -0.0727435 0.368454 -0.989979 -0.139537 0.021717
-0.374626 -0.0334378 0.339578 0.0510657 0.996387 -0.0678639
0.0119684 -0.110581 0.654313 -0.0478616 0.998169 -0.0369891
-0.158427 0.106131 0.0115636 -0.0246615 -0.994231 0.104383
-0.0536721 -0.0840275 0.608298 0.90641 -0.422288 0.00964714
0.191954 -0.0254017 0.544249 -0.471593 -0.532451 -0.70292
-0.197583 -0.0205868 0.491122 -0.0943924 -0.981635 0.165778
0.0436692 -0.0626269 0.310225 -0.99022 -0.139107 0.0106678
0.0446827 -0.0610012 0.380973 -0.97651 -0.214815 0.0167976
-0.128903 0.104105 0.0368416 0.0208973 0.997615 -0.0657886
-0.05883 0.110496 0.101138 0.471523 -0.0143989 -0.881736
-0.00322156 -0.110044 0.713323 0.0726847 0.997256 -0.014027
0.00717463 0.0936909 0.104145 -0.988528 0.129883 -0.0770838
-0.0222944 -0.108726 0.787496 0.0217851 0.947667 -0.318516
-0.0533623 -0.0742271 0.811997 0.993185 -0.111445 0.0341008
-0.00431125 -0.0124728 0.41587 0.325951 -0.945386 0.000676138
-0.0301285 -0.0713735 0.892393 0.844893 0.0753462 -0.529602
0.181297 -0.0322217 0.431496 0.0944049 -0.981634 0.165779
0.115646 -0.0338768 0.528008 -0.0510703 0.996387 -0.0678643
-0.0586218 -0.0970852 0.559425 0.940507 -0.339069 0.0218894
0.0331103 -0.0311442 0.326978 -0.988899 -0.143565 -0.0383056
-0.123345 -0.0328356 0.460863 -0.0943977 -0.981633 0.165787
0.0912131 0.104715 0.0139486 0.0246658 -0.994231 0.104382
-0.0501843 -0.0720048 0.558793 0.984952 -0.171932 0.0175868
0.291189 -0.0591327 0.472072 -1 0 1.84427e-05
-0.0479809 -0.0340853 0.497407 0.27437 -0.883405 0.37989
-0.30028 -0.0291421 0.458588 0.0510669 0.996387 -0.0678674
-0.021479 -0.0162049 0.775476 0.596502 -0.802607 0.00277194
0.0176919 0.10779 0.0606124 0.0246658 -0.994231 0.104382
-0.290617 -0.0507184 0.500507 0.476288 -0.879289 -8.78925e-06
0.240624 -0.0320332 0.461024 -0.0510703 0.996387 -0.0678643
-0.0521375 -0.0807769 0.57665 0.98607 -0.165679 0.0147491
-0.00794501 -0.0125389 0.636007 0.115421 -0.993311 -0.00334954
0.0122591 -0.114295 0.471083 -0.00055138 0.999963 -0.0085611
-0.0109391 0.106922 0.0539499 -0.0636408 -0.992518 0.104203
0.0161952 -0.012172 0.335875 -0.195932 -0.980053 -0.0332573
0.00803541 -0.00999011 0.16411 -0.999883 -0.00169542 0.0151746
0.0519121 -0.0861407 0.637878 -0.984122 0.175248 0.0281459
0.0433262 -0.0599414 0.3134 -0.99022 -0.139107 0.0106678
0.0452121 -0.0594089 0.425531 -0.98092 -0.193025 0.0231646
-0.000810588 0.0375904 0.065548 0.974224 0.108464 0.197796
-0.0506127 0.107621 0.10558 0.471523 -0.0143989 -0.881736
0.033585 -0.0366842 0.335486 -0.988899 -0.143565 -0.0383056
0.0133984 -0.100586 0.834138 -0.0406988 0.991958 -0.119849
-0.028283 -0.0203242 0.668454 0.354014 -0.934418 -0.0392198
-0.0717403 0.103399 0.0110134 -0.0908516 0.484043 0.870315
-0.0112009 0.100606 0.0314377 0.0267445 0.995987 -0.085403
0.29119 -0.0586789 0.492171 -1 0 1.84427e-05
0.356879 -0.0331871 0.356597 -0.0510703 0.996387 -0.0678639
0.09669 0.103899 0.0716836 -0.046522 0.996752 -0.0657308
0.0416943 -0.0220881 0.558517 -0.181723 -0.96947 0.164635
0.00676377 -0.109963 0.677739 -0.0478616 0.998169 -0.0369891
-0.0935584 0.104477 0.0581201 0.0113645 0.999935 4.88022e-05
-0.050296 -0.109093 0.600966 0.456119 0.889365 -0.0313918
-0.141258 -0.0327031 0.525964 0.0510669 0.996387 -0.0678674
0.0460138 -0.084379 0.370048 -0.995496 0.0907511 0.0274291
-0.169852 -0.0473805 0.568887 -1 0 1.81715e-05
-0.0690071 -0.033758 0.488358 -0.330554 -0.717618 0.612991
-0.0756423 -0.0368948 0.513797 0.0510669 0.996387 -0.0678674
-0.0526321 -0.0648117 0.804088 0.627428 -0.777334 -0.0456709
-0.291179 -0.0639532 0.506875 1 0 -1.84427e-05
0.23381 -0.0295881 0.502051 -0.0510696 0.996387 -0.067863
-0.0503064 -0.0603184 0.707826 0.965426 -0.260364 -0.0128004
0.26813 -0.029911 0.471484 -0.0510696 0.996387 -0.067863
-0.172918 -0.0578105 0.555338 -0.539418 0.842038 9.80203e-06
-0.271051 -0.0633098 0.497962 -1 0 1.84427e-05
-0.189981 -0.0543114 0.542346 1 0 -1.81715e-05
0.238692 -0.0188335 0.495647 -0.0624511 -0.994163 -0.087979
0.120621 -0.021065 0.532112 0.094404 -0.981634 0.165777
-0.00860788 -0.114233 0.478591 0.000564567 0.999963 -0.00856047
0.0352723 -0.0421039 0.335791 -0.879788 -0.472858 -0.0487567
-0.00769966 -0.01426 0.544279 0.103124 -0.993835 0.040722
-0.0433291 -0.111374 0.569476 0.0411239 0.998437 -0.0378443
-0.0445346 -0.056916 0.421633 0.919082 -0.393456 0.021915
0.145244 0.109486 0.0549301 -0.471557 -0.0141801 -0.881722
-0.0423054 0.103067 0.0503933 0.0267445 0.995987 -0.085403
-0.228473 -0.030211 0.496927 0.0510669 0.996387 -0.0678674
-0.0507478 -0.0305386 0.515801 -0.0943942 -0.981634 0.165781
-0.016882 -0.0115784 0.272757 0.27953 -0.959584 -0.0325751
0.274201 -0.0489731 0.461153 0.546502 -0.837458 -9.78878e-06
0.124326 -0.0196587 0.538329 0.094404 -0.981634 0.165777
-0.035481 -0.0544943 0.200501 0.988814 0.0845774 0.122857
0.0509382 -0.0720988 0.598868 -0.985614 -0.168016 0.0183516
0.0238302 -0.0449454 0.879448 -0.514419 -0.715841 -0.47217
-0.0171484 -0.0132998 0.807402 0.633841 -0.772699 -0.0343741
0.0528128 -0.0818192 0.806217 -0.975012 0.220378 -0.028015
-0.0136015 -0.108857 0.369204 0.0650197 0.988492 0.13659
-0.0286656 -0.105487 0.365952 0.467958 0.872079 0.143156
0.00352539 -0.0119935 0.435016 -0.238307 -0.97119 0.000709588
-0.0402208 -0.0520039 0.399071 0.802652 -0.596155 0.0186932
-0.0315681 -0.0394883 0.386608 0.860328 -0.508423 -0.0366442
0.110484 -0.0201698 0.543185 0.094404 -0.981634 0.165777
0.287998 -0.0334511 0.404556 -0.0510703 0.996387 -0.0678639
0.0149449 -0.11239 0.760939 -0.0164865 0.99567 -0.0914836
-0.098622 -0.0365199 0.502011 0.0510669 0.996387 -0.0678674
-0.104512 0.111114 0.0717677 -0.0246615 -0.994231 0.104383
0.0135367 0.102561 0.0531954 -0.0367961 0.995669 -0.085374
-0.197687 -0.0191047 0.499838 -0.0943924 -0.981635 0.165778
-0.0509698 -0.0626849 0.694251 0.976898 -0.212027 0.026739
0.25858 -0.0305414 0.469415 -0.0510703 0.996387 -0.0678643
0.0376208 -0.113181 0.437647 -0.0293709 0.99883 0.0384155
-0.0212125 0.112864 0.108112 -0.024661 -0.994231 0.104382
0.0138519 -0.0990335 0.314809 -0.0528649 0.976238 0.210152
-0.0455438 -0.0410875 0.629902 0.934496 0.346818 -0.080221
-0.340401 -0.029493 0.357066 -0.0943977 -0.981633 0.165787
-0.0433058 -0.0579926 0.338437 0.880986 -0.472989 0.0120325
0.00494037 -0.0123564 0.727519 -0.0641984 -0.997842 0.0137662
-0.0299593 -0.0727637 0.892538 0.853061 0.000315186 -0.521811
-0.0409405 -0.0212997 0.562345 0.181732 -0.96947 0.164625
-0.040304 -0.0403202 0.754261 0.832597 -0.55376 -0.0114993
-0.210783 -0.0251112 0.456815 -0.0943942 -0.981634 0.165781
-0.086861 -0.0250321 0.61447 0.471559 -0.532453 -0.702941
0.0313472 -0.0273911 0.715834 -0.791938 -0.610379 -0.0165112
-0.0447431 0.104547 0.108769 0.471531 -0.0141794 -0.881735
0.0452048 -0.0177631 0.62107 -0.0665525 -0.993899 -0.0879556
0.0439071 -0.0584199 0.368897 -0.97651 -0.214815 0.0167976
0.124186 -0.0176666 0.563741 -0.0624511 -0.994163 -0.087979
0.0042389 -0.0966628 0.858635 -0.0402429 0.980844 -0.19059
0.124239 -0.0345412 0.511786 -0.0510703 0.996387 -0.0678643
0.152201 0.108756 0.0380298 0.0246658 -0.994231 0.104382
-0.00799847 -0.00158092 0.183696 0.811725 -0.30157 -0.500158
-0.117299 -0.0312245 0.5657 0.0510669 0.996387 -0.0678674
-6.84547e-05 -0.0938657 0.285398 -0.0765457 0.976166 0.203077
-0.0346004 -0.042948 0.415707 0.862783 -0.497336 0.0909017
0.00132935 -0.0485703 0.110383 -0.235971 0.927604 0.289601
-0.0311599 -0.0528079 0.178341 0.959087 0.0820348 0.270964
0.351025 -0.0311564 0.390817 -0.0510703 0.996387 -0.0678639
0.286445 -0.0230392 0.425991 0.094404 -0.981634 0.165777
-0.0578526 -0.104863 0.504458 0.999722 0.0059097 0.0228257
0.0446813 0.101622 0.0288237 -0.0367961 0.995669 -0.085374
0.0752695 -0.0384685 0.490977 -0.0510708 0.996387 -0.0678654
-0.335435 -0.0333638 0.370155 0.0510657 0.996387 -0.0678639
-0.050341 -0.0301607 0.6317 0.0510669 0.996387 -0.0678674
-0.0715365 0.104227 0.0590691 0.0113645 0.999935 4.88022e-05
-0.162955 -0.0179249 0.539139 0.0624493 -0.994162 -0.0879858
-0.0311751 -0.0395547 0.396758 0.860328 -0.508423 -0.0366442
-0.170287 -0.0539733 0.517477 5.03418e-05 0 1
-0.0753312 0.106361 0.0333877 -0.024661 -0.994231 0.104382
0.285434 -0.0479052 0.499788 -0.476288 -0.879289 8.78925e-06
0.0503784 -0.06124 0.721924 -0.965396 -0.260375 -0.0146558
0.00950062 0.0945229 0.0648075 -0.988137 -0.114271 -0.102602
0.0402019 -0.0494184 0.317777 -0.879788 -0.472858 -0.0487567
-0.276691 -0.0192789 0.473712 0.0624493 -0.994162 -0.0879858
-0.270758 -0.0291397 0.480837 0.0510669 0.996387 -0.0678674
-0.00670138 -0.012401 0.637944 0.115421 -0.993311 -0.00334954
0.0574322 -0.0364745 0.533676 -0.0510703 0.996387 -0.0678643
0.252995 -0.0276221 0.503061 -0.298763 0.85064 -0.43261
-0.0495349 -0.0247908 0.639327 0.471559 -0.532453 -0.702941
-0.0441093 -0.102395 0.681242 0.398646 0.917083 -0.00629747
0.326053 -0.0235939 0.400151 0.094404 -0.981634 0.165777
0.0447529 -0.0530966 0.477416 -0.961451 -0.273798 0.0254471
0.428378 -0.0281662 0.314806 0.0944049 -0.981634 0.165779
-0.0450979 -0.046061 0.688566 0.898268 -0.435236 -0.0606959
0.166872 -0.0374643 0.436786 -0.0510703 0.996387 -0.0678639
0.0372067 -0.106378 0.771405 -0.642371 0.765397 -0.0390627
-0.000934838 0.0772197 0.0444288 0.974224 0.108464 0.197796
-0.443896 -0.0294472 0.346043 0.0510657 0.996387 -0.0678639
0.0268472 -0.0253581 0.176247 -0.717933 -0.684281 0.127795
-0.147585 0.106839 0.0208737 -0.0246615 -0.994231 0.104383
-0.0121097 -0.0151697 0.702502 0.411058 -0.901295 0.13674
-0.00528109 -0.0225436 0.110408 0.212355 -0.952604 0.217833
0.416454 -0.0291757 0.315619 0.0944049 -0.981634 0.165779
-0.372076 -0.0284841 0.414226 0.0510669 0.996387 -0.0678674
-0.365355 -0.0343912 0.332554 0.0510657 0.996387 -0.0678639
0.124781 -0.0197567 0.53749 0.094404 -0.981634 0.165777
0.0599433 -0.102105 0.594748 -0.999742 -0.000182342 0.0227054
0.0475492 -0.0727817 0.423696 -0.986654 -0.158782 0.0360977
-0.261675 -0.0300111 0.474878 0.0510669 0.996387 -0.0678674
0.118792 0.108238 0.04099 0.0246658 -0.994231 0.104382
-0.00553976 0.0718069 0.128338 0.988132 -0.114271 -0.102653
-0.363584 -0.0269891 0.358692 -0.0943859 -0.981638 0.165763
-0.188616 -0.0511271 0.57242 -5.03418e-05 0 -1
0.0372939 -0.0979436 0.348196 -0.467946 0.872081 0.143184
-0.0474519 -0.101014 0.670778 0.398646 0.917083 -0.00629747
-0.0891295 0.104894 0.0161523 -0.024661 -0.994231 0.104382
-0.376373 -0.0282988 0.413713 0.0510669 0.996387 -0.0678674
0.30511 -0.0273826 0.389643 0.0944049 -0.981634 0.165779
-0.0288552 -0.0265019 0.469871 0.676179 -0.736244 -0.026964
0.150211 -0.0189418 0.559677 -0.0624511 -0.994163 -0.087979
0.0936926 0.110891 0.0721926 0.0246658 -0.994231 0.104382
0.0379984 -0.0683321 0.237972 -0.899302 0.406957 0.160128
0.0321018 -0.0256798 0.502019 -0.543446 -0.839326 0.0141006
0.0365865 -0.113283 0.439492 -0.0293709 0.99883 0.0384155
0.0220133 -0.110664 0.777393 -0.0224584 0.994984 -0.0974796
0.0819284 -0.0166179 0.580793 -0.000457129 -0.999867 0.0163276
0.0329135 -0.0233361 0.656278 -0.570993 -0.803852 -0.1667
-0.294059 -0.0300799 0.449501 0.0510669 0.996387 -0.0678674
0.0433939 -0.0624956 0.286383 -0.99022 -0.139107 0.0106678
-0.0309114 -0.0152155 0.599382 0.0665731 -0.994762 0.077564
0.043206 -0.0577504 0.333066 -0.977213 -0.211973 0.011081
0.00042747 -0.112668 0.597715 0.0100895 0.99987 -0.012571
-0.0401148 -0.0487242 0.252205 0.976599 -0.21184 0.0371286
0.440009 -0.0320731 0.310394 -0.0510703 0.996387 -0.0678639
-0.272 -0.029252 0.478253 0.0510669 0.996387 -0.0678674
0.312902 -0.0256662 0.39537 0.0944049 -0.981634 0.165779
-0.437809 -0.0320113 0.312977 0.0510657 0.996387 -0.0678639
0.15006 0.105004 0.0506679 -0.046522 0.996752 -0.0657308
-0.175881 -0.0175748 0.52601 0.0624493 -0.994162 -0.0879858
0.036347 -0.0370874 0.230295 -0.935834 -0.351098 0.0307253
0.0834824 -0.0166371 0.579658 -0.000457129 -0.999867 0.0163276
-0.0300566 -0.0249652 0.729603 0.762162 -0.64738 0.00289474
-0.0383416 -0.104719 0.389055 0.417659 0.894045 0.162
0.0384544 -0.0337611 0.692522 -0.78502 -0.615221 -0.0724295
0.0316317 -0.107949 0.714805 -0.0478878 0.998729 -0.0157106
0.0183862 0.103545 0.105247 -0.00126665 0.999999 4.91415e-05
-0.0381235 -0.0964605 0.341973 0.463257 0.867362 0.181866
-0.0900996 0.104438 0.060584 0.0113645 0.999935 4.88022e-05
0.00722371 -0.0978053 0.852125 -0.0402429 0.980844 -0.19059
-0.430345 -0.0278292 0.379996 0.0510669 0.996387 -0.0678674
-0.289637 -0.0336947 0.399758 0.0510657 0.996387 -0.0678639
-0.177626 -0.0349106 0.517477 0.000251497 0 1
0.0267457 -0.0170743 0.641331 -0.667699 -0.742339 -0.0557674
-0.0310535 -0.112578 0.554036 0.158739 0.987292 -0.0074607
-0.0192458 -0.110477 0.728425 0.0721055 0.989059 0.128699
-0.0470115 -0.0849136 0.397206 0.971774 0.141077 0.189083
0.0339671 -0.105385 0.381435 -0.417651 0.894045 0.162024
0.0451155 -0.109874 0.613028 -0.158739 0.987292 -0.00745233
-0.283047 -0.0587453 0.509502 0 0 -1
-0.0406586 -0.0425149 0.808141 0.83182 -0.553244 -0.0446805
-0.00335192 -0.110277 0.671999 0.0757482 0.996443 -0.0369284
-0.0773388 0.107329 0.0421292 -0.024661 -0.994231 0.104382
0.0804944 -0.0342971 0.548289 -0.0510703 0.996387 -0.0678643
0.167822 0.108052 0.0349113 -1 3.74033e-07 2.32587e-05
0.187332 -0.0336171 0.477873 -0.0510703 0.996387 -0.0678643
-0.0058101 -0.0141139 0.482166 0.321622 -0.94675 0.0149254
0.00575251 -0.0579125 0.145135 -0.237478 0.933522 0.268591
-0.271995 -0.0207133 0.448003 -0.0943924 -0.981635 0.165778
-0.359217 -0.0204127 0.40012 -0.0943924 -0.981635 0.165778
0.037771 -0.0471535 0.425626 -0.912095 -0.390425 0.125105
0.352262 -0.0332066 0.359784 -0.0510703 0.996387 -0.0678639
0.0323663 -0.0272261 0.215741 -0.723316 -0.689404 0.0392006
0.17969 -0.0289668 0.451684 0.094404 -0.981634 0.165777
-0.286056 -0.0681004 0.485476 0.469444 0.882962 -8.40726e-06
0.0466057 -0.0401805 0.59009 -0.9661 0.257891 -0.0119795
0.0199503 -0.113759 0.526583 0.0100895 0.99987 -0.012571
-0.362085 -0.0272196 0.429474 0.476831 0.534077 -0.698136
-0.108549 -0.0382864 0.468605 0.0510657 0.996387 -0.0678639
-0.040892 -0.0542474 0.30892 0.880986 -0.472989 0.0120325
0.421673 -0.0305864 0.34602 -0.0510703 0.996387 -0.0678639
-0.206337 -0.0304581 0.509955 0.0510669 0.996387 -0.0678674
0.073692 -0.0352491 0.539431 -0.0510703 0.996387 -0.0678643
0.0139464 -0.114011 0.446749 0.00225679 0.999383 0.0350403
-0.136665 -0.0173143 0.5509 0.0624493 -0.994162 -0.0879858
-0.0366842 -0.105223 0.714768 0.504113 0.859564 -0.0837871
-0.0086146 0.0149176 0.149422 0.999614 0.0250301 0.0120307
-0.0659325 -0.0326433 0.58352 0.0510669 0.996387 -0.0678674
-0.0232868 0.103677 0.0819609 0.0113645 0.999935 4.88022e-05
-0.0323469 -0.0284004 0.337846 0.965142 -0.258974 -0.0378755
-0.0489831 -0.068641 0.524409 0.984952 -0.171932 0.0175868
-0.122536 0.106554 0.0240732 -0.024661 -0.994231 0.104382
0.0435787 -0.0419553 0.670441 -0.89969 -0.435921 -0.0230508
-0.0225598 -0.0194959 0.828775 0.818791 -0.530771 -0.218777
-0.00210338 -0.0118674 0.638164 0.115421 -0.993311 -0.00334954
0.0446818 -0.0468602 0.708338 -0.8908 -0.454338 -0.00724207
0.339305 -0.0243021 0.388411 0.094404 -0.981634 0.165777
0.0404695 -0.0605009 0.245643 -0.982863 0.138022 0.122185
-0.386871 -0.0203975 0.384464 -0.0943924 -0.981635 0.165778
0.09008 -0.0367499 0.505063 -0.0510708 0.996387 -0.0678654
0.368781 -0.029291 0.404843 -0.0510703 0.996387 -0.0678643
0.00596657 -0.0958497 0.29721 -0.0765457 0.976166 0.203077
-0.138764 0.102987 0.0060841 0.0265328 0.999647 0.00154232
-0.0342575 -0.0410311 0.342684 0.880986 -0.472989 0.0120325
0.0471832 -0.0614827 0.494453 -0.977124 -0.209099 0.0388173
-0.0464724 -0.0518731 0.56987 0.965832 -0.258561 0.0177275
0.102951 -0.0355755 0.51262 -0.0510708 0.996387 -0.0678654
0.387155 -0.0329084 0.319863 0.388899 0.518447 0.761558
0.340926 -0.0294291 0.423776 -0.0510703 0.996387 -0.0678643
0.0385806 -0.111419 0.573462 -0.0411256 0.998437 -0.0378417
-0.0251396 -0.0151426 0.288315 0.804653 -0.593266 -0.0238578
0.000636199 -0.111602 0.732918 -0.0712379 0.993923 0.0839219
-0.348916 -0.0246496 0.380897 -0.0944004 -0.981631 0.165797
0.0296144 -0.0262585 0.358355 -0.8626 -0.499491 -0.0801884
-0.123034 -0.0181502 0.570019 0.0624493 -0.994162 -0.0879858
0.285422 -0.0684425 0.45832 -0.469444 0.882962 8.65782e-06
0.0115066 -0.0108901 0.325719 -0.195932 -0.980053 -0.0332573
0.00705657 -0.11039 0.665832 -0.0478616 0.998169 -0.0369891
-0.0232572 -0.0179158 0.725743 0.414784 -0.909465 0.028764
0.319144 -0.0315809 0.356007 0.330591 -0.717608 0.612983
0.231969 -0.0328865 0.455009 -0.0510708 0.996387 -0.0678654
-0.000989757 0.0547424 0.057025 0.974224 0.108464 0.197796
0.0474233 -0.0351879 0.621832 -0.968073 0.243996 -0.0574523
-0.282233 -0.0700537 0.483474 0 1 0
-0.0562357 -0.029195 0.520632 -0.0943942 -0.981634 0.165781
-0.123586 -0.0321772 0.546982 0.0510669 0.996387 -0.0678674
0.00536966 0.0894701 0.12018 -0.988528 0.129883 -0.0770838
-0.0300091 0.103885 0.0205118 -0.024661 -0.994231 0.104382
-0.0456246 -0.055409 0.489215 0.974614 -0.221017 0.0357534
0.0167587 -0.0515226 0.132612 -0.137747 0.943313 0.301972
0.0394138 -0.064722 0.241918 -0.982863 0.138022 0.122185
-0.0316069 -0.0290603 0.463063 0.756137 -0.652876 0.0448371
-0.0600257 -0.0998223 0.599104 0.999743 -0.000242486 0.022651
-0.0621406 -0.036703 0.526772 0.0510669 0.996387 -0.0678674
-0.0488531 -0.0692229 0.51144 0.984952 -0.171932 0.0175868
-0.124487 -0.0323361 0.543972 0.0510669 0.996387 -0.0678674
-0.126706 0.110632 0.0619324 -0.0246615 -0.994231 0.104383
-0.0301193 -0.0308481 0.408161 0.970366 -0.211297 0.117233
0.203797 -0.0197211 0.528465 -0.255095 -0.890062 -0.377778
-0.155709 0.107652 0.0266894 -0.0246615 -0.994231 0.104383
-0.0478617 -0.0525523 0.756954 0.890793 -0.454342 0.00779517
0.115036 -0.0312507 0.567022 -0.0510696 0.996387 -0.067863
0.00513025 -0.0105375 0.352791 -0.195929 -0.980042 -0.0336006
-0.147361 -0.0322823 0.527549 0.0510669 0.996387 -0.0678674
0.136377 0.103718 0.0156473 -0.000821208 0.999998 0.0015426
0.0415536 -0.102756 0.741891 -0.505836 0.862482 0.0159558
0.0324569 -0.028815 0.716823 -0.792004 -0.61043 0.0102527
-0.0466223 -0.048296 0.633414 0.96594 -0.258449 0.0128212
-0.0582484 -0.0993161 0.520666 0.999743 -0.000242486 0.022651
0.0535979 -0.0829455 0.77235 -0.986079 0.166259 0.00237167
-0.0283616 -0.0634459 0.187918 0.679707 0.679117 0.277127
0.0514387 -0.0374215 0.524282 -0.0510708 0.996387 -0.0678654
0.385109 -0.0329271 0.33917 -0.0510703 0.996387 -0.0678639
-0.331874 -0.0202612 0.416586 -0.0943924 -0.981635 0.165778
-0.381269 -0.0306099 0.376099 0.0510657 0.996387 -0.0678639
-0.224754 -0.019248 0.483578 -0.0943924 -0.981635 0.165778
-0.0036889 0.0327427 0.166178 0.81147 -0.343939 -0.472464
-0.0176284 -0.113844 0.439577 0.0297618 0.998817 0.0384554
-0.0454939 -0.0459338 0.658018 0.928326 -0.371331 -0.0179823
-0.0205135 -0.114351 0.454965 0.0297618 0.998817 0.0384554
0.107454 -0.0363634 0.497663 -0.0510708 0.996387 -0.0678654
0.372271 -0.033255 0.344018 -0.0510703 0.996387 -0.0678639
-0.0713623 0.102972 0.0401949 0.0267445 0.995987 -0.085403
-0.0254254 -0.0194893 0.734873 0.762162 -0.64738 0.00289474
0.0227273 -0.114075 0.496083 -0.00055138 0.999963 -0.0085611
0.0206407 -0.0337985 0.117647 -0.956889 -0.209794 0.200873
0.0329883 -0.111878 0.605879 -0.158739 0.987292 -0.00745233
0.403044 -0.0306698 0.358816 -0.0510703 0.996387 -0.0678639
-0.154481 0.10341 0.00258529 0.0265328 0.999647 0.00154232
0.04013 -0.0220215 0.557183 -0.181723 -0.96947 0.164635
-0.0305192 -0.0351633 0.372282 0.985619 -0.145322 -0.0862399
0.0510275 -0.0976052 0.67833 -0.984122 0.175248 0.0281459
0.0286965 -0.095147 0.8547 -0.394352 0.893641 -0.214223
0.137022 -0.0183157 0.561965 -0.0624511 -0.994163 -0.087979
0.315721 -0.0214909 0.418487 0.094404 -0.981634 0.165777
0.0426865 -0.0325313 0.498353 -0.229898 -0.739994 0.632105
-0.185993 -0.0363214 0.439182 0.0510657 0.996387 -0.0678639
-0.100539 0.105402 0.0182984 -0.024661 -0.994231 0.104382
-0.0483384 0.103963 0.0677714 0.0113645 0.999935 4.88022e-05
0.105499 -0.0264516 0.508827 0.094404 -0.981634 0.165777
0.0524014 -0.0865521 0.7776 -0.966995 0.254748 -0.00497318
0.0272941 -0.0202247 0.32751 -0.829785 -0.557549 -0.024417
-0.0411839 -0.0304085 0.504331 0.294096 -0.947109 0.128423
-0.0535667 -0.0814173 0.703077 0.986034 0.166238 0.0100891
0.0808527 -0.0237437 0.538897 0.094404 -0.981634 0.165777
-0.014676 -0.011903 0.238707 0.287578 -0.955519 0.0654445
-0.0445687 -0.0892674 0.36869 0.960139 0.267968 0.0795374
0.200672 -0.0344597 0.455464 -0.0510708 0.996387 -0.0678654
-0.348362 -0.0310049 0.39506 0.0510657 0.996387 -0.0678639
0.0753227 0.111192 0.0793959 0.0246658 -0.994231 0.104382
0.0763549 -0.0354796 0.534043 -0.0510703 0.996387 -0.0678643
-0.13776 -0.0318373 0.541307 0.0510669 0.996387 -0.0678674
0.0329632 -0.0167114 0.630479 -0.134348 -0.990291 -0.0357099
0.00696816 0.064567 0.12256 -0.988137 -0.114271 -0.102602
-0.0489249 -0.0993076 0.41524 0.977445 0.0266471 0.209502
0.0386468 -0.0633574 0.234207 -0.982863 0.138022 0.122185
-0.0494309 -0.0718941 0.517684 0.984952 -0.171932 0.0175868
-0.18057 -0.0352675 0.458735 0.0510669 0.996387 -0.0678674
0.342763 -0.031812 0.387409 -0.0510703 0.996387 -0.0678639
-0.110713 -0.0373302 0.481015 0.0510669 0.996387 -0.0678674
0.0397191 -0.0707569 0.253798 -0.899302 0.406957 0.160128
-0.191214 -0.0177555 0.514198 0.000458121 -0.999867 0.0163273
0.0460828 -0.0858237 0.377332 -0.995496 0.0907511 0.0274291
-0.0351138 -0.0317291 0.71077 0.811462 -0.578198 -0.084945
-0.0482326 -0.0782727 0.422646 0.995483 -0.084492 0.0432897
0.0149852 -0.0107289 0.266268 -0.274123 -0.961641 -0.0101118
0.0751004 -0.0348662 0.543993 -0.0510703 0.996387 -0.0678643
-0.0188525 -0.0153671 0.553456 0.243182 -0.969407 0.0333722
-0.290086 -0.0194251 0.44533 -0.0943924 -0.981635 0.165778
-0.0220867 -0.0179727 0.383881 0.81963 -0.568998 -0.0666949
-0.0474876 -0.0588007 0.535981 0.985615 -0.168011 0.0183001
-0.194485 -0.0306927 0.51543 0.0510669 0.996387 -0.0678674
-0.277336 -0.0516671 0.509502 0 0 -1
-0.0116416 -0.0482858 0.11638 0.244854 0.933554 0.261771
-0.116845 -0.0175309 0.567415 0.0624493 -0.994162 -0.0879858
0.00407263 0.0977213 0.0249202 -0.213624 0.97494 0.062102
0.226453 -0.0313188 0.482178 -0.0510703 0.996387 -0.0678643
-0.0533219 -0.0855445 0.510478 0.940507 -0.339069 0.0218894
0.323822 -0.0333289 0.379392 -0.0510703 0.996387 -0.0678639
0.0203404 0.113402 0.113436 0.0246658 -0.994231 0.104382
-0.123498 -0.0299842 0.579245 0.0510669 0.996387 -0.0678674
0.277058 -0.0296285 0.392319 0.0944049 -0.981634 0.165779
-0.283853 -0.0328243 0.416888 0.0510657 0.996387 -0.0678639
-0.421207 -0.0218229 0.356472 -0.0943942 -0.981634 0.165781
-0.0586435 -0.104691 0.60322 0.579958 0.814612 -0.00746388
0.367306 -0.0313673 0.375469 -0.0510703 0.996387 -0.0678639
0.204346 -0.0206087 0.487135 0.094404 -0.981634 0.165777
-0.00527043 0.0844057 0.0550273 0.942133 0.182515 0.281199
0.0453591 0.102383 0.0374056 -0.0367961 0.995669 -0.085374
-0.0480768 -0.067032 0.489381 0.984952 -0.171932 0.0175868
0.276285 -0.0476135 0.465796 0.546502 -0.837458 -9.78878e-06
0.10383 -0.0197773 0.549298 0.094404 -0.981634 0.165777
-0.223967 -0.028227 0.522778 0.296825 0.851164 -0.432914
0.165077 0.10424 0.0284621 -0.046522 0.996752 -0.0657308
-0.123324 -0.035913 0.456661 -0.314449 0.714821 0.624623
0.0201738 -0.0883331 0.266433 -0.0765457 0.976166 0.203077
-0.0149227 -0.0144249 0.194638 0.391333 -0.920011 0.0209221
-0.0173821 -0.0168039 0.500091 0.272346 -0.962189 -0.00444104
0.022936 -0.0180521 0.384617 -0.705357 -0.705794 -0.0657698
-0.0101074 -0.113985 0.496677 -0.022138 0.999612 -0.0169291
0.148408 0.105671 0.00954369 0.0246658 -0.994231 0.104382
0.120158 0.103696 0.0217375 -0.000821208 0.999998 0.0015426
0.168996 -0.0292254 0.456243 0.094404 -0.981634 0.165777
0.442304 -0.0285034 0.361077 -0.0510703 0.996387 -0.0678639
0.0403451 -0.0622881 0.246661 -0.982863 0.138022 0.122185
0.354315 -0.0342599 0.342775 -0.0510703 0.996387 -0.0678639
-0.245978 -0.0199775 0.467174 -0.0943924 -0.981635 0.165778
-0.0428608 -0.0411343 0.686346 0.898268 -0.435236 -0.0606959
-0.0206382 -0.0742084 0.210114 0.0777256 0.965975 0.24668
0.271536 -0.0634218 0.509487 0 0 -1
-0.145936 -0.0333688 0.512671 0.0510669 0.996387 -0.0678674
-0.0356379 -0.0432556 0.849267 0.789902 -0.588729 -0.171617
0.173296 -0.0262251 0.47156 0.094404 -0.981634 0.165777
0.0394215 -0.0374309 0.708635 -0.81148 -0.578178 -0.0849099
0.0308274 -0.0270761 0.792631 -0.821745 -0.569849 0.00294452
-0.0832172 0.102727 0.0336184 0.0267445 0.995987 -0.085403
-0.0264289 -0.0186212 0.644915 0.200941 -0.960698 -0.191528
-0.0518709 -0.0762578 0.82653 0.985243 -0.110554 -0.130665
-0.221498 -0.0248534 0.452241 -0.0943942 -0.981634 0.165781
-0.034681 -0.112613 0.428516 0.0269149 0.997003 0.0725342
-0.0278928 0.100534 0.0253709 0.0267445 0.995987 -0.085403
-0.41655 -0.0217477 0.35957 -0.0943942 -0.981634 0.165781
-0.225309 -0.0239646 0.520786 0.471559 -0.532453 -0.702941
0.121827 -0.028556 0.59181 -0.298763 0.85064 -0.43261
0.00129386 -0.059741 0.905993 -0.085739 -0.561497 -0.823025
-0.0121283 -0.0137034 0.389303 0.244479 -0.969085 -0.0332366
0.0161678 -0.109863 0.668264 -0.0478616 0.998169 -0.0369891
-0.36249 -0.02854 0.420617 0.0510669 0.996387 -0.0678674
0.317107 -0.0301481 0.431144 -0.0510703 0.996387 -0.0678643
0.342247 -0.0291929 0.426251 -0.0510703 0.996387 -0.0678643
0.106115 -0.0280641 0.603628 -0.298763 0.85064 -0.43261
0.247554 -0.0359435 0.398399 -0.0510703 0.996387 -0.0678639
0.0498456 -0.0599178 0.656425 -0.984474 -0.175392 0.00702186
0.10596 -0.0293662 0.491306 0.094404 -0.981634 0.165777
-0.0434221 -0.0564242 0.395558 0.802652 -0.596155 0.0186932
0.181197 -0.0353439 0.553059 -1 0 3.6343e-05
0.0477281 -0.0364301 0.580314 -0.9661 0.257891 -0.0119795
0.00799225 -0.00865566 0.161415 -0.999883 -0.00169542 0.0151746
-0.0256692 -0.0166229 0.635689 0.200941 -0.960698 -0.191528
-0.005341 -0.0126303 0.407797 0.244473 -0.969064 -0.033877
0.289704 -0.0319322 0.425573 -0.0510708 0.996387 -0.0678654
-0.0223669 -0.112626 0.413669 0.0964489 0.995318 -0.00625139
0.114503 0.105546 0.0714352 -0.471568 -0.0144782 -0.881711
0.0118353 -0.013476 0.584029 -0.0450147 -0.998711 0.0234384
-0.0148723 -0.112931 0.574094 0.0018681 0.999919 -0.0125714
-0.00335782 -0.00563992 0.204477 0.856519 -0.51009 -0.0786414
0.0296131 -0.0285648 0.434255 -0.756346 -0.65306 0.0381367
-0.043902 -0.0539941 0.447562 0.919082 -0.393456 0.021915
-0.117004 0.103497 0.0320256 0.0267445 0.995987 -0.085403
0.0505796 -0.0345748 0.566724 -0.0510703 0.996387 -0.0678643
9.2388e-05 -0.0233707 0.0980048 -0.970442 0.116015 0.21162
-0.30522 -0.0198057 0.459416 0.0624493 -0.994162 -0.0879858
-0.178778 -0.022748 0.551079 0.471559 -0.532453 -0.702941
-0.36424 -0.03224 0.364978 0.0510657 0.996387 -0.0678639
-0.0165657 -0.0123762 0.240103 0.287578 -0.955519 0.0654445
0.173411 -0.0417382 0.517468 0 0 1
0.0405805 -0.0981579 0.800901 -0.450573 0.883418 -0.128674
0.0938827 0.108286 0.0473311 0.0246658 -0.994231 0.104382
-0.0537162 -0.0798757 0.794511 0.970064 0.234878 -0.0617127
0.00728073 0.0908235 0.0580416 -0.936079 0.19082 0.295539
-0.0908917 -0.0315607 0.580635 0.0510669 0.996387 -0.0678674
-0.00565598 -0.0628398 0.15973 0.142096 0.951265 0.273686
-0.117996 -0.0352559 0.505989 0.0510669 0.996387 -0.0678674
0.449289 -0.024834 0.32263 0.0944049 -0.981634 0.165779
-0.0410443 -0.0494267 0.439146 0.801537 -0.595324 0.0559301
0.0276126 -0.113971 0.488784 -0.0377619 0.999262 -0.00705372
-0.416458 -0.030871 0.345786 0.0510657 0.996387 -0.0678639
0.049809 -0.0590396 0.7399 -0.981243 -0.19256 0.00913622
-0.35114 -0.0229365 0.389775 -0.0943942 -0.981634 0.165781
0.00573778 -0.102864 0.330564 -0.0528649 0.976238 0.210152
0.152559 0.103726 0.019538 -0.000821208 0.999998 0.0015426
-0.328651 -0.0242888 0.394572 -0.0943942 -0.981634 0.165781
0.208983 -0.0190304 0.51896 -0.0624511 -0.994163 -0.087979
0.0343481 -0.0263944 0.667468 -0.786144 -0.616104 -0.0489137
0.0168003 -0.112638 0.601818 -0.00209089 0.999875 -0.0156909
0.127124 -0.0238865 0.511701 0.094404 -0.981634 0.165777
0.00544546 -0.0462265 0.888049 -0.131779 -0.863006 -0.487704
0.241361 -0.0311393 0.473594 -0.0510703 0.996387 -0.0678643
0.29052 -0.0306232 0.444177 -0.0510703 0.996387 -0.0678643
0.106985 -0.0321953 0.47397 0.0944049 -0.981634 0.165779
0.00687331 -0.0744546 0.202394 -0.140074 0.959233 0.24546
0.404965 -0.0296253 0.372705 -0.0510703 0.996387 -0.0678639
-0.0447823 -0.0465069 0.565351 0.954866 -0.296191 0.0223979
-0.15268 -0.0332854 0.508821 0.0510669 0.996387 -0.0678674
0.108735 -0.0176531 0.574557 -0.0624511 -0.994163 -0.087979
0.0123949 -0.0693357 0.186266 -0.137747 0.943313 0.301972
0.0602172 -0.10038 0.606824 -0.999742 -0.000182342 0.0227054
0.0322138 -0.0315764 0.820331 -0.787528 -0.61189 -0.0734175
0.00901072 0.0632702 0.0835618 -0.999725 0.0222652 0.00738495
-0.456331 -0.03144 0.307428 0.0510657 0.996387 -0.0678639
0.0835402 -0.0299029 0.610512 -0.0510726 0.996386 -0.0678678
0.313411 -0.0316475 0.411913 -0.0510708 0.996387 -0.0678654
-0.242528 -0.025029 0.439227 -0.0943942 -0.981634 0.165781
-0.010336 -0.0974998 0.852572 0.0409262 0.979217 -0.198642
-0.0496497 -0.0813086 0.448335 0.972324 -0.229739 0.0424983
0.00617288 -0.0803819 0.226886 -0.0762946 0.97115 0.225937
-0.348271 -0.0294114 0.353067 -0.0943977 -0.981633 0.165787
-0.400644 -0.0311864 0.353055 0.0510657 0.996387 -0.0678639
0.292064 -0.0259797 0.405379 0.094404 -0.981634 0.165777
-0.236745 -0.0187661 0.49627 0.0624493 -0.994162 -0.0879858
0.282393 -0.0359903 0.491753 -1 0 1.84427e-05
-0.0789097 -0.0348751 0.540991 0.0510669 0.996387 -0.0678674
-0.0424491 -0.0462693 0.487904 0.932594 -0.357146 0.0521181
-0.28667 -0.0485802 0.461007 0.476287 -0.87929 -8.52567e-06
0.0740275 -0.0195042 0.615536 -0.255726 -0.889907 -0.377717
0.0346648 -0.04571 0.862304 -0.789944 -0.58869 -0.171561
-0.385873 -0.0197961 0.394697 0.000458121 -0.999867 0.0163273
0.0814042 -0.0281089 0.512735 0.094404 -0.981634 0.165777
0.0450559 -0.0619111 0.391035 -0.97651 -0.214815 0.0167976
-0.0513245 -0.0904509 0.761305 0.985918 0.166212 -0.0184372
-0.271998 -0.0504055 0.465754 -0.546504 -0.837457 1.0085e-05
-0.00846796 -0.0176358 0.141312 0.38898 -0.914479 0.111462
-0.226714 -0.0337561 0.446204 0.0510669 0.996387 -0.0678674
-0.191365 -0.0301684 0.525475 0.0510669 0.996387 -0.0678674
0.336472 -0.0346643 0.350265 -0.0510703 0.996387 -0.0678639
0.0530024 -0.0834441 0.585001 -0.942486 -0.334045 0.0116028
0.46676 -0.0207385 0.341556 -0.997823 0.0650322 -0.0109827
0.033801 -0.0270195 0.245846 -0.723316 -0.689404 0.0392006
-0.052639 0.10272 0.0431115 0.0267445 0.995987 -0.085403
-0.0592097 -0.036195 0.536436 0.0510669 0.996387 -0.0678674
0.034389 -0.0331897 0.451972 -0.80791 -0.587618 0.0445614
-0.0019864 -0.110187 0.716526 0.0721055 0.989059 0.128699
0.0364134 -0.0164534 0.612923 -0.0665525 -0.993899 -0.0879556
0.0762024 -0.0350611 0.540301 -0.0510703 0.996387 -0.0678643
-0.376317 -0.0288868 0.405122 0.0510669 0.996387 -0.0678674
-0.0477979 -0.053271 0.621699 0.96594 -0.258449 0.0128212
-0.179069 -0.0269258 0.464128 -0.0943942 -0.981634 0.165781
0.0170109 -0.0168819 0.178909 -0.388176 -0.912598 0.12839
-0.0380458 -0.0443555 0.222709 0.976599 -0.21184 0.0371286
0.0251134 -0.113359 0.554735 -0.00209089 0.999875 -0.0156909
0.100038 0.103651 0.0574801 -0.00126665 0.999999 4.91415e-05
-0.0384256 0.106475 0.0431888 -0.024661 -0.994231 0.104382
0.0377898 -0.0426819 0.447357 -0.862763 -0.497362 0.0909409
0.287463 -0.0320899 0.424944 -0.0510708 0.996387 -0.0678654
-0.116515 -0.0355148 0.503302 0.0510669 0.996387 -0.0678674
0.0397071 -0.0396244 0.468987 -0.981939 -0.10908 0.154589
-0.0118786 -0.11244 0.613583 0.0018681 0.999919 -0.0125714
-0.0213936 -0.0464374 0.88433 0.514415 -0.71583 -0.472191
-0.0370216 -0.0903967 0.859445 0.394632 0.894285 -0.210998
-0.341012 -0.0336521 0.361723 0.0510657 0.996387 -0.0678639
-0.0132118 -0.015822 0.696639 0.31413 -0.948703 0.0358425
0.0337052 -0.0290938 0.480266 -0.668952 -0.728379 0.148216
-0.234933 -0.0290663 0.508872 0.0510669 0.996387 -0.0678674
0.0378065 0.106394 0.0425639 0.0246658 -0.994231 0.104382
0.00690417 0.0648037 0.122913 -0.988137 -0.114271 -0.102602
0.13554 0.103697 0.0347506 -0.00126665 0.999999 4.91415e-05
-0.152423 -0.0320646 0.448872 -0.0943977 -0.981633 0.165787
-0.00471474 -0.0133275 0.523715 0.272346 -0.962189 -0.00444104
0.153784 -0.0203992 0.51717 0.094404 -0.981634 0.165777
0.270185 -0.0326861 0.429193 -0.0510708 0.996387 -0.0678654
0.053299 -0.0840679 0.699759 -0.990144 0.139589 0.0113979
0.00173238 -0.112245 0.741471 -0.0712379 0.993923 0.0839219
0.206507 -0.0322219 0.417138 0.0944049 -0.981634 0.165779
-0.154104 -0.0208608 0.564703 0.255042 -0.890094 -0.377737
-0.0424162 -0.0742523 0.869586 0.964798 -0.0925221 -0.246179
-0.0153109 -0.113206 0.430143 0.0964489 0.995318 -0.00625139
0.0572599 -0.104386 0.477956 -0.999721 0.00590971 0.0228784
-0.177257 -0.0336292 0.57242 0 0 -1
0.00789757 0.0109841 0.173286 -0.988137 -0.114271 -0.102602
-0.000928099 -0.113247 0.754186 0.0228329 0.995546 -0.0914731
0.181196 -0.0365609 0.529443 -1 0 3.6343e-05
0.0489578 -0.0758616 0.844794 -0.966233 -0.0703674 -0.247876
0.431582 -0.0202148 0.370317 -0.000457129 -0.999867 0.0163276
-0.100288 -0.0383021 0.474591 0.0510657 0.996387 -0.0678639
-0.181521 -0.0318103 0.508775 0.0510669 0.996387 -0.0678674
-0.0355331 0.103816 0.0977831 0.0113645 0.999935 4.88022e-05
0.0155719 -0.0126433 0.787875 -0.0945553 -0.995476 0.00934795
0.00897095 0.0601156 0.108229 -0.988137 -0.114271 -0.102602
-0.0432298 -0.0752841 0.307311 0.907777 0.410782 0.0848426
0.023184 -0.109447 0.668537 -0.0772654 0.996734 -0.0234764
-0.0245037 -0.0184824 0.658686 0.354014 -0.934418 -0.0392198
-0.0276451 -0.108527 0.787722 0.0217851 0.947667 -0.318516
-0.0514497 -0.0862416 0.814328 0.968377 0.218934 -0.119639
-0.137153 -0.0266743 0.489484 -0.0943942 -0.981634 0.165781
0.0449775 -0.0433631 0.555607 -0.77304 0.634321 0.00680534
0.181749 -0.0294287 0.447776 0.094404 -0.981634 0.165777
-0.236132 -0.0323109 0.460334 0.0510669 0.996387 -0.0678674
-0.0165236 -0.104578 0.341134 0.054051 0.977608 0.203374
0.290031 -0.0250048 0.41231 0.094404 -0.981634 0.165777
0.358594 -0.0235835 0.431072 -0.471593 -0.532451 -0.70292
0.00416815 -0.105397 0.341934 -0.0528649 0.976238 0.210152
-0.0399858 0.103868 0.0716056 0.0113645 0.999935 4.88022e-05
0.0464442 -0.0609836 0.470511 -0.981883 -0.188678 0.0174901
-0.143816 -0.0360534 0.474852 0.0510669 0.996387 -0.0678674
0.0183436 0.101903 0.0434476 -0.0367961 0.995669 -0.085374
-0.285197 -0.0477823 0.480445 0.476287 -0.87929 -8.52567e-06
0.0365764 -0.0442937 0.848643 -0.789944 -0.58869 -0.171561
