-0.106877 -0.0179075 0.273941 0.0456198 -0.989517 -0.137021
-0.403534 -0.0314484 0.314663 0.0218571 -0.998868 0.0422436
0.12335 0.0485882 0.0244786 -0.00738252 0.999854 0.0153792
0.210184 -0.0255955 0.295065 0.0456198 0.989517 0.137021
-0.00338907 0.0352734 0.0511901 0.999875 -0.00365377 0.015382
-0.00283041 -0.0109168 0.289944 -0.0192986 0.990364 -0.137137
0.400811 -0.0228684 0.261835 -0.0218451 -0.991804 0.125889
-0.00346599 -0.0483397 0.15378 -0.218603 -0.965018 -0.144754
-0.191173 -0.021598 0.362888 -0.0719991 -0.802368 0.592471
0.271013 -0.0164876 0.336017 -0.0446446 -0.998111 -0.0422118
0.274967 -0.0280199 0.309966 0.0304032 0.99942 0.0153602
0.00715345 -0.00495057 0.340285 0.211053 0.977474 0.000781868
-0.102375 -0.023017 0.326074 0.0304032 -0.99942 -0.0153602
-0.226076 -0.0265621 0.311886 0.0304032 -0.99942 -0.0153602
0.0771983 -0.0155349 0.267059 -0.0192986 -0.990364 0.137137
0.381939 -0.0294627 0.327086 0.00222138 0.985948 -0.167035
-0.309494 -0.0291305 0.31633 0.0250519 -0.999463 0.0211348
-0.440745 -0.0300987 0.276254 -0.0538111 -0.998469 -0.012813
0.357137 -0.0274613 0.258494 0.0456123 0.991008 0.125785
0.0239284 -0.0298516 0.332115 0.983629 -0.180205 -0.000143887
-0.00117922 -0.00368328 0.23813 -0.211057 0.977474 0
-0.4721 -0.0277969 0.309389 -0.0766207 -0.983096 0.166287
-0.120927 0.0488438 0.0439911 -0.0313058 -0.982892 0.1815
0.0012831 0.0143138 0.0404306 -0.987615 0.0769198 0.136745
0.175337 -0.0184189 0.260042 -0.0192986 -0.990364 0.137137
0.0589106 -0.0113927 0.294399 -0.0192986 -0.990364 0.137137
0.010374 -0.00627464 0.233145 0.587237 0.809415 0
-0.0586595 -0.0217958 0.333142 0.0304032 -0.99942 -0.0153602
-0.00233324 0.0486377 0.0201666 1.01733e-06 -0.99055 -0.13715
0.0240005 -0.0294868 0.397105 0.983629 -0.180205 0
-0.466607 -0.0216326 0.256257 0.0360133 0.992765 -0.114541
0.0154815 -0.0205723 0.371037 0.0213294 0.998716 -0.0459391
0.0476669 0.0548451 0.0254353 -0.00738305 -0.999854 0.0153826
0.227514 -0.015247 0.345655 -0.0657756 -0.981246 -0.181192
-0.0168816 -0.0108617 0.29232 -0.0192986 0.990364 -0.137137
0.391069 -0.0311541 0.282517 0.0303318 0.99944 0.0140889
-0.474018 -0.0231627 0.240818 0.0413002 0.991194 -0.125811
0.403342 -0.0317822 0.300652 0.0303318 0.99944 0.0140889
0.322166 -0.0294137 0.317961 0.0250519 0.999463 -0.0211348
-0.00674939 -0.0282962 0.361236 -1 0 0
0.0576179 -0.0155834 0.273525 0.0456123 0.991008 0.125785
-0.0399218 0.0477285 0.0461331 -0.0114207 -0.999668 0.0230771
0.380474 -0.0213282 0.323336 -0.0633415 -0.984015 -0.166442
0.447143 -0.0205488 0.290942 0.0289823 -0.999498 0.0128262
0.294732 -0.0274749 0.337707 -0.000182377 0.983375 -0.181586
0.0772384 -0.012072 0.292073 -0.0192986 -0.990364 0.137137
0.0570726 -0.0117013 0.291912 -0.0192986 -0.990364 0.137137
0.141129 -0.0319312 0.392172 0.968848 -0.193135 0.155024
0.235254 -0.0269961 0.321959 0.0304032 0.99942 0.0153602
0.0551487 0.0550461 0.042089 -0.00738372 -0.999854 0.0153794
0.420175 -0.028637 0.251252 -0.0458705 0.990997 0.125784
0.0142389 -0.014596 0.109907 0.864875 0.498213 -0.0614449
0.123298 -0.0233351 0.30767 0.0456198 0.989517 0.137021
0.0363556 -0.0194595 0.381408 -1.18667e-05 0.98337 -0.181615
-0.000551822 -0.00354781 0.393753 -0.211054 0.977474 0
0.031191 -0.0209071 0.371052 0.0213294 0.998716 -0.0459391
0.104641 0.0483061 0.0338377 -0.0073829 0.999854 0.0153875
-0.24676 -0.0229416 0.26291 0.0456123 -0.991008 -0.125785
-0.413078 -0.0214548 0.297526 0.0295078 0.999465 -0.0140892
0.00677641 -0.00486411 0.33396 0.211053 0.977474 0.000781868
0.0746879 -0.00871307 0.335347 -0.0361286 -0.999229 0.0153588
-0.0221334 -0.0194491 0.380129 -0.851644 0.524121 0
0.131262 -0.0360435 0.342075 -0.555546 -0.831486 0
0.411595 -0.0317903 0.310444 -0.0605745 0.997272 -0.0421761
-0.344153 -0.0191883 0.287848 -0.0364047 0.999238 -0.014086
-0.020832 -0.0067032 0.369705 -0.0414973 0.998915 0.0211229
-0.11588 -0.021755 0.298728 0.0456198 -0.989517 -0.137021
0.00350548 0.0242135 0.0561317 -0.999875 -0.00365278 0.015382
-0.0401882 0.0506464 0.0056588 1.01733e-06 -0.99055 -0.13715
0.48317 -0.0195799 0.296502 0.0254818 -0.999492 -0.0191564
-0.0103011 -0.00622177 0.397719 -0.587237 0.809415 0
0.399831 -0.0213793 0.276317 -0.0364047 -0.999238 0.014086
-0.00371253 -0.0547389 0.365282 -0.21105 -0.977475 -0.000734145
0.0173028 -0.0115821 0.346519 0.851644 0.524121 0.000393629
0.120431 0.0504661 0.00696045 0 0.990549 0.137157
-0.107813 -0.0211704 0.297193 0.0456198 -0.989517 -0.137021
-0.0211374 -0.0312602 0.170226 -0.977663 -0.178276 -0.111319
0.133136 -0.036846 0.380205 -0.195326 -0.980738 0
-0.063162 -0.00858448 0.3166 -0.0361286 0.999229 -0.0153588
0.483859 -0.0278726 0.297519 -0.0579609 0.998136 -0.0191304
0.393354 -0.03124 0.283691 0.0303318 0.99944 0.0140889
-0.226779 -0.021479 0.258633 0.0456123 -0.991008 -0.125785
0.00644531 -0.0136972 0.396037 -0.0719991 0.802368 -0.592471
-0.0997844 -0.00986206 0.319629 -0.0361286 0.999229 -0.0153588
-0.070017 -0.00859728 0.331893 -0.0361286 0.999229 -0.0153588
0.481334 -0.0280704 0.294847 -0.0579609 0.998136 -0.0191304
-0.442424 -0.0284563 0.257942 -0.0458705 -0.990997 -0.125784
0.315343 -0.0293056 0.313706 0.0304032 0.99942 0.0153602
-0.0813509 0.0535168 0.0535221 -0.0313023 0.982899 0.181467
0.288512 -0.0228273 0.24687 0.0456123 0.991008 0.125785
-0.0526514 0.0516429 0.00153841 0 0.99055 -0.137153
0.174795 -0.0126999 0.311453 -0.0361286 -0.999229 0.0153588
0.332227 -0.0296911 0.305368 0.0304032 0.99942 0.0153602
0.0763218 -0.00862005 0.34534 -0.0364047 -0.999238 0.014086
0.010123 -0.00727294 0.422162 0.58492 0.806221 0.0887517
0.317132 -0.024232 0.344014 -0.0719991 0.802368 -0.592471
-0.32813 -0.0190829 0.279047 -0.0218451 0.991804 -0.125889
0.00462025 -0.0422736 0.478996 0.745189 0.15964 0.647462
0.0787854 0.0540089 0.0186262 7.17087e-07 -0.990549 0.137156
-0.452379 -0.0204469 0.300782 0.0254818 0.999492 0.0191564
0.0121442 -0.0339484 0.114192 0.852341 -0.490994 -0.180111
0.129634 0.0538528 0.0174983 7.17087e-07 -0.990549 0.137156
-0.000711246 -0.0553907 0.255025 -0.211053 -0.977475 0
-0.419342 -0.026777 0.236293 -0.0413571 -0.99256 -0.114518
0.111188 -0.0230816 0.360921 0.0213294 0.998716 -0.0459391
-0.10642 -0.00997471 0.356273 -0.0414973 0.998915 0.0211229
-0.0233216 -0.0331826 0.356787 -0.983629 -0.180205 -0.000135329
0.0315922 -0.0207726 0.319985 0.0303318 0.99944 0.0140889
0.0235696 -0.027134 0.225099 0.983629 0.180205 0
-0.289821 -0.0284408 0.307949 0.0304032 -0.99942 -0.0153602
-0.0193432 -0.0250328 0.146381 -0.982333 0.168436 -0.081558
0.0902947 -0.0216411 0.369505 -0.000182377 0.983375 -0.181586
0.199284 -0.0155855 0.358044 -0.0631599 -0.983979 -0.166722
-0.152711 -0.0222236 0.289851 0.0456198 -0.989517 -0.137021
-0.275452 -0.0168332 0.336843 -0.0657756 0.981246 0.181192
-0.211068 -0.0222137 0.270118 0.0456123 -0.991008 -0.125785
-0.133012 -0.0322184 0.349396 0.980776 -0.195139 0
0.132363 -0.0108315 0.333302 -0.0364047 -0.999238 0.014086
-0.347049 -0.0258433 0.249405 0.0456123 -0.991008 -0.125785
-0.43724 -0.0302244 0.271335 -0.0538111 -0.998469 -0.012813
-0.320175 -0.0245877 0.249258 0.0456123 -0.991008 -0.125785
-0.0176043 -0.0244331 0.129027 -0.978593 -0.170834 -0.114772
-0.325166 -0.0184419 0.291719 -0.0364047 0.999238 -0.014086
-0.444817 -0.0209137 0.269437 0.0295078 0.999465 -0.0140892
-0.0211621 -0.0178708 0.373831 -0.851644 0.524121 0
-0.133478 -0.0108901 0.346664 -0.0418417 0.998857 0.0230847
-0.0547797 -0.021786 0.361066 0.0248093 -0.999425 0.023093
0.124553 -0.012834 0.293228 -0.0192986 -0.990364 0.137137
0.282207 -0.0269564 0.280915 0.0456198 0.989517 0.137021
-0.13849 -0.0109837 0.338336 -0.0364047 0.999238 -0.014086
0.270592 -0.0162963 0.302884 -0.0364047 -0.999238 0.014086
-0.129506 -0.0142148 0.371774 -0.125398 0.798108 0.589321
-0.00102328 -0.0206145 0.355825 0 0 -1
-0.263602 -0.0159755 0.307579 -0.0364047 0.999238 -0.014086
-0.00817017 -0.00519274 0.389668 -0.211054 0.977474 0
-0.39915 -0.031538 0.292354 0.0303318 -0.99944 -0.0140889
-0.0239041 -0.0300133 0.259603 -0.983629 -0.180205 0
-0.105966 -0.0186642 0.377216 -0.0719991 -0.802368 0.592471
0.299017 -0.0286426 0.30253 0.0303318 0.99944 0.0140889
-0.228607 -0.0235081 0.355649 -0.0664229 -0.826352 0.559224
0.00799087 -0.053819 0.231956 0.21105 -0.977475 0
0.0131113 -0.0240845 0.0966378 0.9765 -0.161861 -0.142296
0.338623 -0.0198363 0.330442 -0.0633415 -0.984015 -0.166442
-0.432706 -0.0251279 0.238897 0.0413002 0.991194 -0.125811
0.152233 -0.0116124 0.329258 -0.0364047 -0.999238 0.014086
0.00855218 -0.0503714 0.174635 0.583429 -0.800377 -0.137863
-0.000669688 0.0197438 0.0329461 0.987616 0.0769188 0.136745
-0.0960913 -0.00978529 0.315936 -0.0361286 0.999229 -0.0153588
-0.0879268 -0.0213396 0.305035 0.0456198 -0.989517 -0.137021
0.0531712 -0.019527 0.381041 -1.18667e-05 0.98337 -0.181615
-0.435787 -0.0269366 0.243549 -0.0458705 -0.990997 -0.125784
-0.103691 -0.0231512 0.354533 0.0248093 -0.999425 0.023093
0.461121 -0.0219998 0.254799 0.0360133 -0.992765 0.114541
0.0150114 -0.0493298 0.364813 0.587237 -0.809415 -0.000607917
-0.0205623 -0.0182025 0.420501 -0.849224 0.522632 0.0753357
0.0234617 -0.0324105 0.347176 0.983629 -0.180205 -0.000135333
0.0164525 -0.0106647 0.343673 0.587236 0.809416 0.000607303
-0.000424499 -0.0548384 0.44881 -0.213106 -0.976849 0.0187549
-0.156232 -0.0129089 0.29786 -0.0218451 0.991804 -0.125889
-0.173214 -0.012655 0.310649 -0.0361286 0.999229 -0.0153588
0.0181261 -0.0157765 0.162311 0.851542 0.52152 -0.0537915
0.453302 -0.0217348 0.315287 0.00527599 -0.985934 -0.167053
-0.434904 -0.0211732 0.271796 0.0295078 0.999465 -0.0140892
0.130563 0.0516699 0.00173307 7.17087e-07 -0.990549 0.137156
0.339609 -0.0198709 0.274831 -0.0218451 -0.991804 0.125889
0.0838529 0.0491569 0.0164157 1.01733e-06 0.99055 0.13715
0.00561725 -0.0506118 0.468654 0.500533 -0.806748 0.314045
-0.00516187 -0.0127488 0.0599815 -0.953731 -0.126499 -0.272754
0.00935391 -0.0534216 0.347931 0.587237 -0.809415 -0.000607917
-0.00296676 0.0261817 0.0787645 0.971868 -0.152538 -0.179457
-0.0881416 -0.0120481 0.293779 -0.0192986 0.990364 -0.137137
-0.491437 -0.022934 0.23717 0.0360133 0.992765 -0.114541
0.4035 -0.0252273 0.243717 -0.0218451 -0.991804 0.125889
-0.00441681 -0.00438234 0.2596 -0.211057 0.977474 0
-0.126014 0.048666 0.041943 -0.0141765 -0.998836 0.046115
-0.0996652 -0.0114079 0.371373 -0.0656029 0.981252 0.18122
-0.00447442 -0.0205336 0.367521 0 1 0
0.383636 -0.0204668 0.307842 -0.0414973 -0.998915 -0.0211229
-0.0236237 -0.0274292 0.220744 -0.983629 0.180205 0
-0.220479 -0.0147254 0.345384 -0.0657756 0.981246 0.181192
-0.394139 -0.0233542 0.25685 -0.0218451 0.991804 -0.125889
0.368149 -0.0304238 0.280056 0.0303318 0.99944 0.0140889
0.400226 -0.0313967 0.280012 0.0303318 0.99944 0.0140889
0.414029 -0.0317442 0.306452 -0.0579914 0.998094 -0.0211057
-0.166069 -0.0122252 0.321807 -0.0361286 0.999229 -0.0153588
0.0456894 -0.00787801 0.321462 -0.0361286 -0.999229 0.0153588
0.488747 -0.0276626 0.288017 -0.0538111 0.998469 0.012813
-0.429901 -0.0306428 0.273119 -0.0538111 -0.998469 -0.012813
0.0499625 -0.017578 0.385493 -0.0719991 0.802368 -0.592471
-0.158281 -0.0194474 0.267466 0.0456123 -0.991008 -0.125785
-0.013879 -0.0231183 0.10086 -0.976714 -0.161896 -0.14078
0.0237441 -0.0280864 0.232491 0.983629 0.180205 0
-0.123465 0.0543503 0.0386264 -0.0114204 0.999668 0.023075
0.275719 -0.0162812 0.317202 -0.0364047 -0.999238 0.014086
0.464212 -0.0286542 0.267446 -0.0458705 0.990997 0.125784
0.00890019 -0.05362 0.41945 0.21105 -0.977475 0.000326097
0.0926491 -0.00967716 0.314875 -0.0361286 -0.999229 0.0153588
0.0226817 -0.022238 0.306392 0.983629 0.180205 0.000135333
-0.155022 -0.0119317 0.314915 -0.0361286 0.999229 -0.0153588
-0.277347 -0.0193742 0.26794 -0.0218451 0.991804 -0.125889
-0.0213122 -0.0181062 0.358974 -0.851644 0.524121 0.000393612
-0.108055 -0.019254 0.283273 0.0456198 -0.989517 -0.137021
0.111168 -0.0157991 0.269931 -0.0192986 -0.990364 0.137137
-0.371236 -0.0306233 0.287563 0.0303318 -0.99944 -0.0140889
-0.145188 -0.0267398 0.379317 -0.831718 0.555198 0
0.0379553 0.0527509 0.00954068 0 -0.99055 0.137153
-0.0866791 -0.00935625 0.321709 -0.0361286 0.999229 -0.0153588
0.0673572 0.0519903 0.00404746 0 -0.99055 0.137153
0.180671 -0.0251944 0.312713 0.0303318 0.99944 0.0140889
0.0836755 -0.0194655 0.292917 0.0456198 0.989517 0.137021
0.121914 -0.0170367 0.377323 -0.12014 -0.822182 -0.556402
-0.32725 -0.0249275 0.24937 0.0456123 -0.991008 -0.125785
0.314368 -0.021249 0.259594 -0.0218451 -0.991804 0.125889
-0.018363 -0.0456137 0.276537 -0.851643 -0.524121 0.00120567
0.0177032 -0.0371255 0.451335 0.964665 -0.172038 0.199561
0.282427 -0.0198469 0.265097 -0.0218451 -0.991804 0.125889
0.00106905 -0.033262 0.372023 0 0 1
0.134966 -0.0157881 0.27336 -0.0192986 -0.990364 0.137137
-0.0168819 0.0531013 0.0637776 -0.0887533 0.801266 0.591688
0.346061 -0.0299809 0.296192 0.0303318 0.99944 0.0140889
0.138684 -0.0214279 0.369404 -0.0664229 0.826352 -0.559224
0.022082 -0.0395723 0.324622 0.851644 -0.524121 -0.00041849
0.458618 -0.0291064 0.306372 -0.0605745 0.997272 -0.0421761
0.120702 0.05431 0.0257085 -0.00738372 -0.999854 0.0153794
-0.261159 -0.0267248 0.341803 -0.000182377 -0.983375 0.181586
-0.304467 -0.0233927 0.245539 0.0456123 -0.991008 -0.125785
-0.0223034 -0.0387507 0.388622 -0.983629 -0.180205 0
0.230402 -0.0146281 0.317352 -0.0364047 -0.999238 0.014086
0.203708 -0.0137466 0.311362 -0.0361286 -0.999229 0.0153588
-0.13425 -0.0345812 0.355103 0.831371 -0.555718 0
-0.472303 -0.0283737 0.274369 -0.0538111 -0.998469 -0.012813
-0.109377 0.0529896 0.011264 7.17087e-07 0.990549 -0.137156
0.0290163 -0.0209818 0.368195 0.0248093 0.999425 -0.023093
-0.393183 -0.0311694 0.279053 0.0303318 -0.99944 -0.0140889
-0.00144189 -0.0126684 0.39693 -0.125398 0.798108 0.589321
0.00691055 -0.054049 0.421165 0.21105 -0.977475 0.000326097
-0.0233315 -0.0106649 0.294649 -0.0192986 0.990364 -0.137137
0.41564 -0.0214738 0.290816 0.0295078 -0.999465 0.0140892
0.078077 -0.0133415 0.381535 -0.125398 -0.798108 -0.589321
-0.00635186 -0.0340253 0.372023 0 0 1
-0.0117219 -0.0516849 0.276018 -0.587229 -0.809418 0.00185895
0.126185 -0.0238595 0.333761 0.0304032 0.99942 0.0153602
-0.149519 -0.0141824 0.287004 -0.0192986 0.990364 -0.137137
-0.433284 -0.0219426 0.264047 0.0360133 0.992765 -0.114541
0.217659 -0.0187049 0.359115 -0.12014 -0.822182 -0.556402
-0.00264565 -0.0237996 0.355825 0 0 -1
0.0029457 -0.0139914 0.280263 0.0456198 0.989517 0.137021
0.0100705 -0.00603348 0.342419 0.587236 0.809416 0.000649197
-0.109043 -0.0215921 0.369856 -1.18667e-05 -0.98337 0.181615
0.359718 -0.03044 0.313936 0.0250519 0.999463 -0.0211348
0.32524 -0.018283 0.319292 -0.0414973 -0.998915 -0.0211229
0.00134993 -0.0280226 0.360788 1 0 0
0.0159968 0.051463 0.000239382 0 -0.99055 0.137153
0.117411 -0.0102137 0.34652 -0.0418417 -0.998857 -0.0230847
-0.00674939 -0.0253436 0.367464 -1 0 0
0.384336 -0.0292102 0.26241 0.0456123 0.991008 0.125785
0.0153442 -0.00988058 0.393191 0.587237 0.809415 0
-0.0483424 -0.0127392 0.283188 -0.0192986 0.990364 -0.137137
0.00266387 -0.0348395 0.0938307 0.216267 -0.906505 -0.362597
-0.175591 -0.0233403 0.290297 0.0456198 -0.989517 -0.137021
-0.332211 -0.0295133 0.292838 0.0303318 -0.99944 -0.0140889
0.177932 -0.0137585 0.294931 -0.0218451 -0.991804 0.125889
0.107215 -0.0133414 0.287124 -0.0192986 -0.990364 0.137137
0.405221 -0.0264162 0.330011 -0.12014 -0.822182 -0.556402
0.317093 -0.0225872 0.249888 -0.0192986 -0.990364 0.137137
-0.0211832 -0.0178715 0.326603 -0.851646 0.524117 0.000418486
-0.0101304 -0.00819936 0.386412 -0.0656029 0.981252 0.18122
-0.196882 -0.0258665 0.324411 0.0304032 -0.99942 -0.0153602
0.310564 -0.0291814 0.315195 0.0250519 0.999463 -0.0211348
0.15815 -0.0243172 0.354822 0.00203458 0.985993 -0.166777
-0.234636 -0.0147181 0.321912 -0.0364047 0.999238 -0.014086
0.12185 -0.0132908 0.289549 -0.0192986 -0.990364 0.137137
-0.13284 -0.029282 0.385114 0.980794 0.195046 0
-0.362617 -0.0203068 0.324092 -0.0633415 0.984015 0.166442
0.00387031 -0.0469149 0.478067 0.467002 -0.752704 0.464054
0.00651754 -0.0204204 0.34686 0.0304032 0.99942 0.0153602
0.11958 -0.0105358 0.322363 -0.0361286 -0.999229 0.0153588
-0.304159 -0.0177476 0.330753 -0.0446446 0.998111 0.0422118
-0.162067 -0.0123307 0.30553 -0.0361286 0.999229 -0.0153588
0.00351804 -0.00418494 0.146303 0.221101 0.975247 -0.00290177
-0.319863 -0.0293397 0.318731 0.0250519 -0.999463 0.0211348
-0.00844057 -0.0288544 0.0879129 -0.589689 -0.735243 -0.334192
0.316073 -0.0281568 0.333993 -0.000182377 0.983375 -0.181586
-0.0888406 -0.0226039 0.325981 0.0304032 -0.99942 -0.0153602
-0.0385286 0.0492956 0.0154145 1.01733e-06 -0.99055 -0.13715
-0.372264 -0.0201773 0.290339 -0.0364047 0.999238 -0.014086
0.0235205 -0.0268431 0.339752 0.983629 0.180205 0.000143886
0.00436338 0.0474744 0.0527268 -0.0114207 0.999668 -0.0230771
0.0600256 -0.0141098 0.386416 -0.125398 -0.798108 -0.589321
0.0195247 -0.0395125 0.177037 0.845942 -0.518098 -0.12632
-0.324779 -0.0185209 0.327229 -0.0446446 0.998111 0.0422118
-0.10516 -0.00971293 0.342344 -0.0364047 0.999238 -0.014086
0.0412876 -0.0153166 0.277067 0.0456198 0.989517 0.137021
-0.12761 -0.0106319 0.346128 -0.0418417 0.998857 0.0230847
0.477061 -0.0203564 0.264031 0.0360133 -0.992765 0.114541
-0.452752 -0.0205989 0.275151 0.0295078 0.999465 -0.0140892
-0.0210132 0.0475727 0.0487426 -0.0114207 -0.999668 0.0230771
0.134823 -0.0118905 0.361126 -0.0657756 -0.981246 -0.181192
-0.367262 -0.0199041 0.296794 -0.0364047 0.999238 -0.014086
0.00778889 -0.00510017 0.356634 0.211054 0.977474 0.00073339
0.0233771 -0.0286261 0.194311 0.982836 0.18006 -0.0401352
-0.161485 -0.0249515 0.338517 0.0250519 -0.999463 0.0211348
0.286121 -0.0167048 0.314039 -0.0364047 -0.999238 0.014086
-0.0855959 -0.0227886 0.344421 0.0304032 -0.99942 -0.0153602
0.0441221 -0.0213169 0.330757 0.0304032 0.99942 0.0153602
-0.290452 -0.0233124 0.348502 -0.0719991 -0.802368 0.592471
-0.0435842 -0.00933862 0.307077 -0.0192986 0.990364 -0.137137
0.281867 -0.0280031 0.333173 0.0213294 0.998716 -0.0459391
-0.0359353 -0.021379 0.351004 0.0304032 -0.99942 -0.0153602
-0.0136098 -0.0167129 0.391082 -0.0719991 -0.802368 0.592471
-0.00964894 -0.00599415 0.181384 -0.589025 0.808065 -0.00898557
0.0180655 -0.0426145 0.441728 0.847199 -0.516142 0.125904
-0.434652 -0.0294645 0.316855 -0.0745728 -0.985601 0.151756
-0.297418 -0.0287032 0.30999 0.0304032 -0.99942 -0.0153602
0.0232493 0.0546742 0.023431 7.17087e-07 -0.990549 0.137156
-0.00440186 -0.0205336 0.356649 0 1 0
0.218056 -0.0206926 0.2556 0.0456123 0.991008 0.125785
0.197172 -0.0165689 0.276475 -0.0192986 -0.990364 0.137137
0.462459 -0.0201013 0.291207 0.0289823 -0.999498 0.0128262
-0.00674939 -0.0294813 0.3716 -1 0 0
0.0395499 0.0476764 0.0435269 -0.0073829 0.999854 0.0153875
-0.46199 -0.0288642 0.307256 -0.0605745 -0.997272 0.0421761
0.00605963 -0.0305322 0.08724 0.590906 -0.73676 -0.328656
-0.0736389 -0.0167157 0.2764 0.0456198 -0.989517 -0.137021
0.470236 -0.0209812 0.311374 0.00527599 -0.985934 -0.167053
-0.363446 -0.0281549 0.261671 0.0456123 -0.991008 -0.125785
-0.148076 -0.0238566 0.357422 0.00203458 -0.985993 0.166777
0.420527 -0.0277227 0.325631 -0.126886 0.821487 -0.555931
0.0891494 0.0514596 0.000214815 0 -0.99055 0.137153
0.204413 -0.0257728 0.302631 0.0303318 0.99944 0.0140889
-0.288035 -0.0282302 0.296923 0.0303318 -0.99944 -0.0140889
-0.15235 -0.0234539 0.298855 0.0456198 -0.989517 -0.137021
-0.308286 -0.0176234 0.306162 -0.0364047 0.999238 -0.014086
0.33229 -0.0296493 0.302313 0.0303318 0.99944 0.0140889
-0.0162009 -0.0105021 0.257366 -0.58723 0.80942 0
-0.121887 -0.0115412 0.363931 -0.0657756 0.981246 0.181192
-0.125943 -0.0236523 0.320755 0.0304032 -0.99942 -0.0153602
-0.107594 -0.00984591 0.339201 -0.0364047 0.999238 -0.014086
0.300231 -0.0175186 0.329492 -0.0446446 -0.998111 -0.0422118
-0.0172645 -0.0205951 0.33695 0.0304032 -0.99942 -0.0153602
0.103875 -0.0130337 0.288876 -0.0192986 -0.990364 0.137137
0.449957 -0.0211802 0.311729 0.00455759 -0.985984 -0.166775
0.0876211 -0.00932411 0.326016 -0.0361286 -0.999229 0.0153588
-0.0498466 -0.0170657 0.386201 -0.0719991 -0.802368 0.592471
0.0027468 -0.00396374 0.285796 0.211053 0.977472 -0.00224857
-0.21867 -0.0140701 0.326613 -0.0364047 0.999238 -0.014086
-0.00545531 -0.0340329 0.359115 0 -1 0
-0.00801313 -0.00594454 0.360084 -0.0418417 0.998857 0.0230847
0.0229152 -0.0235404 0.341512 0.983629 0.180205 0.000143886
-0.00148568 0.0409189 0.0269284 0.987615 0.0769214 0.136747
0.0246106 -0.0207341 0.331453 0.0304032 0.99942 0.0153602
0.471881 -0.0279273 0.264517 -0.0458705 0.990997 0.125784
0.462183 -0.0291072 0.288522 -0.0541039 0.998436 0.0140747
0.207158 -0.0241051 0.356243 -1.18667e-05 0.98337 -0.181615
0.0174585 -0.0118442 0.358592 0.851644 0.524121 0.000393629
-0.0866348 -0.0223714 0.364961 0.0213294 -0.998716 0.0459391
0.144882 -0.0112859 0.333419 -0.0364047 -0.999238 0.014086
0.140692 -0.0237116 0.358189 0.00203458 0.985993 -0.166777
-0.00192631 0.0555224 0.0475018 -0.00738305 0.999854 -0.0153826
-0.0903907 -0.0113833 0.374598 -0.0656029 0.981252 0.18122
-0.336443 -0.0218251 0.258885 -0.0218451 0.991804 -0.125889
0.00675826 -0.00487725 0.356116 0.211054 0.977474 0.00073339
0.142324 -0.0114991 0.313194 -0.0361286 -0.999229 0.0153588
0.352923 -0.0284692 0.267963 0.0456123 0.991008 0.125785
-0.00485679 0.055172 0.027026 7.17087e-07 0.990549 -0.137156
-0.017747 0.0539494 0.0181962 0 0.99055 -0.137153
-0.0943417 0.0545162 0.0264538 -0.00738305 0.999854 -0.0153826
0.00382455 0.0474652 0.0525942 -0.0114207 0.999668 -0.0230771
0.0130847 -0.00824129 0.217727 0.587237 0.809415 0
0.0594135 -0.0219014 0.338517 0.0304032 0.99942 0.0153602
0.0606017 -0.0190568 0.297647 0.0456198 0.989517 0.137021
-0.012458 -0.00774744 0.27761 -0.587236 0.809413 -0.00186497
0.00370865 0.0228983 0.070199 -0.999222 -0.0319931 -0.0230576
-0.0390308 -0.00903117 0.308656 -0.0192986 0.990364 -0.137137
-0.0090464 -0.0288712 0.466194 -0.463962 0.694303 0.550166
0.131149 0.0542775 0.0379764 -0.0114204 -0.999668 -0.023075
0.216286 -0.0263914 0.320157 0.0304032 0.99942 0.0153602
0.0832269 0.0533894 0.0141519 7.17087e-07 -0.990549 0.137156
-0.240883 -0.0270859 0.331632 0.0248093 -0.999425 0.023093
0.122885 -0.0115746 0.302585 -0.0218451 -0.991804 0.125889
0.427163 -0.0309359 0.283631 -0.0541039 0.998436 0.0140747
-0.393583 -0.0313213 0.312382 0.0248093 -0.999425 0.023093
0.116477 -0.0106769 0.308546 -0.0218451 -0.991804 0.125889
-0.0555947 -0.00806781 0.365172 -0.0452587 0.99792 0.0459023
-0.302362 -0.0288127 0.322904 0.0250519 -0.999463 0.0211348
0.483027 -0.0198147 0.304391 0.0230832 -0.998987 -0.0386248
0.00959819 -0.0472881 0.161161 0.583429 -0.800377 -0.137863
0.140623 -0.0269267 0.388358 0.831716 0.555202 0
0.0185404 -0.0453593 0.366578 0.851644 -0.524121 -0.000393582
0.00363484 -0.00421349 0.241325 0.211054 0.977474 0
0.469602 -0.0245474 0.235119 -0.0413571 0.99256 0.114518
0.128117 -0.0116707 0.302735 -0.0218451 -0.991804 0.125889
0.366285 -0.0241498 0.335069 -0.12014 -0.822182 -0.556402
-0.0243003 -0.0113649 0.28973 -0.0192986 0.990364 -0.137137
-0.095826 0.0482038 0.0362582 -0.0073829 -0.999854 -0.0153875
-0.474689 -0.0197308 0.292442 0.0289823 0.999498 -0.0128262
-0.112018 -0.0103146 0.318966 -0.0361286 0.999229 -0.0153588
0.012429 -0.0135942 0.439209 0.543198 0.741259 0.394299
0.329006 -0.0184156 0.303511 -0.0364047 -0.999238 0.014086
-0.302622 -0.0287677 0.325176 0.0248093 -0.999425 0.023093
0.00134993 -0.0301954 0.361237 1 0 0
0.106549 -0.0116263 0.370064 -0.0656029 -0.981252 -0.18122
-0.115055 -0.0234527 0.329321 0.0304032 -0.99942 -0.0153602
-0.199681 -0.0177983 0.26795 -0.0192986 0.990364 -0.137137
-0.205318 -0.0200732 0.25534 0.0456123 -0.991008 -0.125785
0.398023 -0.0314659 0.310829 0.0250519 0.999463 -0.0211348
-0.0581856 -0.00934888 0.375183 -0.0657756 0.981246 0.181192
0.34211 -0.0200033 0.274222 -0.0218451 -0.991804 0.125889
0.333075 -0.0295317 0.292279 0.0303318 0.99944 0.0140889
-0.0218084 -0.033565 0.181232 -0.982136 -0.179092 -0.0577524
0.0244467 0.0552817 0.0426679 -0.00738305 -0.999854 0.0153826
-0.0153526 -0.0098867 0.24029 -0.58723 0.80942 0
-0.00504935 -0.0544541 0.260065 -0.211053 -0.977475 0
0.106726 -0.0102559 0.310338 -0.0361286 -0.999229 0.0153588
-0.402374 -0.0223443 0.321007 -0.0656029 0.981252 0.18122
-0.130586 0.0503189 0.00802372 0 -0.990549 -0.137157
-0.140701 -0.0237033 0.352129 -0.194894 0.980824 0
0.0495833 -0.00801482 0.369947 -0.0452587 -0.99792 -0.0459023
-0.0233453 -0.0259098 0.251752 -0.983629 0.180205 0
0.384395 -0.0278079 0.251341 0.0456123 0.991008 0.125785
0.0139155 -0.00881463 0.273375 0.587236 0.809413 -0.00186197
0.226308 -0.0174911 0.355613 -0.125398 -0.798108 -0.589321
-0.0161897 -0.0367572 0.14522 -0.853107 -0.500394 -0.147699
-0.0195071 -0.0068474 0.374221 -0.0452587 0.99792 0.0459023
0.240877 -0.0204277 0.254758 -0.0192986 -0.990364 0.137137
0.273905 -0.0279262 0.305778 0.0303318 0.99944 0.0140889
0.137111 -0.0367176 0.345127 0.195326 -0.980738 0
-0.234891 -0.0183928 0.268611 -0.0192986 0.990364 -0.137137
-0.202282 -0.014193 0.349107 -0.0657756 0.981246 0.181192
0.370715 -0.0277858 0.256128 0.0456123 0.991008 0.125785
-0.138001 -0.0237592 0.384095 0.194822 0.980839 0
-0.167962 -0.0122414 0.34263 -0.0418417 0.998857 0.0230847
-0.201011 -0.0157535 0.283218 -0.0218451 0.991804 -0.125889
-0.0888565 -0.0227524 0.335611 0.0304032 -0.99942 -0.0153602
-0.368477 -0.0200081 0.292553 -0.0364047 0.999238 -0.014086
-0.40952 -0.0292905 0.253911 0.0456123 -0.991008 -0.125785
-0.0150382 -0.0414892 0.458986 -0.954982 -0.170311 0.242907
-0.0234214 -0.0326292 0.345163 -0.983629 -0.180205 -0.000135345
-0.0456581 -0.0078395 0.370005 -0.0452587 0.99792 0.0459023
-0.348607 -0.0260913 0.337579 -0.0664229 -0.826352 0.559224
0.0845528 -0.0106304 0.372634 -0.0656029 -0.981252 -0.18122
0.40529 -0.0273763 0.240364 0.0456123 0.991008 0.125785
0.240589 -0.0148906 0.325624 -0.0418417 -0.998857 -0.0230847
0.0916863 0.048365 0.0237914 -0.00738252 0.999854 0.0153792
-0.0222139 -0.0197038 0.331113 -0.983629 0.180205 0.000143886
0.0362962 -0.00730076 0.336922 -0.0361286 -0.999229 0.0153588
0.440518 -0.0302047 0.283093 -0.0541039 0.998436 0.0140747
-0.018605 -0.0170757 0.157058 -0.861239 0.505164 -0.0554676
0.493329 -0.0263557 0.308212 -0.0745728 0.985601 -0.151756
0.0461005 -0.0165923 0.284678 0.0456198 0.989517 0.137021
0.262129 -0.0228272 0.256436 0.0456123 0.991008 0.125785
0.0227178 -0.0364354 0.301177 0.983629 -0.180205 -0.000135349
0.169118 -0.0124416 0.3149 -0.0361286 -0.999229 0.0153588
-0.0907104 0.0541896 0.0482638 -0.0313021 0.9829 0.181461
0.0204168 -0.0165975 0.28906 0.851644 0.524121 0.000391725
-0.189174 -0.0203184 0.364864 -0.0719991 -0.802368 0.592471
0.0129164 -0.0486572 0.452004 0.851348 -0.509999 0.12291
0.475293 -0.0199029 0.302089 0.0223856 -0.998857 -0.0422435
0.0380047 -0.0171348 0.291291 0.0456198 0.989517 0.137021
-0.0316351 -0.00821583 0.313503 -0.0192986 0.990364 -0.137137
0.000631831 -0.0554079 0.381846 0.21105 -0.977475 0
-0.306978 -0.0178928 0.331137 -0.0657756 0.981246 0.181192
0.0907902 0.0489006 0.0494975 -0.0313029 0.982899 -0.181467
0.0909197 0.0537597 0.0168264 7.17087e-07 -0.990549 0.137156
-0.459263 -0.0290203 0.269993 -0.0538111 -0.998469 -0.012813
-0.0221459 -0.0194663 0.366242 -0.851644 0.524121 0.000393612
0.00856319 -0.0141333 0.0731131 0.966973 0.154016 -0.203084
-0.208387 -0.0250631 0.29182 0.0456198 -0.989517 -0.137021
0.263097 -0.0240914 0.350691 -0.0664229 0.826352 -0.559224
0.231119 -0.0267488 0.314054 0.0304032 0.99942 0.0153602
0.0134945 -0.0405145 0.466044 0.952197 -0.189384 0.239698
0.137058 -0.0110379 0.330809 -0.0361286 -0.999229 0.0153588
-0.0168318 -0.0158755 0.138963 -0.865434 0.498535 -0.049871
0.318071 -0.029038 0.289561 0.0303318 0.99944 0.0140889
-0.00348554 0.0248761 0.0549925 0.999875 -0.00365102 0.0153846
-0.391492 -0.0287121 0.255891 0.0456123 -0.991008 -0.125785
0.0462609 -0.0208061 0.374071 -0.000182377 0.983375 -0.181586
-0.0147513 -0.0494248 0.42058 -0.588147 -0.808704 0.00899362
0.260529 -0.0178931 0.27669 -0.0218451 -0.991804 0.125889
0.406994 -0.029037 0.25283 0.0456123 0.991008 0.125785
0.0434123 0.0544182 0.0215822 7.17087e-07 -0.990549 0.137156
0.00175392 -0.0353988 0.0946862 0.216267 -0.906505 -0.362597
0.0232847 -0.0333942 0.391103 0.983629 -0.180205 0
0.254506 -0.0253577 0.278591 0.0456198 0.989517 0.137021
0.0269498 -0.00719916 0.321546 -0.0361286 -0.999229 0.0153588
-0.197408 -0.0168677 0.27435 -0.0192986 0.990364 -0.137137
-0.0127203 -0.0509961 0.402048 -0.587237 -0.809415 0
-0.145673 -0.028615 0.327612 -0.980011 0.19503 -0.039268
0.122926 0.0530808 0.0119231 7.17087e-07 -0.990549 0.137156
-0.0223865 -0.0382484 0.307731 -0.983629 -0.180206 -0.000135345
0.0862924 -0.00898216 0.349636 -0.0418417 -0.998857 -0.0230847
0.256847 -0.0155388 0.324201 -0.0418417 -0.998857 -0.0230847
-0.331452 -0.0294745 0.291718 0.0303318 -0.99944 -0.0140889
0.0775702 -0.0116495 0.379351 -0.125398 -0.798108 -0.589321
0.332462 -0.0256678 0.253312 0.0456123 0.991008 0.125785
0.114136 -0.0226826 0.306008 0.0456198 0.989517 0.137021
-0.38824 -0.0248405 0.331349 -0.12014 0.822182 0.556402
-0.0232246 -0.0252326 0.346033 -0.983629 0.180205 0.000135333
0.265959 -0.0160143 0.310912 -0.0364047 -0.999238 0.014086
0.0402229 -0.0188502 0.384707 -1.18667e-05 0.98337 -0.181615
-0.232954 -0.0267761 0.336522 0.0248093 -0.999425 0.023093
0.00688578 -0.0202824 0.33715 0.0304032 0.99942 0.0153602
0.0299733 -0.0158805 0.284907 0.0456198 0.989517 0.137021
-0.107303 -0.0177444 0.272534 0.0456123 -0.991008 -0.125785
-0.265359 -0.0160385 0.30765 -0.0364047 0.999238 -0.014086
-0.136838 -0.0240404 0.331971 0.555786 0.831292 -0.00745969
-0.0018755 -0.0205336 0.361256 0 1 0
0.043549 -0.0212103 0.324952 0.0304032 0.99942 0.0153602
-0.328018 -0.0182999 0.314671 -0.0418417 0.998857 0.0230847
0.143079 -0.0233524 0.360184 -0.000182377 0.983375 -0.181586
-0.0477551 -0.0210096 0.372968 -0.000182377 -0.983375 0.181586
-0.206075 -0.0209067 0.362013 -0.0719991 -0.802368 0.592471
-0.0038291 0.0553244 0.0355448 -0.00738305 0.999854 -0.0153826
-0.20819 -0.0247077 0.289318 0.0456198 -0.989517 -0.137021
0.352718 -0.0266625 0.336247 -0.0664229 0.826352 -0.559224
0.165513 -0.0221027 0.284715 0.0456198 0.989517 0.137021
-0.380311 -0.0204679 0.290519 -0.0364047 0.999238 -0.014086
0.0686553 -0.0206293 0.306322 0.0456198 0.989517 0.137021
-0.264337 -0.027665 0.307849 0.0303318 -0.99944 -0.0140889
-0.273924 -0.0273075 0.338555 0.00203458 -0.985993 0.166777
0.00469577 -0.00445102 0.146614 0.221101 0.975247 -0.00290177
-0.0588641 0.0497373 0.0122242 1.01733e-06 -0.99055 -0.13715
0.0239807 -0.0293781 0.221198 0.983629 0.180205 0
0.00336475 0.0357913 0.0666548 -0.997712 -0.0494998 -0.0460462
-0.133352 -0.0236784 0.307044 0.0303318 -0.99944 -0.0140889
0.00134993 -0.0265871 0.366838 1 0 0
0.402297 -0.0317468 0.302611 0.0250519 0.999463 -0.0211348
-0.0893422 -0.0102472 0.307222 -0.0218451 0.991804 -0.125889
-0.465261 -0.028789 0.277155 -0.0538111 -0.998469 -0.012813
0.0162368 -0.01073 0.18737 0.587214 0.809383 -0.00890225
-0.00954001 -0.0201814 0.325322 0.0304032 -0.99942 -0.0153602
0.0187819 -0.0390199 0.170042 0.845942 -0.518098 -0.12632
-0.106671 -0.014323 0.279959 -0.0192986 0.990364 -0.137137
-0.0556642 -0.0175422 0.288354 0.0456198 -0.989517 -0.137021
0.455434 -0.0294655 0.287997 -0.0541039 0.998436 0.0140747
-0.360264 -0.0195897 0.312279 -0.0414973 0.998915 0.0211229
-0.32156 -0.029352 0.304322 0.0303318 -0.99944 -0.0140889
-0.389136 -0.0207015 0.296756 -0.0364047 0.999238 -0.014086
-0.093667 -0.0170701 0.272166 0.0456123 -0.991008 -0.125785
0.052644 -0.007759 0.357699 -0.0418417 -0.998857 -0.0230847
0.310214 -0.0243638 0.251106 0.0456123 0.991008 0.125785
0.00312299 0.0458154 0.0363984 -0.999875 -0.00365278 0.015382
0.182869 -0.021342 0.273443 0.0456198 0.989517 0.137021
-0.0869872 -0.0207765 0.374273 -1.18667e-05 -0.98337 0.181615
-0.0503928 -0.0126842 0.386535 -0.125398 0.798108 0.589321
0.272407 -0.0241828 0.263389 0.0456123 0.991008 0.125785
-0.326927 -0.0245345 0.246391 0.0456123 -0.991008 -0.125785
-0.394392 -0.0208202 0.301921 -0.0364047 0.999238 -0.014086
-0.0227996 -0.022931 0.211745 -0.983629 0.180205 0
0.390009 -0.0211745 0.273306 -0.0218451 -0.991804 0.125889
0.340737 -0.0297172 0.323108 0.0218571 0.998868 -0.0422436
0.0677657 -0.0100128 0.305611 -0.0192986 -0.990364 0.137137
0.0163798 -0.0105702 0.287404 0.587236 0.809413 -0.00186197
-0.078167 -0.00894681 0.328324 -0.0361286 0.999229 -0.0153588
0.461923 -0.0280523 0.312626 -0.0745728 0.985601 -0.151756
-0.274919 -0.0255702 0.27333 0.0456198 -0.989517 -0.137021
0.0427805 -0.021432 0.363497 0.0248093 0.999425 -0.023093
0.116006 -0.0101252 0.345238 -0.0418417 -0.998857 -0.0230847
-0.157505 -0.0138747 0.363792 -0.0656029 0.981252 0.18122
-0.196559 -0.0155199 0.358689 -0.0631599 0.983979 0.166722
-0.401448 -0.0316321 0.29408 0.0303318 -0.99944 -0.0140889
0.406025 -0.0265924 0.233921 0.0456123 0.991008 0.125785
-0.00529742 -0.0340329 0.367305 0 -1 0
-0.0113887 -0.0519464 0.412997 -0.587218 -0.809388 0.00816438
-0.00270725 0.0149698 0.0503474 0.987615 0.0769214 0.136747
-0.386496 -0.0298609 0.266754 0.0456123 -0.991008 -0.125785
0.101922 0.0539601 0.0475727 -0.0313021 -0.9829 -0.181461
0.0088491 -0.0536022 0.329304 0.21105 -0.977475 -0.000780342
0.389259 -0.0311208 0.284053 0.0303318 0.99944 0.0140889
-0.265323 -0.0199167 0.261889 -0.0192986 0.990364 -0.137137
-0.441242 -0.0292568 0.263817 -0.0458705 -0.990997 -0.125784
-0.0656538 -0.0195673 0.299652 0.0456198 -0.989517 -0.137021
-0.163328 -0.023933 0.357019 -0.000182377 -0.983375 0.181586
-0.0154525 -0.00991495 0.313334 -0.587232 0.809418 0.0006073
0.0120061 0.0553742 0.0427051 -0.00738305 -0.999854 0.0153826
-0.371928 -0.0213931 0.268446 -0.0218451 0.991804 -0.125889
0.387106 -0.0215449 0.269884 -0.0218451 -0.991804 0.125889
0.147697 -0.0113796 0.334047 -0.0364047 -0.999238 0.014086
0.311494 -0.0224695 0.249951 -0.0192986 -0.990364 0.137137
0.420326 -0.0214475 0.309486 0.0223856 -0.998857 -0.0422435
-0.0166922 -0.00838955 0.310146 -0.0192986 0.990364 -0.137137
-0.43194 -0.0216788 0.266756 0.0360133 0.992765 -0.114541
-0.0558157 0.0478623 0.044064 -0.0114219 -0.999668 0.0230951
0.248952 -0.0270393 0.296582 0.0303318 0.99944 0.0140889
0.144318 -0.0242689 0.324506 0.0304032 0.99942 0.0153602
0.135154 -0.0111185 0.321088 -0.0361286 -0.999229 0.0153588
-0.291808 -0.0282535 0.290455 0.0303318 -0.99944 -0.0140889
-0.162982 -0.0119093 0.33729 -0.0418417 0.998857 0.0230847
-0.215633 -0.0263325 0.337113 0.0248093 -0.999425 0.023093
-0.364735 -0.0304634 0.317879 0.0218571 -0.998868 0.0422436
0.0622828 -0.0176896 0.287215 0.0456198 0.989517 0.137021
-0.0225331 -0.0374543 0.278995 -0.983629 -0.180205 0.000414562
-0.137631 -0.0238326 0.388886 0.194822 0.980839 0
-0.220744 -0.0258138 0.293126 0.0456198 -0.989517 -0.137021
0.0214827 -0.0183533 0.320367 0.851644 0.524121 0.000418488
-0.0130562 -0.00869134 0.169465 -0.588969 0.807989 -0.0163991
-0.381027 -0.0220954 0.327614 -0.0631599 0.983979 0.166722
0.0215215 0.0538035 0.0621308 -0.0887533 -0.801266 -0.591688
-0.00388851 -0.00426827 0.211541 -0.211057 0.977474 0
0.171913 -0.0123244 0.33906 -0.0418417 -0.998857 -0.0230847
0.370228 -0.030791 0.301629 0.0303318 0.99944 0.0140889
-0.0318148 -0.0194699 0.381352 -1.18667e-05 -0.98337 0.181615
0.134012 -0.0236196 0.365321 -0.194822 0.980839 0
0.0491019 -0.021377 0.369152 0.0213294 0.998716 -0.0459391
-0.0908588 -0.0196456 0.291826 0.0456198 -0.989517 -0.137021
0.269412 -0.0169382 0.339647 -0.0633415 -0.984015 -0.166442
-0.118243 -0.0218915 0.368234 -1.18667e-05 -0.98337 0.181615
0.379695 -0.0220896 0.264307 -0.0218451 -0.991804 0.125889
-0.332682 -0.018764 0.288321 -0.0361286 0.999229 -0.0153588
0.296492 -0.0173573 0.294708 -0.0361286 -0.999229 0.0153588
-0.123406 -0.023731 0.330903 0.0304032 -0.99942 -0.0153602
-0.247075 -0.0272737 0.316625 0.0304032 -0.99942 -0.0153602
0.453117 -0.025795 0.239979 -0.0413571 0.99256 0.114518
-0.449933 -0.0295154 0.269395 -0.0538111 -0.998469 -0.012813
0.175881 -0.0234974 0.291335 0.0456198 0.989517 0.137021
0.425184 -0.03094 0.27631 -0.0541039 0.998436 0.0140747
0.16857 -0.0122411 0.326879 -0.0364047 -0.999238 0.014086
-0.101099 -0.0121582 0.294808 -0.0192986 0.990364 -0.137137
-0.353512 -0.0209127 0.269035 -0.0218451 0.991804 -0.125889
0.48381 -0.0195598 0.285162 0.0289823 -0.999498 0.0128262
-0.0564854 -0.0109887 0.296976 -0.0192986 0.990364 -0.137137
-0.0659183 -0.00862199 0.320644 -0.0361286 0.999229 -0.0153588
0.174736 -0.0127195 0.310039 -0.0361286 -0.999229 0.0153588
-0.141864 -0.02404 0.314366 0.0303318 -0.99944 -0.0140889
0.3292 -0.02484 0.341724 -0.0719991 0.802368 -0.592471
-0.111223 -0.0108387 0.306359 -0.0218451 0.991804 -0.125889
-0.277234 -0.0281218 0.325793 0.0250519 -0.999463 0.0211348
0.281908 -0.0281627 0.305322 0.0303318 0.99944 0.0140889
0.0215457 -0.0263037 0.431371 0.970097 0.177305 0.165754
0.132742 -0.0216422 0.2923 0.0456198 0.989517 0.137021
-0.0568299 0.0535906 0.015605 0 0.99055 -0.137153
0.0197451 -0.0156967 0.202818 0.851415 0.52398 -0.0231658
-0.0172838 -0.0145262 0.159764 -0.861239 0.505164 -0.0554676
0.140615 -0.0165321 0.372549 -0.125398 -0.798108 -0.589321
0.352033 -0.0280456 0.264949 0.0456123 0.991008 0.125785
-0.408674 -0.0234562 0.258569 -0.0218451 0.991804 -0.125889
0.273962 -0.0191541 0.269086 -0.0218451 -0.991804 0.125889
0.0538471 -0.0184389 0.295434 0.0456198 0.989517 0.137021
-0.223842 -0.0155248 0.288982 -0.0218451 0.991804 -0.125889
-0.439904 -0.0225483 0.256857 0.0413002 0.991194 -0.125811
0.0830873 -0.0202516 0.377116 -1.18667e-05 0.98337 -0.181615
0.317802 -0.0269748 0.268926 0.0456123 0.991008 0.125785
-0.00220121 0.0354287 0.0351844 0.987615 0.0769214 0.136747
0.0150768 -0.018386 0.111639 0.980521 0.168125 -0.10155
-0.096558 -0.0193605 0.28787 0.0456198 -0.989517 -0.137021
-0.00292907 -0.0257406 0.372023 0 0 1
-0.292353 -0.0177203 0.335541 -0.0633415 0.984015 0.166442
0.0169381 -0.0161716 0.137922 0.861527 0.505333 -0.0490997
0.388388 -0.0311209 0.314571 0.0218571 0.998868 -0.0422436
-0.366507 -0.0296907 0.325596 0.00203458 -0.985993 0.166777
0.038276 0.0503674 0.00767385 1.01733e-06 0.99055 0.13715
-0.0419884 -0.0184531 0.299485 0.0456198 -0.989517 -0.137021
0.111121 -0.0232274 0.322449 0.0304032 0.99942 0.0153602
-0.00495345 -0.0334541 0.355825 0 0 -1
-0.426837 -0.0214256 0.270784 0.0295078 0.999465 -0.0140892
-0.328573 -0.0296007 0.306718 0.0304032 -0.99942 -0.0153602
-0.12323 0.0486138 0.0416666 -0.0141678 -0.99884 0.0460299
0.317731 -0.0217324 0.256368 -0.0218451 -0.991804 0.125889
-0.033343 -0.00723742 0.334095 -0.0361286 0.999229 -0.0153588
-0.0274155 0.0552739 0.0435873 -0.00738372 0.999854 -0.0153794
0.038753 -0.0195643 0.308587 0.0456198 0.989517 0.137021
0.323932 -0.0180968 0.313288 -0.0418417 -0.998857 -0.0230847
-0.173117 -0.0130241 0.353364 -0.0657756 0.981246 0.181192
-0.337825 -0.0212818 0.263405 -0.0218451 0.991804 -0.125889
-0.429855 -0.030915 0.292494 -0.0541039 -0.998436 -0.0140747
-0.192761 -0.0209874 0.267095 0.0456123 -0.991008 -0.125785
0.00223921 0.00783277 0.0509816 -0.987615 0.0769198 0.136745
-0.450626 -0.0267749 0.247573 -0.0413571 -0.99256 -0.114518
0.148047 -0.0215101 0.28625 0.0456198 0.989517 0.137021
-0.102249 0.0530218 0.0114972 7.17087e-07 0.990549 -0.137156
0.0188239 -0.0140716 0.371182 0.851644 0.524121 0
-0.169115 -0.0250953 0.340682 0.0248093 -0.999425 0.023093
-0.45352 -0.0204544 0.30269 0.0254818 0.999492 0.0191564
0.321872 -0.0236077 0.243192 -0.0192986 -0.990364 0.137137
3.1451e-06 -0.00342934 0.245783 0.211054 0.977474 0
-0.0199008 -0.025088 0.439343 -0.945722 0.171514 0.276033
0.0408671 0.0548103 0.0244135 7.17087e-07 -0.990549 0.137156
-0.00995182 -0.00595689 0.265594 -0.587236 0.809413 -0.00186497
-0.121021 0.0490122 0.0174609 1.01733e-06 -0.99055 -0.13715
-0.0801153 -0.0226054 0.352826 0.0248093 -0.999425 0.023093
-0.189324 -0.0129476 0.330401 -0.0364047 0.999238 -0.014086
0.00249036 -0.0550066 0.408464 0.21105 -0.977475 0
-0.00651397 -0.00867535 0.0691275 -0.889446 0.435841 -0.137576
0.386087 -0.0226036 0.261367 -0.0218451 -0.991804 0.125889
-0.0526159 -0.0215073 0.32633 0.0304032 -0.99942 -0.0153602
-0.00369686 0.00980029 0.0873989 0.997711 -0.0495073 -0.046056
-0.181948 -0.0184163 0.260991 -0.0192986 0.990364 -0.137137
-0.41174 -0.031959 0.302581 -0.0579914 -0.998094 0.0211057
-0.16336 -0.019504 0.26607 0.0456123 -0.991008 -0.125785
0.287496 -0.0281787 0.294425 0.0303318 0.99944 0.0140889
0.11617 -0.0189172 0.278139 0.0456198 0.989517 0.137021
-0.24988 -0.0270116 0.292621 0.0303318 -0.99944 -0.0140889
0.33832 -0.0204822 0.334272 -0.0631599 -0.983979 -0.166722
-0.314162 -0.029204 0.309431 0.0304032 -0.99942 -0.0153602
-0.132985 -0.0108868 0.331061 -0.0361286 0.999229 -0.0153588
0.0112367 -0.00691528 0.320025 -0.0192986 -0.990364 0.137137
0.0125671 -0.0510877 0.344302 0.587237 -0.809415 -0.00060781
0.00134993 -0.031672 0.368123 1 0 0
0.311671 -0.0287857 0.285439 0.0303318 0.99944 0.0140889
-0.035335 -0.0161981 0.285415 0.0456198 -0.989517 -0.137021
-0.00135597 -0.0205336 0.369304 0 1 0
-0.016853 -0.0109752 0.393852 -0.587237 0.809415 0
0.323682 -0.0228608 0.24884 -0.0192986 -0.990364 0.137137
0.139814 -0.0257154 0.348923 0.831716 0.555202 0
0.0234008 -0.0327096 0.304117 0.983629 -0.180206 -0.000135333
-0.0234984 -0.0267453 0.243326 -0.983629 0.180205 0
0.15929 -0.0141774 0.288415 -0.0192986 -0.990364 0.137137
0.0219463 -0.019145 0.377373 0.851644 0.524121 0
0.00999414 -0.033399 0.103437 0.610821 -0.761591 -0.21651
0.0762066 -0.0209394 0.306048 0.0456198 0.989517 0.137021
0.356895 -0.0301639 0.285849 0.0303318 0.99944 0.0140889
-0.0937891 -0.0118383 0.375893 -0.0631599 0.983979 0.166722
-0.0612561 0.0540044 0.0543478 -0.0313059 0.982894 0.181489
0.0145126 -0.0437888 0.458748 0.845427 -0.506452 0.169587
-0.267471 -0.0279409 0.319664 0.0304032 -0.99942 -0.0153602
0.309122 -0.0287188 0.286183 0.0303318 0.99944 0.0140889
0.00379638 0.00981828 0.0716216 -0.999875 -0.00365182 0.0153846
-0.492621 -0.019319 0.284013 0.0289823 0.999498 -0.0128262
-0.182741 -0.0126755 0.334629 -0.0418417 0.998857 0.0230847
0.0158567 -0.0144508 0.136658 0.861527 0.505333 -0.0490997
-0.335265 -0.0202359 0.333976 -0.0631599 0.983979 0.166722
-0.0433505 -0.0195218 0.306749 0.0456198 -0.989517 -0.137021
-0.123638 0.0491392 0.0451232 -0.0313029 -0.982899 0.181467
0.0604475 0.0478755 0.0406137 -0.0073829 0.999854 0.0153875
-0.252527 -0.0271622 0.297604 0.0303318 -0.99944 -0.0140889
-0.00674939 -0.0264957 0.35749 -1 0 0
0.0222579 -0.00683891 0.333947 -0.0361286 -0.999229 0.0153588
0.00743263 -0.00505724 0.155621 0.212035 0.977262 -0.000687131
0.0777108 -0.0226116 0.348514 0.0304032 0.99942 0.0153602
0.366019 -0.0260179 0.243902 0.0456123 0.991008 0.125785
0.359049 -0.0196812 0.291377 -0.0364047 -0.999238 0.014086
-0.259095 -0.0232518 0.352394 -0.0719991 -0.802368 0.592471
-0.210374 -0.0261434 0.315727 0.0304032 -0.99942 -0.0153602
-0.0139208 0.0530206 0.0114884 0 0.99055 -0.137153
-0.379024 -0.030863 0.287799 0.0303318 -0.99944 -0.0140889
0.01385 -0.0501765 0.238732 0.587237 -0.809415 0
0.129392 -0.0223406 0.298459 0.0456198 0.989517 0.137021
0.231005 -0.0149545 0.296988 -0.0361286 -0.999229 0.0153588
-0.373759 -0.0202799 0.286925 -0.0364047 0.999238 -0.014086
-0.377106 -0.0226148 0.25972 -0.0218451 0.991804 -0.125889
0.0222803 -0.0200753 0.269814 0.983629 0.180205 -0.000414538
0.023501 -0.0321608 0.283557 0.983629 -0.180205 0.000414562
0.276473 -0.0162965 0.318069 -0.0364047 -0.999238 0.014086
0.0395258 0.0510576 0.00268911 0 0.990549 0.137157
-0.122784 -0.0234978 0.316958 0.0304032 -0.99942 -0.0153602
0.359616 -0.0222429 0.259615 -0.0218451 -0.991804 0.125889
0.11959 -0.0190389 0.277879 0.0456198 0.989517 0.137021
-0.00870831 -0.0203743 0.372196 0.0213294 -0.998716 0.0459391
-0.000173004 0.0241025 0.0269071 0.987616 0.0769188 0.136745
0.0121416 -0.047008 0.460695 0.817366 -0.546173 0.183326
0.106741 -0.0223365 0.305971 0.0456198 0.989517 0.137021
0.0541314 0.0530234 0.0582956 -0.0887533 -0.801266 -0.591688
0.0236315 0.0552025 0.0371258 -0.00738305 -0.999854 0.0153826
-0.0922655 -0.0229646 0.342672 0.0304032 -0.99942 -0.0153602
0.0578684 -0.00949764 0.37616 -0.0656029 -0.981252 -0.18122
0.00717538 -0.0539627 0.274625 0.211049 -0.977473 0.00224854
0.285734 -0.0249873 0.346678 -0.0664229 0.826352 -0.559224
-0.353279 -0.0300481 0.285415 0.0303318 -0.99944 -0.0140889
0.38706 -0.0302226 0.322702 0.00203458 0.985993 -0.166777
-0.231062 -0.0264679 0.294562 0.0303318 -0.99944 -0.0140889
-0.0375044 -0.00982255 0.302726 -0.0192986 0.990364 -0.137137
0.421825 -0.0314241 0.300164 -0.0579609 0.998136 -0.0191304
0.0543252 -0.0194181 0.381631 -1.18667e-05 0.98337 -0.181615
0.107368 -0.0231869 0.356773 0.0218571 0.998868 -0.0422436
0.193844 -0.0255686 0.310895 0.0303318 0.99944 0.0140889
0.28408 -0.0169401 0.292655 -0.0361286 -0.999229 0.0153588
0.134218 0.0506548 0.00559757 0 0.990549 0.137157
-0.0233391 -0.0330792 0.268513 -0.983629 -0.180205 0.000414562
-0.480461 -0.0196001 0.293954 0.0254818 0.999492 0.0191564
-0.0722701 -0.0151006 0.269502 -0.0192986 0.990364 -0.137137
0.101109 -0.0171772 0.37982 -0.0719991 0.802368 -0.592471
-0.297288 -0.0218936 0.252111 -0.0192986 0.990364 -0.137137
-0.0213347 -0.0408217 0.215903 -0.851644 -0.524121 0
0.1404 -0.0187423 0.268394 0.0456123 0.991008 0.125785
-0.34995 -0.021355 0.264933 -0.0218451 0.991804 -0.125889
-0.0246495 -0.0175478 0.38861 -0.0719991 -0.802368 0.592471
0.140499 -0.0161419 0.271584 -0.0192986 -0.990364 0.137137
-0.00674939 -0.0218211 0.370162 -1 0 0
0.0719275 -0.0199445 0.378779 -1.18667e-05 0.98337 -0.181615
-0.236523 -0.0258501 0.288135 0.0456198 -0.989517 -0.137021
0.228844 -0.0157736 0.28789 -0.0218451 -0.991804 0.125889
-0.0513359 0.0520143 0.00422093 0 0.99055 -0.137153
-0.330281 -0.0185639 0.296289 -0.0364047 0.999238 -0.014086
-0.0141927 -0.0204882 0.372267 0.0213294 -0.998716 0.0459391
0.135267 -0.0112487 0.312884 -0.0361286 -0.999229 0.0153588
-0.0116704 -0.00715975 0.298246 -0.587232 0.809418 0.0006073
0.00246336 -0.0499773 0.473784 0.163353 -0.883993 0.438032
0.0784459 -0.0173456 0.279349 0.0456198 0.989517 0.137021
0.364339 -0.0196966 0.30933 -0.0414973 -0.998915 -0.0211229
0.0982329 -0.0231518 0.343039 0.0304032 0.99942 0.0153602
-0.442554 -0.0294811 0.266064 -0.0458705 -0.990997 -0.125784
0.00931627 0.053197 0.0127624 0 -0.99055 0.137153
-0.0172737 -0.0348388 0.144982 -0.853107 -0.500394 -0.147699
0.142511 -0.0112294 0.344975 -0.0418417 -0.998857 -0.0230847
-0.103338 0.0518809 0.0524618 -0.0887558 0.801256 0.591703
-0.181133 -0.0246274 0.353242 -0.000182377 -0.983375 0.181586
-0.390416 -0.0228505 0.260173 -0.0218451 0.991804 -0.125889
-0.328128 -0.0204184 0.268525 -0.0218451 0.991804 -0.125889
0.000679683 -0.0547807 0.448785 0.216606 -0.976079 0.0187401
-0.0507574 -0.0120889 0.288224 -0.0192986 0.990364 -0.137137
0.00652129 -0.00483672 0.211331 0.211054 0.977474 0
-0.0629773 0.0548586 0.033656 -0.00738305 0.999854 -0.0153826
-0.231385 -0.0266617 0.338776 0.0218571 -0.998868 0.0422436
0.0201924 -0.0162952 0.216024 0.851644 0.524121 0
-0.0561464 0.0487441 0.0193976 1.01733e-06 -0.99055 -0.13715
-0.0014205 -0.0293494 0.355825 0 0 -1
-0.00672834 -0.0171696 0.301956 0.0456198 -0.989517 -0.137021
-0.360046 -0.0219624 0.2619 -0.0218451 0.991804 -0.125889
0.472542 -0.0237831 0.236415 0.0413002 -0.991194 0.125811
-0.00674939 -0.0331283 0.356651 -1 0 0
0.0199781 -0.0174674 0.175236 0.851542 0.52152 -0.0537915
-0.417308 -0.0214175 0.291312 0.0295078 0.999465 -0.0140892
-0.371279 -0.030541 0.281631 0.0303318 -0.99944 -0.0140889
-0.00796935 -0.0143335 0.281061 0.0456198 -0.989517 -0.137021
0.267792 -0.0267679 0.284352 0.0456198 0.989517 0.137021
-0.308203 -0.0184743 0.280383 -0.0218451 0.991804 -0.125889
-0.0217246 -0.00876889 0.308115 -0.0192986 0.990364 -0.137137
0.132073 -0.0237012 0.357148 0.0213294 0.998716 -0.0459391
0.0546765 -0.00791558 0.36079 -0.0418417 -0.998857 -0.0230847
-0.0123883 -0.0371239 0.124146 -0.857381 -0.493898 -0.144787
-0.431578 -0.024389 0.245089 0.0413002 0.991194 -0.125811
-0.0227372 -0.0363212 0.2873 -0.983629 -0.180205 0.000414536
0.0907307 -0.0199293 0.293917 0.0456198 0.989517 0.137021
