-0.000261176 -0.0554597 0.333384 -0.21105 -0.977475 -0.000780475
-0.0823448 -0.00945865 0.31222 -0.0218451 0.991804 -0.125889
0.334688 -0.0191574 0.279598 -0.0218451 -0.991804 0.125889
0.130047 -0.01365 0.288108 -0.0192986 -0.990364 0.137137
0.161921 -0.0121021 0.347841 -0.0414973 -0.998915 -0.0211229
0.0567904 -0.0162957 0.386399 -0.0719991 0.802368 -0.592471
0.0742545 0.0539461 0.0524209 -0.0313059 -0.982894 -0.181489
0.0127026 -0.0376361 0.127726 0.85337 -0.500548 -0.145637
-0.336836 -0.0297071 0.321276 0.0248093 -0.999425 0.023093
0.00619686 -0.0129359 0.39628 -0.125398 -0.798108 -0.589321
-0.00959991 -0.00568034 0.327717 -0.587236 0.809416 0.000647446
0.374024 -0.0306362 0.282473 0.0303318 0.99944 0.0140889
-0.0436735 -0.0209902 0.317246 0.0456198 -0.989517 -0.137021
-0.105451 -0.0228427 0.310056 0.0456198 -0.989517 -0.137021
0.220882 -0.0180224 0.269315 -0.0192986 -0.990364 0.137137
0.0148623 -0.0120516 0.143901 0.861527 0.505333 -0.0490997
0.436964 -0.0209495 0.306502 0.0254818 -0.999492 -0.0191564
0.210497 -0.0261672 0.31703 0.0304032 0.99942 0.0153602
-0.223782 -0.0176162 0.272656 -0.0192986 0.990364 -0.137137
-0.0823857 0.0502782 0.0546558 -0.0887536 -0.801271 0.591682
0.0221213 -0.0193857 0.279568 0.851643 0.524121 -0.00120567
0.249076 -0.0273084 0.314922 0.0304032 0.99942 0.0153602
-0.0159564 -0.0486482 0.211455 -0.58723 -0.80942 0
-0.489855 -0.0193555 0.287424 0.0289823 0.999498 -0.0128262
0.00504874 -0.0483391 0.156061 0.21851 -0.964607 -0.147604
0.0487208 -0.0217984 0.352981 0.0304032 0.99942 0.0153602
-0.0175104 -0.0118927 0.31293 -0.851646 0.524117 0.000391721
0.455451 -0.0209059 0.266063 0.0360133 -0.992765 0.114541
0.191023 -0.0165364 0.275844 -0.0192986 -0.990364 0.137137
-0.410236 -0.0277894 0.327749 -0.0664229 -0.826352 0.559224
-0.307804 -0.0280165 0.280048 0.0456198 -0.989517 -0.137021
0.45784 -0.0292014 0.278126 -0.0538111 0.998469 0.012813
0.132216 -0.0366628 0.345414 -0.195326 -0.980738 0
0.0159679 -0.0205488 0.371773 0.0213294 0.998716 -0.0459391
-0.203839 -0.023061 0.278875 0.0456198 -0.989517 -0.137021
-0.119788 0.0543296 0.0409126 -0.014178 0.998836 0.046115
0.351581 -0.0266889 0.336343 -0.0664229 0.826352 -0.559224
-0.171798 -0.025017 0.318791 0.0304032 -0.99942 -0.0153602
0.0243977 0.0475554 0.0463191 -0.0114207 0.999668 -0.0230771
-0.0936927 0.0482588 0.03166 -0.0073829 -0.999854 -0.0153875
-0.0102679 -0.0527277 0.308532 -0.587237 -0.809415 -0.00060792
-0.445735 -0.0206047 0.289768 0.0289823 0.999498 -0.0128262
-0.117369 0.0512254 0.0014766 0 -0.990549 -0.137157
0.0301893 -0.0207294 0.319944 0.0303318 0.99944 0.0140889
-0.0117474 -0.039644 0.469356 -0.816117 0.162318 0.554622
-0.206645 -0.0261888 0.326058 0.0304032 -0.99942 -0.0153602
0.0181975 -0.0459193 0.252604 0.851644 -0.524121 0
-0.294292 -0.0227152 0.348494 -0.12014 0.822182 0.556402
-0.420465 -0.0220234 0.267378 0.0360133 0.992765 -0.114541
-0.0222204 -0.0211886 0.415847 -0.982062 0.179492 0.0577633
-0.0228336 -0.023062 0.299592 -0.983629 0.180205 0.000135329
0.114099 -0.023357 0.324988 0.0304032 0.99942 0.0153602
0.0399692 0.0478666 0.051079 -0.0141765 0.998836 -0.046115
-0.010846 -0.0315865 0.101714 -0.859712 -0.478708 -0.178141
0.133005 -0.0235126 0.359272 0.00203458 0.985993 -0.166777
-0.235719 -0.01511 0.297965 -0.0361286 0.999229 -0.0153588
-0.453016 -0.0224676 0.318275 -0.0613292 0.826622 0.559406
0.212744 -0.0150471 0.29082 -0.0218451 -0.991804 0.125889
0.350006 -0.0193414 0.29211 -0.0364047 -0.999238 0.014086
0.334179 -0.0185658 0.306227 -0.0364047 -0.999238 0.014086
-0.00287649 -0.0266349 0.372023 0 0 1
0.0531284 -0.0214454 0.369534 0.0213294 0.998716 -0.0459391
0.40188 -0.0317093 0.29863 0.0303318 0.99944 0.0140889
0.492054 -0.0268602 0.263273 -0.0413571 0.99256 0.114518
-0.47629 -0.0281837 0.276307 -0.0538111 -0.998469 -0.012813
-0.278721 -0.0169482 0.336279 -0.0657756 0.981246 0.181192
0.0286107 -0.0070927 0.370578 -0.0452587 -0.99792 -0.0459023
-0.343258 -0.020212 0.330862 -0.0656029 0.981252 0.18122
-0.192924 -0.0131688 0.324009 -0.0364047 0.999238 -0.014086
0.207648 -0.0254975 0.348448 0.00203458 0.985993 -0.166777
-0.278684 -0.0251092 0.268412 0.0456123 -0.991008 -0.125785
-0.0697494 -0.00866903 0.364286 -0.0452587 0.99792 0.0459023
-0.117858 -0.0103485 0.330498 -0.0361286 0.999229 -0.0153588
-0.0591446 0.0481161 0.0243546 -0.00738252 -0.999854 -0.0153792
0.0933991 -0.0166173 0.268696 0.0456123 0.991008 0.125785
-0.319853 -0.0180999 0.302248 -0.0364047 0.999238 -0.014086
0.161524 -0.0246405 0.314625 0.0304032 0.99942 0.0153602
-0.299202 -0.0242744 0.254395 0.0456123 -0.991008 -0.125785
0.265896 -0.0263665 0.282085 0.0456198 0.989517 0.137021
0.0540279 0.0548857 0.0311226 -0.00738305 -0.999854 0.0153826
-0.37032 -0.030476 0.279084 0.0303318 -0.99944 -0.0140889
0.00372939 -0.016269 0.29645 0.0456198 0.989517 0.137021
-0.0273321 0.0516858 0.0018481 0 0.99055 -0.137153
-0.0180978 -0.0128909 0.369365 -0.851644 0.524121 0.000393622
0.104967 -0.00989761 0.329507 -0.0361286 -0.999229 0.0153588
0.298637 -0.0287669 0.311722 0.0304032 0.99942 0.0153602
-0.386416 -0.0305679 0.320652 0.00203458 -0.985993 0.166777
-0.0396592 -0.00730951 0.344263 -0.0361286 0.999229 -0.0153588
0.441234 -0.0244792 0.241208 0.0413002 -0.991194 0.125811
-0.366166 -0.0268825 0.25066 0.0456123 -0.991008 -0.125785
-0.0598363 -0.0124142 0.287153 -0.0192986 0.990364 -0.137137
-0.453441 -0.0294331 0.277705 -0.0538111 -0.998469 -0.012813
-0.125394 -0.011967 0.365065 -0.0633415 0.984015 0.166442
-0.0187657 -0.044992 0.365001 -0.851644 -0.524121 -0.000393649
-0.0160767 -0.0434179 0.451881 -0.850839 -0.509694 0.127616
-0.492236 -0.0203734 0.259112 0.0360133 0.992765 -0.114541
-0.28507 -0.0168848 0.298583 -0.0361286 0.999229 -0.0153588
-0.000407313 -0.00351661 0.25818 -0.211057 0.977474 0
0.215107 -0.0260103 0.296453 0.0303318 0.99944 0.0140889
-0.425253 -0.0211239 0.295591 0.0289823 0.999498 -0.0128262
-0.0151307 -0.032013 0.123055 -0.851847 -0.49071 -0.183196
0.0099948 -0.0515653 0.444416 0.5901 -0.80504 0.0607627
-0.095842 -0.00938156 0.341769 -0.0364047 0.999238 -0.014086
0.265348 -0.0207568 0.35185 -0.12014 -0.822182 -0.556402
-0.44134 -0.0282701 0.25608 -0.0458705 -0.990997 -0.125784
-0.478541 -0.0199781 0.305404 0.00455759 0.985984 0.166775
-0.342522 -0.0296725 0.281933 0.0303318 -0.99944 -0.0140889
-0.0962025 -0.0118672 0.29622 -0.0192986 0.990364 -0.137137
0.00859632 -0.0139306 0.0734245 0.966973 0.154016 -0.203084
-0.135895 -0.0246341 0.383601 0.555546 0.831486 0
0.0842605 -0.0198961 0.378132 -0.0664229 0.826352 -0.559224
-0.333686 -0.0192898 0.278381 -0.0218451 0.991804 -0.125889
-0.201754 -0.025908 0.340574 0.0248093 -0.999425 0.023093
-0.189795 -0.0153351 0.284568 -0.0218451 0.991804 -0.125889
0.0228923 -0.0355118 0.338276 0.983629 -0.180205 -0.000143886
-0.0027536 0.0164585 0.0881837 0.971876 -0.152517 -0.17943
0.10109 -0.0221684 0.306638 0.0456198 0.989517 0.137021
0.304313 -0.0275191 0.337527 0.00222138 0.985948 -0.167035
0.102011 -0.018921 0.377349 -0.0719991 0.802368 -0.592471
0.307962 -0.0179102 0.28572 -0.0361286 -0.999229 0.0153588
-0.0655013 0.0480054 0.0345989 -0.0073829 -0.999854 -0.0153875
-0.0231825 -0.0249721 0.281817 -0.983629 0.180205 -0.000414536
0.0167351 -0.0480764 0.361024 0.587237 -0.809415 -0.00060781
0.113045 0.0517782 0.00251532 0 -0.99055 0.137153
0.231851 -0.0265879 0.301376 0.0303318 0.99944 0.0140889
-0.246884 -0.0154775 0.300318 -0.0361286 0.999229 -0.0153588
0.00247325 -0.0550103 0.238033 0.21105 -0.977475 0
0.0107923 -0.0522902 0.421501 0.588151 -0.80871 0.00818482
-0.0159904 0.0527628 0.0643698 -0.0887533 0.801266 0.591688
-0.0209887 -0.00923669 0.388118 -0.0631599 0.983979 0.166722
-0.246429 -0.0191985 0.264417 -0.0192986 0.990364 -0.137137
-0.145117 -0.0114007 0.326162 -0.0361286 0.999229 -0.0153588
-0.0366653 -0.0210614 0.37024 0.0213294 -0.998716 0.0459391
-0.00528452 -0.00451711 0.302028 -0.211053 0.977474 0.000733397
0.414327 -0.0244661 0.32547 -0.0613292 -0.826622 -0.559406
0.0334091 0.0481226 0.0238865 1.01733e-06 0.99055 0.13715
-0.241401 -0.0264268 0.290676 0.0456198 -0.989517 -0.137021
0.19688 -0.013466 0.343225 -0.0452587 -0.99792 -0.0459023
-0.392583 -0.0208664 0.293971 -0.0364047 0.999238 -0.014086
-0.00229298 -0.00573969 0.361588 -0.0418417 0.998857 0.0230847
-0.356578 -0.0195267 0.316541 -0.0414973 0.998915 0.0211229
-0.0183893 -0.0184182 0.148808 -0.981915 0.171414 -0.0803753
0.288029 -0.0176776 0.28316 -0.0218451 -0.991804 0.125889
-0.299047 -0.017291 0.305863 -0.0364047 0.999238 -0.014086
0.230607 -0.0173688 0.354533 -0.125398 -0.798108 -0.589321
0.203611 -0.0139355 0.298845 -0.0361286 -0.999229 0.0153588
-0.0735133 -0.0145548 0.273619 -0.0192986 0.990364 -0.137137
0.0237052 -0.0278741 0.23912 0.983629 0.180205 0
0.0447609 -0.00748244 0.360021 -0.0418417 -0.998857 -0.0230847
0.0777341 -0.0177407 0.282439 0.0456198 0.989517 0.137021
0.142409 -0.0134611 0.291212 -0.0192986 -0.990364 0.137137
-0.127738 -0.0136146 0.288039 -0.0192986 0.990364 -0.137137
-0.014875 -0.0493981 0.325214 -0.587237 -0.809415 -0.000646287
-0.154576 -0.0244397 0.351541 0.0213294 -0.998716 0.0459391
0.157784 -0.0146886 0.284511 -0.0192986 -0.990364 0.137137
-0.0190743 -0.0144784 0.247685 -0.851644 0.524121 0
0.284506 -0.0166922 0.324084 -0.0414973 -0.998915 -0.0211229
0.0953224 -0.0230507 0.342222 0.0304032 0.99942 0.0153602
-0.00851901 -0.0202592 0.332409 0.0304032 -0.99942 -0.0153602
0.432002 -0.0210851 0.284118 0.0295078 -0.999465 0.0140892
0.0334777 0.0516548 0.0016245 0 -0.99055 0.137153
-0.00540616 -0.0543542 0.270486 -0.211052 -0.977472 0.00224854
0.413369 -0.0218857 0.270802 0.0360133 -0.992765 0.114541
0.00526766 0.0474398 0.0507778 -0.0114207 0.999668 -0.0230771
-0.0297693 -0.013828 0.272711 -0.0192986 0.990364 -0.137137
-0.369642 -0.0213452 0.3275 -0.0631599 0.983979 0.166722
0.0324128 -0.0125567 0.390189 -0.125398 -0.798108 -0.589321
0.459516 -0.0273375 0.255361 -0.0458705 0.990997 0.125784
0.12891 -0.0214902 0.370407 -1.18667e-05 0.98337 -0.181615
0.389436 -0.0311686 0.287064 0.0303318 0.99944 0.0140889
0.481057 -0.0244325 0.23826 -0.0413571 0.99256 0.114518
0.171782 -0.0211642 0.27585 0.0456198 0.989517 0.137021
0.0121131 0.0492514 0.0157338 1.01733e-06 0.99055 0.13715
0.33576 -0.0295576 0.288338 0.0303318 0.99944 0.0140889
-0.264476 -0.017926 0.34716 -0.0631599 0.983979 0.166722
-0.00669618 -0.00557201 0.104394 -0.612444 0.790215 -0.0217496
-0.106299 -0.0109692 0.304476 -0.0218451 0.991804 -0.125889
0.13493 -0.0108578 0.338071 -0.0364047 -0.999238 0.014086
0.0603959 -0.0216896 0.322797 0.0304032 0.99942 0.0153602
-0.316151 -0.0206735 0.264437 -0.0218451 0.991804 -0.125889
0.359398 -0.0304023 0.315341 0.0250519 0.999463 -0.0211348
-0.226353 -0.0166524 0.354086 -0.0631599 0.983979 0.166722
-0.0324898 0.0514901 0.0636183 -0.0887558 0.801256 0.591703
0.00942746 -0.0332329 0.101254 0.610821 -0.761591 -0.21651
-0.0222631 -0.0389703 0.378363 -0.983629 -0.180205 0
0.017106 -0.0476393 0.283856 0.851643 -0.524121 0.00120567
0.421402 -0.0313632 0.291796 -0.0541039 0.998436 0.0140747
0.0608971 -0.0219939 0.341604 0.0304032 0.99942 0.0153602
0.10773 0.0490609 0.0171089 1.01733e-06 0.99055 0.13715
0.245921 -0.0240328 0.271813 0.0456123 0.991008 0.125785
0.0136678 -0.042225 0.464005 0.952197 -0.189384 0.239698
0.00558108 0.0554788 0.0480778 -0.0114185 -0.999669 -0.0230624
0.0039829 0.0534757 0.0652054 -0.0887533 -0.801266 -0.591688
0.385339 -0.0305258 0.320888 0.00203458 0.985993 -0.166777
-0.00344671 0.0371343 0.0617971 0.999222 -0.0319927 -0.0230576
0.0245066 -0.00769086 0.316291 -0.0192986 -0.990364 0.137137
-0.379019 -0.0263288 0.241638 0.0456123 -0.991008 -0.125785
0.436779 -0.0298396 0.266782 -0.0458705 0.990997 0.125784
-0.137454 -0.0238677 0.364206 0.194822 0.980839 0
0.40478 -0.0309374 0.318692 0.00203458 0.985993 -0.166777
0.08111 0.0488728 0.018468 1.01733e-06 0.99055 0.13715
-0.103998 -0.0143348 0.279498 -0.0192986 0.990364 -0.137137
0.167826 -0.0145958 0.36412 -0.0631599 -0.983979 -0.166722
-0.168384 -0.0250647 0.341221 0.0248093 -0.999425 0.023093
-0.0418679 0.0541084 0.0193449 7.17087e-07 0.990549 -0.137156
0.397348 -0.0210433 0.293734 -0.0364047 -0.999238 0.014086
-0.379383 -0.0205311 0.283642 -0.0364047 0.999238 -0.014086
-0.253243 -0.025349 0.27895 0.0456198 -0.989517 -0.137021
-0.0922038 -0.0207917 0.374191 -1.18667e-05 -0.98337 0.181615
-0.0217194 -0.0401966 0.227577 -0.851644 -0.524121 0
-0.139871 -0.0235383 0.330731 -0.194894 0.980824 0
-0.108229 0.0545453 0.0350148 -0.00738372 0.999854 -0.0153794
0.459793 -0.0216921 0.315337 0.00847243 -0.988317 -0.152175
-0.258692 -0.0166504 0.286162 -0.0218451 0.991804 -0.125889
-0.0413239 -0.0172673 0.291143 0.0456198 -0.989517 -0.137021
-0.168808 -0.0160453 0.276265 -0.0192986 0.990364 -0.137137
0.257884 -0.0218005 0.249887 0.0456123 0.991008 0.125785
-0.0138904 -0.00880058 0.271585 -0.587229 0.809418 -0.00186198
-0.484313 -0.0278648 0.29655 -0.0579609 -0.998136 0.0191304
0.198443 -0.0245609 0.291503 0.0456198 0.989517 0.137021
0.0925516 -0.00962381 0.318116 -0.0361286 -0.999229 0.0153588
-0.023399 -0.0327472 0.33959 -0.983629 -0.180205 -0.000143886
-0.401362 -0.0315347 0.287357 0.0303318 -0.99944 -0.0140889
0.278674 -0.0281616 0.311846 0.0304032 0.99942 0.0153602
0.195392 -0.0256803 0.315248 0.0304032 0.99942 0.0153602
-0.0203935 -0.0423015 0.282093 -0.851643 -0.524121 0.00120574
0.0514177 0.051203 0.00163859 0 0.990549 0.137157
0.193833 -0.0254377 0.34807 0.0213294 0.998716 -0.0459391
-0.462247 -0.0263385 0.247987 -0.0413571 -0.99256 -0.114518
0.319418 -0.0206343 0.265313 -0.0218451 -0.991804 0.125889
-0.0793064 -0.0222596 0.32245 0.0304032 -0.99942 -0.0153602
-0.347125 -0.0223683 0.256459 -0.0218451 0.991804 -0.125889
0.122789 0.0544079 0.0330717 -0.00738372 -0.999854 0.0153794
0.231975 -0.0153916 0.291443 -0.0218451 -0.991804 0.125889
0.00312594 0.0188117 0.0512101 -0.987615 0.0769198 0.136745
-0.138216 -0.0240733 0.351716 0.0248093 -0.999425 0.023093
-0.464383 -0.0287803 0.305803 -0.0605745 -0.997272 0.0421761
0.421873 -0.0311271 0.276856 -0.0541039 0.998436 0.0140747
-0.45676 -0.0206528 0.267845 0.0360133 0.992765 -0.114541
-0.260388 -0.0157927 0.328933 -0.0414973 0.998915 0.0211229
0.0295202 -0.0174687 0.296527 0.0456198 0.989517 0.137021
-0.00529406 -0.00518065 0.0863694 -0.625216 0.779551 -0.0374798
-0.0112264 -0.007141 0.181653 -0.589025 0.808065 -0.00898557
0.015606 -0.0100525 0.346374 0.587236 0.809416 0.000607303
-0.085274 -0.0228277 0.347601 0.0304032 -0.99942 -0.0153602
0.0131501 -0.00828876 0.242297 0.587237 0.809415 0
0.480435 -0.0262413 0.253713 -0.0413571 0.99256 0.114518
-0.119061 -0.0237365 0.345685 0.0250519 -0.999463 0.0211348
-0.297696 -0.0178613 0.28339 -0.0218451 0.991804 -0.125889
0.416155 -0.0213474 0.300446 0.0250194 -0.999464 -0.0211345
-0.0234037 -0.0262221 0.263391 -0.983629 0.180205 -0.000414538
-0.00298841 -0.00405253 0.166034 -0.212034 0.97726 0.00195496
-0.210624 -0.0147862 0.349297 -0.0633415 0.984015 0.166442
0.424905 -0.0215487 0.313223 0.00455759 -0.985984 -0.166775
-0.0688648 -0.00864548 0.326047 -0.0361286 0.999229 -0.0153588
0.0130435 -0.0507286 0.327252 0.587237 -0.809415 -0.000646285
0.0170815 -0.0104391 0.2954 -0.0192986 -0.990364 0.137137
0.00186023 -0.00251858 0.0540671 -0.987615 0.0769198 0.136745
0.238407 -0.0152306 0.340779 -0.0446446 -0.998111 -0.0422118
-0.201947 -0.0161705 0.359009 -0.125398 0.798108 0.589321
0.130632 -0.0239867 0.333234 0.0304032 0.99942 0.0153602
0.00134993 -0.0214011 0.363756 1 0 0
0.272532 -0.0264233 0.343572 0.00222138 0.985948 -0.167035
-0.00851687 -0.0166544 0.450317 -0.549448 0.737296 0.393067
-0.124934 0.0488924 0.0183257 1.01733e-06 -0.99055 -0.13715
0.00300909 -0.00409687 0.136555 0.224877 0.974385 -0.0019492
-0.300473 -0.017438 0.327435 -0.0452587 0.99792 0.0459023
0.396711 -0.0298722 0.263138 0.0456123 0.991008 0.125785
-0.418918 -0.0220528 0.316039 0.00455759 0.985984 0.166775
0.347467 -0.0192994 0.321642 -0.0446446 -0.998111 -0.0422118
-0.00509676 -0.0518479 0.179813 -0.211028 -0.972629 -0.0972592
0.429106 -0.0242832 0.246734 0.0413002 -0.991194 0.125811
0.218915 -0.0141256 0.323311 -0.0364047 -0.999238 0.014086
-0.00273618 -0.00401946 0.221554 -0.211057 0.977474 0
0.0222634 -0.0208375 0.342832 0.0304032 0.99942 0.0153602
-0.020379 -0.00662375 0.343525 -0.0361286 0.999229 -0.0153588
-0.275497 -0.0279198 0.301897 0.0303318 -0.99944 -0.0140889
-0.0106879 0.0474422 0.0448966 -0.0073829 -0.999854 -0.0153875
-0.0136392 0.0547965 0.0243145 0 0.99055 -0.137153
-0.434958 -0.0303093 0.269818 -0.0458705 -0.990997 -0.125784
0.146157 -0.0238306 0.303637 0.0456198 0.989517 0.137021
-0.328602 -0.0293617 0.289854 0.0303318 -0.99944 -0.0140889
0.199952 -0.0133253 0.331075 -0.0364047 -0.999238 0.014086
0.0222214 -0.0391979 0.214565 0.983629 -0.180205 0
-0.354222 -0.0304041 0.309122 0.0250519 -0.999463 0.0211348
-0.0677502 0.0516663 0.00170702 0 0.99055 -0.137153
0.230832 -0.0227641 0.267288 0.0456123 0.991008 0.125785
0.0086569 -0.0188478 0.313433 0.0456198 0.989517 0.137021
-0.298215 -0.0286048 0.327409 0.0218571 -0.998868 0.0422436
0.269381 -0.0276338 0.294773 0.0303318 0.99944 0.0140889
0.222507 -0.0262687 0.343317 0.0213294 0.998716 -0.0459391
-0.40438 -0.0312209 0.317011 0.00203458 -0.985993 0.166777
-0.160447 -0.0225195 0.364831 -1.18667e-05 -0.98337 0.181615
0.277504 -0.0164476 0.310015 -0.0364047 -0.999238 0.014086
-0.0890895 -0.0224445 0.314804 0.0303318 -0.99944 -0.0140889
0.483844 -0.019808 0.304543 0.00455759 -0.985984 -0.166775
-0.0948432 0.0533557 0.0139087 7.17087e-07 0.990549 -0.137156
-0.00364063 -0.0547582 0.206861 -0.211053 -0.977475 0
0.00671908 -0.00583384 0.0969238 0.625497 0.779903 -0.0224757
0.0232314 0.0550735 0.0285507 -0.00738305 -0.999854 0.0153826
0.014622 -0.00935663 0.221142 0.587237 0.809415 0
0.322583 -0.0295001 0.312031 0.0304032 0.99942 0.0153602
-0.143433 -0.0113727 0.349672 -0.0414973 0.998915 0.0211229
-0.144295 -0.0219347 0.290566 0.0456198 -0.989517 -0.137021
0.333396 -0.0258459 0.339748 -0.0664229 0.826352 -0.559224
0.0038919 0.0083606 0.0824289 -0.999222 -0.0319952 -0.0230608
0.180643 -0.0182008 0.366363 -0.12014 -0.822182 -0.556402
-0.0203531 -0.0291106 0.159895 -0.977663 -0.178276 -0.111319
0.18563 -0.0131852 0.305361 -0.0361286 -0.999229 0.0153588
0.370419 -0.0232447 0.253597 -0.0218451 -0.991804 0.125889
0.0810024 -0.0089309 0.357006 -0.0418417 -0.998857 -0.0230847
-0.0662663 0.0480032 0.0449955 -0.0114207 -0.999668 0.0230771
0.12821 0.0522711 0.0482027 -0.0887558 -0.801256 -0.591703
-0.00668746 -0.0087494 0.390506 -0.125398 0.798108 0.589321
-0.436023 -0.0210305 0.307941 0.0223856 0.998857 0.0422435
0.091254 -0.0108088 0.303168 -0.0192986 -0.990364 0.137137
0.162509 -0.0250067 0.337119 0.0250519 0.999463 -0.0211348
-0.390087 -0.0221464 0.265663 -0.0218451 0.991804 -0.125889
0.100089 0.0545704 0.0327386 -0.00738372 -0.999854 0.0153794
0.0524483 -0.0192741 0.301932 0.0456198 0.989517 0.137021
0.073049 -0.00855963 0.341474 -0.0361286 -0.999229 0.0153588
0.00619329 0.0509908 0.0031716 1.01733e-06 0.99055 0.13715
0.344404 -0.0227435 0.253031 -0.0218451 -0.991804 0.125889
0.039075 -0.00734167 0.340796 -0.0361286 -0.999229 0.0153588
0.141084 -0.027618 0.388792 0.831716 0.555202 0
0.118287 -0.0203831 0.28802 0.0456198 0.989517 0.137021
0.470214 -0.0286499 0.298305 -0.0579609 0.998136 -0.0191304
0.0167381 -0.0208323 0.361475 0.0248093 0.999425 -0.023093
0.2357 -0.0149601 0.307667 -0.0361286 -0.999229 0.0153588
-0.018561 -0.0453286 0.403143 -0.851644 -0.524121 0
-0.00622416 -0.00477259 0.210162 -0.211057 0.977474 0
-0.339097 -0.0250197 0.340278 -0.0719991 -0.802368 0.592471
-0.266764 -0.0199166 0.262092 -0.0192986 0.990364 -0.137137
0.36279 -0.0199227 0.283912 -0.0364047 -0.999238 0.014086
0.0721113 -0.0221075 0.326795 0.0304032 0.99942 0.0153602
0.455108 -0.0294942 0.288778 -0.0541039 0.998436 0.0140747
-0.370942 -0.0308669 0.30524 0.0304032 -0.99942 -0.0153602
0.351142 -0.030154 0.297531 0.0303318 0.99944 0.0140889
-0.0181434 -0.0240651 0.133929 -0.982333 0.168436 -0.081558
0.081268 0.0514906 0.000438113 0 -0.99055 0.137153
0.360159 -0.0206814 0.327243 -0.0633415 -0.984015 -0.166442
0.0237167 -0.0279368 0.388273 0.983629 0.180205 0
0.183886 -0.0131621 0.349532 -0.0446446 -0.998111 -0.0422118
-0.454867 -0.0204784 0.304874 0.0223856 0.998857 0.0422435
0.218125 -0.0240286 0.281107 0.0456198 0.989517 0.137021
0.127696 -0.019033 0.275137 0.0456198 0.989517 0.137021
-0.0386651 -0.0116293 0.387602 -0.125398 0.798108 0.589321
0.493061 -0.0225743 0.314299 -0.0517962 -0.850514 -0.523395
-0.192099 -0.0247887 0.295261 0.0456198 -0.989517 -0.137021
0.0148931 -0.0494197 0.408123 0.587237 -0.809415 0
0.00411675 -0.00431754 0.376847 0.211054 0.977474 0
0.0150134 -0.0493324 0.241439 0.587237 -0.809415 0
0.0550121 -0.00822658 0.369198 -0.0452587 -0.99792 -0.0459023
0.00916071 -0.0525498 0.196374 0.58492 -0.806221 -0.0887486
-0.03591 -0.0188514 0.304385 0.0456198 -0.989517 -0.137021
-0.380642 -0.0210109 0.321395 -0.0633415 0.984015 0.166442
0.111914 -0.023063 0.309539 0.0303318 0.99944 0.0140889
-0.0213295 -0.0181086 0.325799 -0.851646 0.524117 0.000418486
0.0100901 -0.00625889 0.187282 0.589029 0.80807 -0.00820025
0.0571895 -0.0093241 0.309096 -0.0192986 -0.990364 0.137137
-0.267952 -0.0263131 0.281014 0.0456198 -0.989517 -0.137021
-0.139742 -0.0371049 0.335779 -0.194466 -0.976041 -0.0976038
0.012513 -0.0157391 0.0929239 0.973415 0.161352 -0.162571
0.0845419 0.0481765 0.0326186 -0.0073829 0.999854 0.0153875
-0.0156862 -0.0487179 0.423009 -0.588147 -0.808704 0.00899362
-0.235325 -0.0147021 0.324826 -0.0364047 0.999238 -0.014086
0.0121715 -0.00907654 0.425 0.585713 0.805571 0.0894223
0.151018 -0.0221713 0.290036 0.0456198 0.989517 0.137021
-0.199708 -0.0136097 0.310861 -0.0361286 0.999229 -0.0153588
-0.209911 -0.0175205 0.271396 -0.0192986 0.990364 -0.137137
-0.000195992 -0.00344354 0.272505 -0.211053 0.977472 -0.00224823
-0.477808 -0.0257218 0.248261 -0.0413571 -0.99256 -0.114518
0.228154 -0.0204334 0.252927 -0.0192986 -0.990364 0.137137
-0.125176 -0.0107947 0.318684 -0.0361286 0.999229 -0.0153588
-0.269388 -0.0280047 0.320024 0.0304032 -0.99942 -0.0153602
0.433623 -0.0227698 0.257174 0.0413002 -0.991194 0.125811
-0.04515 -0.00771547 0.330767 -0.0361286 0.999229 -0.0153588
0.301901 -0.0270119 0.274759 0.0456198 0.989517 0.137021
-0.0621643 -0.00954325 0.374799 -0.0633415 0.984015 0.166442
-0.086375 -0.0106887 0.37229 -0.0656029 0.981252 0.18122
0.00467344 -0.0506922 0.170989 0.209791 -0.966928 -0.145041
-0.238845 -0.0168035 0.350245 -0.0631599 0.983979 0.166722
-0.00440266 -0.0510506 0.469283 -0.174781 -0.945837 0.273578
-0.127412 -0.0236101 0.314984 0.0303318 -0.99944 -0.0140889
-0.191456 -0.0197889 0.258127 0.0456123 -0.991008 -0.125785
-0.318574 -0.0291485 0.296318 0.0303318 -0.99944 -0.0140889
0.019677 -0.0252068 0.440191 0.946134 0.171589 0.274567
-0.351505 -0.0193896 0.292565 -0.0364047 0.999238 -0.014086
0.382523 -0.0258189 0.23635 0.0456123 0.991008 0.125785
0.295956 -0.0210676 0.257888 -0.0192986 -0.990364 0.137137
0.382537 -0.0249373 0.332723 -0.12014 -0.822182 -0.556402
0.112727 -0.0101455 0.352061 -0.0418417 -0.998857 -0.0230847
-0.0224711 -0.0378214 0.351903 -0.983629 -0.180205 -0.000135345
0.161934 -0.0245094 0.353441 0.0213294 0.998716 -0.0459391
-0.000889383 -0.0553523 0.3757 -0.21105 -0.977475 0
-0.336262 -0.0276727 0.26773 0.0456123 -0.991008 -0.125785
-0.32408 -0.0236775 0.242998 -0.0192986 0.990364 -0.137137
0.0899405 -0.0193567 0.290045 0.0456198 0.989517 0.137021
-0.0101722 -0.0528446 0.25825 -0.58723 -0.80942 0
0.225517 -0.0164098 0.2823 -0.0218451 -0.991804 0.125889
-0.099867 0.0508518 0.00417478 0 -0.990549 -0.137157
-0.020027 -0.0380621 0.174623 -0.845301 -0.517705 -0.13209
-0.00387665 0.00390629 0.0892694 0.999222 -0.0319955 -0.0230608
-0.419068 -0.0303178 0.264091 -0.0458705 -0.990997 -0.125784
-0.196164 -0.0175814 0.269022 -0.0192986 0.990364 -0.137137
-0.355954 -0.030231 0.292629 0.0303318 -0.99944 -0.0140889
0.0667484 -0.0213396 0.371161 -0.000182377 0.983375 -0.181586
-0.0233355 0.0533869 0.0141336 0 0.99055 -0.137153
-0.141965 -0.0182084 0.263621 0.0456123 -0.991008 -0.125785
-0.440531 -0.0303578 0.29401 -0.0541039 -0.998436 -0.0140747
0.429632 -0.0215995 0.268169 0.0360133 -0.992765 0.114541
0.0766647 0.0481231 0.0450468 -0.0114207 0.999668 -0.0230771
0.371591 -0.0308015 0.29944 0.0303318 0.99944 0.0140889
-0.290072 -0.027163 0.279788 0.0456198 -0.989517 -0.137021
0.0131363 -0.0506943 0.373376 0.587237 -0.809415 0
-0.0951408 -0.0166848 0.268596 0.0456123 -0.991008 -0.125785
0.0517059 -0.0170349 0.286008 0.0456198 0.989517 0.137021
0.487155 -0.0193967 0.29031 0.0289823 -0.999498 0.0128262
0.020432 -0.017214 0.415148 0.84927 0.52266 0.074612
0.133268 0.0525465 0.00806445 7.17087e-07 -0.990549 0.137156
-0.0214523 -0.0183424 0.209423 -0.851644 0.524121 0
-0.237991 -0.023449 0.270088 0.0456123 -0.991008 -0.125785
-0.165318 -0.0124504 0.305393 -0.0361286 0.999229 -0.0153588
-0.00321257 0.0553796 0.0388355 -0.00738305 0.999854 -0.0153826
0.121553 -0.0106181 0.321647 -0.0361286 -0.999229 0.0153588
-0.447227 -0.0215606 0.262974 0.0360133 0.992765 -0.114541
-0.00200187 -0.0340428 0.0914775 -0.216056 -0.905619 -0.36493
-0.457405 -0.0242128 0.237998 0.0413002 0.991194 -0.125811
0.0454411 -0.0148521 0.272179 0.0456123 0.991008 0.125785
0.279789 -0.0226749 0.248832 0.0456123 0.991008 0.125785
0.000948242 -0.0553215 0.346233 0.21105 -0.977475 -0.000734011
0.141283 -0.0299281 0.328583 0.979967 0.195255 -0.0392545
0.444774 -0.0295582 0.311554 -0.0754182 0.985579 -0.151478
0.0235321 -0.0320437 0.258404 0.983629 -0.180205 0
0.0618748 0.0479337 0.0375184 -0.0073829 0.999854 0.0153875
0.341636 -0.0296385 0.325369 0.0213294 0.998716 -0.0459391
-0.0171805 -0.0117827 0.28571 -0.0192986 0.990364 -0.137137
0.0235907 -0.0316705 0.300955 0.983629 -0.180206 -0.000135333
0.414883 -0.0287876 0.250508 -0.0458705 0.990997 0.125784
-0.00380561 -0.0547226 0.417525 -0.21105 -0.977475 0
-8.56314e-05 0.0269663 0.0246652 0.987616 0.0769188 0.136745
-0.0048743 -0.00541821 0.420785 -0.210529 0.972736 0.0972708
-0.145274 -0.0147072 0.282617 -0.0192986 0.990364 -0.137137
0.0231001 -0.028276 0.422926 0.982045 0.179489 0.0580724
0.379898 -0.0205774 0.281688 -0.0364047 -0.999238 0.014086
-0.46013 -0.0292915 0.295382 -0.0579609 -0.998136 0.0191304
-0.0206101 -0.0169739 0.403664 -0.851644 0.524121 0
0.140946 -0.0135509 0.368136 -0.0631599 -0.983979 -0.166722
-0.0799993 -0.012938 0.286207 -0.0192986 0.990364 -0.137137
-0.212754 -0.0141697 0.305116 -0.0361286 0.999229 -0.0153588
-0.300556 -0.0273051 0.33874 0.00222138 -0.985948 0.167035
-0.091689 -0.00943229 0.328547 -0.0361286 0.999229 -0.0153588
0.0645384 0.0520097 0.0581073 -0.0887558 -0.801256 -0.591703
0.153445 -0.0163955 0.271574 -0.0192986 -0.990364 0.137137
-0.416812 -0.0280808 0.245643 -0.0458705 -0.990997 -0.125784
0.194585 -0.0205002 0.262595 0.0456123 0.991008 0.125785
-0.435787 -0.0245057 0.242787 0.0413002 0.991194 -0.125811
-0.0886066 0.0482838 0.0451633 -0.0141678 -0.99884 0.0460299
0.168077 -0.0128877 0.300082 -0.0218451 -0.991804 0.125889
-0.116072 -0.0227286 0.305696 0.0456198 -0.989517 -0.137021
-0.335685 -0.0187901 0.322112 -0.0452587 0.99792 0.0459023
0.270385 -0.0280431 0.320546 0.0304032 0.99942 0.0153602
0.00876196 -0.0535928 0.292519 0.21105 -0.977475 -0.000734144
-0.00702866 -0.0465645 0.148223 -0.216802 -0.957069 -0.192394
0.0473981 0.0513637 0.0613739 -0.088756 0.801255 -0.591704
0.168551 -0.0250125 0.324923 0.0304032 0.99942 0.0153602
-0.0136834 -0.0165679 0.295295 0.0456198 -0.989517 -0.137021
0.124576 -0.0135874 0.371974 -0.125398 -0.798108 -0.589321
0.386377 -0.0302054 0.269511 0.0456123 0.991008 0.125785
0.346267 -0.0198125 0.276446 -0.0218451 -0.991804 0.125889
0.07095 -0.0201561 0.302141 0.0456198 0.989517 0.137021
-0.226852 -0.0147108 0.340734 -0.0452587 0.99792 0.0459023
-0.0143012 -0.0498492 0.377562 -0.587237 -0.809415 0
0.0440767 0.0478924 0.0316603 -0.0073829 0.999854 0.0153875
0.329549 -0.0283104 0.274931 0.0456198 0.989517 0.137021
0.00639438 -0.00475257 0.296467 0.211054 0.977474 0.00073339
-0.215175 -0.0260658 0.344325 0.0213294 -0.998716 0.0459391
0.0112172 -0.0520866 0.226329 0.587237 -0.809415 0
-0.0226469 -0.0368754 0.248861 -0.983629 -0.180205 0
0.00725833 -0.0222071 0.459176 0.502732 0.674609 0.540522
-0.224241 -0.0144756 0.312249 -0.0364047 0.999238 -0.014086
0.0829691 -0.0223216 0.319238 0.0304032 0.99942 0.0153602
0.0173621 0.0553874 0.0461377 -0.00738372 -0.999854 0.0153794
0.227625 -0.014587 0.336276 -0.0414973 -0.998915 -0.0211229
-0.17344 -0.0248292 0.302369 0.0303318 -0.99944 -0.0140889
0.0485178 -0.00778279 0.33431 -0.0361286 -0.999229 0.0153588
-0.106848 -0.0227333 0.36356 0.00203458 -0.985993 0.166777
-0.405855 -0.0215506 0.279734 -0.0364047 0.999238 -0.014086
-0.218114 -0.0264332 0.319262 0.0304032 -0.99942 -0.0153602
-0.0188722 -0.0297442 0.44576 -0.945722 0.171514 0.276033
0.00201267 0.0471545 0.0272268 -0.987615 0.0769202 0.136747
-0.0100363 -0.0529432 0.234394 -0.58723 -0.80942 0
-0.0770881 0.0530321 0.0115717 0 0.99055 -0.137153
0.00123808 -0.0062092 0.32547 -0.0361286 -0.999229 0.0153588
-0.115462 -0.0144751 0.280098 -0.0192986 0.990364 -0.137137
0.0235932 -0.03171 0.370814 0.983629 -0.180205 0
-0.37421 -0.0307498 0.290135 0.0303318 -0.99944 -0.0140889
-0.019974 -0.00965229 0.301489 -0.0192986 0.990364 -0.137137
0.0533459 -0.00775697 0.356339 -0.0418417 -0.998857 -0.0230847
-0.368865 -0.0285489 0.26281 0.0456123 -0.991008 -0.125785
-0.352267 -0.0293705 0.275022 0.0456198 -0.989517 -0.137021
-0.13299 -0.0202942 0.282483 0.0456198 -0.989517 -0.137021
-0.0777453 -0.0224139 0.335579 0.0304032 -0.99942 -0.0153602
0.347094 -0.0240961 0.243214 -0.0192986 -0.990364 0.137137
0.00288737 -0.020294 0.345821 0.0304032 0.99942 0.0153602
-0.126112 -0.0169461 0.263751 -0.0192986 0.990364 -0.137137
0.0330783 0.0497591 0.0120669 1.01733e-06 0.99055 0.13715
-0.0673629 0.0546824 0.0243106 -0.00738305 0.999854 -0.0153826
0.33663 -0.0188468 0.292626 -0.0364047 -0.999238 0.014086
-0.184392 -0.0200365 0.365827 -0.0719991 -0.802368 0.592471
0.412771 -0.0305201 0.263388 -0.0458705 0.990997 0.125784
0.00226574 0.0275918 0.0400586 -0.987615 0.0769198 0.136745
0.250919 -0.0274208 0.327753 0.0250519 0.999463 -0.0211348
-0.188893 -0.0136564 0.297637 -0.0218451 0.991804 -0.125889
0.255927 -0.0159196 0.292826 -0.0361286 -0.999229 0.0153588
0.0850885 -0.0145451 0.275318 -0.0192986 -0.990364 0.137137
-0.00999454 -0.0529608 0.353187 -0.587237 -0.809415 -0.00060792
-0.109148 -0.0233444 0.333968 0.0304032 -0.99942 -0.0153602
0.123142 -0.0235412 0.319074 0.0304032 0.99942 0.0153602
0.128805 -0.0307132 0.395762 -0.968914 -0.192918 0.154882
0.264706 -0.0159246 0.314036 -0.0364047 -0.999238 0.014086
-0.0743995 -0.0214559 0.310379 0.0456198 -0.989517 -0.137021
0.464708 -0.0201016 0.286102 0.0289823 -0.999498 0.0128262
-0.230196 -0.0189463 0.263954 -0.0192986 0.990364 -0.137137
-0.0316869 -0.0212977 0.357392 0.0248093 -0.999425 0.023093
-0.0464855 -0.00925045 0.378943 -0.0656029 0.981252 0.18122
-0.305094 -0.0258504 0.264675 0.0456123 -0.991008 -0.125785
-0.230213 -0.026495 0.298313 0.0303318 -0.99944 -0.0140889
0.205014 -0.0137989 0.31103 -0.0361286 -0.999229 0.0153588
0.310747 -0.0177308 0.304905 -0.0364047 -0.999238 0.014086
-0.419349 -0.0312652 0.276951 -0.0541039 -0.998436 -0.0140747
-0.118832 -0.0146874 0.374685 -0.125398 0.798108 0.589321
-0.013763 -0.0124038 0.432273 -0.57123 0.785652 0.237586
0.0184089 -0.025313 0.13718 0.97913 -0.167887 -0.114534
0.311645 -0.0290684 0.321816 0.0250519 0.999463 -0.0211348
-0.0233869 -0.0261366 0.381082 -0.983629 0.180205 0
0.204812 -0.0154273 0.355073 -0.0656029 -0.981252 -0.18122
-0.0805025 -0.0107831 0.301841 -0.0192986 0.990364 -0.137137
0.0218676 -0.0189855 0.328899 0.851644 0.524121 0.000418488
-0.171638 -0.0124779 0.318463 -0.0361286 0.999229 -0.0153588
0.449794 -0.0294954 0.268817 -0.0458705 0.990997 0.125784
-0.0141897 -0.0487705 0.195274 -0.584875 -0.806173 -0.0894838
-0.143543 -0.0251336 0.392409 -0.552295 0.826997 0.105104
0.0592488 0.0486665 0.0199579 1.01733e-06 0.99055 0.13715
0.289758 -0.0266467 0.276164 0.0456198 0.989517 0.137021
-0.0643272 -0.0100681 0.304727 -0.0192986 0.990364 -0.137137
-0.00574725 -0.00760101 0.3143 -0.0192986 0.990364 -0.137137
-0.190737 -0.0255686 0.343428 0.0248093 -0.999425 0.023093
-0.0520767 0.0486321 0.0547213 -0.0313029 -0.982899 0.181467
0.178551 -0.0251523 0.347132 0.0218571 0.998868 -0.0422436
0.147698 -0.0240995 0.355743 0.0213294 0.998716 -0.0459391
0.402919 -0.0315651 0.286158 0.0303318 0.99944 0.0140889
0.184926 -0.0238615 0.357528 0.00222138 0.985948 -0.167035
0.265479 -0.0241182 0.265392 0.0456123 0.991008 0.125785
0.132651 -0.0122018 0.299338 -0.0218451 -0.991804 0.125889
-0.135706 -0.035879 0.381931 0.555546 -0.831486 0
-0.321223 -0.0291365 0.326741 0.0218571 -0.998868 0.0422436
0.00383276 -0.00284026 0.070981 -0.999875 -0.00365182 0.0153846
-0.00932611 -0.0520055 0.445532 -0.590244 -0.805236 0.0566299
-0.0121823 -0.0513293 0.296016 -0.587237 -0.809415 -0.00060792
-0.0459647 -0.0127686 0.282641 -0.0192986 0.990364 -0.137137
-0.0203086 -0.042489 0.390988 -0.851644 -0.524121 0
-0.0405476 -0.0142371 0.271274 -0.0192986 0.990364 -0.137137
0.394614 -0.0244916 0.247972 -0.0218451 -0.991804 0.125889
-0.38749 -0.0311758 0.291763 0.0303318 -0.99944 -0.0140889
-0.146252 -0.0239904 0.30476 0.0456198 -0.989517 -0.137021
-0.0107115 0.0552416 0.033468 -0.00738305 0.999854 -0.0153826
0.0221761 -0.0394452 0.241474 0.983629 -0.180205 0
0.0206178 -0.0169864 0.393404 0.851644 0.524121 0
0.0035055 0.0213776 0.0790998 -0.997711 -0.0495068 -0.046056
-0.0216552 -0.0358122 0.430094 -0.97608 -0.178399 0.124264
0.186075 -0.023785 0.290018 0.0456198 0.989517 0.137021
0.00130235 0.0536259 0.0158604 0 -0.99055 0.137153
-0.402574 -0.0231071 0.260261 -0.0218451 0.991804 -0.125889
-0.218874 -0.0149984 0.292267 -0.0218451 0.991804 -0.125889
0.374291 -0.0202151 0.292898 -0.0364047 -0.999238 0.014086
-0.251596 -0.0273489 0.33176 0.0248093 -0.999425 0.023093
0.143297 -0.0114213 0.320546 -0.0361286 -0.999229 0.0153588
-0.0483748 0.0548881 0.0285673 -0.00738305 0.999854 -0.0153826
-0.0166916 -0.0185751 0.386198 -1.18667e-05 -0.98337 0.181615
0.320815 -0.0233981 0.244556 -0.0192986 -0.990364 0.137137
-0.26055 -0.0159548 0.30141 -0.0361286 0.999229 -0.0153588
0.0131811 -0.0327057 0.115711 0.852341 -0.490994 -0.180111
0.329708 -0.0185948 0.323764 -0.0446446 -0.998111 -0.0422118
-0.0155215 -0.0106596 0.417301 -0.584884 0.80617 0.0894441
-0.0402938 -0.00736057 0.362844 -0.0418417 0.998857 0.0230847
0.396002 -0.0261213 0.331566 -0.12014 -0.822182 -0.556402
-0.146232 -0.0297326 0.348782 -0.980723 0.195405 0
0.24786 -0.0264783 0.34314 0.00203458 0.985993 -0.166777
-0.273008 -0.0164124 0.300945 -0.0361286 0.999229 -0.0153588
0.473942 -0.0257534 0.247139 -0.0413571 0.99256 0.114518
-0.466637 -0.021486 0.257518 0.0360133 0.992765 -0.114541
-0.245371 -0.0270376 0.304172 0.0303318 -0.99944 -0.0140889
0.324009 -0.0292933 0.294885 0.0303318 0.99944 0.0140889
0.0189772 -0.0421245 0.18806 0.850353 -0.520799 -0.0752928
0.0334875 -0.0191292 0.307198 0.0456198 0.989517 0.137021
0.0999351 -0.0179109 0.276277 0.0456198 0.989517 0.137021
-0.015565 -0.0489014 0.273983 -0.587236 -0.809413 0.00186194
0.211142 -0.0169024 0.276033 -0.0192986 -0.990364 0.137137
0.0246577 -0.00900086 0.385493 -0.0656029 -0.981252 -0.18122
-0.174549 -0.0128229 0.351388 -0.0446446 0.998111 0.0422118
-0.0212407 -0.0402516 0.200708 -0.849221 -0.522631 -0.0753672
-0.253951 -0.0182253 0.272931 -0.0218451 0.991804 -0.125889
-0.0700785 -0.00836709 0.35241 -0.0418417 0.998857 0.0230847
-0.118518 0.0485469 0.0248502 -0.00738252 -0.999854 -0.0153792
-0.0494986 -0.00753098 0.353273 -0.0364047 0.999238 -0.014086
-0.00148838 -0.0552229 0.390655 -0.21105 -0.977475 0
-0.0664523 -0.0207316 0.374454 -0.000182377 -0.983375 0.181586
-0.201705 -0.0136136 0.341164 -0.0414973 0.998915 0.0211229
-0.478323 -0.0197372 0.283738 0.0289823 0.999498 -0.0128262
0.0131974 -0.0401894 0.139623 0.603117 -0.778163 -0.175248
0.02524 -0.0115566 0.288477 -0.0192986 -0.990364 0.137137
0.0807776 -0.00923862 0.31548 -0.0361286 -0.999229 0.0153588
0.0278438 0.0477211 0.0350055 -0.0073829 0.999854 0.0153875
-0.0142109 -0.0110049 0.142899 -0.861615 0.505384 -0.0469762
-0.288269 -0.021269 0.255352 -0.0192986 0.990364 -0.137137
0.0235561 -0.0319129 0.206393 0.983629 -0.180205 0
0.00791095 -0.0538249 0.355268 0.21105 -0.977475 -0.000734144
-0.000108341 -0.00345205 0.185071 -0.211057 0.977474 0
0.280979 -0.0169707 0.335581 -0.0657756 -0.981246 -0.181192
-0.218292 -0.0207164 0.255703 0.0456123 -0.991008 -0.125785
-0.0187218 0.0477538 0.0285042 -0.0073829 -0.999854 -0.0153875
-0.465824 -0.0286735 0.270522 -0.0538111 -0.998469 -0.012813
0.243576 -0.0156003 0.291812 -0.0218451 -0.991804 0.125889
0.00134993 -0.0327615 0.364784 1 0 0
0.0123393 -0.0136588 0.274734 0.0456198 0.989517 0.137021
-0.0731993 0.0546452 0.0484028 -0.0141717 0.998838 0.0460717
-0.0366458 0.0526506 0.00881613 0 0.99055 -0.137153
-0.168416 -0.0239265 0.35705 -0.000182377 -0.983375 0.181586
-0.159777 -0.0247335 0.324139 0.0304032 -0.99942 -0.0153602
0.181092 -0.017309 0.268868 -0.0192986 -0.990364 0.137137
0.464828 -0.0202679 0.273344 0.0295078 -0.999465 0.0140892
-0.0161303 -0.039958 0.156624 -0.855807 -0.501978 -0.124949
0.282463 -0.019002 0.27176 -0.0218451 -0.991804 0.125889
-0.175251 -0.0131932 0.29892 -0.0218451 0.991804 -0.125889
-0.128424 0.0484824 0.0349956 -0.0114219 -0.999668 0.0230951
-0.0303231 0.0552467 0.0458894 -0.0114185 0.999669 0.0230624
0.247829 -0.0228769 0.262013 0.0456123 0.991008 0.125785
0.411165 -0.0318486 0.308306 0.0250519 0.999463 -0.0211348
0.28319 -0.0243728 0.260976 0.0456123 0.991008 0.125785
-0.029476 -0.0173308 0.295546 0.0456198 -0.989517 -0.137021
0.204317 -0.0218705 0.269863 0.0456123 0.991008 0.125785
-0.00674939 -0.0220932 0.366149 -1 0 0
-0.190286 -0.0138564 0.351639 -0.0657756 0.981246 0.181192
-0.0359128 -0.0192316 0.382642 -1.18667e-05 -0.98337 0.181615
0.0362342 -0.0108243 0.295313 -0.0192986 -0.990364 0.137137
0.0136003 0.0485872 0.0611153 -0.0312991 0.982905 -0.181434
-0.432197 -0.0211001 0.282645 0.0295078 0.999465 -0.0140892
0.295851 -0.0170673 0.319643 -0.0418417 -0.998857 -0.0230847
0.31338 -0.0273985 0.273728 0.0456198 0.989517 0.137021
-0.256496 -0.0231614 0.261112 0.0456123 -0.991008 -0.125785
0.322408 -0.0190608 0.278228 -0.0218451 -0.991804 0.125889
0.392437 -0.0313054 0.311795 0.0250519 0.999463 -0.0211348
0.0935884 -0.0214367 0.370626 0.00222138 0.985948 -0.167035
0.184738 -0.025425 0.31972 0.0304032 0.99942 0.0153602
0.00874701 -0.00905763 0.304203 -0.0192986 -0.990364 0.137137
-0.0796244 -0.00897822 0.329709 -0.0361286 0.999229 -0.0153588
0.036347 -0.0213348 0.347308 0.0304032 0.99942 0.0153602
-0.155135 -0.0163127 0.272409 -0.0192986 0.990364 -0.137137
-0.391213 -0.0210795 0.317466 -0.0446446 0.998111 0.0422118
-0.0322581 -0.0205393 0.31779 0.0456198 -0.989517 -0.137021
-0.00311065 0.0145698 0.0534859 0.987615 0.0769214 0.136747
0.197546 -0.0255835 0.303983 0.0303318 0.99944 0.0140889
-0.241487 -0.0219302 0.256855 0.0456123 -0.991008 -0.125785
0.0690096 -0.013791 0.2785 -0.0192986 -0.990364 0.137137
-0.462639 -0.0211057 0.311868 0.00762284 0.988366 0.151906
-0.353287 -0.0254534 0.337966 -0.0664229 -0.826352 0.559224
-0.0203626 -0.00691882 0.324289 -0.0361286 0.999229 -0.0153588
-0.392591 -0.0287996 0.256182 0.0456123 -0.991008 -0.125785
-0.180058 -0.0160148 0.278068 -0.0192986 0.990364 -0.137137
-0.0192433 -0.014753 0.236303 -0.851644 0.524121 0
-0.152307 -0.0136315 0.291485 -0.0218451 0.991804 -0.125889
0.0102328 -0.00636316 0.336612 -0.0361286 -0.999229 0.0153588
-0.0533853 -0.0185016 0.296041 0.0456198 -0.989517 -0.137021
-0.201257 -0.0256834 0.303077 0.0303318 -0.99944 -0.0140889
-0.419312 -0.030805 0.315928 -0.0766207 -0.983096 0.166287
-0.113918 -0.0103691 0.319885 -0.0361286 0.999229 -0.0153588
0.13451 -0.0109941 0.327664 -0.0361286 -0.999229 0.0153588
-0.377744 -0.0219418 0.265133 -0.0218451 0.991804 -0.125889
0.332235 -0.0297017 0.306043 0.0304032 0.99942 0.0153602
-0.0200176 -0.0429333 0.332933 -0.851644 -0.524121 -0.000418488
-0.0490449 -0.0199331 0.307824 0.0456198 -0.989517 -0.137021
-0.00525061 -0.0543721 0.320473 -0.21105 -0.977475 -0.000780475
0.00752809 -0.0508787 0.462949 0.54863 -0.821005 0.157975
0.00341055 0.010154 0.0581357 -0.987615 0.0769198 0.136745
0.275251 -0.0279097 0.331964 0.0218571 0.998868 -0.0422436
0.0231848 -0.0250338 0.377195 0.983629 0.180205 0
-0.398914 -0.0211234 0.308879 -0.0414973 0.998915 0.0211229
0.265606 -0.0161165 0.302787 -0.0361286 -0.999229 0.0153588
-0.068369 0.0494954 0.013971 1.01733e-06 -0.99055 -0.13715
0.154146 -0.0122263 0.35593 -0.0657756 -0.981246 -0.181192
0.016239 -0.0105298 0.37649 0.587237 0.809415 0
-0.432929 -0.0236865 0.25018 0.0413002 0.991194 -0.125811
-0.322844 -0.018361 0.291459 -0.0364047 0.999238 -0.014086
-0.0874146 -0.0226298 0.35961 0.0248093 -0.999425 0.023093
0.00977086 -0.0151599 0.286429 0.0456198 0.989517 0.137021
0.22794 -0.0256938 0.289864 0.0456198 0.989517 0.137021
-0.289467 -0.0271577 0.339462 0.00222138 -0.985948 0.167035
0.370537 -0.0204089 0.275959 -0.0218451 -0.991804 0.125889
0.164199 -0.0169028 0.269424 -0.0192986 -0.990364 0.137137
0.0194575 -0.0150604 0.317843 0.851646 0.524117 0.000420373
0.1361 -0.0365923 0.332742 0.194393 -0.976056 -0.0976055
-0.0526135 -0.02174 0.341481 0.0304032 -0.99942 -0.0153602
-0.0181057 -0.0129046 0.380859 -0.851644 0.524121 0
-0.377861 -0.0292408 0.328342 0.00222138 -0.985948 0.167035
-0.0709322 -0.00903023 0.313615 -0.0218451 0.991804 -0.125889
-0.00202573 0.0190701 0.0431188 0.987616 0.0769188 0.136745
0.317222 -0.0190734 0.334076 -0.0633415 -0.984015 -0.166442
0.17146 -0.0248725 0.309709 0.0303318 0.99944 0.0140889
0.426569 -0.021072 0.296662 0.0289823 -0.999498 0.0128262
0.00134993 -0.0294141 0.359251 1 0 0
0.0645091 -0.019846 0.379313 -1.18667e-05 0.98337 -0.181615
-0.0239291 -0.0290963 0.221773 -0.983629 0.180205 0
-0.182503 -0.0126895 0.33108 -0.0364047 0.999238 -0.014086
-0.0834396 -0.0162086 0.269088 0.0456123 -0.991008 -0.125785
-0.343229 -0.0300955 0.309901 0.0304032 -0.99942 -0.0153602
0.0367267 0.0537293 0.0599505 -0.0887533 -0.801266 -0.591688
0.0194948 -0.0151616 0.404374 0.851644 0.524121 0
-0.48084 -0.0198434 0.269921 0.0295078 0.999465 -0.0140892
0.264555 -0.016236 0.336896 -0.0446446 -0.998111 -0.0422118
0.0105074 -0.0519416 0.433446 0.590467 -0.805541 0.0495212
0.0700279 -0.00860356 0.33151 -0.0361286 -0.999229 0.0153588
-0.142157 -0.0240804 0.31652 0.0304032 -0.99942 -0.0153602
0.0254801 -0.00683522 0.341766 -0.0361286 -0.999229 0.0153588
0.00914729 -0.0535457 0.339163 0.21105 -0.977475 -0.000780342
0.0239263 -0.0290494 0.329143 0.983629 0.180205 0.000143886
-0.180585 -0.0189368 0.25704 -0.0192986 0.990364 -0.137137
0.121525 -0.01464 0.27976 -0.0192986 -0.990364 0.137137
0.039043 -0.0181251 0.386079 -0.0719991 0.802368 -0.592471
0.020071 -0.0250917 0.154993 0.980264 0.178752 -0.0844448
0.0108828 0.0547965 0.0243147 0 -0.99055 0.137153
-0.154701 -0.0120273 0.307939 -0.0361286 0.999229 -0.0153588
0.235056 -0.0268433 0.312409 0.0304032 0.99942 0.0153602
0.319309 -0.0254109 0.256058 0.0456123 0.991008 0.125785
-0.342146 -0.0191605 0.28479 -0.0361286 0.999229 -0.0153588
0.00163867 -0.00709391 0.0446403 0.829023 -0.41605 -0.373662
-0.0384155 -0.0076469 0.319387 -0.0361286 0.999229 -0.0153588
0.24387 -0.0151217 0.329675 -0.0418417 -0.998857 -0.0230847
-0.305337 -0.0174228 0.31783 -0.0418417 0.998857 0.0230847
-0.227901 -0.0268037 0.323997 0.0304032 -0.99942 -0.0153602
0.150207 -0.0186336 0.263982 0.0456123 0.991008 0.125785
-0.321123 -0.0252654 0.254254 0.0456123 -0.991008 -0.125785
-0.3358 -0.0221572 0.256157 -0.0218451 0.991804 -0.125889
0.466777 -0.0201807 0.304147 0.0230832 -0.998987 -0.0386248
0.00836901 -0.00523568 0.25262 0.211054 0.977474 0
0.00677776 -0.0241925 0.0763671 0.830288 -0.444267 -0.336525
0.00571882 -0.00466346 0.403121 0.211054 0.977474 0
-0.010972 -0.0140601 0.0852208 -0.974186 0.155183 -0.163953
0.0223024 -0.0303053 0.179519 0.982118 -0.179089 -0.0580568
-0.000824768 0.047813 0.0591252 -0.0312991 -0.982904 0.181439
0.023736 -0.028042 0.219981 0.983629 0.180205 0
0.444231 -0.0240132 0.321522 -0.0613292 -0.826622 -0.559406
0.019836 -0.015716 0.23799 0.851644 0.524121 0
0.163126 -0.0159186 0.276381 -0.0192986 -0.990364 0.137137
-0.266644 -0.0274969 0.290956 0.0303318 -0.99944 -0.0140889
-0.255874 -0.0155308 0.319147 -0.0364047 0.999238 -0.014086
0.290237 -0.0171428 0.293956 -0.0361286 -0.999229 0.0153588
-0.487068 -0.0276222 0.277817 -0.0538111 -0.998469 -0.012813
-0.113859 0.0530112 0.0114206 7.17087e-07 0.990549 -0.137156
0.269949 -0.0169871 0.285462 -0.0218451 -0.991804 0.125889
-0.437916 -0.0270215 0.322698 -0.126886 -0.821487 0.555931
-0.00429127 -0.00441906 0.114808 -0.224882 0.974386 0
0.124272 -0.0111721 0.305997 -0.0218451 -0.991804 0.125889
0.357401 -0.0265076 0.250885 0.0456123 0.991008 0.125785
0.196957 -0.0228071 0.279333 0.0456198 0.989517 0.137021
-0.0114555 -0.00705933 0.248931 -0.58723 0.80942 0
-0.0953848 -0.0194178 0.288674 0.0456198 -0.989517 -0.137021
-0.0730789 -0.0201978 0.301733 0.0456198 -0.989517 -0.137021
-0.00674939 -0.0282969 0.365475 -1 0 0
0.446207 -0.0223973 0.256043 0.0360133 -0.992765 0.114541
0.0175334 -0.0469985 0.39318 0.851644 -0.524121 0
0.452204 -0.025793 0.239632 -0.0413571 0.99256 0.114518
-0.115315 -0.0106195 0.361325 -0.0657756 0.981246 0.181192
-0.245741 -0.027288 0.320195 0.0304032 -0.99942 -0.0153602
-0.0903884 0.0545032 0.0237149 -0.00738305 0.999854 -0.0153826
-0.0526044 0.0540202 0.0187074 7.17087e-07 0.990549 -0.137156
0.489111 -0.0195174 0.276489 0.0289823 -0.999498 0.0128262
-0.29728 -0.0264142 0.27195 0.0456123 -0.991008 -0.125785
-0.0237984 -0.0209387 0.364452 0.0248093 -0.999425 0.023093
-0.00932613 -0.0281875 0.0893458 -0.847805 -0.453648 -0.274644
0.0130045 -0.0487066 0.18685 0.586693 -0.804855 -0.0894356
0.208782 -0.0138168 0.336874 -0.0414973 -0.998915 -0.0211229
-0.143796 -0.0115141 0.315677 -0.0361286 0.999229 -0.0153588
-0.243916 -0.0268703 0.340179 0.0213294 -0.998716 0.0459391
0.309126 -0.029068 0.310547 0.0304032 0.99942 0.0153602
-0.138699 -0.0139722 0.36949 -0.125398 0.798108 0.589321
-0.00696259 -0.0201865 0.375468 0.0213294 -0.998716 0.0459391
-0.0218829 -0.0399309 0.25891 -0.851644 -0.524121 0
0.45115 -0.0206355 0.306619 0.0223856 -0.998857 -0.0422435
-0.0032338 -0.0201438 0.0644774 -0.603013 -0.661757 -0.445481
-0.0565667 -0.00817045 0.328023 -0.0361286 0.999229 -0.0153588
-0.023728 -0.0279672 0.329665 -0.983629 0.180205 0.000143887
-0.488154 -0.0256036 0.250973 -0.0413571 -0.99256 -0.114518
0.123349 0.0507155 0.00515961 0 0.990549 0.137157
-0.297103 -0.028803 0.317104 0.0304032 -0.99942 -0.0153602
0.128958 -0.0269586 0.34762 -0.831543 0.55546 0
0.168982 -0.0226283 0.287356 0.0456198 0.989517 0.137021
-0.0930332 0.0519712 0.0538852 -0.0887558 0.801256 0.591703
-0.10163 -0.0184527 0.378029 -0.0719991 -0.802368 0.592471
0.350873 -0.0295357 0.326321 0.00203458 0.985993 -0.166777
-0.135584 -0.0242198 0.338599 0.0304032 -0.99942 -0.0153602
0.017071 -0.0472978 0.202555 0.849268 -0.522659 -0.0746342
0.0404611 -0.00723292 0.351132 -0.0361286 -0.999229 0.0153588
-0.365273 -0.0200214 0.283333 -0.0364047 0.999238 -0.014086
0.299007 -0.0185692 0.337987 -0.0656029 -0.981252 -0.18122
-0.0308518 -0.00690728 0.349714 -0.0361286 0.999229 -0.0153588
0.213325 -0.021495 0.263638 0.0456123 0.991008 0.125785
-0.0133925 -0.00845432 0.356639 -0.587236 0.809416 0.000607893
-0.349209 -0.0256535 0.247126 0.0456123 -0.991008 -0.125785
-0.0135596 -0.0304902 0.111671 -0.851847 -0.49071 -0.183196
0.403054 -0.0223383 0.2664 -0.0218451 -0.991804 0.125889
0.304663 -0.0176286 0.296425 -0.0364047 -0.999238 0.014086
0.243101 -0.0169423 0.281156 -0.0218451 -0.991804 0.125889
-0.304114 -0.0286689 0.293429 0.0303318 -0.99944 -0.0140889
-0.135621 -0.0109946 0.330246 -0.0361286 0.999229 -0.0153588
-0.249075 -0.0172184 0.348818 -0.0631599 0.983979 0.166722
0.387023 -0.0207315 0.289171 -0.0364047 -0.999238 0.014086
-0.0602773 -0.0218437 0.333053 0.0304032 -0.99942 -0.0153602
