-0.0218609 -0.031031 0.496913 -0.925517 0.372459 0.0685059
0.161053 -0.0224928 0.433475 -0.00660041 0.998915 -0.046102
-0.0217722 -0.0457523 0.525409 -0.889112 0.357809 0.285398
0.0971799 -0.00541414 0.440766 0.00157639 -0.983373 -0.181588
-0.0576001 -0.00410555 0.370483 -5.42677e-05 0.999882 -0.0153854
0.336085 -0.00363018 0.420174 0.000521779 -0.999734 -0.02305
-0.100587 -0.0216625 0.0499085 -0.0190735 0.998159 -0.0575811
-0.0944406 -0.0229473 0.363426 -0.00739558 -0.999854 -0.0153857
0.0828078 -0.012593 0.298713 -0.00401373 -0.990542 0.137152
-0.0059163 -0.0457147 0.462595 -1 0 0
-0.462755 -0.00388974 0.385954 -5.56307e-05 0.999882 -0.0153681
-0.18989 -0.00725238 0.340418 -0.00401328 0.990541 -0.137157
0.304131 -0.0191278 0.349223 -0.0112854 0.990487 0.137145
0.232399 -0.0103911 0.318993 -0.00401373 -0.990542 0.137152
-0.201297 -0.02287 0.411887 -0.00681761 -0.999711 0.0230529
0.0460752 -0.00653782 0.44641 0.00157651 -0.983392 -0.181486
-0.0412589 -0.0116065 0.304622 -0.00401373 0.990542 -0.137152
0.0761249 -0.00782625 0.332944 -0.00401373 -0.990542 0.137152
-0.221876 -0.00803445 0.335706 -0.00401328 0.990541 -0.137157
-0.245845 -0.0109004 0.315709 -0.00401373 0.990542 -0.137152
0.458995 -0.00362017 0.422522 0.000521779 -0.999734 -0.02305
0.134755 -0.00608688 0.347222 -0.00401328 -0.990541 0.137157
0.173819 -0.0276503 0.454867 0.331352 -0.941745 -0.057649
0.334801 -0.0218822 0.41524 -0.00681761 0.999711 -0.0230529
-0.065382 -0.0230887 0.358649 -0.00739558 -0.999854 -0.0153857
-0.0592997 -0.00378357 0.391415 -5.42677e-05 0.999882 -0.0153854
-0.00820731 -0.00648831 0.340619 -0.00401373 0.990542 -0.137152
0.334236 -0.00690307 0.45089 0.00157494 -0.983374 -0.181584
0.23461 -0.0169167 0.327532 -0.0112838 0.990488 0.137136
0.407443 -0.0185757 0.448205 -0.0056416 0.98336 -0.181581
0.0232219 -0.0575794 0.475641 0.92751 -0.372349 0.0328925
-0.194 -0.00494393 0.35721 -0.00401328 0.990541 -0.137157
0.020855 -0.027685 0.259404 0.923877 0.377656 -0.0618614
0.00353794 -0.0531476 0.178115 0.382128 -0.910401 -0.158579
-0.436905 -0.00397982 0.38 -5.56307e-05 0.999882 -0.0153681
-0.133287 -0.0226463 0.362538 -0.00739558 -0.999854 -0.0153857
0.358084 -0.0217072 0.409565 -0.00739545 0.999854 0.0153846
0.0186713 -0.00512198 0.350793 -0.00401373 -0.990542 0.137152
-0.0209958 -0.0259428 0.480936 -0.925517 0.372459 0.0685059
0.407496 -0.00932925 0.331786 -0.00401328 -0.990541 0.137157
0.14592 -0.0046643 0.357822 -0.00401328 -0.990541 0.137157
0.454989 -0.0194937 0.364278 -0.0112838 0.990488 0.137136
-0.172028 -0.0159604 0.315476 -0.0112838 -0.990488 -0.137136
0.0189825 -0.0256143 0.0386995 -0.0157257 0.990427 0.137137
0.157748 -0.0106187 0.315165 -0.00401373 -0.990542 0.137152
0.00317501 -0.0296969 0.0777083 -0.0216542 0.999647 0.0153804
-0.058655 -0.00885087 0.453305 0.0014866 0.804401 0.594085
0.280251 -0.0111142 0.315172 -0.00401373 -0.990542 0.137152
0.471726 -0.0101988 0.363328 -0.828433 -0.554795 0.0768207
-0.276462 -0.0221634 0.399979 -0.00739544 -0.999854 -0.0153846
0.116051 -0.00569719 0.442463 0.00157675 -0.983378 -0.181561
-0.198786 -0.00417607 0.366398 -5.42677e-05 0.999882 -0.0153854
0.0127774 -0.0629914 0.54822 0.870579 -0.447851 0.203768
0.412558 -0.0210075 0.390275 -0.00739558 0.999854 0.0153857
-0.00886746 -0.0570177 0.21363 -0.382067 -0.910257 -0.159554
-0.0220044 -0.0253507 0.449738 -0.928009 0.372552 -0.00205824
0.0225677 -0.0240005 0.397327 -0.00739545 0.999854 0.0153846
0.198062 -0.0201696 0.348018 -0.0112854 0.990487 0.137145
-0.398317 -0.00452094 0.366243 -0.00401328 0.990541 -0.137157
-0.162363 -0.0229288 0.0934286 -0.0257048 0.996738 0.0765049
-0.107935 -0.0274609 0.0798691 -0.0216542 -0.999647 -0.0153804
-0.0242327 -0.00566354 0.347045 -0.00401373 0.990542 -0.137152
0.0167201 -0.021099 0.307728 0.387017 0.922059 -0.0050275
0.0783981 -0.0237358 0.406961 -0.00739545 0.999854 0.0153846
-0.316035 -0.00350669 0.414368 0.000521234 0.999734 0.0230747
0.235468 -0.00519459 0.440778 0.00157675 -0.983378 -0.181561
-0.0968699 -0.00397793 0.428041 0.000733236 0.998936 0.04611
0.0269334 -0.0379662 0.341082 0.92801 0.372552 -0.00125973
-0.00360523 -0.0220635 0.0383375 -0.940925 0.331154 -0.0706846
-0.448527 -0.0108639 0.457007 0.00148848 0.804448 0.594021
-0.461164 -0.00360927 0.404196 -5.56307e-05 0.999882 -0.0153681
0.463488 -0.00922738 0.33416 -0.00401328 -0.990541 0.137157
-0.470093 -0.0122702 0.454456 -0.811253 0.497899 0.306538
-0.214973 -0.0227834 0.410716 -0.00739544 -0.999854 -0.0153846
0.37631 -0.00457915 0.365179 -0.00401328 -0.990541 0.137157
0.0188929 -0.0409285 0.197244 0.925287 -0.359975 -0.119425
0.0262248 -0.0510419 0.317217 0.925645 -0.378394 5.02777e-05
-0.440008 -0.00688792 0.350368 -0.00401328 0.990541 -0.137157
-0.00336701 -0.0247502 0.0610051 0.992728 0.037019 0.114543
-0.216431 -0.0118797 0.307775 -0.00401373 0.990542 -0.137152
-0.193348 -0.0223519 0.431906 -0.00660041 -0.998915 0.046102
0.0452978 -0.0237433 0.0316755 -0.00548608 -0.990535 0.137152
-0.0114891 -0.0201175 0.332289 -0.0112854 -0.990487 -0.137145
-0.124414 -0.0227932 0.367822 -0.00739558 -0.999854 -0.0153857
-0.00992263 -0.0188748 0.258156 -0.386965 0.921937 -0.0170481
0.166565 -0.0234799 0.402212 -0.253638 -0.944227 -0.210008
0.108625 -0.0067678 0.341539 -0.00401373 -0.990542 0.137152
0.228212 -0.0183351 0.33725 -0.0112854 0.990487 0.137145
-0.153793 -0.0217574 0.450145 0.890279 -0.455009 -0.0192317
0.0185278 -0.0338207 0.187191 0.923877 0.377656 -0.0618614
0.100174 -0.0209808 0.0941117 -0.0239048 -0.999529 -0.0192218
0.190729 -0.0226453 0.424747 -0.00681651 0.999711 -0.0230765
-0.144485 -0.0252272 0.0497141 -0.00230367 -0.998338 -0.0575915
-0.00837349 -0.0252433 0.516577 -0.354081 0.830468 0.430059
0.0990052 -0.0232037 0.38228 -0.00739545 0.999854 0.0153846
0.377374 -0.00423422 0.436809 0.00157639 -0.983373 -0.181588
0.0256651 -0.0348211 0.345722 0.925648 0.37838 -0.00208259
0.171131 -0.0240561 0.0951992 -0.0470115 -0.954704 -0.293819
-0.000727709 0.032033 0.0748809 0.764493 -0.440653 -0.470506
0.278824 -0.0168064 0.454063 -0.0044184 0.80444 -0.594017
-0.454587 -0.021039 0.412528 -0.00739558 -0.999854 -0.0153857
0.115823 -0.00492973 0.438305 0.00157639 -0.983373 -0.181588
-0.0519508 -0.0234434 0.428499 -0.00660041 -0.998915 0.046102
-0.0854963 -0.00414828 0.431551 0.000733236 0.998936 0.04611
0.245647 -0.0143062 0.309586 -0.0112838 0.990488 0.137136
-0.114812 -0.0231676 0.424546 -0.00681651 -0.999711 0.0230764
-0.0372943 -0.0081728 0.329305 -0.00401373 0.990542 -0.137152
-0.230608 -0.0190222 0.34241 -0.0112854 -0.990487 -0.137145
0.313685 -0.00359982 0.404277 -5.56307e-05 -0.999882 0.0153681
0.0148161 -0.0673074 0.424835 0.392993 -0.91954 -0.00181298
0.0033334 -0.0147426 0.444586 0.392994 0.919531 -0.00419736
-0.0156285 -0.0205412 0.333884 -0.387018 0.922063 -0.00420563
0.00379004 0.00589479 0.0659435 -0.999697 -0.0210136 0.012817
0.308785 -0.0220014 0.417765 -0.00681761 0.999711 -0.0230529
0.0169997 -0.0216327 0.270547 0.386959 0.92192 -0.0180609
0.336696 -0.00504309 0.440836 0.00157675 -0.983378 -0.181561
-0.081949 -0.0203881 0.0768238 -0.0207939 0.999665 -0.0153773
-0.0059163 -0.0476235 0.452469 -1 0 0
0.430935 -0.0198964 0.365208 -0.0112854 0.990487 0.137145
-0.161751 -0.0262268 0.0819399 -0.0241537 -0.999662 0.00961193
-0.153671 -0.0250692 0.0473433 -0.00230367 -0.998338 -0.0575915
0.00523781 -0.0490484 0.46176 1 0 0
-0.374373 -0.0215211 0.419197 -0.00681761 -0.999711 0.0230529
-0.414814 -0.0106486 0.322472 -0.00401328 0.990541 -0.137157
0.121928 -0.00376065 0.420986 0.000521234 -0.999734 -0.0230747
0.00309401 0.0294674 0.0651595 -0.998798 -0.0450862 -0.019208
-0.027287 -0.0386188 0.429928 -0.928009 0.372552 -0.00205824
-0.0209585 -0.0235193 0.365274 -0.00739544 -0.999854 -0.0153846
0.095119 -0.0187995 0.329652 -0.0112854 0.990487 0.137145
0.0689671 -0.0170972 0.315206 -0.0112854 0.990487 0.137145
-0.174802 -0.00588066 0.349883 -0.00401328 0.990541 -0.137157
0.00647898 -0.0671526 0.265604 0.382128 -0.910401 -0.158579
-0.00347595 -0.0171267 0.20636 -0.386965 0.921937 -0.0170481
0.164664 -0.0103381 0.317394 -0.00401373 -0.990542 0.137152
0.142854 -0.0180604 0.328243 -0.0112854 0.990487 0.137145
-0.0302706 -0.0238737 0.392786 -0.00739544 -0.999854 -0.0153846
-0.259254 -0.0212168 0.360617 -0.0112854 -0.990487 -0.137145
0.0049842 -0.0715286 0.469431 0.392978 -0.919503 0.00907295
0.074964 -0.00405875 0.429444 0.000733236 -0.998936 -0.04611
0.194984 -0.00388447 0.385336 -5.42677e-05 -0.999882 0.0153854
0.00061278 -0.00732139 0.0315009 -0.992728 0.0370196 0.114542
-0.184267 -0.022839 0.418266 -0.00681651 -0.999711 0.0230764
0.182728 -0.0227565 0.0603184 -0.0225521 -0.999725 0.00641408
0.408429 -0.0213018 0.418636 -0.00681761 0.999711 -0.0230529
-0.00389714 0.00256385 0.0688406 0.999697 -0.0210136 0.012817
-0.180057 -0.02293 0.0877136 -0.0285298 0.996644 0.0767289
0.0182039 -0.0236211 0.244291 0.930195 0.361885 -0.0614531
-0.0247619 -0.0292348 0.101198 -0.0273776 -0.998562 0.0460955
0.110571 -0.0231613 0.385085 -0.00739545 0.999854 0.0153846
0.0220265 -0.0585308 0.498354 0.927183 -0.37313 0.0332617
-0.332225 -0.0214292 0.432017 -0.006599 -0.998912 0.0461581
0.392874 -0.0213896 0.405649 -0.00739545 0.999854 0.0153846
-0.0628619 -0.0208642 0.446519 -0.00564362 -0.983378 0.181483
-0.375662 -0.0140458 0.318403 -0.0112838 -0.990488 -0.137136
-0.360582 -0.00408795 0.434623 0.000733722 0.998939 0.0460583
0.410734 -0.00391061 0.384408 -5.56307e-05 -0.999882 0.0153681
-0.0105923 -0.053523 0.197823 -0.382067 -0.910257 -0.159554
0.38813 -0.0213612 0.422062 -0.00681761 0.999711 -0.0230529
-0.174032 -0.0224856 0.0789928 -0.0234568 0.999678 0.00962903
-0.0529976 -0.0182587 0.32228 -0.0112854 -0.990487 -0.137145
0.368203 -0.00414879 0.436064 0.000733722 -0.998938 -0.0460583
0.00212841 -0.0199803 0.0561403 0.403364 0.914668 -0.0260535
-0.33914 -0.00528583 0.358987 -0.00401328 0.990541 -0.137157
-0.452174 -0.0178711 0.450631 -0.0056416 -0.98336 0.181581
0.00811973 -0.0188817 0.0749181 -0.0207939 -0.999665 0.0153773
-0.175065 -0.0265944 0.437413 -0.258971 -0.964081 -0.0590163
-0.170695 -0.0139293 0.300696 -0.0112838 -0.990488 -0.137136
0.167001 -0.0295175 0.476526 -0.331638 -0.94256 -0.0399558
-0.110868 -0.0245235 0.0361702 -0.00230367 -0.998338 -0.0575915
0.00251671 0.0467764 0.0336526 -0.999697 -0.0210142 0.0128157
-0.00253834 -0.0247411 0.0538202 0.992728 0.037019 0.114543
0.240712 -0.00402438 0.376404 -5.42677e-05 -0.999882 0.0153854
-0.292964 -0.0149052 0.317806 -0.0112838 -0.990488 -0.137136
-0.295975 -0.0105092 0.320001 -0.00401373 0.990542 -0.137152
-0.0138843 -0.0519646 0.558781 -0.872631 0.412484 0.26148
0.334077 -0.0195907 0.35503 -0.0112854 0.990487 0.137145
-0.185279 -0.0229246 0.405615 -0.00739544 -0.999854 -0.0153846
-0.0303045 -0.0241131 0.408545 -0.00681761 -0.999711 0.0230529
-0.0271449 -0.0488562 0.315798 -0.925645 -0.378393 -0.000765935
-0.30556 -0.00858461 0.334181 -0.00401328 0.990541 -0.137157
0.0726498 -0.0068574 0.448372 0.00157651 -0.983392 -0.181486
-0.394255 -0.0192502 0.444962 -0.0056416 -0.98336 0.181581
-0.0225762 -0.00426526 0.35998 -5.42677e-05 0.999882 -0.0153854
0.0240637 -0.0563256 0.338626 0.925645 -0.378394 5.02777e-05
0.196671 -0.00701332 0.342343 -0.00401328 -0.990541 0.137157
0.210738 -0.00391565 0.383365 -5.42677e-05 -0.999882 0.0153854
-0.00640045 -0.0166031 0.346878 -0.392993 0.919528 -0.00501377
0.439735 -0.00601262 0.356682 -0.00401328 -0.990541 0.137157
0.402489 -0.00675266 0.450667 0.00157494 -0.983374 -0.181584
-0.172067 -0.00528642 0.440725 0.00157675 0.983378 0.181561
0.44784 -0.0191005 0.444108 -0.00564156 0.983358 -0.181591
0.0924293 -0.0231065 0.372804 -0.00739545 0.999854 0.0153846
0.372412 -0.00600698 0.354753 -0.00401328 -0.990541 0.137157
0.0252977 -0.0190312 0.0927285 -0.0254916 -0.999409 -0.0230547
0.0174644 -0.0662503 0.462716 0.392993 -0.91954 -0.00181298
-0.0252157 -0.0336383 0.397544 -0.928009 0.372552 -0.00205824
0.0848285 -0.00408857 0.430247 0.000733236 -0.998936 -0.04611
-0.120213 -0.00476386 0.437445 0.00157639 0.983373 0.181588
-0.158374 -0.00199359 0.462439 0.297639 0.953868 -0.0393292
0.290613 -0.015561 0.322349 -0.0112838 0.990488 0.137136
-0.0843055 -0.00354531 0.410806 0.000521234 0.999734 0.0230747
0.206986 -0.00351912 0.409141 -5.56307e-05 -0.999882 0.0153681
-0.168047 -0.00446859 0.359883 -0.00401328 0.990541 -0.137157
-0.0102493 -0.0592462 0.229653 -0.382067 -0.910257 -0.159554
-0.303984 -0.0131047 0.305708 -0.0112838 -0.990488 -0.137136
0.0922074 -0.00416254 0.366902 -5.42677e-05 -0.999882 0.0153854
-0.0251247 -0.0336861 0.328515 -0.925649 0.378381 -0.00126833
-0.0160275 -0.0204929 0.381194 -0.387018 0.922063 -0.00420563
-0.0741408 -0.0280296 0.069242 -0.0211543 -0.999756 -0.00641429
0.0180451 -0.0658204 0.312871 0.387025 -0.922068 -0.00099709
0.29451 -0.0216941 0.431676 -0.006599 0.998912 -0.0461581
0.0204386 -0.0553543 0.525861 0.91867 -0.369704 0.139157
-0.027872 -0.047066 0.377717 -0.928012 -0.372551 3.85377e-05
0.124518 -0.0226785 0.360414 -0.00739558 0.999854 0.0153857
-0.0263561 -0.0462204 0.271559 -0.918954 -0.375658 -0.12002
0.0543658 -0.0216675 0.0470299 -0.00548608 -0.990535 0.137152
0.0658265 -0.0218842 0.440902 -0.00564156 0.983358 -0.181591
-0.225105 -0.00375271 0.394009 -5.56307e-05 0.999882 -0.0153681
0.00348581 0.0111428 0.0508182 -0.999697 -0.0210142 0.0128157
0.000551998 0.0614071 0.00876172 -0.992728 0.0370204 0.114547
-0.0398515 -0.0179253 0.318791 -0.0112854 -0.990487 -0.137145
-0.0206715 -0.0454136 0.225509 -0.918954 -0.375658 -0.12002
-0.184926 -0.00529338 0.436002 -0.866261 0.49917 -0.0205263
0.13677 -0.0232853 0.41296 -0.00681761 0.999711 -0.0230529
0.129292 -0.0231808 0.395352 -0.00739545 0.999854 0.0153846
-0.29747 -0.0220417 0.402166 -0.00739544 -0.999854 -0.0153846
-0.0127948 -0.0682105 0.42928 -0.392994 -0.919541 -0.000997629
0.0935564 -0.0269805 0.10072 -0.0284979 0.996662 -0.076499
-0.250534 -0.00413932 0.433984 0.000733722 0.998939 0.0460583
-0.252912 -0.0219338 0.432436 -0.00660041 -0.998915 0.046102
0.0106414 -0.0187679 0.0857258 -0.0207939 -0.999665 0.0153773
-0.107983 -0.0118801 0.304599 -0.00401373 0.990542 -0.137152
0.110788 -0.0269801 0.0964225 -0.0429273 0.982477 -0.181374
0.00276653 0.0192496 0.0806183 -0.976496 -0.154535 -0.150246
0.173957 -0.0259703 0.426921 0.259206 -0.964955 -0.0409113
0.17285 -0.0277458 0.450862 0.331352 -0.941745 -0.057649
0.142114 -0.025008 0.0458198 -0.00230367 0.998338 0.0575915
-0.0829197 -0.0221559 0.352889 -0.0112854 -0.990487 -0.137145
-0.0473225 -0.0133288 0.292361 -0.00401373 0.990542 -0.137152
0.333827 -0.0217069 0.397883 -0.00739558 0.999854 0.0153857
0.460156 -0.00401893 0.377539 -5.56307e-05 -0.999882 0.0153681
-0.00952839 -0.0187982 0.0822531 -0.0207939 0.999665 -0.0153773
-0.00227741 0.0574293 0.0324584 0.999697 -0.0210147 0.0128157
0.339936 -0.0207488 0.363876 -0.0112854 0.990487 0.137145
0.013573 -0.00810643 0.32909 -0.00401373 -0.990542 0.137152
0.0207752 -0.0646669 0.430208 0.928012 -0.372551 -0.000761859
0.356724 -0.0187602 0.350895 -0.0112838 0.990488 0.137136
-0.0200944 -0.0157388 0.457433 -0.00441662 -0.804395 0.594078
-0.212002 -0.00624717 0.446276 0.00157651 0.983392 0.181486
0.0567702 -0.0261601 0.0469742 -0.0157257 0.990427 0.137137
0.126682 -0.0228387 0.371867 -0.00739558 0.999854 0.0153857
-0.00700502 -0.0212743 0.0479753 -0.00548608 0.990535 -0.137152
0.0287944 -0.00358157 0.404435 -5.42677e-05 -0.999882 0.0153854
-0.469607 -0.00629563 0.368667 -0.828433 0.554795 -0.0768207
0.244082 -0.016234 0.323381 -0.0112838 0.990488 0.137136
0.0235281 -0.0299093 0.288314 0.925648 0.37838 -0.00208259
-0.331617 -0.00555794 0.356802 -0.00401328 0.990541 -0.137157
-0.0842438 -0.0213072 0.443454 -0.0056416 -0.98336 0.181581
0.42551 -0.0036995 0.398196 -5.56307e-05 -0.999882 0.0153681
-0.444529 -0.00382538 0.390075 -5.56307e-05 0.999882 -0.0153681
-0.158828 -0.0223413 0.0574342 -0.0190735 0.998159 -0.0575811
0.289681 -0.00448019 0.43738 0.00157639 -0.983373 -0.181588
0.410928 -0.0213492 0.411698 -0.00739545 0.999854 0.0153846
-0.243283 -0.0197454 0.446971 -0.0056416 -0.98336 0.181581
0.0364033 -0.0179626 0.318776 -0.0112854 0.990487 0.137145
-0.075859 -0.00362419 0.401831 -5.42677e-05 0.999882 -0.0153854
0.254591 -0.00397072 0.379941 -5.42677e-05 -0.999882 0.0153854
-0.244438 -0.00523137 0.441055 0.00157675 0.983378 0.181561
-0.0866047 -0.0227724 0.357644 -0.0112854 -0.990487 -0.137145
-0.160745 -0.00215013 0.440699 0.297639 0.953868 -0.0393292
-0.124014 -0.00460281 0.357625 -0.00401328 0.990541 -0.137157
0.0641219 -0.025142 0.111595 -0.0946141 0.800858 -0.591333
0.00376799 -0.00914682 0.321289 -0.00401373 -0.990542 0.137152
0.0136439 -0.0211414 0.223727 0.386959 0.92192 -0.0180609
-0.00938284 -0.0180466 0.306057 -0.387018 0.922063 -0.00420563
0.0920904 -0.020734 0.0680511 -0.0207939 -0.999665 0.0153773
0.0556287 -0.0198679 0.0750491 -0.0207939 -0.999665 0.0153773
-0.211963 -0.00408391 0.372434 -5.42677e-05 0.999882 -0.0153854
-0.33626 -0.00353335 0.41598 0.000521234 0.999734 0.0230747
-0.00313578 -0.0313927 0.0553852 -0.39802 -0.902532 -0.164367
0.027576 -0.0414143 0.275964 0.923877 0.377656 -0.0618614
-0.0175215 -0.0132387 0.292139 -0.00401373 0.990542 -0.137152
0.356233 -0.0036725 0.422465 0.000521779 -0.999734 -0.02305
-0.423743 -0.00374911 0.394962 -5.56307e-05 0.999882 -0.0153681
0.00654391 -0.0191893 0.171254 0.386959 0.92192 -0.0180609
0.00349041 0.0156958 0.0586424 -0.999697 -0.0210136 0.012817
0.300201 -0.0176694 0.338366 -0.0112838 0.990488 0.137136
0.404587 -0.015627 0.332204 -0.0112838 0.990488 0.137136
0.0195271 -0.00382799 0.388388 -5.42677e-05 -0.999882 0.0153854
-0.273769 -0.0147156 0.314856 -0.0112838 -0.990488 -0.137136
0.00341816 -0.022903 0.0319844 0.941173 0.331242 -0.0668693
-0.00253339 0.0452313 0.0550547 0.997422 -0.0606406 -0.0383685
0.000973661 -0.0444732 0.564961 0.273458 0.819869 0.503026
0.364519 -0.00362918 0.402551 -5.56307e-05 -0.999882 0.0153681
0.144711 -0.0197909 0.340893 -0.0112854 0.990487 0.137145
0.435924 -0.0207431 0.384328 -0.00739558 0.999854 0.0153857
0.0699424 -0.026682 0.0522542 -0.0157257 0.990427 0.137137
-0.411592 -0.0212401 0.404927 -0.00739558 -0.999854 -0.0153857
0.148284 -0.0225217 0.434679 -0.00660041 0.998915 -0.046102
-0.175631 -0.0237818 0.0380289 -0.0190735 0.998159 -0.0575811
-0.437845 -0.00385724 0.43085 0.000733722 0.998939 0.0460583
-0.00230772 -0.00544738 0.0455859 0.992728 0.037019 0.114543
-0.201735 -0.00372571 0.395681 -5.56307e-05 0.999882 -0.0153681
0.142249 -0.00609793 0.444862 0.00157651 -0.983392 -0.181486
0.427758 -0.00353614 0.41817 0.000521779 -0.999734 -0.02305
-0.0802019 -0.0187712 0.45288 -0.00441662 -0.804395 0.594078
0.00523781 -0.0384845 0.440831 1 0 0
0.0650072 -0.0236136 0.419935 -0.00681651 0.999711 -0.0230765
0.0121222 -0.0192676 0.289661 0.387017 0.922059 -0.0050275
-0.00229352 -0.00573023 0.345921 -0.00401373 0.990542 -0.137152
-0.00256439 -0.037625 0.544911 -0.32453 0.894025 0.308867
0.156113 -0.0139712 0.2998 -0.0112838 0.990488 0.137136
-0.119563 -0.0124572 0.30077 -0.00401373 0.990542 -0.137152
-0.0261731 -0.0253704 0.0377623 -0.0157257 -0.990427 -0.137137
-0.0191586 -0.0482288 0.222737 -0.918954 -0.375658 -0.12002
-0.24512 -0.00352014 0.409213 -5.56307e-05 0.999882 -0.0153681
0.242165 -0.0107515 0.316676 -0.00401373 -0.990542 0.137152
-0.013953 -0.0252296 0.0353443 -0.0157257 -0.990427 -0.137137
0.0144956 -0.0216513 0.215948 0.386959 0.92192 -0.0180609
-0.440664 -0.0209864 0.42278 -0.00681761 -0.999711 0.0230529
0.000184282 -0.0362494 0.543377 0.323377 0.890847 0.31909
0.0694604 -0.0263735 0.0499709 -0.0157257 0.990427 0.137137
-0.00796816 -0.0362197 0.0987988 -0.924979 -0.359856 -0.122136
-0.257014 -0.00375227 0.423679 0.000521779 0.999734 0.02305
0.00072728 0.00133897 0.0296943 -0.992728 0.0370196 0.114542
0.0411814 -0.00356541 0.405529 -5.56307e-05 -0.999882 0.0153681
0.183602 -0.022767 0.0832361 -0.0239048 -0.999529 -0.0192218
0.28038 -0.00395014 0.381369 -5.42677e-05 -0.999882 0.0153854
0.118124 -0.0260569 0.0532647 -0.0157257 0.990427 0.137137
0.0033125 -0.0081231 0.0551583 -0.992728 0.0370196 0.114542
0.326746 -0.0115185 0.457589 0.00148848 -0.804448 -0.594021
-0.242704 -0.00409483 0.371833 -5.42677e-05 0.999882 -0.0153854
-0.01451 -0.0193972 0.0618322 -0.00548608 0.990535 -0.137152
-0.448935 -0.00402459 0.434656 0.000733722 0.998939 0.0460583
0.120202 -0.0232377 0.394679 -0.00739545 0.999854 0.0153846
0.0748732 -0.00367857 0.398293 -5.42677e-05 -0.999882 0.0153854
0.101513 -0.021742 0.0488377 -0.0190735 -0.998159 0.0575811
-0.126726 -0.024707 0.0399861 -0.00230367 -0.998338 -0.0575915
-0.0438544 -0.0207969 0.108697 -0.0429296 0.982474 0.181391
-0.244847 -0.0123338 0.305327 -0.00401373 0.990542 -0.137152
-0.402934 -0.0130037 0.45829 -0.00441662 -0.804395 0.594078
0.371618 -0.00771456 0.342397 -0.00401328 -0.990541 0.137157
-0.269066 -0.0123744 0.305743 -0.00401373 0.990542 -0.137152
-0.0343581 -0.0198245 0.105356 -0.0446158 0.982404 0.18136
-0.21847 -0.0192298 0.450536 -0.00564362 -0.983378 0.181483
-0.100275 -0.0228091 0.0406216 -0.00548608 0.990535 -0.137152
0.236659 -0.0041514 0.368136 -5.42677e-05 -0.999882 0.0153854
-0.151088 -0.0257332 0.0950513 -0.0412369 -0.982544 0.181404
-0.413707 -0.00368712 0.39896 -5.56307e-05 0.999882 -0.0153681
-0.40952 -0.0211307 0.396823 -0.00739558 -0.999854 -0.0153857
0.00564987 -0.0264213 0.520534 0.350687 0.822509 0.44777
-0.438729 -0.00392538 0.432342 0.000733722 0.998939 0.0460583
0.213561 -0.0132515 0.299328 -0.0112838 0.990488 0.137136
-0.175983 -0.00943959 0.389778 -0.824756 0.291513 -0.484559
0.0334719 -0.00378503 0.391229 -5.42677e-05 -0.999882 0.0153854
-0.0873368 -0.023449 0.392619 -0.00739544 -0.999854 -0.0153846
0.446404 -0.0207568 0.390253 -0.00739558 0.999854 0.0153857
-0.32676 -0.00844283 0.453424 0.0014866 0.804401 0.594085
0.248133 -0.0132983 0.302511 -0.0112838 0.990488 0.137136
-0.169593 -0.0259722 0.0633733 -0.0211543 -0.999756 -0.00641429
0.00580044 -0.0293027 0.0638257 -0.0157257 0.990427 0.137137
0.12945 -0.00430287 0.359951 -0.00401328 -0.990541 0.137157
0.138022 -0.0268086 0.079832 -0.0216542 0.999647 0.0153804
0.357064 -0.00592504 0.354895 -0.00401328 -0.990541 0.137157
0.306432 -0.00634943 0.350349 -0.00401328 -0.990541 0.137157
0.000212858 0.0480826 0.0101289 -0.992728 0.0370204 0.114547
0.127428 -0.0236342 0.0357487 -0.00548608 -0.990535 0.137152
-0.030141 -0.00393219 0.381653 -5.42677e-05 0.999882 -0.0153854
-0.215144 -0.00646215 0.447468 0.00157651 0.983392 0.181486
0.166776 -0.0227085 0.427984 -0.006599 0.998912 -0.0461581
0.0168184 -0.0476615 0.542189 0.86969 0.411094 0.273204
0.102158 -0.00392605 0.382306 -5.42677e-05 -0.999882 0.0153854
0.434043 -0.00386712 0.387322 -5.56307e-05 -0.999882 0.0153681
-0.40152 -0.0123981 0.458967 0.00148848 0.804448 0.594021
-0.00353398 -0.0681406 0.540039 -0.340103 -0.936927 0.0806116
-0.205583 -0.0226244 0.395866 -0.00739544 -0.999854 -0.0153846
0.425108 -0.0179555 0.451015 -0.00564362 0.983378 -0.181483
-0.00354667 -0.017882 0.31549 -0.0112854 -0.990487 -0.137145
-0.0210628 -0.0637887 0.342531 -0.925645 -0.378393 -0.000765935
-0.00292562 0.034841 0.0459832 0.999697 -0.0210136 0.012817
0.442352 -0.0105628 0.323897 -0.00401328 -0.990541 0.137157
-0.0381979 -0.0275051 0.0545584 -0.0157257 -0.990427 -0.137137
0.179795 -0.0258034 0.0707125 -0.0211543 0.999756 0.00641429
0.169231 -0.0260511 0.0744778 -0.0211543 0.999756 0.00641429
0.175902 -0.0250409 0.0477418 -0.00230367 0.998338 0.0575915
0.188916 -0.00375985 0.393414 -5.56307e-05 -0.999882 0.0153681
-0.204992 -0.00379595 0.391124 -5.42677e-05 0.999882 -0.0153854
0.0240198 -0.0305333 0.393464 0.925648 0.37838 -0.00208259
-0.269153 -0.0219315 0.381393 -0.00739558 -0.999854 -0.0153857
0.237305 -0.00374189 0.394757 -5.56307e-05 -0.999882 0.0153681
-0.109801 -0.00740738 0.336955 -0.00401373 0.990542 -0.137152
-0.0272145 -0.0487041 0.375504 -0.928012 -0.372551 3.85377e-05
-0.00274204 0.0417526 0.0546216 0.998798 -0.0450862 -0.0192077
0.0654885 -0.0128383 0.296434 -0.00401373 -0.990542 0.137152
-0.0205949 -0.0304723 0.237726 -0.923934 0.37768 -0.0608621
-0.00167123 0.0360369 0.069598 0.764493 -0.440653 -0.470506
0.330548 -0.0038765 0.386337 -5.56307e-05 -0.999882 0.0153681
0.244592 -0.0153117 0.316761 -0.0112838 0.990488 0.137136
-0.372374 -0.0213947 0.425268 -0.00681651 -0.999711 0.0230764
-0.234487 -0.00605472 0.350372 -0.00401328 0.990541 -0.137157
-0.162838 -0.0180138 0.32955 -0.0112854 -0.990487 -0.137145
-0.301518 -0.0168442 0.332515 -0.0112838 -0.990488 -0.137136
0.0656253 -0.00354548 0.406915 -5.56307e-05 -0.999882 0.0153681
0.121408 -0.0174913 0.322367 -0.0112854 0.990487 0.137145
-0.00697532 -0.00413043 0.368688 -5.42677e-05 0.999882 -0.0153854
0.00703435 -0.0562528 0.571671 0.478499 -0.259527 0.838859
-0.0688355 -0.0210213 0.445482 -0.00564362 -0.983378 0.181483
0.413418 -0.00410634 0.371687 -5.42677e-05 -0.999882 0.0153854
-0.0171464 -0.0663075 0.389473 -0.392994 -0.919541 -0.000997629
-0.250397 -0.0174146 0.332428 -0.0112854 -0.990487 -0.137145
-0.454645 -0.0209474 0.420336 -0.00681761 -0.999711 0.0230529
-0.133176 -0.0212009 0.44251 -0.00564156 -0.983358 0.181591
0.00221361 0.0586047 0.0294042 -0.999697 -0.0210142 0.0128157
0.130936 -0.0268505 0.0892766 -0.0246077 0.999512 -0.0192552
-0.296895 -0.0198248 0.353661 -0.0112854 -0.990487 -0.137145
0.323521 -0.0152543 0.322842 -0.0112838 0.990488 0.137136
-0.0153165 -0.0239907 0.3932 -0.00739544 -0.999854 -0.0153846
0.0654741 -0.0237277 0.400222 -0.00739545 0.999854 0.0153846
0.159126 -0.019434 0.451275 -0.00564362 0.983378 -0.181483
0.0683561 -0.0200995 0.0772036 -0.0207939 -0.999665 0.0153773
-0.0889514 -0.00674636 0.341118 -0.00401373 0.990542 -0.137152
0.131801 -0.0233792 0.409456 -0.00739545 0.999854 0.0153846
0.305061 -0.00845882 0.335075 -0.00401328 -0.990541 0.137157
-0.295137 -0.0125648 0.30513 -0.00401373 0.990542 -0.137152
-0.176461 -0.000636079 0.46599 -0.297415 0.95315 -0.0552206
0.360963 -0.00765709 0.342501 -0.00401328 -0.990541 0.137157
0.206866 -0.0223734 0.380168 -0.00739558 0.999854 0.0153857
0.0519147 -0.0189007 0.326828 -0.0112854 0.990487 0.137145
0.0403549 -0.0163302 0.456481 -0.00441662 0.804395 -0.594078
-0.0282753 -0.0428713 0.474426 -0.925859 0.371688 0.0680655
0.117029 -0.0266805 0.0576427 -0.0157257 0.990427 0.137137
0.0296577 -0.0162539 0.30588 -0.0112854 0.990487 0.137145
-0.0669146 -0.028455 0.0885139 -0.0241537 -0.999662 0.00961193
-0.448938 -0.0146416 0.328735 -0.0112838 -0.990488 -0.137136
0.0105921 -0.00393839 0.381181 -5.42677e-05 -0.999882 0.0153854
0.178291 -0.0104132 0.394644 0.868006 0.3068 -0.390435
0.131901 -0.0214779 0.0808973 -0.0225521 -0.999725 0.00641408
-0.107911 -0.010052 0.317799 -0.00401373 0.990542 -0.137152
0.345697 -0.0214528 0.387081 -0.00739558 0.999854 0.0153857
0.448427 -0.00363721 0.402332 -5.56307e-05 -0.999882 0.0153681
-0.289527 -0.00376122 0.393689 -5.56307e-05 0.999882 -0.0153681
0.270505 -0.0217499 0.370243 -0.00739558 0.999854 0.0153857
-0.317705 -0.0205183 0.440473 -0.0056448 -0.983383 0.181454
0.0934722 -0.0277753 0.0897154 -0.0250629 0.99942 -0.0230651
0.0197169 -0.0222986 0.0410859 -0.00548608 -0.990535 0.137152
-0.138663 -0.0266755 0.0884881 -0.0246077 -0.999512 0.0192552
-0.45498 -0.00845524 0.339487 -0.00401328 0.990541 -0.137157
0.102516 -0.0275484 0.0897197 -0.0250629 0.99942 -0.0230651
0.0294556 -0.0240943 0.406734 -0.00739545 0.999854 0.0153846
0.0106502 -0.0691351 0.466594 0.392978 -0.919503 0.00907295
-0.273157 -0.00509352 0.440558 0.00157675 0.983378 0.181561
-0.163375 -0.00647779 0.345236 -0.00401328 0.990541 -0.137157
-0.0352356 -0.0197941 0.060649 -0.0190735 0.998159 -0.0575811
0.025862 -0.0490533 0.497712 0.92751 -0.372349 0.0328925
-0.460862 -0.020845 0.422938 -0.00681761 -0.999711 0.0230529
-0.377761 -0.00781708 0.341837 -0.00401328 0.990541 -0.137157
-0.0218169 -0.0451702 0.233517 -0.918954 -0.375658 -0.12002
0.0169932 -0.0223601 0.348938 -0.0112854 0.990487 0.137145
0.00580898 -0.0226245 0.0381764 -0.00548608 -0.990535 0.137152
0.47497 -0.00998104 0.436235 -0.6672 -0.732495 -0.135258
0.00907061 -0.0180012 0.287025 0.387017 0.922059 -0.0050275
0.114542 -0.0209867 0.347047 -0.0112854 0.990487 0.137145
-0.00183526 0.0700915 0.0187312 0.999697 -0.0210147 0.0128157
-0.00273247 -0.0233155 0.055042 0.992728 0.037019 0.114543
-0.0237223 -0.0296659 0.443189 -0.928009 0.372552 -0.00205824
-0.0029663 0.0363013 0.0515508 0.999697 -0.0210147 0.0128157
-0.15072 -0.00996075 0.464494 0.866408 0.499335 -0.000871502
0.41402 -0.0213413 0.415268 -0.00681761 0.999711 -0.0230529
0.418302 -0.0114328 0.316911 -0.00401373 -0.990542 0.137152
0.199104 -0.0198674 0.447683 -0.00564362 0.983378 -0.181483
0.00059456 0.0377069 0.0167902 -0.992728 0.0370204 0.114547
0.351194 -0.0037166 0.424264 0.000521779 -0.999734 -0.02305
-0.312549 -0.0189839 0.348876 -0.0112854 -0.990487 -0.137145
-0.452767 -0.0192418 0.362276 -0.0112838 -0.990488 -0.137136
-0.0167139 -0.00414099 0.430299 0.000733236 0.998936 0.04611
0.0425192 -0.0285529 0.0626214 -0.0157257 0.990427 0.137137
0.430297 -0.0210887 0.404085 -0.00739558 0.999854 0.0153857
-0.351405 -0.0213024 0.380045 -0.00739558 -0.999854 -0.0153857
-0.0180253 -0.0585161 0.529932 -0.915401 -0.368388 0.162269
-0.0167897 -0.0433467 0.189318 -0.918954 -0.375658 -0.12002
-0.228789 -0.00407179 0.432173 0.000733722 0.998939 0.0460583
-0.383396 -0.00483251 0.363556 -0.00401328 0.990541 -0.137157
-0.402918 -0.0144381 0.323479 -0.0112838 -0.990488 -0.137136
0.00121326 -0.00469544 0.353363 -0.00401373 -0.990542 0.137152
0.227518 -0.00678562 0.449328 0.00157494 -0.983374 -0.181584
0.310767 -0.00355706 0.407049 -5.56307e-05 -0.999882 0.0153681
0.210121 -0.0208667 0.354045 -0.0112854 0.990487 0.137145
0.00309292 -0.0192019 0.507899 0.390399 0.915649 0.0957897
0.254054 -0.00395478 0.380975 -5.42677e-05 -0.999882 0.0153854
-0.407234 -0.00367617 0.399648 -5.56307e-05 0.999882 -0.0153681
-0.326588 -0.0126419 0.305494 -0.00401373 0.990542 -0.137152
-0.264602 -0.00440889 0.363139 -0.00401328 0.990541 -0.137157
0.0551573 -0.0126147 0.297747 -0.00401373 -0.990542 0.137152
-0.0642564 -0.0225076 0.0413587 -0.00548608 0.990535 -0.137152
-0.00966189 -0.0181818 0.302109 -0.387018 0.922063 -0.00420563
-0.0201319 -0.0472745 0.227202 -0.918954 -0.375658 -0.12002
0.00154486 -0.00198819 0.0378555 -0.992728 0.0370196 0.114542
-0.0242797 -0.0559603 0.362773 -0.925645 -0.378393 -0.000765935
0.000267874 -0.051068 0.45143 0 -1 0
-0.00484769 -0.0184233 0.167379 -0.386965 0.921937 -0.0170481
-0.00311593 0.0314711 0.059313 0.998798 -0.0450856 -0.019207
0.109491 -0.0126592 0.299016 -0.00401373 -0.990542 0.137152
0.411298 -0.0212262 0.421064 -0.00681761 0.999711 -0.0230529
-0.311495 -0.00410267 0.371566 -5.42677e-05 0.999882 -0.0153854
-0.393403 -0.00638603 0.448603 0.00157494 0.983374 0.181584
-0.0109625 -0.0184382 0.365584 -0.387018 0.922063 -0.00420563
-0.179329 -0.0265866 0.465827 -0.331638 -0.94256 -0.0399557
-0.0145206 -0.0341721 0.143229 -0.918954 -0.375658 -0.12002
-0.0486607 -0.0223135 0.43911 -0.00564156 -0.983358 0.181591
-0.306547 -0.0186512 0.450933 -0.00564362 -0.983378 0.181483
-0.0744844 -0.0269057 0.106114 -0.0412369 -0.982544 0.181404
-0.000277406 -0.00237578 0.0269967 0.992728 0.037019 0.114543
-0.226647 -0.0190362 0.342184 -0.0112854 -0.990487 -0.137145
-0.476556 -0.0107392 0.413327 -0.812865 0.578616 -0.066739
-0.226703 -0.0223055 0.428138 -0.006599 -0.998912 0.0461581
-0.36924 -0.0215402 0.404071 -0.00739544 -0.999854 -0.0153846
0.334769 -0.0133118 0.45838 -0.00441662 0.804395 -0.594078
-0.0636848 -0.0124374 0.299277 -0.00401373 0.990542 -0.137152
-0.381152 -0.0133017 0.31348 -0.0112838 -0.990488 -0.137136
-0.0382437 -0.019799 0.104263 -0.0446158 0.982404 0.18136
0.143533 -0.0251837 0.0489218 -0.00230367 0.998338 0.0575915
-0.00274501 0.0391771 0.0390051 0.999697 -0.0210136 0.012817
-0.265213 -0.00356097 0.415571 0.000521234 0.999734 0.0230747
-0.28549 -0.00407556 0.433158 0.000733722 0.998939 0.0460583
0.00753958 -0.0667983 0.539707 0.338951 -0.933751 0.114987
0.067811 -0.0241233 0.0298315 -0.00548608 -0.990535 0.137152
-0.00321508 0.0207762 0.0455006 0.999697 -0.0210136 0.012817
0.012794 -0.0196356 0.328916 -0.0112854 0.990487 0.137145
-0.290259 -0.0102642 0.321603 -0.00401373 0.990542 -0.137152
-0.0247549 -0.029284 0.0812486 -0.0216542 -0.999647 -0.0153804
-0.347391 -0.005773 0.444883 0.00157651 0.983392 0.181486
-0.311545 -0.00791349 0.452669 0.0014866 0.804401 0.594085
-0.170014 -0.0256385 0.0897224 -0.0284979 -0.996662 0.076499
-0.0725413 -0.0232123 0.370121 -0.00739544 -0.999854 -0.0153846
-0.217245 -0.00359791 0.404053 -5.56307e-05 0.999882 -0.0153681
-0.152124 -0.0118305 0.477873 0.399008 0.163277 0.902293
-0.187166 -0.00944779 0.324482 -0.00401373 0.990542 -0.137152
-0.251249 -0.0223682 0.401169 -0.00739544 -0.999854 -0.0153846
0.0597055 -0.0285898 0.0911143 -0.0250629 0.99942 -0.0230651
0.314492 -0.0172543 0.336544 -0.0112838 0.990488 0.137136
0.0769067 -0.0208792 0.100603 -0.0446158 -0.982404 -0.18136
-0.0611737 -0.0255214 0.111553 -0.0946141 -0.800858 0.591333
-0.00221897 -0.027503 0.0317101 -0.432629 -0.887207 -0.160299
-0.0014185 -0.0143827 0.468836 -0.390383 0.915612 0.0962077
0.0791056 -0.0222985 0.0434628 -0.00548608 -0.990535 0.137152
-0.00383901 -0.0187718 0.0762789 -0.0207939 0.999665 -0.0153773
0.0504585 -0.00392077 0.382467 -5.42677e-05 -0.999882 0.0153854
0.0126977 -0.0293387 0.0678342 -0.0216542 0.999647 0.0153804
-0.141785 -0.0204595 0.345481 -0.0112854 -0.990487 -0.137145
-0.326347 -0.0217867 0.421882 -0.00681761 -0.999711 0.0230529
0.00503421 -0.0661384 0.549688 0.337079 -0.928594 0.155209
0.181725 -0.0226586 0.0720472 -0.0225521 -0.999725 0.00641408
0.340125 -0.00922676 0.330555 -0.00401328 -0.990541 0.137157
-0.347212 -0.00382469 0.389768 -5.56307e-05 0.999882 -0.0153681
-0.00332573 -0.00569655 0.0544894 0.992728 0.037019 0.114543
-0.227011 -0.00376498 0.393218 -5.56307e-05 0.999882 -0.0153681
-0.153684 -0.00474117 0.357494 -0.00401328 0.990541 -0.137157
0.00417946 -0.00820556 0.0732 -0.999697 -0.0210136 0.012817
0.069688 -0.0244608 0.0334369 -0.00230367 0.998338 0.0575915
0.0359277 -0.0212886 0.0490291 -0.00548608 -0.990535 0.137152
0.345266 -0.00373855 0.395365 -5.56307e-05 -0.999882 0.0153681
0.0934006 -0.0277201 0.0762543 -0.0216542 0.999647 0.0153804
0.160131 -0.0145019 0.394032 -0.747988 -0.500804 -0.435555
-0.159998 -0.00369743 0.416093 0.231334 0.971246 -0.056269
-0.308142 -0.00944405 0.32805 -0.00401328 0.990541 -0.137157
-0.0244142 -0.0374781 0.252232 -0.923934 0.37768 -0.0608621
-0.024762 -0.0388614 0.500292 -0.925517 0.372459 0.0685059
0.0259405 -0.0386677 0.483154 0.925543 0.37247 0.0680854
0.331824 -0.0215705 0.38806 -0.00739558 0.999854 0.0153857
0.0997245 -0.0226186 0.0419753 -0.00548608 -0.990535 0.137152
-0.0380479 -0.0238352 0.39402 -0.00739544 -0.999854 -0.0153846
0.107942 -0.0088599 0.32641 -0.00401373 -0.990542 0.137152
-0.393681 -0.00376851 0.427477 0.000521779 0.999734 0.02305
-0.168326 -0.00932614 0.454223 0.0014866 0.804401 0.594085
-0.0284576 -0.0456022 0.428238 -0.928012 -0.372551 3.85377e-05
0.0267401 -0.00423482 0.361974 -5.42677e-05 -0.999882 0.0153854
0.00420393 -0.0423295 0.556279 0.323377 0.890847 0.31909
-0.18329 -0.00693347 0.342528 -0.00401328 0.990541 -0.137157
0.455774 -0.0207703 0.427683 -0.00681761 0.999711 -0.0230529
0.0285359 -0.0453844 0.346988 0.925645 -0.378394 5.02777e-05
-0.0158199 -0.01885 0.0953528 -0.0254916 0.999409 0.0230547
0.113544 -0.0187063 0.45272 -0.0044184 0.80444 -0.594017
-0.0133371 -0.0278037 0.144922 -0.930063 0.361834 -0.0637044
-0.0795045 -0.0260647 0.107884 -0.0946141 -0.800858 0.591333
0.0537159 -0.0140215 0.291737 -0.0112838 0.990488 0.137136
-0.0265085 -0.0371957 0.291405 -0.925649 0.378381 -0.00126833
-0.200771 -0.00973363 0.322816 -0.00401373 0.990542 -0.137152
-0.0197183 -0.0477347 0.225475 -0.918954 -0.375658 -0.12002
-0.438732 -0.011421 0.317594 -0.00401328 0.990541 -0.137157
-0.0560727 -0.00392352 0.382308 -5.42677e-05 0.999882 -0.0153854
-0.0681479 -0.0247176 0.0378264 -0.00230367 -0.998338 -0.0575915
0.000671611 0.0231079 0.083331 -0.764492 -0.440653 -0.470506
-0.0128685 -0.0640674 0.545043 -0.312803 -0.937625 0.151702
0.011524 -0.0236914 0.0306993 -0.00548608 -0.990535 0.137152
0.0835438 -0.0215655 0.348676 -0.0112854 0.990487 0.137145
0.370115 -0.0205684 0.365056 -0.0112854 0.990487 0.137145
-0.11496 -0.0126186 0.299469 -0.00401373 0.990542 -0.137152
0.225379 -0.0223653 0.388545 -0.00739545 0.999854 0.0153846
-0.270875 -0.00727425 0.34263 -0.00401328 0.990541 -0.137157
-0.23909 -0.0184511 0.338983 -0.0112854 -0.990487 -0.137145
-0.16711 -0.00272644 0.4097 0.227148 0.953671 -0.197269
-0.389244 -0.0142046 0.320667 -0.0112838 -0.990488 -0.137136
0.0208232 -0.0228552 0.367716 0.925648 0.37838 -0.00208259
-0.0115283 -0.0225724 0.118925 -0.100078 0.800428 0.591015
-0.0812092 -0.0236823 0.412173 -0.00681651 -0.999711 0.0230764
0.00724057 -0.0648204 0.552781 0.337079 -0.928594 0.155209
0.0258626 -0.0519254 0.335316 0.925645 -0.378394 5.02777e-05
0.403745 -0.0214368 0.414166 -0.00681761 0.999711 -0.0230529
-0.165406 -0.0228364 0.390334 -0.00739544 -0.999854 -0.0153846
-0.105992 -0.00426059 0.360578 -5.42677e-05 0.999882 -0.0153854
-0.179695 -0.0134182 0.459388 -0.00441662 -0.804395 0.594078
0.00896071 -0.0372397 0.53863 0.307993 0.848467 0.4304
0.0100126 -0.0178983 0.378629 0.392994 0.919531 -0.00419736
-0.212025 -0.00897848 0.328599 -0.00401373 0.990542 -0.137152
-0.382518 -0.0213879 0.40056 -0.00739558 -0.999854 -0.0153857
0.195825 -0.0225434 0.427404 -0.006599 0.998912 -0.0461581
0.166425 -0.0156315 0.31264 -0.0112838 0.990488 0.137136
-0.134179 -0.0222989 0.35814 -0.0112854 -0.990487 -0.137145
-0.0215173 -0.0294457 0.0872013 -0.0216542 -0.999647 -0.0153804
-0.0088763 -0.0204033 0.156295 -0.403424 0.91481 -0.0192801
-0.0141213 -0.0619078 0.254109 -0.382067 -0.910257 -0.159554
0.276511 -0.00409017 0.372255 -5.42677e-05 -0.999882 0.0153854
0.230529 -0.0222832 0.385684 -0.00739545 0.999854 0.0153846
0.0788625 -0.0042738 0.434166 0.000733722 -0.998938 -0.0460583
0.448609 -0.00356392 0.407102 -5.56307e-05 -0.999882 0.0153681
0.0133805 -0.0458482 0.550405 0.86969 0.411094 0.273204
0.0533169 -0.0187115 0.325577 -0.0112854 0.990487 0.137145
0.0285712 -0.0162644 0.305867 -0.0112854 0.990487 0.137145
-0.0781507 -0.0221122 0.0447698 -0.00548608 0.990535 -0.137152
-0.199948 -0.0227072 0.419342 -0.00681651 -0.999711 0.0230764
-0.336114 -0.0218308 0.407036 -0.00739544 -0.999854 -0.0153846
0.377411 -0.0080212 0.452979 0.0014866 -0.804401 -0.594085
-0.12386 -0.00395161 0.4279 0.000733236 0.998936 0.04611
0.163379 -0.0222516 0.0709888 -0.0225521 -0.999725 0.00641408
0.00168473 -0.0651236 0.242403 0.382128 -0.910401 -0.158579
-0.131006 -0.0255287 0.0509271 -0.0157257 -0.990427 -0.137137
7.65563e-05 0.035275 0.0729027 -0.764492 -0.440653 -0.470506
-0.00358024 0.0156222 0.0655325 0.999697 -0.0210147 0.0128157
-0.354241 -0.0157461 0.328921 -0.0112838 -0.990488 -0.137136
0.0508863 -0.0264447 0.111948 -0.0946141 0.800858 -0.591333
0.00765523 -0.00414834 0.367527 -5.42677e-05 -0.999882 0.0153854
0.00217857 0.0488271 0.054018 -0.976496 -0.154535 -0.150246
0.435412 -0.00878279 0.336549 -0.00401328 -0.990541 0.137157
0.0942893 -0.021921 0.352128 -0.0112854 0.990487 0.137145
0.0563949 -0.0069721 0.448853 0.00157651 -0.983392 -0.181486
0.25447 -0.00797608 0.452611 0.0014866 -0.804401 -0.594085
0.19621 -0.0104058 0.317828 -0.00401373 -0.990542 0.137152
0.0313292 -0.0194867 0.329366 -0.0112854 0.990487 0.137145
0.0226295 -0.0548798 0.269999 0.919063 -0.375703 -0.119036
0.00479705 -0.0714784 0.368548 0.392993 -0.91954 -0.00181298
0.0626718 -0.0200944 0.0698489 -0.0207939 -0.999665 0.0153773
-0.00233048 0.0120184 0.0401384 0.992728 0.037019 0.114543
-0.453227 -0.0163781 0.341631 -0.0112838 -0.990488 -0.137136
0.339636 -0.0218392 0.409278 -0.00739545 0.999854 0.0153846
0.12856 -0.0211514 0.34939 -0.0112854 0.990487 0.137145
-0.171962 -0.0222893 0.39425 -0.492864 -0.858963 -0.13881
-0.0447487 -0.00713752 0.337 -0.00401373 0.990542 -0.137152
0.367175 -0.0176124 0.452315 -0.0044184 0.80444 -0.594017
-0.0318274 -0.0246753 0.117394 -0.0946141 -0.800858 0.591333
-0.000934335 -0.0731108 0.355577 -0.387024 -0.922068 -0.00181802
-0.216446 -0.0220129 0.362843 -0.0112854 -0.990487 -0.137145
0.00249804 -0.0233322 0.123857 -0.764492 -0.440653 -0.470506
-0.402391 -0.0145658 0.324359 -0.0112838 -0.990488 -0.137136
-0.0264351 -0.0506453 0.379574 -0.928012 -0.372551 3.85377e-05
0.249893 -0.00365983 0.419509 0.000521234 -0.999734 -0.0230747
0.0663357 -0.0145378 0.296505 -0.0112838 0.990488 0.137136
0.0300415 -0.00371549 0.395736 -5.42677e-05 -0.999882 0.0153854
-0.168201 -0.0153711 0.310905 -0.0112838 -0.990488 -0.137136
0.197675 -0.0120539 0.305968 -0.00401373 -0.990542 0.137152
-0.173713 -0.0230125 0.40577 -0.00739544 -0.999854 -0.0153846
0.00299309 0.0352397 0.0568584 -0.998798 -0.045086 -0.0192077
0.122098 -0.0105353 0.314724 -0.00401373 -0.990542 0.137152
-0.124597 -0.0228699 0.430525 -0.00660041 -0.998915 0.046102
0.195385 -0.0165649 0.321764 -0.0112838 0.990488 0.137136
-0.180108 -0.0257566 0.083218 -0.0246077 -0.999512 0.0192552
0.0296631 -0.0282765 0.0591512 -0.0157257 0.990427 0.137137
0.325692 -0.00390772 0.430159 0.000733236 -0.998936 -0.04611
0.0557392 -0.0231724 0.35945 -0.00739558 0.999854 0.0153857
0.303515 -0.00789336 0.339113 -0.00401328 -0.990541 0.137157
-0.296646 -0.00375159 0.394341 -5.56307e-05 0.999882 -0.0153681
-0.02949 -0.0191448 0.0867157 -0.0207939 0.999665 -0.0153773
-0.0326776 -0.00378623 0.391148 -5.42677e-05 0.999882 -0.0153854
-0.231747 -0.00803297 0.452631 0.0014866 0.804401 0.594085
-0.00814515 -0.017213 0.371764 -0.392993 0.919528 -0.00501377
-0.223083 -0.0130233 0.459367 0.00148848 0.804448 0.594021
0.224587 -0.0064481 0.447474 0.00157651 -0.983392 -0.181486
0.0138299 -0.0483015 0.181296 0.919063 -0.375703 -0.119036
-0.254935 -0.0173337 0.332217 -0.0112838 -0.990488 -0.137136
0.241736 -0.00414631 0.368484 -5.42677e-05 -0.999882 0.0153854
-0.102482 -0.0218363 0.100451 -0.0429296 0.982474 0.181391
0.0112426 -0.0205952 0.200157 0.386959 0.92192 -0.0180609
0.0445075 -0.0232648 0.360056 -0.00739558 0.999854 0.0153857
0.107129 -0.0267562 0.0985876 -0.0284979 0.996662 -0.076499
0.363059 -0.0146038 0.321396 -0.0112838 0.990488 0.137136
-0.00278864 0.0430732 0.048796 0.999697 -0.0210147 0.0128157
-0.140753 -0.0154298 0.30907 -0.0112838 -0.990488 -0.137136
0.303668 -0.00384306 0.388415 -5.56307e-05 -0.999882 0.0153681
0.0688733 -0.0233052 0.42907 -0.00660041 0.998915 -0.046102
0.0256556 -0.0349881 0.311173 0.925648 0.37838 -0.00208259
0.369376 -0.0211957 0.381754 -0.00739558 0.999854 0.0153857
0.18394 -0.0227184 0.391574 -0.00739545 0.999854 0.0153846
-0.352504 -0.0167539 0.336057 -0.0112838 -0.990488 -0.137136
0.468194 -0.00366015 0.400911 -5.56307e-05 -0.999882 0.0153681
-0.222837 -0.0222953 0.382773 -0.00739558 -0.999854 -0.0153857
-0.087595 -0.00402661 0.375719 -5.42677e-05 0.999882 -0.0153854
-0.00982709 -0.0204556 0.173706 -0.403424 0.91481 -0.0192801
0.00164986 -0.0551033 0.184793 0.382128 -0.910401 -0.158579
-0.432336 -0.0101973 0.326244 -0.00401328 0.990541 -0.137157
-0.00990312 -0.0297147 0.0883326 -0.0216542 -0.999647 -0.0153804
0.0205058 -0.0643171 0.475833 0.927183 -0.37313 0.0332617
-0.0243887 -0.055741 0.397421 -0.928012 -0.372551 3.85377e-05
-0.17097 -0.025985 0.0699074 -0.0211543 -0.999756 -0.00641429
0.167103 -0.0228994 0.39524 -0.00739545 0.999854 0.0153846
0.38398 -0.0214888 0.417756 -0.00681761 0.999711 -0.0230529
-0.112563 -0.0118808 0.304728 -0.00401373 0.990542 -0.137152
0.455633 -0.0167047 0.344187 -0.0112838 0.990488 0.137136
0.0125725 -0.0473705 0.16865 0.919063 -0.375703 -0.119036
-0.314147 -0.0220002 0.407487 -0.00739544 -0.999854 -0.0153846
0.407235 -0.0035526 0.418419 0.000521779 -0.999734 -0.02305
0.309742 -0.00418178 0.366419 -5.42677e-05 -0.999882 0.0153854
0.229763 -0.00400871 0.430821 0.000733236 -0.998936 -0.04611
0.00322734 -0.00432816 0.0531937 -0.992728 0.0370196 0.114542
-0.00419561 -0.00817941 0.0745072 0.999697 -0.0210136 0.012817
0.00513917 -0.0713971 0.401507 0.392993 -0.91954 -0.00181298
0.218413 -0.00823741 0.334138 -0.00401373 -0.990542 0.137152
0.362304 -0.00351107 0.410228 -5.56307e-05 -0.999882 0.0153681
0.110482 -0.016937 0.317465 -0.0112854 0.990487 0.137145
0.227704 -0.0156433 0.317767 -0.0112838 0.990488 0.137136
-0.27852 -0.0222181 0.404523 -0.00739544 -0.999854 -0.0153846
0.0557166 -0.0231765 0.359707 -0.00739558 0.999854 0.0153857
-0.226228 -0.0227084 0.411521 -0.00681761 -0.999711 0.0230529
0.0381562 -0.00374133 0.394085 -5.42677e-05 -0.999882 0.0153854
0.101936 -0.0234538 0.415949 -0.00681651 0.999711 -0.0230765
-0.0234998 -0.02979 0.304967 -0.925649 0.378381 -0.00126833
-0.181419 -0.0042855 0.435385 0.00157639 0.983373 0.181588
-0.179191 -0.00886846 0.453631 0.0014866 0.804401 0.594085
0.119565 -0.0169697 0.318449 -0.0112854 0.990487 0.137145
-0.101253 -0.0213095 0.0562483 -0.0190735 0.998159 -0.0575811
-0.109827 -0.0245675 0.0368922 -0.00230367 -0.998338 -0.0575915
0.100387 -0.0276886 0.0841086 -0.0241538 0.999662 -0.00961199
0.00434941 -0.0159977 0.291026 0.387017 0.922059 -0.0050275
-0.0122193 -0.0683882 0.366332 -0.392994 -0.919541 -0.000997629
-0.0370372 -0.0173938 0.31472 -0.0112854 -0.990487 -0.137145
-0.00283249 -0.0127709 0.0525009 0.992728 0.037019 0.114543
0.116051 -0.0255064 0.102792 -0.0946141 0.800858 -0.591333
-0.0410313 -0.0258769 0.0431244 -0.0157257 -0.990427 -0.137137
-0.300035 -0.0203145 0.442126 -0.00564156 -0.983358 0.181591
0.458777 -0.01714 0.347591 -0.0112838 0.990488 0.137136
-0.00756891 -0.0349765 0.0921122 -0.924979 -0.359856 -0.122136
-0.000680088 0.0618929 0.00971565 0.992728 0.0370224 0.114547
0.176015 -0.00617883 0.445593 0.00157651 -0.983392 -0.181486
-0.432778 -0.00377377 0.393391 -5.56307e-05 0.999882 -0.0153681
-0.457912 -0.00779114 0.344369 -0.00401328 0.990541 -0.137157
0.08791 -0.0204683 0.0857935 -0.0254916 -0.999409 -0.0230547
-0.114034 -0.0225828 0.358532 -0.0112854 -0.990487 -0.137145
0.311432 -0.0215752 0.43183 -0.006599 0.998912 -0.0461581
-0.333513 -0.021836 0.417626 -0.00681761 -0.999711 0.0230529
-0.0440456 -0.00426708 0.359938 -5.42677e-05 0.999882 -0.0153854
-0.00505356 -0.0712503 0.493324 -0.392976 -0.9195 0.00947254
0.358418 -0.0168705 0.453385 -0.0044184 0.80444 -0.594017
-0.0269472 -0.0161256 0.304731 -0.0112854 -0.990487 -0.137145
-0.151532 -0.00856863 0.455507 0.866408 0.499335 -0.000871502
-0.00346392 -0.0240446 0.061617 0.992728 0.037019 0.114543
-0.0167375 -0.0275644 0.197212 -0.923934 0.37768 -0.0608621
-0.226656 -0.00816326 0.452794 0.0014866 0.804401 0.594085
-0.114295 -0.025434 0.0483266 -0.0157257 -0.990427 -0.137137
-0.0150349 -0.0211861 0.249205 -0.386965 0.921937 -0.0170481
-0.194927 -0.0222031 0.363363 -0.00739558 -0.999854 -0.0153857
-0.0240273 -0.0381661 0.242138 -0.930063 0.361834 -0.0637044
-0.420181 -0.0035707 0.406557 -5.56307e-05 0.999882 -0.0153681
-0.371181 -0.0212051 0.431297 -0.006599 -0.998912 0.0461581
0.162115 -0.00687331 0.449236 0.00157494 -0.983374 -0.181584
-0.00294163 -0.0391771 0.0976585 -0.39802 -0.902532 -0.164367
0.0524264 -0.0235129 0.37999 -0.00739545 0.999854 0.0153846
-0.31996 -0.0201184 0.442569 -0.00564156 -0.983358 0.181591
-0.00096119 0.0334635 0.02134 0.992728 0.037019 0.114543
0.0117916 -0.0276 0.0522156 -0.0157257 0.990427 0.137137
-0.377855 -0.00947391 0.329874 -0.00401328 0.990541 -0.137157
-0.464047 -0.00403637 0.376419 -5.56307e-05 0.999882 -0.0153681
-0.112585 -0.0259937 0.101989 -0.0576694 -0.95417 0.293655
-0.00949945 -0.0191411 0.234151 -0.386965 0.921937 -0.0170481
0.00517134 -0.0161784 0.321153 0.387017 0.922059 -0.0050275
-0.215478 -0.0134864 0.301182 -0.0112838 -0.990488 -0.137136
0.00285566 0.03335 0.0380763 -0.999697 -0.0210142 0.0128157
0.138648 -0.0200985 0.448312 -0.00564362 0.983378 -0.181483
-0.295845 -0.0076162 0.340891 -0.00401328 0.990541 -0.137157
0.0246881 -0.032464 0.339729 0.925648 0.37838 -0.00208259
0.222415 -0.00389346 0.384848 -5.42677e-05 -0.999882 0.0153854
-0.160916 -0.00415637 0.367545 -5.42677e-05 0.999882 -0.0153854
0.184662 -0.0241156 0.467362 0.890309 -0.454951 -0.0192291
