0.407922 -0.0759201 0.328883 0.0372795 0.989862 0.137056
-0.290388 -0.07949 0.435439 -0.0955573 -0.978883 0.180714
0.0353238 -0.0783311 0.754264 0.824256 -0.560171 0.0825216
-0.0261374 -0.0114245 0.441903 -0.521074 0.853501 -0.00422322
0.13162 0.091885 0.0311716 0.0602257 -0.988755 0.136884
0.042897 -0.0729012 0.566496 0.807171 -0.590304 0.00400071
-0.059151 -0.0501809 0.219839 0.766792 0.635769 0.0884782
0.0911378 -0.0698244 0.424696 0.00659699 -0.981277 0.192491
-0.0461854 -0.0308822 0.618775 -0.807213 0.59026 -0.00056611
-0.0409092 -0.0892278 0.517136 -0.0568199 -0.998147 -0.0217569
0.0352792 -0.0820557 0.437592 -0.0124311 0.981227 0.192456
0.464805 -0.0723234 0.334412 -0.00673209 -0.999859 0.0153634
-0.0176956 -0.0602444 0.498186 -0.0552201 0.998237 -0.0217573
-0.164317 -0.0820533 0.458049 -0.00681407 -0.999858 -0.0154114
-0.0178098 -0.00827378 0.286929 -0.174255 0.984643 -0.010613
0.144185 -0.0824406 0.473332 -0.0567796 0.998268 0.0153869
0.0483627 -0.0388168 0.472207 0.977138 0.212603 -0.00118805
0.00307312 -0.0835022 0.844601 0.16564 -0.923419 0.34621
-0.000509299 -0.00488328 0.310909 -0.178811 0.983822 -0.0109655
-0.0841162 -0.0674874 0.539608 -0.174651 0.952573 0.249201
0.10398 0.0877991 0.080092 -0.105315 0.98285 -0.151374
-0.0407259 -0.0616998 0.786861 -0.971682 -0.207019 0.113917
0.0580908 -0.0867293 0.462894 -0.0124311 0.981227 0.192456
-0.273524 -0.0696684 0.423383 -0.00673209 0.999859 -0.0153634
-0.00534536 -0.00584801 0.303213 -0.178811 0.983822 -0.0109655
0.0151031 -0.0899817 0.48433 -0.0568199 0.998147 0.0217569
0.0486322 -0.0396651 0.621122 0.97711 0.212734 -9.78337e-05
-0.085939 0.0930337 0.0737619 -0.001456 0.999879 -0.0154864
0.0579609 0.0863542 0.0778361 -0.00300403 0.999913 0.0128757
-0.39946 -0.077103 0.339729 0.0372795 -0.989862 -0.137056
-0.00179004 -0.0193593 0.0978498 -0.136619 0.77198 -0.620792
-0.0441196 -0.0730514 0.183907 -0.80736 -0.590053 0.00261828
-0.142141 -0.0702254 0.430845 -0.0265126 0.9902 -0.137119
0.0631802 -0.0781661 0.419564 -0.0124311 0.981227 0.192456
0.217278 -0.0736986 0.386735 0.0373857 -0.989855 0.137072
-0.00535109 0.0202167 0.136943 -0.995032 -0.0875662 -0.0473639
-0.205662 -0.0783617 0.401536 0.037275 -0.989865 -0.137034
0.159024 -0.0684929 0.449706 -0.00673389 -0.999859 0.0153596
0.0332448 -0.0850682 0.37153 0.521273 -0.85338 0.00414163
-0.404217 -0.0790386 0.36853 -0.00681407 -0.999858 -0.0154114
-0.00315506 0.0222486 0.105899 -0.910561 -0.133078 -0.391368
0.00702345 -0.091566 0.535911 -0.0568199 0.998147 0.0217569
0.0718505 0.0887531 0.0463185 0.0487491 0.99223 0.114466
-0.0677174 -0.0670715 0.439533 0.00659699 0.981277 -0.192491
0.0161246 -0.0920273 0.656849 0.178808 -0.983831 0.0102305
0.00185753 0.0482193 0.237543 0.302687 0.953089 0.00110446
0.0100532 -0.0948385 0.446539 0.178912 -0.983853 0.00483117
0.0255751 -0.0116043 0.350904 0.521262 0.853356 -0.00830249
-0.154965 -0.0685384 0.444964 -0.00673389 0.999859 -0.0153596
-0.0463254 -0.0696893 0.261421 -0.80736 -0.590053 0.00261828
-0.0790049 0.0930885 0.0766485 -0.001456 0.999879 -0.0154864
-0.0282947 -0.0880089 0.388474 -0.521273 -0.85338 0.00416809
-0.0435245 -0.0730202 0.37382 -0.80736 -0.590053 0.00281319
0.0702846 -0.0841153 0.545507 -0.140459 0.973634 -0.179746
0.0376644 -0.0808291 0.418077 0.807175 -0.590306 0.00281447
0.0737869 0.0863478 0.0820245 -0.00300403 0.999913 0.0128757
-0.184388 -0.0684999 0.466007 -0.0231703 0.999466 0.0230296
-0.0591754 -0.0660666 0.551656 -0.174651 0.952573 0.249201
0.000331922 -0.0136386 0.179093 -0.996875 0.0590419 -0.0524783
0.403 -0.0729543 0.341455 0.0373766 -0.989859 0.13705
-0.0477186 -0.0649037 0.347699 -0.977133 -0.212625 0.00133713
0.0365853 -0.0825269 0.371404 0.80736 -0.590053 0.00277837
-0.0678843 -0.0434867 0.193582 -0.886696 0.164127 -0.432242
-0.0198227 -0.0682592 0.843617 -0.833984 -0.18383 0.520266
-0.274075 -0.0804656 0.403574 -0.00681407 -0.999858 -0.0154114
-0.0322005 -0.0848447 0.540885 -0.521061 -0.853473 0.00889845
-0.0486047 -0.0400023 0.458189 -0.977109 0.212734 -0.00118869
-0.0496047 -0.0458704 0.269563 -0.975924 0.218108 -0.00137162
-0.00408057 0.075767 0.0950674 -0.999793 0.0194196 0.00605374
0.0422231 -0.0755916 0.157659 0.799701 -0.600393 0.00266416
0.0995695 -0.0452962 0.236457 0.985851 -0.16623 -0.0215781
-0.0302157 0.0863358 0.121975 -0.104723 -0.98297 0.151009
-0.00390337 -0.0965177 0.264172 -0.174357 -0.984681 0.00140989
-0.00276079 -0.00418543 0.641847 -0.174635 0.984628 0.00314499
0.399828 -0.0789709 0.362199 -0.00682918 0.999859 0.0153639
-0.033678 0.0923892 0.124815 -0.10496 0.982887 0.15138
-0.00746627 -0.0950224 0.504646 -0.178816 -0.983871 0.00483127
0.00656713 0.0479846 0.187467 0.996136 0.0876631 0.00536101
0.383037 -0.0716674 0.390379 -0.0954643 -0.978892 -0.180715
0.0684016 -0.0631289 0.213942 -0.626113 -0.775105 -0.0848247
0.259985 -0.0698731 0.445267 -0.0334987 -0.99838 -0.0459841
-0.00959558 0.0122991 0.342714 -0.738465 -0.502816 0.449273
0.463559 -0.0722814 0.349243 -0.0231746 -0.999466 -0.0230389
-0.0469439 -0.0686439 0.299861 -0.975924 -0.218108 0.000967823
0.0381905 -0.0808069 0.208285 0.807362 -0.590054 0.00168501
-0.0867048 -0.064402 0.515009 -0.073448 0.997035 0.0229649
0.0175098 -0.00763738 0.340191 0.178811 0.983826 -0.0106042
-0.0311974 -0.0145433 0.713374 -0.511941 0.858961 0.0101223
0.0949263 -0.0649091 0.481572 -0.0594161 -0.998116 0.0153328
0.0502425 -0.0528553 0.445988 0.977134 -0.212625 0.000890288
-0.0439906 -0.0283509 0.457523 -0.807358 0.590055 -0.00301665
-0.099231 -0.0413361 0.216959 -0.982082 -0.165594 -0.0899677
-0.00011134 0.00063505 0.201019 -0.999501 -0.031006 -0.00607828
0.0806475 -0.0830938 0.542378 -0.171657 0.953085 -0.249325
0.0807923 -0.0293717 0.194846 -0.185037 -0.865617 -0.465262
0.0690243 -0.0636499 0.472212 -0.0552201 -0.998237 0.0217573
-0.0484098 -0.0387414 0.523666 -0.977109 0.212734 -0.00118869
0.0454139 -0.0324897 0.738534 0.9751 0.214029 0.0580633
-0.144311 0.0914261 0.0222731 0.0602257 0.988755 -0.136884
0.168704 -0.0821464 0.466032 -0.00681407 0.999858 0.0154114
-0.0588314 -0.0449412 0.179418 0.766793 0.635768 0.0884756
0.108157 -0.0655737 0.489582 -0.0594161 -0.998116 0.0153328
-0.00722713 -0.0956445 0.38701 -0.178912 -0.983853 0.00484269
-0.0672535 -0.050407 0.336852 0.794607 -0.532759 0.291149
0.0137967 0.0204074 0.337965 0.923735 0.187117 0.334216
-0.0476282 -0.05074 0.171627 -0.44086 -0.896133 0.0508691
-0.0481849 -0.0400705 0.181607 -0.975924 0.218108 -0.00137162
-0.0962034 -0.0729492 0.408593 0.00659699 0.981277 -0.192491
-0.036848 -0.0726704 0.412049 0.00659699 0.981277 -0.192491
-0.0495404 -0.0573297 0.220745 -0.977133 -0.212625 0.00133713
-0.0203294 -0.0895912 0.480062 -0.0568199 -0.998147 -0.0217569
0.0476433 -0.0364562 0.312062 0.975923 0.218108 -0.00177704
-0.139199 -0.0780533 0.416189 0.00469962 -0.990542 -0.137128
0.019375 -0.00719563 0.655204 0.174636 0.98463 0.00262033
-0.00351941 0.00564292 0.120591 -0.980127 -0.193186 -0.0450633
0.0178381 -0.0927792 0.554591 0.178808 -0.983831 0.0102305
0.0296771 -0.0878278 0.136911 0.511091 -0.859523 0.00245454
-0.0164184 -0.0298379 0.805491 -0.412454 0.716647 0.562405
0.0207732 -0.0929307 0.245518 0.521277 -0.853386 0.00153536
0.117028 -0.066953 0.513051 -0.177511 -0.952141 -0.24883
0.0666371 -0.0847747 0.45348 -0.0124311 0.981227 0.192456
-0.0102264 -0.0948575 0.436099 -0.178912 -0.983853 0.00484269
-0.0485313 -0.0620666 0.492844 -0.0552201 0.998237 -0.0217573
-0.115475 0.0911591 0.0330318 0.0602257 0.988755 -0.136884
0.0396697 -0.0764207 0.671109 0.800323 -0.599544 0.00540001
0.290546 -0.0717427 0.439647 -0.0956973 -0.97878 -0.181193
0.228781 -0.0702415 0.464143 -0.0954643 -0.978892 -0.180715
0.0181415 0.033704 0.300655 0.866706 0.477596 0.143955
0.0720016 -0.0709812 0.419455 0.00659699 -0.981277 0.192491
0.164104 -0.0751917 0.390455 0.0373857 -0.989855 0.137072
0.0192822 0.0899296 0.0617288 0.0465246 -0.992336 0.114479
0.0471708 -0.0343328 0.313228 0.975923 0.218108 -0.00177704
0.00327167 -0.0770876 0.410195 -0.0124311 0.981227 0.192456
0.0486794 -0.0601376 0.422324 0.977134 -0.212625 0.000890288
0.107973 -0.0737798 0.403956 0.00659699 -0.981277 0.192491
-0.0383494 -0.0885988 0.481597 -0.0568199 -0.998147 -0.0217569
-0.00701089 0.000812054 0.330914 -0.526797 -0.666453 0.527565
-0.00356197 -0.0965098 0.311959 -0.174357 -0.984681 0.00140989
-0.0366195 -0.0812869 0.580423 -0.807166 -0.5903 0.00531902
-0.0116919 -0.0932017 0.618194 -0.174722 -0.984565 0.0102378
0.0230825 -0.0884807 0.729418 0.528224 -0.849005 0.0130252
0.285638 -0.0758633 0.361735 0.0372795 0.989862 0.137056
0.268498 -0.0696978 0.419265 -0.00673389 -0.999859 0.0153596
0.0624229 -0.0694594 0.427541 0.00659699 -0.981277 0.192491
0.0399795 -0.022567 0.67676 0.800335 0.599553 -0.000578054
0.00694136 -0.049196 0.116236 -0.967602 0.128403 -0.21739
-0.00453605 -0.0943073 0.635082 -0.178807 -0.983826 0.010742
-0.136083 0.0897804 0.0129673 0.0465246 0.992336 -0.114479
0.446891 -0.0784572 0.349682 -0.00681407 0.999858 0.0154114
-0.0649492 -0.0433737 0.221175 0.766792 0.635769 0.0884782
-0.0483674 -0.0616819 0.395637 -0.977134 -0.212625 0.000900069
-0.0472819 -0.0654695 0.618685 -0.977113 -0.212713 0.00154784
0.117205 -0.0779728 0.416361 0.00469962 0.990542 0.137128
-0.0199338 -0.00740182 0.489461 -0.521074 0.853501 -0.00422322
0.0102062 -0.0739697 0.406338 0.00659699 -0.981277 0.192491
0.0698714 -0.0870237 0.491655 -0.0568199 0.998147 0.0217569
0.056222 -0.034929 0.246372 -0.985281 0.170008 -0.0178434
0.032417 -0.0859512 0.223518 0.511091 -0.859523 0.00245454
-0.237058 -0.0692383 0.445062 -0.0231703 0.999466 0.0230296
-0.0930431 -0.0646803 0.48917 -0.0594161 0.998116 -0.0153328
-0.0251732 -0.0903716 0.528518 -0.0568199 -0.998147 -0.0217569
-0.118682 -0.0735148 0.404939 0.00659699 0.981277 -0.192491
-0.00523822 -0.049452 0.657236 0 -1 0
0.0246073 -0.0102542 0.489915 0.521074 0.853501 -0.00425026
-0.288594 -0.0769403 0.36871 0.037275 -0.989865 -0.137034
0.00789917 -0.0290371 0.111187 -0.9894 -0.0586009 -0.132865
-0.0884548 -0.0592763 0.315777 -0.572034 -0.754389 0.321985
0.0323501 -0.0898218 0.529363 -0.0777649 0.996441 -0.0325351
0.0238441 0.01664 0.275616 0.988488 -0.150626 -0.014284
0.0218532 -0.0882003 0.763986 0.548816 -0.835421 0.0295312
-0.0476114 -0.0364613 0.304019 -0.977137 0.212603 -0.00173219
-0.0902009 -0.0778522 0.416415 0.00469962 -0.990542 -0.137128
0.0317333 -0.0851651 0.538098 0.521066 -0.853482 0.00761389
0.0483821 -0.0734876 0.407488 0.00659699 -0.981277 0.192491
0.00307069 -0.00789666 0.112388 0.13631 0.770234 -0.623025
0.00405712 -0.00428856 0.596577 0.178821 0.983877 0.00314259
0.39567 -0.0786847 0.38413 -0.0954686 0.978928 -0.180517
-0.0565231 -0.033707 0.301507 0.984915 0.172639 0.0117076
-0.00332981 0.0882685 0.0797007 0.0487491 -0.99223 -0.114466
-0.0421999 -0.0261332 0.712306 -0.804802 0.59333 0.0159129
0.0229575 0.0186457 0.245868 0.96961 0.147749 -0.195003
-0.122109 -0.0827233 0.513198 -0.145456 -0.972924 0.179613
-0.017201 -0.0128283 0.778148 -0.524509 0.808042 0.268251
-0.0780807 -0.024958 0.332822 -0.186264 0.938926 0.289349
0.020891 -0.00904215 0.322436 0.511144 0.859445 -0.00926353
-0.0875054 -0.0646582 0.472856 -0.0552201 0.998237 -0.0217573
0.0166853 -0.0872799 0.463026 -0.0124311 0.981227 0.192456
0.0141277 -0.0947756 0.195293 0.174357 -0.984681 0.00177158
0.0642692 -0.0777333 0.416445 0.00469962 0.990542 0.137128
-0.0473635 -0.0665562 0.344424 -0.977133 -0.212625 0.00133713
-0.259729 -0.0749261 0.366291 0.0373857 0.989855 -0.137072
-0.0544606 0.0907567 0.114783 -0.328611 0.804459 0.494834
-0.304052 -0.0701594 0.417632 -0.0231703 0.999466 0.0230296
-0.00734233 0.0115902 0.183228 -0.965392 -0.240517 -0.100844
-0.0112988 -0.095307 0.195193 -0.174357 -0.984681 0.00140989
-0.0245552 -0.0102414 0.485789 -0.521074 0.853501 -0.00422322
-0.0353265 -0.0189653 0.207538 -0.511148 0.859452 -0.0083618
-0.0354696 -0.0838271 0.334283 -0.521276 -0.853384 0.002437
-0.00272817 -0.0122772 0.253555 -0.251357 -0.967878 -0.00555766
-0.0439399 -0.0714266 0.563836 -0.807166 -0.5903 0.00531902
0.275188 -0.0804819 0.405121 -0.00681407 0.999858 0.0154114
0.187691 -0.0788562 0.491093 -0.282211 0.771724 -0.569912
-0.0468759 0.0934507 0.101762 -0.0219294 0.999573 0.0193096
0.0142705 -0.00628253 0.465462 0.17882 0.98387 -0.00484248
0.010697 -0.0954863 0.137941 0.174357 -0.984681 0.00177158
0.0858082 -0.0657908 0.255234 0.228441 -0.973399 -0.0175988
-0.0463858 -0.0311578 0.617219 -0.807213 0.59026 -0.00056611
-0.00880216 -0.0623916 0.465409 0.00659699 0.981277 -0.192491
0.0402316 -0.0253989 0.172649 0.799688 0.600388 -0.0058413
0.00630268 0.0229295 0.288109 -0.994108 0.00919216 0.108007
-0.00778039 -0.00490537 0.505602 -0.17882 0.98387 -0.00484253
-0.00167033 -0.0587445 0.526333 -0.0552201 0.998237 -0.0217573
0.0764947 -0.0673902 0.259998 -0.223379 -0.974573 -0.0175776
-0.453485 -0.0768616 0.362177 -0.282193 -0.771758 0.569874
-0.303553 -0.0703692 0.390932 -0.00673389 0.999859 -0.0153596
0.00439962 0.0298182 0.110521 0.998023 -0.0193871 -0.0597762
0.00615712 -0.0961321 0.234259 0.178914 -0.983864 0.00140872
-0.141865 -0.0791304 0.423877 0.00469962 -0.990542 -0.137128
-0.04871 -0.0590718 0.596333 -0.977113 -0.212713 0.00154784
0.0504633 -0.0531843 0.199027 0.975924 -0.218108 0.00137162
-0.0147003 -0.00814751 0.247589 -0.174255 0.984643 -0.010613
-0.233718 -0.0810616 0.424393 -0.00681407 -0.999858 -0.0154114
0.0397513 -0.0223606 0.495677 0.807209 0.590257 -0.00301762
-0.0962564 -0.0265041 0.276965 -0.864992 0.501405 0.0195324
-0.372034 -0.0764203 0.342258 0.0372795 -0.989862 -0.137056
-0.0622054 -0.0872155 0.480435 -0.0568199 -0.998147 -0.0217569
-0.00342173 -0.0689697 0.590451 -0.382441 0.638401 0.667969
-0.0448251 -0.0702348 0.561779 -0.807166 -0.5903 0.00531902
0.0339968 -0.0547235 0.291307 0.508371 -0.861083 -0.00977849
-0.0945924 -0.0445748 0.197823 -0.928793 -0.152827 -0.33762
0.0461354 -0.0689333 0.483191 0.80736 -0.590053 0.00277837
0.36188 -0.0710753 0.370535 -0.00673389 -0.999859 0.0153596
0.046543 -0.0674364 0.637215 0.807171 -0.590304 0.00400071
-0.0072878 -0.0299105 0.671967 0 0 1
0.0435578 -0.0753473 0.399919 0.00469962 0.990542 0.137128
-0.144886 0.0877765 0.0236795 0.0487491 -0.99223 -0.114466
0.109315 0.0911422 0.0777289 -0.328611 -0.804459 -0.494834
-0.00774709 -0.0929701 0.768025 -0.191968 -0.981401 0
0.358788 -0.0713955 0.364771 0.0373766 -0.989859 0.13705
0.00606467 0.0541308 0.180326 0.996136 0.0876631 0.00536101
-0.0365019 -0.0823339 0.435768 -0.80736 -0.590053 0.00281319
-0.015774 -0.0141223 0.10744 -0.136619 0.77198 -0.620792
0.113624 -0.0812811 0.438703 -0.0124311 0.981227 0.192456
-0.305516 -0.0704338 0.387582 -0.00673389 0.999859 -0.0153596
-0.0394463 0.0934269 0.0934919 -0.00318334 0.999912 -0.0128756
-0.00389892 -0.07714 0.410503 -0.0124311 -0.981227 -0.192456
-0.104508 -0.065558 0.50826 -0.073448 0.997035 0.0229649
-0.00896644 -0.090623 0.497724 -0.0568199 -0.998147 -0.0217569
0.0657747 -0.0627376 0.509966 -0.0594161 -0.998116 0.0153328
-0.0327295 -0.0843787 0.554607 -0.521061 -0.853473 0.00889845
0.0338126 -0.084713 0.373246 0.521273 -0.85338 0.00414163
0.0402719 -0.0772273 0.425621 0.80736 -0.590053 0.00277837
-0.0416507 -0.0623794 0.549322 -0.177511 0.952141 0.24883
-0.026773 -0.074861 0.827866 -0.906529 -0.215848 0.362788
0.00485288 0.0938031 0.11415 -0.00318334 -0.999912 0.0128756
0.00471615 -0.0929402 0.798707 0.168786 -0.985142 0.0317185
-0.00500304 0.0613941 0.176573 -0.97876 0.192952 0.0692722
0.0698334 -0.0857364 0.538854 -0.174535 0.952656 -0.248965
0.0468468 -0.0471714 0.294328 0.508371 -0.861083 -0.00977849
-0.0382742 -0.0525287 0.225198 -0.499878 -0.866072 0.00640834
0.0452716 -0.0688186 0.684899 0.800323 -0.599544 0.00540001
0.0476 -0.0376011 0.147813 0.975923 0.218108 -0.00177704
-0.210289 -0.069354 0.420015 0.0373766 0.989859 -0.13705
-0.002253 -0.0957374 0.5421 -0.178807 -0.983826 0.010742
0.0470959 -0.0338472 0.331694 0.975923 0.218108 -0.00177704
0.187904 -0.068501 0.462517 -0.0231703 -0.999466 -0.0230296
-0.149619 -0.0704992 0.428292 0.0373857 0.989855 -0.137072
-0.0426788 -0.0273865 0.328605 -0.807348 0.590048 -0.0057407
-0.282482 -0.0794159 0.440021 -0.0957629 -0.978782 0.181151
0.130119 -0.07942 0.426372 0.00469962 0.990542 0.137128
-0.00432258 -0.0222102 0.140956 0.973903 -0.191998 -0.121034
0.0300497 -0.0826667 0.772209 0.549046 -0.835771 0.00599014
-0.00425405 -0.0048038 0.745515 -0.181333 0.979219 0.0908224
-0.0277903 -0.0883484 0.382053 -0.521273 -0.85338 0.00416809
-0.000196359 0.0889122 0.0889285 -0.897437 0.440631 0.02123
0.000340758 -0.000734485 0.174067 -0.998707 0.0309705 -0.0403042
-0.104616 -0.065308 0.498626 -0.0785626 0.996378 0.0325282
7.81938e-06 -0.094484 0.764158 0.191968 -0.981401 0
0.0470006 -0.0678933 0.412196 0.977114 -0.212713 0.000900506
-0.249989 -0.0811139 0.434984 -0.00681407 -0.999858 -0.0154114
-0.0358927 -0.0475314 0.804647 -0.92582 0.213829 0.311663
-0.00462029 0.0228667 0.118309 -0.998866 -0.0194035 -0.0434726
-0.063353 -0.0604325 0.226278 0.618995 -0.785134 -0.0202572
-0.10524 -0.0685687 0.435674 -0.0265126 0.9902 -0.137119
0.0214823 -0.0854512 0.454013 -0.0124311 0.981227 0.192456
-0.00354806 -0.00452023 0.728691 -0.182085 0.983283 0
0.00151005 0.0858048 0.109301 -0.332226 0.942952 -0.0216041
-0.0503681 -0.0515833 0.593585 -0.976026 -0.217654 0.00100584
0.0419396 -0.0269759 0.247655 0.807352 0.590051 -0.00480747
-0.013472 -0.00597338 0.498787 -0.17882 0.98387 -0.00484253
-0.0466829 -0.0691049 0.282885 -0.80736 -0.590053 0.00261828
-0.0176944 -0.0928118 0.553248 -0.174722 -0.984565 0.0102378
0.0947337 -0.0825857 0.534622 -0.171657 0.953085 -0.249325
0.312311 -0.0722884 0.370998 0.0373857 -0.989855 0.137072
0.333177 -0.0706189 0.38766 -0.00673389 -0.999859 0.0153596
-0.0223541 -0.00898273 0.67015 -0.511966 0.859002 0.00230912
0.0242632 -0.0803278 0.824228 0.750309 -0.600122 0.277289
-0.35485 -0.0740486 0.346685 0.0373857 0.989855 -0.137072
0.303057 -0.0720885 0.43465 -0.282207 -0.771616 -0.57006
-0.000567692 -0.0183366 0.794941 -0.134949 0.787649 0.601164
0.0102124 0.0421995 0.295888 0.628923 0.77607 0.0466021
-0.0775836 -0.0677182 0.272747 0.220364 -0.975409 0.00410392
-0.237605 -0.0810938 0.428202 -0.00681407 -0.999858 -0.0154114
-0.00687118 0.00779373 0.187773 -0.965392 -0.240517 -0.100844
0.0846601 -0.0862459 0.513849 -0.0777649 0.996441 -0.0325351
0.0351994 -0.0539154 0.277635 0.499877 -0.866073 0.00640833
-0.245934 -0.081156 0.438376 -0.0232681 -0.999464 0.0230186
0.194057 -0.0688912 0.439137 -0.00673389 -0.999859 0.0153596
-0.219284 -0.0811108 0.421209 -0.00681407 -0.999858 -0.0154114
0.0244167 -0.0102465 0.668882 0.511967 0.859004 0.00102618
-0.0177365 -0.0904077 0.510748 -0.0568199 -0.998147 -0.0217569
0.0232325 0.0148251 0.252426 0.988488 -0.150626 -0.014284
-0.0929406 -0.0857443 0.49321 -0.0568199 -0.998147 -0.0217569
0.0443248 -0.0295241 0.33546 0.807352 0.590051 -0.00480747
0.0120865 -0.0952296 0.143885 0.174357 -0.984681 0.00177158
0.0491686 -0.0585078 0.279856 0.977134 -0.212625 0.000943491
0.373552 -0.07121 0.366886 -0.00673389 -0.999859 0.0153596
-0.00587702 0.0359356 0.139717 -0.99855 -0.0261569 -0.047058
-0.0349531 -0.0820239 0.668267 -0.511878 -0.859024 0.00766184
0.0161043 -0.00802651 0.280389 0.178811 0.983826 -0.0106042
-0.0493384 -0.0435476 0.427342 -0.977138 0.212603 -0.0012025
-0.0325283 -0.0223675 0.773866 -0.804759 0.553523 0.21442
0.0627949 -0.0864366 0.461705 -0.0124311 0.981227 0.192456
0.0464952 -0.0498555 0.197028 0.440858 -0.896134 0.0508689
0.0019784 -0.0969737 0.177182 0.178914 -0.983864 0.00140872
-0.319817 -0.0705478 0.416329 -0.0335129 0.998378 0.0460146
0.104531 -0.0765856 0.538492 -0.375342 0.640471 -0.670012
-0.137049 -0.0827055 0.464183 -0.0567796 -0.998268 -0.0153869
0.0041514 -0.00420986 0.512903 0.17882 0.98387 -0.00484248
0.055453 -0.038574 0.283931 -0.985371 0.170023 0.0116681
-0.0617841 0.0875017 0.0614526 0.0487491 -0.99223 -0.114466
-0.0457826 -0.0318877 0.295319 -0.799692 0.600391 -0.00489171
0.0431649 -0.0268232 0.672546 0.800335 0.599553 -0.000578054
-0.286669 -0.0701367 0.431551 -0.0335129 0.998378 0.0460146
-0.0108858 0.0882173 0.0769264 0.0487491 -0.99223 -0.114466
0.0797262 -0.0153396 0.221581 0.22806 0.971775 -0.0603516
0.0405171 -0.0774849 0.25676 0.807362 -0.590054 0.00168501
0.173837 -0.068661 0.44526 -0.00673389 -0.999859 0.0153596
-0.026224 -0.0123641 0.31863 -0.521258 0.85335 -0.00919782
0.381603 -0.0713556 0.360933 -0.00673389 -0.999859 0.0153596
-0.0403511 -0.0766082 0.532831 -0.807175 -0.590306 0.00277965
0.0483536 -0.0625748 0.20732 0.977134 -0.212625 0.000943491
-0.0209274 0.0934948 0.0941867 -0.00318334 0.999912 -0.0128756
8.54025e-05 0.0347967 0.284981 0.973721 0.227286 0.0144431
0.00123574 0.0318444 0.333398 -0.191424 -0.979532 -0.0622454
-0.00224584 -0.00601104 0.140975 -0.83255 -0.55112 -0.055925
0.0333452 -0.029126 0.104307 0.603924 0.453412 -0.65551
0.319554 -0.0787851 0.423832 -0.095553 0.978886 -0.180698
0.0486898 0.0902823 0.119387 -0.328611 -0.804459 -0.494834
-0.0702599 -0.0163978 0.266201 0.223464 0.974025 0.0365988
-0.0969123 -0.0546769 0.252957 -0.864942 -0.501382 -0.0221856
0.397918 -0.0715791 0.353539 -0.00673389 -0.999859 0.0153596
-0.0921141 -0.0309846 0.195308 -0.801178 0.498271 -0.331421
0.0495377 -0.0566682 0.312124 0.977134 -0.212625 0.000943491
0.0981902 -0.0773108 0.541351 -0.375342 0.640471 -0.670012
-0.128046 -0.0807765 0.518456 -0.140459 -0.973634 0.179746
-0.0832651 -0.0466993 0.198073 0.536383 0.728082 -0.426836
0.247214 -0.0759298 0.465581 -0.282211 0.771724 -0.569912
0.0965371 -0.0556269 0.303211 0.861725 -0.507356 0.00453873
-0.107697 -0.0845776 0.477329 -0.0567796 -0.998268 -0.0153869
0.0338091 -0.0159279 0.7004 0.51799 0.855325 0.0102419
-0.068239 -0.087346 0.502182 -0.0568199 -0.998147 -0.0217569
0.469075 -0.074437 0.312726 0.0373766 -0.989859 0.13705
-0.000586964 -0.00676144 0.187778 -0.833203 -0.551553 0.0395218
-0.332508 -0.0704808 0.396356 -0.00673209 0.999859 -0.0153634
0.00593217 -0.0049269 0.432978 0.178819 0.98387 -0.00484253
0.000493265 0.0868575 0.129825 0.897606 0.440714 0.00868615
0.026797 -0.0876545 0.596868 0.521066 -0.853482 0.00761389
0.0102029 0.0238623 0.330607 -0.97611 -0.197726 0.0900751
-0.0413912 -0.0246996 0.476288 -0.80721 0.590257 -0.0029898
0.0392712 -0.0420614 0.789654 0.956981 0.195966 0.213972
-0.0301344 0.0936229 0.10641 -0.00318334 0.999912 -0.0128756
0.452682 -0.0779714 0.331524 0.037275 0.989865 0.137034
-0.160006 -0.0823268 0.474399 -0.0232681 -0.999464 0.0230186
0.0296602 -0.0871198 0.399949 0.521273 -0.85338 0.00414163
0.459809 -0.0781211 0.333558 -0.00682918 0.999859 0.0153639
0.11573 0.0904411 0.0269653 0.0465246 -0.992336 0.114479
0.0403289 -0.0765877 0.540685 0.807171 -0.590304 0.00400071
-0.0722758 0.0863821 0.0881779 -0.0220248 -0.999571 0.0193096
0.00225846 -0.0958888 0.520987 0.178815 -0.983871 0.00484277
-0.0267678 -0.0866323 0.700097 -0.511886 -0.859036 0.00547802
-0.000421822 -0.0128837 0.235983 -0.302462 -0.953151 0.00442679
-0.0483761 -0.0407696 0.206469 -0.975924 0.218108 -0.00137162
0.0586192 -0.0279662 0.245328 -0.870106 0.492663 -0.014095
0.0492062 -0.0420427 0.686747 0.976021 0.217677 -0.000678269
-0.0552504 -0.041455 0.3044 0.95608 0.167585 0.240469
0.0185965 -0.000672517 0.258679 0.89004 -0.455478 -0.019186
-0.105999 -0.065862 0.464563 -0.0552201 0.998237 -0.0217573
-0.0429059 -0.088326 0.480982 -0.0568199 -0.998147 -0.0217569
-0.00857772 0.0891236 0.0700535 0.0487491 -0.99223 -0.114466
-0.0300381 -0.0603399 0.0910104 -0.744489 -0.166385 -0.64657
-0.00470645 0.0230316 0.120214 -0.998866 -0.0194035 -0.0434726
-0.0961898 -0.0648742 0.505691 -0.0785626 0.996378 0.0325282
0.0621967 -0.0870353 0.468873 -0.0567796 0.998268 0.0153869
-0.038105 -0.0547223 0.184006 -0.44086 -0.896133 0.0508691
0.0297951 -0.0859706 0.580451 0.521066 -0.853482 0.00761389
0.0454781 -0.0300687 0.519836 0.807209 0.590257 -0.00301762
-0.082546 0.0926781 0.0584919 0.0602257 0.988755 -0.136884
-0.255457 -0.0694922 0.426932 -0.00673389 0.999859 -0.0153596
-0.0939975 -0.068213 0.535923 -0.135427 0.974326 0.179857
0.00477942 0.018653 0.12658 0.996817 -0.0650367 -0.0461046
-0.130501 -0.0788941 0.520679 -0.330091 -0.759339 0.560753
0.316177 -0.0702407 0.408961 -0.0231703 -0.999466 -0.0230296
-0.18919 -0.0817048 0.471842 -0.0233335 -0.999459 0.0231768
0.0455486 -0.0302676 0.499796 0.807209 0.590257 -0.00301762
-0.0223442 0.0859637 0.0998554 -0.00300403 -0.999913 -0.0128757
-0.07136 -0.0408348 0.302632 0.650306 0.75957 -0.0125091
0.0371058 -0.0190517 0.43446 0.807358 0.590055 -0.00298883
0.0546173 -0.0426217 0.289272 0.499877 -0.866073 0.00640833
-0.0395682 -0.0786757 0.319873 -0.80736 -0.590053 0.00261828
-0.129501 0.0877969 0.0623917 -0.122971 -0.976026 0.179587
0.308497 -0.0760277 0.356704 0.0372795 0.989862 0.137056
0.00993985 -0.0905199 0.558012 -0.0915864 0.993668 -0.0650764
0.0479174 -0.0368013 0.466606 0.977138 0.212603 -0.00118805
0.0498953 -0.0454969 0.555081 0.97711 0.212734 -9.78337e-05
0.0932544 -0.0785072 0.421042 0.00469962 0.990542 0.137128
-0.0297601 -0.0896255 0.506267 -0.0568199 -0.998147 -0.0217569
0.00260751 -0.00685813 0.166822 0.174254 0.984639 -0.0109746
-0.0271067 -0.0865608 0.683815 -0.511878 -0.859024 0.00766184
-0.0385721 -0.078518 0.591406 -0.807166 -0.5903 0.00531902
-0.0501657 -0.0464004 0.646477 -0.97711 0.212734 -0.000658965
0.0444284 -0.0315629 0.113632 0.799688 0.600388 -0.0058413
-0.0278112 -0.0887833 0.23663 -0.511092 -0.859524 0.00154641
0.23196 -0.0812162 0.449853 -0.0233335 0.999459 -0.0231768
0.00194853 -0.0575582 0.862188 0.0990978 0.430163 0.897296
0.137563 -0.0793032 0.425273 0.00469962 0.990542 0.137128
-0.0295673 -0.0146033 0.300354 -0.521258 0.85335 -0.00919782
0.0202232 -0.00955678 0.237842 0.511144 0.859445 -0.00926353
-0.043301 -0.0891563 0.522912 -0.0748021 -0.99693 0.0231261
0.0341007 0.0935114 0.0987288 -0.00318334 -0.999912 0.0128756
-0.00667642 0.0525735 0.165571 -0.995945 0.0876464 -0.0202751
-0.3284 -0.0768597 0.3573 0.037275 -0.989865 -0.137034
-0.014056 -0.00281908 0.316091 -0.610057 -0.771785 0.179382
0.0205674 -0.0775805 0.413825 -0.0124311 0.981227 0.192456
0.0356305 -0.082934 0.442093 -0.0124311 0.981227 0.192456
0.0058391 0.0578049 0.162161 0.996136 0.0876631 0.00536101
0.0321542 -0.0152071 0.723742 0.517975 0.8553 0.0127725
-0.12496 -0.0815938 0.51644 -0.140459 -0.973634 0.179746
0.0101952 -0.0597297 0.502767 -0.0552201 -0.998237 0.0217573
0.00235412 -0.00428073 0.714285 0.174636 0.984633 0
-0.0497222 -0.0443495 0.659708 -0.976021 0.217677 -0.000103791
4.65036e-05 0.0869285 0.150852 0.775718 0.513528 0.366811
0.352935 -0.0713899 0.404777 -0.0954643 -0.978892 -0.180715
0.0490164 -0.0596962 0.193019 0.975924 -0.218108 0.00137162
0.00923558 0.0177435 0.319634 -0.974113 0.197322 0.110305
-0.0424234 -0.0754715 0.131136 -0.799702 -0.600394 0.00171454
-0.0113552 0.042222 0.227301 -0.723033 0.678074 -0.132055
-0.0288323 -0.0128611 0.484086 -0.521074 0.853501 -0.00422322
0.00680751 0.00221224 0.196524 0.968796 -0.241366 -0.0563609
-0.000646779 0.0149898 0.219931 -0.99974 -0.00924151 -0.0208334
-0.00936355 -0.0945847 0.523551 -0.178816 -0.983871 0.00483127
0.0402921 -0.02512 0.209599 0.799688 0.600388 -0.0058413
0.0649765 -0.0267853 0.197651 -0.82119 0.453835 -0.34595
0.09956 -0.0847328 0.457369 -0.0567796 0.998268 0.0153869
0.0421067 -0.0728518 0.697374 0.800164 -0.599425 0.0206746
-0.0259253 -0.0129135 0.250738 -0.521258 0.85335 -0.00919782
-0.299116 -0.0803582 0.407677 -0.00681407 -0.999858 -0.0154114
0.409485 -0.0728406 0.38276 -0.0956973 -0.97878 -0.181193
0.0279397 -0.0889002 0.123149 0.511091 -0.859523 0.00245454
0.0246536 -0.0108091 0.383533 0.521275 0.853378 -0.00422263
-0.307886 -0.0801902 0.400656 -0.00681407 -0.999858 -0.0154114
-0.0414385 -0.0518767 0.205245 -0.44086 -0.896133 0.0508691
0.0932059 -0.0678197 0.438756 -0.0265126 -0.9902 0.137119
-0.0227239 -0.0882658 0.468443 -0.0124311 -0.981227 -0.192456
0.0864069 -0.086293 0.506913 -0.0748021 0.99693 -0.0231261
0.0100835 -0.0806071 0.428579 -0.0124311 0.981227 0.192456
0.0255431 -0.0873466 0.698738 0.511867 -0.859005 0.0101209
-0.0981457 -0.0763445 0.405252 0.00469962 -0.990542 -0.137128
-0.0660514 -0.0631114 0.248487 0.610026 -0.792185 -0.01765
-0.00692702 0.0172835 0.295308 0.975243 0.197551 0.0993712
-0.00697485 -0.0956175 0.401823 -0.178912 -0.983853 0.00484269
-0.00213822 0.0201985 0.249756 0.994154 -0.00918987 0.107576
-0.0307941 -0.0139971 0.496551 -0.521074 0.853501 -0.00422322
0.198212 -0.070652 0.413936 0.0373857 -0.989855 0.137072
0.0081339 -0.0925477 0.789729 0.1824 -0.982489 0.0380197
-0.0405358 -0.0779523 0.142806 -0.799702 -0.600394 0.00171454
-0.0270157 -0.090206 0.530333 -0.0748021 -0.99693 0.0231261
-0.0697573 -0.0596785 0.200782 0.560078 -0.693356 -0.453398
-0.167429 -0.0804893 0.427304 0.037275 -0.989865 -0.137034
0.0337954 -0.0823873 0.702291 0.511867 -0.859005 0.0101209
0.047582 -0.0369178 0.221758 0.975923 0.218108 -0.00177704
0.0990272 -0.0344926 0.22745 0.985923 0.166241 -0.0178691
-0.0462527 -0.0309758 0.695763 -0.800164 0.599425 0.0206746
0.020183 0.0262044 0.237411 0.9759 0.121652 -0.181162
0.0282551 0.0864378 0.0849544 0.0487491 0.99223 0.114466
-0.0495975 -0.0557853 0.453587 -0.977114 -0.212713 0.000890728
-0.0167099 0.0864722 0.0895732 0.0487491 -0.99223 -0.114466
0.0945093 -0.0646703 0.495503 -0.0594161 -0.998116 0.0153328
-0.0100486 -0.092746 0.690063 -0.174722 -0.984565 0.0102378
0.134905 -0.0674756 0.494292 -0.073448 -0.997035 -0.0229649
-0.000226886 -0.0962032 0.532118 -0.178816 -0.983871 0.00483127
-0.374 -0.0793187 0.373342 -0.00681407 -0.999858 -0.0154114
-0.0683539 -0.0650896 0.301997 0.604216 -0.796809 0.00420464
0.282489 -0.0797716 0.43809 -0.0955573 0.978883 -0.180714
-0.0698365 -0.0458496 0.194936 -0.767324 0.477232 -0.428325
0.0160223 -0.0943308 0.25607 0.174357 -0.984681 0.00177158
0.0954215 -0.0392044 0.19853 0.934503 0.153734 -0.321046
-0.0309496 0.0933733 0.0872245 -0.00318334 0.999912 -0.0128756
0.0933424 -0.0606305 0.269222 0.610119 -0.792306 0.00241949
-0.0252234 -0.0903386 0.227417 -0.511092 -0.859524 0.00154641
0.050428 -0.0480383 0.519015 0.977109 0.212734 -0.00120314
0.0248826 -0.0805283 0.822118 0.750309 -0.600122 0.277289
-0.0774867 0.091293 0.0498923 0.0465246 0.992336 -0.114479
0.00315986 0.0874028 0.109919 0.902945 -0.42953 0.0139263
0.0479414 -0.0371199 0.429333 0.977138 0.212603 -0.00118805
0.0069914 0.0452268 0.164864 0.998435 0.0261512 -0.0494351
0.303078 -0.0742484 0.359362 0.0373857 -0.989855 0.137072
-0.0393737 -0.0887817 0.492662 -0.0568199 -0.998147 -0.0217569
-0.0843508 -0.0167296 0.281931 -0.223468 0.974054 0.035778
-0.414113 -0.0753899 0.32337 0.0372795 -0.989862 -0.137056
0.353292 -0.0752568 0.338952 0.0372795 0.989862 0.137056
-0.0424538 -0.0284071 0.178328 -0.799692 0.600391 -0.00489171
0.0440593 -0.0730276 0.184328 0.799701 -0.600393 0.00266416
-0.304169 -0.0792187 0.429621 -0.0955573 -0.978883 0.180714
0.0502629 -0.047507 0.478889 0.977109 0.212734 -0.00120314
0.0497959 -0.0537615 0.68353 0.976025 -0.217654 0.00158011
-0.0183455 -4.17279e-05 0.246808 -0.878491 -0.449568 -0.161686
-0.0454198 0.0861102 0.0938608 -0.00300403 -0.999913 -0.0128757
0.0407059 -0.0265421 0.120082 0.799688 0.600388 -0.0058413
-0.093966 -0.0853269 0.47527 -0.0567796 -0.998268 -0.0153869
-0.0148851 0.0108375 0.219109 -0.925847 -0.0686707 -0.371606
-0.0389018 -0.0239922 0.139509 -0.799692 0.600391 -0.00489171
0.410227 -0.0759304 0.328331 0.0372795 0.989862 0.137056
-0.0388649 -0.0237259 0.166174 -0.799692 0.600391 -0.00489171
0.0467078 -0.032046 0.704873 0.975711 0.217607 0.0252104
-0.02669 -0.0895277 0.193434 -0.511092 -0.859524 0.00154641
0.253821 -0.0743752 0.462119 -0.282207 -0.771616 -0.57006
0.0698959 -0.0871871 0.499217 -0.0568199 0.998147 0.0217569
-0.0496222 -0.0555172 0.490497 -0.977114 -0.212713 0.000890728
-0.0192992 -0.00733259 0.710792 -0.518009 0.855357 0.00554354
0.0629098 0.0932026 0.0818721 -0.00318334 -0.999912 0.0128756
-0.215345 -0.0689031 0.447695 -0.00673209 0.999859 -0.0153634
-0.0321208 -0.0863275 0.17502 -0.521276 -0.853384 0.002437
-0.0135299 -0.00619172 0.671981 -0.174635 0.984628 0.00314499
-0.0427888 -0.0744463 0.279896 -0.80736 -0.590053 0.00261828
0.0833653 -0.048321 0.195226 -0.535165 0.726428 -0.431163
0.0617089 -0.0223839 0.256479 -0.619112 0.785268 -0.00736699
-0.0139474 -0.0675016 0.852987 -0.821993 -0.141235 0.551707
0.123599 -0.0705426 0.523148 -0.382441 -0.638401 -0.667969
-0.123212 -0.0665886 0.493181 -0.073448 0.997035 0.0229649
0.206179 -0.0773194 0.393866 0.037275 0.989865 0.137034
0.293187 -0.0699037 0.416687 -0.00673209 -0.999859 0.0153634
0.0913227 -0.059884 0.309405 0.573688 -0.75657 0.313821
-0.00365463 0.0892408 0.0711346 0.0487491 -0.99223 -0.114466
0.0475405 -0.0378239 0.721806 0.976384 0.214311 0.0273014
-0.0502841 -0.0473573 0.522403 -0.977109 0.212734 -0.00118869
0.0956942 -0.0555472 0.224615 0.866891 -0.490837 -0.0870607
0.0144018 -0.0944981 0.328296 0.178914 -0.983864 0.00140872
-0.00699125 0.0932765 0.095736 0.0465246 0.992336 -0.114479
-0.0275537 -0.0136324 0.276321 -0.521258 0.85335 -0.00919782
0.167458 -0.0778349 0.408122 0.037275 0.989865 0.137034
-0.0643795 -0.0409279 0.199306 -0.440855 -0.896136 0.0508699
0.273884 -0.0805808 0.41096 -0.00681407 0.999858 0.0154114
0.0290467 -0.0130246 0.684396 0.511967 0.859004 0.00102618
-0.0360547 -0.0199174 0.164722 -0.807348 0.590048 -0.0057407
0.00804598 0.0291597 0.174773 0.996831 -0.0261119 -0.075146
0.0798242 -0.0636455 0.507579 -0.0785626 -0.996378 -0.0325282
0.0991568 -0.0312326 0.264926 0.985923 0.166241 -0.0178691
-0.00642097 0.0257572 0.294281 0.994942 0.00919988 0.100025
0.0188154 0.08576 0.114848 -0.00300403 0.999913 0.0128757
-0.297428 -0.072925 0.37046 0.0373857 0.989855 -0.137072
-0.0996136 -0.0350036 0.283569 -0.98491 0.172618 0.0124204
0.16338 -0.072018 0.503701 -0.282207 -0.771616 -0.57006
0.339786 -0.0774921 0.358771 0.037275 0.989865 0.137034
0.0600379 -0.0501719 0.31407 -0.630702 0.769934 -0.0970389
-0.0357819 -0.0682505 0.100336 -0.632151 -0.474601 -0.612485
-0.0354013 -0.0362347 0.101122 -0.607531 0.456121 -0.650276
-0.040095 -0.0226901 0.683194 -0.800335 0.599553 0.000768756
-0.27108 -0.0791575 0.38949 0.037275 -0.989865 -0.137034
-0.0211404 -0.0900745 0.688471 -0.511878 -0.859024 0.00766184
-0.04187 -0.0280655 0.124805 -0.799692 0.600391 -0.00489171
-0.0325816 -0.0861404 0.128962 -0.511092 -0.859524 0.00154641
0.0477482 -0.0637307 0.575169 0.976025 -0.217654 0.00158011
0.0364423 -0.0203215 0.175752 0.799688 0.600388 -0.0058413
0.0202609 -0.0079532 0.71829 0.51196 0.858992 0.00547881
-0.0438 -0.0276552 0.582125 -0.807213 0.59026 -0.00056611
-0.0919185 -0.0687428 0.539566 -0.382441 0.638401 0.667969
0.386645 -0.079103 0.38459 -0.0336154 0.998374 -0.0460275
-0.118546 -0.0841883 0.488694 -0.0568199 -0.998147 -0.0217569
0.0949463 -0.0361008 0.322475 0.956085 0.167566 0.240466
-0.00166455 -0.0814815 0.0887727 -0.166054 -0.827201 -0.536809
0.177972 -0.0812198 0.485512 -0.0955573 0.978883 -0.180714
-0.280262 -0.0786449 0.445369 -0.095553 -0.978886 0.180698
0.0704568 -0.0868602 0.485685 -0.0568199 0.998147 0.0217569
0.0504035 -0.0532905 0.224647 0.975924 -0.218108 0.00137162
0.0540838 0.0862897 0.0819441 -0.00300403 0.999913 0.0128757
-0.00819934 0.0382953 0.207051 -0.91331 0.227541 -0.337771
-0.0936382 -0.0657032 0.454124 -0.0265126 0.9902 -0.137119
-0.0118198 -0.0944508 0.459912 -0.178816 -0.983871 0.00483127
-0.0208937 0.0039951 0.257499 -0.890135 -0.455527 -0.0124583
-0.021923 -0.0106444 0.234435 -0.521258 0.85335 -0.00919782
0.366297 -0.0757837 0.339221 0.0372795 0.989862 0.137056
-0.0992178 -0.0497497 0.256096 -0.985871 -0.166233 -0.0205984
-0.152851 -0.0822278 0.464303 -0.00681407 -0.999858 -0.0154114
-0.0477988 -0.03577 0.568607 -0.97711 0.212734 -0.000658965
0.11068 -0.0737739 0.403893 0.00659699 -0.981277 0.192491
0.0242319 -0.0899278 0.505697 -0.0568199 0.998147 0.0217569
0.0366222 -0.0812574 0.585773 0.800323 -0.599544 0.00540001
-0.0477346 -0.0645842 0.397059 -0.977134 -0.212625 0.000900069
-0.0546773 -0.0425829 0.297363 -0.508371 -0.861083 -0.00977872
-0.00600872 -0.0464285 0.120097 0.49732 0.737589 -0.456765
0.0699091 -0.0628792 0.312102 -0.572044 -0.754382 0.321984
-0.263298 -0.0721003 0.385725 0.0373857 0.989855 -0.137072
-0.0242185 -0.0656935 0.574816 -0.135427 0.974326 0.179857
0.173565 -0.0762322 0.394884 0.037275 0.989865 0.137034
0.0931461 -0.071657 0.415285 0.00659699 -0.981277 0.192491
0.048532 -0.0622384 0.133388 0.975924 -0.218108 0.00137162
-0.0476502 -0.0376153 0.18427 -0.977137 0.212603 -0.00173219
0.0945538 -0.0249645 0.219923 0.867505 0.49119 -0.0785322
-0.332409 -0.0779016 0.363736 0.037275 -0.989865 -0.137034
0.0112825 -0.00870304 0.139039 0.174254 0.984639 -0.0109746
0.0294635 -0.0132462 0.661948 0.511967 0.859004 0.00102618
0.0288412 -0.0877504 0.373096 0.521273 -0.85338 0.00414163
-0.0280276 -0.0881879 0.38524 -0.521273 -0.85338 0.00416809
-0.0309538 -0.0870264 0.174535 -0.511092 -0.859524 0.00154641
0.0448976 -0.0377366 0.752387 0.966978 0.206547 0.149307
0.0458324 -0.0516944 0.759687 0.96833 -0.206813 0.139878
-0.0693545 -0.0639184 0.214058 0.616875 -0.782445 -0.0851099
0.276978 -0.0788229 0.446142 -0.095553 0.978886 -0.180698
0.0480835 -0.0464404 0.294251 0.508371 -0.861083 -0.00977849
0.0564709 -0.0478897 0.24074 -0.985873 -0.166224 -0.0206031
0.163072 -0.0685654 0.446759 -0.00673389 -0.999859 0.0153596
0.0222664 -0.00897317 0.675776 0.511967 0.859004 0.00102618
0.0738627 -0.0664653 0.241847 -0.228445 -0.973418 -0.0164408
-0.329596 -0.0771484 0.35906 0.037275 -0.989865 -0.137034
0.352117 -0.0796766 0.395278 -0.0233335 0.999459 -0.0231768
-0.106442 -0.0686437 0.528885 -0.135427 0.974326 0.179857
-0.0998899 0.0876844 0.0821926 -0.105315 -0.98285 0.151374
0.0536789 0.0924575 0.0695988 0.0602257 -0.988755 0.136884
-0.038038 -0.0203686 0.426009 -0.80721 0.590257 -0.0029898
0.00178711 0.027544 0.101966 0.89483 -0.130795 -0.426817
0.160631 -0.0684421 0.453718 -0.00673389 -0.999859 0.0153596
-0.0310282 0.086033 0.0965004 -0.00300403 -0.999913 -0.0128757
-0.0811286 -0.0297533 0.195426 0.189187 -0.864576 -0.465528
0.0480539 -0.0620732 0.6147 0.976025 -0.217654 0.00158011
0.00732585 0.0436052 0.186677 0.968927 0.241398 0.0539295
-0.00882765 -0.00995232 0.237236 -0.728399 -0.683105 -0.0529341
-0.222564 -0.0691579 0.456153 -0.0231703 0.999466 0.0230296
0.0866562 -0.0837659 0.534607 -0.140459 0.973634 -0.179746
-0.0011673 -0.00372953 0.587597 -0.174635 0.984628 0.00314499
0.00292666 0.030914 0.34284 -0.191424 -0.979532 -0.0622454
-0.0359956 -0.0804589 0.719188 -0.800235 -0.599478 0.0158226
-0.0469332 0.0932877 0.0845334 -0.00318334 0.999912 -0.0128756
0.000275709 -0.0251528 0.165471 -0.891899 0.397107 -0.216384
-0.111328 -0.0664546 0.452118 -0.0265126 0.9902 -0.137119
0.0963922 -0.0331067 0.31464 0.956085 0.167566 0.240466
0.165441 0.0874227 0.0214668 -0.00193332 0.999881 0.0153227
-0.0330201 -0.075917 0.404396 0.00469962 -0.990542 -0.137128
-0.0662686 -0.0674164 0.552486 -0.135427 0.974326 0.179857
0.0272641 -0.0242385 0.78789 0.487179 0.78101 0.390743
-0.183373 -0.0813661 0.481864 -0.0955573 -0.978883 0.180714
-0.0995184 0.0927154 0.0769012 -0.0388247 0.99817 0.0463522
0.0903641 -0.0791488 0.425775 0.00469962 0.990542 0.137128
0.0304593 -0.0669039 0.441664 0.00659699 -0.981277 0.192491
0.103077 -0.0848981 0.48086 -0.0568199 0.998147 0.0217569
0.0354381 -0.0893961 0.510572 -0.0568199 0.998147 0.0217569
0.0966148 -0.0451182 0.317139 0.954137 -0.167225 0.248312
0.0474053 -0.0545907 0.340901 -0.616645 0.689756 -0.379454
-0.0462622 -0.0688159 0.47112 -0.807175 -0.590306 0.00277965
-0.00857521 -0.0955228 0.355347 -0.178914 -0.983863 0.00177011
0.0494783 -0.045012 0.29054 0.977138 0.212603 -0.001337
0.0617377 -0.0729197 0.409925 0.00659699 -0.981277 0.192491
-0.0678119 -0.0867307 0.469833 -0.0567796 -0.998268 -0.0153869
-0.0618569 -0.0596889 0.243365 0.864977 -0.501422 -0.0197471
-0.0850023 -0.0640088 0.501725 -0.0594161 0.998116 -0.0153328
-0.0695707 -0.0640018 0.461757 -0.0265126 0.9902 -0.137119
-0.0943593 -0.0235411 0.283578 -0.861533 0.507249 0.0214156
-0.0427662 -0.027899 0.28823 -0.807348 0.590048 -0.0057407
-0.0116992 -0.0935474 0.585439 -0.178807 -0.983826 0.010742
-0.0359342 -0.0478621 0.0973513 -0.733999 0.16404 -0.659042
-0.0366945 -0.0531443 0.265231 -0.499877 -0.866073 0.00640882
0.0529093 -0.0545184 0.325916 -0.630707 0.76993 -0.097036
-0.0474144 -0.0656195 0.500109 -0.977134 -0.212625 0.000900069
0.0503452 -0.0519202 0.55418 0.977114 -0.212713 0.000986906
-0.02373 0.0918738 0.0767743 0.0465246 0.992336 -0.114479
0.40005 -0.071782 0.350727 0.0373766 -0.989859 0.13705
0.17989 -0.0694724 0.485804 -0.0954643 -0.978892 -0.180715
-0.00401614 0.0655013 0.115219 -0.997086 0.0650743 -0.0398087
0.114849 0.0926479 0.0515731 -0.001456 -0.999879 0.0154864
-0.138968 0.092508 0.0448079 -0.001456 0.999879 -0.0154864
-0.167122 -0.0820718 0.460488 -0.00681407 -0.999858 -0.0154114
-0.0194355 -0.0901467 0.755319 -0.528058 -0.848738 0.0282682
0.335327 -0.079152 0.413507 -0.0955573 0.978883 -0.180714
0.0961795 -0.0266345 0.239969 0.870134 0.492679 -0.0116066
-0.0467343 -0.060111 0.737441 -0.976007 -0.208453 0.0629165
-0.0473043 -0.0336839 0.520016 -0.977109 0.212734 -0.00118869
0.237641 -0.0694311 0.451948 -0.0335129 -0.998378 -0.0460146
-0.0957664 -0.0569599 0.298181 -0.86173 -0.507359 0.00277333
-0.314809 -0.0714285 0.425128 -0.0954633 0.978892 0.180715
0.138072 0.0902198 0.0159679 0.0465246 -0.992336 0.114479
-0.028627 -0.0319198 0.798406 -0.698767 0.542103 0.466742
0.0310715 -0.0607285 0.509925 -0.0552201 -0.998237 0.0217573
0.0129819 -0.094274 0.453041 0.178912 -0.983853 0.00483117
0.0363683 -0.0682305 0.434698 0.00659699 -0.981277 0.192491
0.433083 -0.0786363 0.355195 -0.00681407 0.999858 0.0154114
-0.0334083 -0.015433 0.555197 -0.521079 0.853508 0.00102108
-0.0422952 -0.0875935 0.551053 -0.174535 -0.952656 0.248965
-0.0462409 -0.0697731 0.268562 -0.80736 -0.590053 0.00261828
-0.344136 -0.0766001 0.351145 0.0372795 -0.989862 -0.137056
0.0263173 -0.0608533 0.492132 -0.0552201 -0.998237 0.0217573
-0.0281936 -0.0145926 0.220949 -0.511148 0.859452 -0.0083618
0.00263687 -0.0960803 0.468108 0.178815 -0.983871 0.00484277
0.0579309 -0.0881974 0.516925 -0.0748021 0.99693 -0.0231261
0.22512 -0.0734833 0.47512 -0.282207 -0.771616 -0.57006
0.116175 -0.0841562 0.502524 -0.0777649 0.996441 -0.0325351
0.0407312 -0.0557622 0.795256 0.930356 0.214877 0.297097
0.0399985 -0.0225096 0.539546 0.807213 0.59026 0.000759128
-0.0139795 -0.00989258 0.771388 -0.183552 0.938384 0.292821
-0.00597247 0.0297645 0.31566 0.548589 -0.836091 -0.00133795
-0.146672 -0.0822782 0.489919 -0.0233335 -0.999459 0.0231768
-0.00597447 0.0456833 0.143464 -0.998803 0.0261609 -0.0413372
0.0316089 -0.0862473 0.288107 0.511091 -0.859523 0.00245454
-0.0351376 -0.0166807 0.490333 -0.521275 0.853378 -0.00424968
0.448359 -0.0721289 0.357014 -0.0334987 -0.99838 -0.0459841
-0.205922 -0.0690836 0.46751 -0.0335129 0.998378 0.0460146
0.0284302 -0.0883286 0.55796 -0.174535 0.952656 -0.248965
0.02388 0.0859559 0.121134 -0.0385975 0.998182 -0.0463019
0.154953 -0.0685518 0.444088 -0.00673389 -0.999859 0.0153596
-0.0628241 -0.0631214 0.480725 -0.0552201 0.998237 -0.0217573
-0.325221 -0.0705477 0.388808 -0.00673389 0.999859 -0.0153596
0.0276514 -0.0887052 0.258896 0.521277 -0.853386 0.00153536
0.215017 -0.0753578 0.377293 0.0372795 0.989862 0.137056
0.00889975 -0.0928902 0.702638 0.174731 -0.984615 0.0018699
-0.0233792 -0.0910557 0.379412 -0.521273 -0.85338 0.00416809
-0.0433045 -0.0730626 0.42817 -0.807175 -0.590306 0.00277965
0.00269211 -0.0968201 0.193801 0.178914 -0.983864 0.00140872
-0.0473285 -0.0665446 0.374752 -0.977134 -0.212625 0.000900069
-0.0200026 -0.0102599 0.161272 -0.521258 0.85335 -0.00919782
-0.0269335 -0.0218769 0.105482 -0.395863 0.66561 -0.632658
-0.0227708 -0.00947652 0.717205 -0.518009 0.855357 0.00554354
-0.205106 -0.0814627 0.437768 -0.00681407 -0.999858 -0.0154114
0.00460656 0.00870661 0.140769 0.995419 -0.0876003 -0.0383013
0.0361678 -0.0178462 0.419092 0.807358 0.590055 -0.00298883
-0.157408 0.0896339 0.0474298 -0.32969 -0.804139 0.494636
-0.00259394 -0.0939833 0.778422 -0.18973 -0.98183 -0.00348421
-0.0201408 0.0295777 0.302439 -0.867223 0.477881 0.139839
-0.038233 -0.0223707 0.218917 -0.807348 0.590048 -0.0057407
-0.040711 -0.0234678 0.648404 -0.800335 0.599553 0.000768756
0.0181499 -0.0938517 0.312969 0.174357 -0.984681 0.00177158
0.0194087 0.0064378 0.235298 0.97244 -0.14818 -0.180007
-0.0178654 0.00120641 0.240729 -0.878491 -0.449568 -0.161686
-0.000414206 0.0880031 0.0985887 -0.897437 0.440631 0.02123
0.0101204 0.0428153 0.287571 0.656462 0.752543 0.0523098
-0.0485779 -0.0403654 0.372018 -0.977138 0.212603 -0.0012025
0.0118865 0.0242206 0.341162 0.782346 0.532681 0.322778
-0.0243829 -0.0106321 0.728198 -0.517873 0.855132 0.0236063
0.0682685 -0.0432225 0.31359 -0.646239 0.76273 -0.0248483
0.00913199 -0.0952695 0.39288 0.178912 -0.983853 0.00483117
0.041765 -0.0765093 0.408374 0.00469962 0.990542 0.137128
-0.0145045 -0.0819545 0.838687 -0.467954 -0.776021 0.42286
0.0471586 -0.0622924 0.721462 0.976442 -0.2143 0.0252293
0.0138746 -0.0496548 0.0965835 -0.941331 0.185563 -0.281891
0.453059 -0.0763318 0.363105 -0.282193 0.771758 -0.569874
0.0169273 -0.0658577 0.579744 -0.382441 -0.638401 -0.667969
0.0841716 -0.0657186 0.229998 0.228441 -0.973399 -0.0175988
-0.0047306 -0.0937818 0.681209 -0.174722 -0.984565 0.0102378
-0.0222001 -0.084795 0.818374 -0.469722 -0.841442 0.267088
-0.0985147 -0.066391 0.524107 -0.177511 0.952141 0.24883
0.0253535 -0.0125997 0.75314 0.525693 0.84477 0.100049
0.0374151 -0.0708262 0.79674 0.961584 -0.222089 0.161344
-5.61981e-05 -0.0469199 0.126295 0.89208 0.397189 -0.215487
-0.231226 -0.069519 0.414567 -0.00673389 0.999859 -0.0153596
0.000926412 0.022006 0.238704 -0.994108 0.00919216 0.108007
-0.119426 -0.0668162 0.509065 -0.0824709 0.995536 0.0459006
-0.0967509 -0.0787569 0.422726 0.00469962 -0.990542 -0.137128
-0.226853 -0.0732572 0.387311 0.0373857 0.989855 -0.137072
0.0370564 -0.0796729 0.695069 0.800164 -0.599425 0.0206746
-0.0887621 -0.048831 0.188272 -0.777278 -0.483407 -0.402685
-0.128209 -0.0669284 0.479096 -0.0594161 0.998116 -0.0153328
-0.198523 -0.0718924 0.404893 0.0373857 0.989855 -0.137072
-0.0082562 0.0281936 0.178674 -0.993197 -0.0736661 -0.0901861
-0.0481564 -0.039853 0.195202 -0.977137 0.212603 -0.00173219
-0.336972 -0.0732457 0.357359 0.0373857 0.989855 -0.137072
0.0938911 -0.0349005 0.325834 0.956085 0.167566 0.240466
0.00262366 -0.018549 0.147914 -0.832555 -0.551303 0.0540142
-0.0546319 0.0924024 0.1102 -0.10496 0.982887 0.15138
-0.160061 -0.0697279 0.497663 -0.0954643 0.978892 0.180715
-0.0302558 -0.0775596 0.812785 -0.762838 -0.610143 0.214016
-0.0822283 -0.0670788 0.441984 -0.0265126 0.9902 -0.137119
0.280908 -0.0698697 0.413518 -0.00673389 -0.999859 0.0153596
-0.0471932 -0.0357399 0.156688 -0.977137 0.212603 -0.00173219
-0.0982528 -0.0734977 0.541017 -0.315844 0.76313 0.563804
0.00413401 0.0278786 0.271121 -0.994427 0.0308378 0.100817
-0.00506756 -0.0477866 0.849062 -0.193521 0.780832 0.594013
-0.0166705 -0.0354787 0.814587 -0.505611 0.771546 0.386102
0.0276312 0.0882397 0.131663 -0.32969 0.804139 -0.494636
-0.00300392 -0.00422225 0.639873 -0.174635 0.984628 0.00314499
0.0503329 -0.0481282 0.425898 0.977109 0.212734 -0.00120314
-0.0210033 0.0038434 0.266371 -0.875656 -0.48253 -0.0198094
-0.0160687 0.0936256 0.103138 -0.00318334 0.999912 -0.0128756
0.0390433 -0.0518583 0.255814 0.499877 -0.866072 0.00640883
-0.0494277 -0.0450965 0.266678 -0.975924 0.218108 -0.00137162
-0.223949 -0.0794851 0.470596 -0.095553 -0.978886 0.180698
0.00580776 0.0566535 0.146499 0.998946 0.0194031 -0.041601
0.000817595 0.0133467 0.241953 -0.996587 -0.0309156 0.0765444
0.311773 -0.0801335 0.416187 -0.0233335 0.999459 -0.0231768
0.0185537 -0.0526608 0.838399 0.758112 0.445671 0.47607
0.00542908 -0.0938494 0.108798 0.146923 -0.829744 -0.538459
0.0104022 0.0403624 0.217888 0.714257 0.669844 -0.202845
-0.0499235 -0.0463442 0.408338 -0.977138 0.212603 -0.0012025
-0.0397899 -0.0762819 0.660274 -0.800328 -0.599548 0.00406035
0.148681 -0.0822799 0.465835 -0.00681407 0.999858 0.0154114
