0.0417092 -0.10753 0.690124 0.701159 -0.710625 0.0582064
0.229204 -0.0688845 0.52004 -0.0119196 0.999862 -0.0115357
0.0303475 -0.0332887 0.0819598 -0.0201171 -0.999533 -0.0230225
-0.0414121 -0.0131032 0.593827 -0.706916 0.706848 -0.0252253
-0.0245983 -0.00735274 0.434192 -0.458767 0.888219 -0.0245056
0.000914868 0.121944 0.0209248 -0.993408 1.93774e-05 0.114632
-0.289373 -0.0682623 0.502889 -0.0107893 -0.999912 -0.00769052
0.00803427 -0.115853 0.688169 0.203234 -0.975133 0.0883836
-0.0307862 -0.0637001 0.507041 0.378862 -0.925282 0.0178061
0.0601587 -0.0617957 0.419481 0.987301 0.156375 -0.0279755
-0.442398 -0.0601731 0.465355 -0.00555492 0.997594 -0.0691076
0.169708 -0.0696362 0.516365 -0.0119213 0.999862 -0.0115855
0.241986 -0.0618781 0.424628 -0.00555692 -0.997595 0.0690833
-0.00945654 -0.0192171 0.17453 -0.831376 0.552048 -0.0636971
-0.463979 -0.0635003 0.428746 -0.012059 -0.997541 -0.0690356
-0.0621959 -0.0487155 0.56413 -0.987307 0.156376 -0.0277873
0.0461941 -0.0719066 0.801115 0.960137 -0.155894 0.232021
-0.0644621 -0.0631609 0.566349 -0.987293 -0.156374 -0.0282773
-0.19084 -0.0588075 0.523465 -0.00540309 0.999919 0.0115366
0.0365844 -0.011237 0.677638 0.448788 0.892707 0.0407903
-0.0029744 -0.123104 0.408239 -0.158617 -0.987017 -0.025242
0.000580179 -0.0276552 0.860649 0.144901 0.936597 0.319045
-0.0306509 -0.0902646 0.177891 -0.741335 -0.655427 -0.144354
-0.0162235 -0.10194 0.172094 -0.494585 -0.858474 -0.135678
-0.0473825 -0.0939161 0.327914 -0.889888 -0.454505 -0.039055
-0.0402412 -0.0262446 0.310814 -0.705186 0.706898 -0.0548405
-0.0354607 -0.0341868 0.0965609 -0.0503657 0.982087 0.18157
0.442675 -0.0654432 0.453099 -0.012059 0.997541 0.0690356
-0.356078 -0.0612832 0.442392 -0.00555492 0.997594 -0.0691076
-0.131572 -0.0586259 0.535481 -0.00540855 0.999918 0.0115858
-0.0243733 -0.00741755 0.427631 -0.458767 0.888219 -0.0245056
0.0262765 -0.0325855 0.170105 0.739914 0.654345 -0.156076
-0.147095 -0.0418859 0.032056 -0.00558996 -0.990536 -0.137142
-0.0275089 -0.0440938 0.582451 -0.520402 0.766084 0.377222
-0.0352967 -0.0205483 0.32066 -0.705186 0.706898 -0.0548405
0.178101 -0.0633872 0.397696 -0.00555692 -0.997595 0.0690833
-0.0705736 -0.0683289 0.429791 -0.0120611 -0.997541 -0.0690447
-0.0809775 -0.0704895 0.534081 -0.0119196 -0.999862 0.0115357
-0.120873 -0.069988 0.536328 -0.0119196 -0.999862 0.0115357
0.00694129 -0.0213132 0.839142 0.144901 0.936597 0.319045
0.0704156 -0.0444661 0.0855142 -0.0242496 0.998648 -0.0459713
-0.0576305 -0.0784481 0.640855 -0.87927 -0.455784 0.138366
-0.000602467 -0.0271848 0.0318891 -0.0710909 -0.990896 -0.114333
0.00462293 0.0319701 0.085725 -0.999488 -0.0255814 -0.0192218
-0.0363057 -0.0432884 0.316345 -0.831376 0.552048 -0.0636971
0.175212 -0.0691551 0.542469 -0.0196376 0.995588 -0.0917555
0.0475167 -0.102578 0.680626 0.701159 -0.710625 0.0582064
-0.03215 -0.012166 0.762262 -0.770384 0.608106 0.191615
0.0504759 -0.0218814 0.6276 0.706531 0.706463 0.0415114
0.0416931 -0.0686877 0.821904 0.960137 -0.155894 0.232021
-0.154885 -0.0353923 0.0644769 -0.0200668 0.999539 0.0227824
0.0360247 -0.0127821 0.734725 0.78431 0.619098 0.039694
-0.028133 -0.106202 0.26168 -0.450711 -0.886738 -0.102736
-0.0543561 -0.0393338 0.0100652 -0.00558558 0.990536 -0.137142
0.0353711 -0.0658403 0.492725 0.371199 0.928444 -0.0142395
-0.0445643 -0.0203917 0.682435 -0.719922 0.693217 0.0340956
0.00908695 -0.0304826 0.0720687 -0.831377 -0.552046 0.0636969
-0.00908312 0.00120088 0.603 -0.156449 0.98741 -0.0233473
-0.167641 -0.0690907 0.457754 -0.0120611 -0.997541 -0.0690447
-0.0168876 -0.0062511 0.753382 -0.155654 0.981391 0.112443
0.00579673 -0.00243025 0.392376 -0.747594 -0.664102 0.00850841
-0.130342 -0.0596131 0.448355 -0.00555692 0.997595 -0.0690833
0.184019 -0.0589937 0.471833 -0.00426925 -0.999961 0.00769096
0.384487 -0.0596648 0.495988 -0.00427693 -0.999962 0.00763453
-0.0344819 -0.00918084 0.552962 -0.458767 0.888219 -0.0245056
0.177225 -0.0602001 0.55455 -0.0131549 -0.995682 -0.0918909
-0.0385475 -0.0433807 0.206742 -0.905432 0.407898 -0.117527
0.182232 -0.0623602 0.412859 -0.00555692 -0.997595 0.0690833
-0.0588749 -0.0463425 0.459484 -0.987307 0.156376 -0.0277873
0.0284272 -0.112602 0.340949 0.452783 -0.890814 -0.0379188
0.181925 -0.0359866 0.0425247 -0.0142485 -0.99978 0.0153662
-0.000444591 -0.100761 0.822705 -0.151619 -0.952921 0.262591
0.077367 -0.0629064 0.57921 -0.0448899 -0.937169 -0.345975
0.00086567 0.0451853 0.0205114 -0.993408 1.93774e-05 0.114632
0.0403403 -0.0256513 0.319346 0.705128 0.70684 -0.0563256
0.0262457 -0.0250157 0.214324 0.745667 0.659432 -0.0955499
0.0141189 -0.00864736 0.778135 0.155961 0.981341 0.112453
0.244794 -0.0591305 0.526171 -0.00540855 -0.999918 -0.0115858
0.00192735 -0.0628416 0.667854 0 -1 0
-0.129142 -0.0696641 0.546504 -0.0129032 -0.999651 0.0230665
-0.0642779 -0.0584258 0.479198 -0.00426925 0.999961 -0.00769096
0.113808 -0.0584528 0.503177 -0.00426925 -0.999961 0.00769096
0.0526284 -0.0721674 0.530052 0.371199 0.928444 -0.0142395
0.000734832 -0.125365 0.482516 0.156448 -0.987363 -0.0252509
-0.143276 -0.0690017 0.452211 -0.0120611 -0.997541 -0.0690447
-0.128622 -0.0685191 0.442679 -0.0120611 -0.997541 -0.0690447
-0.00566666 -0.0244764 0.106575 0.999488 -0.0255796 -0.0192163
-0.10388 -0.0623142 0.40722 -0.00555692 0.997595 -0.0690833
0.0168198 -0.00482339 0.404709 0.158161 0.985386 -0.0632388
-0.0547405 -0.0731861 0.679371 -0.978321 -0.176683 0.108036
-0.0312767 -0.0655234 0.130914 -0.978124 -0.136993 -0.156548
-0.0410024 -0.0922739 0.705843 -0.738737 -0.664728 0.111372
0.0224591 -0.0248726 0.831639 0.43205 0.869324 0.240016
0.105401 -0.0701786 0.493952 -0.0107893 0.999912 0.00769052
-0.0382741 -0.114513 0.646213 -0.70586 -0.705967 0.0580691
0.233574 -0.0689233 0.510551 -0.0107893 0.999912 0.00769052
0.0298229 -0.110103 0.302638 0.450957 -0.887221 -0.0973505
-0.0495031 -0.0349976 0.0411866 -0.00558558 0.990536 -0.137142
0.114235 -0.0346547 0.0679622 -0.0201171 -0.999533 -0.0230225
-0.022715 -0.00703388 0.410493 -0.458767 0.888219 -0.0245056
0.0416525 -0.0336646 0.608304 0.584888 0.740427 -0.331171
-0.0160147 -0.0786633 0.0545563 -0.949384 -0.279074 -0.144179
0.0062165 -0.041684 0.0992508 -0.999781 -0.0165392 0.0128115
-0.259018 -0.0590408 0.511751 -0.00540309 0.999919 0.0115366
0.0387267 -0.0805183 0.814277 0.860409 -0.449313 0.240447
-0.0418942 -0.10933 0.665221 -0.70586 -0.705967 0.0580691
-0.142208 -0.0586335 0.531159 -0.00540309 0.999919 0.0115366
-0.0534336 -0.0547721 0.531111 -0.729294 0.68412 0.0104922
-0.153158 -0.0616689 0.420502 -0.00555692 0.997595 -0.0690833
0.0039335 -0.00295212 0.736436 0.154212 0.986833 0.0487762
-0.360328 -0.0659612 0.446199 -0.0120611 -0.997541 -0.0690447
-0.0387916 -0.0150278 0.706436 -0.700863 0.710158 0.0668353
0.0284222 -0.11971 0.551745 0.453805 -0.89073 -0.0257079
-0.0339936 -0.0626562 0.543338 0.491526 -0.860736 0.132425
0.0606423 -0.0821925 0.537694 0.987298 -0.156375 -0.0280892
-0.037078 -0.0340078 0.232193 -0.745001 0.658866 -0.104253
-0.0168279 -0.0874354 0.0940577 -0.741335 -0.655427 -0.144354
0.11338 -0.0347031 0.0708117 -0.0201171 -0.999533 -0.0230225
-0.248091 -0.0592437 0.47489 -0.00426925 0.999961 -0.00769096
-0.380676 -0.0671484 0.486171 -0.0107931 -0.999912 -0.00772879
0.403555 -0.0664949 0.461461 -0.0120611 0.997541 0.0690447
-0.0119532 -0.123159 0.466815 -0.158617 -0.987017 -0.025242
-0.0204038 -0.116058 0.325698 -0.452763 -0.890774 -0.0390919
0.00308851 0.102254 0.069101 -0.99876 -0.0317452 -0.038357
0.137049 -0.0681094 0.438232 -0.0120611 0.997541 0.0690447
-0.000291324 -0.0515558 0.288257 0.322823 -0.946382 -0.0121407
-0.333553 -0.0615906 0.436144 -0.00555492 0.997594 -0.0691076
0.0741606 -0.0594671 0.445944 -0.00555692 -0.997595 0.0690833
-0.0443202 -0.0185168 0.523625 -0.706916 0.706848 -0.0252253
-0.0363522 -0.0563539 0.306842 0.116953 -0.988935 -0.0912666
-0.0437829 -0.0302078 0.743202 -0.894543 0.433341 0.109582
-0.0268123 -0.0460738 0.207676 0.116953 -0.988935 -0.0912666
0.0252862 -0.0224311 0.233185 0.451278 0.888135 -0.0869757
-0.0317065 -0.100095 0.732845 -0.741988 -0.667654 0.0607649
-0.0861454 -0.0345283 0.0485775 -0.0142522 0.999781 -0.0153508
0.264651 -0.0685628 0.507283 -0.0107893 0.999912 0.00769052
-0.0595579 -0.0338059 0.0709433 -0.0142485 0.99978 -0.0153662
-0.023279 -0.0217801 0.478644 -0.727982 0.68547 0.0131565
-0.111858 -0.0688303 0.559539 -0.0196473 -0.995576 0.0918818
0.125716 -0.0398531 0.0164997 -0.00558407 0.990541 0.137105
-0.250883 -0.059047 0.5161 -0.00540309 0.999919 0.0115366
-0.355309 -0.0634525 0.411007 -0.00555692 0.997595 -0.0690833
-0.353371 -0.0597524 0.467198 -0.00426925 0.999961 -0.00769096
-0.0638081 -0.0676328 0.418552 -0.0120611 -0.997541 -0.0690447
-0.0197589 -0.0589871 0.349888 0.322823 -0.946382 -0.0121407
-0.00487124 0.0138767 0.066008 0.999781 -0.0165371 0.0128192
0.000137397 -0.0432785 0.543668 0.4954 0.858564 -0.132085
0.146168 -0.0586021 0.526582 -0.00540309 -0.999919 -0.0115366
0.216491 -0.0690959 0.509036 -0.0107893 0.999912 0.00769052
0.290524 -0.0593464 0.485091 -0.00426925 -0.999961 0.00769096
-0.106341 -0.0388175 0.0159112 -0.00558558 0.990536 -0.137142
-0.0167423 -0.0521709 0.845177 -0.56151 0.82278 0.0879746
-0.143664 -0.0587157 0.536756 -0.00638776 0.999714 0.023068
-0.122089 -0.0421251 0.0327644 -0.00558996 -0.990536 -0.137142
0.239092 -0.062213 0.419559 -0.00555692 -0.997595 0.0690833
0.00602362 -0.05476 0.38561 0.322824 0.946381 0.0121407
0.00807999 -0.104184 0.805937 0.15167 -0.953241 0.261395
-0.0406898 -0.0747585 0.817701 -0.86127 -0.449763 0.236491
0.0383256 -0.0404817 0.376094 -0.821736 -0.567455 0.0523889
0.0368112 -0.0389734 0.0119535 -0.00558558 -0.990536 0.137142
0.134726 -0.0437158 0.0643012 -0.0200809 0.999539 -0.0227824
0.0244567 -0.118077 0.426138 0.458601 -0.888255 -0.0262168
0.0367659 -0.0380969 0.37746 -0.821736 -0.567455 0.0523889
0.0595165 -0.0536819 0.654379 0.980232 0.177027 0.0883604
-0.456105 -0.0622548 0.436406 -0.00555492 0.997594 -0.0691076
0.0408043 -0.0222759 0.632481 0.698024 0.672132 -0.246983
0.0291943 -0.0982989 0.213068 0.744141 -0.657885 -0.11594
-0.0131179 -0.0304133 0.125284 -0.831376 0.552048 -0.0636971
-0.039136 -0.0441367 0.567371 -0.668868 0.737825 0.090725
-0.044945 -0.0454613 0.479755 -0.746899 0.664903 -0.00679793
-0.278303 -0.0615182 0.432745 -0.00555692 0.997595 -0.0690833
-0.168621 -0.0386774 0.0771506 -0.138777 0.7968 0.588091
0.0409291 -0.0432606 0.0376579 -0.00558996 0.990536 0.137142
-0.000905103 -0.123523 0.411621 -0.158617 -0.987017 -0.025242
-0.000413475 -0.0302533 0.0578518 -0.0710913 0.990896 0.114333
0.00882654 -0.0368754 0.571485 0.565228 0.702576 -0.432324
-0.289778 -0.0625247 0.419135 -0.00555692 0.997595 -0.0690833
0.0587681 -0.0770407 0.443235 0.987618 -0.154306 -0.0282846
0.0406556 -0.0934763 0.260583 0.884306 -0.451654 -0.118367
-0.0750133 -0.0707032 0.521724 -0.0119196 -0.999862 0.0115357
0.0198349 -0.0180364 0.474162 -0.72798 -0.685472 -0.0131602
-0.0102075 -0.115998 0.285279 -0.155316 -0.98336 -0.0942377
-0.000639168 -0.112816 0.774104 -0.153291 -0.967692 0.200184
-0.0250423 -0.0125226 0.34583 -0.452179 0.889909 -0.05997
-0.0136685 -0.125408 0.564752 -0.156447 -0.987359 -0.0254458
0.0595422 -0.0582836 0.723609 0.983687 0.155689 0.090118
0.0242596 -0.112003 0.664411 0.485576 -0.868341 0.100996
0.00440384 -0.0523448 0.500531 0.491526 0.860736 -0.132425
-0.008232 -0.00540756 0.458201 -0.727982 0.68547 0.0131565
0.447288 -0.0622717 0.435454 -0.00555492 -0.997594 0.0691076
0.0257442 -0.118501 0.463025 0.458601 -0.888255 -0.0262168
0.00809456 -0.0104414 0.232808 -0.831377 -0.552046 0.0636969
-0.374862 -0.0655923 0.443407 -0.012059 -0.997541 -0.0690356
0.0474299 -0.051701 0.397375 -0.821736 -0.567455 0.0523889
0.0273976 -0.097628 0.802601 0.440415 -0.86079 0.255099
-0.0274858 -0.0942817 0.179876 -0.741335 -0.655427 -0.144354
0.0508316 -0.0373577 0.10316 -0.138842 -0.796606 -0.588339
-0.263925 -0.05991 0.539007 -0.0132035 0.995641 0.0923263
-0.00965195 -0.0109021 0.294285 -0.155731 0.984975 -0.0746473
0.310115 -0.0678911 0.483726 -0.0107893 0.999912 0.00769052
-0.388549 -0.0602927 0.459301 -0.00555492 0.997594 -0.0691076
0.0586115 -0.0616198 0.413607 -0.00555692 -0.997595 0.0690833
-0.329719 -0.0610599 0.443496 -0.00555492 0.997594 -0.0691076
-0.369955 -0.0603342 0.528418 -0.0132035 0.995641 0.0923263
-0.0340042 -0.0333491 0.487949 -0.727982 0.68547 0.0131565
-0.239905 -0.0590063 0.50125 -0.00427693 0.999962 -0.00763453
0.0128628 -0.101676 0.783915 0.129697 -0.968982 0.210361
0.0367065 -0.038951 0.367278 -0.821736 -0.567455 0.0523889
0.0281244 -0.00583825 0.557554 0.453817 0.890759 -0.0244708
-0.00613937 -0.0173922 0.611868 -0.130887 0.883863 -0.44906
-0.324955 -0.0621555 0.427295 -0.00555692 0.997595 -0.0690833
-0.0103598 -0.0242761 0.142476 -0.831376 0.552048 -0.0636971
-0.0513039 -0.0609032 0.784643 -0.973903 -0.153593 0.167098
0.0134569 -0.0207753 0.559386 -0.50618 -0.734508 -0.451974
0.00521367 -0.0132649 0.0582043 -0.993409 2.04467e-05 0.114624
0.154606 -0.0422681 0.0351232 -0.00558996 0.990536 0.137142
-0.212121 -0.0677629 0.446339 -0.0120611 -0.997541 -0.0690447
0.0578061 -0.0432162 0.445564 0.890666 0.453846 -0.0271428
0.023861 -0.0199628 0.250995 0.451278 0.888135 -0.0869757
0.0460439 -0.0221417 0.473807 0.706905 0.706837 -0.0258291
0.0060695 -0.055205 0.419085 0.322824 0.946381 0.0121407
-0.0214694 -0.00199935 0.572967 -0.453822 0.89077 -0.0239759
0.219189 -0.068245 0.542929 -0.0196482 0.995576 -0.0918816
-0.0345163 -0.0649491 0.422236 0.322823 -0.946382 -0.0121407
-0.0178985 -0.000696157 0.581927 -0.158434 0.987089 -0.0235362
-0.0641095 -0.0551512 0.632306 -0.986805 0.156297 0.0422743
-0.360644 -0.0648063 0.429567 -0.012059 -0.997541 -0.0690356
-0.337961 -0.0663041 0.538564 -0.0196473 -0.995576 0.0918818
-0.0492904 -0.0244957 0.497751 -0.711668 0.702039 -0.0258741
-0.00839648 -0.00993425 0.241147 -0.831376 0.552048 -0.0636971
-0.07123 -0.070416 0.476871 -0.0107893 -0.999912 -0.00769052
0.0465738 -0.0231499 0.711558 0.705763 0.70526 0.0671312
0.0210284 -0.0408524 0.0194534 -0.00558996 0.990536 0.137142
-0.106478 -0.0346317 0.073746 -0.0200668 0.999539 0.0227824
0.384823 -0.0633609 0.414704 -0.00555692 -0.997595 0.0690833
0.0175741 -0.0385262 0.137731 0.116954 0.988935 0.0912666
0.131677 -0.034947 0.0654126 -0.0201171 -0.999533 -0.0230225
0.351886 -0.0666875 0.455217 -0.0120611 0.997541 0.0690447
0.0304958 -0.11744 0.510181 0.458601 -0.888255 -0.0262168
0.0419036 -0.0530614 0.304709 -0.831377 -0.552046 0.0636969
0.379597 -0.0670658 0.51901 -0.0129126 0.999648 -0.023196
-0.000921067 0.0627646 0.0209895 0.99341 1.93769e-05 0.114618
-0.0379834 -0.0414083 0.209241 -0.905432 0.407898 -0.117527
-0.171185 -0.0691704 0.459523 -0.0120611 -0.997541 -0.0690447
0.390726 -0.0666365 0.461265 -0.0120611 0.997541 0.0690447
0.0356206 -0.0528925 0.805864 0.923984 0.139687 0.356006
0.0127301 -0.0958093 0.118073 0.494923 -0.859084 -0.130481
-0.153183 -0.043239 0.0501577 -0.0142516 -0.99978 -0.0153662
-0.047579 -0.0320379 0.719451 -0.894543 0.433341 0.109582
0.176181 -0.066817 0.426395 -0.0120611 0.997541 0.0690447
0.0481953 -0.105911 0.590937 0.706804 -0.70691 -0.0265881
-0.0519035 -0.0531803 0.533671 -0.729294 0.68412 0.0104922
-0.0118235 -0.0327135 0.0884537 -0.831376 0.552048 -0.0636971
-0.110075 -0.0682728 0.435881 -0.0120611 -0.997541 -0.0690447
0.0233323 -0.0480647 0.226983 -0.0710913 0.990896 0.114333
0.0245717 -0.0348497 0.0412397 -0.00558558 -0.990536 0.137142
-0.0391778 -0.0949544 0.701947 -0.738737 -0.664728 0.111372
-0.000874711 -0.0194754 0.0602816 -0.831376 0.552048 -0.0636971
0.0367193 -0.104843 0.654349 0.715804 -0.689369 0.111337
-0.189162 -0.068512 0.546457 -0.0196482 -0.995576 0.0918816
0.0641355 -0.0599102 0.649162 0.986484 0.158322 0.0422361
0.00419744 -0.00357587 0.241444 -0.831377 -0.552046 0.0636969
-0.14442 -0.0585165 0.511905 -0.00427693 0.999962 -0.00763453
0.0325344 -0.0111462 0.446127 0.453817 0.890759 -0.0244708
0.0609868 -0.0606248 0.455249 0.987301 0.156375 -0.0279755
0.221015 -0.0588658 0.509067 -0.00427693 -0.999962 0.00763453
0.148306 -0.0592616 0.454873 -0.00555492 -0.997594 0.0691076
-0.0182572 -0.121324 0.434479 -0.156447 -0.987359 -0.0254458
0.327942 -0.0618072 0.432566 -0.00555692 -0.997595 0.0690833
-0.0906829 -0.0386672 0.0163597 -0.00558558 0.990536 -0.137142
0.081849 -0.0600167 0.566217 -0.0131549 -0.995682 -0.0918909
9.55514e-06 0.0030684 0.468601 -0.718234 -0.695287 -0.026757
-0.0594034 -0.0885094 0.595242 -0.890678 -0.453771 -0.0280192
0.0347824 -0.065269 0.51054 0.37886 0.925283 -0.0178043
-0.348639 -0.0613345 0.441053 -0.00555492 0.997594 -0.0691076
-0.0519349 -0.0843633 0.320472 -0.889888 -0.454505 -0.039055
-0.0910753 -0.0586741 0.461788 -0.00426925 0.999961 -0.00769096
-0.00425482 0.00321557 0.107809 0.985919 -0.0703744 -0.151691
0.0405998 -0.0600999 0.574712 0.546026 0.751593 -0.370086
-0.158874 -0.0353938 0.0597201 -0.0142485 0.99978 -0.0153662
0.0412545 -0.0928012 0.700324 0.739714 -0.665607 0.0989502
0.0146296 -0.0408498 0.159042 -0.0710913 0.990896 0.114333
-0.0765706 -0.0343843 0.0490641 -0.0142522 0.999781 -0.0153508
-0.00696966 -0.0552399 0.439922 0.378862 -0.925282 0.0178061
-0.128993 -0.0584618 0.522467 -0.00540309 0.999919 0.0115366
0.0368532 -0.0369607 0.425974 -0.747594 -0.664102 0.00850841
0.0173792 -0.0680523 0.865167 0.703373 -0.554898 0.444247
-0.0464757 -0.0336368 0.0829796 -0.0201171 0.999533 0.0230225
0.061474 -0.0529165 0.685107 0.986484 0.158322 0.0422361
-0.0516522 -0.0340321 0.0488704 -0.0142522 0.999781 -0.0153508
0.0157848 -0.1013 0.781739 0.500781 -0.838765 0.213755
-0.0237072 -0.0588072 0.878347 -0.874537 -0.139696 0.464403
-0.0304051 -0.0666801 0.834996 -0.949974 -0.26102 0.171518
0.401834 -0.0598731 0.478436 -0.00427693 -0.999962 0.00763453
0.0846837 -0.0399837 0.0157715 -0.00558407 0.990541 0.137105
-0.0873158 -0.0443673 0.0774684 -0.0201118 -0.999532 0.0230317
-0.0147936 -0.0569667 0.502267 0.401233 -0.915298 0.0352226
0.00228878 0.0956205 0.0328358 -0.993409 2.04467e-05 0.114624
-0.0524588 -0.0516883 0.29549 -0.980213 0.155634 -0.122314
-0.0492903 -0.0573047 0.73117 -0.974017 -0.0811834 0.211424
0.0396738 -0.0451718 0.0841566 -0.0201118 0.999532 -0.0230317
0.213108 -0.0673531 0.553895 -0.0196473 0.995576 -0.0918818
0.0268789 -0.0871544 0.143543 0.856567 -0.494445 -0.147704
-0.0749447 -0.0584315 0.484376 -0.00426925 0.999961 -0.00769096
0.0016729 0.0369799 0.0275086 -0.993409 2.04467e-05 0.114624
-0.0607997 -0.0677782 0.420127 -0.0120611 -0.997541 -0.0690447
-0.0356237 -0.0210685 0.777551 -0.70298 0.699874 0.126468
0.012335 -0.126242 0.588684 0.156448 -0.987363 -0.0252509
-0.0468171 -0.02688 0.704159 -0.89843 0.435224 0.0583466
0.13678 -0.0402701 0.084328 -0.138836 0.796606 -0.58834
-0.0269146 -0.0523051 0.111372 -0.947074 0.278395 -0.159834
0.00159724 0.0507749 0.0268504 -0.993409 2.04467e-05 0.114624
-0.0375373 -0.0207585 0.762596 -0.928121 0.329471 0.173319
-0.00759047 -0.0628416 0.671371 0 -1 0
-0.199366 -0.0691465 0.528158 -0.0119196 -0.999862 0.0115357
0.00301179 -0.120861 0.351386 0.158546 -0.986572 -0.039227
-0.0298299 -0.00582989 0.699751 -0.487956 0.872861 0.0035045
0.00915904 -0.0494965 0.0152998 0.857353 0.494888 -0.141536
0.0637994 -0.0583712 0.486039 -0.00426925 -0.999961 0.00769096
0.169156 -0.0695216 0.497965 -0.0107893 0.999912 0.00769052
0.0587068 -0.0396343 0.0121898 -0.00558407 0.990541 0.137105
-0.375285 -0.0596496 0.510055 -0.00540855 0.999918 0.0115858
0.019331 -0.121525 0.683948 0.156167 -0.985592 0.0649598
-0.0587446 -0.0621114 0.406518 -0.00555692 0.997595 -0.0690833
0.000798781 0.0882138 0.0199245 -0.993408 1.93774e-05 0.114632
-0.356526 -0.0615106 0.439145 -0.00555492 0.997594 -0.0691076
0.00659377 -0.0192006 0.832222 0.148232 0.95813 0.244978
0.00632582 -0.0366769 0.117714 -0.0710913 0.990896 0.114333
0.0447802 -0.0423856 0.0314952 -0.00558996 0.990536 0.137142
-0.320491 -0.0594226 0.491862 -0.00427693 0.999962 -0.00763453
0.355923 -0.0671447 0.525608 -0.0196376 0.995588 -0.0917555
0.296874 -0.0617206 0.431317 -0.00555692 -0.997595 0.0690833
-0.0674096 -0.0584227 0.481342 -0.00426925 0.999961 -0.00769096
-0.412215 -0.0611752 0.531074 -0.0448899 0.937169 0.345975
-0.0468306 -0.106479 0.570837 -0.706792 -0.706898 -0.0272039
0.351651 -0.0673841 0.47614 -0.0107931 0.999912 0.00772879
0.430434 -0.0657595 0.455531 -0.012059 0.997541 0.0690356
-0.102988 -0.0409503 0.0235005 -0.00558407 -0.990541 -0.137105
-0.335948 -0.0675344 0.473659 -0.0107931 -0.999912 -0.00772879
-0.0455845 -0.0951846 0.657733 -0.716696 -0.690228 0.0996584
-0.079725 -0.0662578 0.578017 -0.0509883 -0.936898 0.345865
-0.0381462 -0.0582965 0.792143 -0.982923 -0.0937187 0.158365
-0.00696012 -0.00348471 0.428395 -0.727982 0.68547 0.0131565
-0.00746166 0.00421149 0.720523 -0.204019 0.97881 0.0175424
0.0196951 0.000215506 0.718463 0.513409 0.858141 0.00233572
0.0697216 -0.0582214 0.508804 -0.00426925 -0.999961 0.00769096
0.0399194 -0.0135261 0.665079 0.706531 0.706463 0.0415114
-0.00644376 -0.095862 0.836815 -0.144028 -0.932372 0.33157
0.281087 -0.0678418 0.534061 -0.0196376 0.995588 -0.0917555
0.0505501 -0.0338243 0.0613822 -0.0142522 -0.999781 0.0153508
-0.0460754 -0.0473662 0.544362 -0.720695 0.692926 0.0212541
-0.44595 -0.0664858 0.504009 -0.0119213 -0.999862 0.0115855
-0.111932 -0.0348916 0.0488576 -0.0142522 0.999781 -0.0153508
-0.0252827 -0.0105202 0.754986 -0.451092 0.884694 0.117614
0.356848 -0.0673972 0.517057 -0.0119196 0.999862 -0.0115357
0.234811 -0.0637698 0.396733 -0.00555692 -0.997595 0.0690833
-0.00973444 -0.00243197 0.454171 -0.158434 0.987089 -0.0235362
0.0628874 -0.0758833 0.581482 0.987298 -0.156375 -0.0280892
0.0136425 0.000816604 0.617304 0.156448 0.987406 -0.0235258
0.129661 -0.0407631 0.0232349 -0.00558407 0.990541 0.137105
0.00351469 0.0442737 0.0434696 -0.993409 2.04467e-05 0.114624
0.221096 -0.0590244 0.488424 -0.00426925 -0.999961 0.00769096
0.0565974 -0.0407487 0.660852 0.980232 0.177027 0.0883604
-0.122667 -0.0645872 0.384831 -0.012059 -0.997541 -0.0690356
0.00681611 -0.01895 0.831108 0.148232 0.95813 0.244978
0.0561041 -0.0771177 0.655433 0.881714 -0.457051 0.116983
0.228351 -0.0661957 0.426533 -0.0120611 0.997541 0.0690447
-0.122 -0.0698831 0.478812 -0.0107893 -0.999912 -0.00769052
-0.0191274 -0.0687887 0.0575732 -0.983965 -0.0899472 -0.154019
-0.0577592 -0.0367634 0.550705 -0.890678 0.453852 -0.0266515
0.391307 -0.0596682 0.504178 -0.00540309 -0.999919 -0.0115366
-0.0135217 -0.0789588 0.0387127 -0.949384 -0.279074 -0.144179
-0.376107 -0.0627713 0.540082 -0.0448935 0.937161 0.345998
-0.0644239 -0.0582271 0.505119 -0.00426925 0.999961 -0.00769096
0.157191 -0.0615852 0.422036 -0.00555692 -0.997595 0.0690833
-0.0533142 -0.0428728 0.0353615 -0.00558996 -0.990536 -0.137142
0.00173102 -0.0128999 0.251876 0.175708 0.981627 -0.0743936
0.228837 -0.0608994 0.437703 -0.00555692 -0.997595 0.0690833
-0.413067 -0.0609922 0.529373 -0.0131446 0.995689 0.0918166
0.00435894 0.0385674 0.0887294 -0.99876 -0.0317452 -0.038357
0.000436949 -0.049996 0.228942 -0.0710909 -0.990896 -0.114333
-0.266881 -0.0592155 0.488996 -0.00426925 0.999961 -0.00769096
-0.035857 -0.0156226 0.745052 -0.705894 0.705392 0.064307
-0.0402401 -0.0671786 0.443031 0.334074 -0.942497 -0.00967847
-0.164132 -0.0697045 0.514698 -0.0107893 -0.999912 -0.00769052
-0.0153844 -0.0178004 0.223989 -0.451486 0.888545 -0.0815324
-0.417612 -0.0606643 0.456272 -0.00555492 0.997594 -0.0691076
-0.000260892 -0.0358998 0.561872 0.565228 -0.702576 0.432324
-0.154411 -0.0697948 0.518425 -0.0119213 -0.999862 0.0115855
-0.438116 -0.0600435 0.476438 -0.00427693 0.999962 -0.00763453
-0.045573 -0.0965202 0.316989 -0.889888 -0.454505 -0.039055
0.00574111 -0.0544321 0.367564 0.322824 0.946381 0.0121407
-0.0153931 -0.0309821 0.128526 -0.494039 0.857112 -0.145894
-0.0442576 -0.0350095 0.789733 -0.883101 0.448123 0.13899
0.0284515 -0.0070658 0.675831 0.448788 0.892707 0.0407903
-0.00754489 -0.0538362 0.272293 0.334074 -0.942497 -0.00967847
0.415697 -0.0598838 0.484799 -0.00427693 -0.999962 0.00763453
-0.0404638 -0.0126065 0.640678 -0.701827 0.711135 0.0415395
-0.025829 -0.0435864 0.181983 0.116953 -0.988935 -0.0912666
0.0315077 -0.105922 0.277776 0.702071 -0.703942 -0.107525
0.0204576 -0.10433 0.75915 0.483094 -0.847717 0.219078
-0.116109 -0.0629692 0.398745 -0.00555692 0.997595 -0.0690833
-0.323474 -0.0594798 0.486044 -0.00427693 0.999962 -0.00763453
-0.0019599 0.110974 0.0299836 0.993408 2.34544e-05 0.114632
-0.434544 -0.0599932 0.481028 -0.00427693 0.999962 -0.00763453
0.0338131 -0.0928477 0.211781 0.744141 -0.657885 -0.11594
-0.447589 -0.0604229 0.462166 -0.00555492 0.997594 -0.0691076
-0.0407779 -0.0597338 0.193055 -0.982588 0.137588 -0.124864
-0.0768048 -0.0596394 0.443668 -0.00555692 0.997595 -0.0690833
-0.348921 -0.0665462 0.452658 -0.0120611 -0.997541 -0.0690447
0.00286928 -0.0584227 0.688233 1 0 0
0.0083026 -0.00666643 0.281911 -0.747594 -0.664102 0.00850841
0.108214 -0.0441521 0.0685257 -0.0200809 0.999539 -0.0227824
0.0122996 -0.0477702 0.217571 -0.0710913 0.990896 0.114333
-0.327158 -0.0670539 0.456191 -0.0120611 -0.997541 -0.0690447
0.121348 -0.039773 0.0157426 -0.00558407 0.990541 0.137105
0.026946 -0.105329 0.772422 0.445494 -0.873367 0.196887
0.0245586 -0.0368192 0.219088 -0.831377 -0.552046 0.0636969
-0.000314604 -0.0628416 0.690848 0 -1 0
-0.283222 -0.0670262 0.542445 -0.0196473 -0.995576 0.0918818
0.127029 -0.0358317 0.0383222 -0.00559185 -0.99054 0.137109
-0.000349199 0.00187144 0.490588 -0.718234 0.695287 0.026757
0.0078175 -0.11101 0.737687 0.131704 -0.983972 0.120225
-0.0304907 -0.0111631 0.731211 -0.448445 0.89204 0.0562283
-0.0448964 -0.0504458 0.371233 -0.821735 0.567457 -0.0523891
-0.298008 -0.0660357 0.436388 -0.0120611 -0.997541 -0.0690447
0.0519557 -0.0366874 0.38138 0.892393 0.448581 -0.0490875
-0.222809 -0.0688833 0.490256 -0.0107893 -0.999912 -0.00769052
-0.0840266 -0.0699005 0.553894 -0.0196482 -0.995576 0.0918816
-0.073266 -0.0705076 0.491644 -0.0107893 -0.999912 -0.00769052
0.309878 -0.0680597 0.505314 -0.0107893 0.999912 0.00769052
0.0124834 -0.0156295 0.245127 -0.831377 -0.552046 0.0636969
0.0995307 -0.0431938 0.0859208 -0.0503596 0.982088 -0.181569
-0.0457831 -0.0767073 0.73345 -0.93082 -0.330495 0.156035
-0.00371679 -0.127829 0.597495 -0.156447 -0.987359 -0.0254458
-0.0211173 -0.00629769 0.407266 -0.458767 0.888219 -0.0245056
0.00855498 -0.0271448 0.0940531 -0.831377 -0.552046 0.0636969
0.0353882 -0.0348918 0.463528 -0.746901 -0.664901 0.00679786
0.0303648 -0.108374 0.666256 0.485576 -0.868341 0.100996
-0.185821 -0.0609564 0.433419 -0.00555692 0.997595 -0.0690833
0.00746108 -0.0395147 0.0542856 0.65566 0.74239 -0.137721
0.164781 -0.0694129 0.477704 -0.0107893 0.999912 0.00769052
0.0255818 -0.00961936 0.746825 0.453521 0.889458 0.0564256
-0.00984286 0.00108965 0.603386 -0.156449 0.98741 -0.0233473
-0.182717 -0.0590453 0.464397 -0.00426925 0.999961 -0.00769096
-0.316142 -0.0672807 0.457543 -0.0120611 -0.997541 -0.0690447
-0.0171619 -0.0258965 0.217213 -0.831376 0.552048 -0.0636971
0.0392964 -0.0667677 0.18211 0.978403 -0.137032 -0.154757
-0.0551692 -0.0921898 0.670423 -0.8874 -0.458188 0.0508359
0.0206612 -0.121631 0.673674 0.44841 -0.891604 0.063007
0.456283 -0.0600851 0.509537 -0.00633901 -0.999724 -0.0226305
0.00736987 -0.037439 0.568665 0.565228 0.702576 -0.432324
-0.0482185 -0.02408 0.479547 -0.711668 0.702039 -0.0258741
-0.0331691 -0.0641338 0.390599 0.334074 -0.942497 -0.00967847
0.000339146 0.111501 0.0159373 -0.993408 1.93774e-05 0.114632
-0.0283965 -0.118475 0.51051 -0.4538 -0.890719 -0.0261879
-0.402072 -0.0625152 0.428304 -0.00555692 0.997595 -0.0690833
-0.052866 -0.0539771 0.517127 -0.746899 0.664903 -0.00679793
0.0573212 -0.061005 0.57666 -0.0448899 -0.937169 -0.345975
-0.371286 -0.0664092 0.530296 -0.0196401 -0.995583 0.0918082
-0.00222736 0.0322254 0.0323165 0.99341 1.93769e-05 0.114618
0.158373 -0.0680008 0.440387 -0.0120611 0.997541 0.0690447
-0.0566516 -0.0456911 0.73327 -0.983764 0.155701 0.0892478
-0.0349618 -0.111935 0.403286 -0.458428 -0.88792 -0.0379744
-0.0510934 -0.0717601 0.516593 0.371197 -0.928445 0.0142395
0.0100303 -0.00762854 0.358615 -0.747594 -0.664102 0.00850841
-0.00261809 -0.051909 0.495001 0.401233 -0.915298 0.0352226
-0.0379527 -0.0366918 0.227031 -0.885128 0.452074 -0.110357
-0.0437828 -0.0339372 0.285077 -0.885128 0.452074 -0.110357
-0.048932 -0.0872307 0.67154 -0.882654 -0.457538 0.107619
0.0317467 -0.108529 0.658282 0.485576 -0.868341 0.100996
-0.148929 -0.0696814 0.490367 -0.0107893 -0.999912 -0.00769052
-0.0240249 -0.0611273 0.40329 0.322823 -0.946382 -0.0121407
-0.353677 -0.0596974 0.474513 -0.00426925 0.999961 -0.00769096
0.376381 -0.0656688 0.535879 -0.0509933 0.93688 -0.345912
0.0129727 -0.0272731 0.143517 0.493643 0.856446 -0.151051
-0.0415258 -0.0570943 0.308236 0.116953 -0.988935 -0.0912666
-0.0239209 -0.0973322 0.809438 -0.430365 -0.865933 0.254845
0.106215 -0.0607556 0.429915 -0.00555692 -0.997595 0.0690833
0.0473517 -0.103123 0.496019 0.71165 -0.702006 -0.0272403
0.183742 -0.0380259 0.0247829 -0.00559185 -0.99054 0.137109
0.00567058 -0.0542288 0.353591 0.322824 0.946381 0.0121407
0.03137 -0.0351036 0.325246 -0.821736 -0.567455 0.0523889
0.0458515 -0.09529 0.654785 0.715804 -0.689369 0.111337
0.0311436 -0.0307951 0.512825 -0.718234 -0.695287 -0.026757
-0.197534 -0.0622366 0.415874 -0.00555692 0.997595 -0.0690833
0.0477948 -0.0934958 0.333088 0.892789 -0.448779 -0.039051
-0.37147 -0.0668452 0.52553 -0.0196376 -0.995588 0.0917555
-0.00639828 -0.000242589 0.669886 -0.154259 0.98712 0.0424048
0.0256662 -0.0241565 0.470371 -0.72798 -0.685472 -0.0131602
-0.047787 -0.0249811 0.717865 -0.700863 0.710158 0.0668353
-0.28061 -0.0680108 0.532329 -0.0196376 -0.995588 0.0917555
-0.0251752 -0.0440172 0.102092 -0.050231 -0.982213 0.180926
-0.241604 -0.059091 0.491149 -0.00426925 0.999961 -0.00769096
0.0515877 -0.0620109 0.353543 -0.831377 -0.552046 0.0636969
0.356675 -0.0657734 0.442846 -0.0120611 0.997541 0.0690447
-0.0382087 -0.061543 0.567738 0.4954 -0.858564 0.132085
-0.0970464 -0.0441165 0.0551885 -0.0142513 -0.999781 -0.0153509
-0.128278 -0.0688269 0.447066 -0.0120611 -0.997541 -0.0690447
0.179 -0.059065 0.542026 -0.0131826 -0.995657 -0.0921582
-0.0392522 -0.0580582 0.321594 0.116953 -0.988935 -0.0912666
-0.204416 -0.0692031 0.518034 -0.0119196 -0.999862 0.0115357
-0.00112999 0.0296377 0.0228058 0.99341 1.93769e-05 0.114618
-0.00751348 -0.0130933 0.202243 -0.831376 0.552048 -0.0636971
-0.0447881 -0.0545989 0.329033 -0.831376 0.552048 -0.0636971
0.0292228 -0.0727621 0.833392 0.946894 -0.260225 0.188877
-0.00604165 -0.122278 0.399183 -0.158548 -0.98659 -0.0387671
-0.0284947 -0.115965 0.425595 -0.458608 -0.888267 -0.0256901
-0.152888 -0.035444 0.0683566 -0.0242447 0.998648 0.0459889
0.0206164 -0.0598061 0.493006 0.37886 0.925283 -0.0178043
-0.0305367 -0.119766 0.591509 -0.4538 -0.890719 -0.0261879
0.0122802 -0.0933094 0.812995 0.42262 -0.886016 0.190701
0.0988995 -0.0702784 0.533861 -0.0119196 0.999862 -0.0115357
0.0938313 -0.0665279 0.407834 -0.0120611 0.997541 0.0690447
-0.013137 -0.119142 0.348385 -0.158548 -0.98659 -0.0387671
0.38853 -0.0671611 0.504812 -0.0119213 0.999862 -0.0115855
-0.0620745 -0.0575368 0.68854 -0.986462 0.158319 0.0427506
-0.0428682 -0.100221 0.331942 -0.711417 -0.701775 -0.0373905
0.0224572 -0.117498 0.383058 0.458409 -0.887883 -0.039059
-0.0106058 -0.0312971 0.0848357 -0.831376 0.552048 -0.0636971
0.0111115 -0.00889925 0.481575 -0.718234 -0.695287 -0.026757
-0.325175 -0.0677673 0.48876 -0.0107893 -0.999912 -0.00769052
-0.0514031 -0.088399 0.734554 -0.886252 -0.451223 0.104671
-0.0111257 -0.0332211 0.0885092 0.116953 -0.988935 -0.0912666
-0.0274353 -0.0744456 0.836246 -0.773735 -0.610407 0.169522
0.0348537 -0.11045 0.372705 0.711379 -0.701738 -0.0387823
-0.00312282 0.105803 0.0482346 0.999781 -0.0165369 0.0128197
0.0460146 -0.0908341 0.290538 0.884306 -0.451654 -0.118367
-0.0280689 -0.0490537 0.124757 -0.900806 0.405814 -0.154476
0.0599924 -0.0683419 0.428129 -0.0120611 0.997541 0.0690447
0.00679678 -0.0194023 0.832888 0.148232 0.95813 0.244978
0.0402886 -0.103096 0.636724 0.718399 -0.691868 0.0722635
-0.134988 -0.0407949 0.0840401 -0.138788 -0.796798 0.588091
-0.103896 -0.064462 0.379743 -0.012059 -0.997541 -0.0690356
0.00338879 0.0698288 0.0423738 -0.993409 2.04467e-05 0.114624
0.395684 -0.0628889 0.53786 -0.0448935 -0.937161 -0.345998
-0.0661983 -0.0637425 0.383565 -0.00555692 0.997595 -0.0690833
-0.00268921 -0.121124 0.615383 -0.146454 -0.989018 0.0198664
-0.0575548 -0.0330568 0.606996 -0.890678 0.453852 -0.0266515
0.0201839 -0.00364262 0.487829 0.458773 0.88823 -0.0239625
0.128709 -0.0661586 0.40859 -0.0120611 0.997541 0.0690447
-0.0403323 -0.0185682 0.728239 -0.705894 0.705392 0.064307
0.460732 -0.0661557 0.469536 -0.0107931 0.999912 0.00772879
0.0391744 -0.0893083 0.79409 0.686832 -0.683975 0.245845
0.00047523 0.110144 0.0171169 -0.993408 1.93774e-05 0.114632
0.0314159 -0.0106214 0.71573 0.453521 0.889458 0.0564256
-0.00260761 0.0340582 0.102813 0.833323 -0.206818 -0.51264
-0.39795 -0.059705 0.498266 -0.00427693 0.999962 -0.00763453
0.0162412 0.000252492 0.610909 0.156448 0.987406 -0.0235258
0.0248536 -0.114327 0.338799 0.452783 -0.890814 -0.0379188
0.0157893 -0.00753678 0.359852 0.158161 0.985386 -0.0632388
-0.0172561 -0.117352 0.732152 -0.15559 -0.982207 0.105168
0.04695 -0.0201069 0.55429 0.706905 0.706837 -0.0258291
0.0310194 -0.00944337 0.480013 0.453817 0.890759 -0.0244708
-0.000845121 -0.120863 0.641944 -0.146454 -0.989018 0.0198664
0.018072 -0.0126025 0.795648 0.441772 0.863455 0.243481
0.0373712 -0.0428054 0.335954 -0.821736 -0.567455 0.0523889
0.28712 -0.0592113 0.513368 -0.00540309 -0.999919 -0.0115366
-0.201484 -0.0588375 0.501841 -0.00426925 0.999961 -0.00769096
-0.00447988 -0.0528592 0.278487 0.322823 -0.946382 -0.0121407
0.0127624 -0.121855 0.42079 0.158616 -0.987012 -0.0254564
0.0396967 -0.0988441 0.672349 0.715804 -0.689369 0.111337
0.0276913 -0.0451644 0.0590493 -0.0142513 0.999781 0.0153509
0.0625375 -0.0677993 0.61186 0.984058 0.177718 0.00685306
0.133056 -0.0586412 0.489368 -0.00426925 -0.999961 0.00769096
0.0360885 -0.0125157 0.462185 0.453817 0.890759 -0.0244708
-0.06316 -0.0730474 0.575559 -0.987293 -0.156374 -0.0282773
0.114294 -0.0594844 0.448922 -0.00555692 -0.997595 0.0690833
-0.0271387 -0.00709368 0.691175 -0.448757 0.89266 0.042138
0.000850009 -0.0130149 0.248278 0.175708 0.981627 -0.0743936
0.0356601 -0.0132614 0.721351 0.700984 0.710281 0.0641989
0.0118386 -0.119521 0.353141 0.155893 -0.987014 -0.0387478
0.00847089 -0.0315691 0.0740114 0.116954 0.988935 0.0912666
0.0287559 -0.0622409 0.358608 0.334075 0.942497 0.00967849
-0.420795 -0.0598106 0.497238 -0.00427693 0.999962 -0.00763453
0.11736 -0.0348399 0.0572601 -0.0142485 -0.99978 0.0153662
0.101985 -0.0667074 0.573517 -0.0509883 0.936898 -0.345865
-0.419671 -0.0667109 0.484024 -0.0107931 -0.999912 -0.00772879
0.307138 -0.0592817 0.5101 -0.00540309 -0.999919 -0.0115366
-0.296181 -0.0633306 0.551968 -0.0448935 0.937161 0.345998
0.187509 -0.0428178 0.0545885 -0.0142516 0.99978 0.0153662
0.286558 -0.059157 0.508928 -0.00540309 -0.999919 -0.0115366
0.0443774 -0.0528356 0.338954 -0.831377 -0.552046 0.0636969
-0.0382679 -0.0211262 0.763214 -0.701624 0.701125 0.127074
-0.0181994 -0.046593 0.0736681 -0.900806 0.405814 -0.154476
0.0257253 -0.0190572 0.269915 0.451278 0.888135 -0.0869757
0.0629594 -0.0714368 0.605226 0.966322 -0.229417 0.116572
-0.0597182 -0.0656897 0.719827 -0.982867 -0.155559 0.0988629
-0.0371487 -0.105801 0.736844 -0.698532 -0.707963 0.104121
-0.368428 -0.0673436 0.509749 -0.0119213 -0.999862 0.0115855
-0.00268212 -0.0417132 0.0362704 0.99341 1.93769e-05 0.114618
0.0554895 -0.0694302 0.323152 0.986829 -0.156686 -0.040232
-0.0191998 -0.00715641 0.379999 -0.458048 0.886826 -0.0610838
0.367318 -0.0654271 0.439702 -0.012059 0.997541 0.0690356
-0.0554004 -0.0892585 0.479978 -0.893132 -0.448952 -0.0275162
-0.00933997 -0.00111586 0.679513 -0.154259 0.98712 0.0424048
0.0436061 -0.100722 0.356344 0.705674 -0.707554 -0.0372973
0.0405335 -0.0145205 0.530715 0.71168 0.702051 -0.0252142
-0.357849 -0.0613152 0.538507 -0.0448899 0.937169 0.345975
0.0276816 -0.0867746 0.146991 0.901818 -0.40627 -0.147208
-0.259568 -0.0592815 0.529181 -0.00638776 0.999714 0.023068
-0.155494 -0.0354758 0.051246 -0.0142485 0.99978 -0.0153662
0.00327843 -0.000525428 0.31978 -0.747594 -0.664102 0.00850841
0.00109667 -0.00012099 0.493674 0.158435 0.987094 -0.0233398
0.00376183 0.07005 0.0519416 -0.999781 -0.0165387 0.0128197
-0.0975005 -0.0438967 0.044558 -0.00558996 -0.990536 -0.137142
0.0277714 -0.0686147 0.110882 0.978403 -0.137032 -0.154757
-0.00961484 -0.104751 0.170683 -0.174979 -0.976093 -0.128941
-0.201621 -0.0658331 0.561197 -0.0509883 -0.936898 0.345865
0.0393752 -0.0187128 0.740624 0.705763 0.70526 0.0671312
0.0980878 -0.0584335 0.534489 -0.00540309 -0.999919 -0.0115366
-0.0478394 -0.0517929 0.56547 -0.668868 0.737825 0.090725
-0.239258 -0.0654235 0.417281 -0.0120611 -0.997541 -0.0690447
0.0532622 -0.0849489 0.733379 0.886463 -0.451331 0.102387
0.208872 -0.0621288 0.418344 -0.00555692 -0.997595 0.0690833
-0.0486098 -0.0701607 0.444534 0.334074 -0.942497 -0.00967847
-0.0618773 -0.0487631 0.660601 -0.986462 0.158319 0.0427506
-0.00419978 -0.125839 0.654588 -0.156162 -0.98556 0.0654655
-0.119042 -0.059404 0.450465 -0.00555692 0.997595 -0.0690833
0.20969 -0.058924 0.495148 -0.00426925 -0.999961 0.00769096
0.039305 -0.0517149 0.834505 0.961131 0.156054 0.22776
0.0598237 -0.0706847 0.495803 -0.0107893 0.999912 0.00769052
0.212763 -0.0635039 0.398799 -0.00555692 -0.997595 0.0690833
0.0177099 -0.0583238 0.35267 0.322824 0.946381 0.0121407
0.0625639 -0.0789517 0.636597 0.986302 -0.158269 0.0464578
-0.110281 -0.0669879 0.417352 -0.0120611 -0.997541 -0.0690447
0.0276143 -0.118517 0.496293 0.458601 -0.888255 -0.0262168
0.0584089 -0.0352567 0.630599 0.89023 0.453624 0.0414382
0.231622 -0.0590603 0.489595 -0.00426925 -0.999961 0.00769096
-0.333144 -0.0678108 0.505595 -0.0107893 -0.999912 -0.00769052
0.0558891 -0.0948657 0.635176 0.889877 -0.453363 0.0508031
0.042388 -0.104093 0.39587 0.711379 -0.701738 -0.0387823
0.192692 -0.0693842 0.514462 -0.0119213 0.999862 -0.0115855
-0.00639544 -0.124293 0.476252 -0.158617 -0.987017 -0.025242
-0.0029656 -0.123507 0.423954 -0.158617 -0.987017 -0.025242
-0.406082 -0.0653616 0.445527 -0.012059 -0.997541 -0.0690356
-0.013705 -0.0982878 0.139808 -0.494585 -0.858474 -0.135678
-0.354013 -0.0594878 0.502103 -0.00427693 0.999962 -0.00763453
0.0821406 -0.0583993 0.492566 -0.00426925 -0.999961 0.00769096
0.00076811 -0.0512421 0.251132 0.322824 0.946381 0.0121407
-0.20882 -0.0591656 0.538232 -0.00633901 0.999724 0.0226305
-0.0469882 -0.0933212 0.312007 -0.889888 -0.454505 -0.039055
-0.282361 -0.0680655 0.467533 -0.0107931 -0.999912 -0.00772879
-0.0266359 -0.0630243 0.100676 -0.98311 0.0898708 -0.159428
0.0393136 -0.0541637 0.836001 0.928403 0.150741 0.339625
-0.0609213 -0.0615398 0.414948 -0.00555692 0.997595 -0.0690833
-0.0257461 -0.0272299 0.831481 -0.678145 0.695134 0.238552
-0.0692207 -0.0614311 0.417185 -0.00555692 0.997595 -0.0690833
0.0122104 -0.033021 0.0908365 -0.831377 -0.552046 0.0636969
0.347195 -0.0669447 0.529645 -0.0196482 0.995576 -0.0918816
0.0162099 -0.0952101 0.800573 0.322812 -0.540683 0.776823
-0.056234 -0.0395211 0.454825 -0.89314 0.448956 -0.0271774
-0.0534577 -0.0434658 0.347069 -0.889491 0.454303 -0.0491329
-0.0432957 -0.0559805 0.820633 -0.961784 0.151681 0.227956
-0.122385 -0.0435832 0.0439906 -0.0142516 -0.99978 -0.0153662
0.0381567 -0.018487 0.38203 0.710837 0.701219 -0.0547912
-0.38251 -0.0671522 0.489234 -0.0107931 -0.999912 -0.00772879
0.055777 -0.0415571 0.406348 0.892393 0.448581 -0.0490875
-0.0430827 -0.0545162 0.820557 -0.961784 0.151681 0.227956
0.0304079 -0.0830506 0.799828 0.500967 -0.393471 0.770852
0.226044 -0.0640462 0.395072 -0.012059 0.997541 0.0690356
0.439132 -0.0654702 0.525966 -0.0196401 0.995583 -0.0918082
-0.441588 -0.066477 0.509259 -0.0119213 -0.999862 0.0115855
0.447248 -0.0644477 0.439513 -0.012059 0.997541 0.0690356
0.2727 -0.0592017 0.494032 -0.00427693 -0.999962 0.00763453
-0.030208 -0.0300182 0.517752 -0.718234 0.695287 0.026757
0.0293476 -0.00771839 0.511799 0.453817 0.890759 -0.0244708
-0.110713 -0.0387189 0.0168017 -0.00558558 0.990536 -0.137142
-0.0592792 -0.0582802 0.6624 -0.979936 -0.16539 0.111223
-0.0633758 -0.0469039 0.618939 -0.986805 0.156297 0.0422743
0.0610969 -0.0517473 0.508662 0.987632 0.154309 -0.0277824
0.00735666 -0.00676616 0.255529 -0.821736 -0.567455 0.0523889
0.379452 -0.0670053 0.465953 -0.0107931 0.999912 0.00772879
0.0445119 -0.0355783 0.0367892 -0.00558558 -0.990536 0.137142
0.00312079 -0.113216 0.770257 0.153953 -0.967591 0.200164
-0.0135237 -0.0277913 0.153305 -0.831376 0.552048 -0.0636971
-0.0314177 -0.0412672 0.846101 -0.834976 0.436148 0.335543
-0.0474774 -0.0697328 0.249332 -0.979617 -0.155541 -0.127112
-0.0294471 -0.0282652 0.45893 -0.746899 0.664903 -0.00679793
0.0597627 -0.0886984 0.609583 0.89069 -0.453777 -0.0275344
0.0163371 -0.126312 0.616199 0.156448 -0.987363 -0.0252509
-0.0291749 -0.0374682 0.273717 -0.831376 0.552048 -0.0636971
0.0386656 -0.0771041 0.820876 0.860409 -0.449313 0.240447
0.228922 -0.0589774 0.498877 -0.00427693 -0.999962 0.00763453
-0.142244 -0.0586019 0.499585 -0.00426925 0.999961 -0.00769096
-0.10747 -0.0364707 0.0885927 -0.138842 0.796606 0.588339
-0.0253232 -0.0787775 0.854239 -0.662445 -0.668154 0.338729
0.0612543 -0.0689021 0.485645 0.987618 -0.154306 -0.0282846
0.0649593 -0.0614537 0.590815 0.987301 0.156375 -0.0279755
-0.0314681 -0.0637473 0.409604 0.322823 -0.946382 -0.0121407
0.00383248 0.0221578 0.0462277 -0.993409 2.04467e-05 0.114624
0.0108813 -0.0205199 0.181833 -0.831377 -0.552046 0.0636969
0.0246904 -0.0698521 0.0924996 0.978403 -0.137032 -0.154757
0.146075 -0.042489 0.0363709 -0.00558996 0.990536 0.137142
0.024271 -0.052418 0.875959 0.880438 0.140638 0.452825
0.00608228 -0.0033236 0.468575 -0.72798 -0.685472 -0.0131602
0.0637677 -0.0695404 0.577112 0.987298 -0.156375 -0.0280892
0.0269638 -0.00436782 0.589557 0.453817 0.890759 -0.0244708
-0.00283738 0.0403961 0.0376022 0.99341 1.93769e-05 0.114618
-0.0592442 -0.0888977 0.596469 -0.890678 -0.453771 -0.0280192
-0.0503802 -0.0541277 0.417366 -0.821735 0.567457 -0.0523891
0.316979 -0.0678354 0.486119 -0.0107893 0.999912 0.00769052
0.133631 -0.0696408 0.463641 -0.0107931 0.999912 0.00772879
0.0349579 -0.0343187 0.485702 -0.72798 -0.685472 -0.0131602
-0.0217636 -0.0599921 0.503047 0.401233 -0.915298 0.0352226
0.0335114 -0.06421 0.386207 0.334075 0.942497 0.00967849
0.132825 -0.0412818 0.0271107 -0.00558407 0.990541 0.137105
0.0330506 -0.0396991 0.304966 -0.831377 -0.552046 0.0636969
0.149992 -0.058887 0.466816 -0.00426925 -0.999961 0.00769096
-0.0499286 -0.0244413 0.682933 -0.706576 0.706508 0.0399503
0.00271662 -0.00511936 0.0365617 -0.993409 2.04467e-05 0.114624
-0.0296687 -0.0689283 0.123847 -0.978124 -0.136993 -0.156548
-0.0773089 -0.062391 0.577821 -0.0448899 0.937169 0.345975
0.0559697 -0.0471895 0.372235 0.986647 0.156656 -0.0445814
0.0494192 -0.0272006 0.669219 0.886394 0.459476 0.0564595
-0.0463815 -0.0181461 0.591777 -0.706916 0.706848 -0.0252253
0.0400001 -0.045604 0.827442 0.961505 0.151637 0.22916
-0.0186624 -0.110075 0.252878 -0.49685 -0.862405 -0.0969476
-0.129523 -0.0351382 0.0491258 -0.0142522 0.999781 -0.0153508
-0.032736 -0.00817626 0.697609 -0.743134 0.6687 0.0243248
-0.010503 -0.124017 0.491248 -0.158617 -0.987017 -0.025242
0.00452565 0.0223604 0.0971679 -0.985927 -0.0703613 -0.151648
-0.0510527 -0.0954941 0.440599 -0.893132 -0.448952 -0.0275162
-0.0566547 -0.0948585 0.61069 -0.890678 -0.453771 -0.0280192
0.0478466 -0.0344888 0.765325 0.8825 0.449313 0.138967
0.0452795 -0.0456712 0.506056 -0.72798 -0.685472 -0.0131602
0.041084 -0.108074 0.459861 0.71165 -0.702006 -0.0272403
0.0189332 -0.121262 0.438036 0.453805 -0.89073 -0.0257079
-0.334391 -0.0609964 0.540682 -0.0131446 0.995689 0.0918166
0.0209759 -0.123868 0.639779 0.44841 -0.891604 0.063007
0.19479 -0.0691914 0.528995 -0.0119196 0.999862 -0.0115357
-0.00373167 -0.00188642 0.253399 -0.747592 0.664104 -0.00850843
0.0675147 -0.0437277 0.0421156 -0.00558996 0.990536 0.137142
-0.0444997 -0.0693142 0.504183 0.371197 -0.928445 0.0142395
-0.42759 -0.0602985 0.462355 -0.00555492 0.997594 -0.0691076
-0.0220192 -0.0218348 0.520284 -0.666592 0.736754 0.113351
-0.057413 -0.055654 0.680493 -0.979907 0.176968 0.0919998
0.0644966 -0.0652919 0.641575 0.986645 -0.156271 0.0459403
-0.240082 -0.0625784 0.414361 -0.00555692 0.997595 -0.0690833
-0.232605 -0.0592064 0.471141 -0.00426925 0.999961 -0.00769096
0.0128097 -0.00149124 0.514903 0.156448 0.987406 -0.0235258
0.0251629 -0.119194 0.476328 0.453805 -0.89073 -0.0257079
0.0231675 -0.00189055 0.728967 0.513409 0.858141 0.00233572
-0.115967 -0.0688146 0.558831 -0.0196401 -0.995583 0.0918082
-0.00109897 -0.124691 0.679269 -0.156162 -0.98556 0.0654655
-0.333066 -0.0657959 0.439048 -0.0120611 -0.997541 -0.0690447
0.0148935 -0.104682 0.18535 0.496471 -0.861771 -0.104251
-0.0456668 -0.108834 0.60179 -0.706792 -0.706898 -0.0272039
-0.0577553 -0.0767802 0.406483 -0.987212 -0.154243 -0.0402788
-0.00124244 0.00189566 0.329884 -0.747592 0.664104 -0.00850843
0.316767 -0.0594952 0.480314 -0.00426925 -0.999961 0.00769096
-0.120671 -0.0349269 0.0546734 -0.0142522 0.999781 -0.0153508
-0.00322599 0.0748377 0.081268 0.985927 -0.0703581 -0.151648
-0.261693 -0.0605378 0.445565 -0.00555492 0.997594 -0.0691076
0.0250652 -0.0129483 0.774167 0.452315 0.884061 0.117679
-0.0460308 -0.031345 0.324324 -0.892345 0.448556 -0.0501817
-0.362354 -0.0673813 0.49074 -0.0107893 -0.999912 -0.00769052
-0.0375763 -0.106964 0.3585 -0.705633 -0.707514 -0.03881
-0.151509 -0.069599 0.483283 -0.0107893 -0.999912 -0.00769052
-0.379426 -0.0670505 0.471766 -0.0107931 -0.999912 -0.00772879
-0.0254085 -0.00307949 0.725763 -0.513406 0.858136 -0.00404784
-0.12165 -0.0368436 0.0307925 -0.00559185 0.99054 -0.137109
-0.134793 -0.0700321 0.51614 -0.0107893 -0.999912 -0.00769052
0.00298369 -0.0174843 0.194344 0.175708 0.981627 -0.0743936
0.0335081 -0.0586158 0.324754 -0.0710913 0.990896 0.114333
0.269143 -0.0681704 0.462644 -0.0107931 0.999912 0.00772879
0.146966 -0.0677242 0.564017 -0.0196473 0.995576 -0.0918818
0.0790344 -0.0600712 0.567211 -0.0131549 -0.995682 -0.0918909
0.240477 -0.0611506 0.435011 -0.00555692 -0.997595 0.0690833
0.141984 -0.0588771 0.463661 -0.00426925 -0.999961 0.00769096
0.227647 -0.0591495 0.475787 -0.00426925 -0.999961 0.00769096
-0.043921 -0.0449528 0.538733 -0.720695 0.692926 0.0212541
0.0470898 -0.104061 0.513339 0.71165 -0.702006 -0.0272403
0.0103254 -0.0986844 0.127882 0.494923 -0.859084 -0.130481
-0.018062 -0.00296727 0.487778 -0.158434 0.987089 -0.0235362
0.0507515 -0.0997593 0.675459 0.705924 -0.70603 0.0565134
0.388352 -0.0597236 0.510345 -0.00540855 -0.999918 -0.0115858
-0.0441978 -0.0939653 0.289621 -0.883724 -0.451357 -0.123732
-0.0930055 -0.0413258 0.025806 -0.00558996 -0.990536 -0.137142
0.139002 -0.0591229 0.456128 -0.00555492 -0.997594 0.0691076
-0.421358 -0.0667995 0.497869 -0.0107893 -0.999912 -0.00769052
-0.0318809 -0.116614 0.664064 -0.448441 -0.89168 0.0617039
0.0378858 -0.0195023 0.633316 0.584888 0.740427 -0.331171
-0.00541693 -0.0191369 0.832704 -0.148179 0.957784 0.246361
-0.0427437 -0.0401958 0.251104 -0.885128 0.452074 -0.110357
-0.1872 -0.0642545 0.391297 -0.012059 -0.997541 -0.0690356
0.0111765 0.0001623 0.642514 0.156351 0.986792 0.0423907
-0.0274397 -0.0543772 0.827936 -0.828571 0.5033 0.245274
0.0362715 -0.0506535 0.252066 -0.831377 -0.552046 0.0636969
0.348343 -0.0675705 0.495676 -0.0107893 0.999912 0.00769052
-0.00408476 -0.0175754 0.610908 -0.130887 0.883863 -0.44906
-0.312653 -0.0679408 0.515603 -0.0119196 -0.999862 0.0115357
-0.152043 -0.0587736 0.482696 -0.00426925 0.999961 -0.00769096
0.052659 -0.0279401 0.531105 0.893153 0.448963 -0.0266425
-0.259367 -0.0647948 0.555497 -0.0509883 -0.936898 0.345865
0.00608984 -0.111638 0.775601 0.153953 -0.967591 0.200164
-0.0577932 -0.0749046 0.400229 -0.987212 -0.154243 -0.0402788
0.114569 -0.0654908 0.396471 -0.0120611 0.997541 0.0690447
0.00687372 -0.105331 0.171176 0.175025 -0.976351 -0.126901
