0.00889257 0 0.517356
0.343523 0.275427 1
0.524696 1 0.538395
0.49412 0 0.974076
0.69025 0 0.94627
0.799679 0.0953545 0
0.00896251 1 0.790872
0.555999 0.669476 0
0.855936 0.278754 1
0.298888 0 0.953279
0.266086 1 0.6953
0.431365 0 0.722248
0.027485 1 0.0799454
0.63467 0 0.412867
0 0.175641 0.646696
0.575493 0.0491372 1
0.381564 1 0.69522
0 0.560276 0.170194
0.237026 0.287162 0
1 0.592108 0.498211
1 0.223064 0.5292
0.864927 0.360291 1
0.352427 0 0.320695
0.725277 0 0.227802
0.324384 0.597934 1
1 0.997302 0.392061
0.946982 0.655063 0
0.193074 0.834022 0
1 0.419594 0.568503
0 0.294915 0.920807
0.584163 0.933859 1
1 0.750324 0.875044
0.0241956 0 0.668925
0.65631 0 0.275418
0 0.800546 0.247214
0.566256 1 0.010851
0.925744 1 0.243676
0.361016 0.121415 1
0.108987 0.00624198 0
0 0.233878 0.0287862
0.798685 0.628943 1
0.145642 0.717451 0
1 0.638206 0.104713
0 0.66211 0.505529
0.550834 0 0.873619
0.404639 0 0.0210117
1 0.478837 0.785852
0.917164 0.546063 1
0 0.56387 0.408711
1 0.766403 0.262416
0.663952 0.259221 0
0.743793 0.354383 0
0.644753 1 0.254174
1 0.408419 0.594422
1 0.77741 0.0696769
1 0.621323 0.83276
0.132519 0 0.264247
0.0673787 0.774332 1
0.205241 0 0.682091
1 0.389925 0.942672
0.57163 1 0.130352
0.240638 0.108031 1
0.302883 0.732153 0
0.87309 0.470385 1
0.568826 1 0.732843
0 0.109722 0.446723
0.49549 0 0.420001
0.934403 1 0.921502
0.209333 0.727259 1
0.478447 0.96023 0
0 0.195058 0.725763
0.0610658 0.335058 0
0.431377 0 0.112003
1 0.0843136 0.350447
0.879173 0 0.711362
0.412125 0 0.833472
1 0.716334 0.272505
0.226145 0.462915 1
0.327373 1 0.285601
0.215324 1 0.371086
0.684809 0.837048 0
0.679795 0 0.836473
0.0794298 0.490343 1
1 0.0524758 0.0861375
1 0.487443 0.502838
0.0369947 0.0808782 1
0.914289 0 0.851826
0.95713 0.250735 1
1 0.204768 0.941871
0.757274 0 0.549162
0.515248 1 0.443094
0.243259 1 0.269934
0 0.504147 0.474142
0.515995 0 0.656147
0.742342 1 0.776662
0.0450796 0 0.832059
0.361298 1 0.159765
0.371058 0.0642391 1
0.884688 1 0.0718811
0 0.275484 0.372746
1 0.81514 0.0047279
0 0.37314 0.674591
0.933947 0 0.988784
0.651189 0 0.594688
0.980812 0.837937 0
1 0.0977205 0.835453
0.830407 1 0.880573
0 0.891096 0.84739
0.222402 0 0.26928
0 0.928306 0.904661
0.441659 0.691891 0
0.136063 0 0.135215
0 0.651339 0.268893
0.880488 0.516659 0
0.403516 0 0.446209
0.60691 0 0.121002
1 0.35251 0.273734
0.528571 0.0591692 0
0.278514 0 0.153594
0.041824 0.795063 0
0 0.760502 0.922476
0 0.0965989 0.657538
0.313681 0.962133 1
0 0.405739 0.216883
1 0.490044 0.3322
0.90524 0 0.0477816
0.212282 1 0.992744
0 0.512664 0.335513
0.126928 1 0.716438
0.163173 0 0.74505
0.11802 0.978936 0
1 0.74241 0.672165
0.970956 1 0.0799381
0.206377 0 0.821424
0.166388 1 0.871705
0 0.367526 0.781424
0 0.877481 0.684271
0.277938 0.38839 1
0.840911 0.923757 0
1 0.897149 0.982294
0.939712 1 0.816572
0.290225 0 0.566829
0.997828 0.190189 0
1 0.629898 0.722066
0.358762 0 0.994283
1 0.299549 0.465276
0.841731 0.00174048 1
0 0.789237 0.771886
0.840591 0 0.818932
0.551777 0 0.404091
0.893984 1 0.981872
0.966891 0.104052 1
0.175265 0 0.943678
0.940701 0.324135 0
0 0.227681 0.248504
0.964398 1 0.609141
1 0.912213 0.343722
0.113309 0.621463 1
0.953287 0.782983 1
0.0923608 1 0.791932
0.426276 0.545195 1
0.278954 0 0.0787946
0.000404239 0.797897 0
0.815594 0.724102 0
0 0.633936 0.656812
0.737855 0.122489 1
0 0.678325 0.422465
0 0.774191 0.369174
0.926666 1 0.339452
1 0.667145 0.180033
0 0.169388 0.912947
1 0.483859 0.122625
0 0.257075 0.990529
0 0.809688 0.294846
0.36932 0 0.527147
0.824624 1 0.142897
1 0.187797 0.620857
0.990096 0.91648 0
0 0.91584 0.322723
0.217978 0 0.405116
0.188018 0 0.835602
0.553119 1 0.291046
1 0.803099 0.553648
0.165828 1 0.21716
0.371864 0 0.163195
1 0.674356 0.506893
0.296392 1 0.0546486
0.294622 0 0.897246
0.964251 1 0.789429
0.467195 0.377655 0
0.964393 0.0779556 0
0 0.966914 0.23365
1 0.651029 0.33377
0.68116 0 0.321255
0.63199 1 0.656971
0.712189 0.87866 0
0.878754 1 0.323272
1 0.229723 0.714953
0.213687 0.857629 1
0.071653 0 0.751905
0.240209 0.221764 0
0 0.342431 0.0506698
0.302232 0.587103 0
1 0.691635 0.0334864
0.0311408 0 0.905416
0.616401 0.85869 0
0 0.520058 0.725373
0 0.163182 0.995351
0.0906197 0.442439 0
0 0.553779 0.0691019
1 0.313261 0.655375
0.0225819 0 0.0370499
0.397418 1 0.292564
0.517393 0 0.184576
0.117953 0.89639 1
0 0.847381 0.0657163
0.806676 0.897714 1
0.923449 0.942009 1
0.494169 0 0.710922
0.359619 0 0.652989
0.484817 0.127691 1
0.820425 1 0.559706
0.560849 0.820863 1
0.349725 0 0.756704
0 0.0370682 0.719916
0.799035 0.00339979 0
0.50717 0 0.017806
1 0.451136 0.713691
1 0.558268 0.0892847
0 0.545582 0.876224
1 0.92427 0.49182
0.0868317 0 0.472108
0 0.609571 0.557513
0.171588 0.0172641 1
0.447642 1 0.557133
0.600094 0.386061 1
0 0.441996 0.390946
0.797901 1 0.0395139
0.914185 0 0.445562
0.27264 0.346288 0
0.087798 0.665025 0
0.0583395 0 0.211329
0.365096 0.736486 1
0 0.542458 0.248365
0 0.281821 0.63872
0.801776 1 0.428741
0 0.0357634 0.292429
0.200584 0.21654 1
0.442577 0.117755 0
0.187293 0.41278 0
0 0.623851 0.0586224
1 0.830494 0.177128
0 0.234466 0.863864
0 0.687128 0.849352
1 0.799304 0.414285
1 0.0946646 0.538445
0.65412 0.989278 1
0.314176 1 0.826644
0.700057 0.770424 1
0.815863 1 0.75677
0.387353 0.809434 0
1 0.672197 0.632948
0.263344 0 0.0390417
0.731237 0.186942 0
0.802797 1 0.323335
0.764682 1 0.925449
1 0.580937 0.191806
0.864723 0 0.925797
0.990007 0.5681 1
0.552777 0 0.307032
0.477452 1 0.174427
0 0.429825 0.814976
0 0.98894 0.99369
0.580009 0.708395 1
0.622163 1 0.796297
0.0113909 0.531128 1
0 0.353155 0.510575
0.55371 0.664695 1
0.7874 0 0.072175
0.970317 0 0.783555
0 0.973069 0.411529
0.906976 0.941845 0
0 0.394171 0.946911
0.613558 0.441798 0
0 0.992385 0.710228
0.532716 0 0.770155
0.449516 0.763622 0
0.351226 0.931961 0
0.152713 0 0.640878
0.588886 0.0910429 0
0.299705 0.871751 1
0.719365 0.603334 0
0.470103 1 0.265559
0.390925 0 0.551163
0.82176 0.776874 1
0.260237 1 0.394656
0.475506 0.151756 0
0.665647 0 0.707495
0 0.846371 0.761305
0.880888 0 0.17695
0.918232 0.3858 0
0 0.699062 0.105335
1 0.133862 0.857178
0.0455097 0 0.609529
0 0.954265 0.651414
0 0.507093 0.976756
0.362901 0.998643 1
0.138007 0 0.0715031
0.849946 0.646599 0
0.504132 0.610648 0
0.0237556 0.340072 0
0 0.101722 0.870394
1 0.408452 0.858637
0.707783 0 0.50201
1 0.94101 0.277962
0 0.304639 0.165178
0.386066 1 0.387916
1 0.967695 0.158017
0.441588 0.877598 0
0.0978343 0.310213 0
1 0.765536 0.827837
0.01433 0.937043 0
0.718163 0.238545 1
0.00492322 0.062412 1
0.0553302 0.614659 0
0.543136 0 0.337973
0.239205 0.965837 1
0 0.513619 0.926838
0.255269 0 0.428649
0.807796 0.76272 0
0 0.132994 0.382095
0.830133 0.136074 1
0 0.454847 0.661943
0 0.815087 0.940371
0 0.63579 0.180313
0.270093 0 0.816715
0 0.89978 0.531707
0.234372 0.826625 0
0 0.170252 0.214934
0.305295 1 0.584779
0.718945 1 0.692798
1 0.340003 0.994393
0 0.262173 0.566036
0.582317 0.948338 0
0.710351 0.8612 1
0.190571 0.605856 1
0.747571 0.433818 1
0.0478065 1 0.967322
0.232103 1 0.84956
0.151957 1 0.0628517
1 0.130977 0.957979
0.00761067 0.0701758 0
0 0.788078 0.425631
1 0.726918 0.391781
0.221791 0.696957 0
0.0634746 0.298896 1
0.845651 0 0.118198
0.174071 0.315841 0
0.0146814 0 0.399603
0.682597 0.62385 1
0.494835 1 0.776245
0 0.390621 0.356334
0 0.244984 0.282635
0.786246 0.958762 0
1 0.0579308 0.376693
0 0.555277 0.77947
0 0.177802 0.503055
1 0.0673339 0.697594
0.583832 0.181347 1
0.802199 0.229606 0
0.572697 1 0.939032
0 0.995062 0.871702
0.518468 0 0.527955
0.0209724 0.615312 0
0.975246 1 0.452438
0 0.894145 0.427396
0 0.586647 0.48318
0.972311 0 0.516576
0 0.933711 0.307226
0.158037 0.656715 0
0.0929707 0.233811 0
1 0.361787 0.868752
0 0.146847 0.17013
0.146101 0.781416 0
1 0.0384479 0.930509
0 0.609832 0.993386
0.759954 1 0.967789
0.295244 0 0.758826
0.612437 0 0.767796
0.836707 1 0.822261
1 0.559266 0.0309252
1 0.402465 0.740708
0.592881 0 0.178232
1 0.871396 0.768514
1 0.124969 0.482091
0.575624 0.339276 0
0.0967758 0.730702 0
0.902861 0.413541 1
0.400032 0.447302 0
0.435911 0.647588 1
0.887621 0 0.619711
0.613771 0 0.989727
0.463773 0 0.400093
0.189008 1 0.743759
0.720223 0 0.157083
0.309903 1 0.427593
0.359435 0.37713 1
0.28072 1 0.102161
0 0.143104 0.314944
0.253769 0.11511 0
0.50771 0.360795 1
0.485353 0.0164514 1
0 0.751562 0.997604
0.328012 0.123954 1
0.681728 0.678663 0
0.914928 0.846574 1
0.951576 0 0.695519
0 0.804106 0.522411
1 0.475449 0.263041
0.671315 0.133991 0
0.231517 0.236381 1
0.659939 1 0.529501
0.590064 0.200854 0
1 0.470456 0.408303
0 0.0621042 0.573541
0.651291 0 0.382741
0 0.582332 0.607398
0 0.336551 0.0919122
0 0.736412 0.245497
1 0.907878 0.665328
0.84869 0.152714 1
0.714311 0 0.000496373
0.256911 0 0.964811
0.520329 1 0.847771
1 0.937836 0.556007
0.865494 0.214254 0
0.494883 0.46754 1
0 0.39695 0.579784
0.990207 0 0.236932
0.709783 1 0.0301652
0.985496 0 0.112416
0.886897 0.134772 1
0.451133 0.0255978 0
0.72081 0 0.959869
0.859262 0 0.543581
0.672703 0.467061 0
0.270436 0 0.631125
0.266232 0.531198 0
0.657387 0 0.234102
1 0.59032 0.425488
0.577127 1 0.420896
1 0.751788 0.563477
1 0.435211 0.0243643
0.168589 0.195638 0
0.280838 1 0.240431
0.215451 0.894016 0
1 0.298433 0.51439
0.172428 1 0.611629
1 0.869009 0.603167
0.408054 0.56786 0
0.0537072 0 0.158415
0.399032 0.2461 1
1 0.202794 0.402438
0.177481 0 0.211965
0.645435 0 0.672152
0.770515 0.85479 0
0 0.957998 0.206141
0.974907 0.774629 1
0 0.207663 0.997047
0.619737 0.504945 1
0.485457 0 0.815339
0 0.484434 0.575291
0.868447 0.452627 0
1 0.665898 0.83306
0.125247 0.162405 1
0.358967 0.235678 0
0.197629 0.330698 1
0.816367 0.422225 0
1 0.919026 0.814995
1 0.264649 0.821222
0.397674 0 0.0665221
0.994199 0.0228511 0
0.720162 0.754814 0
0.100603 1 0.27219
0.774839 0 0.22699
0.483173 0.815403 1
0.508051 0 0.603995
1 0.108613 0.294499
0.446547 0 0.232797
0 0.0395776 0.17555
0 0.242253 0.10484
1 0.516716 0.196708
0.665677 1 0.287168
1 0.630133 0.162816
0.289486 0.655712 1
0.536882 0.816642 0
0.592967 0.600277 0
0.354664 1 0.00439286
0.681974 1 0.513697
1 0.88622 0.400366
0 0.871067 0.554758
0.512449 1 0.658472
0.373559 0.0528948 0
0.818908 0 0.665605
0 0.721214 0.553645
0 0.0442367 0.448912
0.586741 0 0.45857
0.262939 0.944769 0
0.933174 1 0.539089
0.699076 0.949193 0
1 0.536191 0.307674
0.143351 0.978848 1
0.631644 1 0.123004
0 0.0336868 0.887005
0.797769 1 0.629774
0 0.834111 0.853402
0 0.49974 0.0231361
1 0.97533 0.334695
0.0765141 0 0.998335
0.677235 1 0.837572
1 0.449924 0.629927
0.782895 0.50416 0
0.0671582 0.0995219 0
0.974648 1 0.207685
0.180242 0.42628 1
0.676409 0.785988 0
0.511234 0 0.259757
0.162677 0.55462 0
0.0707468 1 0.0265595
0.257027 0.997939 0
0.500718 0.966881 1
0.249505 0.605006 1
0.681503 0.00587171 1
0.599569 0.692389 0
0 0.696134 0.448777
0.677233 0.561441 0
0.944523 0.762417 0
0.785246 0 0.4473
0.161538 0 0.531911
0.585604 0.569282 1
0.327401 0.430607 1
0.545125 0 0.954892
0.438923 0.308843 0
1 0.875891 0.0283489
0.723101 1 0.219294
0.236331 1 0.525974
0.801479 0.870202 0
0.196228 0.100017 1
0.355068 0.859199 0
0.984383 0 0.360508
0.588702 0.761412 0
0 0.743609 0.66459
0.0639521 1 0.594808
0.279721 1 0.980718
0.876222 1 0.203495
0 0.300785 0.251224
0.273777 1 0.761665
1 0.748415 0.939062
0.685987 1 0.436332
0.882246 0.90353 1
0.871397 0 0.574077
0.951254 0.161833 0
0.444824 0.860162 1
0.443743 0.454685 1
0.401518 0 0.672129
0.0983982 0.805305 1
0.284417 0.650392 0
0.647269 0 0.549395
0.517876 0.315058 1
0 0.966578 0.532151
0.526144 0.929163 1
0.209605 0.440174 0
0.745938 0 0.795826
1 0.370221 0.658219
0.160129 0 0.885592
0.213943 1 0.444193
0.0492318 1 0.660986
0.841758 0.51022 1
0.970762 0 0.269773
0.663931 0.124295 1
0.785147 0.373721 1
0.936657 0.0125147 0
1 0.0848928 0.150869
0.100734 0 0.763782
0 0.780456 0.116697
0.378389 0.69441 0
0.37035 0.509816 1
0.70857 1 0.787963
0.390392 0.321647 1
1 0.387227 0.430549
0.387119 1 0.510108
0.628306 0 0.869808
0.376823 0.131865 0
0.508537 1 0.931014
1 0.785619 0.131037
0.78902 0.347692 0
0.385689 0 0.775081
0.70557 1 0.12833
0 0.257122 0.419839
0.610831 0 0.0152424
0 0.125229 0.75524
0.923719 1 0.659516
0 0.638629 0.358445
0.603633 0 0.869628
1 0.813521 0.125803
0.722496 0.276608 0
0.11307 0 0.352608
0.198957 0 0.0669758
0.739903 0.303731 1
0.0650687 0.41057 1
0.377741 0.481789 1
0.857853 0.254276 0
0.582999 1 0.167115
1 0.170409 0.0636639
0.751541 0.137732 0
0.535607 0.559607 0
0 0.733141 0.743916
0 0.737477 0.00203568
0.376464 0.813537 1
0.731257 0 0.901387
0.470279 0 0.581956
0.864876 0.0591682 1
0 0.270321 0.503002
0.951232 0 0.966056
1 0.352266 0.105396
0 0.617895 0.899043
0 0.648346 0.784487
0.783608 0.0253837 1
0.278715 0 0.300862
0.785587 0 0.612686
1 0.888258 0.819966
0.698186 1 0.665456
0.124028 0.101068 1
0.110967 0.562078 1
0.270053 1 0.89663
0.9976 1 0.743119
0.0936309 1 0.430837
0.491486 0.659993 1
0.742287 0.609599 0
0.154018 1 0.127488
1 0.00601017 0.731374
0.443773 0.368192 1
1 0.963507 0.782373
0.561551 0.28149 0
1 0.892253 0.21915
0.982581 0.917817 1
1 0.826323 0.279761
0 0.449922 0.949087
0.487276 1 0.941952
1 0.367997 0.561069
1 0.568215 0.714198
1 0.909081 0.923822
1 0.276402 0.858691
1 0.66534 0.75679
0.684954 0.808963 1
1 0.345137 0.779313
0.640511 1 0.622936
1 0.632425 0.946259
1 0.464697 0.959821
0.806461 1 0.202219
0.974042 0.532287 1
1 0.436919 0.506467
1 0.179408 0.486047
1 0.378456 0.217512
0 0.0178754 0.0536293
0.333957 0.904876 1
1 0.974079 0.462759
1 0.28208 0.120517
0.88066 1 0.805448
0.49224 0.291783 0
0.0665749 0.710304 1
0 0.824622 0.188709
1 0.556786 0.893613
0.950791 0.184961 1
0.592674 1 0.249446
0.369177 0 0.304222
0 0.307719 0.748966
0.850046 1 0.951408
0.442127 0.99491 0
0.832349 0.567723 0
0.672997 1 0.409641
1 0.591486 0.285932
0.0160227 1 0.141425
0.137503 1 0.219901
0.393039 1 0.118589
1 0.548274 0.536934
0.315805 0 0.533329
0.167637 0.385819 1
0.800032 0.554726 1
0.515944 0.753235 1
0.946669 0 0.537263
0.141268 0 0.417412
0 0.557115 0.594899
0.174931 1 0.446453
0.563428 0.397226 1
0.893248 0.784605 1
0.0232394 0.215027 0
0.0558816 0.881835 0
0.451488 0 0.478496
1 0.308964 0.934583
0.602163 0.0935281 1
0.919574 0.590402 1
1 0.884113 0.103989
1 0.23591 0.762386
0.0949697 0.0793127 1
0 0.0968748 0.0312926
0.730925 0.662947 1
0 0.902686 0.701086
0.201412 0.0799308 0
0.13624 0.759357 1
0.736481 0 0.745577
0.762252 0.788432 1
0 0.872185 0.729777
0.593488 0 0.645727
0 0.351389 0.184013
1 0.226787 0.24928
0.75795 0.912666 1
0.108727 0.48241 0
0 0.944572 0.254289
0.429613 1 0.663451
0 0.386283 0.462832
0 0.847587 0.413595
0 0.270902 0.873861
1 0.828389 0.843658
0.719605 1 0.341268
0.103007 0 0.877467
0.301518 0.484221 0
0.332189 0.289723 0
1 0.636933 0.8947
0.542574 0.573563 1
0.6312 0.470062 1
0.999404 1 0.266548
0 0.339714 0.381195
0.927978 0.36048 1
1 0.542118 0.810809
0 0.751662 0.559888
0 0.676445 0.979294
0.940581 0.494886 0
1 0.702726 0.454842
1 0.148732 0.255279
0 0.63217 0.385261
0.416737 0 0.990704
0 0.583759 0.659612
0.781451 0.247111 1
0.298854 0.563573 1
1 0.290539 0.223322
1 0.217625 0.135432
0 0.34996 0.619391
1 0.165159 0.760482
0.545895 1 0.0783794
1 0.829342 0.4987
1 0.966998 0.0361839
0.333555 0 0.378081
0 0.449487 0.0717935
0.175706 1 0.956034
1 0.449729 0.660766
0.22791 0.489886 0
0 0.371354 0.99602
0 0.139908 0.781899
1 0.52484 0.748809
0.435405 1 0.799736
1 0.201801 0.595484
0.215163 1 0.341202
0.864875 0 0.3164
0.0395712 1 0.400314
0.187535 0 0.720095
0 0.967944 0.858325
0.0479562 0 0.772446
1 0.337963 0.0237301
1 0.262677 0.0311745
0.838571 0.21797 1
0.620144 0.334524 1
0.557482 1 0.601645
0.382194 1 0.909556
0 0.0763218 0.252799
0.837762 0 0.22761
0.228667 0 0.552676
1 0.145096 0.342131
0.0905364 1 0.56044
0.810513 0.829849 1
0.28487 0.775208 1
0.958342 0.602284 0
0.550519 0.088237 1
0 0.881189 0.621756
0.691968 0 0.384186
0 0.483503 0.515778
0 0.0944943 0.307562
0.86209 0.620528 1
1 0.259154 0.914158
0 0.0362457 0.956612
0.345881 0 0.038231
0.64791 0.204554 0
1 0.457725 0.856505
0.27223 0.781271 0
0.633707 0 0.0985653
0.345603 1 0.0806955
0 0.807632 0.669842
0 0.902161 0.799677
0.0459771 1 0.21912
0.298081 1 0.483985
0.032549 0 0.554472
0.221114 0 0.16312
1 0.72291 0.207099
1 0.501951 0.371926
0.140139 0 0.170955
0 0.0344687 0.789078
0.503932 0 0.882934
0.76659 0.966652 1
0 0.49851 0.866266
0.65466 0.961806 0
0.0814865 0.951996 1
0.26709 1 0.628101
0.277628 0.223781 1
1 0.301233 0.620929
1 0.34487 0.459456
0.740364 0.567922 1
0.440491 1 0.368101
0.0597523 0.126401 1
0.840278 1 0.701533
0.407826 1 0.959912
0.156432 1 0.564897
0.363438 0.385638 0
0.812046 0 0.346299
0.931486 0 0.731689
0 0.662231 0.00610769
0.0111796 1 0.555618
0.215149 0.916083 1
0.353587 1 0.226416
0 0.447339 0.457306
0.723814 0 0.57753
0.0151544 0.889926 1
0.737274 0.72264 1
0.983353 0.238827 0
1 0.63005 0.392035
0 0.368877 0.286171
0.95152 1 0.873613
0.736464 0 0.692914
0.317561 0 0.663803
0.569449 0.0408719 0
0.797787 0 0.904326
0.0142786 0 0.6342
0.029388 0.467825 0
0.337117 1 0.579982
0.63458 0.795015 0
0.479056 0 0.343608
1 0.852501 0.399527
0.831128 0 0.746377
1 0.637915 0.590366
0 0.190398 0.571175
0 0.370051 0.244053
0.71871 0.433035 1
1 0.712978 0.51518
0.211047 0.245324 0
0.123379 1 0.915357
0.858442 0.145911 0
0.45701 0.199405 0
0.382661 0.278963 0
0.119947 0 0.0240296
0 0.757034 0.828702
0.500828 1 0.310676
0.641846 0.929503 1
0.139521 0 0.486472
0.815474 0.465148 1
0 0.521459 0.128096
0 0.894686 0.104092
0.194139 0.510112 1
0 0.656388 0.898244
1 0.543869 0.483761
0.441468 0 0.940618
0.991537 1 0.912118
1 0.0898968 0.260297
0 0.807311 0.0831878
0.461527 0.582842 0
0.0658206 0.562517 0
0.370278 1 0.318616
0.980629 0 0.454788
0.85168 0.0103875 0
0 0.608175 0.253999
0.0367413 0 0.715252
0 0.47926 0.75458
0.74062 1 0.536934
0 0.466213 0.144961
0.389411 0.690335 1
0.429581 0 0.154803
1 0.69527 0.097078
0.541202 1 0.48042
1 0.696848 0.326665
0.382322 1 0.644665
0.527668 0.462199 0
1 0.387212 0.0355048
0.161316 0.993367 0
0.0200871 1 0.906128
0.740176 0.493006 0
0.0293185 0.482236 1
1 0.216159 0.665748
0.430076 1 0.256813
0 0.466694 0.310599
0.941491 0 0.644704
0.48503 0 0.131007
0.0854824 1 0.489313
0 0.873427 0.289819
0.156507 0.656282 1
0.419529 1 0.155848
0.410078 0.602831 1
1 0.721207 0.630193
1 0.953764 0.102741
0.550046 0.253271 0
0.806411 0.240249 1
0 0.898835 0.927719
0.687911 0.398659 0
0 0.62711 0.712678
0.217364 1 0.717275
0.342653 0 0.163801
1 0.0554216 0.223285
0.0412917 0 0.347078
0.911 0.6704 0
0 0.469958 0.698087
0.233654 0.0168562 0
0.3052 0.903463 0
0.835119 1 0.0618975
0.607879 1 0.74195
0.0685812 0.787255 0
1 0.265571 0.675061
0.987333 0 0.92623
0 0.954922 0.776956
0.646842 0 0.926598
0 0.971631 0.0730053
0.530431 1 0.129349
0.422358 0 0.284388
0.574845 1 0.857176
0.425898 0 0.876487
0.968627 0.31735 0
0.227506 0 0.651091
0.140406 1 0.351723
0 0.903112 0.371724
0 0.208191 0.0713483
0.821387 0.721272 1
0.0597047 1 0.832423
0.642749 0.0804885 0
0.781907 1 0.791111
0.214501 0.165035 1
1 0.298314 0.370061
0.538626 0.955912 0
1 0.492201 0.894962
0.312898 0.741187 1
0 0.0967072 0.815971
0 0.558823 0.458313
0.151374 0.854149 1
1 0.800134 0.231606
0.295595 0.398727 0
1 0.00254737 0.323601
0 0.231713 0.654057
0.411394 0.119221 1
0.781412 0 0.131176
1 0.131802 0.172382
0 0.0481829 0.658464
0.711328 0.0739461 1
1 0.708521 0.969775
0.862074 1 0.429848
1 0.988271 0.579684
1 0.964174 0.5681
0.712407 1 0.916272
0.361786 0 0.889699
0.401531 0.956068 0
0.445916 0.932552 1
0.212941 0.296525 1
0.462466 1 0.0635325
0 0.263506 0.307635
0.526552 0.179916 1
0.0174896 1 0.0475673
0.0798549 0.385872 0
0.836961 1 0.482348
1 0.943467 0.705154
0.910082 0.278351 0
0.59119 0.208967 1
0 0.0624784 0.4942
0.162179 0.0368965 0
0 0.261752 0.743387
0.896562 0.245297 1
0.716668 0.844269 0
0.123053 0.222319 1
0.289832 0.0669511 0
0.898532 0.18183 0
0.889839 0 0.967579
0.548522 0 0.718952
0.0218388 0 0.262181
0.0642652 0 0.00225204
0.860992 1 0.534114
0 0.362603 0.916496
0.400959 0.195217 1
0 0.970559 0.442527
0 0.605781 0.528575
0.293353 0.824628 0
0.512617 0.418929 0
0 0.775901 0.623454
0.14864 1 0.667723
0.784739 0.678484 0
1 0.131539 0.588862
1 0.617553 0.531933
0.138089 0.600885 1
1 0.491123 0.628456
0.637297 0.738296 1
0.0658831 0.146058 0
0 0.437172 0.114725
0.886468 0.67863 1
0 0.845434 0.253974
0.416684 1 0.86907
0.479819 1 0.993805
0.836814 0.0582337 0
0.818887 0 0.526679
0 0.291743 0.0253947
1 0.315121 0.312324
0.300822 0.30986 1
0.657366 0.419608 1
0.217626 1 0.226959
0.828507 0.993514 0
0 0.459101 0.223898
0.163343 0.877093 1
0.621093 1 0.306085
0.846485 0 0.637406
0.58947 1 0.758926
0 0.150112 0.674717
0 0.068582 0.520721
0.174283 0 0.375321
1 0.0903871 0.422465
0.99678 0.507711 0
0.818386 0 0.421886
0.072962 1 0.32959
0.0510192 0 0.0814981
1 0.188289 0.112317
0.702425 1 0.731652
0.658311 0.278509 1
0.406735 1 0.827009
0.517595 0.513043 0
0.965105 1 0.375334
0.306336 0.00463259 1
0.385663 0 0.610211
0.129029 0.433412 0
0.932728 0 0.210746
1 0.32937 0.846729
0.727099 0.237163 0
0.634415 0 0.499214
1 0.719075 0.717245
0.875008 0.802705 0
0.493002 0 0.0616514
0.937829 0.133313 1
0.842801 1 0.108787
0.496834 1 0.498666
1 0.343061 0.94638
0.328661 1 0.17861
0.254331 0 0.857545
0 0.255958 0.924373
0.123943 0.925603 0
0.218313 0 0.341974
0 0.170578 0.301818
0.520884 0.705243 1
0.348873 0.60313 0
0.37987 0.949302 1
0.295109 1 0.875967
0.712735 1 0.369565
0 0.933783 0.373307
0.400795 1 0.546524
0.20044 1 0.503143
0.944678 0.72807 0
1 0.820775 0.71134
0.76594 0 0.642991
0 0.907076 0.485167
0 0.937112 0.98117
0 0.139329 0.0015784
1 0.123156 0.903035
0.335741 0.687209 1
0.595977 0 0.283818
0.214952 0.187336 0
0.229747 1 0.166262
0.508138 1 0.726887
0 0.0619914 0.910258
0 0.470142 0.61578
0.150392 0.209984 1
0.373949 0 0.475902
0.935538 0.0457346 1
0.152988 0.609102 0
0.561849 0.706677 0
0.927078 0.848446 0
0.515168 1 0.608034
0.684496 0 0.859798
0.0573129 0.971806 0
0.621966 1 0.960342
1 0.217061 0.309967
0.269515 0.829475 1
0.302766 0 0.422496
0.612598 0.804241 1
0.591217 0.869962 1
0 0.700961 0.264831
0.518964 0 0.14285
0 0.107152 0.573223
0 0.182847 0.805138
0.896182 0.339642 0
0.252289 0.499049 1
0.911353 0 0.363749
0.627807 0.678498 0
0.0965589 1 0.677683
0.0751164 0 0.5391
0.210289 0 0.938175
0.3193 1 0.694787
0.73977 0.983923 0
0 0.182409 0.396262
0.674314 0 0.800398
0.22774 0.317944 0
0 0.685597 0.65576
1 0.436431 0.131002
0.365782 0.00886694 0
0 0.807182 0.823492
0.359375 1 0.904087
0.689707 0.570397 1
0.509692 0.659246 0
0.70075 0.330342 0
0.688805 0 0.110338
0.81788 1 0.617899
0.0808308 0.351235 1
0.263015 0.294221 0
1 0.0667388 0.962793
0.968282 0.313654 1
0.456264 0 0.0147513
0 0.54259 0.300952
0.258219 0 0.216173
0.0953135 0.662315 1
0.496417 0.783387 0
0.16976 1 0.909654
0.367661 0.791537 1
0.083017 0 0.64248
0.746677 0 0.183447
0 0.373207 0.724645
0 0.386667 0.830504
1 0.606036 0.243639
0.804451 0.48136 0
0.764243 0 0.334006
0.594519 0.503876 1
0.828457 0.678095 0
1 0.939916 0.208358
1 0.832083 0.816885
0.253331 0.600442 0
0.224192 0 0.997438
1 0.606248 0.975466
1 0.835301 0.664904
0 0.337015 0.348685
0.966335 0.701883 0
0.0514108 0.796003 1
0.857822 0 0.267789
0.284186 0 0.505064
0.0848338 0.983472 1
0.110791 1 0.163549
0.226768 0 0.318803
1 0.851865 0.566586
0.26922 0.406742 0
0.797924 0.679311 1
1 0.171313 0.25157
0 0.260117 0.824061
0 0.733261 0.607664
1 0.694026 0.674101
1 0.560697 0.568078
0.223421 1 0.00242421
1 0.173511 0.834018
0.981965 0.469131 0
0.697716 0.905843 1
0.112594 0.518954 1
0.10745 0.263607 1
0 0.757487 0.332252
0.873541 0.329714 1
0 0.51575 0.452903
0.294103 0.523644 1
1 0.880196 0.932219
0.110393 0.386008 1
0.485869 0.693678 0
0.742308 0.0518578 0
0.993372 0 0.607501
0.820244 0.583487 1
0.271015 0.0420173 1
0.597416 0.53747 0
0.632482 0.610647 1
0.58317 1 0.538351
0.777718 1 0.288804
0.891519 0 0.506701
0.170124 0 0.814954
0.860822 0.0968386 0
0 0.598046 0.136494
1 0.459431 0.0942326
0.999461 0.851253 1
0.56078 0.0803286 0
0.833969 0.321513 1
0.1967 0.559643 1
0.463631 0.557887 1
1 0.366685 0.708224
0.858054 0.97087 1
1 0.0439378 0.804023
0.491963 0 0.50531
0.6884 1 0.239567
0.598447 0.393242 0
0 0.464756 0.362115
0.780641 0.0509214 1
0 0.40413 0.882475
0 0.0619232 0.61589
0.723569 0.0954041 0
1 0.317855 0.238927
0 0.668189 0.54707
0 0.38634 0.11305
1 0.938087 0.892984
0.0769647 0.188092 0
0.00336453 0.844731 1
0.114354 0 0.31185
0 0.509756 0.214231
0.963557 1 0.718955
0.421914 0.481715 0
0 0.635493 0.296461
0 0.72247 0.866241
0.237534 0 0.718987
0.958432 0 0.874518
0.254919 0.342968 1
0.401324 1 0.333932
1 0.142457 0.642686
0.692299 0.496252 0
0.579631 0.17681 0
0.422487 0.624275 0
0.560765 0.891906 1
0 0.237701 0.15991
0.0632288 0.891737 1
0.186237 0.376846 0
0 0.575881 0.884543
0.376695 0.66665 0
0 0.6529 0.0836167
1 0.779547 0.75855
1 0.0763898 0.88073
0.489696 1 0.212322
0.317994 1 0.327153
0.322764 0 0.281909
0.915257 0.994106 0
0.665133 0 0.00269262
0.0509727 0.209542 1
0.0201458 0.140318 1
0.449378 0.810932 1
0.680739 0.200139 1
0 0.979944 0.30937
0.879892 1 0.246223
0.766722 0 0.284122
0 0.411425 0.63633
0 0.122866 0.0866376
0.90923 0 0.886069
0.583701 0.894317 0
0.294821 0 0.0134308
0.594563 0 0.370436
0.399714 1 0.434248
0.119604 0 0.985074
1 0.100458 0.0991691
0.717604 0.976737 1
1 0.426818 0.335494
0.941521 1 0.00320226
0.828104 0.302136 0
1 0.295683 0.77456
0.356898 0.153673 0
0.416519 0 0.193791
0 0.548761 0.357273
1 0.775669 0.304031
0 0.704976 0.391611
0.366197 0.327689 1
1 0.0721579 0.574971
0.267638 0.431907 1
0.621689 0.227074 0
1 0.131861 0.715268
0.660116 0.0614576 0
0.911843 0 0.801709
1 0.674597 0.38868
0.99933 0.873875 0
0.12705 0.184082 0
0 0.0564719 0.400343
0.787308 0.117166 1
0.418232 0.500727 1
1 0.263852 0.574914
0.954605 0 0.427813
0.51923 0.372239 0
0.888341 0.554278 1
0.23851 0.76171 1
0.34668 0.725729 0
0.360882 1 0.523488
1 0.508063 0.833489
0.602792 0 0.561523
0.697789 0 0.670419
0.510006 0.186293 0
0.753394 0 0.466446
0.416456 1 0.0986443
0.992912 0.660287 0
0.6293 0.558529 0
0 0.178604 0.180124
1 0.445725 0.993893
0.869231 1 0.736588
1 0.737705 0.815548
0.351301 0 0.205319
0.06805 0.630856 1
1 0.255501 0.427773
1 0.984304 0.647321
0.520462 1 0.806151
0.610128 0.966282 1
1 0.68789 0.889867
0.459962 0.319964 0
0.247156 1 0.761992
0.48799 1 0.0978471
0 0.319231 0.532513
0.950913 1 0.272272
0 0.723784 0.128593
0.490598 0.912038 0
0.68932 0.709447 0
0.0602412 1 0.93534
0.756107 1 0.333391
0.72498 0 0.852535
0.176379 0.735451 1
0.691712 0 0.184977
1 0.147962 0.213004
0 0.0550919 0.339069
0.308251 0.697762 0
0.69934 1 0.172289
0.915012 0.481662 1
0 0.304453 0.976614
0.136557 0.863962 0
0.451189 0.434657 0
0.817086 0.81333 0
0.193453 0 0.191447
0.571509 1 0.36011
0.981913 0.0489024 1
0.480747 0.181991 1
0.752805 1 0.0567846
0.240602 1 0.377358
0 0.5711 0.125232
0 0.560099 0.700789
1 0.0947075 0.797621
0.823733 0.371327 1
1 0.633066 0.662128
0.19173 0.800028 0
0.612177 1 0.697057
0.914715 1 0.43161
0.2733 0.160224 0
0.955597 0.120562 0
0.781796 0.899523 0
0.700257 0 0.2572
0.25092 0.682603 1
0.00576888 0.399033 0
0 0.371651 0.315803
0.544562 0 0.211321
0.548844 0 0.00506711
0.760411 1 0.216205
1 0.302483 0.26002
0.859383 0 0.087477
0 0.961565 0.0250591
0.319582 0 0.0583208
0.667773 1 0.0526125
0.0300806 0 0.507199
0 0.446345 0.270123
0.479961 0 0.667921
1 0.0504233 0.530343
0 0.297439 0.704339
0.298237 0.220514 0
1 0.640843 0.066565
0.564988 0 0.109035
1 0.46337 0.31682
0.513224 0.122198 0
0.29486 1 0.149985
0.00169426 0.713941 1
0.740943 1 0.879718
1 0.887054 0.482815
0 0.972929 0.587914
0.310712 0 0.105893
0.639612 1 0.4845
0 0.515896 0.410139
0.504843 0.0916235 1
0.983404 1 0.11688
0.890855 0.0245668 1
0 0.660253 0.745216
0 0.793974 0.98339
0.0262308 0.53991 0
0.757629 1 0.654742
0.190838 0.517883 0
0 0.13236 0.910819
0.0782122 0.0554095 0
0.785145 0.559695 0
0.715493 0.647405 0
0.00753087 1 0.187818
0.962636 1 0.656836
0.905604 1 0.294745
1 0.488827 0.456135
0.506705 0.845537 0
0 0.352473 0.132605
0 0.301587 0.125533
1 0.284077 0.421648
0.0765785 0.512432 0
1 0.868869 0.312669
0.283611 1 0.292013
0.0552251 0 0.437772
0.841619 0.648494 1
0.557484 0.191385 0
0.0295829 1 0.688897
0.787514 1 0.378809
0 0.212409 0.000310779
0.472401 1 0.430768
1 0.534467 0.16859
0.121397 1 0.313858
0.429352 0 0.584457
0 0.915979 0.882269
0.590515 0 0.0790605
0.187042 0.971136 1
0.608379 0 0.215371
0.491291 1 0.572426
0.462708 0.241732 0
1 0.292355 0.049394
0 0.726175 0.204992
0.0512163 0.734327 0
0.704451 0.33651 1
0.667685 1 0.894627
0.923145 0.714342 1
0.602115 0.671911 1
1 0.0573315 0.0383766
0.631183 0.165855 0
0.396187 0.859016 0
0.506229 0.807154 1
0.342193 0 0.703609
0.53403 0.468897 1
0.633744 0.195321 1
0.196483 0 0.497407
0.542962 0 0.914737
0.945182 0 0.831082
1 0.675671 0.140499
0.750212 0.399962 0
1 0.617019 0.7665
1 0.723018 0.0679502
0.289411 0.102706 1
1 0.40149 0.137657
0.31285 0 0.78748
0.356812 0.168333 1
0.846579 0 0.192596
0.506202 0.527002 1
0.662239 0 0.0259959
0.254237 1 0.0694572
0.621372 0.986072 0
0 0.95127 0.109056
0.459871 1 0.890164
0.698723 1 0.572083
1 0.635428 0.4711
0 0.263714 0.157348
1 0.905499 0.733254
0.727945 1 0.447941
0 0.75852 0.529153
0.450558 0.0734768 0
1 0.369537 0.314652
0 0.0911752 0.16567
0 0.292684 0.608535
0.185964 0.761608 0
0.399864 0.861551 1
0 0.248303 0.464971
0.156603 0.111447 0
0.548526 0 0.672689
0.419253 1 0.709231
0.167428 0.931601 0
0.953256 0.952103 0
1 0.482007 0.733884
0 0.0166821 0.180756
1 0.429621 0.252162
0 0.829739 0.509777
0.421074 1 0.739781
0.272385 0 0.123106
0.535144 0.263811 1
0.349508 0.626833 1
0 0.709135 0.509324
0.195423 0.660198 0
1 0.718619 0.479063
0.804932 0.954992 1
0 0.266432 0.229199
0.437304 0.217013 1
0.426439 0.788045 0
0.592555 1 0.632273
0.342288 1 0.635092
0.648978 0.839326 0
1 0.0278504 0.124098
0.984567 0.965414 1
0.211406 1 0.40226
1 0.753558 0.364893
0.726478 1 0.619107
0.528296 0 0.489059
0.776239 1 0.558165
0.582271 1 0.0581963
0.475854 1 0.33677
0.0821592 1 0.0659304
0.257208 0.72289 0
0.914648 0.542456 0
0 0.453421 0.550252
0.551442 0.623024 0
0 0.284293 0.786421
0.0800776 0 0.805239
0 0.785289 0.477634
0.539483 0 0.822501
0.872809 0 0.893428
0.541168 1 0.185901
0.524563 0.150696 1
0.140357 1 0.811463
0.603016 1 0.0281452
1 0.293604 0.992729
0 0.65627 0.13214
0.486003 0.0249646 0
0.250345 0.891088 1
0.618819 0.308049 1
0 0.245231 0.338685
0 0.018291 0.427212
0.749301 1 0.115178
0.743466 0.393817 1
0.543708 1 0.755733
0.461161 0 0.717634
0.931127 1 0.0912342
0 0.196059 0.611168
0.377193 0 0.815827
1 0.958606 0.923738
0.32837 0 0.868962
0.968668 0 0.0862777
1 0.664885 0.969389
1 0.0444916 0.623654
0.973126 0.79047 0
1 0.811148 0.601368
0.854891 1 0.917256
0.177177 0 0.109528
0.768121 0 0.0857034
0.765932 0.734288 0
0.112448 0.738886 1
1 0.268367 0.326611
0.863397 0.393179 1
0.805402 1 0.943809
0.804107 0.384492 0
1 0.527493 0.352565
1 0.340766 0.502816
0.160607 0 0.568897
0.470891 0 0.929138
0.0404546 0.0351723 1
0.541306 1 0.695022
0.956173 0 0.474273
1 0.464943 0.543598
0.113317 0.686272 0
1 0.545132 0.651146
1 0.362438 0.614181
0.616452 1 0.399018
0.446545 0 0.790387
0.147189 0.817229 0
0.476965 1 0.674704
1 0.691474 0.796393
0 0.14115 0.948363
0 0.316943 0.874677
0.0290605 0.408287 1
0.118765 0.0425512 0
0.824288 0.448574 0
1 0.349366 0.0622699
0.841039 0.605081 0
0.0842451 1 0.717016
0.865501 0.676342 0
0 0.413917 0.689264
0.91173 0 0.674386
0.34084 0.567389 1
0.668196 1 0.784107
0.786631 0.441997 1
0 0.200686 0.231103
0.941679 1 0.508847
0.754306 0.16301 1
0.784548 1 0.166812
0.856495 0 0.773835
0.750938 0.227693 0
1 0.958854 0.504212
0.29042 1 0.713532
0.423659 0.526935 0
0.136645 0.33449 0
0.624849 0.484028 0
0.0370572 0.988266 1
0.861532 0.96183 0
0.539694 0.614084 1
0.96302 0.834578 1
0.0365138 0.371579 0
0.843283 1 0.31054
0.662131 0.361683 1
0.0249696 1 0.838445
0.91985 1 0.876135
0 0.474668 0.82513
0.625046 0.0627508 0
0.687402 0.438746 1
0.0450472 0.906935 0
0 0.300924 0.404599
0 0.0347096 0.102809
1 0.39846 0.987953
0.471415 1 0.383995
0 0.183216 0.0363288
0.826353 0 0.939178
0.606311 0.137307 1
1 0.00119328 0.190092
0.876194 0 0.41681
0.0414323 1 0.0392114
0.674754 1 0.65416
1 0.852901 0.13936
0 0.132781 0.132406
0.862804 0.883981 0
0 0.7965 0.153934
0.621962 0 0.368386
0 0.410119 0.78066
1 0.412013 0.167851
0 0.559782 0.976994
0.618483 0.0489744 1
0.763525 0 0.50449
1 0.52289 0.119771
0.831339 1 0.210773
0.384806 0 0.121171
0 0.935092 0.418046
0.827181 0.0406463 1
0.472312 0 0.443396
0 0.8635 0.193102
0 0.540185 0.920939
0.220586 0.581623 0
0.891029 1 0.695601
0.177187 0 0.257563
0.153061 0 0.685341
1 0.793628 0.814193
0.154475 0.0674698 1
1 0.010351 0.545473
0.547995 0.221929 1
0.931026 0.909098 1
0 0.2503 0.607989
0.589287 0.76857 1
0.91481 0.0797598 0
1 0.751765 0.416418
0.158498 0.448032 0
0.19702 0.772141 1
0.908463 1 0.0481961
0.967793 0.358044 1
0.060477 1 0.118193
0.014623 0 0.810791
0.737781 0.903465 0
0.129557 0.307489 1
0.907072 1 0.796241
0.403815 0.36224 1
0.125385 0.290256 0
0.255487 0.673582 0
1 0.503215 0.933611
1 0.233539 0.976362
1 0.908311 0.0393898
0.627893 0 0.826063
0 0.626707 0.602564
0.73377 0.475101 1
1 0.758315 0.615692
0.0226292 1 0.370892
1 0.774862 0.238156
0.057116 1 0.768806
0.170588 1 0.346347
0.304321 1 0.202586
1 0.600606 0.860443
0 0.329366 0.781966
0 0.828364 0.0207929
0.600929 0.311125 0
0 0.651451 0.22242
0.240648 1 0.66421
0.900519 1 0.361411
0.909074 0.427218 0
0 0.668604 0.0584718
0 0.363289 0.548543
0.300145 0.938854 0
1 0.218432 0.353347
0.663336 1 0.476098
0.922598 0.0917372 1
0.764947 1 0.452819
0.339851 0.46907 0
0.732285 0.500398 1
0.510713 0 0.289843
0.91935 0 0.172547
0.968975 1 0.558261
1 0.965289 0.241933
0 0.609105 0.785623
0 0.626103 0.481566
0.725285 0.912638 1
0.809975 1 0.672692
1 0.943866 0.366754
1 0.833671 0.225035
0.772034 1 0.747612
0.332279 0.0794313 0
0.125845 1 0.272533
0.595832 1 0.326506
0.975862 1 0.95948
1 0.496396 0.285644
0.427789 0.15977 0
0.44362 0.111518 1
1 0.628448 0.282741
0.436906 0 0.897844
0.340155 0.52253 1
0.116275 0 0.219728
0.86779 1 0.845836
0.903151 0 0.0815947
0.991832 0.957706 0
1 0.585305 0.813186
0 0.0371593 0.0179852
0 0.0970329 0.403612
0.956644 1 0.040103
0 0.437567 0.173171
0.533598 0 0.0515229
0.849546 0 0.146225
0 0.220934 0.508372
0.831495 1 0.360536
1 0.0255132 0.0532117
1 0.146131 0.44556
0.566661 0.439991 0
0.933724 0.984735 1
1 0.271348 0.743826
0 0.148579 0.718659
0.0478281 0.838467 0
0.928041 0.589009 0
0.092709 0.582871 0
1 0.217181 0.832545
0 0.332132 0.0197763
0 0.908165 0.656738
0.632674 0 0.714387
0.0710155 0.519176 1
0 0.258616 0.06461
0 0.193115 0.849959
1 0.209476 0.759428
1 0.583598 0.553519
0 0.869404 0.332979
0.47784 0.730983 0
1 0.802336 0.884511
0.272296 0 0.462702
0.555861 0.983433 1
1 0.239279 0.564937
1 0.461506 0.58468
0.839351 0.880368 1
0 0.062318 0.747859
0.514317 1 0.897311
0 0.0553726 0.830858
0.574337 0.530504 1
0.576236 0 0.976038
1 0.788858 0.0362167
0.853881 0.336297 0
1 0.686978 0.231139
0.649753 0 0.963009
0.529306 0 0.443581
0.976063 0.603509 1
0.114667 1 0.392661
0.581163 1 0.68469
1 0.684699 0.361418
1 0.600125 0.098884
0.468803 0.511761 0
0 0.0419941 0.219359
1 0.928231 0.963389
0.626294 0 0.627965
0.208786 1 0.882195
0.328943 0.36571 0
0.20382 1 0.134706
0 0.861692 0.597311
0.748794 0.000307165 0
0.605778 1 0.195553
0.412154 0.743505 1
0.907479 0 0.549648
1 0.0575288 0.314236
1 0.533864 0.00748104
0.0421165 0 0.978342
0.0862213 0.877073 1
0.304351 0 0.328054
0.111663 1 0.522925
0.844798 0.0966076 1
0.652285 1 0.69366
0.282774 0.139664 1
0.10021 0 0.155497
0.171429 0.275376 0
0.237749 0.0615035 1
1 0.441257 0.753955
0.143715 0 0.980729
0.282346 0 0.669481
0.313726 0.670786 1
0 0.581782 0.0486904
0.270001 0 0.923354
0.848439 1 0.172434
1 0.407709 0.625603
0.306582 0.255575 1
0 0.331246 0.937715
0.170658 0.694402 1
0.0598088 0 0.934803
0 0.806018 0.341859
1 0.459526 0.474638
0 0.162275 0.257278
1 0.131636 0.827762
0 0.128522 0.22198
0.134562 1 0.459083
1 0.483954 0.227882
1 0.194975 0.723091
0.198272 1 0.813299
1 0.979243 0.431138
0.815666 0.292298 1
0.266327 1 0.499791
0.268177 0 0.259088
0.24971 0 0.58422
0.134354 0 0.782925
0 0.402763 0.261465
0.302498 1 0.396381
0 0.819633 0.888938
0 0.322791 0.281222
0.854869 0 0.0409994
0.190349 1 0.569948
0.0679727 1 0.25864
0 0.333273 0.225621
0.17679 1 0.251574
0.234007 0 0.46596
0.652152 0 0.762434
0.802519 1 0.721878
1 0.580863 0.611522
0 0.0209374 0.685649
0 0.922047 0.131904
0.884084 0 0.472649
0 0.603918 0.439562
1 0.632 0.202313
0 0.581693 0.282393
0.767939 0.197092 0
0.217597 1 0.29923
0.0943096 0.137321 1
1 0.102371 0.690875
0.403689 0 0.519265
0.758062 0.685413 1
1 0.167979 0.378617
0.878382 0.41332 0
0.138901 1 0.761688
0.75305 1 0.814822
0.9293 1 0.958041
0.492081 0 0.218987
0.757191 0 0.773357
0.11516 0 0.713975
0.988257 0.493665 1
0.884642 0.17607 1
0.868855 0 0.840173
0 0.00703761 0.361549
0.550649 0.343319 0
0 0.177998 0.764219
0 0.754463 0.101144
0.369116 0.208572 0
0 0.0288646 0.254049
0 0.569305 0.84088
0.0380803 0.742405 1
0.0507667 1 0.621316
0 0.476191 0.917117
0.646924 0.702115 0
1 0.748388 0.986986
0.726908 0.769457 1
0 0.839645 0.697714
0.892419 1 0.112853
1 0.492415 0.162442
0 0.990158 0.656713
0.721776 0.61941 1
0.615708 0 0.461009
0.463221 0.350092 1
1 0.387091 0.371176
1 0.103696 0.387138
0.673429 0.748737 1
0 0.199082 0.878427
0 0.957756 0.939917
0.2033 0.815123 1
0.799579 0 0.80887
1 0.780634 0.684674
0.499172 0.572206 0
0.787089 0 0.570395
0 0.334757 0.65623
1 0.501577 0.531089
1 0.252391 0.117044
0.322246 0 0.962591
0.805878 1 0.8466
1 0.575104 0.948297
0.199624 0 0.875977
0.856396 1 0.592567
0.0240108 0 0.776954
0.0870373 0 0.603129
0.518474 0 0.832897
1 0.944768 0.852973
0 0.698291 0.0723902
1 0.485545 0.861139
0.409745 0.0329884 0
0.303264 1 0.0132041
0.728604 0 0.40328
0.0242808 0.105032 0
1 0.913102 0.250043
1 0.0785953 0.491601
0.870037 0.234055 1
1 0.0448864 0.841961
0.0546481 0.480501 1
1 0.199326 0.444877
0 0.880899 0.823261
0.0869382 0.191277 1
1 0.629874 0.366601
0.827051 0.210383 0
1 0.645816 0.795997
0.280727 0 0.194142
0 0.923208 0.623595
0.35762 1 0.825595
0.0911485 1 0.834502
0.761501 0.87215 1
0.941248 1 0.75551
0.249189 0.91591 1
0.181027 0.180211 1
0 0.779184 0.886378
0.0298463 0 0.861358
1 0.994079 0.885385
0.456839 1 0.209133
0 0.601184 0.367827
0 0.885432 0.0422986
0.57296 0 0.76335
1 0.779296 0.915618
0.39376 0 0.740078
1 0.21686 0.0292585
1 0.265261 0.492108
0.741884 0.314598 0
0.984825 0 0.153514
0.466508 0.421048 1
0.690439 0.156503 1
0.124085 0 0.612749
0.691203 0 0.585523
0.1929 1 0.0684662
0.932932 1 0.575731
0 0.539283 0.0234808
0 0.921813 0.945709
0.739594 1 0.726707
0.238006 0.157181 1
0.656913 0.43178 0
0.618304 0.429219 1
0.426931 0 0.327195
0 0.240611 0.37987
1 0.0327126 0.342512
0 0.00298964 0.898628
0.474339 1 0.301288
0.69739 0.281655 1
0.0981438 0.357756 0
0.725784 0 0.537133
0 0.737945 0.70533
0.683886 0.898618 0
0 0.425955 0.848034
0.977454 0.426688 0
0 0.213229 0.704953
0.937168 0.516295 1
0.0178635 0.0221267 1
0 0.374627 0.0694404
0.943236 0.904361 0
0.139419 0 0.922643
0.488874 1 0.000238597
0.0519418 0.643304 0
0.590499 0.647589 0
0 0.426978 0.346299
0.752709 0 0.923335
0.793345 0.137487 0
1 0.710085 0.158536
0.848815 1 0.783746
0 0.114986 0.973596
0 0.425257 0.468603
0.978635 0.00317245 0
0.258224 0.459067 1
0.795407 0.0440792 0
0.957372 0.374166 0
1 0.80334 0.170216
1 0.384353 0.258309
0 0.659585 0.82341
0.404287 0.331139 0
1 0.0352392 0.429321
0.183457 0.633279 1
0.932219 0.792629 0
0 0.940027 0.685008
0 0.186251 0.00590066
0 0.553053 0.498991
0.836843 0 0.706361
0.4886 0.212748 0
0 0.90873 0.83068
0 0.521815 0.0609616
0.149407 0 0.852377
0.436985 0.0886512 1
1 0.329782 0.136688
0 0.126231 0.629146
0.860085 0.754424 1
0.994485 1 0.149922
0.0908695 0 0.36473
0 0.803181 0.388066
0.053946 0.302484 0
1 0.156476 0.883626
0.112743 0 0.107953
0.116705 0.934044 1
1 0.149282 0.00107274
0.893929 0 0.00874907
1 0.677689 0.285996
0.658713 0.516768 1
0.506642 1 0.253619
1 0.865845 0.364671
0.332002 0.946218 1
0.650448 0 0.150317
1 0.0240474 0.891092
0.718793 0 0.720308
0.531242 0.85873 1
0.373565 0.209488 1
1 0.967989 0.819518
0.655343 0.65184 1
1 0.907683 0.439944
0 0.155078 0.349357
0 0.18676 0.959735
0.927937 0.749354 1
0.48525 0.207433 1
0 0.705915 0.162422
0.301478 1 0.626999
0.841702 0.484735 0
0 0.764844 0.263869
0.140761 0.533535 0
0 0.213073 0.121519
0.82842 0.115523 0
0 0.668728 0.32653
0.181927 0 0.423398
0 0.867451 0.508119
0.521649 0 0.998641
0.399271 0.246011 0
1 0.191981 0.156921
0.950983 0.572726 1
0 0.289192 0.334671
0.0853998 0 0.0159849
0.688808 0.291314 0
1 0.371918 0.785133
0 0.0690338 0.698323
0.198225 1 0.854256
0.159615 0 0.286875
0.672419 0.36094 0
0.197372 1 0.182568
0.388299 1 0.735246
0.392462 0.154369 1
0.905577 0.484922 0
0.694234 0.111161 1
0 0.672363 0.478867
0.336986 1 0.490915
0.0669927 0 0.506006
0.452352 0 0.345862
1 0.372866 0.832431
1 0.524186 0.068302
0.169127 0.461984 1
0.167713 1 0.985469
1 0.247592 0.21509
0.613525 1 0.84352
0.902342 0.956859 1
0.708675 0.580765 0
0.340394 0.0420773 1
0.0124147 0.956971 1
0.937481 1 0.683976
0 0.797429 0.0446732
0.259307 0 0.882651
1 0.678714 0.533791
0.59733 0 0.737792
0.113451 0 0.446512
0.868441 0.429404 1
1 0.416736 0.711697
0.528359 0.295175 0
0.550011 1 0.561356
0.573879 1 0.0925305
0 0.434723 0.919389
0.195405 0.723726 0
1 0.03013 0.707173
0.634765 0 0.308826
0.676328 0.961698 1
0.998007 0.0671725 0
0.295633 0.302886 0
0 0.368535 0.00962263
0.101984 0 0.284934
1 0.576906 0.461722
1 0.910775 0.194123
0 0.0179914 0.561748
0.870563 0.571007 0
0.375565 1 0.356972
0.81658 0 0.095979
1 0.551985 0.212401
0.328057 0.753476 0
0.300924 0.441936 0
0.511273 0.552424 1
0.540131 1 0.326489
0.571128 0.589677 1
0.00114283 1 0.74918
0.0212173 0 0.947467
0.430441 1 0.0564344
0.320951 0.180308 1
1 0.175531 0.664757
0.838079 0.749059 0
1 0.118934 0.368249
0.833215 1 0.521891
0.302233 0 0.60123
0 0.220755 0.408084
1 0.174571 0.579844
0.812212 0.931592 0
0 0.252929 0.665755
0 0.519792 0.177959
1 0.303906 0.0147233
0.709611 0 0.812367
0 0.165536 0.541437
0 0.83913 0.31719
0.768484 0.027102 0
0.351873 0 0.562211
0 0.351826 0.443919
0.60689 0.350101 0
0 0.737705 0.36815
0.999614 1 0.305238
0 0.595795 0.086234
0.695599 0.431181 0
0.382834 0.546369 1
1 0.00992143 0.797595
0.950536 1 0.416502
0.476452 0.0987168 0
0 0.607265 0.0252425
0.634046 1 0.545486
0.540594 1 0.952048
1 0.900554 0.624477
0.734203 0.335627 1
1 0.585983 0.168392
0 0.220025 0.821753
0.901594 1 0.529626
0.660699 1 0.096526
0.161953 0 0.0503008
0.191532 0.867547 0
0.0463601 1 0.869099
0.74723 0.265489 1
0.808218 0.267601 0
0.543332 1 0.397255
0 0.67448 0.299608
0.69432 1 0.304621
0.624729 1 0.921137
1 0.130986 0.787461
0.861186 0.921453 1
0.809482 0.535662 0
0.37268 0.586607 0
0.333602 1 0.0302481
0.55278 0.324354 1
0.45227 1 0.958816
0.895904 1 0.949978
1 0.840505 0.0345997
0.712143 0.131121 0
1 0.128876 0.0772693
0 0.752025 0.775005
0.172033 0.241256 1
0.394608 0.765121 1
0.0603635 0.433499 1
0.912863 0.71261 0
0.196404 0 0.783741
1 0.593973 0.382125
0.740596 0 0.267675
0.550195 0.855881 0
0 0.162505 0.875159
0.76504 0.197919 1
1 0.447552 0.228734
0 0.874899 0.46858
0.470805 0.857388 0
0 0.573158 0.548813
0.432105 0.726297 0
0 0.773105 0.742329
1 0.445382 0.0633509
0.303865 0 0.394603
1 0.906509 0.787227
0.317465 1 0.914261
0.394635 0.409798 0
0.193225 0.471676 0
0.567405 1 0.206711
0.0130721 0 0.0901924
0 0.767412 0.0282674
1 0.823793 0.425036
0.241207 0.147414 0
0.960291 0.951949 1
0.259129 0.00488675 0
0.284748 0.946436 1
1 0.97299 0.684326
0.390527 1 0.254686
0.552138 1 0.828697
0 0.505835 0.691956
0.668024 1 0.133494
0.190521 0 0.633708
1 0.217366 0.182964
0 0.81431 0.737713
0.614472 0.629209 0
0.65856 0.585825 0
0.604289 1 0.455715
1 0.322383 0.189612
1 0.310395 0.34059
0.567815 0.744409 0
0 0.192831 0.475601
0.0876162 0 0.837846
0 0.698445 0.00651407
0.745025 0 0.989967
0 0.368402 0.400718
0.560191 0 0.176889
0.108558 0.90923 0
0.501439 0 0.753233
1 0.988249 0.0664687
0.0262062 0.650255 1
0.983796 0.204657 1
1 0.567348 0.681484
1 0.272653 0.0816963
0.181195 0.124639 1
0.348593 0 0.447644
1 0.283763 0.189001
1 0.343526 0.73865
1 0.889546 0.582142
0.534821 1 0.0450991
0.271618 1 0.569382
0 0.982087 0.968364
0.525988 0.406669 1
1 0.423562 0.960384
0.995916 0 0.282722
0.244782 0 0.33998
0.226046 0 0.029592
0.17653 0.292845 1
0.15289 1 0.694934
0.549459 0 0.634415
0.789891 0 0.312818
0.300924 1 0.988868
0.558212 0.541822 0
0.0393256 0.051612 0
0.599523 0.73052 0
0.962749 0 0.236996
0.61462 0 0.535942
1 0.529694 0.448999
0 0.852083 0.940284
0.164973 0.0731206 0
0.531677 0.782852 0
0.207495 0.554947 0
1 0.945808 0.66557
1 0.637039 0.500232
0 0.416043 0.610243
0.436217 0.659883 0
0.944546 1 0.97633
0.0240046 0.980084 0
0.789804 1 0.0761368
0.763389 0.473595 0
1 0.383538 0.891721
0 0.384883 0.502196
0.753444 0.257517 0
0.378726 0 0.962838
0.611235 0.910887 1
0.00688088 1 0.439801
0.539803 0.110166 0
0.720431 0.802665 1
0.747832 0 0.609858
1 0.115201 0.563186
0.873573 0.925167 0
0.429115 1 0.455373
1 0.106371 0.171408
0.389055 1 0.475664
0.328324 0.0834636 1
1 0.807469 0.451469
0.433211 1 0.527325
0.978689 0.562255 0
1 0.590257 0.0529467
1 0.749582 0.525435
0.866254 1 0.139643
0.212201 0.044472 0
0.957404 0.670559 1
0.515089 0 0.918915
0 0.224223 0.965348
0 0.881591 0.880451
0.936836 1 0.460623
0.627973 0.218451 1
0.373916 0 0.351206
0 0.75271 0.962835
1 0.866605 0.237019
1 0.161129 0.0267869
0 0.534168 0.839395
0.0801469 1 0.63892
0.943654 0 0.377373
0 0.106484 0.356204
1 0.836573 0.941443
0.334495 0.758969 1
0 0.93349 0.520697
0.184886 0.481047 1
0.339636 0.266849 0
0 0.461787 0.798301
0.400449 0.27872 1
1 0.730667 0.590926
0.381507 0.943485 0
0.190702 0 0.55849
0.513736 1 0.163967
0.251148 0 0.0924213
0.083185 0.586222 1
0 0.363325 0.957357
0.940395 0 0.0337951
1 0.285077 0.70751
0.362725 0.854342 1
0.0780511 0 0.675526
0.91949 1 0.185833
0.252187 0.900995 0
0.252744 1 0.114342
0.981429 0.351786 0
0.0624131 0.265782 1
0 0.0633489 0.203723
0.00998127 0.902 0
0.420552 1 0.0186814
0 0.754242 0.459623
0.66346 0.784887 1
1 0.843911 0.533774
0.953692 0.73591 1
0.353588 1 0.421365
0 0.988363 0.274207
0.803186 0 0.0324111
0 0.541542 0.212704
0.421209 0 0.400383
0.476954 0 0.250568
1 0.614933 0.128768
0.836011 0.557862 1
0.353451 1 0.382603
1 0.845036 0.96352
0.772036 0.584453 0
0.690558 0.998532 0
0.657303 0 0.475396
0.459525 1 0.769282
0 0.924575 0.222238
0.415802 0 0.482673
0.992399 0.5978 0
0 0.503011 0.302953
0.616351 0.889055 0
1 0.0667694 0.188795
0.131776 0.580182 0
0.416442 1 0.405374
0 0.707775 0.231762
0.201563 0.300048 0
0 0.658248 0.685377
0.256066 1 0.212533
0.244877 0 0.790536
0.70391 0.540796 0
0.240255 0.716061 1
0.442804 0 0.443172
1 0.620119 0.686898
0.232097 0 0.840285
0.554215 1 0.518549
0.619078 1 0.156124
0.909061 0 0.5934
0.455417 0.911134 0
1 0.86145 0.080385
0.943953 0.420317 1
0 0.54342 0.386216
0.0980103 0.639847 0
0.418935 0.287561 0
0.387468 0 0.860925
0.254575 0 0.547475
0.749287 0 0.429555
0.157767 1 0.932231
0.386034 0.990976 0
0.780637 0.273936 1
0.487618 0.441746 0
0.866748 1 0.371942
0 0.463167 0.481193
0.587661 0 0.611225
0.941049 1 0.197072
0.0317518 0.316811 1
0.717278 0.809121 0
0.606196 0.578127 0
1 0.720941 0.914648
1 0.27108 0.529509
0.211834 1 0.769351
0.0761402 0 0.969956
0.197957 1 0.622155
0.594181 1 0.290093
1 0.0282188 0.959619
0.411069 1 0.771622
0.353078 0 0.933453
1 0.3832 0.467482
0 0.831948 0.546322
0.0596724 0.219865 0
1 0.256565 0.242775
0 0.273566 0.957067
0.45983 0.677602 1
0.234669 0 0.614445
0.0680393 0 0.859603
0 0.134242 0.501632
0.672766 0.839581 1
0 0.0786687 0.439916
1 0.669954 0.594802
0.207013 0.0646615 1
0.426259 1 0.620389
0.88541 0.283595 1
1 0.778062 0.64956
0.753958 0.769095 0
0.555618 0.498502 1
0.901756 0 0.318297
0.444943 1 0.166142
0.367146 0.262154 1
0.238521 1 0.614376
0.907099 0.630319 0
0.766333 0.470985 1
0.123361 1 0.577102
1 0.339643 0.53889
1 0.232744 0.396534
1 0.524985 0.512153
0 0.520875 0.570023
0.459103 0 0.0979257
0.0804979 0.0365572 1
0.246496 1 0.425161
0.512908 0.949332 0
1 0.328297 0.682309
0.706887 1 0.400967
0.593757 1 0.886178
0.906645 0 0.932124
0.101161 1 0.944057
0.551224 0 0.526197
0.0780386 0 0.0520003
1 0.164767 0.145181
0.992643 0 0.390133
0.0826226 1 0.164575
0.723715 0 0.370373
0.1568 0.950427 1
0.714606 1 0.504176
