0.439952 -0.82735 -0.343697 0.440792 -0.828929 -0.344353
0.118589 -0.184771 0.974153 0.118757 -0.185032 0.975531
-0.695393 0.0849135 -0.71265 -0.695862 0.0849708 -0.713131
-0.72012 -0.0744355 -0.687625 -0.721224 -0.0745496 -0.688679
-0.387052 0.87026 0.297565 -0.387886 0.872134 0.298206
0.495339 -0.364637 -0.786078 0.496273 -0.365325 -0.78756
-0.488447 0.823915 -0.280049 -0.489465 0.825633 -0.280633
0.433506 -0.89567 -0.0728521 0.434493 -0.89771 -0.073018
-0.845394 -0.505502 0.160042 -0.847159 -0.506558 0.160376
0.60934 -0.722277 -0.324162 0.609932 -0.722978 -0.324477
0.696182 -0.285936 -0.652979 0.698698 -0.286969 -0.655339
-0.936968 0.264514 0.217174 -0.9393 0.265172 0.217714
0.725498 0.565453 0.391228 0.725809 0.565695 0.391396
-0.133342 -0.917058 -0.366584 -0.1338 -0.920211 -0.367844
-0.117027 0.953327 0.2645 -0.117469 0.956928 0.265499
-0.39598 -0.912436 -0.0335795 -0.397881 -0.916816 -0.0337407
0.41542 -0.896474 0.129164 0.416898 -0.899663 0.129623
0.429691 0.685917 -0.587341 0.429673 0.685888 -0.587316
-0.820214 0.430509 -0.371553 -0.821801 0.431342 -0.372272
-0.242225 0.935901 -0.247085 -0.242755 0.93795 -0.247626
-0.342121 0.524208 0.777947 -0.342628 0.524985 0.7791
0.11458 0.503806 0.852962 0.114897 0.505199 0.85532
0.853768 -0.460526 -0.227781 0.85682 -0.462172 -0.228595
-0.153675 -0.814699 0.553365 -0.154172 -0.817334 0.555155
0.0143903 -0.969631 -0.225479 0.0144538 -0.97391 -0.226474
0.524908 -0.489095 -0.692157 0.526537 -0.490612 -0.694304
0.178631 0.977928 0.0877541 0.178994 0.979913 0.0879322
0.20819 0.925513 0.310052 0.208602 0.927347 0.310666
0.929377 0.176765 0.316086 0.931757 0.177218 0.316895
-0.614017 -0.574511 -0.53493 -0.616106 -0.576466 -0.53675
-0.295293 -0.910642 0.277718 -0.296243 -0.913573 0.278612
0.0282524 0.879392 0.466596 0.0283684 0.883002 0.468511
-0.37279 0.263547 -0.886987 -0.373693 0.264185 -0.889134
-0.769193 0.624241 -0.122232 -0.77063 0.625407 -0.12246
0.0816266 -0.00193771 0.9953 0.0817375 -0.00194034 0.996652
-0.355691 -0.766287 -0.527994 -0.357034 -0.769181 -0.529988
0.534964 0.188644 -0.819318 0.536831 0.189303 -0.822178
0.239113 -0.968069 0.0102261 0.239781 -0.970773 0.0102547
-0.254084 0.230733 0.935865 -0.254896 0.23147 0.938855
-0.780854 -0.479874 -0.397573 -0.781606 -0.480336 -0.397956
0.462173 -0.654673 0.592268 0.463803 -0.656982 0.594357
0.77502 0.392089 -0.490897 0.776821 0.393 -0.492037
0.248752 0.596295 -0.758779 0.249603 0.598336 -0.761376
0.00669628 -0.210988 -0.976002 0.00670587 -0.21129 -0.9774
-0.06446 -0.617419 -0.780369 -0.0646433 -0.619175 -0.782588
0.0106408 0.936423 -0.346517 0.0106564 0.937795 -0.347025
-0.727555 -0.596558 0.331095 -0.729439 -0.598103 0.331952
-0.692241 0.233686 0.678383 -0.694324 0.234389 0.680424
0.605188 -0.739406 0.284977 0.606955 -0.741565 0.285809
-0.838456 -0.525898 -0.130396 -0.839893 -0.526799 -0.13062
0.425143 0.0175371 0.900478 0.426872 0.0176084 0.904141
-0.734224 -0.293251 0.608451 -0.735958 -0.293944 0.609888
0.819876 0.540786 0.170584 0.822452 0.542485 0.17112
0.107776 0.319933 -0.939836 0.107924 0.320371 -0.941124
-0.332348 -0.273307 -0.900451 -0.333021 -0.27386 -0.902274
-0.838316 -0.265394 -0.470094 -0.840759 -0.266168 -0.471464
0.506129 -0.703432 -0.493007 0.507644 -0.705538 -0.494483
-0.598131 -0.746596 -0.278702 -0.600284 -0.749283 -0.279705
-0.839499 -0.153321 0.517209 -0.84128 -0.153646 0.518306
-0.46728 0.00478342 -0.882385 -0.467988 0.00479067 -0.883722
0.00904749 -0.994349 0.0589175 0.0090826 -0.998208 0.0591462
-0.940519 -0.194867 -0.270527 -0.942532 -0.195284 -0.271106
0.504649 0.686518 -0.516949 0.50637 0.688859 -0.518712
-0.578632 0.111947 0.805924 -0.579542 0.112123 0.807192
-0.973482 0.197479 -0.0610723 -0.978191 0.198434 -0.0613677
0.276008 0.810849 0.509759 0.276908 0.813493 0.511421
-0.817673 -0.0906256 -0.566009 -0.818833 -0.0907542 -0.566812
0.776966 0.0171275 -0.62489 0.779128 0.0171752 -0.626629
-0.0475618 -0.568341 0.815535 -0.0477924 -0.571097 0.81949
0.0127915 0.824644 0.56277 0.0128113 0.82592 0.563641
-0.154286 0.809465 0.564811 -0.154437 0.810256 0.565363
0.929528 -0.0562301 -0.355798 0.932434 -0.0564059 -0.35691
-0.649846 0.359142 -0.667204 -0.651005 0.359782 -0.668393
0.54151 0.00898802 -0.835656 0.543789 0.00902585 -0.839173
-0.898901 0.403218 0.152867 -0.901621 0.404438 0.15333
0.329619 -0.590518 -0.733181 0.33046 -0.592025 -0.735052
0.395598 0.805087 -0.438056 0.396281 0.806477 -0.438812
-0.326517 -0.333014 0.881201 -0.327497 -0.334013 0.883845
-0.730577 -0.137422 0.66388 -0.733013 -0.13788 0.666094
0.333665 0.585728 0.733568 0.334918 0.587928 0.736323
0.0839425 -0.82731 -0.548169 0.0842813 -0.830649 -0.550381
-0.887978 0.00683378 -0.455489 -0.88975 0.00684741 -0.456398
-0.398659 -0.58361 0.702725 -0.399991 -0.58556 0.705073
-0.994022 0.0821797 0.0260488 -0.99626 0.0823647 0.0261075
0.795583 -0.0652557 0.596201 0.798516 -0.0654963 0.598399
0.816236 -0.326247 0.472645 0.817844 -0.32689 0.473576
0.836724 0.394775 -0.372326 0.839 0.395849 -0.373339
0.225573 -0.463986 -0.852138 0.226446 -0.465781 -0.855435
-0.695451 0.659519 -0.275647 -0.697337 0.661307 -0.276394
-0.362875 0.625339 -0.6888 -0.363389 0.626225 -0.689776
-0.352157 -0.828214 0.428094 -0.353357 -0.831037 0.429553
-0.218453 0.00999008 -0.972499 -0.219158 0.0100223 -0.975638
0.904036 0.393837 0.148074 0.906617 0.394961 0.148497
0.286294 0.927733 -0.231163 0.286855 0.929552 -0.231616
0.943182 0.173016 -0.272473 0.946135 0.173558 -0.273326
-0.382225 0.7372 0.555247 -0.382635 0.73799 0.555842
0.406054 0.390912 -0.821448 0.407592 0.392392 -0.824559
0.0597597 0.985479 -0.133842 0.0599804 0.989119 -0.134336
0.803223 0.545319 -0.231888 0.804708 0.546327 -0.232317
-0.124653 -0.697415 -0.703976 -0.124809 -0.698286 -0.704855
-0.163346 -0.289621 0.940278 -0.163782 -0.290394 0.942787
-0.401026 -0.173809 0.897689 -0.401654 -0.174081 0.899094
-0.555532 0.50302 -0.658723 -0.556769 0.50414 -0.66019
0.356148 -0.78113 -0.508191 0.356994 -0.782986 -0.509399
0.445438 0.847576 0.279898 0.446524 0.849642 0.28058
0.976934 -0.165337 0.100918 0.980904 -0.166009 0.101328
-0.0655508 -0.99269 -0.0871284 -0.0656388 -0.994022 -0.0872453
-0.665532 0.737249 -0.0731083 -0.668273 0.740285 -0.0734094
0.58993 0.442274 0.672121 0.5913 0.443301 0.673682
0.424625 -0.85091 0.29834 0.426042 -0.853749 0.299335
-0.763696 0.509017 0.389662 -0.765933 0.510508 0.390804
0.657086 -0.730303 -0.173165 0.658705 -0.732102 -0.173592
0.946251 -0.304688 -0.0959163 0.947471 -0.305081 -0.09604
0.584788 0.769504 -0.246613 0.586276 0.771462 -0.24724
-0.188458 0.610998 0.76571 -0.188917 0.612486 0.767575
0.912317 -0.109339 0.387462 0.91488 -0.109646 0.388551
0.23022 -0.588415 0.770805 0.230987 -0.590374 0.773371
-0.11778 0.989486 -0.0452534 -0.118075 0.991968 -0.0453669
0.211945 0.172397 0.960395 0.212264 0.172656 0.961839
-0.568347 -0.750981 0.326861 -0.570109 -0.753309 0.327874
-0.975159 -0.212277 -0.0200351 -0.97692 -0.21266 -0.0200713
-0.550988 -0.439957 -0.705377 -0.552452 -0.441126 -0.707251
0.439606 -0.56411 0.696407 0.440387 -0.565112 0.697644
-0.836793 -0.382287 0.388675 -0.837869 -0.382778 0.389175
0.812325 0.576994 0.042132 0.81454 0.578567 0.0422469
0.344271 0.257151 0.900052 0.34518 0.25783 0.902427
-0.667644 -0.273588 -0.688445 -0.669469 -0.274336 -0.690327
0.177752 0.189122 -0.96431 0.177996 0.189382 -0.965635
0.877448 -0.308745 -0.363723 0.878532 -0.309127 -0.364173
-0.766706 0.344213 0.537136 -0.768693 0.345105 0.538528
0.309762 -0.181118 0.929964 0.31076 -0.181701 0.932959
-0.589578 -0.677924 -0.435813 -0.59043 -0.678904 -0.436443
-0.928576 -0.327367 -0.152184 -0.932039 -0.328588 -0.152752
0.475116 0.739328 0.47277 0.476104 0.740866 0.473753
-0.208485 0.904283 0.36801 -0.208838 0.905813 0.368633
0.306251 -0.460678 0.826625 0.307899 -0.463157 0.831074
-0.34462 -0.915436 -0.196731 -0.3454 -0.917508 -0.197176
0.265626 -0.951883 0.143156 0.266008 -0.953251 0.143362
0.543969 -0.387956 -0.742594 0.544553 -0.388372 -0.743391
-0.767984 0.610118 0.172543 -0.771147 0.61263 0.173254
-0.282719 0.0764654 -0.953665 -0.283392 0.0766475 -0.955936
-0.689344 -0.691874 0.195639 -0.692062 -0.694602 0.19641
-0.967577 0.153905 -0.18236 -0.970909 0.154435 -0.182988
-0.360905 0.819941 0.44229 -0.361235 0.82069 0.442694
0.3262 -0.8361 -0.433122 0.327337 -0.839015 -0.434632
-0.381832 -0.0281692 0.921759 -0.382554 -0.0282225 0.923502
0.264202 0.823107 -0.498411 0.264769 0.824874 -0.499481
-0.505316 -0.300457 0.805878 -0.506569 -0.301202 0.807877
-0.565347 0.266978 0.774654 -0.567913 0.26819 0.77817
-0.920785 -0.117866 0.364326 -0.923341 -0.118193 0.365337
-0.341416 -0.594589 -0.725396 -0.342049 -0.595692 -0.726742
0.790866 -0.432918 0.427961 0.792438 -0.433778 0.428811
-0.0857612 0.349508 -0.930715 -0.0859444 0.350255 -0.932703
0.680704 0.726794 -0.0154868 0.683503 0.729782 -0.0155505
-0.756496 0.407907 -0.505531 -0.758686 0.409088 -0.506994
0.339447 0.492633 0.798042 0.340336 0.493923 0.800132
-0.471156 -0.410673 -0.778946 -0.47177 -0.411208 -0.779962
0.992465 -0.0575565 -0.0626453 0.996346 -0.0577816 -0.0628903
0.871102 0.232961 0.428565 0.872518 0.23334 0.429262
0.242435 0.759301 -0.602804 0.242595 0.759801 -0.603201
-0.327027 0.364932 -0.867446 -0.328246 0.366293 -0.87068
0.808681 0.426583 -0.395863 0.811671 0.42816 -0.397327
0.382135 0.917593 0.089016 0.382915 0.919467 0.0891978
-0.0411654 -0.887262 -0.452791 -0.0412905 -0.889959 -0.454167
0.294326 -0.779889 0.550595 0.294619 -0.780666 0.551144
0.726969 0.182494 -0.660761 0.727554 0.182641 -0.661293
-0.272177 -0.541227 0.791616 -0.273044 -0.54295 0.794136
0.486219 0.379989 0.784199 0.487251 0.380796 0.785863
-0.71988 0.113735 -0.680599 -0.721912 0.114056 -0.68252
-0.155603 0.980375 0.0923181 -0.156082 0.983394 0.0926024
-0.115456 -0.168462 0.976549 -0.115725 -0.168854 0.978824
0.592693 -0.452143 0.660481 0.595092 -0.453973 0.663154
-0.881026 -0.464592 0.040856 -0.883805 -0.466057 0.0409849
-0.0563084 -0.816119 -0.570974 -0.0564431 -0.818072 -0.57234
0.495146 0.580032 -0.643142 0.496329 0.581418 -0.644679
-0.256966 -0.950661 0.150955 -0.257925 -0.95421 0.151519
-0.554578 0.638842 0.527396 -0.556299 0.640824 0.529033
0.702712 0.554679 0.441233 0.704065 0.555747 0.442083
-0.157495 0.344416 0.922433 -0.157945 0.3454 0.925069
-0.470994 -0.809261 0.342543 -0.472396 -0.811669 0.343562
0.30647 -0.0419264 -0.949456 0.306908 -0.0419863 -0.950813
0.585063 -0.630485 0.503561 0.587008 -0.632581 0.505235
0.161879 -0.891932 -0.41541 0.162341 -0.894479 -0.416596
0.799436 -0.565154 -0.184239 0.802475 -0.567302 -0.184939
0.814139 -0.0239649 -0.576611 0.815823 -0.0240145 -0.577803
0.885432 -0.425997 0.167104 0.888374 -0.427413 0.167659
0.80693 -0.434034 -0.393209 0.809307 -0.435312 -0.394367
0.186823 -0.968004 -0.147371 0.187419 -0.971091 -0.147841
-0.962782 -0.210538 0.158458 -0.964527 -0.21092 0.158745
-0.310857 -0.478255 -0.817211 -0.31192 -0.479891 -0.820006
-0.814737 -0.575028 -0.015668 -0.816905 -0.576558 -0.0157097
-0.622829 -0.15778 0.762582 -0.624599 -0.158228 0.764749
-0.3703 0.288113 0.881465 -0.370836 0.28853 0.882741
0.883627 -0.236499 0.399075 0.885404 -0.236975 0.399878
0.858209 0.430673 0.274 0.859466 0.431304 0.274401
-0.367918 0.80524 -0.460721 -0.368649 0.80684 -0.461636
0.00448718 -0.741898 0.665585 0.00450198 -0.744345 0.66778
0.229726 0.203402 -0.947376 0.230689 0.204255 -0.951348
0.314881 0.636216 -0.702072 0.315382 0.637228 -0.703189
-0.0705876 -0.406369 -0.908904 -0.0707212 -0.407138 -0.910625
-0.447219 0.209149 0.866033 -0.448621 0.209804 0.868747
0.484573 0.872247 0.00416738 0.485632 0.874153 0.00417649
-0.0279238 0.94709 0.31004 -0.0280096 0.95 0.310992
-0.903286 -0.387771 -0.173814 -0.904869 -0.388451 -0.174119
0.698768 0.0852332 0.708232 0.699772 0.0853556 0.709249
-0.178325 -0.973716 0.11904 -0.178854 -0.976605 0.119393
0.13771 -0.871287 0.462715 0.13825 -0.8747 0.464528
0.1975 -0.735976 -0.644177 0.197933 -0.737589 -0.645589
-0.155924 -0.498794 -0.848836 -0.156423 -0.50039 -0.851552
0.400406 -0.215075 -0.888101 0.401349 -0.215582 -0.890193
0.176923 0.229587 0.955008 0.177273 0.230042 0.956899
-0.262797 -0.668637 0.692356 -0.263391 -0.670148 0.693921
-0.483407 -0.809712 -0.321564 -0.485176 -0.812676 -0.322741
0.963002 -0.0978945 -0.235199 0.966743 -0.0982748 -0.236113
-0.734914 0.303764 0.603088 -0.736356 0.30436 0.604272
0.550495 0.201724 0.808305 0.551297 0.202018 0.809482
-0.571729 0.726422 -0.373725 -0.573385 0.728526 -0.374807
-0.492247 0.855356 -0.149753 -0.493144 0.856914 -0.150026
0.555197 -0.0522237 -0.827058 0.556591 -0.0523549 -0.829135
0.0531098 0.310325 0.945632 0.0532875 0.311363 0.948796
-0.0515804 0.0325551 0.995755 -0.0517034 0.0326327 0.998129
-0.882996 0.298742 -0.356363 -0.884801 0.299353 -0.357092
-0.067313 -0.403001 0.909364 -0.0675198 -0.404239 0.912158
0.0224328 -0.121977 -0.989248 0.0225005 -0.122345 -0.992233
-0.670506 -0.69715 -0.245651 -0.671871 -0.698569 -0.246151
-0.681031 -0.415559 0.598083 -0.683016 -0.41677 0.599826
-0.0485872 -0.946268 0.308042 -0.0487662 -0.949753 0.309177
-0.213414 0.934174 0.28327 -0.213578 0.93489 0.283487
-0.867755 0.397572 0.293219 -0.869042 0.398162 0.293654
0.0294171 -0.655997 -0.751348 0.0294802 -0.657405 -0.752961
0.697851 -0.710106 0.034457 0.700506 -0.712808 0.0345881
-0.417401 0.612902 0.668027 -0.41821 0.614091 0.669323
0.784339 -0.406384 -0.46246 0.786622 -0.407567 -0.463806
-0.312133 0.94813 0.0648602 -0.312042 0.947853 0.0648413
-0.420213 -0.722289 0.547333 -0.420665 -0.723065 0.547921
-0.531091 0.830094 0.156968 -0.532222 0.831862 0.157302
-0.621584 -0.180281 -0.761999 -0.621736 -0.180325 -0.762186
0.966352 -0.199774 -0.146729 0.968643 -0.200248 -0.147077
0.59864 -0.102495 0.79199 0.599804 -0.102694 0.79353
0.156384 0.423711 -0.889413 0.156773 0.424765 -0.891626
0.98131 0.178653 0.0190583 0.983649 0.179079 0.0191037
0.101168 0.725897 -0.6752 0.101521 0.72843 -0.677556
-0.898133 -0.0535118 0.433777 -0.899182 -0.0535743 0.434283
0.511108 0.580798 0.629774 0.512346 0.582205 0.631299
-0.195496 -0.0671059 -0.976151 -0.195928 -0.0672543 -0.978309
-0.826343 0.423905 0.366157 -0.827748 0.424626 0.366779
-0.886603 0.219346 0.400178 -0.889132 0.219972 0.401319
0.59904 -0.00773946 0.79494 0.601803 -0.00777516 0.798607
0.774359 0.264174 -0.570866 0.776182 0.264796 -0.57221
-0.0974384 0.55422 -0.824934 -0.0975766 0.555006 -0.826104
-0.973942 -0.0531548 0.20698 -0.976765 -0.0533088 0.20758
0.207809 -0.71 0.667284 0.208587 -0.712659 0.669783
-0.587249 0.35643 -0.722907 -0.588871 0.357415 -0.724904
0.32135 0.432605 -0.83989 0.322022 0.43351 -0.841647
0.0787626 -0.720924 -0.682709 0.0790785 -0.723815 -0.685447
-0.105826 0.990255 0.0697195 -0.106003 0.99191 0.0698361
-0.653343 0.563937 0.50151 -0.654524 0.564956 0.502417
0.0975479 0.624121 0.772196 0.0977765 0.625584 0.774006
0.300474 0.87085 0.390988 0.300243 0.870182 0.390688
-0.580119 -0.682126 0.434458 -0.582869 -0.685359 0.436517
-0.561942 -0.823309 -0.0267054 -0.563542 -0.825653 -0.0267814
0.882867 -0.218059 -0.410521 0.884846 -0.218548 -0.411441
-0.6082 0.730827 0.305696 -0.608972 0.731755 0.306084
0.346387 -0.840562 0.409597 0.347379 -0.842969 0.41077
-0.561034 -0.527259 -0.634027 -0.562512 -0.528648 -0.635697
0.391145 -0.367019 0.84181 0.391862 -0.367692 0.843354
0.368217 0.773455 0.509651 0.369408 0.775957 0.5113
-0.99214 -0.0819326 -0.0795241 -0.993443 -0.0820402 -0.0796285
0.694375 -0.165807 -0.696222 0.696337 -0.166275 -0.698189
0.119366 0.583719 -0.798659 0.119796 0.585822 -0.801537
-0.903447 -0.247038 0.342875 -0.905802 -0.247682 0.343769
0.584281 -0.671628 -0.450303 0.585676 -0.673232 -0.451378
-0.274995 -0.95961 -0.0133746 -0.275456 -0.96122 -0.013397
0.973973 0.137029 0.164145 0.976739 0.137418 0.164611
-0.705095 -0.504778 -0.496384 -0.705675 -0.505193 -0.496792
0.767741 0.635721 0.0254387 0.769972 0.637568 0.0255126
0.609417 0.647597 -0.451211 0.611142 0.64943 -0.452488
0.605013 0.271374 -0.745606 0.606345 0.271971 -0.747247
0.404944 -0.675982 0.610578 0.406218 -0.678109 0.612499
-0.362101 0.869475 -0.331158 -0.362687 0.870883 -0.331694
0.587135 0.316242 -0.741696 0.588653 0.31706 -0.743613
0.205629 0.963826 -0.154971 0.206118 0.966118 -0.15534
0.120097 -0.377339 -0.916032 0.120343 -0.378111 -0.917905
-0.397724 -0.910117 0.0735782 -0.399342 -0.91382 0.0738776
0.662885 0.431625 -0.611109 0.66316 0.431804 -0.611363
-0.749238 0.00654431 0.657538 -0.751588 0.00656484 0.6596
0.263489 -0.928661 0.253139 0.264029 -0.930563 0.253657
0.331424 -0.0647806 0.936905 0.332786 -0.0650469 0.940756
-0.510152 0.285437 -0.809267 -0.511011 0.285917 -0.810629
0.0100071 -0.6501 0.758758 0.0100149 -0.650606 0.759349
0.958005 -0.271269 0.0293767 0.961752 -0.27233 0.0294916
-0.759221 -0.589843 -0.264606 -0.761376 -0.591517 -0.265357
0.908762 0.407077 -0.0685593 0.910466 0.40784 -0.0686878
0.591799 0.804824 0.0343211 0.592052 0.805168 0.0343358
-0.906968 -0.379922 0.164685 -0.909677 -0.381057 0.165177
0.884704 0.285485 -0.357782 0.88817 0.286603 -0.359184
0.591645 0.753978 0.277995 0.592889 0.755563 0.27858
-0.504567 0.400247 0.759203 -0.506808 0.402025 0.762575
-0.329069 0.722306 0.604633 -0.329796 0.723903 0.60597
0.97364 -0.0569506 0.210205 0.975885 -0.0570819 0.21069
-0.883069 0.131062 -0.446301 -0.884764 0.131314 -0.447158
0.975727 0.0598066 -0.193388 0.979151 0.0600165 -0.194067
-0.73324 -0.527699 0.422531 -0.735213 -0.529119 0.423668
0.505543 0.702431 0.495532 0.50693 0.704358 0.496892
0.630455 0.537963 0.555609 0.631853 0.539156 0.556841
-0.48384 0.126718 -0.865199 -0.484148 0.126799 -0.86575
-0.0195722 0.00969869 -0.998573 -0.0195955 0.00971023 -0.999761
-0.590924 0.0837158 -0.798719 -0.59266 0.0839617 -0.801065
-0.387261 -0.759323 0.518814 -0.388094 -0.760957 0.51993
-0.879025 0.459289 -0.109093 -0.880995 0.460318 -0.109338
0.165177 -0.379665 0.906483 0.165746 -0.380974 0.909608
-0.193758 0.964926 -0.163497 -0.19421 0.967175 -0.163878
0.114278 0.99155 0.0197502 0.114472 0.99323 0.0197837
0.705022 -0.648556 0.273731 0.707642 -0.650966 0.274748
0.109382 -0.876079 -0.464717 0.109632 -0.878083 -0.46578
0.442751 -0.478304 0.753528 0.444397 -0.480082 0.756329
0.160212 -0.744766 0.644869 0.160517 -0.746185 0.646098
-0.221257 -0.758156 -0.609782 -0.221747 -0.759834 -0.611131
0.914833 0.314807 -0.245356 0.916566 0.315403 -0.245821
0.340218 -0.93439 0.0741509 0.341186 -0.93705 0.074362
0.946323 0.315965 0.00291274 0.948522 0.316699 0.00291951
0.800202 0.394212 -0.442037 0.803778 0.395973 -0.444012
-0.96471 -0.231232 0.0983405 -0.967712 -0.231952 0.0986466
0.231385 -0.256585 0.937426 0.2316 -0.256824 0.938298
0.822435 -0.56512 -0.045308 0.823336 -0.565739 -0.0453576
0.0459003 0.900888 -0.425245 0.0460261 0.903358 -0.426411
-0.180653 0.829239 0.524232 -0.181098 0.831281 0.525523
0.629489 -0.517287 0.570468 0.632892 -0.520083 0.573552
-0.316298 0.941725 -0.091422 -0.317052 0.94397 -0.09164
-0.515095 0.698239 0.496597 -0.515232 0.698424 0.496729
-0.484158 0.871499 0.0334507 -0.485364 0.873669 0.033534
0.0803762 -0.0494793 0.994576 0.0804531 -0.0495266 0.995527
0.0497606 -0.982811 0.164709 0.0498724 -0.985019 0.165079
0.800061 0.486831 -0.346138 0.801298 0.487584 -0.346673
0.623992 -0.514514 -0.581774 0.626329 -0.516441 -0.583953
0.826448 0.0980392 0.549994 0.828471 0.0982792 0.551341
0.417533 -0.881745 -0.207479 0.418611 -0.884022 -0.208015
0.21642 0.894587 -0.386592 0.216791 0.896122 -0.387255
0.231733 -0.210297 -0.94683 0.232383 -0.210887 -0.949487
-0.985841 -0.0865036 0.119523 -0.988985 -0.0867795 0.119904
-0.694799 0.548279 -0.459761 -0.696635 0.549728 -0.460976
-0.88068 0.389469 -0.260792 -0.882759 0.390388 -0.261408
-0.28248 -0.842236 -0.454748 -0.283053 -0.843946 -0.455671
0.786889 0.312391 0.527402 0.788889 0.313185 0.528743
0.248414 -0.858212 0.44723 0.248631 -0.858963 0.447621
-0.801098 0.0890653 0.588451 -0.802719 0.0892455 0.589642
-0.223886 0.0178996 0.97247 -0.224319 0.0179342 0.974351
-0.288733 0.542096 0.786901 -0.289247 0.543061 0.788302
0.129154 -0.233685 -0.962992 0.129242 -0.233844 -0.963646
-0.822893 -0.433008 -0.363288 -0.824284 -0.43374 -0.363902
0.682443 -0.227937 0.693992 0.682679 -0.228016 0.694232
-0.9544 0.234015 0.183015 -0.954812 0.234116 0.183094
-0.841144 0.519765 0.13858 -0.842458 0.520577 0.138796
0.424152 -0.0607429 -0.901007 0.425129 -0.0608828 -0.903083
-0.341243 0.916867 0.195226 -0.342064 0.919073 0.195696
-0.426873 -0.63556 0.63548 -0.429025 -0.638764 0.638684
-0.511421 -0.845295 -0.129112 -0.513286 -0.848378 -0.129583
-0.627112 0.77061 0.0671634 -0.629756 0.773859 0.0674466
0.493522 0.421431 -0.757688 0.494696 0.422434 -0.75949
0.93839 0.290871 0.177683 0.939917 0.291344 0.177972
-0.951828 0.0321431 0.302509 -0.952532 0.0321669 0.302733
0.524849 -0.845721 0.0625573 0.526266 -0.848004 0.0627261
0.854423 0.116664 0.50333 0.855712 0.11684 0.504089
-0.063154 0.762399 0.640703 -0.0632889 0.764028 0.642072
0.705899 -0.657466 -0.253379 0.707757 -0.659197 -0.254046
0.731335 0.645686 0.205247 0.73358 0.647668 0.205877
-0.748407 -0.32278 -0.574622 -0.750477 -0.323673 -0.576212
-0.599957 0.570892 -0.559674 -0.600227 0.571149 -0.559926
-0.797789 0.581663 -0.138068 -0.800249 0.583456 -0.138494
-0.918262 0.385073 0.0533076 -0.920877 0.38617 0.0534594
-0.0514202 0.593522 0.797415 -0.0516588 0.596276 0.801115
0.635964 -0.208377 0.738971 0.637897 -0.20901 0.741217
0.647861 -0.0611712 -0.756763 0.64911 -0.0612891 -0.758222
0.726617 -0.376798 -0.57149 0.727874 -0.37745 -0.572478
-0.799662 0.320078 -0.50333 -0.801568 0.320841 -0.50453
0.201215 0.958026 0.199077 0.201423 0.959018 0.199283
0.144244 -0.956137 -0.238695 0.144826 -0.959994 -0.239658
0.454657 0.271299 0.84454 0.456127 0.272176 0.847271
0.50398 -0.741663 0.436666 0.505311 -0.743622 0.43782
-0.113081 0.412982 -0.901349 -0.113321 0.413858 -0.903261
-0.646975 0.245213 -0.71682 -0.649403 0.246133 -0.71951
-0.30059 -0.436605 0.844863 -0.301379 -0.437751 0.84708
0.620341 -0.255186 -0.739179 0.621483 -0.255656 -0.74054
0.836811 -0.437451 0.317476 0.840006 -0.439121 0.318688
-0.410399 0.428934 -0.805239 -0.410231 0.428758 -0.804908
-0.969494 0.0315183 -0.235872 -0.971172 0.0315728 -0.23628
-0.473762 -0.86695 0.137508 -0.47496 -0.869143 0.137856
-0.137779 -0.87465 0.458112 -0.138204 -0.877347 0.459524
-0.592117 0.0603174 0.799889 -0.593883 0.0604972 0.802274
0.395826 -0.266802 0.876583 0.396568 -0.267302 0.878227
0.321783 0.645433 0.687409 0.322971 0.647815 0.689946
0.375412 0.272641 -0.881459 0.376878 0.273705 -0.8849
0.19217 -0.975962 -0.0736776 0.192666 -0.97848 -0.0738677
0.794885 0.473951 0.365114 0.798978 0.476392 0.366994
-0.0827671 0.618567 0.777602 -0.0830107 0.620387 0.77989
0.0543579 -0.469697 0.878837 0.054469 -0.470657 0.880633
-0.939765 0.139182 0.301819 -0.942775 0.139628 0.302786
-0.562462 -0.415621 0.711351 -0.563838 -0.416638 0.713091
-0.457002 0.73189 -0.498706 -0.458559 0.734383 -0.500405
0.0328855 0.670305 -0.736089 0.0330142 0.672929 -0.73897
0.159958 0.0861305 0.982191 0.160142 0.0862295 0.98332
-0.457469 -0.245709 -0.852449 -0.458313 -0.246162 -0.854022
0.867026 -0.0594371 0.488678 0.869607 -0.059614 0.490133
0.081306 -0.131377 -0.987295 0.0813621 -0.131468 -0.987976
0.866989 -0.491198 0.0447601 0.869187 -0.492443 0.0448736
0.562908 0.425625 0.704074 0.564678 0.426963 0.706287
-0.163662 0.861441 -0.478284 -0.163857 0.862467 -0.478854
-0.501876 -0.0429716 -0.86139 -0.502954 -0.0430639 -0.86324
-0.364097 0.0481915 -0.9278 -0.364882 0.0482954 -0.9298
-0.260335 0.660923 0.698327 -0.261349 0.663498 0.701047
-0.0487502 -0.990788 0.103206 -0.0488802 -0.99343 0.103481
-0.757676 -0.60914 0.224672 -0.759348 -0.610484 0.225168
-0.0470215 0.137131 -0.987021 -0.0471341 0.137459 -0.989385
-0.303479 -0.194417 -0.930296 -0.304187 -0.194871 -0.932467
0.18766 -0.917505 0.34803 0.187833 -0.918352 0.348351
0.450042 0.825541 -0.331121 0.451467 0.828155 -0.33217
0.384942 0.0422875 -0.920337 0.385523 0.0423513 -0.921726
-0.154734 0.763017 -0.622446 -0.155233 0.76548 -0.624455
0.908792 -0.403307 0.0515563 0.912809 -0.40509 0.0517842
0.251756 -0.551702 -0.7938 0.252024 -0.552289 -0.794645
0.543062 -0.754952 0.359422 0.544684 -0.757207 0.360496
0.543462 -0.263192 -0.795689 0.544077 -0.26349 -0.796589
0.00183214 -0.99629 -0.0633486 0.00183525 -0.997983 -0.0634562
-0.0215495 0.962192 -0.257499 -0.0216299 0.96578 -0.258459
0.659156 0.729495 -0.167254 0.660935 0.731464 -0.167705
0.834396 -0.229035 -0.494844 0.837102 -0.229778 -0.496449
-0.538172 -0.217436 0.811344 -0.539472 -0.217961 0.813304
0.166668 0.828536 0.531319 0.166956 0.829969 0.532238
0.862471 0.0879482 -0.49276 0.864895 0.0881953 -0.494145
0.689844 0.497521 -0.520318 0.691873 0.498985 -0.521849
0.315226 -0.436161 -0.838355 0.316424 -0.437818 -0.841541
-0.0109751 0.993985 -0.0991555 -0.0109863 0.995001 -0.0992569
0.65652 0.643446 0.386591 0.658335 0.645225 0.38766
0.0755426 0.0573125 -0.992967 0.0757331 0.057457 -0.995471
-0.169755 -0.973814 -0.13345 -0.170186 -0.976287 -0.133789
-0.756907 0.259472 0.598096 -0.757683 0.259738 0.598709
0.134917 0.912007 0.381781 0.135207 0.913967 0.382601
0.390258 0.894209 -0.214701 0.390647 0.895101 -0.214915
-0.048463 -0.948707 -0.303759 -0.0485928 -0.951249 -0.304573
0.264246 0.960702 0.0526778 0.264836 0.962847 0.0527954
0.691766 -0.0499265 -0.716977 0.693471 -0.0500496 -0.718744
-0.217615 0.571058 -0.789332 -0.217996 0.572058 -0.790714
0.291055 -0.951595 -0.0892839 0.291315 -0.952444 -0.0893636
0.786382 -0.599016 0.130588 0.788645 -0.60074 0.130964
0.739238 -0.550393 0.378677 0.741913 -0.552385 0.380047
0.452969 0.727453 -0.505401 0.455297 0.731192 -0.507999
0.64438 -0.386399 0.654197 0.646809 -0.387856 0.656663
0.773302 -0.204229 -0.59799 0.774349 -0.204506 -0.5988
0.647166 0.258939 0.716787 0.647277 0.258983 0.71691
0.908846 -0.315801 0.261518 0.911528 -0.316733 0.26229
0.618113 -0.71243 0.321474 0.620299 -0.714949 0.322611
-0.362339 -0.712201 -0.599844 -0.362641 -0.712795 -0.600345
0.464955 0.119821 -0.874722 0.465963 0.120081 -0.876618
-0.730279 -0.0192387 -0.681502 -0.730965 -0.0192568 -0.682143
0.656648 -0.747122 -0.0623623 0.65887 -0.74965 -0.0625733
-0.819063 -0.198039 0.53347 -0.821253 -0.198569 0.534896
0.0368941 0.23363 -0.969403 0.0369739 0.234136 -0.971501
0.570112 -0.801627 -0.163733 0.571703 -0.803864 -0.16419
-0.00188439 -0.851075 0.519704 -0.00188967 -0.853458 0.521159
-0.143825 0.420525 0.8942 -0.144033 0.421132 0.89549
0.86427 0.496305 -0.0236939 0.866943 0.49784 -0.0237672
-0.169366 -0.947981 0.259507 -0.169817 -0.950505 0.260198
-0.588054 -0.595752 0.541521 -0.589834 -0.597555 0.54316
0.726446 -0.0775017 0.67885 0.728427 -0.0777131 0.680701
0.947648 0.123716 0.288519 0.94927 0.123928 0.289013
-0.70867 -0.541156 -0.446029 -0.710804 -0.542785 -0.447372
-0.305239 0.880447 0.356433 -0.305943 0.882478 0.357255
0.352442 0.882251 0.305585 0.353155 0.884037 0.306203
-0.993712 0.0202553 -0.0620944 -0.997847 0.0203396 -0.0623528
0.0872998 -0.920603 0.375007 0.0874854 -0.92256 0.375804
-0.660643 -0.741893 0.10298 -0.661484 -0.742837 0.103111
0.128741 -0.988231 0.0260625 0.129138 -0.991282 0.026143
-0.458162 0.560924 -0.686206 -0.459213 0.562211 -0.68778
0.490056 0.856093 -0.150348 0.491124 0.857959 -0.150676
-0.619293 -0.352264 -0.697955 -0.620924 -0.353191 -0.699793
0.447021 0.875413 0.175854 0.447671 0.876685 0.17611
0.45726 -0.0794811 0.885753 0.457269 -0.0794826 0.88577
-0.887579 -0.250722 -0.379677 -0.88989 -0.251375 -0.380666
0.770122 -0.170609 0.613876 0.770492 -0.170691 0.614171
-0.355662 0.40064 0.840326 -0.356885 0.402018 0.843217
0.336883 -0.888126 -0.304251 0.337758 -0.890432 -0.305041
-0.740516 0.608384 0.277925 -0.742099 0.609685 0.278519
0.00431269 0.809129 -0.582337 0.00432607 0.811639 -0.584143
0.143073 -0.310122 0.937017 0.143458 -0.310955 0.939535
0.359544 -0.243091 -0.899157 0.360112 -0.243475 -0.900577
0.0986351 0.720413 0.684528 0.0987684 0.721387 0.685453
0.863606 -0.486587 -0.118711 0.865046 -0.487398 -0.118909
-0.262125 -0.791316 0.552019 -0.262175 -0.791468 0.552125
0.439912 -0.89404 0.0462783 0.441022 -0.896296 0.0463951
0.404726 -0.708164 -0.572872 0.406052 -0.710483 -0.574748
0.963503 0.112184 0.23394 0.965605 0.112429 0.23445
0.118105 0.855111 -0.501046 0.118329 0.856736 -0.501998
-0.581655 0.793192 -0.168215 -0.582888 0.794874 -0.168572
-0.246691 0.364248 -0.893897 -0.247611 0.365606 -0.89723
0.0682787 0.41916 0.903566 0.0683886 0.419835 0.90502
0.515769 -0.61924 -0.587565 0.517139 -0.620885 -0.589126
0.600138 0.121209 0.787693 0.601548 0.121494 0.789544
0.122687 -0.933332 -0.32966 0.123005 -0.935751 -0.330514
-0.0958806 -0.0624199 0.991773 -0.096039 -0.0625231 0.993412
0.745722 0.115584 -0.65213 0.747693 0.11589 -0.653854
0.465412 -0.279837 0.837701 0.466191 -0.280306 0.839103
0.644107 -0.747864 0.137128 0.64638 -0.750503 0.137612
-0.73032 0.330316 -0.594013 -0.732032 0.33109 -0.595406
0.925889 0.162781 -0.334732 0.927833 0.163123 -0.335435
0.244886 0.731278 0.63129 0.245715 0.733754 0.633427
0.666219 -0.580135 -0.462728 0.668051 -0.581731 -0.464001
-0.200484 0.906845 -0.364079 -0.200975 0.909068 -0.364971
-0.347196 -0.651508 -0.669688 -0.348332 -0.653639 -0.671879
0.165509 -0.976471 -0.113661 0.166024 -0.979508 -0.114015
0.908684 0.0724577 -0.40461 0.911117 0.0726517 -0.405693
-0.148604 0.202308 0.965778 -0.148922 0.20274 0.967842
-0.759919 -0.644754 -0.0551397 -0.761357 -0.645974 -0.0552441
0.860071 0.343403 0.368866 0.862789 0.344488 0.370032
0.45057 -0.134373 -0.878797 0.452075 -0.134822 -0.881732
-0.415572 -0.850865 -0.310784 -0.41698 -0.853748 -0.311837
0.902442 -0.387738 -0.178738 0.903939 -0.388381 -0.179035
-0.317479 -0.00582162 0.944137 -0.318721 -0.0058444 0.947831
-0.436978 0.461301 0.770259 -0.437625 0.461984 0.771399
-0.714329 0.672191 -0.178837 -0.716449 0.674186 -0.179368
0.758475 0.15993 0.629116 0.759749 0.160199 0.630173
-0.706338 -0.166192 -0.682592 -0.709014 -0.166822 -0.685178
0.528788 -0.574435 -0.621089 0.530023 -0.575777 -0.62254
0.0822278 0.857581 0.500664 0.0825225 0.860654 0.502458
0.632586 0.767005 -0.0849241 0.633959 0.76867 -0.0851084
-0.986019 0.158503 -0.0136276 -0.987233 0.158698 -0.0136444
0.497512 0.787863 0.35398 0.499125 0.790417 0.355127
-0.612672 0.453546 0.644393 -0.613804 0.454384 0.645584
-0.291926 0.91604 -0.260518 -0.293068 0.919624 -0.261537
-0.934902 0.213352 -0.280537 -0.935716 0.213538 -0.280781
-0.249832 0.810206 -0.524218 -0.250628 0.812789 -0.525889
-0.909692 0.195717 -0.363388 -0.910651 0.195923 -0.363771
-0.0829529 0.978753 0.180272 -0.0830636 0.980059 0.180513
-0.804344 -0.463596 0.359221 -0.808017 -0.465713 0.360861
-0.0922135 -0.751976 -0.64857 -0.0924628 -0.754009 -0.650324
-0.646536 0.148876 0.744053 -0.648554 0.149341 0.746375
0.59291 0.645692 0.477336 0.594007 0.646887 0.478219
0.792842 0.591592 -0.14606 0.792876 0.591618 -0.146066
-0.564609 -0.041761 0.820889 -0.5662 -0.0418787 0.823203
-0.0913542 0.928213 0.353382 -0.0915925 0.930634 0.354304
-0.8345 -0.0416921 0.544424 -0.836793 -0.0418067 0.54592
-0.184837 -0.241689 0.951748 -0.184985 -0.241882 0.952509
0.301294 -0.54023 0.780962 0.302426 -0.54226 0.783896
-0.777925 0.569363 -0.256599 -0.779805 0.570739 -0.257219
0.755349 -0.651957 0.0216913 0.756837 -0.653242 0.021734
-0.0885855 -0.768699 0.628415 -0.0888681 -0.771151 0.630419
0.593413 -0.436355 -0.671816 0.595237 -0.437696 -0.673881
0.527445 -0.805824 0.267048 0.527745 -0.806282 0.2672
-0.586141 0.803302 -0.0704282 -0.587962 0.805798 -0.070647
-0.397427 0.695355 -0.59611 -0.398062 0.696465 -0.597062
-0.919297 0.356682 -0.157595 -0.920603 0.357189 -0.157819
-0.0512385 0.495282 -0.864196 -0.0513732 0.496584 -0.866467
-0.135878 0.688176 0.710379 -0.136104 0.689319 0.711559
0.0777015 -0.58754 -0.804009 0.0777921 -0.588225 -0.804947
0.527431 -0.184944 0.826874 0.52846 -0.185305 0.828488
-0.00804602 -0.312171 -0.946541 -0.00807248 -0.313198 -0.949654
0.951742 -0.231974 -0.182858 0.955061 -0.232783 -0.183496
-0.448881 0.867204 0.210621 -0.449353 0.868117 0.210843
-0.954977 0.28779 0.00335893 -0.957462 0.288539 0.00336767
0.596326 0.0781413 -0.794923 0.598239 0.078392 -0.797474
-0.293959 0.776631 0.555594 -0.294216 0.77731 0.55608
0.906768 0.116261 0.400275 0.908603 0.116496 0.401085
-0.180533 -0.527324 0.827043 -0.181017 -0.528737 0.829259
-0.49811 0.80175 0.317046 -0.500257 0.805206 0.318413
0.259096 0.695138 -0.668764 0.259408 0.695976 -0.66957
-0.972459 0.173499 0.132673 -0.975694 0.174076 0.133114
0.618238 0.371439 0.689725 0.619507 0.372202 0.691141
0.165474 0.822943 -0.539291 0.165852 0.824821 -0.540522
0.365115 -0.885152 0.274167 0.36659 -0.888727 0.275274
-0.878662 0.0411932 0.471255 -0.880502 0.0412795 0.472242
-0.565138 -0.743186 -0.350708 -0.566641 -0.745162 -0.351641
0.859679 0.193319 -0.467738 0.86175 0.193785 -0.468865
-0.476377 -0.87692 0.0245518 -0.477207 -0.878447 0.0245946
-0.213342 0.853489 0.472076 -0.213683 0.854852 0.47283
0.348926 0.160944 -0.920674 0.34975 0.161324 -0.922849
0.0241258 -0.139668 0.987242 0.0241896 -0.140037 0.989851
-0.102997 -0.207788 -0.968628 -0.10341 -0.208622 -0.972514
-0.548797 0.677778 -0.486412 -0.549579 0.678743 -0.487105
-0.39171 -0.0846945 -0.913524 -0.392666 -0.0849012 -0.915754
-0.629814 -0.734588 0.245263 -0.630938 -0.735899 0.245701
-0.923928 -0.248229 -0.284298 -0.925741 -0.248716 -0.284856
-0.585984 -0.481352 0.649425 -0.586915 -0.482117 0.650457
0.107992 -0.972169 0.206716 0.108019 -0.972409 0.206767
-0.388195 -0.862846 0.316642 -0.389079 -0.864811 0.317363
-0.766254 0.487826 -0.411981 -0.768236 0.489088 -0.413046
-0.0372405 -0.967614 -0.228673 -0.037429 -0.972511 -0.22983
0.125779 0.934658 -0.320241 0.126288 0.938438 -0.321536
0.213046 0.493422 0.84238 0.21321 0.493803 0.84303
-0.960256 0.105188 -0.251994 -0.961865 0.105364 -0.252416
-0.850202 0.0885909 -0.512758 -0.85293 0.0888752 -0.514403
0.113322 0.976003 0.170576 0.113634 0.978688 0.171045
0.977057 0.186192 -0.0480707 0.981177 0.186977 -0.0482734
0.0710801 0.969354 -0.222676 0.0712841 0.972136 -0.223315
0.346521 0.933622 -0.0597182 0.347339 0.935827 -0.0598592
0.333206 0.0889579 0.935595 0.334163 0.0892135 0.938283
-0.788851 0.607013 -0.0635525 -0.790914 0.608601 -0.0637187
-0.649827 -0.0557546 -0.756198 -0.650732 -0.0558323 -0.757252
0.367492 -0.652453 -0.658728 0.368476 -0.654199 -0.660491
-0.372589 -0.513789 -0.768929 -0.373702 -0.515323 -0.771225
0.651757 0.700585 -0.277058 0.654259 0.703274 -0.278121
-0.226315 0.473874 0.846875 -0.227114 0.475548 0.849867
-0.240953 0.345257 0.906355 -0.241105 0.345475 0.906926
-0.336125 -0.402948 -0.847345 -0.33725 -0.404296 -0.850181
0.9579 -0.236526 0.14922 0.959926 -0.237026 0.149536
-0.338939 -0.163529 0.922733 -0.340122 -0.1641 0.925953
-0.227968 -0.658841 -0.711674 -0.228825 -0.661319 -0.71435
-0.508026 0.585681 0.626774 -0.509568 0.587458 0.628676
-0.620818 0.429156 -0.65261 -0.622223 0.430127 -0.654087
-0.762227 -0.401599 -0.501897 -0.764458 -0.402774 -0.503366
-0.654741 -0.752231 -0.0281853 -0.656275 -0.753993 -0.0282513
0.251682 0.465772 0.846139 0.252157 0.46665 0.847735
0.992988 0.0821428 0.0347039 0.995992 0.0823913 0.0348089
-0.876777 -0.441988 -0.16901 -0.880014 -0.44362 -0.169634
0.949449 0.227529 -0.202207 0.952257 0.228202 -0.202805
0.241284 -0.1067 -0.962502 0.241766 -0.106913 -0.964427
-0.756394 0.648507 0.0526826 -0.758114 0.649981 0.0528024
-0.670071 0.352399 0.649083 -0.671925 0.353374 0.650879
-0.564395 -0.123798 -0.811864 -0.566383 -0.124234 -0.814724
0.24051 -0.935149 -0.250618 0.241094 -0.937421 -0.251227
-0.832022 -0.179183 -0.522355 -0.83318 -0.179432 -0.523082
0.687701 -0.627685 0.357401 0.689546 -0.629369 0.35836
0.406044 -0.356656 -0.839162 0.406804 -0.357323 -0.840732
0.0236654 0.761114 0.643821 0.0237324 0.763269 0.645644
-0.205156 -0.750268 0.623503 -0.2058 -0.752625 0.625462
0.542682 -0.322336 0.77211 0.544165 -0.323217 0.774219
-0.661877 -0.60591 0.435874 -0.663473 -0.607371 0.436925
0.913015 0.397311 0.075914 0.914289 0.397865 0.0760199
0.251302 -0.673805 -0.692726 0.251675 -0.674806 -0.693755
0.260488 0.788404 -0.555216 0.260788 0.789312 -0.555856
0.134311 0.0819907 -0.985321 0.134606 0.0821709 -0.987486
0.313204 0.84876 -0.419274 0.314103 0.851198 -0.420478
-0.649035 0.66377 -0.365873 -0.650435 0.665202 -0.366662
-0.651159 -0.732644 -0.180495 -0.653334 -0.735091 -0.181098
0.983061 -0.0994295 -0.151633 0.983411 -0.0994649 -0.151687
0.767089 -0.0758228 -0.634865 0.768154 -0.0759281 -0.635747
-0.243074 -0.626558 0.737432 -0.243627 -0.627983 0.73911
0.411836 0.479423 -0.772768 0.412533 0.480234 -0.774075
0.512899 0.515375 -0.680362 0.515075 0.517561 -0.683248
-0.662687 0.55818 -0.49155 -0.66524 0.56033 -0.493443
0.291359 0.335682 0.894611 0.291665 0.336035 0.895551
0.0712318 -0.242107 0.964021 0.0714815 -0.242956 0.9674
0.096236 -0.835217 0.53882 0.0963722 -0.836399 0.539582
0.852 -0.339843 -0.394319 0.85333 -0.340374 -0.394935
0.477215 -0.473055 -0.73799 0.478138 -0.47397 -0.739417
0.746108 -0.57663 0.323448 0.748433 -0.578426 0.324456
0.304702 0.939356 -0.148422 0.30512 0.940645 -0.148626
-0.910878 0.0718787 -0.39828 -0.913856 0.0721137 -0.399582
-0.388935 -0.382292 0.835794 -0.389721 -0.383065 0.837484
-0.247683 -0.949389 -0.185468 -0.248045 -0.950776 -0.185739
-0.456021 -0.0808007 0.884398 -0.456788 -0.0809366 0.885886
-0.122861 0.203797 -0.966885 -0.123387 0.204669 -0.971023
0.855297 0.505186 0.0960566 0.857024 0.506206 0.0962506
0.508648 0.135619 0.846273 0.510362 0.136076 0.849125
-0.542425 -0.816236 -0.185738 -0.543796 -0.818299 -0.186207
-0.214047 0.146683 0.96459 -0.214286 0.146847 0.965669
0.0259392 0.0878422 0.992506 0.0260245 0.088131 0.995769
-0.987358 0.0157977 0.125066 -0.991948 0.0158711 0.125647
-0.379091 0.510171 -0.768705 -0.380063 0.511479 -0.770676
0.482082 0.659455 0.571407 0.483586 0.661512 0.57319
-0.717654 -0.614893 -0.31515 -0.720382 -0.617231 -0.316348
0.0228166 0.489206 0.870474 0.0228444 0.489802 0.871534
-0.433677 -0.48253 0.757383 -0.434866 -0.483853 0.759459
-0.570032 0.762315 -0.297567 -0.571575 0.764379 -0.298373
-0.364891 0.134105 -0.917516 -0.366181 0.134579 -0.92076
0.674429 0.634569 -0.377625 0.674384 0.634527 -0.3776
-0.0850863 0.631463 -0.770339 -0.0851115 0.63165 -0.770567
0.0697186 0.500493 -0.860906 0.0698405 0.501368 -0.862411
-0.934229 -0.126004 -0.320595 -0.938252 -0.126547 -0.321976
0.543543 -0.151571 -0.822183 0.545072 -0.151997 -0.824496
-0.510041 -0.81952 0.246739 -0.51193 -0.822555 0.247653
-0.419604 0.337404 -0.840824 -0.420257 0.337929 -0.842133
-0.794583 0.0292705 0.602982 -0.796254 0.0293321 0.60425
-0.417058 -0.789668 -0.446255 -0.417757 -0.790991 -0.447003
0.392755 0.626731 -0.668587 0.393927 0.628602 -0.670583
-0.253163 0.10823 0.958453 -0.25387 0.108532 0.96113
0.924775 -0.331441 -0.175811 0.926643 -0.332111 -0.176166
-0.220277 -0.871517 -0.433103 -0.220759 -0.873422 -0.43405
0.317171 -0.226085 0.916922 0.318374 -0.226942 0.920399
0.755233 0.600718 -0.24963 0.757679 0.602664 -0.250438
-0.83234 0.467803 -0.289904 -0.834146 0.468818 -0.290533
0.689271 0.0126878 0.719875 0.691531 0.0127294 0.722235
0.311369 -0.523584 -0.791148 0.311836 -0.52437 -0.792335
0.603516 -0.772318 0.1899 0.604493 -0.773569 0.190208
0.0767847 -0.569377 0.816818 0.0768894 -0.570154 0.817932
0.39594 0.89012 0.213823 0.396973 0.892442 0.214381
0.424613 -0.72996 0.52773 0.4264 -0.733032 0.529951
-0.0898964 -0.644863 0.754014 -0.0902369 -0.647306 0.75687
0.270166 -0.773213 -0.567668 0.271104 -0.775896 -0.569638
-0.432067 0.763507 0.475917 -0.432907 0.764992 0.476843
-0.845715 -0.486615 0.210266 -0.847309 -0.487532 0.210662
-0.0407758 0.845946 0.529022 -0.040834 0.847153 0.529777
0.987046 0.113057 0.0709551 0.99098 0.113508 0.0712379
0.274028 0.22316 0.933325 0.274579 0.223609 0.935203
0.877528 -0.373612 -0.290575 0.880139 -0.374724 -0.29144
-0.709445 0.592536 0.378595 -0.710246 0.593205 0.379023
-0.134642 0.58525 0.798209 -0.134791 0.5859 0.799095
-0.50298 0.275047 0.81751 -0.503746 0.275466 0.818754
0.823426 -0.208227 0.524178 0.825015 -0.208629 0.52519
-0.841444 0.177221 -0.50747 -0.842725 0.177491 -0.508243
-0.544451 -0.214984 -0.807199 -0.546033 -0.215609 -0.809544
-0.959714 0.229872 -0.13528 -0.963482 0.230775 -0.135811
-0.951536 -0.0345032 -0.290422 -0.955868 -0.0346603 -0.291744
-0.259496 -0.33033 -0.904866 -0.260116 -0.331119 -0.907028
-0.981796 0.162478 0.0613923 -0.984709 0.16296 0.0615745
-0.721378 0.67099 0.154036 -0.723428 0.672897 0.154474
-0.257324 0.956246 0.125676 -0.257786 0.957964 0.125902
-0.236566 0.724942 -0.645725 -0.236748 0.725499 -0.646221
-0.26544 0.458519 -0.845975 -0.265923 0.459353 -0.847514
-0.505737 -0.613986 0.600025 -0.507573 -0.616215 0.602203
0.849415 -0.46931 0.222792 0.853094 -0.471343 0.223757
0.777368 0.436992 0.445469 0.779826 0.438374 0.446878
0.11218 -0.986543 0.0975972 0.11244 -0.988831 0.0978236
-0.316575 -0.509187 0.796879 -0.317448 -0.510591 0.799077
0.777239 -0.542051 -0.310759 0.779389 -0.54355 -0.311619
0.488291 -0.854306 -0.15431 0.490237 -0.85771 -0.154925
-0.950386 0.165861 0.250857 -0.953407 0.166388 0.251654
0.0295771 -0.401457 -0.913435 0.0296304 -0.40218 -0.915081
0.86754 0.472483 -0.135352 0.870073 0.473863 -0.135747
0.640229 -0.00337156 -0.766593 0.641008 -0.00337567 -0.767526
-0.329681 0.94191 0.00589463 -0.330356 0.943838 0.0059067
0.0118691 0.256587 0.963953 0.0118978 0.257207 0.966283
0.247173 -0.387256 -0.886144 0.24763 -0.387972 -0.887782
-0.66025 -0.17165 -0.726488 -0.662513 -0.172238 -0.728979
-0.522332 -0.7136 -0.460867 -0.523786 -0.715587 -0.46215
-0.550743 0.0365777 -0.830925 -0.552099 0.0366678 -0.832972
-0.467835 -0.331391 -0.816797 -0.46881 -0.332081 -0.818498
0.0936952 -0.761122 0.637177 0.0939738 -0.763385 0.639071
0.562496 0.528982 0.633082 0.563337 0.529773 0.634028
0.661024 0.151265 -0.731364 0.662774 0.151665 -0.7333
0.659194 0.704692 0.251471 0.661059 0.706686 0.252183
0.538733 -0.743493 -0.387367 0.54061 -0.746083 -0.388717
0.106367 0.400829 -0.907078 0.106646 0.401882 -0.90946
-0.0412774 0.124749 0.989502 -0.0413523 0.124975 0.991298
0.554796 -0.399726 0.72754 0.55566 -0.400348 0.728673
-0.0601807 -0.993943 0.00103226 -0.0604367 -0.998172 0.00103665
-0.504438 0.136341 0.848048 -0.506409 0.136874 0.851361
0.456332 -0.862323 0.208977 0.45736 -0.864265 0.209448
-0.0553492 0.696015 0.711234 -0.055534 0.698339 0.713609
-0.266132 -0.275533 0.921381 -0.266708 -0.276129 0.923374
0.373104 0.314036 -0.868985 0.374424 0.315147 -0.87206
0.989852 -0.125513 0.005651 0.992041 -0.125791 0.00566349
0.550113 0.776918 -0.299588 0.551222 0.778485 -0.300192
0.933755 -0.34811 -0.0194899 0.936824 -0.349254 -0.019554
-0.364543 -0.909356 0.184535 -0.365665 -0.912155 0.185103
0.831197 -0.522057 0.185172 0.832146 -0.522653 0.185383
-0.874015 0.154871 0.457836 -0.875109 0.155065 0.458409
-0.566639 0.277318 -0.773672 -0.567618 0.277797 -0.775009
0.600154 -0.793095 0.0679002 0.602025 -0.795567 0.0681119
0.574888 -0.67901 0.447116 0.577358 -0.681927 0.449037
0.760785 0.0847771 0.639601 0.762667 0.0849868 0.641183
0.914152 0.223589 0.330256 0.916568 0.22418 0.331129
0.0347544 -0.95991 -0.266755 0.0348628 -0.962903 -0.267587
0.420324 0.557399 0.712211 0.421461 0.558907 0.714138
-0.0925802 0.199934 0.972584 -0.0928375 0.20049 0.975287
0.0176086 0.921083 0.386708 0.0176241 0.921891 0.387047
0.750781 0.65062 -0.0942538 0.752339 0.65197 -0.0944494
0.405052 0.426374 0.804525 0.406452 0.427848 0.807306
0.982212 0.00508995 -0.17194 0.985009 0.00510444 -0.17243
0.413102 -0.809923 -0.410135 0.414172 -0.812021 -0.411197
-0.953064 0.0181318 -0.296728 -0.954637 0.0181617 -0.297218
-0.397824 -0.188394 -0.894322 -0.39911 -0.189003 -0.897212
-0.86677 -0.0572656 -0.493497 -0.867591 -0.0573198 -0.493964
0.266312 0.545354 0.792209 0.266856 0.546468 0.793827
-0.444845 -0.665169 -0.597727 -0.445377 -0.665964 -0.598441
-0.75471 -0.359591 0.543933 -0.756697 -0.360538 0.545365
-0.765094 0.180555 0.614567 -0.766759 0.180948 0.615905
0.77611 -0.341269 0.525241 0.778179 -0.342179 0.526641
-0.426393 0.822658 0.369344 -0.427465 0.824726 0.370272
-0.828394 0.0064818 -0.557495 -0.829606 0.00649129 -0.558311
-0.632549 -0.614924 -0.461556 -0.635324 -0.617622 -0.463581
-0.236991 -0.131827 -0.961187 -0.237297 -0.131997 -0.962428
0.545954 0.614959 -0.565721 0.546972 0.616106 -0.566776
0.701373 -0.320015 0.633973 0.70269 -0.320616 0.635163
-0.461137 0.219244 -0.857098 -0.462217 0.219757 -0.859105
0.520885 0.10741 -0.845053 0.521675 0.107573 -0.846335
0.513773 -0.49828 0.694939 0.515014 -0.499484 0.696618
-0.240765 -0.467744 0.84904 -0.241052 -0.468301 0.850052
-0.549223 0.605377 -0.57359 -0.550012 0.606247 -0.574414
-0.951935 -0.29528 -0.0352389 -0.95451 -0.296079 -0.0353342
0.586477 0.383606 -0.711655 0.587193 0.384075 -0.712524
0.00623302 0.326463 -0.94202 0.00625174 0.327444 -0.94485
-0.833438 0.356544 -0.415488 -0.835793 0.357551 -0.416662
-0.868878 0.484247 0.063377 -0.871733 0.485838 0.0635852
0.203872 -0.646648 0.730592 0.20454 -0.648766 0.732985
0.538992 0.71299 0.442759 0.540371 0.714814 0.443892
0.228987 -0.744682 0.622772 0.229581 -0.746614 0.624388
-0.663029 0.05843 0.74221 -0.665061 0.0586091 0.744485
0.930985 -0.123957 -0.333227 0.934195 -0.124384 -0.334376
0.656562 0.205514 -0.720856 0.658891 0.206243 -0.723413
0.666314 -0.656207 -0.348272 0.667692 -0.657565 -0.348992
-0.797144 -0.372549 0.468167 -0.799783 -0.373782 0.469717
0.0759638 0.599785 -0.791947 0.0762429 0.601988 -0.794856
0.92945 -0.00521238 0.360399 0.932349 -0.00522864 0.361523
-0.780201 -0.528584 -0.326677 -0.782225 -0.529955 -0.327524
-0.551915 -0.723716 0.409034 -0.55311 -0.725283 0.40992
-0.83911 -0.366121 -0.395804 -0.841296 -0.367075 -0.396835
0.746465 0.561757 -0.35011 0.748204 0.563065 -0.350925
-0.660903 -0.21429 0.715568 -0.662645 -0.214855 0.717454
-0.0248928 -0.521091 0.849831 -0.0249632 -0.522565 0.852234
-0.353436 0.557897 -0.74877 -0.353999 0.558785 -0.749962
-0.0413828 0.906003 -0.421223 -0.0413832 0.906011 -0.421227
0.73729 0.356934 -0.568392 0.739487 0.357997 -0.570085
-0.934753 0.317572 0.150623 -0.936016 0.318001 0.150827
0.18322 0.0523436 -0.980712 0.183394 0.0523933 -0.981642
0.353349 0.783144 -0.507449 0.354116 0.784843 -0.50855
0.0502838 -0.854861 -0.506428 0.0505426 -0.859261 -0.509035
0.302946 0.135416 0.939133 0.304152 0.135955 0.942872
0.53238 0.391801 -0.74806 0.533306 0.392483 -0.749361
-0.68887 -0.670576 0.269312 -0.689995 -0.671671 0.269752
-0.394574 0.912225 0.0964303 -0.395139 0.913531 0.0965684
0.763382 -0.608944 0.206776 0.76479 -0.610067 0.207157
0.758777 -0.600357 -0.249493 0.759378 -0.600833 -0.249691
-0.306996 0.689831 -0.651975 -0.307738 0.691498 -0.65355
0.980274 0.047713 0.17908 0.982594 0.0478259 0.179504
0.73373 -0.457853 0.496492 0.735759 -0.459119 0.497865
0.458494 -0.677638 -0.571027 0.459533 -0.679174 -0.572321
-0.673559 0.660827 0.3244 -0.675043 0.662283 0.325115
0.22271 0.644539 0.729088 0.22309 0.645638 0.730331
0.597479 -0.350344 -0.718644 0.598626 -0.351017 -0.720024
0.960988 0.199927 0.174417 0.963937 0.200541 0.174952
0.916719 -0.212915 0.330093 0.919173 -0.213485 0.330977
0.310695 -0.715925 0.620158 0.311682 -0.7182 0.622128
-0.761347 -0.474233 0.440009 -0.762051 -0.474671 0.440416
0.764654 0.553894 0.324124 0.765976 0.554852 0.324684
0.00657319 0.970263 0.233637 0.00658624 0.97219 0.234101
-0.529846 0.572521 -0.621376 -0.531276 0.574066 -0.623053
0.43514 -0.282103 -0.852323 0.436148 -0.282756 -0.854297
-0.385395 -0.884515 -0.248892 -0.386782 -0.887697 -0.249787
0.515352 0.820646 0.24098 0.516096 0.821831 0.241328
0.268577 -0.278756 -0.919563 0.269192 -0.279395 -0.921669
0.539421 -0.79473 -0.270179 0.540621 -0.796497 -0.27078
-0.683512 -0.356865 -0.633434 -0.684959 -0.35762 -0.634775
0.890674 -0.0027943 -0.449995 0.892549 -0.00280018 -0.450942
-0.217626 0.131712 -0.966879 -0.217673 0.131741 -0.96709
-0.776332 -0.123338 -0.614942 -0.777867 -0.123582 -0.616158
-0.219102 0.760598 0.607 -0.219656 0.76252 0.608534
-0.736695 0.470108 -0.483175 -0.737736 0.470772 -0.483858
-0.789876 -0.581407 0.180957 -0.791984 -0.582959 0.18144
0.992739 -0.0697862 0.0614001 0.995645 -0.0699905 0.0615798
-0.396644 0.542663 0.735273 -0.398153 0.544727 0.73807
-0.417923 -0.212037 0.8811 -0.41877 -0.212467 0.882887
-0.774178 -0.222121 0.591608 -0.774686 -0.222267 0.591996
0.778784 -0.292073 -0.552237 0.780042 -0.292545 -0.553129
-0.877572 -0.471489 -0.0243127 -0.880648 -0.473142 -0.0243979
