-0.0391713 2.63362 0.361427 -0.0225891 0.957441 0.287745
-1.24742 1.96828 1.16098 -0.692873 0.410806 0.592593
-1.36203 0.0900059 -0.510762 -0.471711 -0.859603 -0.196394
1.39561 2.34267 0.619069 0.834033 0.428732 0.347244
-1.51535 1.52594 1.1191 -0.717932 0.327939 0.614027
-2.95439 1.54677 -0.0573392 -0.966759 -0.234022 -0.103012
1.85821 1.51581 0.284383 0.942217 0.326735 0.073961
-0.749497 1.7962 1.60945 -0.353775 0.390911 0.849725
1.83774 1.50439 -0.402436 0.918677 0.327071 -0.221489
-1.74668 1.51948 0.691235 -0.872282 0.327466 0.363167
-0.0159872 2.72768 -0.180348 -0.0651741 0.552319 -0.831082
2.17895 1.41866 -0.334621 -0.373671 0.677206 -0.633847
-0.41926 1.8949 -1.67812 -0.215774 0.390465 -0.894974
-0.766141 0.260898 -1.41874 -0.33571 -0.767772 -0.545733
-1.43858 0.536045 -1.21149 -0.607393 -0.601005 -0.519488
-1.21464 0.0401737 0.121639 -0.11066 -0.99382 0.00868669
-1.69176 0.801727 1.04838 -0.846718 -0.108506 0.520859
-1.37855 2.49764 0.271639 -0.223846 0.973129 0.0539682
-0.465999 0.0792416 1.35243 -0.115028 -0.954168 0.276283
0.283922 1.00372 -1.97223 0.0781493 0.0526198 -0.995552
-0.340083 0.00674968 -0.518727 -0.0103495 -0.999805 -0.0168248
0.887132 0.258553 1.341 0.334306 -0.770001 0.543451
-0.277951 2.22213 -1.55954 -0.212468 0.422197 -0.881253
0.326693 2.64226 -0.0748311 0.280295 0.957532 -0.0675768
0.263189 0.0248283 -1.01427 0.0159012 -0.997696 -0.0659536
-2.65435 1.37004 -0.209931 0.471428 0.318498 -0.822383
0.512987 0.339245 -1.62227 0.158212 -0.737791 -0.656227
1.13629 0.0395338 -0.439018 0.102221 -0.993851 -0.0425592
1.24252 1.29951 1.49883 0.633931 0.220786 0.741205
-1.05438 2.27523 -1.15213 -0.587029 0.429301 -0.686366
2.46739 1.86055 -0.214117 -0.701638 0.376591 -0.604883
-1.03059 0.023772 0.0453844 -0.067713 -0.997691 0.00531525
1.31198 0.294932 1.00696 0.486759 -0.767952 0.416311
-2.04521 0.693939 0.134024 -0.422727 -0.865715 0.268028
-2.23149 2.16394 0.212703 -0.0508729 0.655611 0.753384
1.81574 0.970163 0.829677 0.921898 0.0527449 0.383825
0.707674 0.029087 0.860136 0.0439664 -0.99771 0.0514061
-0.912923 1.87815 -1.48237 -0.482184 0.391264 -0.783844
1.35101 0.946348 1.47578 0.649063 0.0528285 0.758899
-1.4632 0.114617 0.264247 -0.791946 -0.579971 0.190932
2.09453 1.39232 0.325811 -0.212429 0.737161 0.641457
0.480774 2.44108 1.17907 0.166789 0.900941 0.400607
1.7476 1.65152 -0.553495 0.905715 0.363316 -0.218362
-1.35049 0.20942 0.759863 -0.590088 -0.721133 0.362992
1.24123 0.15935 -0.855715 0.756507 -0.459492 -0.465364
2.51698 1.38778 0.36416 0.692265 -0.103834 0.714134
-2.32877 1.02611 0.205074 0.413504 0.531078 0.739574
-0.912414 0.0625817 -1.02461 -0.116797 -0.983722 -0.136561
0.266408 0.0270777 1.04752 0.0159008 -0.997696 0.0659537
-1.39931 1.33478 1.34543 -0.729381 0.280812 0.623818
2.85117 2.45121 -0.099822 -0.246464 0.942163 -0.227121
-0.296166 2.50571 1.04129 -0.0437236 0.982445 0.181357
0.758064 2.47424 -1.23437 0.362143 0.722687 -0.588707
0.354722 2.51821 0.954214 0.0716102 0.982491 0.171998
0.589676 2.42547 -1.1447 0.326347 0.528286 -0.783844
-1.65636 2.03019 -0.211199 -0.909559 0.409395 -0.071399
0.90497 2.50404 -0.615177 0.158527 0.982527 -0.0975179
0.783913 0.494473 1.6737 0.30738 -0.60038 0.738283
2.60916 1.28693 0.166689 0.91407 -0.296154 0.277071
1.82907 0.898589 -0.461058 0.125579 -0.477261 -0.869743
0.890998 1.94404 1.46254 0.477747 0.410613 0.776631
2.61457 1.86404 0.279881 0.330882 0.116149 0.936497
-1.90662 1.15207 -0.505855 -0.961859 0.145089 -0.231899
-0.12027 0.000676663 -0.00669629 -0.00560161 -0.999984 -0.000439719
1.46325 0.526263 -1.17132 0.607393 -0.601005 -0.519487
0.459849 0.00781855 0.494242 0.0128318 -0.999805 0.015003
-1.59129 2.14919 0.29122 -0.881253 0.422197 0.212468
0.641812 1.59628 1.73842 0.363166 0.327463 0.872283
-1.50921 1.98467 0.778389 -0.841918 0.410252 0.350526
1.00775 1.79062 -1.46773 0.482183 0.391264 -0.783845
0.683901 2.56923 -0.132873 0.145039 0.988808 -0.0349682
1.0137 2.48558 -0.946593 -0.629661 0.559922 0.53853
-1.52641 0.275559 -0.563314 -0.591871 -0.767441 -0.246421
0.19686 0.344984 -1.69141 0.0528594 -0.737405 -0.673379
0.204273 3.13344 -0.113198 0.174004 0.978944 -0.106732
-1.8742 0.850743 -0.684915 -0.917743 -0.108398 -0.382096
0.265978 0.0498324 -1.27112 0.0422381 -0.983627 -0.175194
-0.905313 1.01598 -1.78162 -0.383823 0.0527449 -0.921899
0.346966 0.537879 1.8466 0.187528 -0.599861 0.777817
1.21009 2.41588 0.448115 0.783842 0.528289 0.326346
-0.875296 0.0865613 1.15974 -0.331713 -0.859967 0.387844
0.330306 2.99489 0.0411321 0.846629 -0.528085 0.0659161
0.838968 1.12328 1.79434 0.380284 0.145294 0.913386
2.22573 1.33223 -0.416577 -0.185207 0.474699 -0.860442
-0.095979 0.566448 1.8914 -0.0687516 -0.477691 0.875833
-0.346655 0.0142703 0.778156 -0.0151491 -0.999223 0.0363864
1.39969 1.94264 -0.994372 0.776631 0.410613 -0.477747
-0.405652 0.00608639 0.425164 -0.0128317 -0.999805 0.0150031
-1.1676 1.33073 -1.55295 -0.623818 0.280812 -0.729381
0.422697 0.00461987 -0.290447 0.0168248 -0.999805 -0.0103495
-0.124722 1.04242 -1.98219 -0.0774327 0.144932 -0.986407
-0.194422 2.88191 0.135892 -0.633263 -0.669303 0.388602
-2.58399 2.19535 0.0650636 -0.162464 0.983371 0.0811617
-2.97248 1.90415 0.0980088 -0.932025 0.118332 0.34253
2.27164 1.05119 0.420319 0.485151 -0.34551 0.803276
-0.259767 2.66097 -0.0936348 -0.422126 0.889337 -0.175754
-0.693731 1.50501 -1.75107 -0.363167 0.327466 -0.872282
-1.06863 2.4544 0.879215 0.745106 -0.196743 -0.637267
1.6636 0.850969 1.10441 0.846718 -0.108508 0.520859
2.59996 1.26614 -0.175563 0.910275 -0.305559 -0.279346
1.14211 0.949573 1.64361 0.523222 0.0528026 0.850559
0.464262 1.77986 1.71746 0.215773 0.390464 0.894975
2.09634 0.734764 0.153127 0.48197 -0.868778 0.113707
1.45658 0.294579 -0.781665 0.545733 -0.767772 -0.33571
1.60322 1.917 -0.630974 0.849725 0.390911 -0.353774
0.0290274 0.00529247 -0.543711 0.0015513 -0.999803 -0.0197627
1.56637 0.357914 0.712845 0.622718 -0.738244 0.259264
-1.66853 1.09893 1.07544 -0.842692 0.14544 0.51838
-1.10094 1.01934 1.66461 -0.523222 0.0528003 0.850559
0.435285 1.28478 1.89497 0.228627 0.220165 0.948292
-0.306373 2.41096 1.35902 0.217883 -0.368526 -0.903723
-0.867502 1.87116 1.5138 -0.482184 0.391262 0.783845
0.0113749 0.153597 1.50097 0.0695592 -0.4582 0.886123
-0.468371 0.705056 1.90352 -0.22264 -0.312532 0.923447
2.67099 2.36305 -0.0329413 -0.694049 0.698896 -0.17274
-1.25902 2.41423 -0.802475 -0.744583 0.485598 -0.45803
-0.172209 0.0977544 -1.45408 -0.0400614 -0.859039 -0.51034
-0.636145 1.64955 1.71946 -0.358029 0.363743 0.859945
2.03377 0.704877 -0.135621 0.250677 -0.960593 -0.120092
-2.77938 1.27739 0.154742 -0.648064 -0.491822 0.581485
-1.52617 2.33509 -0.059271 -0.901075 0.427856 -0.0707329
2.83504 2.06772 0.172152 0.655836 -0.240254 0.715652
-1.04873 0.731165 -1.672 -0.497589 -0.313215 -0.808889
1.88946 0.692691 -0.509331 0.923448 -0.312529 -0.222641
-0.860955 0.924885 1.8053 -0.383825 0.0527449 0.921898
-0.548212 0.362508 -1.63993 -0.158213 -0.737791 -0.656227
-1.83662 1.5808 -0.272276 -0.942217 0.326735 -0.073961
1.59798 0.737828 -1.17316 0.72168 -0.313373 -0.617231
0.378619 2.57418 -0.548573 0.0859822 0.986443 -0.139776
1.5232 2.32805 0.139656 0.901075 0.427855 0.0707336
-0.537406 2.54259 -0.689384 -0.100588 0.987953 -0.117609
2.40602 1.47744 -0.383142 0.0446306 0.247921 -0.967752
1.22279 0.0415528 0.175661 0.11066 -0.99382 0.00868683
0.382536 1.12784 1.94001 0.231898 0.145089 0.961859
-1.71895 2.24963 0.000275306 -0.00157384 0.996994 0.0774616
0.900973 1.13147 -1.76722 0.38028 0.145294 -0.913388
0.199842 0.00523335 0.504642 0.00760018 -0.999804 0.0182551
-1.45878 1.10791 1.34748 -0.751869 0.145522 0.643052
2.39272 1.59933 0.318315 -0.653894 0.467239 0.595072
-1.77689 1.75659 0.181142 -0.928948 0.362958 0.0729212
-0.708213 1.1576 1.84332 -0.380285 0.145284 0.913387
-0.94375 1.60061 -1.59384 -0.495009 0.327775 -0.804692
0.486333 2.4901 -1.03878 0.100105 0.965489 -0.240437
-0.833608 0.0140294 -0.145002 -0.0383679 -0.999221 -0.00925037
-0.194658 0.426132 1.77392 -0.057137 -0.683323 0.727877
0.819689 0.674396 -1.77404 0.365058 -0.312916 -0.876822
-1.46442 1.69815 1.08152 -0.707751 0.364254 0.605317
-1.69824 1.77646 0.550112 -0.894975 0.390464 0.215773
-1.01543 2.51394 0.218656 -0.181357 0.982445 0.0437237
-0.489778 2.07879 1.57703 -0.213798 0.409787 0.886772
-1.12879 0.37554 -1.32701 -0.43804 -0.738789 -0.512164
0.817658 2.50139 -0.745349 0.197626 0.965595 -0.169025
1.68077 0.361588 0.374526 0.656225 -0.737792 0.158212
-1.52412 2.11137 -0.593194 -0.83667 0.42266 -0.348341
1.42852 1.53478 -1.2159 0.717932 0.327939 -0.614027
1.77089 1.74945 -0.293136 0.928948 0.362958 -0.0729212
-0.337711 3.08967 -0.0758862 -0.578014 0.804204 -0.138407
0.536165 0.595094 -1.83637 0.205854 -0.478109 -0.853836
-1.97084 0.814574 0.252788 -0.991088 -0.108128 0.0777989
-2.68116 1.11051 -0.0183389 -0.701515 -0.70644 -0.0939141
1.7037 1.7828 0.516016 0.894974 0.390465 0.215773
0.513001 0.0128851 -0.637396 0.0255766 -0.999225 -0.0299047
-1.6091 0.290147 -0.326987 -0.62376 -0.767012 -0.150384
1.93104 1.28264 -0.221544 0.972524 0.219928 -0.0763431
1.54179 1.86982 -0.823076 0.783845 0.391262 -0.482183
0.625192 1.12217 1.88236 0.231899 0.145092 0.961858
-0.267255 0.992834 1.97411 -0.0781493 0.0526198 0.995552
0.163317 2.54411 -0.846184 0.0363772 0.987882 -0.150883
-0.379626 1.58183 1.81567 -0.221489 0.327072 0.918676
2.4647 1.94449 0.138629 -0.881929 0.331665 0.334961
1.68696 1.97456 0.140406 0.909559 0.409395 0.071399
1.09667 2.50205 0.0707828 0.26025 0.965325 0.0204297
0.427521 0.00305047 0.0642566 0.0197627 -0.999803 0.00155135
0.470927 0.0192785 0.84729 0.0354617 -0.997707 0.0576473
-1.51292 0.39052 -0.893217 -0.620839 -0.684619 -0.381909
-0.230183 2.65745 0.170124 -0.218519 0.957768 0.186894
1.8413 0.819651 -0.755123 0.917744 -0.108398 -0.382094
-0.0622394 0.0221845 -1.00588 -0.00531525 -0.997691 -0.067713
1.1176 1.93735 1.30286 0.592592 0.410803 0.692875
-1.23203 0.774684 1.56276 -0.646129 -0.108566 0.755467
-1.98484 0.808352 -0.0657629 -0.991088 -0.108126 -0.0777989
1.35674 2.49189 -0.436739 0.509652 0.851561 -0.122875
-1.55189 0.983613 -1.25899 -0.758898 0.0528325 -0.649062
0.0725134 2.39511 -1.49663 0.0707329 0.427856 -0.901075
-2.93406 1.94222 -0.152782 -0.718089 0.341242 -0.606549
0.699591 0.0115643 0.356872 0.0363862 -0.999223 0.0151493
0.951886 0.0206819 0.261781 0.0659536 -0.997696 0.0159012
1.79259 0.628319 0.719862 0.810582 -0.478607 0.337479
-1.08355 0.198835 1.0974 -0.450169 -0.721325 0.526345
-0.50405 0.048221 1.18856 -0.0691764 -0.983671 0.166152
-2.66113 1.59423 -0.0208244 0.940762 0.323735 -0.100805
-0.0038706 2.88425 -0.238289 -0.0579263 -0.667396 -0.742447
-1.40076 1.98243 -0.958417 -0.776631 0.410611 -0.477747
-1.61871 2.02775 -0.414723 -0.886772 0.409787 -0.213798
-0.158422 2.58937 -0.551151 -0.0385533 0.986379 -0.159909
-1.69276 1.74524 -0.603072 -0.859945 0.363742 -0.35803
-0.686074 0.565525 -1.76959 -0.337481 -0.478607 -0.810581
2.32055 1.66136 0.092009 -0.753603 0.649234 0.102849
1.19436 2.34539 0.953684 0.686366 0.429301 0.587029
-0.75856 1.33722 1.77916 -0.368942 0.280391 0.88615
-0.24502 2.51467 -1.00511 -0.0437237 0.982445 -0.181357
-1.60471 1.85817 -0.692393 -0.849725 0.390911 -0.353775
1.46798 2.3376 0.42497 0.878485 0.42826 0.211795
-0.861044 2.37618 1.24556 -0.473263 0.429103 0.769346
2.68704 1.45697 0.0453845 0.959977 -0.266143 0.087249
1.11218 2.49701 -0.111491 0.260249 0.965325 -0.0204297
1.92251 1.30709 0.259775 0.972526 0.219922 0.0763432
-1.10279 2.27927 1.1082 -0.587029 0.429301 0.686366
2.42011 0.945604 0.0201345 0.711656 -0.694811 0.103843
-0.788056 0.0835701 -1.20937 -0.156654 -0.954258 -0.254659
1.85608 1.42881 0.0691854 -0.0865231 0.98897 0.120217
1.73008 1.28508 0.907015 0.830751 0.220666 0.511037
1.59808 0.621441 1.08543 0.74768 -0.478997 0.459932
-1.34346 2.10847 0.942529 -0.771784 0.423027 0.474761
-0.478007 1.29333 1.88268 -0.228626 0.220169 0.948291
-1.51718 2.25077 -0.39648 -0.878485 0.42826 -0.211795
0.104619 1.91464 1.71636 0.0720582 0.390083 0.917956
1.64753 0.299116 -0.0929291 0.640097 -0.766649 -0.0502469
1.91929 0.791574 0.505723 0.966432 -0.108253 0.233002
1.99242 1.02647 -0.479617 0.0595889 -0.162871 -0.984846
-1.11888 1.94938 1.29463 -0.592592 0.410806 0.692874
1.88618 1.12475 0.607756 0.961859 0.145092 0.231898
-1.35621 2.23883 -0.805643 -0.771783 0.423029 -0.474761
1.19943 2.48888 -0.697542 -0.705815 0.559742 0.434183
0.127879 1.20536 -1.95586 0.0763403 0.219928 -0.972524
2.23353 0.907413 -0.336817 0.395721 -0.667041 -0.631238
-1.84584 0.502524 0.0980363 -0.797979 -0.599421 0.0626398
-1.29653 2.49662 0.554364 -0.212297 0.9732 0.088388
-0.807351 2.54758 -0.230272 -0.150883 0.987882 -0.0363772
-1.81526 0.473729 -0.212119 -0.79798 -0.59942 -0.0626399
-1.37212 0.504889 1.25314 -0.607393 -0.601004 0.519488
-0.520536 0.262583 1.5274 -0.246421 -0.767441 0.591871
-0.945611 0.0281314 -0.56017 -0.0576474 -0.997707 -0.0354616
-0.153564 3.06086 0.324244 -0.38282 0.00419009 0.923814
0.997644 0.0296183 -0.516825 0.062548 -0.997702 -0.0260415
-2.86559 1.87104 0.219824 -0.194919 0.0286634 0.9804
0.166681 2.8193 0.0910032 0.701344 -0.568107 0.430548
-0.929901 0.347248 1.43582 -0.353219 -0.738601 0.574199
0.0536388 0.00687535 0.621857 0.0015513 -0.999803 0.0197627
0.0712558 2.52415 0.980907 0.0146157 0.982405 0.186188
1.54831 1.20238 1.2185 0.741205 0.220786 0.633931
0.672602 2.52809 0.695491 0.100588 0.987953 0.117609
-2.48568 1.23741 -0.143886 0.750706 0.583047 -0.31064
1.88492 1.19012 -0.56811 0.94829 0.220169 -0.228628
1.79678 1.24842 -0.770865 0.900473 0.220444 -0.374905
1.6764 0.539711 0.865786 0.738284 -0.60038 0.307379
-0.301192 0.0162948 -0.852682 -0.0151494 -0.999223 -0.0363864
0.853817 2.5429 0.164686 0.150883 0.987882 0.0363772
-1.10881 1.69025 1.44515 -0.605319 0.364253 0.707749
0.314786 0.3727 1.70767 0.158211 -0.737792 0.656225
-0.983061 0.03078 0.573805 -0.0576473 -0.997707 0.0354615
0.992625 0.779496 -1.7232 0.520859 -0.108508 -0.846718
1.11275 2.49259 0.838072 -0.629646 0.559951 -0.538517
-0.915656 2.42776 0.90497 -0.644965 0.528903 0.551618
-1.39093 2.49746 -0.114563 0.291362 0.956339 0.0228711
0.285337 2.36986 -1.48592 0.211798 0.428257 -0.878486
2.45568 1.99019 -0.00228134 -0.942319 0.314105 -0.115642
-0.583038 1.79544 -1.6791 -0.353775 0.390912 -0.849724
1.7189 1.27085 0.391818 -0.0642994 0.729542 0.680907
-0.510182 0.00470236 0.0758402 -0.0197627 -0.999803 0.0015513
1.04813 1.36839 1.61764 0.502893 0.280665 0.817512
0.833565 2.48445 1.17419 0.274208 0.85212 0.445759
-1.00003 0.425783 -1.4861 -0.381908 -0.684619 -0.62084
-0.280396 1.29721 -1.92312 -0.0763431 0.219928 -0.972524
0.739097 2.36968 -1.3242 0.473263 0.429103 -0.769346
0.93851 0.094197 1.12261 0.331712 -0.859967 0.387845
-0.636574 2.51372 0.827477 -0.120907 0.982546 0.141367
2.01863 1.43504 -0.202411 -0.262023 0.888953 -0.375641
-0.886229 2.05901 1.40468 -0.477745 0.410613 0.776631
1.76297 0.626595 -0.0772843 0.252589 -0.959545 -0.124385
-1.30496 0.222747 -0.863242 -0.543452 -0.770001 -0.334304
0.292744 2.46239 -1.19199 0.101818 0.900712 -0.422316
-0.830189 0.473463 1.63735 -0.307379 -0.60038 0.738284
-2.70988 1.76148 0.0938713 0.937501 0.0773181 0.339285
1.08202 2.47594 0.519049 0.240437 0.965489 0.100105
1.06144 0.0276283 -0.243238 0.0659537 -0.997696 -0.0159008
-0.626163 2.57074 -0.283057 -0.137552 0.988838 -0.0572685
1.65085 1.15647 -1.08804 0.842692 0.14544 -0.51838
0.843689 2.53773 -0.32231 0.143096 0.987914 -0.0595764
1.44481 0.150723 -0.396478 0.863878 -0.458624 -0.208276
0.655831 0.0816643 -1.28176 0.115028 -0.954168 -0.276284
0.722571 1.88474 1.57993 0.353774 0.390911 0.849725
0.486003 0.662101 1.88473 0.222641 -0.312529 0.923448
1.59467 0.30184 -0.4465 0.623757 -0.767015 -0.150384
-0.729033 0.0354381 -0.933015 -0.0718542 -0.993871 -0.0840129
0.332565 0.179349 1.47664 0.162582 -0.72029 0.674352
-1.95896 1.17907 -0.164168 -0.972524 0.219928 -0.0763403
-0.376058 0.0732852 -1.35641 -0.0702289 -0.954053 -0.291293
0.66563 0.0291443 -0.897207 0.0439663 -0.99771 -0.0514059
-0.176267 0.71518 -1.95354 -0.0743465 -0.312204 -0.947101
-1.49234 1.41125 -1.20222 -0.72938 0.280812 -0.623818
-1.32728 2.4483 -0.63608 -0.738019 0.60076 -0.307269
-0.60554 2.50041 -0.929381 -0.136324 0.965559 -0.221612
-0.608115 0.0105896 0.457554 -0.0299045 -0.999225 0.0255768
-1.93585 0.737196 -0.379366 -0.923449 -0.312529 -0.222639
-0.0328534 0.0299967 1.12329 -0.00531551 -0.997691 0.067713
-0.0310283 0.368145 -1.72979 -0.0528595 -0.737404 -0.67338
-1.76491 0.593901 -0.737558 -0.810579 -0.478612 -0.33748
1.99503 0.769261 0.322764 0.192972 -0.729079 0.656662
-1.41427 1.65327 -1.16716 -0.707749 0.364258 -0.605316
0.239951 2.36742 1.49664 0.0707329 0.427855 0.901075
-2.56246 1.00114 0.0187438 -0.626987 -0.774698 0.0820424
-1.43993 0.158687 0.434262 -0.863877 -0.458626 0.208275
-2.61406 1.96971 -0.149092 0.307332 -0.807313 -0.503778
1.82281 1.64212 0.165975 0.928948 0.362957 0.0729193
-1.19094 1.24742 1.55846 -0.63393 0.220787 0.741205
-0.971952 1.32181 -1.68038 -0.511037 0.220669 -0.830751
-0.241029 1.47127 1.87705 -0.073961 0.326735 0.942217
-0.989704 2.49823 -0.522885 -0.221613 0.965558 -0.136325
1.15287 1.39308 -1.54155 0.623818 0.280812 -0.72938
1.40354 0.222863 0.693515 0.589394 -0.769674 0.24539
1.12545 0.149048 -0.994093 0.750719 -0.15546 -0.642069
-0.00882828 2.58824 0.580161 -0.0128864 0.986348 0.164169
-0.464812 1.43266 -1.84608 -0.225002 0.280044 -0.933247
-0.0808218 2.13184 1.62008 -0.0709546 0.421798 0.903909
-1.29107 0.0493722 -0.0887372 -0.17986 -0.983591 -0.0141188
-1.30848 0.0794803 0.573547 -0.276284 -0.954168 0.115028
-1.85265 0.617362 0.520388 -0.853835 -0.478109 0.205857
0.709256 0.0103629 -0.254416 0.0363864 -0.999223 -0.0151494
0.313847 1.59362 1.82733 0.221489 0.327071 0.918677
0.773263 0.867403 1.83939 0.382096 -0.108393 0.917744
-1.58468 1.63275 -0.93644 -0.79329 0.364076 -0.487995
2.48213 1.0281 -0.147141 0.712662 -0.693788 -0.103786
-0.65127 1.92767 1.58986 -0.353774 0.390912 0.849724
1.84928 0.542607 -0.350985 0.777815 -0.599865 -0.187526
-1.80854 2.21054 0.171508 -0.0102496 0.872849 0.487884
-1.44344 0.924567 -1.3906 -0.758897 0.0528285 -0.649064
1.58816 0.581908 -1.06039 0.747677 -0.479003 -0.45993
1.5665 1.67444 0.934894 0.79329 0.364076 0.487995
3.01751 2.39036 -0.185597 0.0840791 -0.0437844 -0.995497
-0.312034 2.59768 -0.423969 -0.133148 0.978793 -0.155681
0.0632432 0.713822 1.96196 0.0743449 -0.312208 0.9471
0.793009 0.199571 -1.31806 0.362992 -0.721132 -0.590089
1.37421 0.0659401 -0.15064 0.299034 -0.953954 -0.0234733
0.93636 2.41302 0.894891 0.644964 0.528903 0.551619
0.278898 0.114997 -1.45995 0.190934 -0.579971 -0.791946
1.40761 1.73786 1.12404 0.707749 0.364253 0.605319
0.172492 2.63826 0.303931 0.150734 0.957724 0.24504
0.539902 0.230572 -1.47756 0.24539 -0.76967 -0.589399
1.76505 1.32166 -0.343234 -0.079876 0.728719 -0.680138
1.2901 0.67868 -1.47228 0.617232 -0.313372 -0.721681
0.0618335 0.357524 1.71574 0.0528595 -0.737404 0.67338
-0.760302 2.47093 1.15462 0.521713 0.0923561 -0.848107
-1.92436 1.34318 -0.115342 -0.95713 0.279743 -0.0751346
1.57037 1.69841 -0.910721 0.79329 0.364078 -0.487995
-2.18106 0.998048 0.0332607 0.56033 0.825162 0.0716775
0.196193 0.654122 -1.93136 0.0687508 -0.477689 -0.875835
-0.205948 0.241657 -1.56968 -0.0500364 -0.76889 -0.63742
0.887974 2.52211 0.460335 0.171999 0.982491 0.0716104
0.833505 2.07161 -1.43045 0.477745 0.410613 -0.776631
2.56232 1.6924 0.321837 0.405997 0.106923 0.907598
2.10479 1.1346 0.471601 0.0190216 0.191995 0.981211
1.71384 0.5763 -0.835236 0.810579 -0.478612 -0.337478
1.84958 0.49747 0.00209594 0.797979 -0.599421 0.0626402
-0.24295 2.39422 -1.48367 -0.0707329 0.427855 -0.901075
-0.7585 2.53098 0.570608 -0.117609 0.987953 0.100588
-2.91486 1.43911 0.0269868 -0.918697 -0.381651 0.101679
1.90784 0.609996 -0.189169 0.875834 -0.477691 -0.0687507
1.84781 1.3615 0.546245 0.933247 0.280044 0.224999
0.624894 2.21061 1.46079 0.348341 0.42266 0.83667
0.650362 1.95055 -1.57914 0.350524 0.410252 -0.841918
0.0048766 3.13481 -0.226028 0.0159007 0.978757 -0.204407
-0.472663 1.20397 -1.90472 -0.228628 0.220169 -0.94829
-0.107705 1.69226 -1.8078 -0.0729192 0.362954 -0.92895
-1.59129 0.505806 0.957202 -0.680896 -0.600786 0.418852
-0.34906 0.00391692 -0.325596 -0.0150031 -0.999805 -0.0128317
0.594757 0.163018 1.38355 0.34146 -0.459108 0.820137
-1.3435 1.82332 1.14502 -0.699313 0.39145 0.598104
-1.8669 0.783627 0.683415 -0.917744 -0.108398 0.382094
-0.629623 0.0191062 0.73318 -0.0439662 -0.99771 0.0514062
0.57676 2.57419 -0.332725 0.139776 0.986443 -0.0859825
-1.24571 2.4485 0.782869 -0.680658 0.601159 0.418703
1.46857 0.847295 1.35436 0.755467 -0.108566 0.646129
0.330517 0.910863 1.97308 0.234053 0.0526806 0.970796
-1.67636 1.46443 0.899074 -0.817512 0.280666 0.502893
0.155251 0.18657 -1.51169 0.0543168 -0.71989 -0.691959
-2.16594 2.03437 -0.118819 0.0595314 -0.962999 -0.262848
1.62233 1.32865 1.06269 0.817512 0.280666 0.502893
-0.191925 0.00148384 -0.183568 -0.00425253 -0.999984 -0.00363707
-0.25924 2.41124 -1.26499 -0.199078 0.527776 -0.825724
2.55372 2.20965 0.0569075 -0.848139 0.512236 0.135182
1.14335 0.174663 0.993028 0.674901 -0.459696 0.577225
-1.23636 0.361865 -1.21171 -0.512164 -0.738789 -0.43804
-1.42878 1.26988 -1.33475 -0.741205 0.220786 -0.633931
-0.551996 2.44338 -1.3663 -0.307274 0.600744 -0.738031
1.27003 1.45469 1.41763 0.623818 0.280813 0.72938
-0.736928 2.56145 0.132844 -0.145039 0.988808 0.0349682
-1.96899 0.812223 -0.273069 -0.991088 -0.108128 -0.0777995
0.446013 2.20331 -1.52804 0.212468 0.422191 -0.881256
-1.88185 1.49365 0.0811679 -0.942217 0.326735 0.073961
0.0138953 0.0435818 -1.25371 0.00868671 -0.99382 -0.11066
-0.363729 2.06439 -1.61408 -0.213798 0.40979 -0.886771
0.575319 0.0538465 1.19219 0.0691758 -0.983671 0.166152
0.561147 2.55559 -0.557316 0.113053 0.988873 -0.0966916
-0.485019 2.48911 1.04329 -0.100105 0.965489 0.240437
-0.351927 0.369462 1.69507 -0.158212 -0.737792 0.656225
1.61098 1.41975 -1.03029 0.817512 0.280666 -0.502893
-0.370321 2.56826 0.598857 -0.0779866 0.988861 0.126778
1.97596 1.09161 0.112013 0.986407 0.144932 0.07743
0.415244 2.52432 -0.894113 0.0716098 0.982491 -0.171998
-1.02414 1.46133 1.60049 -0.502893 0.280665 0.817512
-1.30482 0.101063 -0.691863 -0.434876 -0.859837 -0.267513
1.64322 2.09572 0.000713908 0.90391 0.421796 0.0709561
1.16312 1.60357 -1.44225 0.614026 0.327939 -0.717933
1.31159 0.625029 1.42169 0.570479 -0.479209 0.667017
-0.734521 1.14767 -1.83394 -0.380284 0.145294 -0.913386
-1.62442 1.16619 -1.12827 -0.842691 0.145445 -0.51838
0.839323 1.30135 -1.75532 0.374905 0.220449 -0.900472
-0.00997568 1.75894 1.78941 -0.0729214 0.362954 0.928949
2.21087 1.02686 -0.434346 0.295405 -0.434347 -0.850928
-1.71442 1.92283 0.0851122 -0.917956 0.390083 0.0720582
0.764879 0.280154 1.44661 0.33571 -0.767772 0.545733
2.56928 1.38779 -0.315241 0.680449 -0.117901 -0.723249
-0.464471 0.0237232 0.925408 -0.0260413 -0.997702 0.0625481
0.635181 0.0199304 0.744422 0.0439661 -0.99771 0.0514061
1.79214 0.889444 -0.89299 0.917744 -0.108393 -0.382096
-1.25991 0.933977 -1.55455 -0.649064 0.0528324 -0.758897
0.477407 0.00472642 0.19857 0.018255 -0.999804 0.00760043
0.329135 0.0433723 1.20699 0.0259865 -0.993834 0.107786
-0.610396 0.594957 1.8184 -0.205854 -0.478109 0.853836
0.323472 2.59681 0.420651 0.106605 0.986458 0.124645
0.421003 2.16372 1.55304 0.212464 0.422191 0.881257
1.73309 1.45882 -0.776818 0.886151 0.280391 -0.368942
-1.5343 1.21823 1.22937 -0.741205 0.220787 0.633931
3.25393 2.37786 -0.0386412 0.514759 -0.847708 -0.128117
1.42395 2.10116 0.818199 0.771783 0.423027 0.474763
-2.59065 1.35186 0.167861 0.699459 0.452063 0.55353
-1.93198 1.27129 0.242166 -0.972524 0.219928 0.0763431
2.74593 1.65105 -0.00159174 0.958631 -0.270857 -0.0875397
-2.98583 1.6881 0.0515219 -0.991613 -0.0781657 0.102927
0.163811 2.68891 -0.149725 0.347047 0.889638 -0.29682
-1.66342 2.19453 -0.194874 -0.000994711 0.661869 -0.749619
1.18319 1.61135 1.42152 0.614026 0.327937 0.717934
0.232307 1.4444 1.8856 0.0751316 0.279743 0.957131
1.83176 0.564916 0.485224 0.853836 -0.478109 0.205854
-1.24412 0.952609 1.56676 -0.649062 0.0528325 0.758898
-0.41469 2.57111 -0.547421 -0.0966917 0.988873 -0.113053
-2.00974 2.19509 -0.19193 -0.00750541 0.663523 -0.748118
-0.527973 0.237178 -1.49115 -0.245392 -0.76967 -0.589398
1.46099 2.13481 -0.716379 0.83667 0.42266 -0.348341
0.283625 2.48424 -1.3518 -0.194373 0.558787 0.806211
-1.36023 0.670551 -1.40877 -0.617232 -0.313372 -0.72168
0.626221 1.27385 -1.85078 0.374905 0.220449 -0.900472
1.13537 1.83902 -1.34297 0.598106 0.391444 -0.699315
-0.219942 0.00863334 -0.67501 -0.00925042 -0.999221 -0.0383678
-1.53626 0.210227 0.155851 -0.691959 -0.719891 0.0543185
2.36792 0.941215 -0.217343 0.683585 -0.649052 -0.333831
-1.95128 1.00197 -0.400459 -0.970796 0.0526806 -0.234053
0.191281 0.823286 -1.97662 0.0777995 -0.108128 -0.991088
-0.204632 0.00779255 0.641074 -0.00464094 -0.999804 0.0192492
0.990355 0.0432653 0.770253 0.0840129 -0.993871 0.0718542
0.0427342 2.03317 -1.66825 0.0713981 0.409397 -0.909559
0.284735 0.679065 1.93312 0.0743465 -0.312204 0.947101
-1.84111 1.34797 0.590852 -0.933247 0.280044 0.225002
0.0615992 0.000367323 -0.0225534 0.00517429 -0.999984 -0.00215422
-0.884488 1.44954 -1.69044 -0.502893 0.280665 -0.817512
2.40729 1.00202 0.253195 0.686368 -0.646453 0.333162
1.26377 0.351436 1.16207 0.512164 -0.738789 0.43804
1.37289 0.563134 1.31665 0.667015 -0.47921 0.570481
1.73714 0.413992 -0.365369 0.709397 -0.683742 -0.171032
-1.36081 2.37433 0.663572 -0.834033 0.428732 0.347244
1.31097 0.0684444 0.476024 0.276283 -0.954168 0.115028
-1.66606 0.387154 -0.552927 -0.709399 -0.683741 -0.171032
0.779911 2.49775 0.805882 0.169025 0.965595 0.197626
0.146394 0.0146701 0.849958 0.00925042 -0.999221 0.0383678
-1.73777 1.35586 -0.843826 -0.88615 0.280391 -0.368942
1.47713 1.95849 0.854851 0.776631 0.410611 0.477747
-1.17235 1.96423 -1.2401 -0.592593 0.410806 -0.692873
0.719936 0.0420202 1.01458 0.0579547 -0.993864 0.0942127
0.885383 2.15792 1.35151 0.474761 0.423027 0.771784
0.508262 2.42253 1.39873 0.336084 0.485209 0.807229
1.25814 1.08663 1.53931 0.643051 0.14552 0.75187
-0.283819 0.106042 1.4522 -0.190934 -0.579961 0.791953
1.89343 0.6862 0.205922 0.234887 -0.89086 0.38884
0.0739277 2.41314 1.28602 0.0664918 0.527332 0.847053
1.07515 0.304168 -1.26822 0.416311 -0.767952 -0.486759
-1.38998 0.323808 -0.955398 -0.574199 -0.738601 -0.353219
0.354318 2.55695 -0.695684 0.057269 0.988837 -0.137553
-1.66473 0.792352 -1.09036 -0.846718 -0.108508 -0.520859
-0.294965 0.603484 1.89598 -0.0687516 -0.477691 0.875833
-0.425677 1.96047 1.64716 -0.213796 0.40979 0.886772
-0.430311 0.0299 -1.03816 -0.0260415 -0.997702 -0.062548
-2.8581 1.42562 -0.169225 -0.692952 -0.407589 -0.594717
0.115602 2.47841 1.43442 0.0541906 0.721465 0.690327
-0.537464 1.12056 1.90376 -0.231898 0.145092 0.961859
1.42365 2.28331 -0.625021 0.834033 0.428732 -0.347243
1.84555 0.76428 -0.35953 0.19033 -0.717692 -0.669845
-1.13967 0.439088 1.39811 -0.47364 -0.684824 0.553788
1.751 1.02659 0.959771 0.850559 0.0528003 0.523223
1.27855 1.95669 -1.13262 0.692875 0.410803 -0.592592
0.0989941 3.14482 0.0643018 0.037359 0.999039 0.0229145
-1.70205 2.06899 0.181033 0.00109136 -0.872738 0.488188
-1.92692 0.649032 -0.217311 -0.875835 -0.477689 -0.0687508
1.63701 0.36165 0.553828 0.622718 -0.738244 0.259264
-1.98522 2.02535 -0.0284034 0.0265737 -0.996644 -0.077422
1.05422 2.30283 -1.135 0.587029 0.429301 -0.686366
-1.83135 0.50942 0.31918 -0.777817 -0.599861 0.187528
1.24244 1.02373 -1.56325 0.649062 0.0528325 -0.758898
0.0205175 2.53045 -0.948059 0.01216 0.987855 -0.154904
-0.677171 2.53122 -0.66329 -0.117609 0.987953 -0.100587
0.245532 0.530587 -1.85535 0.0626399 -0.59942 -0.79798
-0.337989 1.82159 1.72969 -0.215774 0.390464 0.894975
0.258573 0.00291109 -0.339355 0.0128318 -0.999805 -0.015003
-1.29408 2.15071 -0.978303 -0.688543 0.423222 -0.588891
-1.27268 1.6458 -1.32787 -0.605318 0.364258 -0.707747
-0.963486 0.0196301 -0.122827 -0.0677133 -0.997691 -0.00531527
-0.483888 0.00427278 -0.0983221 -0.0192492 -0.999804 -0.00464094
-2.42371 1.17387 0.136725 0.694911 0.66849 0.264991
0.982972 2.00772 -1.37229 0.477747 0.410611 -0.776631
-0.661538 0.0131863 -0.496539 -0.0299047 -0.999225 -0.0255766
-2.92724 1.63847 -0.174193 -0.777685 -0.187402 -0.600072
-1.96381 1.17482 0.111075 -0.986408 0.144926 0.0774301
-1.36785 1.54905 1.27923 -0.717934 0.327937 0.614026
-1.10917 2.48797 -0.315717 -0.253507 0.965401 -0.0611188
-1.5303 0.819394 1.2775 -0.755467 -0.108568 0.646129
0.825781 0.0181571 -0.47296 0.0335354 -0.999225 -0.0206293
-1.11261 0.0881094 0.934422 -0.387845 -0.859967 0.331712
-1.81337 0.970117 -0.835357 -0.921898 0.0527449 -0.383825
1.27858 0.0463296 0.011382 0.11066 -0.99382 0.00868671
-1.22959 2.10573 1.08603 -0.688543 0.423222 0.58889
-2.1641 0.967649 -0.129609 0.5449 0.80244 -0.243257
-0.666809 0.423067 1.65623 -0.2803 -0.684232 0.673245
0.871168 0.0153608 0.109608 0.0393914 -0.999219 0.00309209
0.741379 2.56209 0.0421765 0.148905 0.988783 0.0116889
-1.51537 0.308039 -0.690988 -0.591871 -0.767441 -0.246421
-1.49014 0.212924 -0.425343 -0.674352 -0.72029 -0.16258
0.952507 1.25686 1.70959 0.511036 0.220666 0.830752
2.562 1.98243 -0.232671 -0.39463 0.332061 -0.856739
1.53635 0.304321 -0.629019 0.591874 -0.767438 -0.246422
-1.63323 1.94696 0.509359 -0.886773 0.409787 0.213796
-0.383712 0.832118 1.95324 -0.233001 -0.10825 0.966433
-0.122486 0.911137 1.9898 -0.0781493 0.0526198 0.995552
3.01058 2.23485 -0.10814 0.68835 -0.544471 -0.479298
1.12582 0.780616 -1.64141 0.520859 -0.108508 -0.846718
-1.6453 2.08257 -0.0517537 -0.909559 0.409397 -0.0713981
-0.716591 0.190964 1.35455 -0.362992 -0.721132 0.590089
-0.00233051 2.58503 -0.599933 -0.0128871 0.986348 -0.164169
0.150385 2.48667 -1.37311 -0.0649244 0.558341 0.827067
2.62825 1.27926 -0.00736036 0.938671 -0.334345 -0.0843234
1.04219 0.475577 1.51234 0.418852 -0.600786 0.680896
0.823895 0.402798 -1.5691 0.381909 -0.684618 -0.620841
-1.0325 2.47756 -1.01735 -0.525107 0.722885 -0.44911
0.703953 0.989678 -1.86696 0.383823 0.05275 -0.921899
-1.004 2.51643 -0.210007 -0.181357 0.982445 -0.0437241
-2.85207 1.8463 -0.2232 -0.198578 0.0292014 -0.97965
-0.0938995 2.28954 1.54508 -0.0707336 0.427855 0.901075
1.43514 2.46583 -0.250369 0.67276 0.721863 -0.162196
0.370442 2.04737 -1.62032 0.213798 0.409787 -0.886772
-0.861368 0.220758 1.3033 -0.334304 -0.770001 0.543452
0.334381 3.02329 -0.109346 0.825483 -0.528672 -0.197695
-0.228603 2.62146 0.342109 -0.10739 0.97877 0.174577
1.21599 0.0404674 -0.13802 0.11066 -0.99382 -0.00868669
-2.46236 0.964576 0.162913 -0.549114 -0.663173 0.5086
-0.8208 2.51911 -0.600189 -0.158527 0.982527 -0.0975177
1.50791 0.181255 -0.132923 0.691953 -0.719896 -0.0543163
1.99853 1.0159 0.47751 0.0607646 -0.162668 0.984808
-0.860483 0.028248 0.68823 -0.0514061 -0.99771 0.0439664
0.0401033 0.0533833 1.31682 0.0141189 -0.983591 0.179861
0.11818 2.06315 1.64883 0.0713982 0.409395 0.909559
1.56957 2.14478 0.390087 0.881256 0.422191 0.212468
-1.63915 0.390094 0.627349 -0.673245 -0.684232 0.2803
1.02906 2.49234 -0.488076 0.240437 0.965489 -0.100104
1.78489 1.40774 0.691213 0.88615 0.280392 0.368941
1.18152 0.55006 -1.47808 0.519488 -0.601005 -0.607393
-1.87467 1.50159 -0.137499 -0.942217 0.326735 -0.073961
-0.21705 0.0225271 -0.990584 -0.0159013 -0.997696 -0.065954
0.487261 0.00740519 -0.435804 0.015003 -0.999805 -0.0128318
1.2473 0.381177 -1.2315 0.512164 -0.738789 -0.43804
-1.24016 0.103645 0.805281 -0.434871 -0.859841 0.267509
0.0423138 0.477728 1.83159 0.0626398 -0.599421 0.797979
1.47 1.79811 -0.997986 0.783845 0.391262 -0.482183
1.64746 1.78811 -0.667149 0.849724 0.390912 -0.353775
-1.12809 2.47018 -0.446009 -0.400607 0.900941 -0.166791
-0.330932 0.66554 -1.92328 -0.222641 -0.312529 -0.923448
1.98258 1.0578 -0.0909116 0.986407 0.144932 -0.0774327
-1.76546 0.511491 -0.596762 -0.73828 -0.600383 -0.307379
-0.854588 0.771793 1.79424 -0.382094 -0.108393 0.917745
-1.21502 2.4586 0.230717 -0.422316 0.900712 0.101818
-1.85651 1.53352 0.227797 -0.942218 0.326735 0.0739607
0.583212 0.452027 -1.72047 0.2803 -0.684232 -0.673245
-1.04867 2.51152 0.0569813 -0.186188 0.982405 0.0146159
1.63339 1.84121 0.642259 0.849724 0.390912 0.353774
-1.94444 0.995651 0.430232 -0.970796 0.0526792 0.234053
-1.17762 2.21373 -1.06918 -0.688543 0.423222 -0.588891
0.790194 2.28882 1.33787 0.473262 0.429103 0.769346
-0.82446 0.53738 -1.69171 -0.30738 -0.60038 -0.738283
1.30731 1.90019 1.13703 0.699315 0.39145 0.598101
1.14339 2.23001 1.0975 0.688543 0.423222 0.588891
-0.523108 0.0109744 -0.564907 -0.0255765 -0.999225 -0.0299046
-0.340167 2.07231 1.6161 -0.213798 0.409787 0.886772
-0.257533 2.47115 1.18179 -0.101818 0.900712 0.422316
0.387317 2.56774 0.59247 0.0779869 0.988861 0.126778
-0.327724 2.38348 1.46906 -0.211798 0.428257 0.878486
-0.561217 2.56972 -0.41277 -0.113053 0.988873 -0.0966919
1.32971 0.225489 0.829327 0.543452 -0.770001 0.334304
-1.89878 0.754066 -0.556821 -0.923449 -0.312529 -0.222639
1.35916 0.282928 -0.913378 0.545731 -0.767775 -0.335707
0.369428 0.0119821 -0.70548 0.0206292 -0.999225 -0.0335352
2.00429 1.35681 -0.33923 -0.206732 0.72595 -0.655941
1.95636 1.16832 0.218049 0.986407 0.144932 0.07743
-1.50837 0.51779 1.10876 -0.607393 -0.601005 0.519487
-0.993174 2.46413 0.726784 -0.369295 0.901119 0.22717
0.119758 1.51314 -1.87206 0.073961 0.326735 -0.942217
-0.713818 2.41855 -1.07435 -0.444739 0.528696 -0.722972
-1.4713 2.41566 -0.247993 -0.850313 0.484707 -0.205006
0.929157 0.54526 1.64336 0.41885 -0.600789 0.680895
1.91375 0.977753 0.561552 0.970796 0.0526792 0.234053
0.552895 0.00664784 -0.270014 0.0182551 -0.999804 -0.00760046
1.64116 1.03292 1.13769 0.850559 0.0528003 0.523223
0.0517792 0.016056 -0.893341 0.00309209 -0.999219 -0.0393914
1.00458 2.44272 -1.08355 0.519299 0.601386 -0.607177
1.36362 2.46413 0.517005 0.638433 0.722322 0.26581
-2.06419 2.1538 0.219398 -0.00861935 0.260812 0.965351
-0.97922 0.0214773 0.198316 -0.065954 -0.997696 0.0159013
1.86992 1.53509 0.0499365 0.942217 0.326735 0.0739609
-1.01745 0.0528946 -0.839201 -0.136561 -0.983722 -0.116797
0.179185 0.189883 1.51326 0.0543185 -0.719891 0.691959
0.0373664 0.699475 -1.95927 0.0743464 -0.312208 -0.9471
1.48992 0.182605 0.291927 0.674346 -0.720295 0.162581
1.05031 2.46856 -0.616342 0.369295 0.901119 -0.22717
-1.74532 0.941073 0.977639 -0.850559 0.0528003 0.523222
-2.28481 0.868051 -0.195642 -0.328732 -0.56048 -0.76013
1.84341 0.97868 -0.762028 0.921899 0.0527449 -0.383823
-1.37248 2.47446 0.11441 0.992702 0.0920293 -0.0779257
-0.655274 0.00747189 -0.0123885 -0.0197627 -0.999803 -0.0015513
2.84683 2.22409 0.198039 0.114567 0.052942 0.992004
-2.7475 2.00296 0.224376 0.14285 -0.166675 0.975609
2.244 1.44582 0.34348 -0.378367 0.681401 0.626523
1.64959 2.03552 0.266925 0.909559 0.409395 0.071399
-0.149917 1.51529 -1.86894 -0.073961 0.326735 -0.942217
0.142527 0.00355442 -0.435918 0.00464089 -0.999804 -0.0192492
-2.10188 0.698247 -0.00234525 -0.435456 -0.896687 -0.0795691
1.50288 0.973973 -1.31707 0.758899 0.0528285 -0.649063
0.0269111 0.00375307 0.465997 0.00155135 -0.999803 0.0197627
-1.8334 1.3276 -0.635597 -0.88615 0.280391 -0.368942
-0.24134 1.15131 -1.95704 -0.0774301 0.144926 -0.986408
-0.924882 2.51267 0.49592 -0.158527 0.982527 0.0975179
0.134716 1.87351 -1.73148 0.0720582 0.390083 -0.917956
2.7361 2.39348 0.0982918 -0.571693 0.653147 0.496555
-1.26494 0.321283 1.10985 -0.512164 -0.73879 0.438039
0.147429 3.0048 -0.30664 0.324829 -0.529389 -0.78373
-0.174736 3.14162 0.0766973 -0.0405464 0.999036 0.0167991
0.472039 1.12357 -1.91908 0.231899 0.145089 -0.961859
-1.21158 1.532 -1.4335 -0.614027 0.327939 -0.717932
1.39431 0.634797 -1.3518 0.667017 -0.479209 -0.570479
-1.7048 0.5565 0.828883 -0.810581 -0.478607 0.337481
1.36702 0.794955 1.45021 0.646129 -0.108568 0.755467
-1.16031 0.830105 -1.62654 -0.520859 -0.108508 -0.846718
-0.487912 2.14858 -1.54416 -0.212464 0.422191 -0.881257
1.01155 1.21509 -1.68437 0.511035 0.220669 -0.830751
-1.52357 1.91495 -0.816074 -0.783845 0.391262 -0.482184
1.70683 1.60549 0.709398 0.872282 0.327466 0.363166
1.72727 1.41851 0.0671982 -0.0804538 0.988488 0.128137
0.904493 2.41533 1.06253 -0.603983 -0.369462 -0.706188
-1.86361 1.15763 -0.659452 -0.913387 0.145284 -0.380285
-1.51989 2.26919 0.348007 -0.878486 0.428258 0.211796
1.47646 1.33878 1.25342 0.729381 0.280813 0.623817
-0.802287 0.0457837 0.992751 -0.0718542 -0.993871 0.0840129
-0.27893 1.31963 1.91817 -0.0763432 0.219922 0.972526
-0.926177 2.37853 -1.19716 -0.587029 0.429301 -0.686366
1.78718 1.67132 0.35639 0.905714 0.363319 0.218362
-0.860176 1.68986 1.60539 -0.487993 0.364078 0.79329
-0.187818 0.0367874 1.17904 -0.00868683 -0.99382 0.11066
0.211222 2.95963 0.222704 0.485783 -0.663959 0.568484
-0.814293 0.0158624 0.36487 -0.0363863 -0.999223 0.0151491
2.84132 1.93235 0.0168052 0.887108 -0.440371 0.138249
-1.0299 0.0414818 -0.685811 -0.0942128 -0.993864 -0.0579546
-2.86382 2.07291 -0.105041 -0.667985 0.663897 -0.33621
-0.220978 0.378387 -1.7261 -0.052859 -0.737405 -0.673379
0.524361 2.55631 0.583054 0.0966915 0.988873 0.113053
1.32619 1.67315 1.25818 0.707749 0.364258 0.605316
1.09608 2.15005 -1.19376 0.58889 0.423223 -0.688543
-0.741765 2.39045 -1.31098 -0.473263 0.429104 -0.769346
2.07371 0.70268 0.00389975 0.482344 -0.868659 0.113028
-1.01419 0.028359 -0.428842 -0.0625478 -0.997702 -0.0260415
-1.3436 0.541883 -1.32929 -0.607394 -0.601003 -0.519488
1.41552 2.49463 0.0472724 0.229804 0.97307 0.0180392
-1.10579 0.263972 -1.17861 -0.416311 -0.767952 -0.48676
-0.13618 2.50652 1.0688 -0.0146159 0.982405 0.186188
-1.85483 0.998688 0.731851 -0.921899 0.0527449 0.383823
-0.175429 2.79221 0.0149688 -0.975152 -0.207998 0.0762569
-0.633152 0.697112 -1.85981 -0.365058 -0.312913 -0.876823
-1.64078 1.0147 -1.14014 -0.850559 0.0528003 -0.523223
1.86011 1.36313 -0.493161 0.933249 0.280039 -0.225
1.26318 0.0618378 -0.518446 0.166152 -0.983671 -0.0691758
2.49285 1.12572 -0.27109 0.764421 -0.370759 -0.527445
0.960275 0.737509 1.72887 0.497588 -0.313216 0.808889
0.833039 0.027697 0.707813 0.0514059 -0.99771 0.0439663
-0.464428 0.00465082 0.219799 -0.0182551 -0.999804 0.00760046
0.0929709 3.03295 0.344493 0.197695 -0.528672 0.825483
2.26873 1.16148 -0.446251 0.284206 -0.0920719 -0.954332
-0.640703 1.00689 1.89231 -0.383823 0.05275 0.921899
0.933287 1.67524 -1.56712 0.487995 0.364076 -0.79329
-1.6378 2.00859 0.372286 -0.886773 0.409787 0.213796
-2.35991 2.22603 0.0476169 -0.0842541 0.993337 0.0786321
1.54824 0.395378 -0.844499 0.620841 -0.684618 -0.38191
2.38551 1.33364 0.419033 0.0328769 0.241164 0.969927
0.67294 0.576096 1.7813 0.337481 -0.478607 0.810581
1.57172 0.275846 0.40913 0.623757 -0.767015 0.150385
-0.540648 2.41157 1.39184 -0.336084 0.485209 0.807229
1.70356 0.92331 0.480323 0.0590154 -0.159792 0.985385
0.422234 0.147944 -1.43789 0.231546 -0.155004 -0.960396
0.285192 2.23975 -1.54936 0.212463 0.422197 -0.881254
-0.978906 2.4793 -0.674545 -0.221612 0.965559 -0.136323
1.58131 0.420208 0.835259 0.620841 -0.684618 0.381909
-1.77067 1.80201 -0.0225477 -0.917956 0.390083 -0.0720582
1.07058 0.0272906 0.18413 0.0659541 -0.997696 0.0159009
1.74622 1.84549 0.098602 0.917956 0.390083 0.0720582
-1.28902 1.29079 -1.46166 -0.633931 0.220786 -0.741205
0.256629 1.03814 1.97246 0.0774327 0.144932 0.986407
2.16113 0.836191 0.307033 0.396043 -0.666888 0.631197
-1.50886 0.195912 -0.272303 -0.674352 -0.72029 -0.16258
-0.198865 2.4538 1.4509 -0.0626189 0.599799 0.797697
1.1399 2.35394 -1.01112 0.686366 0.429301 -0.587029
-0.535782 2.57441 0.396069 -0.124644 0.986458 0.106605
1.97254 0.792929 0.201013 0.991088 -0.108128 0.0777995
0.313993 0.00777987 0.595995 0.0103499 -0.999805 0.0168246
1.97954 0.859351 -0.204116 0.991088 -0.108128 -0.0777989
-1.55308 1.76055 0.892466 -0.793291 0.364076 0.487994
1.31503 2.47377 -0.60753 0.638435 0.722321 -0.265807
-0.492977 0.987427 -1.92976 -0.234053 0.0526792 -0.970796
1.88674 1.42544 -0.288341 0.957131 0.279743 -0.0751316
-2.57888 1.41574 -0.0204674 0.855341 0.509981 -0.0911655
-1.66309 2.19997 0.190078 -0.000994946 0.662025 0.749481
-2.94196 1.60725 0.145378 -0.779395 -0.187814 0.59772
-0.0860734 0.00666001 -0.608417 -0.0015513 -0.999803 -0.0197627
1.13534 1.21016 -1.60953 0.511035 0.220669 -0.830751
-1.49128 0.372511 0.89256 -0.574199 -0.738601 0.353218
-1.72188 1.06949 -0.996967 -0.84269 0.14544 -0.518382
0.916549 2.45583 -0.843325 0.329342 0.901216 -0.281679
-0.375488 2.62109 0.171332 -0.18941 0.978726 0.0788596
-1.14854 0.0371248 -0.332657 -0.107786 -0.993834 -0.0259862
0.724923 0.00935644 0.0323323 0.0393914 -0.999219 0.00309208
0.0863867 0.448185 -1.80312 0.0571369 -0.683323 -0.727877
0.275035 2.59954 -0.436407 0.107392 0.97877 -0.174577
0.838099 1.55148 1.67352 0.363166 0.327463 0.872283
-0.876664 2.5388 0.181112 -0.150883 0.987882 0.036377
-2.29874 1.06266 -0.131089 0.61739 0.737088 -0.274829
1.59881 0.502077 -0.93963 0.680896 -0.600786 -0.418852
-0.984834 2.32982 1.17746 -0.587029 0.429301 0.686366
-0.869108 1.14603 -1.77817 -0.380284 0.145294 -0.913386
-0.812097 1.98276 -1.4906 -0.477747 0.410613 -0.776631
-0.307891 2.6302 -0.217272 -0.24504 0.957724 -0.150734
-1.44126 0.734277 1.35459 -0.72168 -0.313372 0.617232
-2.57032 1.95743 -0.0110866 0.334205 -0.939165 -0.079216
0.679559 0.365899 -1.5897 0.259264 -0.738244 -0.622718
1.1558 1.75187 1.37324 0.605318 0.364258 0.707747
-1.8567 2.03422 -0.0945022 0.00847982 -0.965429 -0.260527
-2.12258 2.23691 0.0812363 -0.0364327 0.964909 0.260045
1.64829 0.30895 0.233177 0.640096 -0.76665 0.0502468
-1.98077 0.983535 0.188778 -0.995552 0.0526198 0.0781506
-0.834594 0.880396 -1.81539 -0.382096 -0.108393 -0.917744
-1.24799 1.56544 1.38707 -0.614027 0.327937 0.717933
-0.367081 2.49609 -1.06437 -0.100104 0.965489 -0.240436
-1.75261 1.81402 -0.187583 -0.917956 0.390083 -0.0720584
0.263476 2.14718 1.59858 0.070956 0.421798 0.903909
-2.76588 2.14516 0.0417774 -0.473214 0.875962 0.0935891
0.879049 2.52215 -0.474839 0.158527 0.982527 -0.0975179
1.2612 2.34527 -0.863649 0.769346 0.429104 -0.473263
-1.73421 1.64758 0.602735 -0.859946 0.363742 0.358029
1.30938 0.133633 -0.730784 0.841404 -0.155371 -0.51759
1.68456 0.808961 -1.06159 0.846718 -0.108506 -0.520859
2.27187 1.53195 -0.269097 -0.693249 0.636222 -0.338566
1.87337 1.40993 0.379928 0.933248 0.280039 0.225002
-0.14746 2.95868 -0.267897 -0.391256 -0.663625 -0.637589
-1.05177 0.0945393 -1.02223 -0.38785 -0.859963 -0.331716
-0.434095 0.486385 -1.78588 -0.187528 -0.599861 -0.777817
1.53373 1.41825 -1.15068 0.729381 0.280812 -0.623818
-0.230634 1.81649 -1.74818 -0.0720582 0.390083 -0.917956
-1.6179 0.768403 1.16012 -0.808889 -0.313215 0.497589
-0.851805 2.15646 -1.37296 -0.474762 0.423029 -0.771782
2.38134 1.34155 -0.417511 0.0564905 0.226217 -0.972437
-0.559964 2.59098 0.0560527 -0.16417 0.986348 0.0128864
1.82588 1.66254 0.0252385 0.928949 0.362954 0.0729214
1.14553 0.0669977 -0.790884 0.254659 -0.954258 -0.156653
2.65306 1.43689 0.184154 0.904482 -0.301827 0.301352
1.75248 1.5443 -0.654914 0.872282 0.327466 -0.363167
-0.284911 0.00624354 0.522589 -0.0103495 -0.999805 0.0168248
-1.84762 1.17419 0.691528 -0.913386 0.145294 0.380284
1.39169 2.13746 -0.838299 0.771782 0.423029 -0.474762
1.15988 2.47332 0.329211 0.422316 0.900712 0.101818
1.57594 0.864268 -1.23166 0.755467 -0.108568 -0.646129
-1.71516 0.723602 -0.973805 -0.808889 -0.313216 -0.497589
0.405502 0.00315291 -0.164288 0.0182551 -0.999804 -0.00760018
1.04461 0.0386494 0.613314 0.0942127 -0.993864 0.0579546
-2.52423 2.11966 0.218312 -0.0386447 0.256585 0.965749
2.65918 2.14221 -0.210598 -0.352768 0.330182 -0.875519
-2.56289 1.02418 -0.120035 -0.603022 -0.740617 -0.296399
1.37763 2.48726 -0.0978815 -0.827067 0.558341 0.0649235
-1.42645 2.23024 -0.683538 -0.83667 0.42266 -0.348341
1.58651 2.20671 0.063451 0.90391 0.421796 0.0709561
1.90127 1.4028 0.187534 0.95713 0.279743 0.0751346
-1.04756 1.90138 -1.38315 -0.598104 0.39145 -0.699313
1.40286 1.66561 -1.17307 0.707751 0.364254 -0.605317
-1.51846 0.652324 -1.22136 -0.667019 -0.479204 -0.570481
0.0773092 2.55494 0.786142 0.0116887 0.988782 0.148905
3.17181 2.33206 0.0649155 0.515742 -0.849771 0.109084
2.59662 2.23583 -0.10987 -0.738799 0.526876 -0.420212
-1.51068 1.63507 -1.05501 -0.79329 0.364076 -0.487995
-1.8615 0.548921 -0.320499 -0.777818 -0.599861 -0.187527
-1.41263 2.42914 -0.459489 -0.850311 0.48471 -0.205005
0.354863 0.0351733 -1.12519 0.0259862 -0.993834 -0.107786
0.231309 2.87771 -0.0179879 0.742447 -0.667396 -0.0579263
-1.00212 0.594276 1.63193 -0.459932 -0.478997 0.74768
-0.282968 2.93767 0.0442191 -0.747409 -0.661811 0.0581911
0.681206 2.51684 -0.767609 0.120907 0.982546 -0.141367
0.252174 3.12915 0.0171762 0.204408 0.978756 0.0159049
1.10125 0.3219 1.27319 0.438039 -0.73879 0.512164
0.758566 2.52993 0.580766 0.117609 0.987953 0.100587
-0.123259 3.08569 -0.330049 -0.227266 0.804694 -0.548469
-1.47866 0.307563 0.775458 -0.545733 -0.767772 0.33571
0.884082 0.576562 -1.69319 0.459933 -0.479003 -0.747675
0.951272 1.57803 1.59841 0.495009 0.327775 0.804692
1.85236 1.54261 -0.240487 0.942218 0.326735 -0.0739607
0.0125204 1.05876 -1.9886 0.07743 0.144932 -0.986407
1.06921 0.0754835 0.931446 0.2271 -0.954306 0.194232
-0.722066 0.3316 -1.53134 -0.259264 -0.738244 -0.622718
1.90216 0.808072 -0.584418 0.966433 -0.108253 -0.233001
-2.45981 2.1259 -0.21913 -0.037515 0.249084 -0.967755
-0.208543 2.04661 1.64918 -0.071399 0.409395 0.909559
1.17063 0.422926 -1.35164 0.47364 -0.684823 -0.553789
-1.00813 2.00188 1.35823 -0.592594 0.410803 0.692873
-1.84358 2.24344 -0.0694511 -0.0122413 0.996943 -0.0771667
1.492 2.25023 -0.501688 0.834033 0.428732 -0.347243
-1.03328 2.16804 -1.2364 -0.58889 0.423222 -0.688543
0.497226 0.79161 -1.92134 0.233002 -0.108253 -0.966432
1.59204 2.11727 -0.351553 0.881253 0.422197 -0.212468
0.415352 0.288852 1.58621 0.150384 -0.767015 0.623757
0.770994 1.01177 1.83779 0.383823 0.0527449 0.921899
-1.10886 2.40823 1.00668 -0.664255 0.485805 0.568118
1.53384 1.8028 0.890381 0.783845 0.391264 0.482183
0.455194 1.59878 1.79142 0.22149 0.327072 0.918676
-0.739456 2.55064 -0.358149 -0.137553 0.988837 -0.057269
-0.679691 0.0109295 -0.360365 -0.0335352 -0.999225 -0.0206292
-1.12288 0.0346574 0.344717 -0.107786 -0.993834 0.0259865
1.96454 1.05595 0.324244 0.986408 0.144926 0.0774328
0.0621522 1.25213 1.95045 0.0763404 0.219922 0.972526
-1.76487 1.72156 0.365346 -0.905713 0.36332 0.218364
0.980311 0.071897 -1.01235 0.194231 -0.954306 -0.227098
-0.158379 1.77924 1.76968 -0.0720584 0.390083 0.917956
0.686259 2.21804 -1.43148 0.348341 0.42266 -0.83667
-1.42411 2.2988 0.604788 -0.834033 0.428732 0.347243
1.33671 1.12207 -1.46526 0.643051 0.145522 -0.75187
-0.451011 1.77034 -1.72465 -0.218362 0.363316 -0.905715
-1.51756 0.219631 0.345557 -0.621148 -0.769252 0.149753
-1.03642 2.50047 0.39193 -0.240437 0.965489 0.100104
1.00893 1.9569 1.38319 0.477746 0.410611 0.776632
2.81283 1.91734 -0.115632 0.838456 -0.391337 -0.379272
-1.12242 0.780462 1.64348 -0.520859 -0.108508 0.846718
0.951208 2.25204 1.25486 0.587029 0.429301 0.686366
-1.00771 0.315488 -1.34376 -0.416313 -0.76795 -0.486761
2.6673 1.65866 -0.254924 0.818709 -0.136407 -0.557771
-0.865752 1.3934 1.71676 -0.368942 0.280391 0.88615
2.71485 2.01617 0.234095 0.172041 0.103276 0.979661
0.706881 2.40881 -1.08574 0.444737 0.528696 -0.722973
0.894957 2.48076 -1.13276 0.449105 0.722891 -0.525103
-2.10883 2.23066 -0.106125 -0.0364112 0.964341 -0.262148
-1.82994 0.73296 -0.73561 -0.876823 -0.312913 -0.365057
1.86457 0.900192 0.721987 0.921898 0.0527449 0.383825
-0.684511 0.17269 -1.3516 -0.34146 -0.459108 -0.820137
1.67269 1.83844 -0.543947 0.894974 0.390465 -0.215774
-1.89655 1.38953 0.297145 -0.957131 0.279743 0.0751316
1.26324 2.375 0.833369 0.769346 0.429103 0.473263
-0.691029 2.52468 0.704734 -0.120907 0.982546 0.141367
1.16331 2.48165 0.186072 0.260249 0.965325 0.0204294
3.28266 2.41833 0.113652 0.394977 -0.852232 0.343066
-2.17074 0.751275 -0.105158 -0.483084 -0.837112 -0.256658
1.42714 0.851099 -1.40343 0.755467 -0.108566 -0.64613
-0.233194 3.09694 -0.244773 -0.385131 0.805301 -0.450736
1.23739 2.20718 1.004 0.688543 0.423222 0.588891
0.359165 2.61042 -0.294152 0.155681 0.978793 -0.133148
