0.260677 -0.223896 0.384014
-0.0329511 -0.0912003 0.356939
0.332306 0.233406 0.397826
0.141568 0.112772 0.384014
0.309179 -0.0784523 0.36399
0.0268998 -0.120632 0.397826
0.0399613 0.0410477 0.397826
0.317428 0.17934 0.397826
0.0100658 -0.0982993 0.360054
-0.312358 -0.27295 0.384014
0.0617618 0.247995 0.384014
-0.215542 -0.262374 0.384014
-0.052949 -0.232122 0.397826
-0.213412 -0.132087 0.397826
-0.0216124 0.0803316 0.384014
-0.281166 0.0928418 0.356346
0.156425 0.079418 0.37005
0.0448526 0.105354 0.397826
-0.317226 -0.0807207 0.373731
0.326823 -0.23031 0.397826
-0.357043 -0.15199 0.384014
0.025209 -0.0767341 0.397826
0.268831 -0.199978 0
-0.0989029 0.209572 0.397826
-0.280488 -0.124041 0.224397
-0.364616 -0.217641 0.397826
-0.130059 0.0797142 0.374264
0.0360487 -0.0720402 0.397826
-0.305515 0.0638956 0.384014
0.196395 -0.121351 0.384014
-0.159193 0.267055 0.397826
0.335341 0.208056 0.397826
-0.0896127 -0.193428 0.384014
-0.183177 0.0253526 0.384014
-0.34661 -0.0687194 0.397826
0.243511 -0.136487 0.397826
-0.259667 0.203878 0.397826
-0.247338 0.158243 0.384014
0.315773 -0.0847406 0.355223
0.226718 0.000953764 0.384014
-0.279794 -0.0973439 0.293344
-0.130177 0.165726 0.397826
0.145452 0.0153459 0.384014
-0.348932 -0.0684184 0.384014
0.288151 -0.133707 0.397826
-0.0839807 0.0397585 0.384014
-0.0386284 0.223445 0.397826
-0.349195 -0.193245 0.384014
-0.24943 -0.163758 0.384014
-0.28303 0.0328059 0.397826
-0.295665 0.139956 0.202536
-0.346442 -0.227066 0.384014
-0.152854 -0.140368 0.384014
-0.0603413 -0.10487 0.397826
0.0740058 0.2284 0.397826
0.237728 0.265232 0.384014
-0.344259 0.14037 0.397826
-0.0446148 0.270065 0.397826
-0.255856 0.274845 0.397762
0.0579953 0.0972495 0.3653
-0.0365873 -0.136457 0.384014
-0.230282 -0.118527 0.397826
0.184498 -0.208025 0.384014
0.295855 0.061568 0.351393
0.343178 0.162554 0.384014
-0.272618 0.0012998 0.397826
0.107956 -0.0952728 0.35547
0.295069 -0.0894113 0.289857
-0.341824 0.195232 0.397826
-0.114233 -0.237881 0.384014
-0.228059 0.093451 0.397826
-0.0823859 -0.272705 0.384014
0.163362 -0.096779 0.361733
0.353917 -0.167955 0.397826
0.36284 -0.239055 0.384014
0.0777937 -0.0631204 0.384014
-0.0310911 0.0998816 0.360335
-0.155069 0.0456098 0.384014
-0.217725 -0.0655125 0.384014
0.175207 0.197028 0.384014
0.327361 -0.168488 0.397826
-0.153463 0.0820614 0.356503
-0.280696 -0.0876014 0.37462
0.101099 -0.21745 0.384014
-0.276518 -0.0843108 0.374272
0.245276 -0.157801 0.384014
-0.196781 0.0944519 0.397826
-0.00309759 -0.0539206 0.397826
0.289107 0.0843652 0.374168
0.0564941 -0.26706 0.384014
0.290699 -0.151391 0.201998
0.13638 0.0964823 0.35666
0.0726925 0.133264 0.384014
-0.17053 0.0630893 0.384014
-0.255148 0.0108271 0.397826
0.256743 -0.0645643 0.397826
0.295151 0.104595 0.262886
0.0995063 -0.276275 0.387244
0.0306889 0.213617 0.384014
-0.141065 -0.0213077 0.397826
0.337377 -0.141405 0.384014
0.189601 -0.192606 0.384014
-0.0686371 -0.079418 0.359132
-0.19143 0.0822977 0.356266
0.217032 -0.0405543 0.397826
-0.323377 0.235027 0.397826
0.0758796 0.093992 0.384014
-0.177514 0.0976855 0.373692
-0.248741 -0.201491 0.384014
-0.0643448 0.162591 0.397826
-0.344479 0.0754897 0.397826
0.285306 0.210728 0
-0.0242691 -0.242928 0.384014
0.289959 0.0746758 0.308281
-0.350829 -0.0259755 0.397826
0.13676 0.203151 0.384014
0.0217143 0.162003 0.397826
-0.206654 0.131143 0.384014
0.158355 0.217184 0.397826
-0.297221 0.0307476 0.384014
0.0449724 -0.0203531 0.384014
0.219294 -0.236606 0.384014
0.266514 0.221429 0.397826
0.0905686 -0.0359383 0.384014
0.281051 -0.0513417 0.355547
0.178901 0.130479 0.384014
-0.0495392 0.161565 0.384014
0.292641 0.192494 0.124772
0.197324 -0.084528 0.357885
-0.0757467 0.178604 0.384014
-0.105397 0.0806734 0.366158
0.00412768 0.0840248 0.356452
-0.0931081 0.0917089 0.358043
-0.190186 0.0164979 0.384014
0.078687 0.0785044 0.373054
-0.199254 0.0795784 0.364975
0.128379 -0.17217 0.384014
0.287597 0.178635 0.117759
-0.257554 0.0769308 0.360367
0.27058 0.0791892 0.384014
0.240703 -0.0947869 0.384014
-0.0522881 0.0124658 0.397826
0.0851308 0.0961262 0.357863
-0.201144 0.109148 0.397826
0.0702042 -0.05042 0.384014
0.290913 -0.177041 0
0.329395 -0.0268564 0.397826
0.367437 -0.0266519 0.390487
0.0276662 -0.0136922 0.384014
0.219794 -0.0970697 0.358824
0.135971 -0.134597 0.384014
0.0728694 0.177698 0.397826
0.261992 0.129579 0.384014
0.0530229 0.244592 0.384014
-0.111529 -0.117683 0.397826
0.14534 -0.0770794 0.361556
-0.0136707 0.243834 0.384014
0.197859 0.122837 0.384014
-0.292903 -0.188142 0.384014
0.146689 -0.0809659 0.384014
-0.225557 0.231082 0.384014
0.153197 -0.0972333 0.368474
0.104516 0.0970007 0.374378
-0.217565 0.200663 0.384014
-0.285437 -0.151991 0.167114
-0.304132 0.137912 0.397826
0.0829522 -0.0770035 0.397826
-0.342645 0.0446332 0.384014
-0.0445305 -0.170138 0.397826
-0.201084 0.142649 0.384014
-0.009159 0.160514 0.384014
-0.138398 -0.159662 0.397826
-0.0513737 0.0966174 0.397826
-0.345102 0.255776 0.397826
-0.325262 0.0183309 0.397826
-0.30729 0.0972495 0.368417
-0.107195 0.131733 0.384014
0.286881 0.0529984 0.37241
-0.215678 -0.0963823 0.374979
0.276965 -0.08997 0.37462
0.360461 0.0545704 0.384014
0.0991344 -0.0470063 0.384014
0.284403 0.186862 0.384014
-0.255387 0.276277 0.392879
0.112909 -0.0961383 0.365475
0.297783 0.267239 0.384014
0.293229 0.0523154 0.384014
0.245772 -0.178221 0.397826
-0.203367 0.0812989 0.35571
0.232055 -0.197713 0.384014
0.122732 0.18867 0.384014
-0.00823665 0.0455387 0.384014
-0.296716 -0.0304664 0.37241
-0.299125 -0.0265716 0.358043
0.318425 -0.100318 0.397826
-0.0583958 0.0946292 0.375194
0.285103 -0.232496 0.397826
-0.112001 0.0398084 0.397826
-0.114997 -0.21574 0.384014
-0.0784202 0.0869045 0.356939
-0.000387609 0.0919319 0.375953
-0.121672 -0.0212623 0.397826
0.222756 0.234604 0.397826
0.0578921 0.229179 0.384014
0.173304 0.180159 0.397826
0.202992 0.0138984 0.397826
0.269716 0.0795937 0.374145
-0.14355 0.0699806 0.397826
0.034456 -0.115417 0.384014
-0.24337 0.0921144 0.355103
0.31004 -0.162966 0.384014
-0.0511362 -0.0685032 0.397826
0.0432543 0.092968 0.384014
0.118618 0.087923 0.397826
0.00773362 0.108357 0.37904
0.345943 0.0778278 0.384014
0.187697 0.0297115 0.384014
-0.283273 0.124758 0.384014
-0.150144 0.241091 0.397826
0.0657012 -0.0799034 0.369867
0.362909 0.220177 0.397826
0.317519 -0.0889026 0.397826
-0.160171 -0.0854306 0.358043
0.195189 0.0808897 0.357676
-0.225137 -0.099279 0.384014
-0.348381 -0.0942819 0.397826
0.181472 0.0852271 0.358043
0.136369 0.164933 0.384014
0.155417 0.0171785 0.397826
0.0235581 -0.150991 0.384014
-0.0385462 -0.0878432 0.37462
-0.0537634 0.276019 0.384822
-0.347368 0.221644 0.397826
-0.32591 -0.135354 0.384014
-0.330291 -0.276271 0.38861
0.279062 0.173911 0.00131256
-0.19113 -0.0973508 0.362697
0.358402 0.0815563 0.384014
-0.070164 0.0760698 0.397826
0.236393 -0.161673 0.384014
0.157652 -0.127116 0.397826
-0.267421 0.199187 0.000161999
-0.333203 0.0933248 0.384014
-0.059039 0.0773644 0.371912
-0.0770433 -0.0767702 0.397826
0.120177 0.129124 0.397826
0.0785478 -0.00891638 0.384014
0.196898 0.257826 0.397826
-0.165886 0.114013 0.384014
-0.177329 0.224995 0.384014
-0.227718 -0.262323 0.384014
0.256615 0.192706 0.384014
-0.29168 0.199347 0.111175
-0.109967 -0.216359 0.397826
0.359851 0.267686 0.397826
0.0114211 -0.075514 0.397826
-0.251402 0.171989 0.384014
0.118467 0.25658 0.384014
-0.0513583 -0.0964552 0.384014
0.130417 0.0845315 0.373709
-0.0619527 -0.0961383 0.367273
0.281118 -0.156262 0.397826
-0.192492 0.0998992 0.384014
0.329302 0.275968 0.384771
0.121361 -0.0885019 0.397826
-0.186601 -0.0806569 0.368248
0.287964 0.0761193 0.371445
-0.290674 -0.192668 0.397826
0.281011 -0.199107 0.0076311
-0.119524 0.0972495 0.366255
0.21254 0.0769063 0.371145
-0.141575 -0.222966 0.384014
0.0383566 -0.253251 0.397826
-0.353765 -0.0141542 0.384014
0.115014 -0.19516 0.384014
0.228918 -0.0795045 0.374071
-0.32192 0.135129 0.384014
0.296683 0.0328562 0.384014
-0.0930536 -0.074041 0.384014
0.277921 -0.148857 0.384014
0.223756 -0.0787995 0.373365
0.268588 0.191652 0.384014
-0.117722 0.0946187 0.384014
0.209661 0.104125 0.384014
-0.141205 0.228427 0.397826
0.0622292 0.192581 0.384014
0.278366 -0.0645817 0.359701
0.144289 0.0784701 0.37146
-0.237301 0.198823 0.397826
-0.367323 0.191629 0.384835
-0.0956431 -0.0159649 0.384014
0.0529138 -0.0461725 0.384014
0.34481 -0.15273 0.397826
-0.256792 0.19287 0.384014
0.0558562 0.0980879 0.369122
-0.0169699 0.11107 0.384014
0.12398 -0.0884735 0.373516
-0.288673 0.0762587 0.360203
-0.0649159 0.268525 0.384014
0.331433 -0.22507 0.397826
0.296136 -0.0636201 0.345077
0.232838 -0.238731 0.397826
-0.197054 0.24782 0.397826
-0.00806952 -0.150674 0.397826
-0.0243737 0.0937701 0.37729
0.135561 0.0270445 0.397826
0.197008 -0.0769529 0.384014
0.213088 0.209027 0.384014
-0.366232 -0.171965 0.384014
-0.258131 0.127827 0.397826
0.19812 -0.133629 0.384014
0.189079 0.0518622 0.397826
0.236496 -0.0972333 0.367102
0.305986 0.076898 0.370577
0.272163 0.215625 0.384014
0.292898 0.0779071 0.332785
0.31196 -0.0857876 0.384014
-0.181277 0.0969853 0.372836
0.174209 0.000175506 0.384014
-0.0715431 -0.0988334 0.360745
-0.239054 -0.179878 0.397826
0.262676 0.0999587 0.36086
0.089421 0.0201742 0.397826
0.121113 -0.0804519 0.356538
0.0300264 0.0807458 0.373739
0.00432703 -0.098072 0.369123
-0.356768 -0.194037 0.384014
-0.292179 0.155752 0.397826
-0.255249 -0.266289 0.397826
0.0318627 0.101172 0.384014
-0.291377 0.154121 0.196681
-0.109544 -0.0871476 0.358043
0.237422 0.0181364 0.384014
-0.0742655 0.0961554 0.367935
0.0991452 -0.097856 0.371948
-0.107471 -0.0932438 0.384014
0.0954517 -0.0807203 0.356269
0.367437 0.0122159 0.390085
0.263179 0.103057 0.397826
0.246661 -0.268043 0.384014
0.0450145 0.0946105 0.354786
0.0146711 -0.0995292 0.37183
-0.222394 -0.0961383 0.367318
0.295376 0.120908 0.247117
-0.29545 0.150141 0.193315
0.318931 0.0995731 0.369871
-0.244291 0.0941209 0.375703
-0.0495707 0.210615 0.397826
-0.347364 0.276277 0.39052
-0.0772399 0.258366 0.397826
-0.218024 0.155037 0.384014
-0.283311 -0.200922 0.00767826
0.199611 0.0580098 0.397826
-0.0214758 0.170476 0.397826
0.0309407 -0.0219346 0.397826
-0.0577007 -0.276274 0.395164
-0.146319 0.0975634 0.357742
0.259691 -0.0712698 0.362531
0.279412 0.0580384 0.37241
-0.321162 0.0460669 0.384014
-0.32982 0.271698 0.397826
0.268657 0.149248 0.397826
0.281492 -0.00836165 0.358043
0.27057 -0.11872 0.384014
-0.313913 -0.192212 0.384014
0.291564 -0.159745 0.154315
0.219954 0.0956755 0.355852
-0.120136 -0.0870541 0.373516
0.158176 -0.0841395 0.356814
-0.130257 0.116765 0.397826
-0.0441039 -0.0237981 0.384014
-0.0513363 0.0768532 0.36079
-0.125979 -0.0795619 0.366522
-0.363584 -0.261803 0.384014
-0.308275 0.0956588 0.374164
-0.0609639 0.079405 0.362677
-0.274334 -0.0148582 0.36441
0.14164 -0.193951 0.384014
0.279037 -0.0809286 0.384014
0.0431182 0.170076 0.397826
-0.067533 -0.102596 0.397826
0.0819772 -0.23716 0.384014
-0.312629 0.105579 0.384014
-0.157503 0.203099 0.397826
-0.209851 0.11582 0.397826
-0.230663 -0.13296 0.397826
0.0612609 0.03622 0.397826
-0.313004 0.13935 0.397826
0.202456 0.103122 0.397826
0.124746 -0.089811 0.397826
0.218375 -0.0704197 0.384014
-0.133498 0.268834 0.384014
0.0422323 -0.0748226 0.384014
-0.207381 -0.0921853 0.397826
0.102594 0.0481189 0.384014
0.234784 0.276277 0.393173
-0.227157 -0.276272 0.386431
0.173245 -0.250336 0.384014
0.229314 0.0472053 0.384014
-0.277444 0.17665 0.00356401
-0.116536 0.112748 0.384014
0.148811 0.12789 0.384014
-0.079491 0.257372 0.397826
-0.265945 0.113825 0.397826
0.0741166 0.174421 0.384014
0.184615 -0.102832 0.397826
-0.191871 0.115464 0.384014
0.200988 -0.0787105 0.370301
0.284619 -0.095618 0.357371
0.279895 -0.0838113 0.355909
-0.270151 0.0795784 0.366822
-0.171919 -0.016752 0.397826
0.132511 -0.0802461 0.374813
0.292595 -0.0547465 0.37241
-0.03956 0.166532 0.384014
0.0875467 -0.276275 0.393835
0.0336272 -0.185828 0.397826
-0.266315 -0.00708744 0.397826
0.0401202 -0.0866452 0.397826
-0.0416368 -0.241298 0.384014
0.244075 0.0302428 0.384014
-0.264454 -0.0873714 0.358043
0.181338 0.085558 0.397826
0.0596187 -0.165753 0.384014
-0.152864 0.166458 0.397826
-0.106253 0.16125 0.397826
-0.28524 0.127304 0.212184
-0.0134424 -0.0972333 0.367284
0.134614 0.23914 0.384014
0.0762674 0.0772119 0.359806
0.295537 0.0888225 0.304262
0.120309 -0.268859 0.397826
0.352202 -0.0794906 0.397826
0.27771 0.204325 0.397826
0.289595 0.189317 0.020437
0.339905 0.239368 0.384014
0.287451 -0.149434 0.384014
-0.0277315 -0.182955 0.397826
-0.086233 -0.0963624 0.35656
-0.290512 -0.0983033 0.358501
0.0136479 -0.00313726 0.384014
-0.273021 -0.0810049 0.375571
-0.0682613 0.0837487 0.355691
-0.0284028 0.223866 0.397826
0.289901 0.260667 0.384014
-0.0473312 -0.265572 0.384014
-0.366548 0.161051 0.397826
-0.332133 0.276216 0.385458
0.362473 0.00514746 0.384014
0.199257 -0.0928752 0.356209
-0.344012 0.0954776 0.384014
-0.00536951 0.0777694 0.372318
-0.288798 -0.213443 0.384014
-0.0909052 -0.104094 0.397826
-0.132275 -0.11444 0.397826
0.282229 0.121979 0.224573
-0.292372 -0.057281 0.384014
-0.0562114 0.158297 0.384014
0.237132 -0.0525117 0.384014
0.217782 -0.185759 0.397826
-0.00606859 -0.0841755 0.377106
0.292539 0.189945 0.068098
-0.217137 -0.0832413 0.354186
-0.0835259 0.0807673 0.397826
-0.229997 0.204979 0.397826
0.323512 0.0854768 0.397826
-0.28006 0.116066 0.239829
-0.335287 0.155838 0.397826
-0.295732 0.102129 0.27852
-0.292146 0.0719797 0.397826
0.135279 0.0981882 0.369159
0.0343582 0.200813 0.384014
-0.0490467 0.027253 0.397826
-0.0306518 0.0961554 0.368253
0.285459 0.111303 0.275831
0.168128 0.0849745 0.375738
0.295959 0.0953058 0.289184
0.253007 0.0383883 0.397826
-0.310274 -0.156114 0.384014
0.0250235 0.00386149 0.397826
-0.307463 -0.0591308 0.36901
-0.274334 -0.0156723 0.359983
0.280331 -0.0840137 0.356467
0.343712 0.198035 0.384014
-0.0792114 -0.0806569 0.362788
0.281397 -0.0792626 0.384014
-0.305553 0.199635 0.00377434
-0.0193111 -0.0992958 0.359493
0.272791 0.182353 0.384014
-0.290646 0.199481 0.0676783
-0.0896422 0.138469 0.384014
0.353351 -0.0799865 0.384014
0.259908 0.028761 0.397826
-0.0184869 -0.0770051 0.370061
0.149184 -0.160246 0.384014
0.278869 -0.200432 0.397826
-0.364593 -0.236973 0.397826
0.283933 0.0433579 0.384014
-0.207151 -0.00278878 0.397826
-0.345103 -0.0489072 0.397826
0.0972308 0.0714166 0.397826
0.200423 0.0825467 0.384014
-0.291665 0.14039 0.18963
-0.126037 0.0988415 0.360783
-0.128842 -0.078246 0.371254
-0.13479 -0.0806569 0.366707
-0.196011 -0.0816706 0.356877
-0.04863 0.266659 0.397826
0.21181 0.207116 0.384014
-0.105267 0.113216 0.397826
0.315755 0.262854 0.397826
0.240852 -0.0961383 0.362472
0.173805 -0.0801884 0.373198
0.0958499 0.112063 0.384014
-0.240608 -0.038305 0.384014
0.0736697 0.0595253 0.397826
0.045015 0.0841141 0.356699
-0.356593 0.12458 0.397826
-0.2929 -0.0682338 0.384014
-0.143216 0.0570679 0.397826
-0.271802 0.0972228 0.374155
0.035014 -0.130973 0.384014
-0.308857 0.139875 0.384014
0.233362 -0.1514 0.384014
-0.256784 -0.254788 0.397826
-0.335829 0.119587 0.384014
0.318454 -0.0397519 0.397826
0.289613 -0.198962 0.114595
-0.10234 0.0970788 0.369929
-0.284357 0.18579 0.0886527
0.0241806 0.105662 0.384014
-0.317931 0.192267 0.384014
-0.0193089 -0.0993419 0.361861
-0.251823 -0.0773834 0.397826
-0.332344 -0.114473 0.384014
0.0768799 -0.145201 0.397826
-0.152914 0.245666 0.384014
0.24691 -0.16959 0.397826
-0.28403 -0.0397513 0.397826
0.253714 -0.0806569 0.363856
0.00789195 -0.15379 0.384014
0.0582574 0.135434 0.384014
-0.314547 -0.0381934 0.397826
-0.220307 -0.195201 0.384014
0.0561871 -0.16076 0.397826
0.294977 0.0709945 0.32269
0.360839 -0.0423981 0.384014
0.0112568 -0.0976813 0.362577
-0.118089 -0.250867 0.384014
0.116985 -0.127482 0.397826
-0.207227 0.190692 0.384014
0.187303 0.224551 0.397826
0.23931 0.26177 0.384014
-0.0611031 -0.088932 0.397826
-0.262972 -0.099688 0.384014
0.294847 0.0298278 0.358043
0.0854817 -0.149387 0.397826
0.179073 0.0928877 0.377221
0.217869 0.151956 0.397826
-0.0677313 -0.08525 0.374934
-0.101777 -0.169176 0.397826
-0.197685 0.0807519 0.375302
-0.264033 0.146683 0.397826
0.341272 0.0200136 0.384014
-0.175423 0.0792275 0.36144
-0.311717 -0.19196 0.397826
-0.0154191 -0.143777 0.384014
0.308669 0.232129 0.397826
-0.150352 -0.165503 0.384014
-0.192675 0.124386 0.384014
-0.0743256 -0.27107 0.397826
0.0043973 -0.0837371 0.355705
-0.182694 -0.0814103 0.397826
-0.274105 -0.120037 0.397826
0.168286 -0.124673 0.384014
-0.09738 -0.0935355 0.355391
-0.0475678 -0.099792 0.360188
0.142371 -0.132553 0.397826
-0.0956583 -0.00695732 0.397826
-0.299064 -0.186588 0
-0.149774 -0.080778 0.373788
0.18291 -0.16372 0.397826
0.0894116 0.0959705 0.375409
0.292293 0.147368 0.384014
0.124663 0.0981825 0.362402
-0.282298 -0.127243 0.397826
-0.0974042 -0.0962303 0.369626
-0.0286057 -0.016063 0.384014
-0.360564 -0.216482 0.384014
0.1103 -0.114267 0.384014
-0.153297 0.211856 0.397826
-0.179444 -0.276273 0.388684
0.162146 0.0932736 0.376128
0.0380429 -0.075253 0.384014
-0.367437 -0.239347 0.386051
-0.00503168 -0.26903 0.384014
-0.0976425 -0.00537795 0.397826
0.0897132 0.129108 0.384014
-0.349156 0.125639 0.397826
0.238228 -0.0421269 0.384014
-0.160699 -0.0787513 0.369112
0.303205 -0.21756 0.397826
-0.342242 -0.19641 0.384014
0.140773 -0.209804 0.397826
-0.196866 0.0900004 0.384014
-0.188888 -0.228208 0.384014
0.317073 -0.050398 0.397826
-0.193856 -0.276272 0.390894
-0.276436 0.151511 0.397826
0.168608 -0.0886719 0.397826
-0.1513 -0.171854 0.397826
0.0166323 0.103695 0.397826
-0.04489 -0.0789951 0.372004
-0.0475691 0.086073 0.397826
-0.287211 -0.199088 0.115744
-0.070477 -0.147577 0.384014
0.0235381 0.0879007 0.37462
-0.042115 -0.10993 0.384014
0.0548729 0.0790389 0.369014
-0.271837 -0.0577776 0.397826
-0.131972 -0.0752818 0.397826
-0.0385882 0.258766 0.397826
0.308079 0.122382 0.397826
-0.26431 0.0450422 0.397826
-0.00942862 -0.103997 0.384014
0.29593 -0.110499 0.258153
0.309915 0.109845 0.384014
-0.367437 0.223575 0.386146
0.287938 0.15854 0.154522
-0.11703 0.268401 0.397826
-0.292185 0.192741 0.0237059
0.110294 0.0990517 0.359232
-0.201259 0.0794239 0.372415
0.347118 0.175717 0.397826
0.310662 0.157742 0.384014
0.104354 0.155094 0.384014
-0.182231 -0.231001 0.384014
0.293287 0.228502 0.384014
-0.331226 0.0338864 0.384014
0.0401963 0.244163 0.384014
-0.279637 -0.157617 0.384014
0.2307 0.119073 0.397826
0.071429 0.162462 0.384014
-0.284731 0.11089 0.397826
-0.267768 -0.0958906 0.397826
-0.23331 0.0965445 0.373277
0.0582133 0.265474 0.384014
-0.243963 -0.20591 0.384014
-0.351146 -0.0239616 0.397826
-0.181715 0.115561 0.397826
-0.143423 0.250942 0.397826
-0.073262 0.0185441 0.384014
0.281674 -0.222948 0.384014
-0.0401578 -0.0260557 0.384014
0.140387 -0.0489028 0.397826
-0.0876896 -0.0821902 0.356357
-0.0328382 0.264781 0.384014
-0.191736 0.00912115 0.384014
-0.296042 -0.209919 0.00407899
0.290635 -0.144399 0.214759
0.0150668 -0.0456525 0.384014
-0.210311 0.133785 0.384014
0.315854 -0.0806569 0.369492
-0.203671 0.253527 0.397826
0.295905 0.0890103 0.384014
0.145197 -0.23597 0.397826
0.306189 0.157001 0.397826
0.268862 -0.19411 0.384014
-0.281833 0.212965 0.00352494
0.236844 -0.0286717 0.397826
0.011057 -0.238061 0.384014
-0.120913 -0.241335 0.384014
-0.204345 -0.1492 0.384014
0.0178866 0.0949588 0.376422
0.174536 -0.0460817 0.384014
0.282868 0.105611 0.253036
0.00512344 0.246885 0.384014
0.266436 0.224326 0.384014
0.146643 0.0939654 0.384014
-0.0752346 0.13394 0.384014
0.100338 0.155147 0.397826
0.0269486 0.0218896 0.384014
0.312766 -0.224682 0.384014
-0.242182 0.225041 0.397826
0.294634 0.094567 0.298862
-0.272624 0.19682 0.397826
-0.213019 -0.116634 0.384014
0.22647 0.258931 0.384014
0.214979 0.109699 0.384014
-0.284547 -0.0548546 0.358043
-0.367437 -0.207992 0.39125
0.198769 0.237155 0.384014
-0.280399 0.0444705 0.384014
-0.281903 0.0845955 0.293286
-0.235279 -0.0816937 0.37626
0.258739 -0.219448 0.384014
0.0791922 0.0938329 0.397826
-0.123422 -0.234983 0.384014
-0.27619 0.0872154 0.373516
-0.142841 0.0810608 0.375612
0.0260099 0.196345 0.384014
-0.099325 0.0266229 0.384014
0.258838 0.0937767 0.35551
0.0486242 0.107028 0.384014
0.102676 -0.0795619 0.368151
-0.028507 -0.107041 0.384014
-0.268062 -0.276272 0.39041
0.182067 -0.173998 0.384014
-0.082653 -0.0972333 0.363469
0.204005 0.231155 0.384014
-0.078377 -0.0906746 0.373516
-0.110056 -0.0900178 0.356939
0.280977 -0.199555 0.0897581
0.270874 0.263914 0.397826
0.2915 -0.150821 0.170522
-0.250252 0.0807196 0.373712
-0.242852 -0.051081 0.397826
-0.202405 0.0770112 0.370085
-0.356549 0.275855 0.397181
0.105963 0.0119543 0.397826
0.135626 -0.0972333 0.368048
0.159645 -0.0708272 0.397826
0.296029 0.0818274 0.311136
-0.215666 -0.0962623 0.373543
0.285292 -0.0489285 0.384014
0.0197486 0.117924 0.384014
-0.347082 0.217435 0.397826
-0.0420012 0.211046 0.397826
-0.102102 0.0346626 0.397826
0.0680208 0.0961554 0.369063
0.21294 -0.222521 0.397826
-0.292779 0.0576858 0.37241
-0.296136 -0.169484 0.152399
0.103138 0.26091 0.384014
-0.0255281 -0.266081 0.384014
-0.25686 -0.0782428 0.358749
-0.216345 -0.0104467 0.384014
0.290499 -0.0472984 0.358043
-0.247589 0.0785343 0.358475
-0.185637 -0.227172 0.397826
-0.0217143 -0.276274 0.389952
-0.269891 -0.0137181 0.397826
-0.347628 -0.176737 0.384014
-0.298395 -0.0564948 0.397826
0.0736508 -0.0925343 0.357148
0.0867435 -0.0829288 0.397826
-0.1044 0.09049 0.373516
-0.241159 -0.104226 0.384014
-0.215464 -0.110129 0.397826
0.117713 -0.276275 0.386704
-0.117255 0.0849241 0.355683
0.014922 0.0859467 0.37462
0.317722 -0.0433112 0.384014
-0.0330509 0.0851971 0.356434
-0.101016 -0.0627006 0.397826
0.18079 0.266968 0.384014
-0.338821 0.0131664 0.384014
-0.194597 0.0300187 0.397826
-0.229981 0.114311 0.384014
-0.317431 -0.113914 0.384014
-0.309369 -0.0301683 0.397826
0.323217 0.0301899 0.397826
0.227285 -0.172213 0.384014
0.267641 0.116841 0.384014
0.0142252 0.238295 0.397826
0.0562375 0.0492921 0.397826
0.0453248 0.0510774 0.397826
-0.260044 0.0373173 0.384014
-0.230526 0.156883 0.384014
0.0801094 0.0960547 0.373767
-0.0169709 -0.0483447 0.384014
0.189051 0.0248105 0.384014
-0.0268828 0.0456844 0.397826
0.328371 0.0014658 0.397826
0.0995863 -0.247288 0.384014
0.316595 0.261066 0.397826
0.249176 0.073335 0.384014
-0.00456968 -0.026999 0.384014
0.147513 0.0429049 0.397826
-0.33237 0.237487 0.384014
0.281161 0.133056 0.231207
0.202828 -0.0489644 0.397826
0.268681 0.190446 0
0.341251 0.181387 0.384014
-0.300718 0.0643982 0.397826
0.0446456 -0.129973 0.397826
0.23802 0.271097 0.397826
0.18577 0.0970495 0.358787
-0.170556 0.181329 0.397826
-0.0947479 0.244779 0.397826
-0.32982 0.0256553 0.384014
0.276623 -0.0979994 0.369096
-0.298307 -0.0786645 0.370318
-0.185377 0.0409602 0.384014
-0.237802 0.112771 0.384014
0.290811 -0.198753 0.384014
-0.158574 -0.0988229 0.397826
-0.347203 0.187881 0.384014
-0.0451026 0.089781 0.384014
0.206062 0.163263 0.397826
0.142044 -0.0972333 0.364577
0.185725 0.162946 0.384014
-0.180586 -0.223324 0.384014
-0.163177 -0.0784974 0.360053
-0.320244 -0.171729 0.397826
0.284808 0.0415961 0.359701
0.19479 0.253626 0.384014
-0.00557074 -0.0489727 0.397826
0.172761 0.268996 0.384014
-0.270353 0.184077 0.397826
-0.24675 0.17876 0.384014
-0.352562 0.222465 0.397826
-0.269777 0.250835 0.397826
-0.162074 0.0344165 0.397826
0.0097574 -0.087318 0.397826
-0.24003 0.124545 0.37904
0.250679 0.108101 0.384014
0.213291 -0.0502305 0.384014
-0.313137 0.143486 0.397826
-0.0700457 0.0797548 0.384014
0.317649 0.234698 0.397826
0.349617 0.166433 0.384014
0.0860685 -0.223421 0.384014
-0.253173 -0.0950939 0.356846
0.270824 0.27581 0.397227
-0.276606 0.0500688 0.37241
-0.255688 0.00785998 0.397826
-0.170325 -0.218647 0.384014
-0.358827 0.0602652 0.397826
0.00752014 -0.0637557 0.397826
0.292056 -0.0721167 0.359701
0.126529 -0.152646 0.397826
-0.320088 -0.098048 0.397826
-0.357576 0.122553 0.384014
-0.197067 0.255673 0.384014
-0.292019 -0.0848092 0.322018
-0.0713368 -0.0683676 0.384014
0.0678923 -0.0979578 0.361305
0.129636 -0.0977113 0.370166
0.129283 0.0592526 0.384014
-0.163594 0.0915173 0.356747
0.198979 0.231877 0.397826
-0.188167 0.0046266 0.397826
0.00901422 -0.167348 0.384014
-0.0912752 0.0976394 0.373738
0.0539932 -0.147797 0.384014
-0.195611 -0.142965 0.384014
0.263067 -0.0806569 0.362324
0.279307 -0.159814 0.176608
0.365872 -0.193723 0.384014
-0.308781 0.0936925 0.376099
-0.279339 0.197056 0.093481
0.198424 0.0907742 0.384014
-0.19478 0.0663636 0.384014
0.320542 -0.25187 0.384014
-0.0234463 -0.189642 0.397826
-0.283581 0.0967487 0.301277
-0.155226 -0.0857951 0.373516
0.143532 -0.255976 0.384014
0.00829643 -0.0923752 0.376807
-0.0803089 -0.237188 0.397826
-0.22299 -0.0929945 0.375677
-0.281488 0.271831 0.397826
0.0932327 -0.222243 0.397826
0.224989 -0.0839619 0.375233
-0.146877 -0.20958 0.397826
-0.309731 0.0908488 0.373516
0.153587 0.0788481 0.358161
0.326061 0.0720975 0.397826
0.190562 0.0356988 0.384014
0.0935432 0.0806734 0.367612
0.160991 0.091466 0.374671
-0.295617 0.0664135 0.344405
-0.157762 -0.0998058 0.384014
-0.233674 0.084929 0.397826
-0.241747 -0.256402 0.397826
-0.349833 -0.170063 0.384014
-0.289258 -0.0631367 0.384014
0.289161 0.207386 0
-0.18319 -0.0770149 0.371393
0.194333 0.230999 0.384014
0.339199 0.149034 0.384014
-0.256926 0.183698 0.384014
-0.103314 -0.163201 0.397826
0.172298 -0.0250894 0.397826
0.000917226 0.247012 0.397826
0.274699 -0.0428708 0.397826
-0.349117 0.0191471 0.397826
-0.24675 0.18792 0.397826
0.203044 -0.0976887 0.357886
0.238002 0.0688729 0.384014
-0.154801 0.0046359 0.384014
0.0605165 0.233314 0.384014
-0.239555 -0.0984661 0.362293
-0.0593736 -0.0827827 0.384014
0.0113793 -0.178427 0.384014
-0.345947 -0.231951 0.397826
0.0945968 0.135684 0.384014
-0.168162 -0.0944033 0.384014
-0.215227 0.270433 0.384014
0.266866 0.201712 0.00229619
-0.0629105 -0.010251 0.397826
0.15086 -0.0961383 0.367131
0.189144 -0.0495874 0.384014
-0.0933587 0.0978605 0.370214
0.136251 0.00680265 0.397826
0.349799 -0.167676 0.384014
-0.271866 -0.0645626 0.359701
0.0907728 -0.0876381 0.397826
-0.112648 0.0884213 0.384014
-0.314703 -0.138053 0.397826
0.136814 0.109572 0.397826
-0.34806 0.187884 0.397826
-0.017917 -0.234616 0.384014
0.238794 0.258449 0.397826
0.327227 -0.141564 0.384014
0.253428 0.0777525 0.369481
0.00124225 -0.155634 0.384014
0.167556 -0.0905528 0.373516
0.146796 -0.0747341 0.384014
0.352574 -0.245108 0.397826
0.322631 -0.0359522 0.384014
0.243082 -0.2361 0.397826
-0.21221 0.242822 0.397826
-0.0901646 -0.192063 0.384014
-0.283139 0.0427303 0.37241
-0.367366 -0.100499 0.385142
0.104792 -0.0925435 0.354547
-0.219061 0.172148 0.384014
-0.356979 -0.0723085 0.397826
-0.112022 0.147909 0.397826
-0.295951 -0.0699904 0.335293
0.160143 0.206782 0.384014
-0.0866997 -0.187587 0.397826
0.226418 -0.0940822 0.377129
-0.217414 -0.243396 0.384014
-0.295574 0.0625054 0.342795
0.352758 -0.100693 0.384014
0.138417 0.0862139 0.384014
-0.340828 -0.207486 0.384014
0.232671 -0.100297 0.384014
0.0563817 0.173873 0.397826
0.307263 -0.0696749 0.397826
-0.115541 0.0972347 0.397826
-0.216726 -0.209914 0.384014
0.323346 -0.00993714 0.397826
-0.240875 0.0827246 0.377125
0.0608377 -0.247362 0.384014
0.0217143 0.244419 0.397826
0.223265 -0.185419 0.384014
0.17506 0.197965 0.384014
-0.0110889 -0.242695 0.397826
0.141044 0.266971 0.397826
0.126426 -0.0462705 0.384014
0.295783 0.0826347 0.31361
-0.355256 -0.266815 0.397826
0.193037 -0.143136 0.384014
-0.367437 0.118392 0.387392
0.0646073 0.0944606 0.376921
0.197505 -0.0799462 0.384014
-0.175109 -0.193422 0.384014
0.0804389 0.0239444 0.384014
-0.230366 -0.0729263 0.383499
-0.0539286 0.260039 0.384014
-0.100113 0.0884016 0.384014
-0.343831 0.00997511 0.397826
-0.034339 -0.153142 0.397826
-0.139678 -0.220733 0.384014
0.241404 0.259059 0.384014
0.171508 0.23224 0.397826
0.285944 -0.137272 0.22881
-0.208512 -0.00350294 0.384014
0.142893 0.156054 0.384014
0.262227 0.149453 0.397826
-0.0256209 0.0011403 0.384014
0.138393 0.00209314 0.397826
0.235804 0.184642 0.384014
-0.00895229 0.0892564 0.37462
-0.056557 -0.230998 0.397826
-0.285488 -0.031908 0.384014
-0.0123109 -0.0816442 0.374655
0.215887 0.0900705 0.397826
-0.185863 0.0448412 0.384014
-0.302333 0.240259 0.397826
-0.0163681 -0.25521 0.397826
-0.063895 -0.0773591 0.384014
-0.0966474 0.0802576 0.384014
0.261134 -0.206268 0.384014
-0.174563 -0.0842777 0.384014
-0.00642934 -0.0851362 0.356312
0.20862 -0.0220068 0.384014
-0.298229 0.152173 0.397826
0.293042 -0.132594 0.397826
0.344383 0.239132 0.397826
-0.137936 0.0804602 0.397826
0.0839382 0.098368 0.373009
-0.274337 -0.0988728 0.384014
-0.0744285 -0.0856236 0.356939
0.293135 0.169487 0.139607
0.0771271 0.18927 0.397826
-0.213863 0.00608858 0.384014
-0.308475 0.0920105 0.37617
-0.0399114 -0.0489482 0.384014
0.17313 0.229863 0.397826
-0.0996469 -0.0980883 0.369129
-0.119651 -0.23529 0.384014
0.00577548 -0.0955734 0.355771
-0.093423 0.192196 0.384014
-0.284052 0.120034 0.226077
-0.305316 0.0383404 0.384014
0.177416 0.000241011 0.384014
0.354203 -0.0668761 0.397826
-0.00439078 -0.0942888 0.375518
-0.266547 -0.222458 0.397826
-0.0337075 -0.0226752 0.384014
-0.0662099 -0.0135352 0.384014
-0.175692 0.0998866 0.371217
-0.237513 0.0966447 0.361789
-0.0232588 0.0951354 0.374688
0.0600235 0.154848 0.397826
-0.101388 0.193474 0.397826
0.104274 0.126542 0.397826
0.0373752 0.0782304 0.397826
-0.0848665 0.191369 0.384014
0.116833 -0.268719 0.397826
-0.045887 0.263265 0.384014
0.0837556 0.0980496 0.36245
-0.000378221 -0.0444154 0.397826
0.172889 -0.170003 0.384014
0.21612 0.0275559 0.384014
0.241868 0.0880233 0.356939
0.323182 -0.188778 0.397826
0.282873 0.191628 0.0473195
0.251778 -0.0870564 0.397826
0.299718 0.18292 0.397826
-0.223576 -0.103327 0.384014
-0.35704 0.165578 0.397826
0.25048 -0.0436303 0.384014
-0.0991829 0.0681555 0.384014
0.125412 -0.0834142 0.397826
-0.190961 0.0899851 0.373516
0.0888285 -0.167398 0.384014
-0.310513 0.0788081 0.358201
0.254036 0.12729 0.397826
-0.259797 0.0110705 0.384014
0.324315 -0.276277 0.389058
-0.355397 0.200356 0.384014
0.114938 0.153244 0.397826
0.047411 0.0343295 0.384014
0.355326 0.0724998 0.384014
-0.275829 0.0641309 0.397826
-0.322821 -0.236083 0.384014
0.270474 -0.105541 0.384014
-0.322233 0.0821678 0.354841
-0.1146 -0.118367 0.384014
-0.0394836 0.0791189 0.384014
0.179299 0.0972495 0.364115
-0.310343 -0.0971937 0.357391
-0.265776 -0.182928 0.384014
-0.202992 0.0623207 0.384014
0.0321083 -0.0773089 0.361743
-0.0549251 0.139601 0.397826
0.262215 -0.081801 0.355187
0.289587 -0.0537499 0.346129
-0.236599 -0.110238 0.384014
-0.142187 -0.0574946 0.397826
-0.092985 0.0994327 0.371944
0.275452 0.0959846 0.384014
0.176881 0.0866913 0.358043
0.218442 -0.0787488 0.370288
-0.144463 0.0410858 0.384014
-0.294631 0.137675 0.220404
0.0811243 -0.084913 0.355697
0.216157 -0.224614 0.397826
0.300436 -0.148418 0.384014
-0.153529 -0.116817 0.384014
-0.260779 -0.00146839 0.397826
0.302979 0.103752 0.384014
0.298793 0.142253 0.384014
0.152267 -0.09779 0.362538
-0.340266 -0.161371 0.397826
0.155104 0.0806734 0.365577
0.274984 0.23927 0.384014
-0.119281 -0.0937812 0.397826
0.0903353 -0.0275869 0.397826
0.00882277 -0.0562643 0.384014
-0.35844 0.243076 0.384014
0.298494 0.0772635 0.369865
-0.00331506 -0.0961474 0.369596
-0.282783 0.0426457 0.384014
0.313332 -0.136767 0.397826
-0.284704 -0.198313 0.0440449
-0.308271 -0.273061 0.384014
-0.296041 0.102309 0.273963
0.284392 0.198832 0.0646021
-0.320984 -0.0251835 0.397826
0.0736846 0.168991 0.397826
0.313038 -0.0833639 0.384014
-0.251933 0.0473102 0.397826
0.0146249 0.0901238 0.384014
0.0528829 -0.0911366 0.397826
0.246029 -0.254714 0.384014
0.00688499 0.234485 0.397826
-0.0782652 0.229422 0.397826
-0.168063 0.165049 0.397826
-0.30854 -0.0760047 0.397826
-0.233299 -0.0789881 0.369026
-0.0256217 0.0632002 0.384014
0.274943 0.0293452 0.358043
-0.203108 0.191771 0.397826
-0.204438 -0.0916728 0.356274
-0.0368489 0.209877 0.384014
0.289308 0.105692 0.397826
0.297492 -0.0666139 0.384014
-0.300459 -0.0459751 0.359701
0.271811 -0.0196936 0.397826
0.336172 -0.265821 0.397826
-0.284216 0.0187441 0.384014
0.184717 0.210461 0.397826
-0.0801482 0.0142227 0.384014
-0.205074 0.0806734 0.361987
-0.282185 -0.164775 0.146743
0.188803 0.0820238 0.35654
0.280078 -0.0413162 0.384014
0.0674141 0.273065 0.384014
-0.198546 -0.0795619 0.367508
-0.339297 0.0378665 0.397826
-0.293808 0.276277 0.392298
0.239565 -0.0901519 0.358043
0.211171 -0.239892 0.397826
-0.0343041 -0.269264 0.397826
0.318804 0.152936 0.384014
0.152114 -0.0799992 0.35855
0.0265466 0.0821574 0.37671
-0.293907 -0.193217 0
0.171696 0.0821584 0.376712
-0.0810827 -0.191426 0.397826
-0.105837 -0.0979133 0.359668
0.161385 0.220057 0.397826
0.29971 0.0374237 0.397826
-0.00526744 -0.107681 0.384014
0.300304 -0.00480191 0.369028
0.158517 0.239609 0.397826
-0.10831 0.272959 0.397826
-0.279853 -0.198434 0.0934078
0.307165 -0.0183358 0.384014
-0.335375 0.0848291 0.397826
0.182309 0.2728 0.384014
0.252022 -0.0918039 0.373516
-0.335618 -0.0400264 0.384014
-0.211424 0.0803445 0.384014
0.342979 -0.181282 0.384014
0.297551 -0.115641 0.384014
0.0404569 -0.133809 0.384014
-0.184255 -0.121117 0.384014
0.329529 0.096659 0.384014
0.206611 0.0162679 0.384014
-0.0347776 -0.0362887 0.384014
-0.0774491 -0.24211 0.384014
0.0904084 -0.193987 0.384014
0.0664534 -0.102854 0.384014
0.13578 -0.14793 0.384014
-0.0432084 0.0812043 0.357361
-0.356019 0.13917 0.384014
-0.166416 0.0790981 0.368993
0.327854 0.0516502 0.384014
0.218939 -0.0184574 0.397826
0.288343 0.0185522 0.37241
0.222651 -0.202013 0.397826
-0.345819 0.276277 0.390569
-0.0654115 -0.000588775 0.384014
-0.27997 0.0784658 0.373014
0.287232 -0.184683 0.100749
0.346974 0.263115 0.397826
-0.269274 0.0972495 0.363397
-0.0955327 0.189358 0.384014
0.0576506 -0.122789 0.397826
-0.294091 -0.0795619 0.363488
-0.116925 0.0799211 0.374472
-0.364853 -0.0927939 0.397826
-0.323087 -0.230942 0.397826
0.246785 0.210168 0.397826
0.222752 0.0806894 0.357876
0.273858 0.228928 0.397826
-0.0491088 -0.0850102 0.373516
0.356189 -0.220946 0.384014
-0.181634 -0.00927988 0.384014
-0.146612 -0.185398 0.397826
-0.358335 0.181475 0.397826
-0.343719 -0.0627765 0.397826
-0.283481 0.197103 0.0377335
0.294638 0.0263563 0.358043
0.273746 0.0108391 0.384014
-0.00718993 -0.116154 0.397826
0.284739 -0.0684555 0.359701
-0.302232 -0.0928039 0.375152
0.278678 0.117734 0.24526
-0.31274 -0.0972333 0.367145
-0.18649 0.0916166 0.397826
0.3015 -0.188996 0.397826
0.0803085 0.248581 0.384014
0.0238278 -0.0852091 0.358043
0.282675 0.276277 0.395978
-0.295627 -0.177541 0.142044
0.284332 0.0730517 0.344823
-0.105789 0.0256532 0.397826
-0.142791 0.198104 0.384014
0.196763 -0.0808407 0.356148
0.262726 0.0806734 0.363673
-0.017714 0.258005 0.384014
0.179245 0.180034 0.397826
-0.292167 0.186608 0.0893498
0.030519 0.0769278 0.361113
0.179824 0.156742 0.384014
0.277136 0.0844496 0.354769
0.229761 -0.0972333 0.368108
0.162219 -0.0820366 0.397826
0.0636325 -0.0470442 0.384014
0.0109806 0.222439 0.384014
0.296012 0.253161 0.384014
-0.346207 -0.191164 0.384014
0.0561534 -0.0969891 0.357187
0.135128 -0.146184 0.397826
-0.048441 -0.223073 0.397826
-0.367437 -0.101556 0.390041
0.300304 0.0282802 0.362442
-0.198716 0.0869671 0.358043
-0.0281896 -0.0512583 0.384014
0.290019 -0.0735609 0.310314
0.307292 -0.22419 0.384014
0.326327 -0.0433847 0.384014
-0.173012 0.17772 0.397826
0.335592 -0.25994 0.397826
-0.237662 0.0784684 0.370396
-0.0819996 0.0897122 0.356939
-0.0353509 -0.211208 0.384014
0.290115 0.111475 0.274999
-0.107379 -0.272256 0.384014
-0.211156 0.10284 0.397826
-0.344434 0.203483 0.384014
0.102579 0.104759 0.397826
0.170866 0.0982561 0.384014
0.259616 -0.120071 0.397826
0.166503 -0.0831605 0.376119
-0.292322 -0.0840166 0.356475
0.226512 -0.179719 0.397826
-0.0954703 0.0168127 0.384014
0.0143121 0.200424 0.384014
0.28234 0.0756062 0.338214
-0.0127696 0.200519 0.384014
-0.159166 -0.095554 0.374252
0.0772884 -0.253579 0.397826
0.191686 0.0809445 0.373938
-0.152991 -0.0635914 0.397826
0.194143 0.133157 0.397826
0.295584 -0.0693859 0.359701
-0.357946 0.0853369 0.397826
-0.307889 -0.15757 0.384014
-0.145406 -0.0906806 0.373516
-0.300511 -0.193861 0.384014
0.141453 0.230274 0.397826
0.0273741 -0.0295112 0.384014
-0.117605 -0.229442 0.397826
0.100414 -0.134658 0.384014
0.167688 0.174758 0.384014
0.34045 -0.14708 0.384014
-0.257326 -0.0853613 0.397826
0.181142 -0.0783289 0.369266
0.241337 -0.0782639 0.362269
0.0233158 -0.262454 0.397826
-0.291297 -0.144002 0.384014
0.114321 -0.118693 0.384014
-0.0281419 0.0964553 0.397826
-0.0890883 -0.148475 0.384014
0.210529 0.190614 0.397826
-0.0598316 0.14834 0.384014
-0.296988 -0.00341254 0.397826
-0.222003 -0.0292181 0.384014
0.0456142 -0.0987744 0.397826
0.240585 0.120039 0.377913
-0.141046 -0.0972345 0.357432
-0.0177835 -0.0962513 0.384014
-0.0161214 -0.250063 0.384014
-0.197292 0.276182 0.385341
-0.199053 0.0968942 0.384014
0.0848923 -0.208271 0.397826
0.105478 0.0967354 0.369804
-0.240749 -0.0963842 0.361877
0.0261149 0.213831 0.384014
-0.24614 -0.0343236 0.384014
0.295506 0.0743458 0.320699
0.238028 -0.166304 0.384014
-0.11994 0.0779214 0.397826
0.138801 0.115658 0.384014
-0.0454732 0.190245 0.397826
-0.22996 0.0915003 0.373516
0.122955 -0.262866 0.384014
-0.325717 -0.264172 0.384014
-0.0233089 0.167563 0.384014
-0.16283 0.0806734 0.367249
-0.0659012 0.0358446 0.384014
-0.268021 0.0508001 0.397826
-0.155937 -0.192655 0.384014
-0.265318 0.20914 0.397826
-0.0204683 0.255001 0.397826
-0.200217 -0.141552 0.397826
0.202568 0.00485224 0.397826
0.25587 0.209808 0.384014
0.114642 -0.178839 0.397826
0.278228 0.261264 0.384014
0.302868 0.0534738 0.368949
-0.035135 0.0831179 0.37609
0.252343 -0.140181 0.397826
0.237488 -0.183235 0.397826
-0.0663921 -0.125318 0.397826
-0.137808 0.238904 0.397826
0.204779 0.0800104 0.356999
0.293394 0.157653 0.384014
-0.224064 -0.054716 0.384014
0.303497 -0.0806569 0.362869
0.221077 -0.241869 0.397826
-0.0374864 0.144055 0.384014
0.283941 0.103209 0.384014
0.267867 -0.19652 0.384014
-0.367437 0.197625 0.393026
0.174227 -0.154496 0.397826
0.183118 -0.0961383 0.369463
0.225819 0.0896755 0.358043
-0.29379 -0.175775 0.15278
0.000449896 -0.092311 0.373794
-0.156141 -0.240534 0.384014
0.185457 -0.08425 0.357119
-0.296893 0.123225 0.397826
-0.0503902 0.274949 0.397734
0.272927 -0.0966668 0.35842
-0.18016 0.0871175 0.356939
0.278778 -0.232403 0.397826
0.0201891 -0.0366337 0.397826
-0.288582 -0.100925 0.259708
0.35158 0.140339 0.397826
0.0594194 0.0806734 0.362463
0.0498705 0.168463 0.384014
-0.293386 0.0271277 0.37241
0.252856 -0.275605 0.384407
0.159314 -0.119314 0.384014
-0.219771 -0.0906336 0.397826
-0.228757 -0.136726 0.384014
-0.325997 -0.0838105 0.376138
0.158626 -0.103899 0.397826
0.154306 0.0680893 0.384014
-0.0161621 -0.0901124 0.384014
-0.329631 0.180116 0.397826
-0.319649 -0.273334 0.397826
-0.181915 -0.137381 0.397826
0.0803447 -0.0785337 0.360017
-0.328814 0.231869 0.384014
0.258858 -0.0839566 0.354345
0.128872 -0.146604 0.384014
-0.124236 0.0806734 0.367545
-0.0913191 0.0577163 0.397826
-0.318733 -0.0939734 0.354377
0.297389 0.0393573 0.359887
-0.129173 0.131504 0.384014
-0.00238159 -0.252857 0.397826
-0.0193089 -0.0779106 0.359082
0.301873 0.0871085 0.373516
-0.0649201 0.115143 0.384014
-0.222782 -0.151775 0.397826
-0.064499 -0.0694003 0.397826
0.0304899 -0.0795619 0.363674
-0.126593 -0.0806569 0.363658
0.367437 -0.0334665 0.389346
-0.109595 -0.0795258 0.362727
-0.174775 -0.276273 0.392231
-0.126404 0.241608 0.397826
-0.169818 0.142661 0.397826
0.256801 -0.154845 0.384014
-0.27954 -0.0968461 0.3586
0.201353 0.0871356 0.397826
0.224566 0.249579 0.397826
0.110267 0.0972495 0.365789
0.00408706 0.169985 0.384014
0.0489106 -0.172893 0.384014
-0.158343 -0.119417 0.384014
0.250514 0.219845 0.397826
0.360777 0.0167204 0.397826
-0.159885 -0.0793738 0.368886
-0.211928 0.0606495 0.384014
-0.319741 -0.126453 0.384014
0.0452907 -0.143315 0.397826
0.115556 0.0832993 0.377362
0.039559 0.223465 0.384014
-0.133582 -0.0378607 0.397826
0.0919033 0.00988549 0.397826
-0.051657 0.110667 0.397826
-0.279552 0.130055 0.216041
0.330047 0.271456 0.397826
-0.0764471 0.0844438 0.373951
-0.0413618 0.0864675 0.397826
0.0680086 0.0997219 0.371543
0.282518 -0.103078 0.384014
-0.0621251 -0.179454 0.397826
0.0849831 -0.232155 0.397826
0.276094 0.0282804 0.37241
0.204195 -0.261071 0.397826
-0.288973 0.246805 0.384014
0.201292 0.0976034 0.397826
-0.178919 -0.00858796 0.384014
-0.172066 0.142683 0.397826
0.00610039 0.0782446 0.360324
-0.139744 0.219737 0.384014
-0.256956 0.257052 0.397826
-0.00378433 -0.212095 0.384014
-0.035983 0.222981 0.397826
-0.299065 -0.26812 0.384014
0.115152 0.0361741 0.397826
-0.36202 -0.13966 0.384014
-0.181135 -0.194863 0.397826
-0.120926 -0.0806569 0.369488
0.284141 -0.276276 0.391485
0.27554 -0.229423 0.384014
0.0343188 -0.161172 0.397826
0.0338344 0.084397 0.376855
0.0341623 -0.249454 0.384014
-0.26098 -0.0795619 0.364883
0.231355 0.0795784 0.3671
0.0100842 0.0870284 0.37462
0.234182 0.259546 0.384014
0.29175 -0.172496 0.131228
-0.190448 -0.271156 0.397826
-0.0945681 -0.0973465 0.384014
-0.126565 -0.0456845 0.397826
0.119758 0.0979131 0.370233
0.228154 0.0677886 0.397826
-0.280437 0.017103 0.384014
0.0164823 0.078542 0.362364
-0.139485 -0.0892256 0.356939
-0.215157 0.123688 0.384014
-0.331875 0.149569 0.384014
0.293447 -0.130997 0.21028
-0.329875 0.0663039 0.384014
0.263632 -0.0814923 0.397826
-0.20124 0.00629354 0.384014
-0.20449 0.0940405 0.3544
-0.252071 -0.0809465 0.373957
0.353798 0.191054 0.384014
-0.0970505 -0.16313 0.397826
0.0832731 -0.0915353 0.374907
-0.034034 0.0583187 0.397826
0.137114 -0.097598 0.359353
0.135337 0.0208328 0.384014
-0.223596 0.255723 0.384014
0.120124 0.247663 0.384014
-0.183553 0.260355 0.384014
-0.00530145 0.141215 0.397826
0.273173 0.0953556 0.357091
0.133748 -0.16768 0.384014
-0.262088 0.0891115 0.373516
-0.318144 0.091021 0.384014
0.295678 -0.128571 0.230788
-0.35587 -0.0339603 0.397826
0.0531179 -0.150976 0.384014
-0.133522 -0.0771146 0.361585
-0.220215 -0.0481653 0.384014
0.0339818 0.106172 0.384014
-0.0791934 -0.0952754 0.355473
-0.120764 0.0645087 0.397826
0.172171 0.0795784 0.366856
0.197453 0.0961554 0.363972
-0.361293 0.191592 0.397826
-0.292716 -0.186807 0.10095
0.0944386 -0.110429 0.384014
0.0471465 -0.186225 0.384014
0.163089 0.235698 0.384014
-0.0530828 -0.192228 0.384014
-0.188043 -0.167661 0.397826
-0.0885275 -0.192712 0.397826
-0.268901 -0.183423 0.384014
0.367417 0.179319 0.385522
0.244129 0.0426728 0.384014
0.0830285 0.155469 0.397826
0.0445285 -0.0528193 0.384014
0.235035 0.0976581 0.397826
0.12135 0.276277 0.390593
0.102059 0.17265 0.397826
-0.240793 0.0973896 0.359128
0.0203817 0.140922 0.397826
-0.272468 0.0602661 0.359701
-0.058154 -0.0970285 0.372776
0.312315 -0.0635775 0.362623
-0.144368 -0.0795619 0.3636
-0.281227 -0.196583 0.068736
0.274512 -0.217198 0.397826
0.286674 0.087417 0.283982
0.327649 -0.0952361 0.371134
-0.078345 0.086388 0.37462
0.000350565 0.0961554 0.368475
-0.0320424 -0.0882917 0.356939
-0.103945 -0.0436009 0.384014
0.21139 0.0998023 0.360175
-0.130994 0.0683313 0.397826
-0.296528 0.0972495 0.3653
0.141948 0.273321 0.397826
-0.189151 -0.159797 0.397826
-0.323816 -0.0980204 0.358218
-0.351729 -0.0359131 0.397826
0.223169 -0.102753 0.384014
0.204583 -0.0514262 0.384014
-0.367437 0.08351 0.39433
-0.059787 -0.2372 0.384014
-0.305535 -0.231669 0.384014
0.318429 -0.0802244 0.36975
0.149743 0.151121 0.384014
0.0395202 -0.142098 0.384014
0.151278 -0.079372 0.397826
0.061293 -0.0928507 0.384014
-0.300043 -0.0713139 0.397826
0.0930906 -0.171896 0.397826
0.0764303 -0.113715 0.397826
-0.289691 -0.193168 0.0193388
-0.0807315 -0.0831092 0.355465
0.00759569 -0.221668 0.384014
0.285377 0.171319 0.397826
0.0815248 0.276277 0.390393
0.327825 0.102889 0.384014
-0.290806 -0.0756414 0.358548
0.269449 -0.115599 0.397826
0.0082331 -0.246125 0.384014
0.345261 0.272483 0.384014
-0.36489 -0.031935 0.397826
0.133361 -0.0121352 0.384014
-0.20577 -0.239456 0.384014
0.292998 -0.0380785 0.358043
0.0194253 -0.0968666 0.358621
-0.167521 0.225619 0.397826
0.300074 -0.0652568 0.37241
-0.244951 0.0769455 0.361189
0.00579748 -0.147835 0.397826
-0.308729 0.0717631 0.358043
-0.099001 -0.0799292 0.384014
-0.124987 -0.101942 0.397826
0.0472974 -0.19077 0.397826
0.266195 0.182601 0.397826
0.0235699 0.124773 0.384014
-0.0298895 -0.0163361 0.384014
-0.113561 0.104046 0.397826
-0.195421 -0.102097 0.384014
0.312062 0.250616 0.397826
-0.193941 0.0245425 0.397826
0.16784 0.119541 0.384014
-0.198867 0.0417323 0.397826
0.00410345 -0.103778 0.397826
0.177834 -0.0841373 0.37475
0.32396 -0.131063 0.397826
0.171686 0.115772 0.397826
-0.26782 0.0923465 0.357712
0.149337 0.235492 0.397826
-0.0717855 -0.028357 0.384014
-0.169838 0.0898556 0.356939
-0.320204 0.089549 0.384014
0.185835 0.265692 0.397826
-0.252567 0.0806852 0.384014
0.285343 0.217542 0.397826
-0.0735594 -0.10279 0.397826
0.3619 -0.194412 0.397826
0.0601413 -0.0608288 0.397826
-0.165414 0.262388 0.397826
-0.286938 0.188808 0.0381725
-0.278558 -0.105636 0.269398
0.204572 -0.0118335 0.384014
0.208648 0.222319 0.397826
0.150263 -0.254137 0.384014
0.0217143 -0.215772 0.397826
-0.0598329 -0.0806569 0.369192
0.282848 0.173498 0.000482517
-0.210837 0.0770936 0.371517
0.0956663 0.13355 0.384014
0.1623 0.0352221 0.384014
0.227401 0.245258 0.384014
-0.171928 -0.222424 0.397826
-0.0697081 -0.203725 0.397826
0.233775 0.119664 0.397826
0.296089 0.125361 0.232371
-0.0337978 0.0961554 0.364852
-0.232226 -0.192822 0.397826
0.149341 0.1829 0.397826
-0.0870279 0.0806734 0.364597
0.221294 -0.0907612 0.37462
-0.15986 0.092437 0.374096
-0.305727 -0.0755067 0.384014
-0.041937 -0.0150805 0.384014
-0.161232 -0.194021 0.384014
0.157027 -0.0863817 0.397826
0.0956137 -0.186638 0.397826
-0.284445 -0.189906 0.0558603
-0.325077 0.214652 0.397826
0.287294 0.0988557 0.262817
0.0877042 -0.159317 0.384014
-0.205847 -0.115393 0.397826
0.367437 0.249786 0.389721
-0.360441 0.134492 0.384014
-0.317928 -0.109723 0.384014
-0.0335341 0.0109577 0.384014
-0.0832812 -0.0835845 0.376073
-0.224943 0.177795 0.397826
-0.0194044 0.044419 0.384014
-0.29335 -0.20164 0.397826
-0.218653 -0.217452 0.397826
-0.165012 0.0779582 0.372507
0.278892 -0.066979 0.358043
0.301396 -0.0480647 0.397826
-0.289695 -0.152064 0.201334
-0.207483 0.223211 0.384014
-0.0580072 0.0303957 0.384014
0.207553 0.145209 0.397826
-0.314084 -0.0933433 0.376194
0.285534 -0.103586 0.397826
0.0111268 -0.157475 0.384014
-0.0508575 -0.0845737 0.384014
-0.301389 -0.18057 0.00371701
0.305992 0.0479781 0.397826
0.201853 -0.223688 0.384014
-0.242536 0.167471 0.397826
0.305682 -0.0520471 0.360843
0.307687 -0.217159 0.384014
-0.281292 -0.0610379 0.397826
0.231111 0.180261 0.397826
0.301309 0.097072 0.369927
-0.367437 0.238853 0.392186
0.26891 0.0719607 0.397826
0.316312 0.00420865 0.384014
0.0876278 -0.2762 0.385405
0.109364 0.0984066 0.362321
-0.284235 0.1899 0.0334492
-0.0073128 0.0460915 0.397826
0.172953 -0.202588 0.397826
0.243094 0.0755908 0.384014
-0.00231606 -0.0921353 0.358043
-0.301509 0.0100917 0.384014
-0.242924 -0.243228 0.397826
0.0787672 -0.238216 0.397826
0.159223 -0.118912 0.397826
-0.237504 -0.0491505 0.37904
0.170759 0.237675 0.397826
0.250532 0.171079 0.397826
-0.33563 -0.259263 0.384014
-0.0366223 0.140164 0.397826
0.0896798 0.173536 0.397826
0.176428 -0.189459 0.384014
0.000372797 -0.24387 0.397826
-0.320612 -0.119766 0.397826
-0.0728642 -0.0995835 0.397826
-0.245256 -0.272101 0.384014
-0.163256 -0.175687 0.397826
0.287654 0.0684725 0.359701
0.273237 -0.0275534 0.384014
-0.270331 0.0234976 0.384014
-0.0252556 -0.251948 0.384014
-0.279311 0.142472 0.195313
-0.1876 -0.0781563 0.361014
0.0625878 0.0777786 0.384014
-0.198182 0.0603475 0.397826
0.231099 -0.206234 0.397826
-0.271019 -0.214786 0.397826
-0.286989 0.147001 0.211713
-0.307045 -0.0977227 0.372081
0.18461 0.0800822 0.384014
0.29547 0.0539763 0.37241
-0.211632 -0.0410385 0.397826
0.327473 -0.223921 0.384014
-0.278498 -0.0637458 0.37241
-0.301227 0.263136 0.397826
-0.171383 -0.0800997 0.358449
-0.0363094 -0.111724 0.397826
-0.26704 0.048881 0.384014
0.0542575 -0.208734 0.397826
-0.288988 0.161411 0.149881
-0.15783 -0.155172 0.397826
0.284045 0.18818 0.00976203
-0.102837 -0.0956401 0.374166
-0.285862 0.230028 0.384014
-0.367325 0.144849 0.384841
