0.31208 0.287586 0.311693
-0.208562 -0.124433 0.311693
0.126608 0.280187 0.292886
-0.052273 0.306238 0.311693
-0.109121 0.0590448 0.311693
-0.016926 -0.0521952 0.300786
-0.241928 -0.273595 0.296335
-0.0855477 -0.113109 0.300786
0.33342 0.310241 0.00251142
-0.0490396 0.322472 0.300786
-0.331488 0.2671 0.311693
-0.26837 0.26317 0.204648
-0.0198603 0.0060226 0.300786
-0.167202 -0.0874785 0.300786
0.173376 -0.0702961 0.300786
-0.335073 0.337112 0.310486
-0.18932 -0.123757 0.311693
-0.348019 0.145858 0.311603
0.264536 0.141448 0.28874
0.279272 -0.223868 0.283201
0.26798 -0.28282 0.311693
-0.11908 0.180929 0.311693
-0.269396 0.0603711 0.295115
0.12606 0.144043 0.311693
-0.131744 0.277186 0.286167
0.251621 -0.247493 0.271436
0.278488 -0.148459 0.294374
-0.0634845 -0.0971626 0.300786
0.163763 0.322168 0.300786
-0.276286 0.0230215 0.281439
-0.22628 0.286131 0.300786
0.245477 0.230812 0.283555
0.329911 -0.104542 0.311693
-0.187899 0.115813 0.311693
0.244091 -0.162384 0.300786
-0.309971 -0.158817 0.300786
-0.171951 0.125864 0.300786
-0.0785729 0.0592561 0.311693
-0.278486 -0.0171688 0.290238
0.348991 0.0666175 0.306741
-0.244785 0.257734 0.311693
0.130959 -0.211534 0.300786
0.265706 -0.0285413 0.281245
-0.157766 0.0806795 0.311693
0.165772 -0.278688 0.291639
0.22765 0.249319 0.294462
0.264916 0.147777 0.311693
-0.265773 0.109579 0.29561
0.0892003 0.19012 0.311693
-0.0266327 -0.325843 0.300786
-0.261015 -0.237123 0.300786
0.273937 0.0504888 0.281942
-0.0718635 -0.268519 0.300786
0.0835991 -0.266385 0.296658
-0.281391 0.243402 0.300786
0.0852503 0.21407 0.300786
-0.0615202 0.0762873 0.300786
-0.223915 0.223295 0.294462
-0.257657 -0.16347 0.311693
0.216093 0.151753 0.300786
-0.177211 -0.263215 0.284535
-0.051096 -0.284903 0.300786
-0.281879 -0.231454 0.300786
-0.256501 -0.253573 0.294462
-0.268167 -0.0514131 0.280054
0.178644 0.308894 0.300786
0.346171 0.204033 0.311693
0.0952981 -0.211411 0.300786
-0.0444527 0.131657 0.300786
-0.222081 0.27896 0.294691
-0.265798 0.183765 0.311693
0.131232 0.0375677 0.311693
-0.17532 0.343414 0.300786
-0.0832442 0.266449 0.297903
-0.348911 0.00630951 0.301798
0.183601 -0.212178 0.300786
-0.246161 -0.109585 0.300786
0.143771 -0.265982 0.297485
0.0864141 -0.156745 0.311693
0.215298 0.0790397 0.300786
-0.214994 -0.00203085 0.300786
-0.24772 -0.176399 0.311693
-0.203713 0.278718 0.294932
-0.341973 -0.196643 0.311693
0.270606 -0.0242114 0.311693
-0.000552595 0.255091 0.311693
0.265399 -0.0698262 0.29068
0.0821235 -0.0935934 0.300786
-0.19022 -0.308824 0.311693
0.266581 -0.00103238 0.296418
0.0648689 0.0295125 0.300786
0.0691171 -0.197369 0.300786
-0.0954902 -0.264099 0.2883
0.136831 -0.000449002 0.300786
0.277594 0.0245702 0.300786
-0.016243 0.278152 0.285646
-0.286442 -0.250962 0.311693
0.226525 -0.238556 0.311693
0.273432 -0.276048 0.18109
0.11419 -0.264863 0.285962
-0.321485 0.107432 0.300786
0.276759 -0.0771289 0.296104
0.250409 0.233549 0.300786
-0.0797171 -0.0742949 0.300786
-0.150394 0.297458 0.300786
-0.000317514 -0.266653 0.28109
0.0490942 -0.348992 0.307753
-0.26267 0.267978 0.207005
-0.0959902 -0.115282 0.300786
0.0231228 0.11389 0.311693
-0.275717 -0.152377 0.297139
-0.118386 0.279308 0.294341
-0.268685 -0.24724 0.280847
0.27188 -0.0216843 0.295115
-0.0723015 0.311553 0.300786
0.00586683 0.3026 0.300786
0.215412 0.23607 0.283555
-0.269492 0.0444051 0.282901
0.258142 -0.207604 0.300786
-0.260206 0.268905 0.216182
-0.0299885 0.276023 0.311693
-0.307722 -0.0103959 0.311693
-0.312728 0.112342 0.311693
-0.0271534 0.303432 0.300786
-0.120047 -0.133644 0.300786
-0.116114 -0.153551 0.300786
0.297975 0.30169 0.117536
0.171093 -0.07767 0.311693
0.0335411 -0.0546918 0.311693
0.140338 0.245898 0.300786
0.0745454 0.281474 0.311693
-0.252289 0.285475 0.300786
0.067791 -0.318868 0.311693
0.22801 0.0438018 0.300786
-0.0389217 0.264089 0.282427
-0.231638 0.205336 0.311693
-0.309265 0.204464 0.300786
0.147897 -0.163437 0.311693
0.295586 -0.315779 0.300786
-0.272697 -0.295338 0.311693
0.151104 -0.254347 0.300786
-0.163906 -0.239678 0.311693
-0.0721351 0.201669 0.311693
-0.106746 -0.0470294 0.311693
0.00555241 0.212542 0.300786
0.318431 0.0950605 0.311693
-0.124561 0.267464 0.281249
0.0920776 0.310906 0.300786
-0.171622 0.0348409 0.300786
0.160848 0.0690476 0.311693
0.123786 -0.153505 0.311693
-0.191729 -0.17486 0.311693
-0.168883 -0.0436208 0.311693
-0.0386057 -0.275755 0.296672
0.253395 -0.0284981 0.300786
-0.33564 -0.198511 0.300786
0.126578 0.274305 0.311693
-0.269327 0.197833 0.293375
-0.236289 0.173115 0.311693
0.208409 0.301931 0.311693
0.267148 0.212323 0.300786
0.112065 -0.270205 0.300786
0.341077 -0.27351 0.311693
-0.112252 0.278866 0.285388
-0.236532 0.337811 0.311693
-0.24677 -0.253454 0.283555
0.00934917 0.169466 0.311693
-0.170528 -0.20257 0.300786
-0.273331 0.168285 0.295988
0.287281 0.322493 0.300786
-0.0131449 -0.264962 0.288711
0.246353 -0.337938 0.300786
0.274804 -0.131503 0.29589
0.266016 0.312681 0.311693
0.0265635 -0.0493083 0.311693
-0.278486 -0.137693 0.291381
0.002985 -0.338646 0.300786
-0.249556 -0.210516 0.311693
0.221732 -0.227701 0.294462
-0.108338 -0.12196 0.300786
0.222957 0.231587 0.311693
0.17758 -0.214994 0.311693
0.348991 -0.0488513 0.302857
-0.136109 0.228806 0.311693
0.0314345 -0.323219 0.300786
0.248129 0.274596 0.300786
-0.0246951 -0.205453 0.311693
-0.274059 -0.077757 0.300786
0.264225 0.0933898 0.282727
-0.0756945 0.194605 0.300786
-0.235995 0.244158 0.283555
0.348991 0.285758 0.306536
-0.33086 0.0791673 0.311693
0.285995 -0.331398 0.311693
-0.124123 -0.0262702 0.300786
0.108493 -0.264104 0.283644
0.0205796 0.244338 0.300786
-0.0328449 -0.148648 0.300786
-0.342655 -0.113884 0.300786
0.139805 0.0761709 0.300786
0.17495 -0.250604 0.300786
-0.0455889 0.0517448 0.311693
-0.203963 0.324171 0.300786
0.165203 0.172113 0.311693
-0.0506876 -0.179392 0.311693
-0.239292 0.248326 0.294462
-0.299604 -0.197212 0.300786
-0.228489 -0.282763 0.300786
0.272063 -0.18006 0.282901
0.202579 0.276026 0.311693
-0.191045 0.0623338 0.300786
0.0107166 -0.10703 0.311693
-0.150724 -0.011756 0.311693
0.32303 -0.31405 0.0881851
-0.0447653 -0.10181 0.311693
-0.0543011 0.0939596 0.311693
0.270352 -0.115902 0.295115
0.108409 0.20117 0.300786
-0.244068 0.0942106 0.300786
-0.10343 -0.0411404 0.300786
-0.0792175 -0.0973338 0.300786
-0.0263903 -0.0787124 0.311693
0.188652 -0.198248 0.311693
-0.061398 -0.295645 0.311693
-0.275128 0.0249889 0.279956
-0.0158323 -0.0526346 0.300786
-0.128315 -0.153387 0.300786
-0.212023 0.0482681 0.311693
-0.19973 -0.276995 0.282587
0.0827255 0.259357 0.300786
0.136082 -0.233189 0.300786
-0.157603 -0.142002 0.311693
0.0320673 0.025116 0.300786
-0.08796 0.256252 0.311693
0.232626 -0.140991 0.300786
0.166869 0.269077 0.311693
0.252007 0.261609 0.311693
0.102042 -0.21869 0.311693
0.0937422 0.164634 0.311693
0.104268 0.309538 0.300786
0.232032 0.327748 0.311693
0.220007 0.26324 0.293511
-0.0584532 0.11724 0.311693
-0.143591 0.342446 0.300786
0.311821 0.126766 0.300786
-0.278955 -0.199353 0.285515
0.007153 0.128479 0.300786
0.103836 0.0695092 0.300786
-0.238243 -0.293536 0.311693
-0.27513 0.190131 0.279956
-0.268775 0.0798492 0.296926
0.0921042 -0.0901522 0.300786
-0.279143 -0.251677 0.300786
0.054004 -0.322653 0.311693
-0.0814109 0.273652 0.300786
-0.311669 -0.303627 0.101781
-0.270679 0.163641 0.300786
-0.2444 0.0774627 0.311693
0.119651 0.127439 0.311693
-0.274288 0.0261647 0.29704
0.0206326 -0.34629 0.300786
0.278164 -0.0113117 0.300786
0.169919 -0.274121 0.311693
0.0621176 0.184894 0.300786
-0.109323 -0.204733 0.311693
0.264347 -0.0602037 0.28654
0.221405 0.267361 0.298085
0.277043 0.111181 0.282198
-0.261493 -0.343396 0.300786
0.294019 0.314067 0.311693
0.100604 0.192534 0.300786
-0.183457 -0.176365 0.300786
-0.260938 -0.256416 0.248036
0.260788 -0.193996 0.300786
0.0893916 0.277903 0.28227
0.170729 0.150758 0.300786
-0.226321 -0.262205 0.294462
-0.278536 0.100557 0.294325
0.32209 -0.20534 0.311693
0.164743 -0.197099 0.311693
0.177629 -0.241943 0.311693
0.219985 0.083503 0.300786
-0.27334 -0.0474003 0.295115
-0.276776 0.178353 0.281931
0.265399 0.181081 0.290041
0.248602 -0.277283 0.296369
-0.234404 0.348992 0.308568
-0.170314 0.136292 0.300786
0.0287841 -0.178196 0.300786
0.237957 0.20353 0.288224
0.0955063 -0.188175 0.311693
0.158077 -0.209566 0.300786
-0.275723 -0.0263576 0.300786
-0.265399 -0.19475 0.286217
-0.0716064 -0.264962 0.289988
-0.0623767 0.254356 0.311693
0.26493 0.21057 0.285828
-0.324392 0.305961 0.300786
0.321372 0.317415 0.0460824
-0.258214 0.266971 0.221501
-0.260156 -0.106559 0.311693
-0.255116 0.0451136 0.300786
0.0256865 0.307792 0.300786
0.215641 -0.0947457 0.300786
0.266926 -0.0224169 0.296764
0.150513 -0.0353701 0.311693
-0.3076 0.17976 0.311693
-0.0238672 0.188338 0.300786
0.337473 -0.066928 0.311693
0.257816 0.258734 0.285736
-0.256557 -0.152275 0.311693
0.251055 0.264962 0.290321
0.173886 -0.325468 0.311693
0.3359 -0.185697 0.311693
-0.233831 -0.310255 0.311693
0.143374 -0.134568 0.311693
0.187871 0.0251982 0.300786
-0.018129 0.276881 0.282473
-0.33462 -0.0880511 0.311693
0.131229 -0.256888 0.300786
-0.0407719 -0.305267 0.300786
-0.0624451 0.306127 0.300786
0.340759 -0.0980131 0.300786
-0.137638 0.0636919 0.300786
0.137954 -0.264099 0.29018
0.101869 -0.0207921 0.300786
-0.277093 -0.131862 0.282248
0.298081 0.324811 0.300786
0.0634577 -0.0706005 0.311693
-0.272527 0.0354249 0.295988
-0.243691 -0.346719 0.311693
-0.0793824 -0.246049 0.300786
-0.0839398 -0.106091 0.311693
-0.208663 -0.264486 0.311693
0.203388 0.141248 0.300786
-0.155661 -0.115384 0.311693
-0.0927883 -0.281672 0.311693
-0.282911 0.257853 0.311693
-0.173309 0.277186 0.290464
0.280309 -0.201603 0.28424
-0.114804 0.167371 0.311693
0.217588 0.262823 0.311693
0.195164 -0.264471 0.282045
-0.154167 -0.234628 0.311693
0.3083 0.312172 0.116467
0.277489 0.225073 0.300786
-0.147085 -0.244994 0.300786
0.0751982 -0.300707 0.300786
-0.0774179 -0.276574 0.311693
-0.305188 -0.15164 0.300786
-0.188311 -0.0915951 0.311693
0.18433 -0.261477 0.299998
-0.239638 0.144464 0.311693
0.225714 -0.268002 0.280389
0.272833 -0.19549 0.282028
-0.233223 -0.210729 0.283723
-0.0415176 -0.10457 0.311693
0.254051 0.226827 0.294462
0.268096 0.25326 0.281787
-0.133036 0.21322 0.311693
0.173385 0.313543 0.300786
0.279356 0.14426 0.285369
-0.330531 0.0235365 0.300786
-0.309179 -0.322566 0.00513359
-0.261795 0.286662 0.311693
-0.00736913 -0.194129 0.311693
0.272383 -0.20145 0.300612
0.0625678 0.267161 0.311693
0.167067 -0.272996 0.300786
-0.100959 0.297208 0.300786
-0.30752 0.315174 0.00505508
0.277623 -0.106462 0.286198
-0.245628 0.179229 0.311693
0.329848 -0.050493 0.300786
0.283415 0.269679 0.300786
0.322678 0.12701 0.311693
-0.279687 -0.218592 0.284903
-0.101768 -0.116068 0.300786
0.279331 0.279844 0.300786
-0.203308 -0.101736 0.311693
0.282446 -0.330595 0.300786
-0.348991 0.245217 0.304613
-0.219637 0.259203 0.311693
-0.320872 0.23139 0.311693
0.301464 -0.225307 0.300786
-0.348991 0.300977 0.304568
0.276624 -0.242514 0.297467
0.264536 0.196461 0.288563
0.263351 0.214362 0.293144
-0.0135847 -0.259618 0.311693
-0.348991 0.00601837 0.307871
-0.018665 -0.119156 0.311693
-0.0426618 0.171027 0.300786
-0.319697 -0.260212 0.311693
-0.265883 0.262483 0.207994
0.252328 -0.230511 0.294462
-0.267978 0.143546 0.281462
-0.0803341 -0.0550588 0.300786
0.010513 -0.247153 0.300786
-0.0440945 0.132657 0.300786
0.269737 -0.129425 0.295988
-0.283757 0.154531 0.311693
0.240712 0.262129 0.292349
-0.149236 0.143033 0.311693
-0.181981 0.020579 0.311693
0.169351 0.11122 0.311693
-0.201887 -0.272792 0.294223
0.159277 0.0792987 0.311693
0.020934 0.147481 0.311693
0.219474 -0.277108 0.295319
-0.15955 -0.063857 0.311693
-0.146364 0.323624 0.300786
0.029515 -0.0911231 0.311693
-0.276677 0.0971513 0.296186
0.116872 0.0151184 0.311693
0.126293 0.0369562 0.311693
0.324777 -0.305425 0.00381725
-0.331257 0.304117 0.311693
0.0772397 -0.0281029 0.300786
-0.199179 -0.263654 0.311693
0.180995 -0.258536 0.300786
-0.278486 0.198506 0.287311
-0.0401952 0.340298 0.311693
-0.310748 -0.301154 0.110749
0.345087 -0.321158 0.300919
0.289164 -0.235433 0.311693
-0.207418 -0.0471349 0.311693
0.139915 -0.322855 0.300786
0.101729 0.0471607 0.311693
-0.278486 -0.078044 0.288549
0.242507 -0.0180012 0.311693
-0.0512469 -0.240849 0.311693
0.0337876 0.262947 0.292806
-0.0327923 0.243404 0.300786
0.152934 0.00427246 0.300786
0.233928 -0.245969 0.294462
-0.18374 0.196336 0.300786
0.278744 -0.208754 0.295344
0.149556 0.203989 0.311693
0.258371 0.114804 0.300786
-0.0572831 -0.0438633 0.311693
-0.301534 -0.184204 0.311693
0.326328 0.268116 0.311693
-0.31734 -0.205967 0.300786
0.0719654 0.145828 0.300786
-0.206075 0.323899 0.300786
0.0926857 -0.0601968 0.311693
0.33508 -0.187157 0.300786
0.289837 -0.0281026 0.300786
-0.0245793 0.175726 0.300786
-0.0198581 -0.000279009 0.311693
0.188863 0.175272 0.311693
-0.0713934 -0.0204874 0.300786
0.22232 0.271502 0.282028
0.0694144 -0.236848 0.300786
0.181832 0.119846 0.311693
0.196395 0.183897 0.311693
-0.0999423 0.273758 0.296784
-0.0545397 -0.047468 0.311693
-0.276514 -0.19747 0.280444
-0.330226 0.326969 0.300786
-0.18957 0.00819656 0.300786
0.345039 -0.293133 0.311693
0.00705183 0.272253 0.295115
0.282685 0.0933468 0.311693
-0.0578542 0.0910793 0.311693
-0.26715 -0.00484705 0.279986
-0.151846 0.0978267 0.311693
-0.328521 -0.0681067 0.300786
-0.31068 -0.0974242 0.311693
0.224848 -0.122931 0.311693
-0.279245 -0.109452 0.285409
0.304788 0.159967 0.300786
0.038526 0.225366 0.311693
-0.0403057 -0.102335 0.311693
-0.00850421 0.283466 0.300786
-0.121688 -0.337837 0.311693
-0.317815 -0.202726 0.311693
-0.339951 0.0172177 0.300786
-0.120479 -0.0730098 0.311693
0.22273 0.284343 0.311693
0.0400304 -0.138046 0.300786
0.0293025 0.22789 0.300786
-0.278486 0.249472 0.288119
0.107453 -0.162965 0.300786
-0.2046 -0.266329 0.29783
0.00320357 -0.270793 0.300786
-0.239234 -0.237735 0.283555
-0.160346 -0.000365257 0.300786
0.269371 -0.020314 0.282028
-0.309824 -0.151086 0.311693
0.264536 -0.133134 0.287218
-0.254084 0.115097 0.311693
-0.277508 -0.226813 0.281438
-0.275384 0.281253 0.311693
-0.00808471 0.307057 0.300786
0.254415 -0.110586 0.311693
0.0305325 0.269631 0.282028
0.115491 0.334114 0.300786
-0.306637 0.306054 0.311693
0.0946533 -0.321805 0.311693
0.231313 0.303158 0.300786
-0.308782 0.311369 0.0909285
0.270885 -0.170589 0.300786
-0.18025 -0.12583 0.311693
-0.13345 0.272871 0.282901
-0.127046 0.121627 0.311693
-0.12248 -0.165056 0.300786
-0.173529 -0.277186 0.288452
-0.13096 -0.265292 0.296793
-0.00846973 -0.261949 0.292954
-0.134338 0.164826 0.300786
0.0278295 0.336073 0.300786
-0.0273448 0.18801 0.300786
-0.137645 0.267608 0.296375
-0.193902 -0.10977 0.311693
-0.199012 -0.229923 0.300786
0.324042 -0.246927 0.311693
0.0949615 -0.281576 0.300786
-0.172857 -0.145751 0.300786
-0.138345 0.138748 0.311693
0.153492 -0.270629 0.311693
-0.126623 -0.276526 0.282117
-0.210041 -0.343645 0.311693
-0.236391 0.262941 0.286188
-0.029705 0.277186 0.291887
-0.276661 -0.0890468 0.296202
0.279844 -0.0700257 0.2919
0.252276 -0.231035 0.294462
-0.263787 0.0835822 0.311693
0.195371 -0.318339 0.311693
-0.0088045 -0.156071 0.300786
0.192898 -0.271344 0.295988
-0.306019 0.00704658 0.311693
0.00683218 0.0816752 0.300786
0.185054 0.0381147 0.311693
0.0343104 0.272665 0.282901
-0.242233 0.240426 0.294462
-0.223746 0.167053 0.311693
0.201136 -0.164483 0.311693
0.29404 -0.284367 0.160796
-0.262517 0.218703 0.294462
-0.310451 0.326941 0.00436585
0.311463 -0.163727 0.300786
-0.0219122 -0.277913 0.292284
0.32447 -0.0562724 0.300786
-0.293631 -0.0576815 0.311693
0.265399 0.243772 0.286428
0.228503 0.267821 0.311693
-0.331772 -0.0911359 0.311693
0.00404397 0.314615 0.300786
0.179248 -0.0149986 0.300786
-0.28465 0.202858 0.300786
0.133804 0.123724 0.311693
-0.118657 0.265219 0.281296
-0.0725331 0.14167 0.300786
-0.267332 -0.0147034 0.300786
-0.0656372 -0.330913 0.311693
0.229482 -0.202929 0.311693
0.0802522 -0.0158949 0.311693
0.280044 -0.183238 0.294042
-0.0428593 -0.273739 0.281286
-0.295076 0.0659434 0.300786
0.183557 -0.0700949 0.300786
-0.343572 0.173578 0.311693
-0.195603 -0.277566 0.29486
-0.253301 0.261794 0.243308
0.0865652 -0.174887 0.300786
0.154112 -0.307972 0.311693
-0.321534 0.315598 0.0348994
0.311029 0.194522 0.311693
0.319682 0.332268 0.300786
0.202183 0.177391 0.300786
-0.0391926 0.00054872 0.300786
-0.348556 -0.251704 0.311299
-0.170491 0.268399 0.281257
0.16096 -0.27363 0.300786
0.150179 -0.111533 0.300786
0.0160062 0.00501671 0.311693
-0.245082 0.0584654 0.300786
-0.189917 -0.166807 0.300786
0.215107 0.240668 0.294462
-0.00865015 -0.09425 0.300786
0.188233 -0.227779 0.300786
-0.321198 0.322473 0.0806069
-0.281676 0.0327051 0.300786
0.0562753 0.318252 0.311693
0.159545 0.302893 0.311693
-0.262618 -0.196344 0.29363
-0.31918 0.224578 0.300786
0.335179 0.248434 0.311693
0.2484 0.316297 0.300786
0.26166 -0.250576 0.294462
0.177636 -0.232514 0.300786
-0.0201635 -0.282108 0.311693
0.216472 -0.181921 0.311693
0.1201 0.0243582 0.311693
0.342882 0.225943 0.311693
-0.113132 0.193394 0.300786
0.0205144 0.275108 0.279864
-0.339361 0.135011 0.300786
0.285522 0.142421 0.311693
0.279632 0.0139046 0.294456
0.270524 -0.184253 0.300786
-0.259554 0.337141 0.311693
-0.215679 0.275765 0.281354
-0.0434667 -0.0728526 0.311693
-0.0600409 0.0161883 0.300786
-0.313991 0.213763 0.311693
-0.230178 -0.0284629 0.300786
0.234773 -0.161561 0.300786
-0.10854 0.0363108 0.311693
-0.0180153 0.268233 0.280802
-0.292245 -0.0729699 0.311693
0.125755 -0.203749 0.311693
-0.300166 0.306813 0.130321
0.198698 0.291042 0.311693
0.0992869 0.294567 0.311693
-0.346573 -0.251953 0.300786
-0.249614 -0.21065 0.294462
-0.0458722 0.227926 0.311693
0.101953 -0.248715 0.311693
-0.265913 -0.274553 0.210036
0.250496 -0.040788 0.311693
-0.0901504 -0.0344211 0.311693
-0.202107 0.141212 0.300786
0.231888 0.288362 0.300786
0.297833 0.298075 0.149208
-0.277103 0.125768 0.300786
0.231225 0.224479 0.283555
-0.188852 -0.348992 0.308693
-0.114816 0.267106 0.280774
0.103545 0.124049 0.311693
-0.235898 -0.21696 0.300786
-0.152213 0.0215903 0.300786
0.319228 0.290821 0.300786
0.215037 0.332733 0.300786
-0.259557 -0.252864 0.230994
-0.265851 -0.159495 0.296918
0.0253906 -0.121885 0.300786
0.17441 -0.274482 0.311693
-0.107772 -0.205382 0.311693
0.0033581 -0.123247 0.311693
-0.347508 0.0390199 0.311693
-0.256664 0.168527 0.311693
0.272332 -0.194397 0.311693
0.328841 0.224407 0.311693
-0.116337 0.264509 0.285834
0.0496249 0.219734 0.300786
-0.231142 -0.274972 0.311693
0.0187896 0.31679 0.311693
-0.148269 0.269008 0.295115
0.0951041 -0.0164769 0.300786
-0.283368 -0.201745 0.300786
-0.234012 -0.0438891 0.300786
0.174068 -0.0168554 0.311693
0.136981 0.264962 0.288432
-0.231211 0.210273 0.286909
-0.190397 0.268415 0.294644
-0.272287 -0.2959 0.311693
-0.198608 0.149983 0.311693
0.0281751 -0.0463127 0.311693
0.339689 -0.0953534 0.300786
-0.25666 -0.0939239 0.300786
0.168775 0.278395 0.291533
-0.297506 0.0465308 0.300786
0.208712 -0.235372 0.311693
0.274282 0.282668 0.311693
0.00276589 -0.263766 0.282749
0.280715 -0.236818 0.300786
-0.172049 -0.176885 0.311693
0.120675 -0.240355 0.300786
0.285296 -0.0868951 0.300786
-0.165567 -0.284327 0.311693
0.134273 0.330891 0.300786
0.200377 -0.219791 0.300786
-0.27944 0.234946 0.284601
-0.290005 -0.177342 0.300786
0.11705 -0.03797 0.300786
-0.256235 0.259695 0.293701
0.0843093 -0.272414 0.295115
0.184369 0.0133491 0.311693
-0.144616 -0.0683284 0.311693
-0.264269 -0.0533229 0.282682
0.277623 -0.0252017 0.289835
-0.265399 0.221694 0.290723
0.264835 0.280671 0.300786
-0.231247 0.277926 0.28352
-0.0717857 0.157972 0.300786
-0.278846 -0.215256 0.291538
-0.248665 0.307405 0.300786
0.259635 -0.200888 0.294462
0.11515 0.32303 0.300786
-0.020773 0.156966 0.311693
0.244265 -0.278805 0.283173
0.278486 0.00852844 0.288881
-0.183165 -0.123554 0.300786
-0.195887 -0.122146 0.311693
-0.028128 -0.100167 0.300786
-0.0365042 0.323815 0.300786
-0.207989 0.0547301 0.300786
0.263485 -0.152448 0.300786
-0.0858267 0.172298 0.311693
-0.21469 -0.0991854 0.300786
0.0897414 -0.317158 0.311693
0.277123 0.0103013 0.281049
0.0613751 -0.303156 0.311693
-0.206217 0.249452 0.311693
0.284825 0.278369 0.300786
0.0262976 -0.0635208 0.311693
0.286714 0.255095 0.300786
-0.083221 -0.0164233 0.311693
0.127557 0.034214 0.311693
-0.0808345 -0.0377483 0.300786
0.100232 -0.0522308 0.300786
-0.331651 -0.127954 0.300786
-0.212966 0.242387 0.300786
-0.00838208 0.301298 0.311693
-0.142553 0.298869 0.311693
0.204265 -0.264962 0.290109
0.278486 -0.226814 0.289013
-0.0346716 0.30597 0.300786
0.230392 -0.278918 0.300786
0.234877 -0.015777 0.311693
0.248627 -0.199732 0.292087
0.319587 -0.0571846 0.311693
-0.128376 -0.102813 0.300786
-0.186585 -0.255421 0.300786
0.238832 0.313512 0.300786
0.023296 0.253842 0.311693
-0.135964 -0.124272 0.311693
-0.278508 0.012031 0.300786
0.315957 0.228031 0.311693
-0.00321859 0.271829 0.311693
-0.24858 -0.276928 0.296722
-0.230746 0.154747 0.311693
0.302791 0.212004 0.300786
-0.0302434 -0.279396 0.300786
-0.0124347 -0.0121804 0.300786
0.000234514 -0.262049 0.284659
-0.0194742 0.277944 0.300786
0.139774 0.231462 0.311693
0.125633 0.341567 0.311693
-0.272242 0.306196 0.300786
-0.276374 -0.0761724 0.280304
-0.176955 -0.27805 0.288323
-0.176177 0.165942 0.300786
0.200418 0.268994 0.311693
-0.259282 0.348992 0.304796
0.0224043 -0.191215 0.300786
0.22007 0.24722 0.311693
0.274344 -0.181426 0.280831
-0.330253 0.245591 0.311693
-0.0282016 -0.166739 0.311693
-0.195383 -0.273129 0.295988
0.292365 0.243268 0.311693
-0.173468 -0.279393 0.28612
0.29188 0.249239 0.311693
-0.146721 0.0808187 0.300786
0.0496948 -0.0674724 0.300786
0.0544816 -0.211831 0.311693
0.0932326 -0.0239099 0.311693
0.250481 0.267414 0.296912
-0.23266 -0.259121 0.311693
-0.0229937 0.272725 0.282901
0.273152 -0.0760862 0.282901
0.0762319 0.33887 0.311693
-0.0899575 -0.118072 0.311693
-0.0929365 0.168144 0.311693
0.20528 -0.121348 0.311693
-0.268341 -0.0899983 0.297752
-0.272702 0.221063 0.300786
0.166424 -0.217124 0.311693
0.248976 0.253488 0.300786
0.262476 0.271696 0.214911
0.264615 0.236648 0.282337
-0.200546 0.105304 0.300786
-0.0872781 -0.269456 0.282028
-0.0410579 0.00215977 0.300786
-0.151386 0.267855 0.311693
0.16254 -0.130711 0.311693
-0.275788 0.0886057 0.297076
-0.050758 -0.268828 0.282028
-0.231615 0.0697854 0.300786
-0.116803 -0.273457 0.311693
0.111296 -0.26274 0.286114
0.228397 0.297189 0.300786
-0.0329182 0.205116 0.300786
0.056872 0.171271 0.300786
-0.254234 0.277349 0.300786
-0.268369 -0.114896 0.28254
0.274611 0.0434947 0.295362
-0.0989369 -0.194928 0.300786
-0.315027 0.331644 0.00343501
0.0128365 0.16239 0.311693
-0.0707747 0.221973 0.311693
0.150741 0.233052 0.300786
-0.118175 0.225182 0.300786
0.0891858 -0.171943 0.311693
-0.237644 -0.26048 0.283555
-0.301732 0.170798 0.300786
0.0450291 -0.0119887 0.311693
0.0412185 0.100049 0.300786
-0.292228 0.286169 0.14598
0.114162 0.262009 0.311693
0.248166 0.262349 0.284157
-0.147559 0.0452269 0.300786
0.277674 0.116796 0.296418
-0.0988122 -0.332998 0.311693
-0.240242 -0.297947 0.300786
0.240093 -0.296953 0.300786
-0.166455 -0.171617 0.311693
-0.191554 0.277186 0.286016
-0.0382597 0.100685 0.300786
-0.244031 0.2398 0.265108
0.195546 0.345675 0.300786
0.20226 -0.25133 0.311693
-0.0972534 -0.105229 0.300786
-0.255769 -0.25329 0.259407
0.321824 -0.329975 0.311693
-0.325099 0.276772 0.311693
-0.135754 0.173319 0.311693
-0.246124 0.0759446 0.311693
-0.107219 0.299469 0.300786
0.140079 0.0180818 0.311693
0.112134 -0.250675 0.300786
-0.280893 0.19718 0.300786
0.247535 -0.307481 0.311693
0.182706 -0.146143 0.311693
-0.296687 0.243728 0.311693
-0.0137321 0.274606 0.300786
0.275618 0.0385967 0.297187
-0.0715633 -0.348992 0.306782
0.0602749 -0.111515 0.300786
-0.316874 0.272807 0.300786
-0.278044 -0.126692 0.294818
0.0497105 -0.264268 0.29454
-0.281321 -0.235733 0.300786
0.27404 -0.0884651 0.296356
0.103322 -0.177191 0.311693
-0.2732 0.0274869 0.282901
-0.110005 -0.22663 0.311693
-0.258675 -0.0659278 0.311693
0.167794 0.139414 0.300786
0.0532206 -0.240795 0.300786
-0.217852 -0.223843 0.291556
-0.107805 0.26796 0.280338
-0.280771 0.0380441 0.300786
0.11817 0.156438 0.300786
-0.328186 -0.213724 0.300786
0.213363 -0.260591 0.283555
0.153915 -0.256948 0.311693
-0.253539 -0.0334715 0.311693
0.233299 0.241609 0.283555
0.27049 -0.0751341 0.311693
-0.196496 0.188069 0.300786
0.0499819 0.0946038 0.300786
0.263197 0.23457 0.294262
-0.0551821 0.27805 0.290602
-0.187605 0.0866895 0.311693
-0.255958 0.175427 0.300786
-0.12968 -0.312458 0.300786
-0.0414659 -0.27644 0.280806
-0.33371 0.262623 0.311693
-0.12183 0.287115 0.300786
0.316462 -0.0249529 0.300786
0.166142 0.29964 0.311693
0.132538 0.0128068 0.300786
-0.243625 0.214451 0.311693
-0.275117 0.0508987 0.296762
0.339821 -0.0108441 0.300786
-0.149442 0.00302258 0.300786
-0.276254 0.254227 0.286506
-0.0731505 0.210892 0.300786
0.242758 0.144243 0.311693
-0.0848906 -0.230275 0.300786
0.239173 0.0647026 0.311693
0.259267 0.0815289 0.311693
-0.244521 0.152891 0.300786
-0.318376 0.219594 0.311693
0.00102761 -0.102158 0.300786
-0.0303045 -0.0231129 0.300786
0.00724739 0.324149 0.311693
-0.260619 -0.0430025 0.311693
-0.199242 -0.297961 0.311693
0.169822 -0.204408 0.311693
0.169234 -0.303793 0.311693
-0.162777 0.329595 0.311693
0.331692 -0.314387 0.311693
0.254777 0.239741 0.300786
0.231858 -0.139355 0.311693
0.0848894 -0.30965 0.311693
-0.0690069 -0.277212 0.282805
0.3032 0.216284 0.311693
0.0487183 0.341745 0.300786
0.303584 -0.133814 0.300786
-0.217082 -0.264099 0.286721
0.0568676 -0.0519549 0.300786
-0.268492 -0.150982 0.28288
0.152255 0.262583 0.291982
0.268089 -0.0651177 0.311693
-0.254494 -0.284624 0.300786
0.14472 -0.037829 0.300786
0.175124 0.0947594 0.311693
0.107301 0.182839 0.311693
-0.177207 0.276733 0.2811
0.0873693 0.199299 0.311693
-0.147032 0.264685 0.285898
-0.278916 -0.0539479 0.295171
-0.264535 0.0265618 0.288164
0.0926522 -0.19219 0.311693
0.0247292 0.278558 0.291592
0.326475 0.293532 0.300786
-0.294916 0.0735681 0.300786
0.0829811 -0.167844 0.311693
0.119622 0.229328 0.311693
-0.265399 -0.00187448 0.289221
-0.118172 0.221829 0.311693
-0.278538 0.106714 0.28659
0.32089 -0.0595931 0.300786
-0.165946 -0.249029 0.300786
0.265527 -0.0130101 0.300786
0.237617 0.23675 0.275854
0.0533714 0.311873 0.311693
-0.263492 -0.0660705 0.293327
-0.273334 -0.197533 0.300786
-0.319534 0.234544 0.300786
-0.264336 0.0407703 0.291479
0.25379 0.289021 0.311693
0.00528094 -0.00951695 0.311693
0.163195 -0.0381207 0.311693
0.250393 0.210779 0.294462
-0.0274954 0.21781 0.300786
-0.0837011 -0.266599 0.281143
-0.170491 -0.0169771 0.311693
-0.168626 -0.333427 0.300786
-0.163284 0.304628 0.311693
-0.0788607 -0.217602 0.300786
0.23902 -0.274816 0.311693
0.277789 -0.094398 0.285938
0.211967 0.271221 0.300786
-0.0777058 -0.262869 0.293056
0.196421 0.280672 0.300317
0.211436 0.280191 0.284836
0.244046 0.220627 0.311693
-0.057075 -0.348992 0.309989
-0.186845 -0.270639 0.295115
0.311008 0.348436 0.305396
0.210465 0.345168 0.300786
0.0983401 -0.262976 0.284775
0.237515 -0.264844 0.281672
0.259195 0.0829392 0.311693
0.0150862 -0.126422 0.311693
0.153353 0.157316 0.300786
0.311831 -0.305197 0.118763
0.174039 0.123226 0.300786
-0.296956 0.339894 0.300786
-0.0243631 0.294697 0.311693
-0.217049 -0.320912 0.300786
-0.0486755 -0.173379 0.300786
0.0710146 -0.277274 0.282867
-0.295463 0.348992 0.310203
0.0184851 0.293733 0.300786
-0.0675607 -0.11127 0.311693
-0.104681 -0.263326 0.285403
-0.333484 -0.0140185 0.311693
0.0020732 0.0841291 0.311693
-0.276325 -0.206337 0.296538
0.078313 -0.20569 0.300786
-0.12978 -0.278852 0.311693
0.121263 -0.344458 0.300786
0.184319 -0.3369 0.300786
0.117742 -0.236935 0.311693
0.00438681 -0.297046 0.300786
0.211423 -0.19745 0.311693
0.150299 -0.00349364 0.311693
0.33985 -0.131628 0.300786
-0.270914 0.0124042 0.300786
0.289385 -0.0670041 0.311693
-0.00591433 -0.0755379 0.311693
-0.150615 0.271214 0.311693
0.13969 -0.164912 0.311693
0.0974528 -0.169589 0.311693
-0.320616 0.0950259 0.311693
0.29475 0.247366 0.311693
-0.211742 -0.145831 0.311693
0.348991 -0.0523919 0.303295
-0.103748 -0.34898 0.310426
0.267882 -0.118233 0.281199
0.236125 -0.243412 0.275063
-0.282118 -0.0428144 0.300786
-0.279688 -0.129841 0.284906
0.257251 0.194244 0.311693
0.114 0.330469 0.300786
-0.304588 0.297337 0.137115
0.215175 -0.273974 0.311693
-0.18269 0.262336 0.292182
0.274419 0.206474 0.297389
-0.184453 0.178549 0.300786
0.260141 0.081238 0.311693
-0.00150242 -0.0524382 0.311693
-0.148408 0.148518 0.300786
0.335956 -0.167047 0.311693
-0.220318 -0.162315 0.311693
-0.123881 0.276377 0.280744
-0.256461 0.260098 0.223468
0.131579 0.00108036 0.311693
-0.180329 0.0679234 0.311693
0.0396287 0.271423 0.295988
0.278207 0.0943359 0.292232
-0.0841741 -0.00828046 0.300786
-0.189553 0.0710055 0.311693
0.268956 0.115622 0.281587
-0.0941522 0.117644 0.300786
0.0641595 0.300568 0.300786
0.0546174 -0.331423 0.311693
-0.248114 -0.262349 0.284272
0.0821359 0.143844 0.300786
0.0642388 0.291635 0.300786
0.103696 -0.291154 0.311693
-0.07471 -0.0173657 0.300786
0.0140933 0.0659125 0.311693
0.234307 -0.253161 0.294462
0.239112 -0.0172003 0.311693
0.0900179 0.237626 0.300786
0.222201 0.0780896 0.311693
0.26909 0.192463 0.300786
0.119356 -0.121277 0.311693
0.312142 0.320857 0.0910111
0.0247774 -0.109891 0.311693
-0.0220193 -0.202396 0.300786
-0.332052 0.181364 0.311693
-0.215111 0.276215 0.281805
-0.34032 -0.299722 0.311693
0.297804 0.290519 0.154448
0.299757 0.302829 0.300786
-0.185951 -0.333743 0.300786
0.265952 -0.0011718 0.280999
-0.0753344 0.0824368 0.311693
0.274163 0.0278549 0.296691
0.261444 -0.0576711 0.300786
-0.167461 -0.283897 0.311693
0.264531 -0.237923 0.286953
-0.0609203 -0.2181 0.311693
-0.256868 0.230074 0.283555
-0.085077 -0.118291 0.311693
-0.143836 0.148889 0.311693
0.326493 -0.210962 0.311693
0.260386 0.215419 0.294462
-0.131245 0.0713103 0.300786
0.265399 -0.12549 0.291606
-0.268663 -0.100853 0.295115
-0.0465226 0.187896 0.311693
-0.291108 0.12455 0.300786
-0.0704404 0.332122 0.300786
0.0964082 -0.279056 0.28532
0.0520685 -0.0993608 0.311693
-0.175682 -0.00678992 0.311693
-0.316275 0.190778 0.300786
0.207423 -0.263235 0.311693
0.260023 0.221741 0.283555
-0.0916034 0.00841627 0.311693
0.275301 -0.159109 0.280896
-0.181336 0.0940675 0.300786
0.279573 0.0407752 0.291802
-0.144233 0.126875 0.311693
0.306318 0.314785 0.0977747
0.237423 0.334909 0.311693
-0.264498 -0.0698808 0.311693
0.175148 0.348992 0.309889
-0.218461 -0.283757 0.311693
-0.260279 -0.203195 0.283555
0.227429 -0.233605 0.283555
0.304674 0.195421 0.311693
-0.109712 -0.152831 0.300786
-0.160635 -0.226999 0.300786
-0.251911 0.14292 0.311693
-0.269645 -0.174847 0.282901
-0.0789922 -0.167922 0.311693
-0.190096 -0.0945688 0.311693
0.223778 -0.217707 0.290735
-0.294222 -0.139111 0.311693
0.0338644 0.188437 0.311693
0.00276285 0.266184 0.281559
-0.0695753 0.095374 0.300786
0.334149 -0.243138 0.311693
0.229713 -0.085542 0.311693
0.265207 0.0215351 0.285928
0.173647 -0.112272 0.311693
-0.266163 -0.0884041 0.300786
0.0208326 0.266156 0.297659
0.0758824 -0.312936 0.311693
-0.0363569 0.276013 0.296415
0.206825 -0.269363 0.295988
-0.107818 -0.0704751 0.311693
-0.13202 0.0676307 0.311693
0.186493 0.262212 0.292282
0.0506363 -0.326667 0.311693
-0.0347224 0.348992 0.302295
0.310168 0.186969 0.311693
-0.0884667 -0.128383 0.300786
-0.301738 0.209193 0.300786
0.0781906 0.269231 0.295115
0.00243944 -0.0715209 0.300786
-0.202443 -0.197642 0.300786
-0.231743 0.0320328 0.311693
-0.300672 0.060034 0.311693
0.0175301 0.220375 0.311693
-0.235142 -0.114544 0.300786
-0.342285 0.268016 0.300786
-0.0863218 -0.177014 0.311693
0.243711 -0.260514 0.311693
0.109185 0.100311 0.300786
0.277484 -0.129504 0.311693
0.089532 0.0248792 0.311693
0.0734377 -0.0046176 0.300786
-0.180334 0.194184 0.300786
-0.215802 0.348992 0.303225
0.120083 -0.311615 0.311693
-0.203471 0.269855 0.282901
0.202112 -0.0277793 0.300786
0.146145 -0.12956 0.311693
0.275131 0.250272 0.279956
-0.283638 0.0949447 0.300786
-0.225027 0.223361 0.300786
0.330233 0.312934 0.300786
-0.331758 0.303129 0.311693
-0.0133923 0.231169 0.300786
-0.265399 0.250822 0.289733
-0.0433048 0.164195 0.300786
0.073901 0.155298 0.300786
0.21904 -0.273254 0.300786
-0.0311191 -0.0963544 0.300786
-0.139319 0.195454 0.300786
-0.0216804 -0.00328675 0.311693
-0.325824 0.061246 0.311693
0.15066 -0.345163 0.300786
0.288542 -0.0365416 0.300786
0.222994 0.0272273 0.300786
-0.319761 -0.313999 0.0411043
-0.138688 0.160004 0.311693
-0.319353 0.321856 0.088606
-0.186248 -0.0646881 0.311693
0.0467913 -0.0407145 0.300786
-0.314926 -0.134273 0.311693
-0.280016 0.23336 0.311693
-0.0180859 -0.262132 0.300786
0.230681 -0.263615 0.2913
-0.0253745 0.295763 0.300786
-0.24391 0.279247 0.283615
-0.0886393 -0.214279 0.300786
0.224409 -0.267474 0.29806
-0.0015201 -0.0633523 0.311693
0.279801 -0.162267 0.300786
-0.149553 -0.273545 0.28182
-0.136527 0.290064 0.300786
-0.231454 0.20722 0.311693
0.0798173 -0.325694 0.300786
0.331374 -0.291053 0.311693
-0.32523 -0.197111 0.300786
0.260532 -0.156085 0.311693
0.213897 -0.0261548 0.311693
0.0396347 0.274458 0.311693
0.0702794 0.264623 0.283124
-0.310384 0.201616 0.311693
-0.0149329 0.267674 0.281827
-0.319557 -0.0349849 0.300786
-0.311112 0.31449 0.0784888
0.0701425 0.29009 0.300786
-0.214381 0.0744705 0.311693
0.216007 -0.263615 0.289081
0.246477 -0.239004 0.283555
0.0126148 -0.336418 0.300786
0.23911 0.247274 0.267919
0.348991 -0.0682301 0.307058
0.214289 -0.133681 0.300786
0.209595 0.153018 0.311693
-0.223865 0.314334 0.300786
0.293638 0.348992 0.30346
0.278894 0.0380544 0.285536
-0.0890559 -0.0867779 0.300786
0.00936627 -0.270453 0.311693
0.233371 -0.158592 0.311693
0.109403 0.0147442 0.300786
-0.147919 -0.275969 0.296459
-0.009202 -0.188102 0.300786
-0.133701 -0.255974 0.311693
-0.257849 -0.347277 0.300786
0.110791 0.193056 0.300786
0.276351 -0.182578 0.281504
0.265231 0.318356 0.300786
0.0408061 -0.201379 0.311693
-0.0566048 -0.130822 0.300786
0.265399 0.132627 0.286901
0.237226 0.276361 0.296066
-0.23294 -0.329361 0.311693
-0.102253 0.143849 0.311693
0.115203 -0.282246 0.311693
-0.0310388 0.262908 0.292838
0.0156891 0.262012 0.292671
0.101855 -0.191302 0.300786
0.0206329 -0.174203 0.311693
0.0206519 -0.0135859 0.311693
-0.108967 -0.264962 0.291161
-0.0186078 -0.0696387 0.311693
-0.307701 0.285322 0.300786
0.102935 0.192186 0.300786
-0.348991 0.160992 0.302183
0.270849 0.200884 0.295115
-0.146086 -0.0682909 0.300786
-0.302533 -0.310068 0.121821
-0.266715 0.112308 0.297781
0.278595 0.280716 0.300786
0.321745 0.0960019 0.311693
-0.0773703 0.27805 0.290053
0.268983 0.0887763 0.296355
0.262197 -0.263038 0.239081
0.194354 -0.272862 0.29337
0.21539 0.00563386 0.300786
-0.348991 -0.0325896 0.3068
-0.100872 -0.0057767 0.300786
0.162104 -0.0175088 0.311693
0.0471236 -0.0262146 0.300786
-0.263274 0.249485 0.300786
0.0913235 0.24454 0.311693
0.263354 -0.238332 0.29315
-0.176957 -0.0782404 0.300786
0.239094 -0.265741 0.282004
-0.245093 0.216955 0.294462
0.221879 -0.296283 0.311693
-0.348991 -0.196857 0.304001
-0.159535 -0.0187965 0.311693
0.113683 -0.274132 0.295247
0.322201 -0.345598 0.30751
0.190536 0.30452 0.300786
0.292158 0.295939 0.300786
0.202086 -0.020579 0.311693
0.0932432 0.0814795 0.300786
-0.089952 0.0740746 0.300786
0.141564 -0.120902 0.300786
0.278486 0.223247 0.287121
0.0576403 0.29371 0.300786
-0.327523 -0.236653 0.311693
-0.20958 0.306165 0.300786
-0.129602 -0.22447 0.300786
-0.157759 0.340326 0.311693
0.0630648 -0.0103227 0.311693
-0.257791 0.267225 0.225564
0.336034 0.0320005 0.311693
0.264536 -0.104133 0.289072
0.00380769 -0.268222 0.295115
0.157675 -0.116509 0.311693
0.195572 0.251935 0.300786
-0.0413069 -0.0110618 0.311693
0.276833 0.0749115 0.29603
0.273554 0.108356 0.282028
0.321855 0.0973129 0.300786
0.287833 0.228916 0.311693
0.346152 0.243245 0.311693
-0.192519 -0.347615 0.311693
-0.161438 -0.250721 0.311693
0.0587695 0.266103 0.296377
-0.282866 0.182877 0.300786
0.275215 -0.102082 0.281
-0.25459 0.225689 0.294462
0.23942 -0.270812 0.282028
-0.0467891 -0.0543267 0.311693
-0.141213 -0.029037 0.300786
0.250826 -0.0398511 0.300786
0.0421055 0.326522 0.311693
-0.26442 0.191253 0.300786
0.267259 -0.0744921 0.300786
0.274583 0.0540235 0.282732
0.220667 -0.0687988 0.311693
0.183149 0.00979447 0.311693
-0.254626 -0.0614719 0.311693
-0.16823 0.339478 0.311693
0.177824 0.0443814 0.300786
0.203172 0.299179 0.300786
0.115993 -0.190175 0.300786
-0.145439 -0.0611073 0.300786
-0.185027 -0.27805 0.287849
0.187343 -0.234607 0.311693
0.182746 0.0208555 0.300786
-0.0113871 0.266503 0.28124
0.196893 -0.178985 0.311693
-0.102326 0.0713744 0.300786
0.317872 0.3098 0.0831761
-0.348981 -0.182978 0.302057
0.0993719 -0.306528 0.300786
-0.0502858 -0.268769 0.295988
-0.0813143 0.267552 0.28149
-0.214874 -0.295973 0.311693
-0.17034 0.283047 0.300786
0.2631 -0.1551 0.286087
0.0840713 0.272683 0.300786
0.124836 0.0178643 0.311693
0.203062 0.196154 0.300786
-0.103692 -0.262334 0.284182
-0.0444766 -0.164169 0.300786
-0.213868 -0.0470298 0.311693
-0.157714 0.332706 0.300786
-0.331304 -0.00386384 0.300786
-0.274767 0.147873 0.28016
0.199291 -0.045347 0.300786
0.159418 0.0188769 0.311693
-0.334071 0.248267 0.311693
0.202292 0.08984 0.311693
-0.321717 0.31828 0.0269292
-0.320944 0.328675 0.311693
0.155512 0.144433 0.300786
0.0865844 -0.312835 0.300786
0.202115 -0.335139 0.311693
-0.262474 -0.215809 0.285464
0.343956 0.254086 0.300786
0.230127 0.348992 0.304779
-0.171766 0.0832926 0.300786
-0.279271 0.0755036 0.286324
0.113793 0.137662 0.300786
-0.161601 -0.263627 0.300786
0.0647306 -0.333817 0.311693
-0.223577 -0.254599 0.283555
-0.194994 -0.0554174 0.311693
0.174364 -0.119064 0.311693
0.227582 -0.254699 0.283555
0.253266 0.252133 0.311693
-0.278437 0.118373 0.294424
0.250371 0.00155321 0.311693
-0.180315 0.1487 0.300786
-0.216369 -0.227582 0.284565
0.162734 -0.136627 0.311693
-0.0998766 0.27931 0.285053
-0.113377 -0.0742153 0.311693
-0.313019 -0.034587 0.300786
0.175837 0.123025 0.311693
-0.0855432 0.0739798 0.311693
-0.101055 0.189016 0.311693
0.280575 -0.161595 0.285344
-0.168119 0.193389 0.300786
-0.221895 0.0939435 0.300786
-0.215821 -0.178661 0.311693
0.104827 0.15907 0.300786
0.286061 0.275851 0.177829
-0.214741 0.211027 0.311693
0.0507651 -0.164983 0.311693
-0.0966896 -0.069253 0.300786
-0.183001 0.0362081 0.311693
-0.130065 -0.283826 0.300786
0.220804 -0.266629 0.296903
-0.243893 0.158822 0.311693
-0.0876406 -0.274262 0.311693
0.013169 0.180877 0.311693
0.174007 0.234729 0.300786
0.284124 -0.285286 0.182636
-0.188582 -0.261477 0.298197
-0.32054 0.313554 0.0136804
-0.18906 -0.278499 0.300786
-0.0315521 -0.27805 0.289234
0.179332 -0.259004 0.311693
0.0623074 0.0527863 0.311693
0.27437 0.142049 0.297257
-0.19293 -0.243068 0.311693
0.299014 -0.290782 0.311693
-0.171913 0.18753 0.311693
-0.263769 0.136354 0.291685
-0.251932 0.216409 0.300786
0.283637 0.313146 0.300786
-0.16288 0.280274 0.311693
0.0165134 0.155415 0.300786
0.263527 0.144989 0.284661
0.280364 -0.25281 0.311693
-0.0732884 -0.227371 0.311693
0.326845 0.213551 0.300786
-0.264384 0.135508 0.292389
-0.217046 0.247412 0.294462
-0.265103 -0.10461 0.292127
0.120856 0.0418025 0.311693
-0.0121845 0.313978 0.311693
0.090087 0.27805 0.28905
-0.0580573 -0.171055 0.311693
-0.290356 -0.16848 0.311693
0.263615 0.0519695 0.283338
-0.15351 0.328491 0.300786
0.115711 0.334811 0.311693
0.346621 0.161917 0.300786
0.197095 0.0989844 0.300786
-0.032336 0.0814333 0.300786
0.15321 -0.335566 0.311693
0.0434705 -0.0512056 0.300786
0.318019 -0.25116 0.311693
0.154792 0.292263 0.311693
0.266695 -0.115202 0.281485
-0.134496 0.0433387 0.311693
-0.265399 -0.161795 0.289408
-0.210383 -0.278119 0.300786
0.264536 0.0234523 0.287645
-0.103139 0.133127 0.311693
0.15758 0.121199 0.300786
0.274913 0.191591 0.281827
-0.176078 -0.124904 0.311693
0.0414365 0.279107 0.292727
-0.148129 0.165382 0.311693
-0.268131 -0.185305 0.298012
0.16672 0.158098 0.311693
-0.236299 -0.275461 0.279999
-0.0766125 -0.069047 0.300786
-0.06382 0.000171602 0.311693
0.0715033 0.119159 0.311693
0.253311 -0.0511858 0.300786
-0.265399 0.174582 0.286094
0.13669 -0.229945 0.311693
0.061019 -0.0832795 0.311693
-0.181184 0.0995756 0.300786
0.0593896 0.0328756 0.311693
0.226967 -0.199325 0.300786
-0.157286 0.182681 0.311693
-0.0718327 0.277186 0.290635
-0.205797 -0.1954 0.311693
-0.115339 0.0746614 0.311693
-0.270837 -0.227222 0.282028
0.0282207 0.263341 0.294842
0.188107 0.00780022 0.311693
-0.164275 0.0728154 0.311693
-0.179372 -0.187572 0.300786
-0.227427 -0.0945186 0.300786
-0.308038 -0.276324 0.300786
-0.244524 0.214851 0.311693
-0.106851 0.262834 0.294335
-0.189965 0.138135 0.311693
-0.00323558 0.0123737 0.300786
0.276633 -0.185741 0.300786
-0.0421042 0.231464 0.311693
0.274501 0.102371 0.295115
-0.244973 0.211376 0.283555
0.0221209 -0.0866624 0.300786
0.151707 0.0905846 0.311693
-0.275373 0.0071014 0.279902
0.0556485 0.148944 0.311693
-0.0110456 -0.265493 0.281023
0.0176956 0.0338234 0.300786
-0.147063 0.083129 0.300786
-0.143415 -0.334535 0.300786
0.292663 0.231646 0.311693
0.0535243 0.1694 0.311693
-0.208113 -0.020579 0.311693
0.119957 0.286829 0.300786
0.337059 -0.219951 0.311693
-0.17935 -0.0121675 0.300786
0.117071 -0.279306 0.285072
0.304042 -0.348992 0.309479
0.305715 0.25461 0.300786
0.211927 -0.264825 0.282922
-0.278032 -0.188976 0.296057
-0.26551 -0.249935 0.282672
0.264536 0.00167197 0.291005
0.226237 -0.28168 0.300786
-0.178142 -0.280453 0.300786
-0.31332 -0.317312 0.0201105
-0.0523863 -0.213518 0.311693
0.0611538 -0.322775 0.311693
0.143301 0.115586 0.300786
-0.265587 0.0748265 0.282595
0.278486 -0.151114 0.28953
0.0116672 -0.130733 0.311693
0.0190804 -0.268965 0.282901
-0.0288753 -0.28945 0.311693
-0.279441 0.244408 0.291754
0.110017 -0.282022 0.311693
-0.22589 -0.273963 0.295115
0.276715 0.138067 0.296148
-0.266357 0.191567 0.280594
0.253551 0.142268 0.300786
-0.0121011 -0.276091 0.280457
-0.0602268 -0.119065 0.300786
0.00863433 -0.138709 0.311693
-0.0706146 -0.277186 0.290662
-0.219869 -0.331163 0.300786
0.18855 0.274058 0.311693
-0.263779 -0.124522 0.292609
0.00534603 0.333099 0.311693
-0.174423 -0.00851446 0.311693
0.298379 0.172695 0.311693
-0.210348 0.303847 0.311693
-0.0836132 0.274846 0.2971
0.0967334 0.244426 0.300786
-0.0787873 0.265372 0.300786
-0.276201 0.117798 0.296663
-0.195271 0.229853 0.311693
0.0624956 -0.252419 0.311693
-0.288362 0.342279 0.311693
-0.0117763 -0.117454 0.311693
0.0868391 0.272532 0.295988
-0.25864 -0.337774 0.311693
-0.140185 0.325231 0.300786
-0.0151853 -0.265539 0.297041
0.247196 0.203339 0.294462
0.273317 -0.124656 0.295115
-0.243685 0.279985 0.284426
0.290069 -0.236659 0.311693
0.298261 -0.0394893 0.311693
0.243399 0.252065 0.259061
0.197766 -0.171328 0.311693
-0.0908337 -0.203224 0.311693
-0.252521 -0.276396 0.311693
-0.307273 -0.237973 0.300786
-0.0594149 0.266739 0.281003
-0.200119 0.216841 0.300786
-0.220303 -0.0450489 0.311693
-0.318836 0.321152 0.0490885
0.0054552 -0.0627746 0.300786
-0.121974 0.069491 0.311693
-0.141782 -0.223064 0.311693
0.00221011 -0.287734 0.300786
-0.0942413 0.155611 0.300786
-0.274115 0.216575 0.295115
-0.0528351 -0.267826 0.295774
-0.250078 0.0454385 0.311693
-0.10339 -0.286731 0.300786
0.277216 0.068822 0.296876
0.0232494 0.126221 0.311693
0.316551 -0.32386 0.0704076
0.168369 -0.0193275 0.300786
-0.0643079 -0.209375 0.300786
0.0470826 0.143387 0.311693
-0.230736 -0.210649 0.300786
0.0587113 -0.00452137 0.311693
-0.0645575 0.136217 0.311693
0.110263 -0.241458 0.311693
-0.221856 -0.284634 0.300786
-0.267237 0.213632 0.298073
0.295762 0.131669 0.311693
-0.0544804 -0.0229599 0.311693
-0.0327664 -0.234022 0.311693
-0.218709 0.160169 0.311693
0.0778218 0.0316955 0.300786
-0.0722638 -0.233296 0.300786
0.0211669 0.264962 0.288265
-0.316565 -0.0922697 0.311693
-0.0347674 -0.0923651 0.311693
0.1603 -0.261749 0.300786
-0.267615 -0.1544 0.300786
-0.00728214 0.264332 0.292249
-0.162687 -0.172395 0.311693
-0.259457 0.15833 0.311693
-0.346116 -0.211587 0.311693
-0.253295 0.184716 0.311693
-0.186916 -0.21184 0.300786
-0.278652 -0.245568 0.283811
0.122471 -0.114803 0.311693
0.146387 -0.192859 0.300786
0.301094 -0.300644 0.113275
0.238313 0.2364 0.283555
0.343975 0.264625 0.311693
-0.213314 -0.0712888 0.300786
-0.106444 0.274681 0.281265
-0.261835 0.268361 0.209356
-0.0980584 -0.144858 0.300786
0.0697101 0.270292 0.282028
-0.277622 0.200264 0.289513
0.0879019 0.0843388 0.300786
0.247015 -0.27805 0.286741
0.0797852 0.0541477 0.311693
-0.0598019 -0.221302 0.311693
-0.0126227 -0.264099 0.289833
-0.18919 0.268119 0.300786
0.15722 0.219163 0.300786
0.054032 -0.283697 0.300786
0.109546 0.0271404 0.311693
0.341765 0.167235 0.300786
-0.147002 -0.114139 0.300786
0.128299 0.302578 0.311693
0.187178 0.11153 0.300786
0.19049 -0.264168 0.295671
-0.258563 0.320863 0.311693
-0.102055 -0.0612653 0.311693
0.268303 0.115608 0.295662
0.0574632 -0.0587963 0.311693
0.197924 0.262888 0.29686
-7.87675e-05 0.0297295 0.300786
0.113142 0.131602 0.311693
-0.225025 0.33011 0.311693
-0.144831 0.313534 0.311693
-0.140105 0.11835 0.300786
-0.280062 -0.170083 0.311693
0.189066 0.128478 0.300786
-0.315896 -0.325322 0.311693
0.0754001 0.336194 0.311693
-0.264859 -0.0788416 0.300786
0.20393 -0.188825 0.311693
-0.337654 -0.104527 0.300786
-0.141548 -0.0143635 0.311693
-0.326233 0.0792196 0.311693
0.211262 0.168723 0.300786
0.0167149 0.269575 0.300786
0.2471 -0.0861548 0.311693
0.252641 -0.244847 0.311693
0.00321664 0.263492 0.285464
-0.313129 0.27702 0.311693
0.314395 -0.320086 0.0182914
0.266265 -0.181753 0.29733
-0.2197 0.324579 0.311693
-0.171182 0.323183 0.300786
0.271288 0.0694458 0.300786
-0.120688 -0.112815 0.300786
0.263275 -0.113256 0.283677
-0.332703 0.0740069 0.311693
0.279134 0.20496 0.28545
0.0270468 -0.252882 0.311693
0.0649235 -0.249485 0.300786
0.0587963 -0.137626 0.300786
-0.180382 0.051467 0.311693
0.137321 -0.100621 0.300786
0.156428 -0.235354 0.311693
0.204716 0.125205 0.311693
0.0432609 -0.118067 0.300786
-0.31332 -0.316742 0.0259602
0.0922348 0.323558 0.300786
-0.275803 0.0559793 0.298064
-0.0147423 0.0558051 0.311693
0.264571 0.0727439 0.285698
-0.2786 -0.251027 0.285644
0.278486 -0.139232 0.287815
0.292987 -0.175683 0.311693
-0.167241 0.266671 0.281072
0.219501 -0.210037 0.311693
0.264724 -0.165209 0.295788
0.141437 -0.0182067 0.311693
-0.213475 0.0094564 0.300786
-0.2901 -0.178485 0.311693
-0.214228 0.267222 0.280821
-0.221407 -0.0801259 0.300786
0.188372 0.185595 0.311693
-0.24398 -0.0859001 0.300786
-0.320721 -0.235603 0.300786
0.0256208 0.0286084 0.300786
0.263698 -0.03376 0.293532
0.0793563 -0.057602 0.311693
0.030334 0.0885649 0.311693
0.0265784 0.243371 0.300786
-0.245468 -0.10572 0.300786
-0.0969709 -0.194477 0.311693
-0.324759 0.286869 0.311693
0.193148 -0.0838481 0.300786
0.118312 0.0242836 0.311693
0.165352 0.239135 0.311693
0.321215 -0.256461 0.311693
-0.273963 -0.28731 0.311693
-0.052837 0.261957 0.2851
-0.157323 0.150014 0.311693
-0.131478 -0.11014 0.311693
-0.265399 -0.177643 0.287526
0.221329 0.348992 0.303049
-0.277622 -0.146606 0.289211
0.0977917 0.0567962 0.311693
0.175973 -0.344943 0.311693
0.150689 0.277186 0.287999
-0.145261 -0.154538 0.300786
-0.185749 -0.187252 0.311693
0.113702 0.274488 0.296223
-0.130461 0.279013 0.293411
0.250789 -0.26173 0.311693
0.107249 0.0885063 0.311693
-0.0157427 -0.182538 0.311693
0.183255 -0.231341 0.300786
0.087547 -0.224616 0.311693
0.167178 0.221843 0.300786
-0.27652 -0.232307 0.300786
-0.0915165 0.0957194 0.311693
0.245383 0.282468 0.311693
0.0345528 0.279662 0.285957
-0.275993 0.277813 0.175262
0.277623 -0.172646 0.287222
0.206574 -0.00828862 0.311693
0.311239 -0.151757 0.300786
0.0207764 -0.0535692 0.300786
-0.240587 -0.254461 0.300786
0.341733 -0.269659 0.311693
0.0760627 -0.326759 0.300786
-0.292225 -0.32728 0.311693
-0.160996 0.338074 0.311693
0.12446 0.176598 0.311693
0.309296 -0.307036 0.0953728
-0.253593 -0.302436 0.300786
-0.090229 -0.0730817 0.300786
0.278486 -0.00798529 0.29083
-0.191324 0.334056 0.300786
-0.141999 0.222371 0.300786
-0.145946 -0.260785 0.300786
0.0545545 -0.0656152 0.311693
-0.278622 -0.223511 0.283782
0.28382 0.276326 0.171303
0.214873 0.239497 0.294462
-0.0711061 0.00289699 0.311693
0.182659 -0.271537 0.295988
-0.0866172 -0.178534 0.300786
