0.296589 0.0626613 0.272593
-0.0873434 -0.0564272 0.272593
0.332035 -0.330781 0.00923295
0.184744 0.0682836 0.272593
0.328608 -0.315375 0.205753
0.126003 0.237183 0.272593
0.153145 0.189148 0.264641
0.124437 -0.255516 0.264641
-0.252748 -0.189871 0.264641
-0.332429 0.0402361 0.272593
-0.286514 0.195008 0.264641
-0.314236 0.329929 0.0045786
0.339897 -0.0152414 0.272515
0.315472 -0.333169 0.123668
0.0785856 -0.00309608 0.266535
-0.299557 0.234042 0.272593
0.29838 -0.117942 0.264641
0.281475 -0.00345541 0.272593
-0.330899 -0.328356 0.0882047
-0.2585 0.0562414 0.272593
0.105741 0.117359 0.272593
-0.0551113 0.281445 0.272593
-0.21875 -0.104174 0.264641
0.3309 0.313466 0.204864
-0.0475319 0.338565 0.272593
-0.292156 0.159386 0.264641
0.31947 0.0489356 0.264641
-0.109113 -0.0602257 0.264641
-0.320975 -0.329762 0.0756189
-0.00190767 -0.0996183 0.264641
-0.14377 -0.17572 0.272593
0.3309 0.316081 0.0257311
0.204491 -0.244788 0.264641
-0.0194615 -0.000291201 0.266535
0.335092 -0.301754 0.249498
-0.137265 -0.339149 0.249498
0.195439 -0.00757163 0.264343
0.237438 0.0616637 0.264641
-0.251514 -0.209668 0.264641
-0.330264 -0.213554 0.272593
-0.0799401 0.0271304 0.272593
0.200336 -0.194913 0.264641
-0.18159 -0.131706 0.264641
0.3231 0.313102 0.0671773
0.267887 -0.321596 0.272593
-0.314732 -0.110064 0.264641
-0.185988 -0.148871 0.272593
0.226639 -0.00803978 0.264641
-0.0766289 0.237536 0.272593
0.0675647 -0.100739 0.272593
0.035039 -0.225831 0.264641
-0.148787 -0.131744 0.272593
-0.114501 0.169004 0.264641
0.336587 0.117175 0.249498
-0.0374991 -0.00506187 0.249498
0.127811 0.116464 0.272593
0.317666 -0.297957 0.264641
0.321135 0.329761 0.243837
-0.0368492 0.281391 0.272593
-0.332462 0.34074 0.270493
0.340738 0.0714312 0.268352
-0.212723 -0.0366132 0.264641
-0.28913 -0.297547 0.264641
0.141348 0.324412 0.264641
0.0544253 -0.0137455 0.266222
0.32719 0.29141 0.264641
0.195196 -0.205358 0.272593
0.33074 -0.273 0.272593
0.339831 -0.283164 0.267671
-0.311037 -0.0953 0.272593
-0.124707 -0.0551208 0.264641
0.315203 0.311967 0.055163
-0.290011 0.34074 0.250912
-0.318896 -0.066016 0.264641
-0.166752 -0.162744 0.264641
0.322016 -0.186854 0.264641
0.18661 0.34074 0.252612
0.329875 -0.333169 0.233978
-0.0734585 -0.0791048 0.264641
-0.0469283 -0.248922 0.264641
-0.273444 -0.00757163 0.258387
-0.0685412 -0.339606 0.267374
0.315011 -0.333072 0.106065
0.242029 0.240177 0.264641
-0.326625 0.314238 0.0850622
-0.33317 -0.191441 0.250663
-0.340742 -0.265413 0.262249
-0.0526272 0.0129588 0.257767
0.11341 -0.334376 0.266535
-0.239683 -0.211812 0.272593
0.188022 -0.204078 0.272593
-0.0426175 -0.10643 0.272593
-0.332369 -0.111824 0.264641
0.259489 -0.059055 0.272593
0.139528 0.287992 0.264641
0.325546 0.0789738 0.264641
-0.201766 -0.101245 0.272593
0.00152664 -0.172399 0.272593
0.188019 -0.0170101 0.272593
-0.129971 -0.0262146 0.272593
-0.0560582 -0.168756 0.272593
-0.267054 0.0105815 0.272593
-0.319264 0.333168 0.21113
-0.3181 0.314238 0.0841316
0.025402 -0.0102041 0.270321
0.054517 0.052845 0.268152
0.306735 -0.00344016 0.272593
-0.187442 0.138375 0.272593
-0.313101 -0.327629 0.00814051
-0.252574 -0.310287 0.264641
0.332035 -0.319638 0.21615
-0.229325 -0.150826 0.264641
0.335788 0.21294 0.266531
0.330634 0.312425 0.0545131
0.0801957 -0.333169 0.26336
0.191475 0.0505758 0.272593
-0.175488 -0.0934285 0.264641
0.333171 0.0905382 0.258072
-0.00500963 -0.229524 0.264641
-0.185637 0.169426 0.272593
-0.157776 0.187052 0.264641
-0.21787 0.333168 0.264862
0.0159294 -0.010358 0.270321
-0.101257 -0.216023 0.272593
0.0446407 -0.101622 0.264641
0.24265 -0.228768 0.264641
-0.294202 -0.254588 0.272593
0.325349 -0.333169 0.0299282
-0.338465 -0.324901 0.266531
0.321518 0.164264 0.272593
0.325724 -0.00415608 0.266535
-0.206061 0.24474 0.272593
0.303157 0.20483 0.264641
-0.320914 -0.330898 0.138689
0.309245 -0.113813 0.272593
-0.0734655 0.0752275 0.272593
0.194233 0.117574 0.264641
0.336569 0.0197789 0.272593
-0.253508 0.138277 0.264641
0.095352 0.0038147 0.266531
-0.204107 -0.0493074 0.272593
-0.0808121 0.337264 0.249498
-0.202172 0.0159811 0.272593
-0.0109032 -0.00757163 0.258374
0.330916 -0.109743 0.264641
0.326134 -0.332033 0.128217
-0.0561933 -0.0108014 0.264644
-0.259025 0.219348 0.264641
0.276774 0.0226103 0.264641
0.340742 0.146755 0.253593
-0.30392 0.190045 0.264641
0.31545 -0.333169 0.0719571
0.207562 0.133562 0.264641
0.320018 -0.314238 0.170613
0.109798 -0.0652625 0.272593
-0.0775052 -0.178026 0.264641
0.255094 -0.211833 0.272593
0.296272 -0.0236173 0.272593
-0.319534 -0.311967 0.240945
0.212433 -0.112523 0.272593
-0.339478 -0.183067 0.272593
0.0596627 0.164822 0.272593
0.0491981 -0.0753224 0.272593
0.2372 -0.290183 0.264641
0.192639 -0.00652309 0.249521
0.0144474 -0.23936 0.264641
-0.160986 0.267487 0.272593
-0.278597 -0.236812 0.272593
0.279271 -0.240363 0.272593
0.203527 -0.24807 0.264641
0.311965 0.324968 0.206507
0.126807 0.333168 0.254245
0.090127 -0.207149 0.272593
0.195195 -0.230395 0.264641
0.333171 -0.237198 0.263192
-0.329313 0.295021 0.272593
-0.060445 0.0195211 0.272593
0.171331 0.0845714 0.264641
-0.291815 -0.0463515 0.264641
-0.318876 0.102892 0.264641
0.322346 -0.315375 0.176307
-0.216674 -0.220494 0.272593
0.259534 0.179715 0.272593
-0.0484653 -0.0679778 0.272593
0.229936 -0.262632 0.264641
-0.0649748 0.333168 0.250426
-0.156258 0.292397 0.264641
-0.340742 -0.123306 0.26036
-0.324716 0.332033 0.17734
0.0489378 -0.0470905 0.272593
-0.183035 -0.056128 0.272593
0.257089 0.104534 0.264641
-0.00280343 -0.229965 0.272593
-0.288555 0.217703 0.272593
0.209132 0.258071 0.272593
-0.314236 0.326868 0.10929
0.0562023 0.119879 0.264641
-0.0433147 -0.33321 0.250158
-0.187243 -0.169999 0.272593
-0.200078 -0.278577 0.264641
0.138518 -0.316432 0.264641
-0.150876 0.219491 0.264641
0.180636 0.188461 0.264641
-0.259158 -0.00757163 0.265177
0.333424 0.18629 0.249965
-0.00577256 -0.00870778 0.269676
-0.0112416 0.288427 0.264641
0.229724 0.217751 0.272593
-0.302577 0.0186526 0.264641
-0.334488 -0.0206 0.272593
-0.340742 0.0756634 0.257644
-0.315182 0.00143908 0.249498
0.317399 -0.316161 0
-0.151922 0.0204775 0.264641
-0.330899 -0.325361 0.121964
0.333171 0.001041 0.258974
0.244514 -0.128972 0.264641
0.304065 0.329168 0.272593
-0.22118 -0.140791 0.264641
0.261578 -0.0081773 0.264641
0.133553 -0.00285342 0.266531
0.0159864 -0.223911 0.264641
0.195121 -0.105311 0.272593
0.144105 0.276975 0.272593
0.340742 0.322526 0.255238
0.337746 -0.219479 0.249498
-0.211306 -0.00473793 0.266535
-0.0940568 -0.269008 0.272593
0.330431 0.312222 0.137491
0.120458 -0.0691184 0.272593
0.168905 0.115134 0.264641
-0.317099 -0.119867 0.272593
0.313102 0.322845 0.218835
-0.235963 0.187577 0.264641
0.0733502 0.131229 0.264641
0.318014 0.311967 0.0152795
0.322241 -0.333169 0.139039
-0.295921 0.19424 0.272593
0.239426 -0.247206 0.272593
-0.322099 -0.126394 0.272593
0.217185 0.0796437 0.272593
-0.154586 0.0854485 0.264641
-0.209817 0.00181252 0.249498
0.340742 -0.331402 0.25463
0.340742 -0.179448 0.25971
-0.0729972 -0.138615 0.272593
0.00525106 -0.0170752 0.270321
-0.0113164 0.036883 0.272593
0.247038 -0.139413 0.272593
0.0126701 0.00984389 0.250694
-0.327016 -0.329762 0.150548
0.244733 -0.328306 0.272593
-0.0630212 -0.00937867 0.264641
-0.253841 -0.0809854 0.264641
0.0161539 0.16138 0.264641
0.0942374 -0.272134 0.264641
0.0629679 -0.0569224 0.272593
0.333759 -0.148679 0.249644
-0.310672 -0.034442 0.272593
0.316311 0.193903 0.272593
0.317131 0.329761 0.110458
-0.340742 0.0535036 0.262749
-0.32233 0.315374 0.139926
0.109345 0.340706 0.250506
-0.189473 0.0790778 0.272593
-0.220409 0.207828 0.272593
0.251634 -0.165914 0.272593
0.314236 -0.320156 0.143307
0.151974 -0.333169 0.255081
0.191995 0.0451039 0.272593
0.339837 -0.140724 0.266474
-0.112874 0.172165 0.264641
-0.103516 0.302433 0.264641
-0.203631 0 0.27072
0.022151 0.0657853 0.264641
0.137287 -0.253985 0.264641
0.122615 0.247464 0.272593
0.310906 -0.27716 0.264641
0.306175 0.254456 0.264641
0.335795 0.249847 0.272593
0.100574 0.0704237 0.264641
0.147473 0.130012 0.272593
0.340738 0.291409 0.269147
0.126407 0.0697419 0.264641
0.148297 -0.195365 0.264641
0.0196895 -0.0919859 0.264641
0.181827 -0.334617 0.266531
0.190385 0.0408665 0.264641
-0.116346 0.0571434 0.272593
-0.249101 -0.333169 0.264559
-0.0498604 0.254095 0.272593
-0.297245 -0.00826699 0.264641
-0.100093 -0.0669259 0.272593
0.0448256 -0.00984389 0.248872
-0.301891 0.141582 0.272593
0.248257 0.0187828 0.264641
-0.314236 0.326062 0.201645
0.0903259 0.333168 0.261692
0.0152799 0.0901581 0.264641
0.136856 0.296496 0.264641
0.0581164 0.308513 0.264641
0.25524 -0.340226 0.267671
-0.326007 0.315374 0.207194
-0.26778 -0.146877 0.264641
-0.30952 0.327977 0.272593
0.135087 0.236545 0.264641
-0.00412166 0.231854 0.264641
-0.0920331 0.177604 0.264641
-0.293871 0.124186 0.264641
0.309455 0.204363 0.264641
0.311965 0.326203 0.180219
0.0176379 -0.0581231 0.269768
0.0789011 0.0780487 0.264641
-0.33317 -0.131603 0.2643
-0.158391 0.34074 0.254629
0.24267 0.115233 0.264641
-0.012943 -0.180421 0.272593
0.324729 -0.100886 0.272593
0.296436 -0.277166 0.272593
0.062411 0.0117433 0.272593
0.0814585 -0.248338 0.272593
-0.327175 0.332033 0.127351
0.306463 -0.0218575 0.264641
0.280931 -0.326243 0.272593
0.251848 0.124761 0.264641
-0.169965 0.280648 0.264641
-0.174738 -0.0803119 0.264641
0.329418 0.329761 0.236151
-0.189875 0.101157 0.264641
0.340738 0.18304 0.268604
0.333171 -0.316777 0.0731134
-0.218916 -0.317258 0.272593
-0.0580976 -0.178671 0.264641
0.0442432 -0.161956 0.272593
0.0190336 0.295668 0.264641
-0.0351232 -0.109668 0.264641
0.335204 -0.291172 0.249498
-0.314592 0.336808 0.266535
-0.183157 -0.238226 0.272593
0.193037 0.331509 0.272593
-0.311969 -0.316284 0.258684
0.112045 -0.226037 0.264641
0.321382 0.0458687 0.264641
0.340122 0.251322 0.249635
0.332035 -0.316435 0.0857263
-0.258395 0.17139 0.272593
-0.20479 0.34074 0.253988
0.324006 0.295506 0.272593
-0.168241 -0.335333 0.266531
0.177312 0.213016 0.264641
0.333171 -0.321716 0.0419784
-0.192646 -0.0941468 0.264641
0.206625 0.254692 0.264641
0.00933813 -0.25383 0.272593
0.33836 -0.0870575 0.266531
-0.23391 0.224748 0.272593
0.0818535 0.141582 0.264641
0.0567434 -0.16448 0.272593
0.0638956 -0.299758 0.264641
-0.0422615 0.278756 0.272593
0.107542 -0.0279138 0.264641
-0.192016 0.0181102 0.272593
-0.192002 -0.288026 0.264641
-0.119781 -0.100933 0.272593
0.314236 -0.32123 0.253705
-0.296973 0.0188801 0.272593
-0.194992 0 0.267814
-0.329456 0.333168 0.0368292
-0.0724521 -0.0151551 0.272593
-0.0640545 -0.0580921 0.272593
0.136865 0.0457815 0.264641
0.314035 0.313102 0.0755998
0.281942 0.14504 0.272593
-0.0220279 0.0663322 0.264641
-0.10091 0.22915 0.264641
-0.340742 0.296074 0.250707
0.228714 -0.00643408 0.272593
0.163364 -0.207323 0.264641
0.219369 -0.150912 0.272593
-0.291536 -0.253145 0.272593
-0.142871 0.0784931 0.264641
0.24752 0.043483 0.264641
-0.267855 -0.023654 0.264641
0.000372764 0.0925837 0.272593
0.0466556 -0.192182 0.272593
-0.166154 0.0287736 0.264641
0.201159 0.275706 0.264641
0.108952 -0.34074 0.258679
-0.0505981 -0.0239155 0.272593
0.183333 0.169012 0.264641
-0.178947 -0.143219 0.272593
0.185387 0.336968 0.249498
0.192105 -0.0142049 0.264641
-0.32394 -0.329762 0.0700055
0.288257 0.274256 0.264641
-0.10959 0.151098 0.264641
-0.0405892 -0.0150622 0.266535
-0.239153 -0.178698 0.272593
-0.260173 0.00654081 0.266531
-0.0482892 0.277388 0.264641
0.195227 -0.0270496 0.264641
0.00258823 0.00757163 0.270567
-0.11835 0.294337 0.264641
0.170337 -0.222687 0.264641
-0.191714 -0.200052 0.264641
-0.301631 0.185692 0.264641
0.318964 -0.332033 0.0729357
0.116439 -0.103435 0.264641
-0.0447362 0.0784662 0.272593
0.336493 -0.219259 0.266531
-0.273811 0.239842 0.272593
0.29157 0.266785 0.272593
0.135268 -0.0155521 0.272593
0.00722302 0.070426 0.264641
0.208784 -0.0962827 0.272593
0.308952 -0.311909 0.264641
-0.0497014 0.280575 0.264641
-0.260552 -0.196789 0.272593
0.313467 0.311967 0.109859
-0.12332 0.111452 0.264641
-0.149249 -0.309168 0.272593
-0.106495 0.142945 0.264641
0.0751887 -0.0886828 0.272593
0.177042 -0.147754 0.272593
0.203918 0.231156 0.264641
-0.238392 0.130299 0.272593
0.298807 -0.209713 0.264641
-0.0922623 -0.0882562 0.264641
-0.183175 0.082445 0.264641
0.332787 -0.0687384 0.272593
-0.292894 -0.159315 0.272593
0.333171 -0.144936 0.256179
-0.111254 -0.159319 0.264641
0.278009 0.00757163 0.251079
0.339004 -0.27723 0.249498
0.119796 0.339597 0.266531
0.0553268 0.333168 0.252127
-0.31677 0.314238 0.173757
-0.0556886 0.340685 0.265606
-0.165105 0.305082 0.272593
0.0176171 0.119677 0.272593
-0.318427 0.0317112 0.264641
0.217081 -0.295861 0.272593
0.300692 -0.185089 0.264641
-0.0690863 -0.0688612 0.272593
-0.287817 -0.337549 0.249498
-0.319434 0.0820992 0.272593
0.230432 -0.335751 0.266531
-0.329101 -0.329762 0.173131
-0.310754 0.198597 0.264641
-0.265052 -0.258057 0.264641
-0.105233 -0.340414 0.24989
-0.333225 0.0829506 0.265604
-0.164311 -0.274752 0.264641
0.218943 0.184553 0.272593
0.291201 0.235091 0.272593
-0.037737 -0.01738 0.266535
-0.0192063 0.227157 0.272593
-0.199402 -0.0854754 0.264641
-0.314236 0.319864 0.262482
-0.292826 0.198745 0.272593
-0.0358444 0.00802227 0.266535
-0.0437827 -0.143201 0.264641
0.340107 0.262829 0.272444
0.0649332 -0.297291 0.272593
-0.118952 0.202212 0.272593
-0.141043 -0.0132507 0.272593
-0.0857264 -0.33048 0.264641
0.0863091 -0.317513 0.272593
0.298129 -0.126537 0.272593
-0.27951 0.192889 0.272593
0.314583 -0.272276 0.264641
-0.0539916 -0.208757 0.272593
0.183021 0.215904 0.264641
0.00429606 -0.0544186 0.272593
-0.227028 -0.0981385 0.272593
0.340742 -0.177063 0.264078
0.314052 0.311967 0.143186
0.149087 0.10233 0.264641
-0.114576 0.143139 0.264641
0.124596 -0.096732 0.272593
-0.318998 -0.330898 0.259105
-0.316355 0.332033 0.0947565
0.302694 -0.135077 0.272593
0.0714071 0.17828 0.272593
0.0578933 0.00403938 0.272593
-0.110022 0.114707 0.264641
0.225111 -0.277566 0.264641
-0.0170895 0.124963 0.272593
-0.0609712 0.169635 0.272593
0.0155478 0.107908 0.264641
-0.250951 -0.185227 0.264641
-0.33317 -0.0167091 0.25084
-0.284978 0.255619 0.264641
0.18039 -0.333674 0.266531
-0.122775 -0.214643 0.272593
-0.332328 -0.137005 0.264641
0.164302 0.247917 0.264641
0.321993 0.0791724 0.272593
-0.329763 -0.326528 0.130216
-0.314275 0.315231 0.165876
-0.270089 0.204221 0.264641
-0.326738 0.314238 0.123628
-0.33317 0.328104 0.0339778
-0.269504 -0.255097 0.272593
0.105405 0.0686476 0.272593
-0.137809 -0.09536 0.272593
0.0819183 0.318611 0.264641
-0.319388 -0.1254 0.264641
-0.206703 -0.0487349 0.272593
-0.0208398 -0.0532983 0.272593
-0.181558 -0.288316 0.264641
0.283314 -0.322238 0.264641
0.181661 0.014907 0.264641
-0.333166 -0.102843 0.264978
0.166919 -0.0352842 0.272593
0.333171 -0.328935 0.120275
0.273578 -0.0588776 0.272593
-0.0566621 -0.235415 0.264641
0.315373 -0.322997 0.0924121
-0.0694091 0.0820013 0.264641
-0.0715 -0.272144 0.264641
0.203877 0.288015 0.272593
0.148879 -0.179005 0.272593
-0.233019 0.154445 0.272593
0.0381316 -0.279205 0.272593
-0.268177 -0.112238 0.272593
-0.185017 0.0494117 0.264641
0.315984 0.329761 0.0827412
0.103987 -0.201461 0.264641
-0.157022 0.306726 0.272593
-0.130169 0.00757163 0.264443
-0.0052233 0.186966 0.272593
-0.0935795 0.292854 0.264641
0.17041 -0.208448 0.264641
-0.16526 0.0988178 0.264641
0.00871382 -0.0891096 0.272593
-0.33667 0.251114 0.266535
-0.150816 -0.313435 0.272593
0.323413 -0.333169 0.0591876
-0.234313 0.182875 0.272593
-0.0581532 -0.0572983 0.272593
0.278675 0.259423 0.272593
-0.323879 0.332033 0.114559
0.283161 -0.268563 0.272593
-0.0153289 -0.0441767 0.272593
0.249669 0.290504 0.264641
0.314422 0.015639 0.272593
-0.317912 0.333709 0.272593
-0.0597845 -0.0123915 0.272593
-0.0376414 0.169742 0.272593
0.150602 0.0666508 0.272593
0.0816614 0.0543955 0.264641
0.0580838 0.291397 0.272593
0.134526 -0.16695 0.264641
-0.00644961 -0.128571 0.264641
0.145277 -0.219269 0.272593
-0.0302562 -0.0174008 0.266535
-0.0825271 -0.221664 0.272593
0.340742 -0.21223 0.260612
0.131698 -0.223418 0.264641
0.140591 0.224899 0.272593
0.0496722 -0.0759181 0.264641
-0.0119925 -0.336989 0.266535
-0.18798 -0.142859 0.272593
-0.312519 0.156638 0.264641
-0.010038 0.266147 0.272593
0.120513 -0.0917024 0.264641
0.317798 -0.333169 0.088835
-0.0688924 -0.088941 0.264641
0.283276 -0.0108 0.272593
-0.329763 -0.316559 0.148422
0.204772 0.00546799 0.266531
0.164569 0.103558 0.272593
0.328774 -0.108387 0.272593
0.319871 0.0151952 0.264641
0.0513947 -0.331678 0.264641
0.318282 0.313102 0.0397381
0.0708528 0.337957 0.266531
-0.329763 -0.324922 0.160553
0.339506 -0.19925 0.266531
-0.336858 0.0930364 0.249498
0.311965 0.324616 0.236286
-0.224508 0.0707351 0.272593
-0.329359 0.28864 0.272593
0.0323908 -0.298364 0.264641
-0.102392 0.173994 0.264641
0.319781 0.311967 0.110192
-0.314236 0.328933 0.0745309
-0.17404 -0.198699 0.272593
-0.116574 0.165247 0.264641
-0.108066 -0.0712216 0.272593
-0.233951 -0.170835 0.264641
-0.33317 0.116765 0.264952
-0.122803 0.177494 0.264641
-0.0643797 -0.0450379 0.272593
0.0912735 -0.0856979 0.272593
0.330237 0.10097 0.264641
-0.225609 -0.333194 0.265952
0.197562 -0.212259 0.264641
0.174063 0.254143 0.272593
0.286319 -0.186161 0.272593
-0.184628 0.236767 0.264641
-0.340742 0.0859117 0.270233
-0.151521 0.262025 0.272593
-0.0721808 0.34074 0.2602
0.167996 0.26252 0.264641
0.274739 -0.180615 0.272593
0.102616 0.313556 0.264641
0.288225 -0.113646 0.264641
0.316845 0.34074 0.265001
0.0789201 -0.333169 0.261662
-0.314441 -0.313103 0.125061
-0.306373 -0.131058 0.272593
-0.319519 -0.313103 0.151457
0.10358 0.264121 0.272593
-0.0535855 0.0142136 0.268681
0.212466 -0.286024 0.272593
-0.0893962 -0.305022 0.264641
-0.311969 -0.323759 0.183859
-0.229374 -0.338704 0.266531
0.0650358 -0.0844301 0.264641
0.0695522 -0.299652 0.272593
0.0281732 0.305058 0.272593
-0.097707 -0.00757163 0.252554
-0.33317 0.29529 0.256455
-0.0518956 -0.056287 0.268806
-0.28866 -0.00273906 0.249498
-0.171413 0.250639 0.264641
-0.161846 -0.15549 0.272593
0.336466 -0.0181128 0.272593
-0.289108 -0.167646 0.264641
0.124864 0.055006 0.272593
-0.340675 -0.176022 0.265646
-0.295907 -0.294105 0.272593
0.140753 -0.109376 0.264641
-0.169441 0.251277 0.264641
-0.180866 -0.224634 0.264641
-0.179196 0.00888072 0.272593
0.318575 -0.333169 0.0236224
0.312716 0.340291 0.249768
-0.33317 -0.140221 0.25174
0.240937 0.336811 0.266535
0.317102 -0.315375 0.135184
-0.102858 0.339245 0.266535
-0.223745 0.198646 0.272593
0.322053 -0.00462507 0.266535
0.329764 0.316667 0.0183092
0.329437 -0.315375 0.166258
0.15189 -0.148199 0.264641
-0.225098 -0.0667119 0.272593
0.0836944 -0.278754 0.272593
-0.30764 -0.103548 0.272593
0.290742 -0.267125 0.272593
0.086274 -0.29681 0.264641
-0.303497 -0.216675 0.272593
0.340468 -0.147637 0.249945
-0.0245876 -0.00607246 0.266535
0.00235413 -0.203022 0.272593
0.185251 -0.238169 0.264641
0.340742 0.279324 0.256868
-0.245466 0.140854 0.264641
-0.126665 -0.0483918 0.264641
-0.340742 -0.0295439 0.263733
0.0153146 0.27286 0.264641
0.163159 -0.206065 0.264641
-0.329763 -0.327921 0.064551
0.129964 -0.138449 0.272593
0.116774 -0.00757163 0.256526
0.183178 0.0543023 0.272593
0.245099 0.182887 0.272593
0.317097 0.23573 0.272593
-0.187136 -0.330765 0.272593
0.0019236 -0.0892515 0.272593
0.222921 0.000458638 0.266535
-0.340742 0.226426 0.259752
0.165715 0.136502 0.272593
-0.169793 0.0614935 0.272593
-0.215875 -0.0108568 0.264641
-0.193984 -0.180992 0.272593
-0.03606 -0.103841 0.264641
-0.0517183 0.34074 0.250637
-0.0629111 0.312616 0.264641
-0.0126546 -0.264617 0.272593
-0.287531 -0.0373458 0.264641
-0.148282 0.134162 0.272593
-0.339054 -0.218562 0.266531
0.158798 0 0.26783
0.268648 0.0266551 0.264641
0.105464 -0.120785 0.272593
0.132592 -0.235011 0.272593
0.229701 -0.245436 0.264641
-0.340377 0.339484 0.249875
0.0318468 -0.287217 0.272593
-0.0111746 -0.0453788 0.272593
-0.33317 -0.137194 0.257855
0.243848 -0.29967 0.272593
-0.218013 -0.00757163 0.261814
0.106087 0.0269033 0.272593
-0.0902546 -0.294413 0.264641
0.0431045 -0.251563 0.272593
-0.116912 0.28703 0.272593
0.335296 0.06104 0.266531
0.333171 -0.321575 0.198457
0.317465 0.280995 0.264641
0.332035 -0.320444 0.0857474
0.276773 -0.328764 0.272593
-0.0897506 -0.147084 0.264641
0.340742 0.22233 0.259162
0.0814884 -0.236574 0.264641
-0.33317 0.0741076 0.25896
0.315373 -0.316997 0.25819
0.246082 0.00757163 0.261079
-0.243247 0.0418545 0.264641
-0.280389 -0.080074 0.272593
-0.210446 -0.113832 0.272593
0.340742 -0.123956 0.252787
0.148086 -0.125199 0.264641
-0.33317 0.170979 0.25434
-0.330899 -0.327918 0.075074
0.317327 -0.314238 0.0768243
0.195247 0.263039 0.272593
-0.32263 -0.330898 0.0493263
-0.154722 0.000121061 0.249498
-0.205394 0.110296 0.272593
-0.194545 0.26923 0.264641
-0.114982 -0.140118 0.264641
-0.172023 0.0373996 0.272593
0.0847921 0.0607183 0.272593
0.333171 0.209619 0.255082
0.315469 0.311967 0.0197803
0.337556 -0.324696 0.272593
-0.101908 0.314239 0.264641
-0.270493 -0.237272 0.264641
0.333171 -0.277989 0.252175
-0.337702 -0.245604 0.249498
-0.114786 0.300337 0.272593
0.00565875 -0.139182 0.272593
0.329764 0.318953 0.161514
0.109569 -0.212277 0.264641
0.211828 0.251104 0.272593
0.326945 -0.267684 0.272593
-0.0191939 -0.2245 0.264641
0.0181994 0.247161 0.272593
0.17576 -0.0447216 0.264641
0.29387 0.000309754 0.249498
-0.340742 0.173466 0.258807
0.151074 0.0937608 0.272593
-0.320991 0.333168 0.203562
0.129761 -0.215363 0.264641
0.0628415 0.138297 0.264641
-0.0500604 0.18601 0.272593
-0.277328 -0.195652 0.272593
-0.327196 -0.313103 0.0902555
-0.332034 0.319449 0.218908
0.133946 -0.0502574 0.272593
-0.312362 -0.112873 0.272593
-0.223854 0.0550464 0.272593
0.0906039 -0.177101 0.272593
-0.293667 0.111704 0.272593
-0.196983 0.22728 0.272593
-0.289745 -0.284703 0.272593
-0.33317 0.330163 0.264039
0.24769 -0.0273557 0.272593
0.333167 0.148518 0.265972
0.166657 -0.274037 0.264641
-0.130102 0.182477 0.272593
-0.313629 -0.329762 0.113406
-0.328405 -0.313103 0.046934
-0.272957 0.14701 0.272593
0.340742 0.301968 0.261378
-0.111366 0.156747 0.272593
0.186793 0.260421 0.272593
0.293113 0.280265 0.272593
-0.313102 -0.320074 0.0743259
-0.133642 -0.171741 0.272593
-0.303753 -0.161203 0.272593
-0.305956 0.00046429 0.272289
-0.33687 0.189737 0.266531
-0.216294 0.213609 0.264641
-0.250903 -0.250542 0.264641
0.232866 0 0.271212
-0.254759 0.0156516 0.264641
0.273149 -0.00295749 0.272593
0.335877 0.0854648 0.266535
0.209642 0.000419501 0.272293
-0.285093 0.228028 0.272593
0.103801 -0.0725172 0.264641
-0.234416 -0.214998 0.264641
-0.137111 -0.128488 0.272593
-0.217464 0.040466 0.264641
-0.120717 0.329252 0.272593
-0.0693077 -0.34074 0.262655
-0.119873 -0.00382711 0.266531
-0.168469 0.163976 0.264641
-0.196556 -0.13169 0.264641
-0.0836309 0.158705 0.264641
-0.0367431 0.203437 0.264641
0.186717 0.210478 0.264641
0.0714507 0.018946 0.264641
0.18547 -0.222922 0.272593
-0.331202 0.317558 0
-0.0315424 0.00757163 0.253199
0.0410425 -0.133969 0.272593
-0.152498 0.263275 0.272593
-0.216117 0.29477 0.272593
0.271706 -0.0269037 0.272593
-0.00788987 -0.0174155 0.253531
0.311155 -0.320611 0.264641
-0.33317 0.315434 0.089542
0.219317 -0.0827083 0.264641
0.0413184 0.248445 0.264641
-0.211188 -0.0186946 0.272593
-0.0162279 -0.34074 0.252566
-0.274354 -0.218047 0.272593
-0.10013 -0.124324 0.264641
-0.124623 -0.0327966 0.272593
0.309275 -0.336316 0.272593
-0.184318 0.15917 0.272593
0.0202498 0.186802 0.272593
0.0468662 -0.250164 0.272593
0.0371156 0.189929 0.272593
0.0902967 0.142002 0.272593
0.269788 -0.326076 0.264641
-0.0651853 -0.0692534 0.272593
-0.340331 -0.155484 0.266225
-0.197938 0.0703143 0.264641
0.231421 -0.0822524 0.264641
0.248391 -0.184008 0.272593
-0.273566 0.339605 0.267475
0.26704 0.322137 0.264641
0.223817 -0.0869073 0.264641
-0.0102596 0.0109398 0.272593
-0.0497618 -0.0174252 0.268621
0.20434 0.121865 0.264641
0.18615 0.338172 0.266531
0.171121 -0.0834779 0.272593
0.00803551 0.0767666 0.272593
-0.27647 -0.126762 0.264641
0.0150981 0.0340658 0.270321
0.0981687 0.327972 0.272593
0.0689829 -0.0265908 0.264641
0.132899 -0.191823 0.272593
0.206101 0.266466 0.264641
-0.187226 -0.176027 0.272593
-0.253985 -0.334943 0.266535
0.275105 -0.114175 0.272593
-0.340609 -0.174966 0.265888
-0.0798022 -0.0431683 0.272593
0.19382 -0.0695757 0.264641
-0.043972 -0.198333 0.272593
0.300433 -0.301823 0.264641
-0.217252 0.00466699 0.266531
0.238869 -0.113322 0.272593
-0.0641475 0.115167 0.264641
0.154702 -0.202188 0.272593
0.203288 0.29194 0.272593
-0.128987 -0.158596 0.264641
0.175365 0.00757163 0.25221
-0.182111 -0.252125 0.272593
-0.187656 0.164729 0.264641
0.193263 0.00757163 0.266332
-0.0681017 -0.0607302 0.272593
-0.109275 -0.284921 0.264641
0.340742 -0.339446 0.263977
0.213963 0.00505886 0.249498
-0.248081 -0.241161 0.272593
0.144512 0.11263 0.264641
-0.124619 -0.0876333 0.272593
0.138544 -0.256854 0.264641
-0.33317 0.319094 0.155777
0.323692 -0.333169 0.266117
0.340742 0.189696 0.25867
-0.0648911 -0.0129992 0.264641
-0.22982 -0.159803 0.272593
-0.0518116 -0.327847 0.272593
0.143162 0.138587 0.272593
0.3309 0.32609 0.180157
-0.0831116 -0.123976 0.272593
0.0105585 -0.0181372 0.270321
0.340742 -0.177766 0.268319
-0.325574 0.314238 0.158854
0.0601325 -0.17302 0.272593
-0.315293 0.0130387 0.264641
-0.106831 0.307457 0.272593
0.236621 -0.326881 0.272593
0.295815 0.278933 0.264641
-0.317035 -0.138 0.264641
0.142274 0.0577961 0.272593
-0.00914293 -0.145002 0.272593
0.32756 -0.314238 0.0101445
0.290753 0.111397 0.272593
-0.339499 -0.000584513 0.249498
-0.055225 -0.311948 0.272593
-0.197885 -0.167343 0.264641
0.166169 -0.333169 0.257763
-0.27546 -0.280505 0.272593
-0.245231 0.149905 0.264641
-0.0825053 -0.308512 0.264641
0.0820175 0.269099 0.264641
0.24371 0.246688 0.264641
0.220627 0.250795 0.272593
0.333171 -0.321531 0.0135348
0.153801 -0.173149 0.272593
0.0626296 0.0983942 0.264641
0.158519 0.164673 0.264641
0.274975 -0.222157 0.272593
-0.215188 -0.078368 0.272593
-0.186436 0.0765559 0.272593
0.321097 0.105342 0.272593
0.144834 -0.26235 0.272593
-0.311969 -0.324643 0.189092
0.33832 -0.0401458 0.272593
0.331254 0.076584 0.264641
0.0158862 -0.105527 0.272593
-0.237044 -0.105115 0.264641
-0.327859 0.315374 0.245205
0.261964 0.157302 0.272593
-0.210608 -0.332154 0.272593
-0.329431 -0.311967 0.252523
-0.265926 0.153831 0.272593
-0.339005 0.0229386 0.266535
0.332035 -0.317384 0.249416
0.0673893 -0.0829954 0.264641
0.29927 0.34074 0.264964
0.0484194 0.333168 0.256288
0.225609 -0.191938 0.264641
-0.185966 0.00336782 0.249498
0.314236 -0.328499 0.0460843
-0.166498 -0.255596 0.264641
-0.28819 -0.19018 0.264641
0.0783145 -0.00400032 0.272593
0.313102 0.329123 0.24469
-0.326516 0.202131 0.264641
-0.196413 -0.00491303 0.266531
-0.053517 -0.268143 0.272593
-0.218031 -0.292917 0.264641
-0.33317 -0.331889 0.263665
0.131969 0.153566 0.264641
-0.152259 -0.0379734 0.264641
0.3309 0.321104 0.0713073
0.323921 0.122468 0.272593
0.334353 -0.12826 0.272593
-0.152974 -0.0689215 0.272593
0.148342 0.0191616 0.272593
0.223128 -0.0865007 0.272593
-0.188895 -0.296411 0.264641
-0.298981 -0.274391 0.264641
-0.156032 0.00530998 0.266535
0.0531648 -0.174638 0.264641
-0.246775 0.333168 0.263472
5.64978e-05 -0.0284686 0.272593
-0.214404 0.00757163 0.263663
0.158813 0.149456 0.272593
0.0671673 -0.323922 0.272593
0.295364 0.257472 0.272593
-0.254852 -0.336002 0.266531
0.264443 0.339411 0.249498
-0.173355 -0.278311 0.264641
-0.0445702 -0.00757163 0.270823
-0.33317 -0.0440122 0.253514
-0.161433 0.209985 0.272593
0.246194 -0.206894 0.272593
0.0795735 0.0854122 0.272593
-0.29614 0.238764 0.264641
-0.052886 0.329757 0.264641
0.290682 0.00757163 0.260973
0.316156 -0.00452474 0.266535
0.264133 0.123674 0.264641
-0.33317 0.323132 0.0901306
-0.104765 -0.0481114 0.272593
0.0503592 -0.283748 0.272593
0.329895 -0.332033 0.140382
-0.327623 0.11421 0.264641
0.123361 0.34074 0.252418
-0.0907797 -0.206688 0.264641
-0.227042 0.21661 0.272593
-0.330899 -0.316704 0.212936
0.096144 0.241713 0.272593
0.0225197 0.0174155 0.248867
0.0609047 -0.219925 0.264641
-0.0532432 -0.209561 0.272593
-0.264813 0.306845 0.264641
-0.32966 0.162573 0.272593
-0.0319959 -0.333169 0.258976
-0.0308613 -0.00984389 0.24724
-0.239069 -0.124339 0.272593
-0.249719 0.0470833 0.272593
0.282532 0.248416 0.272593
-0.27685 -0.124283 0.272593
-0.0521982 0.0885618 0.272593
-0.329038 0.182594 0.272593
0.334539 -0.117634 0.266535
0.0635931 -0.00822013 0.264641
0.0463698 -0.0188859 0.270321
0.309258 -0.0199272 0.272593
-0.280447 0.254523 0.272593
-0.256182 -0.155256 0.272593
0.0722878 -0.0943442 0.264641
-0.188686 0.234835 0.272593
-0.0544752 -0.00179262 0.27226
-0.10011 -0.163793 0.264641
-0.202667 0.325251 0.272593
0.0671003 0.196071 0.264641
0.275902 0.0858581 0.264641
-0.21788 -0.333169 0.256371
0.291984 0.119714 0.264641
0.0137652 -0.262352 0.272593
-0.330899 -0.314615 0.0949145
0.32027 -0.221358 0.264641
-0.0750558 0.0242432 0.272593
0.100874 0.174213 0.264641
-0.327 0.23547 0.272593
0.313102 0.32374 0.120143
-0.109482 -0.174541 0.264641
-0.000307485 0.273665 0.264641
-0.309186 -0.0388063 0.264641
-0.316457 0.333168 0.12811
0.0832736 0.212858 0.264641
0.27186 0.160141 0.264641
0.121716 0.216609 0.272593
-0.180256 0.267037 0.272593
-0.20682 0.267539 0.272593
-0.0492135 0.339123 0.266531
-0.0521489 0.334167 0.272593
-0.0302536 0.250525 0.272593
-0.0832754 0.180249 0.264641
-0.103407 0.278088 0.264641
0.3309 0.315341 0.161505
-0.196049 0.29198 0.264641
0.047606 -0.28668 0.264641
0.125019 -0.156361 0.264641
-0.192647 0.0706257 0.264641
0.124253 -0.0509597 0.272593
0.144195 0.0716027 0.264641
-0.312638 -0.0302219 0.272593
0.107252 -0.306243 0.264641
-0.0612044 -0.205553 0.272593
0.0928371 -0.322451 0.272593
0.178098 0.0826901 0.272593
0.038995 0.285859 0.264641
0.22913 -0.0127356 0.272593
-0.284695 -0.228447 0.264641
0.169578 0.00757163 0.263329
-0.0161741 0.34074 0.253343
0.340742 0.00744739 0.26337
-0.0386084 -0.289368 0.272593
-0.197146 -0.00757163 0.263281
-0.1806 0.218828 0.272593
-0.33317 0.316897 0.105557
-0.325222 -0.328375 0.272593
-0.154717 0.333168 0.256529
0.191855 0.0829932 0.272593
0.0973507 0.0246897 0.264641
0.335801 0.0925059 0.266531
-0.0299451 0.0550332 0.270321
-0.331062 0.332033 0.0921333
-0.203457 0.0468649 0.264641
0.0156439 0.0174155 0.247702
-0.166294 0.261814 0.264641
0.211832 0.132633 0.272593
-0.198586 -0.20183 0.264641
-0.0644645 0.246685 0.264641
0.3309 0.31713 0.0529862
0.333868 0.128087 0.266418
-0.310959 -0.279395 0.264641
-0.314236 0.317472 0.0637126
0.326442 0.330897 0.0899612
0.167238 0.192751 0.272593
-0.0384655 -0.102835 0.264641
0.340742 -0.276013 0.261977
-0.333004 0.332611 0.260011
-0.233801 -0.181441 0.272593
0.122677 -0.0598744 0.272593
-0.178289 0.00757163 0.26523
-0.283863 0.0371107 0.272593
0.306404 -0.0788375 0.264641
0.313718 0.329761 0.043383
0.29385 -0.30139 0.264641
0.118836 0.140823 0.272593
-0.316533 0.248553 0.272593
0.232648 0.0701189 0.264641
-0.0431212 -0.333169 0.263133
-0.340742 -0.0308783 0.269784
-0.0334862 -0.181026 0.272593
-0.0487226 0.238692 0.264641
-0.042573 0.187922 0.272593
0.329554 0.311967 0.162654
0.0923271 0.281753 0.264641
-0.29573 -0.158922 0.272593
-0.255903 0.338262 0.266531
-0.00146886 -0.030449 0.272593
-0.318868 -0.313103 0.0109958
-0.0687142 -0.152075 0.264641
0.0490383 0.194305 0.272593
-0.0239101 0.00984389 0.248445
0.293651 -0.243158 0.264641
-0.329481 0.332033 0.240861
0.0182285 -0.0970571 0.264641
-0.274915 -0.268709 0.272593
0.316344 -0.263818 0.272593
0.333171 -0.319824 0.077876
-0.058636 -0.127482 0.272593
-0.0447199 -0.181707 0.272593
-0.00238373 -0.181797 0.264641
0.339006 -0.215203 0.266535
-0.00931221 0.296992 0.272593
-0.314001 0 0.268689
-0.113302 -0.0785271 0.272593
-0.267749 -0.259762 0.264641
0.13201 0.200898 0.264641
0.107559 0.100126 0.264641
0.313379 -0.0304962 0.264641
0.151281 -0.208767 0.272593
-0.0412585 -0.196004 0.264641
-0.331327 -0.0682375 0.264641
-0.33317 0.327126 0.0891025
0.116268 0.125989 0.264641
-0.241436 0.147381 0.264641
0.161621 0.333168 0.260483
0.172426 -0.104487 0.272593
0.229216 -0.306999 0.272593
-0.143364 -0.12093 0.272593
0.0817241 -0.337658 0.266535
-0.336042 -0.308441 0.272593
-0.334893 0.256522 0.249498
0.333171 -0.324706 0.254757
0.000673223 -0.288799 0.264641
0.339897 0.0329673 0.266457
-0.339763 0.278848 0.24954
0.0673101 -0.0392525 0.264641
0.0496573 0.0138304 0.272593
0.0904651 -0.295056 0.264641
-0.311969 -0.322007 0.0277624
0.257351 0.0409418 0.264641
0.139454 -0.308572 0.264641
-0.323513 -0.160616 0.264641
0.093502 -0.283699 0.272593
0.340742 -0.256756 0.252625
0.167987 0.202588 0.272593
-0.277914 0.264427 0.272593
-0.329763 -0.328139 0.111352
0.181639 -0.213936 0.272593
0.333971 0.227838 0.249587
-0.318997 -0.34074 0.256483
0.112991 -0.0516173 0.272593
-0.257049 -0.161356 0.264641
0.0533389 -0.338261 0.266535
-0.222408 0.206851 0.264641
-0.0984985 0.339596 0.249498
-0.294312 0.324574 0.264641
0.148024 0.0344997 0.264641
0.315223 -0.337195 0.272593
-0.143982 -0.339023 0.266535
0.323861 0.313102 0.164818
0.0317348 0.275942 0.272593
0.305258 0.277392 0.264641
-0.225625 -0.249326 0.264641
0.31179 -0.0848754 0.272593
0.0963594 0.203115 0.264641
-0.238607 0.317724 0.272593
0.245166 0.2778 0.272593
0.3325 0.276839 0.272593
0.153757 -0.331794 0.264641
-0.216841 -0.0548406 0.272593
-0.0170213 0.236106 0.272593
0.0707309 -0.289011 0.272593
0.147756 -0.284083 0.264641
0.222738 -0.210369 0.272593
-0.266361 0.169043 0.264641
0.00652127 -0.0873342 0.264641
-0.234576 -0.276363 0.264641
0.303945 -0.102462 0.272593
0.205918 -0.177469 0.272593
-0.293878 -0.27582 0.272593
-0.0642701 0.330492 0.264641
-0.323451 0.333168 0.172881
-0.289316 0.0920799 0.264641
-0.218404 -0.0768224 0.272593
0.209613 0.259937 0.264641
-0.262276 0.152356 0.264641
0.264374 -0.205417 0.264641
-0.332398 -0.309319 0.272593
-0.143156 0.14719 0.264641
-0.138173 -0.00648122 0.266523
-0.0446504 -0.00771494 0.268806
0.205518 -0.340495 0.249971
-0.335626 0.261252 0.266535
0.333648 0.0354166 0.266317
-0.127152 -0.022604 0.264641
-0.266751 0.149376 0.272593
-0.279856 0.320025 0.264641
-0.28432 -0.103944 0.272593
-0.337838 0.043197 0.266531
-0.239176 -0.165879 0.264641
-0.328351 -0.313103 0.0103163
-0.317363 0.140939 0.272593
0.00375937 0.0628479 0.264673
0.333171 -0.290173 0.257009
0.115437 0.0013767 0.272593
0.0283547 -0.203799 0.264641
-0.0270633 0.172914 0.264641
0.0764114 0.14507 0.272593
0.320207 -0.332033 0.0396026
-0.25336 0.339597 0.272593
0.321316 0.316347 0.264641
0.333171 -0.316892 0.0720033
-0.100571 -0.312291 0.264641
0.108378 -0.134975 0.272593
-0.0723833 0.263289 0.264641
0.136179 -0.136805 0.272593
-0.07245 0.219731 0.264641
0.174414 -0.010907 0.264641
-0.13628 0.23439 0.264641
-0.233455 0.00529741 0.266531
0.0138383 0.216999 0.272593
-0.148882 -0.333169 0.260437
0.241492 -0.331854 0.264641
0.0141298 -0.231794 0.272593
-0.300842 0.308401 0.264641
0.0918228 0.0380036 0.264641
0.255989 -0.0232378 0.264641
0.172805 -0.254049 0.272593
-0.315372 0.318352 0.133175
0.22998 0.253348 0.272593
0.272633 -0.00823186 0.272593
0.334823 0.253604 0.266531
0.000982445 -0.190143 0.264641
-0.314446 -0.293992 0.264641
0.332854 0.164545 0.264641
0.314236 -0.324858 0.203343
-0.0110197 0.188402 0.264641
0.335801 0.066713 0.249498
-0.315372 0.326997 0.247851
0.1639 -0.175229 0.264641
-0.145571 0.110028 0.272593
-0.154289 -0.178224 0.272593
-0.333265 -0.217761 0.272593
-0.327104 -0.312601 0.264641
0.315373 -0.323788 0.125429
-0.331271 0.333168 0.0775081
0.333171 -0.0754579 0.251937
0.333171 0.0692993 0.264862
-0.331761 0.315374 0.229144
0.331713 -0.335692 0.272593
-0.0441864 -0.0256785 0.272593
-0.115006 0.149722 0.272593
-0.280013 0.274174 0.272593
-0.20887 0.14841 0.272593
0.0143721 0.2673 0.272593
-0.311969 -0.316093 0.216341
-0.337592 0.0373343 0.266535
-0.32631 -0.237214 0.272593
-0.319283 0.0332917 0.264641
-0.279519 -0.256833 0.272593
0.304219 0.31855 0.272593
-0.234607 0.175634 0.264641
0.0400152 -0.34074 0.260226
0.0942271 0.338516 0.272593
0.123793 -0.335255 0.266535
-0.0434124 0.0798078 0.264641
-0.0415737 -0.211627 0.272593
0.270472 -0.0321358 0.264641
0.015207 0.0174155 0.246264
-0.307653 -0.184895 0.264641
0.314236 -0.323258 0.0644963
-0.0123674 0.0207979 0.272593
0.164247 0.164637 0.264641
-0.107501 0.231285 0.264641
-0.318008 -0.311967 0.00814256
0.0181111 0.199265 0.264641
0.214057 0.111629 0.264641
0.308158 0.265743 0.272593
-0.0487234 0.111442 0.264641
-0.340742 -0.062699 0.263379
0.0761831 0 0.267771
-0.33317 0.314176 0.254855
-0.129862 -0.202571 0.272593
-0.00521907 -0.0174155 0.256714
-0.0830062 0.176279 0.272593
0.0930076 0.0200773 0.264641
0.0857767 0.00757163 0.263977
-0.319785 -0.311967 0.0928319
-0.307354 -0.0769329 0.264641
-0.262109 0.301295 0.272593
0.336115 0.0309891 0.266531
0.314236 -0.329482 0.243975
-0.15736 -0.334772 0.266535
0.10772 0.0299876 0.264641
0.221101 0.0891002 0.272593
0.313102 0.325105 0.138596
0.218923 0.259121 0.264641
0.295917 -0.00456437 0.266535
-0.158374 0.221368 0.264641
0.064455 -0.277773 0.264641
0.160123 0.00753446 0.265538
-0.245464 0.203288 0.264641
0.0410128 0.106992 0.272593
-0.335181 -0.201593 0.266535
0.0533486 0.0848993 0.264641
0.333171 -0.271519 0.253079
-0.276861 0.115836 0.264641
-0.340742 -0.197656 0.267984
-0.125738 0.333168 0.252509
0.00836313 0.190662 0.272593
-0.256015 0.31361 0.272593
-0.332034 0.325012 0.242046
-0.333204 -0.278669 0.250458
-0.0819858 -0.00138649 0.249498
-0.0415979 0.00542229 0.249498
-0.0621847 0.0792132 0.264641
0.0918185 -0.34074 0.2509
-0.319958 -0.304394 0.263885
-0.0800883 -0.0858303 0.264641
-0.328077 0.332033 0.222359
0.108013 -0.00253787 0.266535
0.159217 0.232967 0.272593
-0.224194 -0.333169 0.251332
0.0943026 0.0034722 0.249498
0.305209 -0.0202122 0.272593
-0.0455937 0.149099 0.272593
0.0570134 0.245852 0.272593
0.193344 -0.3079 0.272593
0.0903936 -0.00232835 0.272593
0.165092 -0.278429 0.272593
-0.0133864 0.25425 0.272593
0.247579 0.2636 0.264641
-0.31837 0.262655 0.272593
-0.144604 0.245919 0.264641
0.31537 0.180437 0.272593
0.177888 0.331512 0.272593
0.0160563 0.0166126 0.270321
-0.141254 0.0483017 0.272593
-0.320775 0.333168 0.201129
0.187803 0.313661 0.272593
-0.220904 -0.241177 0.272593
-0.282239 -0.071512 0.272593
0.176299 0.315926 0.264641
0.0527734 0.0176043 0.26787
0.0101883 0.30739 0.264641
-0.0413972 0.000220152 0.249498
-0.322119 -0.313103 0.197996
-0.0807964 -0.0585256 0.264641
-0.0434123 -0.323631 0.264641
0.0708502 0.133019 0.264641
-0.069808 0.279901 0.264641
0.0819744 0.0914895 0.264641
-0.313361 -0.321413 0.272593
0.333171 -0.318972 0.196832
0.125817 -0.199898 0.264641
-0.215222 -0.298307 0.264641
-0.330899 -0.323334 0.00705883
-0.243525 0.204838 0.272593
0.0388719 -0.00295115 0.266535
0.328404 -0.333169 0.248556
-0.298655 0.189272 0.264641
-0.000132076 -0.115844 0.264641
0.329847 -0.313662 0.263885
-0.181931 -0.291779 0.272593
-0.204492 0.108417 0.272593
0.178219 0.05509 0.272593
0.0982895 -0.27741 0.272593
0.314236 -0.323032 0.193339
0.314248 -0.31533 0.255462
0.0366933 -0.0608413 0.270321
-0.0510913 0.161429 0.264641
0.0396101 0.00757163 0.257053
-0.336515 0.250248 0.266535
0.146632 -0.00526536 0.249498
-0.115477 -0.0463739 0.272593
-0.210233 -0.0595689 0.264641
0.127386 0.202293 0.264641
0.11352 -0.29332 0.264641
0.0886851 -0.0505554 0.272593
-0.0365829 0.22051 0.264641
-0.0771404 -0.0421246 0.264641
0.334034 0.194204 0.24957
-0.111928 0.34074 0.261439
-0.0155383 -0.187211 0.264641
0.278434 -0.228619 0.272593
0.306329 0.256166 0.264641
0.279457 0.229923 0.264641
-0.296293 -0.1177 0.272593
-0.0180936 -0.276388 0.272593
-0.312722 0.173841 0.272593
0.016827 0.329369 0.264641
-0.00581987 -0.277699 0.272593
-0.143915 -0.177368 0.272593
0.333171 -0.0720705 0.262431
0.303606 -0.335186 0.272593
-0.334692 0.084287 0.272593
-0.0181197 -0.0787525 0.272593
0.328051 -0.0060821 0.272593
-0.33956 0.262635 0.272593
0.318178 -0.332033 0.252309
0.191322 0.0185696 0.264641
0.247915 0.232207 0.272593
-0.288738 -0.153659 0.272593
-0.180153 0.34074 0.254949
-0.198118 0.00366603 0.266535
0.123761 -0.177618 0.264641
-0.0526272 -0.0152515 0.259506
0.108045 0.12029 0.264641
0.116603 0.280518 0.272593
-0.0928313 0.279535 0.264641
-0.0934475 -0.191094 0.272593
0.222161 -0.132481 0.264641
0.0878205 -0.230513 0.264641
-0.110432 -0.267356 0.264641
-0.0298195 -0.0711942 0.264641
-0.190954 0.196853 0.264641
0.14665 0.139974 0.272593
0.297996 -0.164183 0.272593
0.325897 -0.198688 0.272593
0.227495 -0.270351 0.272593
0.313102 0.313337 0.258442
-0.0279383 -0.314007 0.264641
-0.108451 0.0688551 0.272593
0.291299 -0.0779962 0.272593
0.120208 0.119724 0.272593
0.064704 0.0806445 0.264641
-0.141487 0.00291555 0.266535
0.0556633 0.153668 0.272593
0.105574 0.0037091 0.249498
-0.0424607 -0.306823 0.264641
0.153271 -0.0100599 0.264641
0.333171 -0.144457 0.262299
0.261219 0.155824 0.264641
0.108121 0.298339 0.264641
0.0408939 0.0807633 0.264641
0.142515 -0.209165 0.272593
0.333171 -0.0551269 0.265591
0.204975 0.336776 0.266531
-0.244708 -0.320125 0.264641
-0.330899 -0.31693 0.0482404
0.0392875 -0.000371346 0.266535
0.28419 -0.17955 0.272593
0.0785554 0.162899 0.272593
0.306215 0.18739 0.272593
-0.321767 -0.0431948 0.272593
0.0983428 -0.34074 0.257956
-0.093685 -0.194568 0.264641
0.3309 0.322919 0.134111
0.18108 -0.138628 0.264641
-0.308483 -0.307767 0.264641
-0.268967 0.00757163 0.255494
0.0690728 0.0793115 0.272593
0.0590435 -0.20215 0.272593
-0.334895 -0.268268 0.266531
0.0673709 0.00839937 0.272593
-0.0902039 0.0797347 0.264641
-0.340742 -0.224656 0.259727
0.0212671 -0.0628479 0.271035
0.0815772 0.000397406 0.249498
0.0112613 0.0204237 0.272593
0.317493 0.329761 0.111425
0.301177 -0.333169 0.262724
-0.0526363 0.165749 0.264641
-0.319798 -0.333718 0.272593
-0.33317 -0.319372 0.25822
0.039319 0.00750379 0.265653
-0.0943867 0.23457 0.272593
-0.16605 -0.322206 0.272593
-0.267223 0.0523248 0.264641
0.167712 -0.0531106 0.272593
0.181049 0.273079 0.272593
0.271768 -0.115744 0.272593
0.299271 0.201817 0.272593
-0.195796 0.249085 0.264641
-0.265582 -0.200404 0.264641
0.299994 -0.318654 0.264641
-0.179077 -0.207384 0.272593
-0.130668 0.118744 0.272593
-0.340742 0.314302 0.270663
0.315373 -0.320817 0.11488
-0.0604444 0.0519459 0.272593
0.318772 0.329761 0.250512
0.200346 -0.267878 0.272593
-0.00597449 -0.211191 0.272593
-0.295604 -0.179666 0.272593
-0.224799 0.223163 0.264641
0.18995 -0.281803 0.264641
0.241173 -0.0790808 0.264641
-0.0296256 -0.303172 0.264641
0.291179 -0.120371 0.264641
0.0565203 0.0282294 0.264642
0.13603 -0.118063 0.272593
0.0130953 -0.20678 0.272593
-0.256834 -0.0348037 0.264641
0.290562 -0.0999744 0.264641
0.322309 -0.332033 0.239691
-0.12256 0.00358594 0.272593
-0.33317 0.194009 0.264956
0.116556 -0.0956172 0.264641
0.00948694 0.337148 0.266531
0.311965 0.313608 0.0755321
0.0288668 -0.0865417 0.272593
-0.0926543 -0.287147 0.264641
0.0387678 0.0414307 0.272593
0.000970691 -0.167864 0.272593
-0.126841 -0.0795242 0.272593
-0.224863 -0.0810831 0.272593
0.32643 0.263663 0.272593
0.236773 -0.0613977 0.272593
-0.33317 0.318666 0.132108
0.340742 0.323704 0.254655
-0.253867 -0.324473 0.264641
-0.311969 -0.319375 0.104216
-0.0893977 -0.268398 0.272593
-0.0125 0.173616 0.272593
0.311953 -0.0924085 0.272593
0.0572623 -0.0511054 0.272593
-0.0415812 0.119311 0.264641
0.00330895 0.0413129 0.272593
0.0991634 -0.0683786 0.264641
-0.106447 -0.248135 0.264641
0.0392317 -0.338543 0.266531
0.12635 0.268286 0.264641
-0.142131 0.293748 0.272593
0.30162 -0.339694 0.272566
-0.108362 -0.177195 0.272593
0.317267 -0.300436 0.272593
0.291204 -0.0260334 0.272593
-0.260493 0.0480806 0.272593
0.323995 0.311967 0.101656
-0.191045 -0.112392 0.264641
0.10951 0.153705 0.264641
-0.0642953 0.00435006 0.266535
0.305641 -0.186431 0.264641
0.241358 -0.34074 0.25382
0.0895409 0.206817 0.272593
0.118173 0.0958512 0.272593
0.311965 0.32315 0.0727276
0.141048 -0.339043 0.266531
-0.340742 0.193515 0.263632
-0.309958 -0.121664 0.272593
0.321732 0.329761 0.0484031
0.293639 -0.123567 0.264641
-0.310927 -0.0112967 0.272593
0.110803 0.327421 0.264641
-0.00249205 -0.333324 0.266531
0.332926 0.0845291 0.264641
0.311965 0.315126 0.0673628
0.336703 0.1079 0.249498
-0.00157118 0.00757163 0.251335
-0.0126998 0.189002 0.264641
0.282394 0.173487 0.264641
-0.0179275 0.159841 0.264641
-0.325039 0.314238 0.180145
0.0297543 -0.051684 0.272593
-0.101243 0.228671 0.264641
-0.17935 -0.323671 0.272593
0.2919 -0.31957 0.264641
-0.272584 0.035526 0.264641
-0.254776 -0.18217 0.272593
0.31198 0.313046 0.257489
0.198138 -0.257848 0.264641
0.0536116 -0.170596 0.272593
0.222708 0.172561 0.264641
-0.146402 -0.0613937 0.264641
0.316938 0.311967 0.0393665
-0.21877 0.00853231 0.264641
0.333171 -0.321595 0.127561
0.229594 -0.00747603 0.272593
-0.032553 0.305009 0.272593
-0.163201 -0.263163 0.264641
-0.189003 -0.275068 0.264641
0.308011 0.0404412 0.264641
0.0492271 -0.0407479 0.270321
0.0166403 0.0124647 0.268742
-0.0856272 0.257872 0.264641
0.0344756 -0.135984 0.272593
-0.109299 0 0.270708
-0.328417 -0.311967 0.0066922
-0.0995679 0.00695283 0.249635
-0.0925035 -0.272652 0.264641
-0.0357434 0.272324 0.264641
0.244351 -0.268968 0.272593
-0.14027 -0.138247 0.272593
-0.0753536 -0.243097 0.264641
0.118832 -0.0622266 0.264641
0.317109 -0.00548201 0.266535
-0.252441 0.152105 0.264641
0.0439363 0.0898096 0.264641
0.000393867 0.333168 0.262231
-0.0999507 -0.0776695 0.264641
0.151671 -0.0980228 0.264641
-0.0433503 0.340017 0.272483
0.3309 0.321364 0.0794587
0.221015 0.302937 0.272593
-0.289458 0.302287 0.264641
0.157558 0.198435 0.264641
0.0166613 0.205617 0.264641
-0.33317 0.31591 0.0986427
0.0447501 -0.019519 0.272593
0.3309 0.329348 0.16334
0.311965 0.314047 0.0133771
0.173119 -0.34074 0.254687
-0.0145881 0.188717 0.272593
-0.136301 -0.109796 0.272593
0.13449 0.128256 0.264641
-0.280607 0.0870855 0.272593
-0.0358094 0.0292415 0.270321
-0.0500551 -0.0758571 0.264641
0.0619009 -0.233141 0.264641
0.138212 -0.0871831 0.272593
-0.143102 -0.00619638 0.249498
0.151218 -0.269453 0.272593
0.325885 -0.0301168 0.272593
-0.269589 -0.296292 0.264641
-0.219578 0.126853 0.264641
-0.33317 0.330412 0.184737
0.0917922 0.0469959 0.264641
0.0292622 0.282533 0.272593
-0.0545208 -0.00242423 0.267659
0.0333766 0.00984389 0.247837
0.134108 -0.141704 0.272593
0.0761008 0.0514645 0.264641
-0.25584 -0.264058 0.264641
0.322069 0.329761 0.188469
0.0312936 0.0188365 0.272593
0.166448 -0.238029 0.272593
0.271251 0.111731 0.272593
-0.314476 0.339888 0.249573
0.164815 -0.0370593 0.272593
-0.251048 -0.160429 0.264641
-0.258434 -0.338671 0.266531
-0.256647 -0.0947754 0.272593
-0.185763 -0.0269997 0.264641
-0.215791 -0.0212123 0.272593
-0.00282397 0.0405233 0.270321
-0.178291 0.272642 0.272593
0.0902724 0.00924318 0.272593
-0.325097 0.333168 0.122058
0.0546182 -0.183376 0.264641
0.329764 0.319356 0.132321
-0.217542 0.0779509 0.264641
-0.320644 -0.26137 0.264641
-0.0542474 -0.297403 0.272593
0.197562 -0.254889 0.264641
-0.227152 -0.112636 0.272593
-0.0517042 0.11947 0.264641
-0.214917 -0.00757163 0.2585
-0.215225 -0.144639 0.272593
0.315373 -0.329424 0.0961424
0.043073 -0.335821 0.249498
0.11043 0.236249 0.272593
-0.335616 -0.34074 0.264644
0.327697 0.330897 0.208591
-0.0692165 0.00757163 0.260642
0.302743 -0.175061 0.272593
-0.0803113 0.208294 0.272593
-0.0468452 -0.18947 0.272593
0.340742 0.116807 0.250725
0.192503 -0.196446 0.272593
-0.333752 0.0452884 0.272593
-0.185669 0.215942 0.264641
-0.0679236 -0.310602 0.264641
0.109522 0.061509 0.272593
0.311965 0.319152 0.181649
-0.00315746 0.316909 0.264641
-0.11427 0.147766 0.264641
0.324313 0.330551 0.264641
-0.136158 0.00403401 0.266531
-0.262154 0.173 0.264641
0.0162448 0.130956 0.272593
-0.331194 -0.304092 0.264641
0.21828 -0.27863 0.272593
-0.324228 -0.311967 0.0537888
0.324769 0.330897 0.0581786
-0.225998 -0.214604 0.264641
-0.167153 0.111721 0.264641
-0.250995 -0.193416 0.272593
0.322325 -0.319922 0.272593
-0.0831416 0.337449 0.249498
0.141291 0.15632 0.272593
0.179902 -0.109486 0.272593
-0.126149 -0.0294984 0.272593
0.103501 -0.265255 0.272593
0.139573 -0.14373 0.264641
0.125899 -0.323463 0.272593
0.217527 0.250938 0.264641
-0.336018 -0.159688 0.266535
0.170668 -0.0506565 0.272593
0.333171 -0.323075 0.164725
-0.0617348 -0.0264627 0.264641
-0.203914 -0.0908215 0.272593
-0.166712 -0.0292248 0.264641
-0.340742 0.150123 0.252464
-0.0363358 0.314417 0.264641
