0.0838078 -0.0744525 0.272593
-0.116057 0.308153 0.264641
-0.181297 0.209788 0.264641
0.15084 0.0499832 0.272593
-0.0649753 -0.26063 0.264641
-0.325116 0.0479208 0.264641
0.0482709 0.0174155 0.24407
-0.276787 -0.146341 0.264641
-0.0551511 -0.138175 0.264641
0.125831 -0.155936 0.272593
-0.214028 0.052451 0.264641
-0.313337 -0.311967 0.213213
0.340742 -0.146831 0.253724
-0.315607 -0.0717192 0.264641
-0.0170644 0.244283 0.272593
-0.193989 -0.106048 0.264641
0.31524 -0.0797044 0.272593
0.340742 -0.29439 0.254209
-0.304 0.237205 0.264641
-0.107801 0.102292 0.264641
-0.00618702 -0.34074 0.271304
-0.279993 0.284817 0.272593
0.244577 -0.154095 0.264641
-0.26933 -0.338164 0.272593
0.192723 0.250395 0.272593
0.0285864 0.0325089 0.270321
0.267449 0.323758 0.264641
-0.299482 0.00757163 0.254768
-0.176864 -0.329934 0.272593
0.249859 -0.00757163 0.255733
-0.149458 0.0644172 0.264641
0.0140863 -0.22079 0.264641
0.0242626 0.337625 0.249498
-0.31726 0.332033 0.232579
0.28364 0.168606 0.272593
0.234216 0.0605105 0.264641
0.168781 -0.287736 0.264641
0.0610749 -0.26877 0.264641
0.114174 -0.247209 0.264641
-0.226231 -0.0433589 0.264641
0.235056 -0.104048 0.272593
-0.174121 -0.203254 0.272593
0.00692784 0.131624 0.272593
0.0765454 0.298816 0.272593
-0.119943 -0.171002 0.264641
-0.340742 -0.264732 0.252403
-0.319311 -0.169825 0.264641
-0.270878 -0.217705 0.272593
-0.284254 0.309238 0.272593
0.0574143 -0.146591 0.272593
-0.0449477 0.192453 0.272593
-0.317395 0.137233 0.264641
-0.155252 -0.246304 0.264641
-0.0937969 -0.171162 0.264641
0.205787 0.297089 0.272593
0.331246 -0.333169 0.0530956
0.262248 -0.283937 0.272593
-0.0273793 -0.0376361 0.272593
-0.17783 0.33686 0.249498
0.340426 0.305761 0.266131
0.325704 -0.314238 0.146153
0.293936 -0.184013 0.272593
0.312469 0.106791 0.272593
-0.198753 -0.0242411 0.272593
-0.317926 -0.34074 0.256425
-0.179122 0.137633 0.264641
-0.262841 0.127606 0.264641
0.281284 0.0314166 0.272593
0.339143 0 0.270097
0.235436 0.148985 0.264641
0.320124 -0.314238 0.22824
-0.0605311 0.238742 0.272593
-0.317172 0.315374 0.141725
-0.114063 0.251623 0.272593
-0.123289 0.0199322 0.272593
0.180689 0.14479 0.272593
-0.0403215 -0.300409 0.272593
-0.0725143 0.325297 0.264641
-0.275375 -0.034411 0.272593
-0.340742 -0.308791 0.269855
-0.230487 -0.122698 0.272593
0.14998 0.236552 0.272593
0.0595649 0.129134 0.272593
0.100474 -0.0365011 0.264641
-0.256563 -0.29232 0.272593
0.192666 -0.175229 0.264641
0.255247 -0.0328013 0.264641
-0.198252 -0.00581009 0.249498
-0.189642 0.0423482 0.264641
-0.184434 0.252643 0.272593
-0.0682288 -0.237526 0.272593
0.300176 0.272569 0.272593
-0.33317 0.264398 0.250613
0.115506 0.154048 0.264641
-0.0679456 0.190144 0.264641
0.333171 -0.108786 0.253117
0.112633 0.307795 0.272593
-0.314236 0.325197 0.0427956
0.0811522 0.192705 0.264641
0.169108 -0.106642 0.264641
-0.0124016 -0.153336 0.272593
0.335932 0.111644 0.249498
0.312093 0.33023 0.194827
-0.0376179 0.0174155 0.249656
0.324834 0.0706422 0.272593
-0.0925683 -0.305813 0.264641
0.200928 -0.239561 0.272593
0.2 0.209502 0.264641
-0.032467 -0.226994 0.264641
-0.201765 0.265244 0.264641
-0.194617 0.17876 0.264641
-0.0203495 -0.0790053 0.264641
-0.243835 0.175683 0.264641
-0.0542442 0.0877759 0.272593
0.107248 0.0876858 0.264641
0.196827 0.0659658 0.264641
0.166186 0.130857 0.264641
-0.276392 -0.094545 0.264641
0.00386782 -0.0174155 0.245876
-0.0177382 0.0334651 0.272593
0.264118 0.334537 0.249498
-0.235598 0.0927254 0.264641
-0.0443598 0.304558 0.272593
0.323068 0.313102 0.109637
-0.33317 0.0950111 0.250941
0.0680481 -0.336877 0.249498
0.340738 0.208224 0.265413
0.118789 -0.34074 0.253162
0.150121 -0.188381 0.272593
0.322418 -0.23967 0.272593
-0.227391 0.203493 0.264641
-0.200502 -0.193762 0.272593
0.17289 0.313355 0.264641
-0.101124 0.0351044 0.264641
-0.0693089 -0.0242185 0.264641
-0.0957913 0.15666 0.264641
-0.253196 0.0568524 0.264641
0.177552 -0.0324308 0.264641
-0.228252 -0.190547 0.272593
0.0298815 0.116248 0.264641
-0.179927 -0.158276 0.272593
0.174958 0.0195529 0.272593
0.134828 -0.110367 0.264641
0.244273 -0.253833 0.272593
-0.222219 0.334142 0.266492
0.0320302 -0.0753807 0.272593
0.07056 0.0444745 0.272593
0.250165 0.214023 0.272593
0.0522028 0.264703 0.272593
-0.152766 0.10657 0.272593
0.333171 0.148388 0.252828
0.00406918 -0.306628 0.264641
0.00170182 0.196363 0.264641
0.0400457 -0.105431 0.264641
0.159749 0.0901022 0.264641
-0.152549 -0.0332645 0.264641
0.15348 -0.0787314 0.272593
-0.0995699 -0.0652606 0.264641
-0.340742 -0.0846517 0.255861
0.0523206 -0.301236 0.272593
-0.159429 0.289892 0.272593
0.069655 -0.0353597 0.272593
-0.307011 0.122632 0.264641
-0.323867 -0.330898 0.0264321
-0.112565 0.333627 0.249758
-0.169056 -0.294118 0.272593
-0.322423 -0.330898 0.106959
-0.315127 0.219736 0.264641
-0.0339244 0.155942 0.264641
0.282472 0.245112 0.272593
0.0926008 -0.167312 0.264641
0.338053 0.338899 0.249498
-0.0144819 0.0959606 0.264641
0.21293 -0.13102 0.264641
-0.332034 0.321633 0.145037
-0.28515 -0.183857 0.272593
-0.140434 -0.0674485 0.264641
0.0467135 -0.203747 0.264641
-0.041709 0.0358338 0.270321
-0.210248 -0.306103 0.272593
0.284812 -0.224281 0.264641
0.333171 -0.330851 0.112003
-0.338992 0.172537 0.266531
0.244185 -0.32317 0.272593
-0.0845457 -0.205106 0.264641
-0.276048 -0.248108 0.272593
-0.306176 -0.017586 0.264641
-0.287945 0.0308033 0.272593
-0.142557 0.209456 0.272593
-0.274288 0.223432 0.272593
0.0319181 -0.340351 0.249827
0.173652 -0.253883 0.264641
0.305812 -0.287279 0.264641
0.0106879 0.0174155 0.243793
-0.339401 -0.149592 0.249498
0.283137 -0.109965 0.264641
0.132534 -0.269258 0.272593
-0.140093 -0.125893 0.272593
0.0039824 -0.151986 0.272593
0.239139 0.300541 0.264641
-0.195088 -0.236198 0.272593
-0.0155745 0.323934 0.272593
0.0562933 -0.234824 0.272593
-0.0677218 -0.10294 0.264641
-0.107237 -0.252256 0.264641
-0.0337896 -0.0174155 0.262599
0.287733 -0.0620093 0.272593
0.0161318 0.163207 0.272593
-0.027339 -0.277719 0.264641
0.314803 -0.151996 0.264641
0.316768 0.311967 0.0352318
-0.314236 0.315921 0.109819
-0.122309 -0.002662 0.249498
0.114065 0.0118256 0.272593
0.235053 0.113713 0.272593
0.034935 -0.243788 0.272593
0.109088 0.00122498 0.249498
-0.245588 -0.262158 0.264641
-0.288777 0.258488 0.272593
-0.340742 0.333977 0.271061
-0.305889 0.34074 0.269263
0.0583636 0.220049 0.264641
-0.13871 -0.181538 0.272593
0.118049 0.235094 0.272593
0.063282 0.0126704 0.272593
-0.188916 -0.0738857 0.264641
-0.310717 -0.319649 0.272593
0.307364 -0.323852 0.264641
-0.186949 0.303951 0.264641
-0.311969 -0.31668 0.114149
-0.0929931 0.276572 0.264641
-0.0883872 -0.135974 0.272593
-0.0193814 0.278706 0.272593
0.0891553 -0.133652 0.272593
-0.0336864 -0.106419 0.272593
0.319098 0.0299584 0.264641
0.145218 0.0283774 0.264641
0.073664 0.0711296 0.272593
0.0887728 -0.256939 0.264641
-0.130035 0.132087 0.264641
-0.340742 -0.230277 0.253376
0.253617 -0.34074 0.258593
0.302338 0.138062 0.264641
-0.29779 -0.333169 0.253276
0.280672 -0.028594 0.264641
-0.0987824 -0.340204 0.24968
-0.330899 -0.318338 0.182547
-0.320269 -0.330898 0.216218
0.305666 0.171372 0.272593
0.204007 0.173054 0.264641
-0.164187 -0.0992452 0.272593
-0.222461 0 0.268239
-0.128935 0.0853562 0.264641
0.0106472 0.0729812 0.272593
-0.243592 -0.051835 0.264641
0.0896454 0.109651 0.264641
0.260013 0.080086 0.272593
0.333874 -0.18595 0.249613
0.201087 -0.0965937 0.264641
0.333171 -0.261941 0.253803
0.193958 -0.337431 0.249498
0.333171 -0.0265489 0.260473
-0.32984 -0.303909 0.25338
-0.0757079 -0.34074 0.257239
-0.297125 -0.243881 0.272593
-0.0841862 0.120345 0.272593
-0.33317 0.316511 0.0566373
0.262963 0.200634 0.264641
-0.34072 -0.191137 0.250553
0.176604 0.34074 0.265116
-0.336896 0.043706 0.249498
0.340742 0.185818 0.251777
-0.304693 -0.126653 0.264641
0.109635 0.266324 0.272593
-0.204959 -0.0685357 0.264641
-0.060662 -0.319159 0.272593
-0.136655 0.322699 0.264641
-0.059597 -0.169731 0.264641
-0.25246 -0.31565 0.272593
0.170336 0.214784 0.272593
-0.196275 -0.128279 0.264641
0.207993 0.0419389 0.272593
0.318107 -0.116942 0.272593
-0.144906 -0.218567 0.272593
0.11482 0.191752 0.272593
0.293364 0.31579 0.264641
-0.18483 0.0645366 0.272593
-0.0592711 0.207128 0.264641
0.0409945 0.293601 0.264641
-0.147666 -0.317659 0.272593
0.118531 -0.0821084 0.264641
-0.25225 0.293226 0.264641
0.3229 0.242958 0.272593
0.225276 0.260241 0.264641
0.231583 0.00757163 0.256351
0.329764 0.31675 0.212671
-0.020546 0.213736 0.272593
0.235616 -0.181623 0.272593
-0.00834388 -0.241686 0.272593
0.136313 -0.324737 0.272593
0.12952 -0.0261648 0.272593
-0.0865215 0.241601 0.272593
0.253425 -0.129509 0.272593
0.196832 -0.199636 0.264641
-0.316018 0.0818291 0.264641
-0.0735294 0.0520226 0.272593
0.208983 -0.0305161 0.264641
0.0301804 -0.290781 0.272593
0.323731 -0.315375 0.0315483
0.210328 -0.15544 0.264641
-0.207215 0.0275508 0.264641
0.141299 0.164911 0.264641
0.115067 -0.185572 0.264641
-0.102099 0.00205363 0.266531
0.340742 0.0277328 0.252776
0.1526 0.00717202 0.249815
-0.340547 0.240885 0.272068
-0.264164 0.196033 0.264641
-0.0101798 0.00407335 0.272593
-0.189013 -0.335219 0.249498
-0.253506 -0.109299 0.264641
0.319066 -0.332033 0.161179
0.107747 0.34032 0.267671
0.319355 -0.0471062 0.272593
0.0468606 -0.0542025 0.270321
-0.32969 0.333168 0.123148
0.328699 0.313102 0.139914
-0.318325 -0.329762 0.178884
0.131257 0.0643995 0.264641
-0.234356 0.269502 0.264641
0.193288 -0.274408 0.264641
0.0267532 -0.128293 0.264641
-0.132725 -0.0947978 0.264641
0.0884371 -0.333169 0.256782
-0.109073 0.189097 0.264641
0.142726 -0.240137 0.272593
-0.040869 -0.333169 0.250805
0.316063 -0.177326 0.264641
0.275193 0.137056 0.264641
0.000691652 0.33404 0.249568
0.177294 0.279848 0.272593
0.315566 0.00342653 0.272593
-0.313945 0.195145 0.272593
-0.288597 0.148102 0.272593
0.0115655 0.0028475 0.266535
-0.307897 -0.0976782 0.272593
-0.286104 -0.0653658 0.272593
0.0956669 -0.284093 0.264641
0.18383 -0.0728977 0.264641
-0.314971 -0.329762 0.0543478
-0.249604 -0.148645 0.272593
0.330191 -0.314238 0.17862
-0.0524179 -0.237274 0.272593
-0.05001 -0.0139013 0.241925
-0.126834 0.0561054 0.264641
0.203791 -0.314239 0.264641
-0.157352 0.178483 0.264641
-0.00960737 -0.339249 0.249498
-0.338026 0.319702 0.249498
-0.273467 -0.00462962 0.266531
-0.253452 -0.34074 0.25555
0.0607783 -0.0883588 0.264641
0.146215 -0.146259 0.272593
-0.140242 -0.00550669 0.272593
-0.297793 0.059378 0.264641
0.3309 0.314521 0.188552
-0.264439 -0.176799 0.264641
0.276282 0.000204396 0.267671
-0.333302 -0.250296 0.250072
-0.294818 0.333964 0.249588
-0.213262 0.236552 0.272593
0.233254 -0.295308 0.264641
0.331807 -0.333169 0.238551
0.320254 0.329761 0.0914573
-0.0137559 0.302282 0.264641
0.332846 0.279356 0.272593
0.145782 0.314955 0.272593
0.224186 0.0801725 0.264641
-0.00152563 -0.0547335 0.270321
0.316332 -0.315375 0.0582943
0.0989918 -0.229356 0.264641
0.3309 0.328959 0.0259462
0.0508726 -0.16913 0.264641
0.0564607 -0.0043365 0.272593
0.34073 -0.0856908 0.265444
0.114993 -0.0548949 0.272593
-0.33317 0.329329 0.205906
-0.0727448 0.0831195 0.272593
0.0797874 0.326263 0.272593
0.011719 0.264901 0.272593
-0.152073 -0.33607 0.249498
-0.316246 -0.330898 0.139952
0.179398 0.0420071 0.264641
-0.340742 0.148622 0.250851
0.273643 0.299851 0.264641
-0.146368 -0.277122 0.272593
-0.3153 0.314182 0.264641
0.216975 -0.0880711 0.272593
-0.0201825 -0.00757163 0.258549
-0.218156 -0.329155 0.272593
0.000803899 -0.204889 0.272593
0.23829 0.326851 0.272593
-0.314236 0.315519 0.172207
-0.0318512 -0.17003 0.264641
0.205758 0.130287 0.264641
0.309914 -0.252611 0.272593
0.225369 -0.0410951 0.264641
-0.0979516 -0.0259514 0.272593
0.13063 0.281869 0.264641
-0.158143 0.231131 0.264641
0.0924118 0.141094 0.272593
0.168632 -0.00668708 0.266531
-0.318128 0.274719 0.272593
0.103224 0.216691 0.264641
-0.314236 0.317281 0.075879
0.141202 -0.291902 0.272593
0.317334 -0.333169 0.0202176
-0.315484 -0.0476541 0.264641
-0.27563 -0.313634 0.264641
0.0555414 0.324713 0.264641
-0.240863 0.32612 0.272593
-0.027078 -0.131164 0.272593
-0.251948 -0.0276842 0.272593
0.20517 0.32394 0.272593
0.260029 0.0457017 0.272593
0.216824 -0.25928 0.272593
-0.218249 0.117098 0.264641
0.0921986 0.171429 0.272593
-0.311241 0.16623 0.264641
-0.165876 0.0332117 0.264641
-0.340742 0.236669 0.251141
-0.219405 0.288467 0.264641
-0.262747 0.253366 0.264641
-0.242499 0.115894 0.264641
0.0476311 0.15257 0.264641
0.311965 0.328943 0.122905
0.129786 -0.205244 0.264641
-0.318229 -0.286513 0.264641
-0.0442411 0.00757163 0.270607
0.218769 0.240493 0.272593
0.183585 -0.211901 0.272593
-0.231407 -0.288874 0.264641
-0.23398 0.0261449 0.272593
0.161897 -0.315638 0.272593
0.326088 0.331753 0.272593
-0.332769 -0.0188938 0.272593
-0.128175 0.270615 0.264641
-0.182253 0.275316 0.272593
-0.323575 -0.263038 0.272593
-0.161989 0.31378 0.272593
0.0380368 0.136124 0.272593
-0.191213 -0.0435996 0.272593
-0.108 -0.140472 0.272593
0.337432 -0.314693 0.266531
0.208535 0.00471089 0.266535
0.28612 0.0838741 0.264641
-0.315809 0.0258638 0.264641
0.253573 0.285358 0.272593
0.301724 0.297113 0.264641
0.172786 0.246951 0.272593
-0.277537 0.104592 0.264641
-0.215045 0.0756364 0.272593
-0.092669 0.340559 0.272054
-0.236528 0.056217 0.272593
-0.00588756 -0.175637 0.272593
-0.13053 -0.245526 0.272593
0.16682 -0.00757163 0.252983
-0.329763 -0.313718 0.0482834
-0.183905 0 0.271307
-0.173943 -0.264137 0.272593
0.26797 -0.157122 0.272593
-0.311969 -0.3226 0.241824
0.270464 -0.243106 0.272593
0.331793 0.0464002 0.272593
0.337673 -0.128756 0.272593
0.291664 0.34074 0.256813
-0.115657 -0.19381 0.264641
-0.229611 -0.0909153 0.272593
-0.256874 0.0255808 0.272593
0.152533 0.206635 0.264641
0.181967 -0.327845 0.272593
-0.174684 0.109997 0.264641
-0.212778 -0.114406 0.272593
-0.0520085 -0.27379 0.264641
-0.0944646 -0.00429512 0.249498
-0.146205 0.0327734 0.264641
-0.216058 -0.244553 0.272593
0.0842165 0.264904 0.264641
0.259031 0.237402 0.272593
0.340592 0.0941508 0.272009
0.259931 -0.0580493 0.272593
0.253595 0.169423 0.272593
0.226749 0.336506 0.249498
0.028898 0.32275 0.272593
0.0641403 0.0933046 0.272593
-0.194283 0.157328 0.264641
-0.172234 -0.181893 0.272593
-0.189752 0.340091 0.272453
-0.216571 0.18014 0.264641
-0.194718 -0.289379 0.264641
0.0527542 0.188901 0.264641
0.144833 0.142605 0.264641
-0.0613705 -0.0482235 0.272593
0.173509 -0.182278 0.272593
0.328904 0.311967 0.00796192
-0.0356518 0.0790991 0.272593
-0.301139 -0.148925 0.264641
0.248416 0.138528 0.272593
-0.320628 -0.240976 0.264641
-0.0958243 -0.0842396 0.272593
0.0680764 -0.183661 0.272593
-0.33317 0.33021 0.0246286
0.0736938 -0.223106 0.272593
0.154706 -0.0241266 0.272593
-0.271596 -0.0600323 0.264641
0.0302068 0.215304 0.264641
0.0454087 0.337307 0.249498
-0.303701 0.285927 0.264641
0.255701 0.0128624 0.264641
-0.0523554 0.34074 0.267967
-0.33503 0.29054 0.249498
0.288806 -0.153963 0.264641
-0.313292 -0.311967 0.0139239
0.111304 -0.113224 0.272593
-0.340742 -0.117664 0.254318
0.330691 0.312482 0.164975
-0.329991 0.111957 0.272593
0.132604 0.208777 0.264641
-0.160138 0.0892385 0.272593
0.226436 -0.231083 0.272593
0.333171 -0.321631 0.0757441
-0.221094 -0.14857 0.264641
0.340742 0.279223 0.251132
0.304343 -0.218747 0.272593
0.279282 0.273928 0.264641
0.284322 -0.294557 0.264641
-0.00400316 0.15671 0.272593
-0.291994 -0.0466416 0.264641
-0.0663933 0.0292327 0.264641
0.320339 0.317333 0.264641
-0.0579041 0.169476 0.264641
0.104073 -0.0156996 0.272593
-0.124033 0.150759 0.272593
0.0779008 -0.299297 0.272593
0.330731 -0.314238 0.100372
-0.303667 -0.204044 0.272593
0.252973 -0.232559 0.264641
0.289375 0.113331 0.272593
0.0148418 -0.25978 0.272593
-0.0198849 0.176219 0.272593
-0.336935 0.00992996 0.272593
0.0779978 -0.0186584 0.264641
0.212476 0.150181 0.272593
-0.0698614 0.105475 0.264641
0.0954295 0.303346 0.264641
0.170216 -0.0601352 0.264641
0.318164 0.217125 0.272593
0.3309 0.316894 0.241927
-0.00436034 -0.0212137 0.270321
0.0107598 0.107737 0.264641
-0.0327477 -0.248688 0.264641
0.186431 0.0836893 0.264641
-0.246889 -0.170589 0.272593
0.196473 0.27977 0.264641
-0.206456 0.216293 0.264641
-0.262362 0.0790158 0.272593
-0.33317 0.0718417 0.256112
-0.0127739 0.124809 0.272593
-0.254517 -0.239994 0.264641
-0.0476893 -0.0881632 0.272593
0.32241 -0.00108247 0.249498
-0.277299 -0.282628 0.264641
-0.193585 -0.174628 0.264641
0.285807 -0.333806 0.24963
-0.20224 -0.145177 0.272593
0.319374 0.190704 0.272593
-0.11747 0.289347 0.272593
-0.105668 -0.226543 0.264641
-0.0588677 -0.199435 0.272593
0.12179 -0.128973 0.272593
0.175155 0.0597528 0.272593
0.340742 0.231343 0.256688
0.29721 0.015801 0.264641
0.281232 -0.0874808 0.264641
-0.339603 -0.0527952 0.26731
0.0521508 -0.121001 0.264641
0.333171 0.0849022 0.250717
0.210699 -0.210089 0.272593
0.188813 0.230401 0.272593
-0.092157 0.307949 0.264641
0.304073 0.0767964 0.264641
0.162982 0.15985 0.264641
-0.165954 -0.13057 0.272593
-0.0376905 -0.0628479 0.269387
0.333171 -0.325756 0.213811
-0.0731552 -0.000270393 0.272142
0.311965 0.321964 0.0711952
0.180989 0.190811 0.264641
0.167087 -0.161756 0.272593
0.0333753 -0.00757163 0.262343
-0.0167406 -0.324897 0.272593
0.0395412 0.00984389 0.265645
-0.127815 -0.0495207 0.272593
0.121708 0.175341 0.272593
-0.316111 0.333168 0.146073
0.0753437 0.22068 0.272593
-0.172554 -0.0186171 0.264641
-0.0961073 -0.275654 0.264641
0.33303 0.118956 0.272593
0.0476558 0.0466252 0.270321
0.141183 0.262194 0.264641
0.120077 0.100333 0.272593
0.150008 0.0698772 0.272593
0.178798 -0.303711 0.272593
0.243896 0.195844 0.264641
0.0317248 -0.154661 0.272593
0.136141 0.332322 0.272593
-0.329763 -0.326305 0.0715261
-0.166641 -0.224165 0.264641
0.0133726 -0.119575 0.272593
7.41407e-05 -0.0821059 0.272593
-0.0750763 0.155486 0.272593
-0.0359478 -0.148138 0.272593
-0.308155 0.103377 0.272593
-0.232785 -0.0668397 0.272593
0.110693 0.287509 0.272593
0.336355 0.210153 0.249498
-0.314236 0.318525 0.189323
0.326925 -0.332033 0.135509
-0.129338 0.228464 0.264641
0.256256 0.337281 0.272593
0.297154 -0.312769 0.264641
0.340191 -0.0491012 0.272421
-0.232144 -0.0193369 0.272593
0.316413 -0.314238 0.124934
0.227979 -0.340594 0.272008
0.187876 -0.00139834 0.272593
-0.320871 0.336853 0.272593
0.00879859 -0.329025 0.264641
-0.267518 0.151538 0.264641
-0.340742 -0.283291 0.257812
0.308819 0.0518175 0.272593
0.186844 0.109613 0.272593
0.190478 -0.145636 0.272593
-0.0854044 -0.247937 0.272593
-0.325973 0.333168 0.0643684
-0.330899 -0.315193 0.227998
-0.00638963 0.0736872 0.272593
-0.167823 0.161882 0.264641
0.00402612 0.217605 0.272593
-0.0320085 0.101063 0.264641
0.264209 -0.315542 0.264641
-0.336959 -0.33186 0.272593
0.098312 0.0652791 0.272593
0.301648 -0.0308042 0.264641
0.000856958 0.289447 0.272593
-0.339606 0.280758 0.267476
0.324448 -0.296325 0.272593
-0.221119 -0.208105 0.264641
0.317381 -0.0173148 0.272593
0.121306 0.0316142 0.264641
-0.33788 -0.201449 0.272593
-0.340742 0.0230701 0.258082
0.176536 -0.232489 0.264641
0.0870451 0.0179134 0.272593
-0.104044 -0.332945 0.272593
0.318397 0.157774 0.264641
-0.289922 -0.0147112 0.272593
0.268998 -0.190765 0.272593
-0.276483 0.333345 0.266531
-0.00623261 -0.130448 0.264641
0.143426 -0.34074 0.253211
0.0295647 -0.321036 0.264641
-0.0906056 0.19833 0.264641
0.340055 -0.222789 0.266415
-0.0839531 -0.325945 0.272593
0.0970962 -0.0932017 0.264641
-0.289351 -0.111854 0.272593
0.337982 0.178063 0.272593
-0.0119492 -0.295409 0.272593
-0.339942 0.216714 0.267671
-0.175169 0.190923 0.272593
-0.230944 0.00757163 0.254304
-0.272677 0.0492648 0.272593
0.159289 0.333063 0.272593
-0.333166 -0.103962 0.266526
-0.169332 -0.34074 0.255706
0.0103223 0.0498981 0.270321
-0.119854 -0.073047 0.272593
-0.182372 -0.311406 0.264641
-0.203173 0.320782 0.264641
-0.205027 -0.0881031 0.272593
0.19216 -0.25577 0.272593
-0.23418 0.0747302 0.264641
-0.314236 0.327538 0.0161849
0.227299 -0.0688317 0.264641
-0.00598906 0.263183 0.264641
0.29236 0.150616 0.264641
0.156333 -0.266875 0.272593
-0.131538 -0.263478 0.264641
0.170732 0.101498 0.264641
-0.298715 -0.169492 0.264641
-0.20424 0.333168 0.253363
0.0668727 0.110499 0.264641
-0.0982442 -0.117617 0.264641
-0.0860991 0.060665 0.264641
-0.0443632 0.252418 0.264641
-0.135683 0.33946 0.249498
0.331799 0.136544 0.272593
0.0711984 0.251113 0.272593
-0.28747 0.125503 0.272593
-0.117947 0.330329 0.272593
-0.329807 -0.311979 0.128501
-0.277867 -0.340725 0.250577
0.220685 0.189147 0.264641
0.109206 -0.144528 0.264641
0.194684 -0.122423 0.264641
0.261905 -0.099748 0.264641
0.0309578 -0.0140716 0.241925
-0.0656011 0.34074 0.25174
0.305645 -0.201573 0.264641
-0.228174 0.339289 0.249498
-0.142548 0.00757163 0.252561
-0.0227137 0.0174155 0.261245
-0.255251 -0.13179 0.264641
0.110589 -0.329 0.272593
-0.0512316 0.0543773 0.272593
0.269156 0.182926 0.264641
-0.289046 -0.302588 0.264641
-0.163238 0.125036 0.272593
0.215885 0.211401 0.264641
0.0651234 0.280629 0.264641
0.028551 0.339814 0.272537
0.0218658 -0.0563853 0.270321
-0.333296 -0.168275 0.250058
-0.165904 0.056028 0.272593
-0.328451 0.3404 0.249877
-0.329763 -0.313703 0.0256544
-0.0410784 -0.330481 0.272593
0.242868 0.248439 0.264641
-0.242567 -0.215162 0.272593
-0.178591 -0.0625264 0.264641
-0.0878873 -0.0429295 0.264641
0.335554 -0.190015 0.272593
0.0544019 0.0727603 0.272593
0.340742 0.129923 0.256391
-0.340742 -0.169953 0.269703
-0.31311 -0.313103 0.161129
0.340742 -0.167448 0.255081
-0.205278 -0.323982 0.264641
0.304379 -0.0952039 0.264641
-0.0378762 0.226923 0.272593
0.205293 -0.336967 0.266535
0.315373 -0.318745 0.0839467
0.109171 0.123347 0.264641
0.325565 -0.0977334 0.272593
-0.311969 -0.320076 0.0909314
-0.196747 0.233771 0.264641
-0.315509 0.315374 0.218884
-0.148497 -0.0852811 0.264641
-0.0218213 -0.212679 0.272593
0.0946304 -0.312263 0.264641
0.120163 -0.0100596 0.272593
-0.126948 -0.332508 0.272593
0.102064 0.0302799 0.272593
0.228657 -0.140723 0.272593
-0.182135 0.0198145 0.264641
0.29229 0.23008 0.264641
0.154675 -0.043956 0.272593
0.32318 -0.312247 0.272593
0.0257377 0.281048 0.272593
-0.0162427 0.34074 0.258681
-0.332997 0.145377 0.272593
-0.291046 0.197371 0.272593
-0.0724929 0.222262 0.272593
-0.0794412 -0.15405 0.264641
0.313102 0.315953 0.176513
-0.158491 0.269996 0.264641
0.138313 -0.0910016 0.264641
0.153962 -0.1224 0.264641
-0.0734282 -0.294914 0.264641
0.292497 -0.339319 0.272593
0.114515 -0.283702 0.272593
0.256728 -0.263615 0.264641
-0.0683195 -0.123367 0.264641
-0.099328 -0.21616 0.272593
0.032642 -0.185319 0.272593
0.0696987 -0.129685 0.272593
0.293945 0.186733 0.272593
-0.0517107 -0.113953 0.272593
0.318333 0.330897 0.0400145
0.314236 -0.328875 0.237691
-0.129427 0.106378 0.264641
0.023802 0.0917702 0.272593
0.0211693 0.0174155 0.262456
-0.301182 -0.340348 0.272266
-0.119007 0.0404147 0.272593
0.21639 -0.00757163 0.256487
-0.0847251 0.176323 0.264641
-0.158699 -0.34074 0.269123
-0.197363 0.29077 0.272593
-0.320601 -0.195527 0.264641
-0.142629 -0.297784 0.272593
0.337889 0.168214 0.249498
-0.0751873 -0.184771 0.264641
-0.324689 0.333168 0.165671
0.340738 0.254978 0.267984
0.256055 0.311722 0.272593
-0.258 -0.204888 0.264641
-0.265719 -0.264722 0.264641
-0.260956 0.236094 0.272593
-0.0765495 -0.0551352 0.272593
-0.311969 -0.31542 0.189234
0.331689 -0.332033 0.186963
-0.15647 -0.199092 0.264641
-0.107168 0.053948 0.264641
-0.0821318 -0.274778 0.272593
-0.320227 0 0.26804
-0.0852895 0.0309659 0.272593
0.247517 0.0974219 0.272593
0.278739 0.339454 0.272593
-0.0378659 0.273263 0.264641
-0.336469 0.191621 0.272593
0.337427 0.0239727 0.272593
0.221458 0.172237 0.272593
-0.340742 -0.208772 0.254651
-0.0545201 -0.0160155 0.265564
0.128051 0.0849693 0.264641
-0.157398 0.00497485 0.272593
0.0849734 0.0831036 0.264641
-0.128813 -0.137808 0.264641
0.152112 -0.103577 0.272593
0.313102 0.317268 0.210551
0.244368 -0.0670383 0.272593
-0.316213 0.315374 0.244163
0.0533836 -0.022091 0.269363
0.221727 0.283368 0.272593
-0.333017 0.314814 0.162529
0.312314 -0.340049 0.272456
-0.330899 -0.32186 0.202864
0.333171 -0.212362 0.251655
0.314485 -0.328724 0
0.323623 -0.314238 0.197086
-0.225436 0.221569 0.272593
0.138126 -0.177851 0.264641
-0.338132 -0.241749 0.272593
-0.0279044 -0.0174155 0.249707
-0.134361 0.298446 0.264641
-0.27899 -0.124786 0.264641
0.200643 0.0224349 0.272593
-0.129727 -0.00405392 0.266531
0.174767 0.295421 0.264641
-0.15244 -0.0136027 0.264641
0.333171 -0.32171 0.252944
0.318121 0.132497 0.272593
0.194546 0.333168 0.261991
-0.232795 -0.309992 0.272593
-0.332034 0.31679 0.230766
0.339588 -0.245128 0.266531
-0.197055 -0.255253 0.264641
-0.314911 0.333045 0.206012
0.203128 0.192168 0.272593
0.0286673 0.00984389 0.245638
0.339394 -0.064929 0.266531
0.315373 -0.326603 0.0420689
0.313684 0.26954 0.264641
-0.201805 -0.00010564 0.271851
0.0217099 -0.274973 0.264641
0.10065 0 0.270955
0.0667732 -0.0666199 0.264641
0.207254 0.338935 0.249498
-0.329763 -0.329601 0.0906545
-0.292184 -0.0863993 0.264641
-0.295763 0.00127306 0.272593
0.168317 0.271357 0.272593
-0.169212 0.339605 0.267533
-0.107298 0.122448 0.264641
-0.0231515 -0.185512 0.272593
0.24267 0.021811 0.272593
0.0730842 -0.00757163 0.254794
0.326822 0.330897 0.207756
-0.193052 -0.333688 0.272593
0.273894 -0.206285 0.264641
-0.27929 0.24001 0.264641
0.0452625 0.0967358 0.272593
-0.172966 -0.0810848 0.272593
-0.320713 0.314238 0.128081
-0.258872 0.336548 0.272593
0.278377 -0.177049 0.264641
0.0247562 0.0612203 0.264641
-0.224776 -0.270036 0.264641
0.0992739 0.322485 0.272593
0.0127865 -0.334745 0.249498
-0.0732499 -0.218391 0.272593
-0.340701 0.262368 0.27161
0.144649 0.0953819 0.272593
0.325077 0.330897 0.112162
-0.0317662 0.333079 0.272593
-0.29755 0.163064 0.272593
0.110607 -0.201617 0.264641
0.0734261 -0.34074 0.267853
0.100849 0.188655 0.264641
-0.33317 -0.0664826 0.257008
0.241088 0 0.271242
0.0781366 0.124639 0.272593
0.135643 0.298992 0.264641
0.098727 -0.0648778 0.264641
-0.102474 0.0203279 0.272593
-0.0993164 -0.263238 0.272593
0.272757 -0.34074 0.269222
-0.0902769 0.222447 0.264641
-0.137052 -0.0248701 0.272593
-0.322631 0.173054 0.272593
-0.25555 0.310507 0.272593
-0.276429 0.0664527 0.264641
-0.311969 -0.318469 0.0326982
0.0159709 0.183272 0.272593
-0.340742 -0.257993 0.269686
0.220669 0.324616 0.264641
0.214623 -0.243211 0.264641
-0.026086 -0.000795061 0.272593
0.313477 0.311967 0.156809
0.232325 0.226944 0.272593
0.0180836 0.14589 0.264641
0.217246 -0.111068 0.272593
0.312446 0.230277 0.264641
-0.328491 -0.311967 0.0847436
0.0199109 -0.0888106 0.272593
0.318546 0.311967 0.0934197
0.245135 0.333168 0.251553
0.211087 -0.179985 0.264641
-0.32137 0.297301 0.264641
-0.312779 0.252078 0.272593
0.161655 -0.238535 0.272593
-0.0826441 0.139271 0.272593
0.312108 0.31258 0.0159089
0.321855 -0.277224 0.264641
-0.340742 0.183566 0.251531
0.147148 -0.165157 0.272593
-0.292736 -0.227283 0.264641
-0.326548 -0.313971 0.272593
0.275579 0.0667899 0.264641
-0.00818647 0.0537046 0.270321
-0.258298 0.166489 0.272593
0.0533831 0.0271781 0.268949
-0.325704 -0.330898 0.244668
0.0373386 0.230863 0.272593
-0.00464645 0.00984389 0.257884
-0.14932 0.338216 0.266531
-0.00886743 -0.0340679 0.272593
0.313743 0.336641 0.272593
-0.274238 0.0116839 0.272593
0.18466 0.163194 0.272593
0.329304 -0.172329 0.272593
-0.298105 0.218998 0.272593
-0.177079 -0.114205 0.264641
0.314806 -0.333015 0.0642635
0.3309 0.323219 0.0524321
-0.297208 0.138964 0.264641
-0.0742819 0.282524 0.272593
-0.0311457 0.293998 0.264641
0.111166 -0.16518 0.264641
0.214448 0.066365 0.272593
0.318062 0.288869 0.272593
-0.322878 0.315374 0.0295097
0.057292 -0.250651 0.264641
0.0884178 0.284496 0.272593
-0.320577 -0.333531 0.272593
-0.31208 -0.330179 0.000976795
0.235758 -0.33915 0.249498
0.234321 -0.27864 0.272593
0.0452625 0.116632 0.272593
-0.229641 0.253498 0.272593
-0.143967 0.191029 0.272593
0.00533175 0.0912271 0.272593
0.251433 0.122133 0.264641
0.0690565 0.34074 0.268556
0.217926 0.116466 0.264641
0.0754555 -0.247016 0.272593
-0.0403559 -0.266234 0.272593
-0.0296965 0.198946 0.264641
-0.200013 0.114816 0.264641
-0.33317 -0.317319 0.251311
0.269037 -0.129399 0.264641
-0.319761 0.333168 0.106873
-0.0660914 0.310065 0.272593
-0.184089 0.121955 0.272593
-0.0203765 -0.0628479 0.269661
0.333225 -0.34074 0.254146
0.338206 -0.0774043 0.249498
-0.183903 -0.141765 0.264641
0.169672 -0.0842345 0.264641
0.0411302 -0.26094 0.272593
0.0794698 0.149585 0.272593
-0.110107 0.235712 0.264641
-0.0563335 -0.0015844 0.266534
-0.210622 -0.287643 0.264641
0.333028 -0.332557 0.0283512
0.167152 -0.205485 0.272593
0.329764 0.314571 0.121866
-0.115246 -0.268407 0.264641
0.268771 0.152116 0.272593
0.26049 -0.297736 0.264641
0.0722944 -9.13556e-05 0.267671
0.0807362 -0.273254 0.264641
0.270225 -0.257895 0.272593
-0.0663345 -0.340658 0.271769
0.0205296 -0.00757163 0.261
-0.33025 0.333168 0.0456947
-0.251822 0.0973503 0.264641
0.0109665 -0.136996 0.264641
-0.313103 -0.314123 0.141681
-0.276901 -0.204489 0.264641
-0.302929 -0.187049 0.264641
0.294937 -0.0788376 0.272593
0.128771 -0.0463962 0.264641
-0.161375 -0.309064 0.264641
-0.112003 0.270166 0.272593
-0.298236 0.0847355 0.264641
0.198269 -0.0739459 0.272593
-0.191153 0.0257709 0.272593
-0.0739584 0.26637 0.264641
0.0288915 -0.206211 0.264641
0.301301 0.0325726 0.264641
-0.0162224 -0.255441 0.264641
-0.325972 -0.311967 0.102534
-0.260402 -0.158293 0.264641
0.0749082 -0.14834 0.272593
0.12096 0.32859 0.264641
-0.116023 0.164684 0.264641
0.0550746 0.00757163 0.258865
0.221216 -0.32573 0.264641
-0.0879268 0.0127029 0.264641
-0.244696 0.220441 0.272593
-0.0494607 0.0697243 0.264641
0.0161019 -0.190565 0.264641
-0.0365784 -0.0754394 0.264641
0.331661 -0.315375 0.16271
0.0679354 -0.165832 0.272593
-0.23735 0.287537 0.272593
-0.329909 0.158939 0.264641
0.321625 0.175289 0.264641
-0.0988578 -0.323508 0.264641
-0.0641589 -0.00757163 0.253254
0.0474268 -0.071586 0.264641
0.340742 -0.124777 0.25561
-0.179141 -0.279082 0.264641
0.227433 -0.159981 0.264641
0.17397 0.00757163 0.258678
0.0847536 -0.00689332 0.272593
0.129561 0.154362 0.272593
0.0816185 0.0575051 0.264641
-0.21857 0.146291 0.272593
-0.194882 0.137352 0.272593
-0.31436 0.314921 0.00424039
0.304343 -0.127956 0.272593
-0.0432831 -0.0300389 0.272593
-0.338671 -0.138378 0.272593
0.00770354 -0.237173 0.264641
0.183577 -0.100648 0.272593
0.304343 -0.0562976 0.272593
0.0178237 -0.00520873 0.249498
0.332035 -0.330297 0.0109726
-0.304541 0.015043 0.272593
0.115557 0.0721955 0.264641
-0.0906232 0.261145 0.272593
0.0399189 0.272414 0.264641
0.313261 0.311967 0.0518789
-0.0469263 0.284786 0.272593
-0.3295 -0.297123 0.272593
0.125866 0.00576286 0.249498
-0.0636875 -0.282926 0.272593
0.279207 -0.0439631 0.272593
-0.000200421 -0.00503507 0.266535
-0.243792 -0.280579 0.272593
0.241313 0.266839 0.264641
0.211652 -0.300992 0.272593
-0.243341 0.191053 0.272593
-0.238781 0.304098 0.264641
0.162178 0.0130076 0.264641
0.166523 0.0750301 0.272593
-0.0849539 -0.104322 0.264641
-0.281455 -0.168567 0.264641
0.310537 0.252002 0.264641
0.0155293 0.340599 0.271986
-0.140161 -0.233644 0.264641
0.297872 -0.00128917 0.266531
0.133792 0.223984 0.272593
-0.111997 -0.207692 0.264641
0.0613144 0.29836 0.264641
-0.311969 -0.324084 0.258866
-0.315372 0.327461 0.0887378
-0.286028 -0.34074 0.269668
0.113076 -0.0994094 0.264641
-0.151982 0.142113 0.264641
0.278855 -0.142537 0.272593
-0.258682 -0.0504943 0.272593
0.0117957 0.0301464 0.272593
0.0584617 -0.216181 0.264641
-0.159468 -0.173745 0.264641
0.196072 -0.0226383 0.272593
-0.117134 -0.232518 0.272593
0.0455295 0.207773 0.264641
-0.00107315 0.334336 0.266535
0.0119871 -0.291522 0.264641
-0.0234419 -0.333169 0.257393
0.293477 0.0988195 0.264641
0.159225 -0.339593 0.266531
0.129811 -0.229014 0.272593
0.0846503 -0.233873 0.272593
-0.0823408 0.34074 0.254699
-0.228193 -0.340615 0.265874
0.336817 -0.0141648 0.249498
0.197995 -0.0406703 0.272593
-0.305791 0.0467381 0.272593
-0.0526044 0.224359 0.264641
0.040781 -0.017585 0.272593
-0.33317 0.32782 0.0751367
0.312054 0.312776 0.138307
-0.336664 0.0964733 0.272593
-0.180402 -0.234014 0.264641
0.182989 0.208773 0.272593
-0.158906 0.213439 0.272593
0.130782 -0.249868 0.264641
0.0150941 -0.0706917 0.264641
-0.00395823 0.109448 0.272593
-0.159503 -0.270297 0.264641
-0.272796 -0.108988 0.272593
-0.23454 -0.325098 0.264641
-0.335257 0.0339938 0.266535
-0.340165 0.31725 0.272444
-0.301717 -0.265947 0.264641
-0.0416335 0.00111309 0.249498
-0.196778 0.205119 0.272593
-0.315372 0.32087 0.0606985
-0.0692267 0.34074 0.270259
-0.145571 0.28048 0.272593
0.285244 -0.25265 0.272593
-0.172682 0.0815375 0.264641
0.250956 -0.11239 0.264641
0.243489 0.0776032 0.272593
0.322038 0.330897 0.260254
0.11271 -0.224121 0.272593
-0.233342 -0.164934 0.264641
0.176859 -0.0470735 0.272593
-0.332034 0.321886 0.106867
0.27029 0.0209191 0.264641
-0.33317 -0.157549 0.262737
0.10011 0.156782 0.272593
0.340604 -0.101153 0.265907
0.166308 -0.147167 0.264641
-0.182599 -0.0969328 0.272593
-0.219842 0.268238 0.272593
-0.245791 0.01324 0.272593
-0.221459 0.0399444 0.272593
-0.294227 0.272324 0.264641
0.307525 -0.163049 0.272593
0.0616823 -0.328957 0.272593
0.0919787 -0.32983 0.272593
0.232078 0.0995214 0.264641
-0.330899 -0.327858 0.132989
0.154091 0 0.26805
-0.248964 0.131769 0.272593
-0.274737 0.164786 0.272593
-0.0129874 -0.227978 0.264641
-0.127335 -0.11541 0.272593
0.0298315 0.0159745 0.272593
0.265969 0.216822 0.264641
-0.100808 0.144966 0.272593
-0.135193 0.247937 0.272593
-0.340742 -0.100333 0.250906
-0.117746 0.0763156 0.272593
0.065222 0.0586324 0.264641
-0.0976332 -0.153218 0.272593
0.251432 0.057221 0.264641
0.333954 0.22134 0.272593
0.329764 0.32906 0.14351
0.315373 -0.318284 0.0126243
-0.0199722 -0.102238 0.264641
0.12903 0.192787 0.264641
0.140524 0.0148437 0.272593
0.227714 0.134551 0.264641
0.0289992 0.193173 0.272593
-0.112881 -0.0557448 0.264641
0.229896 -0.124408 0.272593
0.185911 0.319262 0.272593
0.1018 -0.34074 0.265362
-0.0950243 -0.236677 0.264641
-0.219537 0.0896986 0.264641
-0.202678 -0.221731 0.272593
0.0524479 0.34074 0.264257
-0.287619 -0.213888 0.272593
-0.323725 0.319465 0.272593
-0.0263971 -0.303352 0.264641
0.0713558 0.137901 0.264641
0.318492 -0.220193 0.264641
-0.245836 -0.197556 0.272593
0.340742 -0.272703 0.263368
0.303155 -0.110541 0.272593
0.000116196 0.0116395 0.270321
-0.324064 0.243488 0.264641
-0.271773 0.264295 0.272593
0.117118 -0.0366628 0.272593
0.308392 0.00712734 0.249771
0.333171 0.00942087 0.258329
0.0855854 0.208112 0.272593
0.00456932 0.309493 0.264641
0.101115 -0.267421 0.264641
-0.197636 0.070448 0.264641
-0.0174304 -0.118166 0.272593
0.329764 0.326205 0.0784258
-0.260615 -0.016604 0.264641
0.0733914 -0.314784 0.272593
0.13689 -0.34074 0.270755
0.0592106 -0.104397 0.264641
0.314236 -0.31772 0.184578
0.137564 -0.13219 0.272593
0.215795 -0.195352 0.264641
0.260271 -0.331206 0.272593
-0.137889 0.117471 0.272593
-0.317435 -0.11359 0.272593
0.179563 -0.194834 0.264641
-0.0496404 -0.0722384 0.272593
-0.320155 -0.311967 0.25796
0.335589 -0.154952 0.266535
0.154235 -0.280619 0.264641
0.162708 0.0260676 0.264641
-0.242833 -0.299788 0.264641
-0.00571129 0.137324 0.264641
-0.122898 -0.0167357 0.264641
-0.174314 0.262109 0.264641
-0.175366 0.314948 0.264641
0.060486 -0.202401 0.272593
-0.217021 -0.127558 0.264641
-0.340742 0.123154 0.268611
-0.143291 0.310608 0.272593
-0.279194 0.207967 0.272593
-0.0171638 0.00305605 0.249498
-0.334316 -0.187211 0.266535
-0.0556986 -0.296454 0.272593
0.204291 0.078568 0.272593
0.0475292 -0.134183 0.272593
0.0664604 0.188161 0.272593
0.155688 -0.298352 0.272593
-0.33317 0.331064 0.239577
0.339923 0.331556 0.266451
-0.247258 0.0707478 0.272593
0.234711 -0.310506 0.272593
0.296281 -0.141552 0.272593
-0.326041 0.262942 0.264641
-0.200202 0.307194 0.272593
-0.0513098 0.0174155 0.257525
-0.323579 -0.0246905 0.264641
0.340742 0.0469256 0.259618
-0.313102 -0.314198 0.0527482
0.320249 0.330897 0.0143046
0.286732 0.303511 0.272593
0.304115 -0.3011 0.272593
-0.191767 -0.273625 0.272593
0.250315 -0.0478109 0.272593
0.0696776 0.237653 0.264641
-0.0751741 -0.308339 0.272593
-0.204586 0.00757163 0.254715
0.146139 -0.21651 0.272593
0.203971 0.224688 0.264641
0.262455 -0.00947854 0.264641
-0.223128 0.168333 0.272593
-0.219804 -0.0314898 0.272593
0.199442 0.14671 0.264641
-0.315145 0.333107 0.128358
-0.180884 0.156006 0.272593
-0.236293 0.34074 0.268071
-0.332034 0.317476 0.195791
0.307298 0.185234 0.264641
0.253099 0.0342174 0.264641
-0.0617666 -0.212519 0.264641
0.229812 -0.250673 0.272593
-0.24363 -0.339606 0.267627
-0.0452624 -0.128116 0.272593
0.3309 0.324634 0.174688
0.0459356 -0.0934261 0.272593
0.0866759 0.0966167 0.272593
-0.147996 0.0511549 0.272593
-0.217256 0.248536 0.264641
-0.316376 0.332033 0.253929
0.0889494 -0.146978 0.264641
-0.260881 0.181791 0.272593
-0.109213 -0.178899 0.272593
0.303464 0.116598 0.264641
0.0249632 -0.305381 0.272593
-0.179575 -0.215661 0.264641
0.314236 -0.31955 0.107248
-0.293824 0.330695 0.264641
0.12526 0.044238 0.272593
0.120822 0.214713 0.272593
-0.134204 0.0424149 0.264641
0.133921 0.333168 0.254964
0.0858142 0.0424509 0.272593
0.145656 0.28953 0.272593
-0.110325 -0.0168368 0.272593
0.294107 -0.0160657 0.264641
0.0563629 -0.0362387 0.264641
0.020584 0.00757163 0.258471
0.0265862 -0.143619 0.264641
0.1552 0.305848 0.264641
0.29872 -0.261987 0.264641
-0.317256 0.332033 0.181277
0.00526893 0.00356764 0.249498
0.333171 -0.0435838 0.259994
0.186348 -0.290402 0.272593
-0.100996 0.251365 0.264641
0.336614 0.239956 0.266531
0.317838 -0.315375 0.170124
-0.108811 -0.0855081 0.264641
-0.215473 -0.333169 0.257952
0.209006 0.0062061 0.249498
-0.0821686 -0.0222735 0.272593
0.227001 -0.0539849 0.272593
0.0657869 -0.0514253 0.264641
0.0955148 0.227136 0.272593
0.0673625 0.317501 0.272593
-0.0458639 0.160918 0.272593
-0.00948096 0.22043 0.264641
-7.8842e-05 -0.220042 0.272593
-0.329672 0.333168 0.223917
-0.0611215 0.0658887 0.272593
0.184448 0.122314 0.264641
-0.0088956 0.18667 0.272593
-0.119916 0.196108 0.272593
-0.0463289 0.319588 0.272593
0.101584 -0.244402 0.272593
0.0233724 0.255219 0.272593
-0.0920965 -0.290672 0.264641
-0.330899 -0.324703 0.260705
0.230006 0.201856 0.264641
-0.0871074 -0.00227743 0.266535
0.33647 0.318842 0.272593
0.0946237 -0.296899 0.272593
0.149441 0.219084 0.272593
-0.0731718 0.253576 0.272593
0.232418 0.311452 0.272593
0.191494 -0.16248 0.272593
0.333171 -0.317273 0.0413026
0.315763 -0.332033 0.145619
-0.205507 -0.165437 0.264641
0.311299 -0.267597 0.272593
-0.315835 -0.20889 0.264641
0.103098 -0.214902 0.264641
0.340216 -0.0922874 0.249691
0.333197 0.195287 0.266531
0.197452 -0.217659 0.272593
0.321063 0.330897 0.0632655
0.0807959 0.165798 0.264641
-0.329396 0.0195161 0.264641
0.0760592 -0.0958266 0.272593
0.151089 0.250957 0.264641
0.241851 0.34074 0.268264
-0.0979997 0.328698 0.264641
0.322406 -0.333169 0.26117
0.175052 -0.0200146 0.272593
-0.324522 -0.329762 0.165274
-0.132168 -0.0821452 0.272593
0.0997105 -0.00757163 0.257134
-0.146102 -0.255052 0.272593
-0.0385638 0.0196365 0.270321
-0.340742 0.0567209 0.255738
0.263405 -0.140717 0.272593
-0.105458 0.315043 0.272593
0.0562785 -0.280466 0.272593
0.088913 -0.0314834 0.272593
-0.0207536 0.265066 0.264641
-0.29871 -0.0599117 0.264641
-0.330899 -0.3148 0.00799897
0.233609 -0.0892553 0.272593
-0.215239 0.302724 0.264641
-0.259851 0.219986 0.272593
-0.270308 0.117548 0.272593
-0.281018 -0.324906 0.272593
0.181483 -0.00757163 0.255009
-0.0422011 -0.288067 0.264641
-0.107351 -0.281078 0.272593
0.286845 0.26121 0.264641
-0.101347 0.00757163 0.255032
0.313442 0.313102 0.123585
-0.235098 0.105872 0.272593
-0.141625 -0.0432071 0.264641
-0.0767952 0.208136 0.272593
0.0700442 -0.110497 0.272593
-0.278573 0.134184 0.264641
-0.0472154 0.179637 0.264641
-0.240385 -0.133623 0.272593
0.262366 -0.215469 0.264641
-0.131279 0.18165 0.272593
0.293909 0.284622 0.264641
-0.180778 -0.00757163 0.2594
-0.236668 -0.00757163 0.264982
0.0345143 0.159252 0.264641
-0.00264672 0.277519 0.264641
0.116105 -0.269074 0.272593
-0.0625106 -0.0138728 0.272593
0.215901 0.313194 0.272593
-0.315165 -0.185233 0.272593
-0.163578 0.301539 0.264641
0.24241 -0.0165835 0.264641
-0.196198 -0.057419 0.272593
-0.136363 0.0132389 0.272593
0.0973197 -0.124429 0.264641
0.122594 0.246532 0.264641
-0.284577 0.0530489 0.264641
-0.244176 -0.0893136 0.272593
0.144844 0.0810476 0.264641
-0.332735 0.203346 0.264641
-0.138482 -0.196185 0.272593
-0.165025 0.0690496 0.264641
-0.33317 -0.00944287 0.261687
-0.0337712 0.120994 0.272593
0.0966381 0.202768 0.264641
0.0737971 0.0240951 0.272593
-0.313102 -0.328689 0.122407
-0.340742 0.252099 0.252845
0.322511 0.0162823 0.272593
0.0800552 -0.0456183 0.272593
-0.0798327 0.0931007 0.264641
-0.314236 0.319328 0.158129
0.30753 0.319205 0.264641
-0.141058 0.225044 0.272593
0.090868 0.333168 0.266131
0.165041 0.0444015 0.264641
0.013534 -0.034385 0.270321
-0.0516997 -0.0559239 0.264916
-0.30064 0.0712112 0.272593
-0.180483 0.0937856 0.264641
0.303342 0.157047 0.272593
0.272706 -0.221776 0.272593
0.0573271 0.205057 0.272593
0.123142 -0.170167 0.272593
-0.215536 0.208294 0.272593
0.187643 0.0524328 0.272593
-0.170134 0.325829 0.272593
0.322026 0.205699 0.264641
0.169789 0.23527 0.264641
-0.151631 0.0807126 0.264641
0.0284493 -0.222201 0.264641
0.00535852 -0.166346 0.272593
0.333171 -0.320725 0.0601114
-0.326679 0.228355 0.264641
-0.033658 0.180466 0.272593
-0.0971372 0.131028 0.272593
-0.192091 0.222689 0.272593
0.325727 0.330897 0.161676
0.238308 -0.333169 0.264046
-0.32573 -0.0781847 0.272593
-0.296439 0.106023 0.264641
0.333171 -0.140251 0.265178
0.247165 -0.303188 0.264641
0.316389 -0.140108 0.272593
0.0833237 0.250125 0.264641
0.0404192 -0.0329549 0.272593
0.177266 -0.170926 0.264641
-0.0446101 -0.00757163 0.258976
0.193924 0.295696 0.264641
0.202995 0.308695 0.264641
0.0385599 0.0651081 0.264641
-0.263112 0.325416 0.264641
-0.118778 0.125588 0.272593
0.256196 0.000938569 0.27254
-0.0140256 -0.280925 0.272593
0.333171 -0.317675 0.232949
-0.13115 -0.206795 0.264641
0.186403 -0.0891474 0.264641
-0.197871 0.0160186 0.264641
-0.0176628 -0.174388 0.264641
-0.0258831 0.0671451 0.264641
-0.317202 -0.311967 0.174719
0.340742 0.292152 0.261964
0.286278 0.0720716 0.272593
0.0151112 0.208679 0.272593
-0.202651 0.339924 0.266449
0.136074 -0.195277 0.272593
-0.340742 0.0879698 0.260699
-0.161927 -0.113278 0.272593
0.340742 -0.308417 0.251925
-0.0180567 -0.138732 0.264641
-0.127182 -0.0623209 0.264641
-0.18343 -0.185525 0.264641
-0.0959619 -0.196691 0.264641
-0.263134 0.0931747 0.272593
0.0356121 -0.0467876 0.270321
0.121168 0.002718 0.266535
0.180737 0.333168 0.253881
0.332331 -0.0192757 0.272593
-0.170327 0 0.267726
0.125239 0.268777 0.264641
0.340742 0.0829933 0.262527
-0.170312 0.285564 0.264641
0.2385 0.213161 0.264641
-0.165591 0.240141 0.272593
0.218584 0.22362 0.272593
-0.209451 -0.208179 0.272593
-0.0851277 0.106258 0.272593
0.208394 0.250064 0.272593
0.311965 0.32805 0.102733
-0.329659 0.315374 0.176199
0.319981 0.311967 0.221091
-0.205412 0.160648 0.272593
0.25652 -0.245014 0.272593
0.238177 -0.132536 0.264641
-0.33317 0.133428 0.25945
-0.243271 -0.035382 0.264641
-0.330899 -0.326861 0.0531495
0.18975 0.261596 0.264641
0.265331 -0.333169 0.256863
-0.231554 0.182493 0.264641
-0.135009 -0.333169 0.25394
0.244443 -0.284178 0.264641
-0.0867205 -0.184424 0.272593
-0.0559177 0.0125777 0.272593
0.163852 0.0619143 0.264641
0.277703 -0.0564447 0.264641
0.310995 -0.0656349 0.264641
0.274307 0.193168 0.272593
-0.262814 0.0120661 0.264641
-0.305006 0.0295696 0.272593
-0.310111 0.295407 0.272593
-0.265055 -0.0958615 0.272593
0.270285 -0.118055 0.272593
-0.0470782 -0.0432243 0.270321
-0.0122511 -0.0107902 0.270321
-0.33719 -0.0921224 0.272593
0.3209 -0.127986 0.264641
-0.183131 -0.0138093 0.272593
-0.09168 0.0432856 0.272593
0.178418 -0.34074 0.268891
-0.301881 -0.312489 0.264641
0.183467 -0.114524 0.272593
-0.0696822 -0.159886 0.272593
-0.265454 -0.304202 0.264641
0.162549 0.258738 0.272593
0.221997 0.156376 0.264641
-0.317393 0.151097 0.264641
-0.0367617 0.0514916 0.270321
-0.0551518 -0.152033 0.264641
0.080795 -0.194754 0.272593
-0.223043 -0.0726395 0.264641
-0.288038 0.291992 0.264641
-0.214703 -0.0509996 0.264641
-0.10285 0.165501 0.272593
0.326696 -0.333169 0.204101
0.201219 -0.00500111 0.272593
0.244842 -0.0984033 0.264641
-0.0235887 0.0855742 0.264641
0.0512955 0.136822 0.264641
0.120842 0.115365 0.272593
0.0111917 -0.0477957 0.272593
-0.329749 0.311607 0.264641
0.273131 0.162508 0.264641
-0.0876319 -0.058371 0.264641
0.3309 0.328297 0.1882
-0.287664 -0.275873 0.272593
0.0460775 -0.230133 0.264641
-0.183307 0.333168 0.262457
-0.271855 -0.191691 0.264641
0.188364 -0.225491 0.264641
-0.242757 0.206839 0.272593
-0.0138504 0.065062 0.264641
-0.280227 -0.227757 0.272593
-0.325629 -0.313103 0.16675
0.324409 0.313102 0.0219636
0.324496 -0.057029 0.264641
-0.318859 -0.223568 0.264641
0.0294999 -0.00322363 0.272593
0.310684 0.0182834 0.264641
0.314236 -0.331873 0.251055
0.178626 0.175485 0.272593
-0.0464298 -0.34074 0.265273
0.323251 0.263824 0.272593
-0.21657 0.157252 0.264641
0.153012 -0.245566 0.264641
-0.154478 -0.326464 0.264641
-0.166284 -0.0671144 0.272593
-0.265825 -0.120747 0.272593
-0.30258 0.175767 0.272593
0.219387 0.298382 0.272593
-0.233075 -0.23753 0.264641
-0.0741944 -0.17372 0.272593
0.100296 -0.111122 0.264641
-0.00871763 -0.00757163 0.250729
0.319422 0.330897 0.2192
0.157945 -0.17724 0.272593
-0.221983 -0.318809 0.264641
-0.158353 -0.213386 0.264641
-0.30208 0.261289 0.272593
-0.0721631 -0.202202 0.272593
-0.32417 0.314238 0.0160446
-0.14441 0.266959 0.272593
-0.339194 -0.0403015 0.272593
-0.219722 -0.0204933 0.264641
0.129088 -0.0790426 0.272593
0.0307262 0.309306 0.272593
0.289074 -0.171348 0.272593
0.0522813 0.0593738 0.272098
0.204063 -0.0498271 0.264641
0.311965 0.325147 0.0547674
0.333171 -0.328981 0.147145
-0.222222 -0.298838 0.264641
0.20305 -0.107385 0.272593
-0.328636 -0.176508 0.272593
-0.144796 0.0956179 0.272593
-0.176891 0.1801 0.264641
-0.0174341 -0.266329 0.272593
0.332035 -0.322927 0.0900798
0.175233 0.0915292 0.272593
-0.206816 0.283546 0.264641
0.212492 -0.0753226 0.272593
0.312632 0.0932876 0.272593
-0.148225 -0.186879 0.264641
0.00134892 -0.259318 0.272593
-0.161505 -0.255243 0.272593
-0.0338117 0.34074 0.261605
-0.270183 -0.290883 0.272593
0.0785346 0.0343469 0.264641
-0.261558 0.0382286 0.272593
-0.0678834 -0.226643 0.264641
0.329764 0.305328 0.257903
-0.330899 -0.31533 0.0638015
0.105268 -0.0798212 0.264641
-0.00603713 -0.141479 0.272593
0.242296 0.0352658 0.272593
0.0683328 0.198851 0.264641
0.201987 -0.25036 0.264641
-0.201687 -0.0463917 0.264641
-0.26968 -0.16731 0.272593
0.195254 0.00757163 0.265832
0.247968 0.178678 0.264641
0.215631 0.271395 0.272593
-0.307668 -0.0016409 0.272593
0.309961 0.200269 0.272593
0.340742 0.268159 0.25873
-0.225171 -0.100766 0.264641
-0.240866 -0.230054 0.272593
0.253583 0.249741 0.272593
-0.0488865 -0.0988859 0.264641
0.130432 -0.292043 0.264641
-0.276061 -0.0236708 0.264641
0.17202 0.00472884 0.272593
0.125131 0.34074 0.261593
0.273027 0.240004 0.264641
-0.0631153 0.249812 0.264641
-0.209354 0.32956 0.272593
-0.214126 -0.00757163 0.261056
0.138837 -0.00621662 0.272593
0.239396 -0.266264 0.272593
0.333171 0.218533 0.259568
0.00814911 -0.0990631 0.272593
0.276501 0.339474 0.249498
0.11934 -0.237841 0.272593
0.045258 -0.00757163 0.259868
-0.142428 -0.00757163 0.258249
0.319113 -0.315375 0.215012
-0.280545 0.270371 0.264641
-0.07805 -0.258257 0.264641
-0.21858 -0.222155 0.264641
-0.00468463 -0.116459 0.264641
0.0569611 0.178892 0.272593
0.315373 -0.324943 0.134416
0.329764 0.318696 0.0955737
0.312162 -0.189996 0.264641
-0.19926 -0.0109342 0.264641
0.0811866 -0.174051 0.264641
0.00715308 0.255343 0.264641
-0.0278944 -0.120604 0.264641
0.277319 -0.268534 0.264641
-0.234903 -0.18231 0.264641
0.0277403 -0.100566 0.264641
0.136303 0.13637 0.272593
-0.305319 -0.0740805 0.272593
-0.284013 0.00279168 0.272593
-0.11699 0.175192 0.272593
0.00397396 -0.34074 0.257303
-0.294193 -0.254015 0.264641
0.122465 0.299828 0.264641
0.0998465 0.130197 0.272593
0.108878 0.145882 0.272593
0.333171 0.0552787 0.262949
0.211654 -0.268424 0.264641
-0.1359 0.0307598 0.272593
-0.326004 0.0785888 0.272593
-0.24871 0.333079 0.264641
0.190404 0.340544 0.272069
-0.168978 0.0193002 0.264641
0.31563 -0.314595 0
0.333171 -0.00418335 0.257251
