0.403697 -0.176929 0.346192
0.332434 0.0866898 0.358939
-0.291391 0.155311 0.346192
0.0113008 -0.143765 0.346192
0.112894 -0.0772211 0.346192
-0.338612 0.228422 0.346914
0.328225 -0.208209 0.358939
0.176993 0.209695 0.346192
0.287176 0.0191893 0.346192
0.3679 0.165633 0.315333
0.212137 -0.143702 0.346192
-0.37205 -0.180669 0.312634
0.183468 -0.0886068 0.346192
-0.256048 0.142902 0.358939
-0.161147 0.203436 0.346192
0.028999 -0.126399 0.346192
-0.316857 -0.016115 0.346192
0.160812 -0.023479 0.358939
-0.39559 -0.0161347 0.358939
0.379868 -0.186453 0.346192
0.36898 -0.174289 0.131145
0.176455 0.159452 0.346192
-0.370674 0.051212 0.331579
0.406895 0.0925268 0.346707
0.271209 0.0214953 0.358939
0.0348002 0.0676038 0.346192
-0.0596504 0.0827027 0.346192
-0.0241753 -0.0973062 0.358939
-0.270166 -0.0803597 0.331579
0.368486 0.125539 0.326679
0.12656 -0.0451335 0.358939
0.032935 -0.073441 0.346192
-0.0789094 0.206135 0.346192
0.0924598 0.0500036 0.346192
0.115655 -0.209744 0.358939
-0.295871 -0.175992 0.346192
-0.209897 0.187825 0.346192
-0.34661 0.0963025 0.346192
-0.279316 -0.0832873 0.346192
-0.387649 -0.174304 0.323323
0.326267 0.0127278 0.346192
0.13103 0.0793435 0.346192
0.271243 -0.22431 0.358939
0.106933 -0.142854 0.358939
0.165423 0.022141 0.346192
0.00614458 0.161987 0.346192
0.385883 0.016204 0.314516
0.116908 -0.00193694 0.358939
0.226489 0.21234 0.346192
-0.201691 -0.0713842 0.33976
0.365327 -0.1209 0.358939
-0.341911 -0.150939 0.358939
0.388793 0.1658 0.346192
-0.386944 0.179345 0.251195
-0.209633 -0.0552017 0.358939
0.156243 -0.144355 0.358939
-0.298748 -0.0911015 0.337394
-0.404134 -0.17846 0.350065
0.188898 0.0713842 0.340414
0.0812147 -0.0333103 0.346192
0.40178 0.134481 0.346192
0.380648 0.167058 0.195355
-0.173882 0.115774 0.346192
0.380698 0.142716 0.331579
0.233639 -0.0606812 0.346192
-0.311571 -0.173356 0.346192
-0.00385067 0.194995 0.358939
0.163443 -0.0758055 0.358939
-0.185996 -0.079025 0.346192
-0.398595 0.088523 0.358939
-0.330676 -0.110142 0.346192
-0.213685 -0.0729624 0.331579
0.387471 0.171123 0.278653
0.144088 0.0756775 0.358939
-0.3507 0.00378915 0.346192
-0.23543 -0.0461868 0.346192
0.392466 -0.183059 0.346192
0.357456 0.0713842 0.340986
-0.398598 0.208896 0.346192
-0.0378477 0.150794 0.346192
0.252027 -0.0110948 0.358939
-0.389309 -0.079367 0.346192
-0.377478 -0.174573 0.0246903
-0.325872 -0.0016744 0.358939
-0.145573 -0.148245 0.346192
-0.244457 0.102139 0.358939
0.145541 0.0687463 0.346192
0.299899 -0.116104 0.346192
0.174645 -0.0911015 0.335456
0.331365 -0.0998007 0.358939
0.296356 0.195171 0.346192
-0.314113 0.0761583 0.331579
-0.0974922 0.0922869 0.346192
-0.387049 0.0951241 0.316023
-0.390926 0.0796247 0.358939
0.273819 -0.0221069 0.346192
-0.139119 0.0814237 0.346192
-0.370815 -0.177687 0.0371338
-0.0246898 0.12622 0.358939
0.273438 0.0855155 0.358939
0.115243 0.0488107 0.346192
0.131186 0.0808518 0.331579
-0.0973775 -0.175953 0.346192
0.125107 -0.144042 0.346192
0.225392 -0.0911015 0.333449
-0.138286 0.154192 0.358939
-0.380212 -0.115431 0.358939
0.0307066 -0.122788 0.346192
-0.386588 -0.063831 0.325576
0.255054 0.0291487 0.346192
-0.386606 0.168549 0.276297
0.185912 0.00410808 0.346192
0.298821 -0.066253 0.346192
-0.205159 0.00953095 0.358939
-0.384165 0.048158 0.311184
-0.298525 -0.131217 0.346192
0.382258 0.214219 0.346192
-0.251887 -0.0759099 0.346192
-0.323691 0.01309 0.358939
-0.0357339 -0.139183 0.358939
0.396893 0.0515218 0.358939
0.159738 0.079814 0.358939
-0.260828 -0.0713842 0.345371
-0.170056 0.131378 0.346192
0.0438912 -0.0865206 0.331579
-0.378538 0.164795 0.24643
-0.153673 0.138762 0.346192
-0.308059 0.0149803 0.346192
0.296385 -0.102111 0.358939
-0.300358 0.112015 0.346192
-0.149757 -0.0829798 0.346192
0.251163 -0.0488092 0.358939
-0.00904873 0.0735846 0.346192
-0.399068 -0.0824181 0.358939
0.295804 0.0658568 0.346192
-0.239937 0.12781 0.358939
-0.329978 0.00384159 0.358939
-0.263728 -0.0910013 0.331579
0.23885 0.0813817 0.346192
-0.383747 -0.166654 0.247178
-0.20926 -0.0353304 0.346192
0.102755 -0.188884 0.358939
0.376521 0.185764 0.213754
-0.39758 0.0896364 0.346192
0.3719 -0.18277 0.244562
-0.0685664 0.0576328 0.346192
-0.25727 0.0728673 0.346192
0.370094 -0.17885 0.308511
0.368211 0.113935 0.358939
-0.0205916 0.155285 0.358939
-0.176117 0.0590046 0.346192
-0.393658 -0.107087 0.358939
0.24139 0.211144 0.358939
0.141628 -0.156862 0.346192
-0.279616 0.223559 0.358939
0.198415 0.134669 0.346192
-0.39573 0.100992 0.358939
0.189771 -0.152842 0.358939
-0.0392291 0.219259 0.346192
-0.104436 0.054078 0.358939
0.282468 0.21404 0.358939
0.238126 0.214093 0.358939
0.208719 0.188908 0.346192
0.165918 0.0401466 0.346192
-0.244823 -0.0273133 0.358939
-0.0362706 -0.0725764 0.346192
0.015536 -0.0102671 0.346192
-0.186917 0.000522396 0.358939
0.22603 -0.0713842 0.339107
-0.38595 0.0207805 0.322417
-0.233311 -0.171294 0.358939
0.0204157 0.216567 0.358939
0.0909623 -0.191108 0.358939
-0.380867 0.228427 0.358167
0.311641 -0.0693124 0.358939
0.306201 0.0347499 0.358939
0.325969 0.134956 0.346192
-0.0671526 0.119966 0.358939
-0.106257 -0.15272 0.346192
0.106704 -0.014545 0.346192
-0.37692 -0.0365748 0.346192
0.167499 0.0713842 0.342332
0.187333 -0.00847773 0.346192
-0.185047 -0.0138318 0.346192
0.111198 -0.218542 0.358939
0.108278 0.0442569 0.346192
-0.192975 -0.0619726 0.358939
0.244827 -0.00353972 0.358939
-0.0951302 0.159578 0.346192
0.375333 -0.0778511 0.346192
-0.174824 0.0911015 0.334335
0.407909 -0.176426 0.348445
-0.350266 -0.161509 0.358939
-0.0534517 0.0805627 0.358939
-0.108022 0.183488 0.346192
0.115449 0.163412 0.358939
0.0709129 -0.162983 0.346192
-0.0908339 0.201598 0.346192
0.36439 0.0619152 0.346192
-0.195364 -0.156317 0.346192
-0.246644 -0.0781526 0.331579
0.0738571 0.167952 0.358939
0.324251 0.126489 0.358939
-0.30198 -0.103312 0.358939
0.310297 0.0168427 0.358939
-0.393548 -0.0427837 0.346192
-0.320968 0.00894349 0.346192
-0.179001 0.213504 0.358939
-0.37951 -0.192175 0.0588764
-0.108087 0.147484 0.358939
-0.240506 0.156685 0.358939
0.173697 -0.0485957 0.358939
-0.370459 -0.185684 0.0131327
0.371559 -0.0763887 0.311184
0.379713 -0.173445 0.346192
-0.346511 -0.0709696 0.346192
-0.376447 0.107446 0.358939
-0.371022 -0.180313 0.0151772
0.263065 -0.229449 0.356597
0.235083 -0.02204 0.358939
-0.377919 0.14303 0.346192
-0.18112 -0.030893 0.358939
0.330476 -0.0911015 0.338911
0.12243 0.138932 0.346192
-0.203847 0.0254358 0.358939
0.368384 -0.178486 0.0713301
0.384723 0.20095 0.358939
0.0563345 0.0459026 0.358939
-0.0706717 -0.120771 0.346192
-0.260393 0.00468633 0.346192
-0.369804 -0.112477 0.331451
-0.407909 -0.020027 0.348433
0.00586799 0.0898955 0.358939
0.377286 0.190328 0
-0.200427 0.163565 0.358939
0.0642282 0.0782428 0.346192
-0.0658612 0.0911015 0.341367
-0.035307 0.131679 0.358939
0.153265 0.189202 0.358939
-0.339841 -0.0494754 0.358939
-0.321624 -0.170225 0.358939
-0.345926 0.18425 0.346192
0.16924 0.216762 0.346192
0.387303 0.112024 0.327744
0.340514 -0.081947 0.331579
0.162131 -0.163145 0.346192
0.0802454 -0.129473 0.346192
0.331425 -0.00100425 0.358939
-0.369456 -0.0600099 0.321938
0.406114 -0.0791027 0.358939
-0.202181 -0.0756224 0.331579
0.0926181 0.0825142 0.346192
-0.402455 0.028285 0.358939
-0.242123 0.226051 0.346192
-0.231001 -0.061856 0.358939
0.342361 -0.197722 0.358939
0.383984 -0.167343 0.233575
0.119907 0.121294 0.346192
0.386072 0.182384 0.196273
0.30003 -0.120383 0.346192
0.387526 -0.178736 0.204474
0.36893 -0.169829 0.271157
0.0382886 0.113908 0.346192
0.231089 -0.176864 0.346192
0.385254 0.0911015 0.345712
0.375741 -0.177628 0.0223127
-0.386095 0.182975 0.0345371
0.251049 -0.172539 0.358939
-0.183103 -0.176597 0.358939
-0.384382 -0.172138 0.100993
-0.368056 0.186124 0.0804138
-0.025224 -0.0713842 0.338735
-0.0429442 0.177381 0.358939
0.164618 0.0911015 0.33977
-0.3624 0.0350745 0.346192
0.324826 -0.151772 0.346192
0.386298 -0.0441899 0.326093
-0.397325 0.200299 0.346192
-0.00571167 0.0710263 0.346192
0.160153 0.0231618 0.346192
-0.394346 0.17296 0.346192
-0.130343 0.0911015 0.341726
0.0690642 0.119666 0.358939
-0.0488647 -0.114019 0.346192
-0.0535418 0.134092 0.358939
-0.20287 -0.141361 0.346192
-0.407909 -0.154081 0.347813
-0.232291 -0.0855875 0.331579
-0.327976 0.221108 0.358939
-0.374473 -0.017044 0.311184
0.376358 -0.190362 0.346192
0.182883 -0.0713842 0.33638
0.0955167 -0.192149 0.358939
0.174715 -0.166949 0.346192
-0.143694 0.176176 0.346192
-0.372085 0.187867 0.0960982
0.0179275 0.0765838 0.331579
-0.254064 0.146721 0.358939
0.376549 0.0253768 0.311184
-0.154351 -0.0848866 0.346192
-0.317047 -0.160803 0.358939
0.240926 0.0192726 0.346192
0.285749 0.0347119 0.346192
0.128588 0.013266 0.358939
-0.224396 0.0378543 0.346192
0.377508 -0.174 0.0363907
0.17249 0.0839393 0.331579
0.00743704 0.214628 0.346192
-0.405479 -0.142346 0.358939
-0.19378 0.0280938 0.358939
0.0913675 -0.15413 0.346192
-0.387635 -0.177353 0.108869
0.0999015 -0.0163701 0.346192
0.260468 0.0177624 0.358939
0.25279 0.00203981 0.358939
-0.0519247 0.0905169 0.358939
-0.0223392 0.0747468 0.346192
0.166151 0.196896 0.358939
0.208879 -0.114876 0.346192
-0.386879 -0.166525 0.358939
0.336362 0.0901971 0.346192
-0.377462 -0.16953 0.0629557
-0.257637 -0.157326 0.346192
0.327686 -0.0855034 0.358939
0.278623 -0.226668 0.358939
-0.137481 0.039737 0.358939
0.125324 -0.12141 0.358939
-0.0950724 0.011697 0.358939
0.0663856 0.0537346 0.358939
0.259684 0.0250782 0.346192
-0.164215 0.205164 0.358939
0.257323 -0.161466 0.346192
-0.379542 -0.191821 0.0688358
0.0332627 -0.135099 0.346192
-0.00395992 -0.119467 0.358939
-0.393286 -0.0337237 0.358939
0.0549887 0.0911015 0.335926
0.149134 0.0779534 0.346192
0.368766 -0.176709 0.0821524
0.353818 -0.181409 0.346192
0.364556 0.14664 0.358939
0.241924 -0.163102 0.346192
-0.200415 0.0754829 0.346192
0.372663 -0.0450349 0.311184
0.189461 -0.0437116 0.358939
-0.368349 0.179508 0.168352
0.0408026 -0.0929601 0.358939
-0.148763 0.0533573 0.346192
-0.383276 0.18576 0.178771
0.387711 -0.182399 0.0729238
-0.125962 0.0166279 0.346192
0.0729233 0.116869 0.358939
0.309349 -0.229449 0.349689
-0.378515 0.187801 0.159972
0.205131 -0.126212 0.358939
-0.178504 0.209028 0.358939
0.387422 -0.179473 0.193757
0.382785 0.0413919 0.358939
-0.373211 -0.0629333 0.346192
-0.340241 0.0823124 0.331579
0.144488 0.0113637 0.346192
-0.379348 -0.00306949 0.358939
-0.350566 0.0591815 0.358939
0.281981 0.0347284 0.346192
0.0326114 0.20243 0.358939
-0.368772 -0.10642 0.318132
-0.387603 -0.174761 0.315615
0.0220834 0.085167 0.346192
0.260406 -0.103343 0.346192
-0.0866872 -0.0822242 0.358939
0.243831 0.113427 0.346192
0.0932015 -0.013213 0.346192
0.346544 0.0873546 0.358939
-0.341714 0.0332414 0.346192
0.231875 0.0664344 0.358939
0.311333 0.0134447 0.358939
-0.213128 0.211502 0.358939
-0.371752 0.0841108 0.331579
-0.000869344 0.175686 0.346192
0.320375 -0.0446416 0.346192
0.0830619 0.0945893 0.346192
-0.383774 -0.180435 0.324206
-0.318779 -0.0373203 0.358939
-0.172848 0.0713842 0.332012
-0.100769 -0.106628 0.346192
-0.328411 -0.0911015 0.334662
0.402662 -0.177406 0.358939
-0.282769 -0.155387 0.358939
0.113146 -0.204473 0.358939
-0.255224 -0.176626 0.358885
-0.238541 -0.107003 0.358939
-0.372594 -0.142477 0.331579
-0.165907 0.0668858 0.358939
0.368091 -0.152735 0.313877
-0.385475 0.0310302 0.346192
0.216881 0.176171 0.358939
0.0940334 0.0304718 0.346192
0.336172 0.0271644 0.346192
0.369488 -0.166799 0.358939
-0.368741 0.108373 0.320653
-0.376925 -0.0911015 0.335772
-0.279555 0.0334957 0.346192
0.218618 -0.0607572 0.358939
-0.103575 0.0576353 0.346192
-0.131536 0.100989 0.346192
0.0829619 0.149519 0.346192
-0.0914031 0.100549 0.346192
0.00824057 0.188882 0.346192
0.315864 0.0957617 0.346192
-0.296228 0.0779213 0.346192
-0.248926 -0.00528271 0.346192
0.185342 -0.115542 0.358939
0.33318 0.170696 0.358939
-0.241875 0.0960408 0.358939
-0.286606 -0.0367546 0.346192
-0.0952126 -0.101652 0.358939
0.383923 0.0911015 0.332015
-0.386565 0.062241 0.325758
-0.148458 0.130032 0.346192
-0.143752 0.0782639 0.346192
-0.261764 0.0216688 0.346192
-0.352917 0.00823515 0.358939
-0.402828 -0.0472007 0.358939
0.273725 0.00499392 0.346192
0.281301 -0.149443 0.346192
0.391854 -0.0583318 0.358939
0.151455 0.0471565 0.358939
0.0764768 0.0888328 0.346192
-0.388774 -0.0744104 0.346192
0.0713866 0.00402455 0.358939
-0.15015 0.00343281 0.358939
-0.0715915 0.208404 0.358939
0.0180224 0.17184 0.346192
0.376884 -0.164619 0.358939
-0.282874 0.0481857 0.358939
-0.217869 0.107103 0.346192
-0.377967 0.165776 0.212615
0.0688291 -0.00260932 0.346192
0.168355 -0.0730183 0.346192
0.18756 0.0554339 0.346192
-0.0298879 0.208489 0.358939
-0.293188 0.0713842 0.343261
-0.09987 -0.17846 0.354228
0.324321 0.128434 0.346192
0.327042 0.134367 0.358939
-0.377022 0.185097 0.238
0.00404625 0.0534616 0.358939
-0.375075 0.0406378 0.358939
0.368558 0.171988 0.247911
0.0195881 -0.0499233 0.346192
-0.373543 -0.172015 0.0605297
0.328963 0.158086 0.346192
0.165402 0.02399 0.358939
0.129899 0.21437 0.358939
0.229555 -0.216551 0.346192
-0.357762 -0.072473 0.331579
-0.387821 0.147332 0.319407
-0.162279 -0.0836816 0.346192
-0.236815 0.0223112 0.358939
0.384153 -0.118679 0.346192
-0.338857 -0.0725943 0.346192
-0.0815855 -0.0125777 0.358939
0.125186 -0.0462474 0.358939
0.115104 0.191133 0.358939
0.231795 -0.0904421 0.346192
-0.125669 0.193802 0.358939
-0.300807 0.219433 0.346192
0.195749 -0.155814 0.358939
0.00373829 0.22813 0.358729
0.0317443 -0.0474097 0.358939
0.251051 -0.0445603 0.358939
-0.388587 0.201115 0.346192
-0.229823 -0.0909361 0.346192
0.16044 0.0326983 0.346192
0.375634 -0.00226809 0.358939
-0.335523 0.0861913 0.331579
-0.00227024 0.125997 0.346192
0.0561908 0.0523814 0.358939
0.245976 0.173247 0.346192
-0.250627 0.0255578 0.346192
0.162238 -0.0980662 0.346192
0.158541 0.155082 0.358939
0.0897939 0.0981193 0.346192
0.118738 0.181793 0.346192
0.266548 -0.0636845 0.358939
-0.332426 -0.0754395 0.358939
-0.385513 -0.0751449 0.346192
0.155253 0.153848 0.346192
0.202959 0.154137 0.346192
-0.315335 0.107261 0.358939
0.0975499 0.154911 0.346192
-0.0832683 0.0811188 0.331579
-0.253689 0.196886 0.358939
-0.215302 0.0657969 0.358939
0.360609 0.0824194 0.358939
0.336829 0.219205 0.358939
0.361896 0.0911015 0.342636
-0.0245494 0.0915165 0.358939
0.120649 -0.186993 0.346192
-0.373848 0.224999 0.346192
-0.376866 0.0895077 0.331579
-0.367811 -0.171415 0.319473
0.263287 -0.0497153 0.358939
-0.222954 -0.108718 0.358939
-0.120122 0.0529796 0.358939
-0.369295 0.0710699 0.314548
-0.164283 -0.0911015 0.33483
-0.368208 0.176683 0.145296
-0.376077 -0.185453 0.219515
-0.403243 0.0451049 0.346192
-0.297748 -0.0692286 0.358939
0.134204 -0.229449 0.350423
0.368512 -0.173151 0.217872
-0.147319 0.0719085 0.346192
0.110003 0.0850409 0.346192
-0.375619 -0.183165 0.284959
0.175336 0.0814583 0.346192
0.342698 0.132216 0.346192
0.039293 0.0480922 0.346192
0.0550324 0.0116138 0.346192
0.282362 -0.0137256 0.358939
-0.332209 -0.00650666 0.346192
-0.0868884 0.0335115 0.346192
-0.387211 0.17607 0.319497
0.103978 -0.17336 0.346192
-0.0515381 0.0911015 0.33942
0.273125 0.0707283 0.346192
0.179515 -0.126372 0.346192
-0.38363 -0.169149 0.168449
-0.370159 0.0585582 0.331032
-0.385843 -0.1851 0.121063
0.093749 -0.0906105 0.346192
0.264155 -0.13738 0.346192
0.196116 -0.153024 0.346192
0.133663 0.178504 0.358939
-0.0370507 0.104944 0.358939
0.321814 -0.15985 0.346192
-0.047486 0.0816573 0.358939
0.394783 0.0635635 0.346192
0.374147 0.145407 0.311184
-0.169637 0.0861406 0.358939
-0.110423 -0.0893423 0.331579
-0.333518 0.0733842 0.346192
-0.315804 0.176526 0.358939
0.235788 -0.0713842 0.341445
-0.0966371 -0.077235 0.358939
0.387968 -0.178231 0.170139
-0.40123 -0.0788108 0.346192
0.346249 -0.197014 0.358939
-0.144606 -0.148202 0.346192
-0.164719 0.0834042 0.346192
-0.369643 0.178334 0.310462
-0.0602119 0.229449 0.356681
-0.370903 0.11094 0.311184
0.362677 -0.19317 0.346192
-0.372589 -0.165596 0.358939
-0.298404 -0.118563 0.346192
-0.0400452 0.206446 0.346192
0.397012 -0.210138 0.358939
0.232189 0.145431 0.346192
-0.375478 -0.189717 0.0857586
0.381189 0.178771 0.358939
0.0503905 0.0926063 0.346192
-0.200844 -0.0715591 0.331579
0.18049 0.208516 0.346192
-0.382549 0.0265479 0.346192
0.391046 0.0257117 0.358939
0.377275 -0.0578032 0.331579
-0.386297 0.0665001 0.358939
0.245494 0.169722 0.358939
-0.369081 0.0855437 0.315842
-0.110664 0.0505212 0.346192
0.373513 -0.0651773 0.331579
0.285589 0.165169 0.346192
0.32502 0.076647 0.358939
0.158285 -0.0849974 0.331579
-0.265102 0.036423 0.346192
0.299006 -0.0817453 0.358939
-0.385446 0.053065 0.311345
-0.225562 -0.000680653 0.358939
0.284955 -0.177167 0.358939
0.194328 -0.0140169 0.358939
-0.025779 0.168248 0.346192
-0.130108 0.0471519 0.358939
0.372609 0.17241 0.018277
0.281974 -0.0559149 0.346192
-0.377388 0.166735 0.188435
-0.376859 0.167771 0.161484
0.299607 0.228358 0.358501
0.227617 -0.0527955 0.346192
-0.371691 -0.0447952 0.346192
-0.322093 0.202718 0.346192
-0.177046 0.139085 0.358939
-0.00760249 0.0899129 0.358939
0.189075 -0.0911015 0.338528
-0.0748868 0.0564146 0.358939
0.382967 0.188266 0.109564
-0.164837 0.0808446 0.346192
0.353856 -0.166966 0.346192
0.238809 -0.0897267 0.346192
-0.119503 -0.0278388 0.346192
-0.385161 -0.172792 0.0501884
-0.0383971 -0.17846 0.351787
0.0477938 0.163651 0.346192
0.161687 0.228322 0.346594
-0.206308 -0.00949387 0.358939
0.00208118 0.120369 0.358939
0.0437711 0.0764785 0.346192
0.348871 -0.225896 0.346192
0.372491 0.187845 0.035836
-0.312311 -0.0436664 0.358939
0.164057 0.214 0.346192
0.368262 -0.0839098 0.358939
0.21577 -0.0383714 0.346192
-0.299372 0.182497 0.346192
0.361466 0.222555 0.358939
-0.0638941 -0.163171 0.346192
-0.267689 0.0310622 0.358939
0.369133 -0.174417 0.110258
-0.259823 0.0522938 0.346192
-0.393227 -0.0770776 0.358939
-0.251283 0.18115 0.346192
0.0145873 0.156196 0.346192
-0.404094 -0.0362566 0.358939
-0.0679614 -0.114591 0.358939
0.382998 -0.094696 0.331579
-0.207842 0.195761 0.346192
-0.331314 0.0419424 0.358939
-0.233586 0.0939366 0.358939
0.407909 0.146419 0.355458
0.281858 0.071758 0.358939
0.0290648 -0.0729511 0.346192
-0.280082 0.211854 0.346192
-0.234263 -0.118054 0.358939
0.353624 -0.0911015 0.332395
-0.368981 -0.149418 0.311635
-0.115627 0.00118773 0.346192
-0.380698 -0.188137 0
0.329883 0.162063 0.346192
-0.179857 0.212478 0.358939
-0.0495701 -0.152425 0.358939
-0.0330423 0.0101969 0.346192
-0.126146 -0.0911015 0.337151
0.0798607 0.15092 0.346192
-0.0964579 -0.058431 0.358939
-0.256941 0.145441 0.358939
0.301617 0.161498 0.346192
0.232545 -0.13658 0.358939
-0.401628 -0.166853 0.346192
0.223844 -0.0800939 0.346192
0.37376 -0.190342 0.0528652
-0.143692 0.0983769 0.358939
-0.269113 0.0938558 0.358939
-0.0775684 0.00520466 0.346192
0.148307 -0.179538 0.346192
0.399508 -0.0496007 0.358939
-0.272771 0.227633 0.346279
-0.0912327 -0.0690422 0.346192
0.407909 -0.132579 0.356963
-0.131406 -0.0572358 0.358939
0.386952 0.0882917 0.358939
-0.201604 0.195717 0.346192
-0.402766 -0.0751109 0.358939
0.36784 0.181034 0.0553245
0.375785 -0.181289 0.330654
-0.0221171 -0.0459798 0.346192
0.111283 0.143384 0.358939
0.268509 -0.195776 0.346192
-0.336943 0.0120884 0.346192
0.12244 -0.0840531 0.331579
0.0334596 0.225788 0.358939
0.351116 -0.105739 0.346192
-0.315973 0.0795518 0.346192
-0.0882488 0.0523162 0.346192
0.402967 -0.0735843 0.346192
-0.173386 -0.069906 0.346192
-0.0659006 -0.17846 0.352083
0.406677 -0.0404402 0.346489
0.123921 -0.0739704 0.346192
-0.00163429 0.000111563 0.358939
0.404237 0.0882246 0.346192
0.145294 -0.183692 0.346192
-0.0281092 -0.165749 0.346192
0.24665 0.0232428 0.358939
0.275857 0.00770355 0.346192
0.161152 -0.159827 0.358939
-0.38656 0.1083 0.346192
-0.284962 0.151478 0.346192
-0.368977 -0.179535 0.237937
0.287619 0.100065 0.358939
0.39967 -0.178198 0.358939
0.165126 0.223829 0.358939
-0.12338 0.0911015 0.343998
0.377671 -0.190208 0.0401699
-0.154476 0.220496 0.346192
0.381361 0.0913998 0.358939
-0.100911 -0.063342 0.346192
-0.196266 0.0856259 0.346192
-0.0484871 0.0752929 0.358939
0.263899 0.0298234 0.358939
-0.170144 0.00200305 0.346192
-0.317787 0.135615 0.358939
-0.306721 0.215361 0.346192
0.3256 -0.0713842 0.339831
0.169655 0.0442394 0.358939
-0.173694 -0.0413165 0.358939
0.280593 -0.0980152 0.358939
0.377861 -0.171465 0.0419138
-0.0638631 0.170138 0.358939
0.369589 0.175563 0.00588206
0.354998 0.228309 0.35855
0.0688569 0.137767 0.358939
0.132057 0.203028 0.346192
0.213674 -0.046576 0.358939
0.361443 0.0780291 0.331579
-0.155536 -0.0945175 0.358939
0.213699 -0.0505747 0.358939
0.241201 -0.0273582 0.358939
-0.353109 0.154877 0.346192
-0.14479 0.0358862 0.346192
-0.101823 0.0101033 0.346192
-0.243715 -0.0522132 0.346192
0.0643407 0.0945497 0.358939
-0.0387409 0.133667 0.358939
0.342281 0.0154074 0.346192
-0.328873 0.218965 0.358939
-0.0420335 -0.16172 0.358939
0.388174 0.177748 0.16166
0.308725 0.0564365 0.346192
0.153616 0.0911015 0.335697
0.370328 -0.18342 0
-0.383587 -0.15807 0.346192
-0.3661 -0.103219 0.358939
0.0163877 -0.00287523 0.358939
-0.216375 0.0406954 0.358939
0.0993655 -0.146205 0.346192
-0.391662 -0.142412 0.358939
-0.259042 -0.17846 0.351468
0.370022 -0.128881 0.346192
0.281825 -0.225324 0.346192
-0.352313 0.16705 0.346192
0.0722971 0.0660999 0.358939
-0.149171 -0.141798 0.358939
-0.210364 0.0803915 0.346192
-0.202477 -0.0881095 0.358939
-0.286913 0.0713842 0.340833
0.387834 0.173818 0.238054
0.211299 -0.0157617 0.346192
0.244986 -0.160619 0.346192
0.394805 -0.0795256 0.358939
0.382975 -0.171501 0.0408554
0.253203 -0.0179013 0.358939
-0.0746718 -0.120149 0.358939
0.379775 -0.187815 0.149269
0.369256 0.174261 0.107965
0.385397 -0.170621 0.177343
0.340127 -0.195087 0.346192
0.272434 -0.225507 0.358939
0.114141 -0.0886379 0.331579
-0.373291 0.187516 0.0225644
-0.291183 -0.0919081 0.358939
-0.0413459 0.0219747 0.346192
-0.374698 0.169639 0.12277
0.179858 0.0817129 0.331579
-0.283696 -0.0889185 0.358939
-0.286982 0.0911015 0.344955
0.252455 0.160305 0.346192
-0.0749291 -0.0803691 0.331579
0.322338 0.15359 0.346192
0.141753 -0.174517 0.358939
-0.371072 -0.177214 0
-0.112596 0.00801204 0.346192
0.135132 -0.140011 0.346192
0.346926 -0.126233 0.346192
0.235985 -0.00442849 0.358939
-0.289683 -0.126094 0.358939
0.353642 -0.0311968 0.346192
-0.163907 -0.0635816 0.346192
0.374743 0.165336 0.252184
0.375072 0.0588575 0.346192
-0.293504 0.141381 0.358939
-0.297851 0.224372 0.358939
0.166875 -0.158806 0.358939
0.2115 0.073063 0.331579
0.0517856 -0.143155 0.358939
0.407909 -0.184102 0.350708
-0.219093 -0.176698 0.358873
0.0736162 0.0911015 0.337241
-0.120308 -0.13745 0.358939
-0.0842854 -0.0579507 0.346192
0.018481 0.0284412 0.346192
0.0745945 0.00702448 0.358939
-0.382051 0.00372031 0.346192
0.382041 -0.181625 0.31737
-0.373648 0.190571 0.0450147
-0.407909 0.0997603 0.349266
0.0759797 -0.0851386 0.331579
-0.205766 0.00749721 0.346192
0.0460394 0.110795 0.358939
-0.0515412 -0.0713842 0.34465
-0.00206538 0.191487 0.346192
-0.045302 0.208507 0.358939
0.275065 0.217101 0.358939
-0.375934 -0.10611 0.358939
-0.131873 -0.1303 0.346192
0.293251 -0.0137677 0.346192
0.261885 0.107569 0.346192
-0.248586 -0.0796405 0.346192
-0.293387 0.138313 0.346192
-0.21585 0.0434216 0.358939
-0.388812 0.184742 0.0291968
-0.00446567 -0.15989 0.358939
0.385627 -0.0238566 0.330729
0.38647 -0.178022 0.315867
0.133412 -0.0713842 0.345176
-0.0643527 0.168223 0.346192
-0.103182 0.0316762 0.346192
-0.311123 0.0586957 0.358939
-0.0837094 -0.170161 0.346192
-0.312503 -0.0911015 0.341906
-0.100301 0.138427 0.346192
-0.0671221 0.153132 0.358939
0.0651935 -0.0851749 0.346192
-0.00341479 0.121406 0.346192
0.147372 0.112608 0.346192
-0.0764767 -0.0624183 0.346192
0.00373557 0.208061 0.346192
-0.12877 0.0264201 0.346192
-0.199925 0.0717032 0.358939
-0.289158 0.0932491 0.358939
-0.186017 0.141922 0.358939
-0.392581 -0.0780284 0.346192
0.0170225 -0.0343355 0.358939
-0.347995 0.221067 0.346192
0.302339 -0.124036 0.346192
0.26638 0.0489517 0.358939
0.177705 -0.194228 0.358939
-0.0958975 -0.0454 0.346192
0.141335 0.0858146 0.358939
0.332966 0.220424 0.358939
-0.0741124 0.22529 0.358939
0.0836578 -0.105948 0.358939
-0.341576 0.0151974 0.346192
0.210797 0.0767045 0.346192
-0.352343 -0.146542 0.358939
-0.342536 -0.096884 0.358939
0.0187512 0.229449 0.354171
-0.367343 -0.183428 0.0856862
0.387304 0.0592104 0.346192
-0.0749028 -0.0480967 0.346192
-0.356997 0.114695 0.346192
0.240794 -0.00223981 0.346192
0.306656 0.200895 0.358939
-0.370345 -0.169932 0.205538
-0.387829 0.147544 0.328299
0.192687 -0.184882 0.358939
0.065558 -0.14175 0.346192
0.0668789 0.103475 0.346192
0.337406 0.222308 0.358939
-0.363949 -0.0659049 0.358939
-0.100374 0.123237 0.358939
-0.389109 0.115856 0.358939
-0.314312 -0.0962852 0.346192
0.0808346 0.184035 0.358939
-0.340652 0.111985 0.358939
0.0410921 0.101026 0.346192
0.121784 -0.211654 0.358939
0.385283 -0.17279 0.108539
-0.375307 0.069539 0.331579
-0.342738 -0.0713842 0.345392
-0.0423363 -0.170524 0.346192
-0.384834 -0.0651536 0.358939
0.0260948 -0.168015 0.358939
0.0983745 -0.0886326 0.346192
0.0211942 -0.0581326 0.358939
0.0011883 -0.166896 0.346192
0.372276 0.180931 0.311545
0.016898 0.227013 0.346192
0.142238 -0.0830487 0.346192
0.000249655 0.0973916 0.358939
0.120098 0.169867 0.358939
0.376894 -0.191585 0.0409975
-0.368205 -0.144846 0.316034
-0.377675 0.182374 0.324178
0.385464 -0.179919 0.00452918
-0.13409 -0.0405652 0.358939
0.117263 0.0201666 0.358939
-0.114217 -0.0834976 0.358939
0.305002 -0.00222113 0.358939
0.144104 0.113311 0.346192
0.107264 -0.199297 0.358939
0.401558 -0.0657242 0.358939
-0.377757 -0.0871873 0.311184
-0.377 0.0254008 0.358939
-0.367322 -0.0217902 0.346192
-0.244664 -0.0173254 0.358939
0.347573 -0.0905719 0.331579
0.0746228 0.102264 0.358939
-0.382389 0.168086 0.178565
0.368081 -0.0569942 0.346192
-0.188857 0.229449 0.356861
-0.227541 0.0713842 0.337112
-0.290957 -0.0467506 0.346192
0.347232 -0.225802 0.346192
0.179211 -0.0161311 0.358939
0.370282 0.051381 0.331082
0.317135 -0.212194 0.346192
0.232024 -0.0713842 0.336448
0.132984 0.203471 0.346192
0.391291 -0.0259266 0.346192
0.0108088 0.0848896 0.358939
-0.385805 -0.0110285 0.313355
-0.37767 0.191716 0.0432672
0.0662525 -0.0800413 0.358939
0.11093 0.225209 0.358939
-0.0109742 -0.17661 0.346192
-0.390901 -0.101035 0.358939
-0.0835615 -0.0776303 0.346192
-0.378467 0.0444778 0.331579
0.259229 0.01719 0.358939
-0.390332 0.0200756 0.358939
0.388131 -0.198958 0.358939
-0.177349 0.20965 0.358939
0.0474522 0.130717 0.346192
-0.377728 0.169643 0.0979669
-0.0794165 0.198667 0.346192
-0.0395268 0.222462 0.346192
-0.145914 -0.0760245 0.346192
-0.372782 -0.0910958 0.346192
0.386906 -0.179479 0.251479
-0.376303 -0.176046 0.358939
0.380377 0.0189435 0.331579
0.0150535 -0.180601 0.358613
0.257655 0.229449 0.349568
0.213863 -0.10141 0.346192
0.385067 0.180611 0.280293
-0.0755744 0.0806867 0.358939
0.362687 -0.187099 0.358939
-0.378222 -0.168091 0.144441
-0.383003 -0.111019 0.346192
0.30826 0.225783 0.358939
0.369874 0.183547 0.159823
-0.332392 -0.0348205 0.346192
0.142246 0.218616 0.346192
0.332113 -0.044224 0.346192
0.37319 -0.140135 0.331579
0.388168 -0.170656 0.323824
0.122466 -0.0760479 0.358939
0.120356 -0.015174 0.346192
0.3006 -0.0111435 0.358939
0.322897 0.0193556 0.358939
0.203523 -0.143133 0.346192
-0.180655 0.182536 0.358939
-0.383362 -0.17036 0.123864
0.259193 0.0366506 0.346192
-0.0639804 -0.0848323 0.331579
-0.0137379 -0.0435428 0.358939
-0.0285654 0.186472 0.346192
0.372635 0.177208 0.0222954
0.1037 0.171079 0.346192
-0.146191 -0.173775 0.346192
-0.365644 0.133542 0.346192
0.23252 0.0713842 0.332687
0.267985 0.00533703 0.358939
-0.084816 0.158481 0.346192
0.402089 0.170084 0.346192
-0.256134 0.208374 0.346192
0.312953 -0.073713 0.346192
0.407909 0.0312595 0.353214
0.149464 -0.0736244 0.346192
0.279146 0.157329 0.346192
-0.189098 0.176026 0.346192
-0.376504 0.00508782 0.311184
0.174706 0.0910116 0.346192
-0.00918066 0.136043 0.346192
0.236503 -0.08946 0.358939
-0.150755 0.160894 0.358939
0.225133 -0.0713842 0.333421
0.063982 0.0589465 0.346192
0.388169 0.170745 0.323441
-0.0782785 0.0824708 0.346192
0.286707 -0.0404547 0.358939
0.318194 -0.11856 0.346192
-0.203036 -0.160026 0.346192
0.386709 -0.0720948 0.315724
0.334406 -0.147258 0.346192
0.0864906 -0.209961 0.346192
0.144046 0.203851 0.346192
-0.132116 -0.0325728 0.358939
-0.0962568 0.0900297 0.346192
0.007899 0.223549 0.358939
-0.240096 0.022675 0.358939
0.188071 -0.21775 0.358939
0.373409 0.198141 0.358939
0.0439175 0.0725016 0.346192
-0.404073 0.023806 0.358939
0.126392 0.0361102 0.358939
0.105943 0.0383735 0.346192
-0.401065 0.0759299 0.346192
-0.171614 -0.112571 0.358939
-0.150857 0.229449 0.348971
-0.271297 0.076106 0.358939
-0.10628 -0.0742563 0.358939
-0.0980463 0.0172792 0.346192
-0.3723 0.187056 0.00825656
-0.369783 0.037994 0.328116
0.177096 0.144839 0.346192
0.387677 -0.175668 0.164414
0.392552 -0.188794 0.346192
-0.367918 -0.17577 0.0541042
-0.388118 0.167611 0.313862
-0.0493032 -0.0795478 0.358939
-0.0844415 -0.088986 0.331579
-0.368192 0.0890798 0.331579
-0.387738 0.181573 0.0948023
-0.0108312 -0.137372 0.346192
0.0588546 0.122533 0.346192
-0.372259 -0.189043 0.0658173
0.324364 0.0618653 0.358939
-0.208373 0.0465434 0.358939
0.385278 0.202622 0.358939
0.365573 -0.0706947 0.358939
0.150648 0.0520397 0.358939
-0.391481 0.0906363 0.358939
0.368092 0.152102 0.328359
-0.200841 -0.00968901 0.346192
0.172977 -0.042122 0.346192
-0.344578 -0.0286192 0.358939
-0.38347 -0.190563 0
0.386412 -0.177551 0.330144
0.384007 -0.168263 0.206502
0.370552 0.180277 0.279195
0.164828 -0.153523 0.346192
-0.0640758 0.070751 0.358939
0.186334 0.0241831 0.358939
0.0926729 0.0942504 0.358939
-0.20726 -0.113375 0.358939
0.164893 -0.0354904 0.358939
-0.140977 -0.0864836 0.358939
0.371778 -0.169725 0.16857
0.133235 0.229449 0.348815
0.250496 0.20658 0.358939
0.0938174 -0.0906365 0.346192
0.283725 0.112872 0.358939
0.059063 0.216311 0.358939
-0.0638207 -0.0911015 0.344935
-0.126838 0.0936142 0.358939
0.245932 -0.104839 0.358939
0.310262 0.205788 0.358939
0.233505 -0.0543053 0.358939
-0.372117 -0.188936 0.0647762
-0.233443 -0.0811755 0.358939
-0.115894 0.0713842 0.344961
0.0917026 0.17336 0.358939
-0.381135 -0.0779944 0.346192
0.165141 0.0832994 0.358939
-0.0937422 0.128609 0.358939
-0.25387 0.117693 0.346192
-0.0941845 -0.0780848 0.331579
-0.346619 -0.0767292 0.358939
0.0619488 0.207516 0.346192
0.152122 0.119354 0.358939
0.0659464 0.192882 0.358939
0.232495 -0.136861 0.346192
0.339619 0.0713842 0.331827
-0.368049 -0.176865 0.214735
0.229263 0.108809 0.346192
-0.330678 0.134416 0.346192
-0.100839 0.104354 0.346192
-0.274462 0.0735521 0.346192
0.284416 0.155203 0.346192
0.125413 0.225135 0.358939
0.0934814 -0.120094 0.358939
0.332372 -0.140457 0.346192
-0.213124 0.132464 0.346192
0.189038 0.186378 0.358939
-0.368996 0.172667 0.178267
-0.250156 0.211946 0.346192
0.312739 -0.0840972 0.346192
0.309906 -0.0116777 0.358939
-0.181696 0.0960462 0.346192
0.16042 -0.0907417 0.358939
0.00220638 -0.0623009 0.346192
-0.385873 -0.18488 0.126792
0.298675 0.0895831 0.346192
0.37405 0.188189 0.0226408
0.287829 0.07774 0.346192
-0.0284933 -0.0869383 0.331579
0.0428896 -0.0632889 0.358939
0.09602 -0.0152732 0.346192
0.0879766 0.220878 0.358939
0.201021 0.0780591 0.346192
-0.382428 -0.169628 0.331579
0.159057 -0.168422 0.346192
0.297643 0.158129 0.358939
0.180599 0.145838 0.358939
0.363682 0.101199 0.358939
0.161957 0.187882 0.358939
0.0233543 -0.125525 0.346192
0.200867 -0.0787974 0.346192
-0.0111135 0.11225 0.346192
0.385765 0.00824144 0.327476
0.330315 0.186519 0.346192
-0.00155689 0.118612 0.346192
0.0377564 0.14616 0.358939
0.384949 -0.0739405 0.346192
-0.38117 0.0559687 0.311184
0.385712 -0.0769938 0.346192
-0.29802 -0.0848799 0.358939
-0.37175 -0.178546 0.0216851
0.0889393 -0.0463119 0.346192
0.0706067 0.135407 0.346192
0.378657 0.170413 0.077949
-0.35293 -0.121752 0.358939
0.37073 0.066922 0.358939
-0.379903 0.170901 0.0734074
-0.392865 -0.122055 0.346192
0.21631 -0.205143 0.346192
-0.295699 -0.0911015 0.34369
-0.368358 -0.176233 0.268429
0.114329 0.0344443 0.358939
0.0868423 0.072582 0.346192
0.0137193 -0.124752 0.346192
0.0856606 0.164858 0.346192
-0.106208 0.161864 0.358939
-0.199143 -0.0791345 0.331579
0.244733 0.040162 0.358939
0.300894 0.0911015 0.342655
0.336514 0.0655312 0.358939
-0.0122563 0.229449 0.352318
0.407909 -0.0148906 0.351196
-0.151582 0.159092 0.346192
0.150324 0.197008 0.346192
0.237483 -0.100907 0.358939
-0.282669 -0.0911015 0.340986
0.388175 0.175479 0.226426
-0.171816 -0.024893 0.358939
0.126011 0.229449 0.354849
-0.277492 0.0865323 0.346192
-0.322493 0.144944 0.346192
0.0740686 -0.143371 0.358939
0.382406 -0.165668 0.358939
-0.368313 0.171829 0.2804
0.0209893 -0.0131517 0.346192
-0.242349 -0.0714426 0.331579
-0.0346918 0.127198 0.346192
-0.220958 -0.00701553 0.358939
-0.388894 0.179072 0.049022
0.240487 -0.0817829 0.346192
-0.381215 -0.168659 0.151717
-0.000966728 0.0885548 0.331579
0.407909 -0.00080179 0.350247
-0.391654 0.132682 0.346192
0.402948 -0.16565 0.358939
-0.271899 0.0725398 0.331579
-0.0751259 0.0346053 0.346192
0.0965983 0.0805839 0.346192
0.0621755 -0.206846 0.358939
-0.393654 0.0747367 0.346192
0.177321 -0.196392 0.346192
-0.318332 -0.14945 0.346192
-0.10109 -0.131312 0.346192
-0.378796 -0.168717 0.130261
0.125357 -0.085603 0.331579
-0.324931 0.0792079 0.346192
0.00221553 0.117982 0.358939
-0.314258 0.0583995 0.346192
-0.284522 0.201867 0.346192
-0.0486815 -0.156957 0.346192
-0.283876 -0.0194883 0.346192
0.0121178 -0.0394604 0.358939
-0.310496 -0.118426 0.346192
-0.0504156 -0.138897 0.358939
-0.407909 0.226907 0.351632
0.339449 -0.0197875 0.346192
0.20194 -0.193459 0.346192
0.385977 0.173051 0.121571
0.153 -0.0272919 0.358939
-0.265682 -0.10307 0.358939
0.178398 0.0911015 0.342734
-0.381721 -0.136181 0.346192
0.189761 -0.0713842 0.343338
0.100287 0.0911015 0.337509
0.28163 -0.227551 0.346192
-0.0854221 0.0558822 0.358939
0.398823 -0.0381784 0.358939
0.374253 -0.125194 0.311184
0.181538 -0.11409 0.358939
-0.368138 0.177674 0.200207
-0.178015 0.183775 0.346192
0.149387 0.20701 0.346192
-0.0590099 0.0117797 0.358939
-0.152421 -0.0814226 0.358939
0.308086 -0.0562592 0.346192
-0.367695 -0.177981 0.0147256
-0.289172 0.0647735 0.358939
0.385071 0.186942 0.013048
0.0912982 -0.102603 0.346192
-0.0440756 -0.0947556 0.346192
-0.395834 0.062677 0.346192
-0.284201 0.226089 0.358939
0.227016 -0.178331 0.358939
0.344761 0.223563 0.358939
0.369966 -0.0256827 0.313389
0.2068 -0.0761224 0.346192
0.363225 0.0969826 0.358939
-0.114831 -0.00134518 0.346192
-0.368864 0.176195 0.0866422
-0.317465 0.181918 0.358939
-0.156749 -0.00859183 0.358939
-0.343501 0.229377 0.34765
-0.294478 0.16679 0.346192
0.122804 -0.00854473 0.346192
0.382609 0.177339 0.00444088
0.0696231 0.020091 0.346192
0.297584 0.0805507 0.331579
0.331937 0.0713842 0.332113
-0.312821 0.0332866 0.358939
0.396784 0.178588 0.346192
0.146481 0.102978 0.346192
-0.387575 -0.130387 0.328365
-0.0813534 -0.130184 0.358939
0.151276 -0.100175 0.346192
0.379861 -0.0794753 0.331579
-0.337953 -0.145559 0.358939
0.384716 -0.177854 0.0319457
0.191598 -0.0713842 0.333469
-0.387656 -0.136283 0.315305
-0.305654 -0.118629 0.358939
0.388966 0.184578 0.0172168
0.0814267 0.0721307 0.346192
-0.32238 0.144506 0.346192
0.0770717 0.175096 0.358939
0.0985075 0.00183215 0.346192
0.158691 0.195675 0.346192
0.232414 -0.0815386 0.346192
0.0893557 0.196828 0.346192
-0.368484 0.177491 0.0901146
-0.0301727 -0.0710596 0.358939
0.370466 -0.128532 0.358939
-0.153916 -0.16298 0.346192
0.344765 0.229449 0.355763
0.0979997 0.0923667 0.346192
-0.0712714 0.143816 0.358939
0.357747 0.152008 0.346192
0.00189808 0.188612 0.358939
-0.237459 0.0304566 0.358939
0.233401 0.184053 0.358939
-0.312389 0.122164 0.346192
0.091914 -0.0731229 0.358939
0.379359 -0.0292197 0.331579
-0.252679 -0.051669 0.346192
0.164615 -0.011263 0.358939
-0.223297 -0.086996 0.346192
-0.297169 0.140579 0.358939
-0.174304 0.177072 0.358939
0.376996 -0.186495 0.195531
0.182667 0.0274297 0.346192
-0.0804245 0.107663 0.358939
0.00358715 -0.164814 0.358939
-0.0301088 -0.0269359 0.358939
-0.336221 0.216073 0.346192
-0.369924 0.0284606 0.324444
0.364182 -0.0691177 0.358939
0.289616 -0.107789 0.358939
0.0219814 0.197754 0.358939
-0.11417 0.192929 0.358939
-0.393638 0.0988217 0.358939
0.0335962 0.104989 0.358939
-0.0348087 0.0655517 0.358939
-0.265899 0.130704 0.346192
0.230089 0.0692392 0.346192
0.310635 -0.0911015 0.339418
0.0115099 -0.124169 0.346192
-0.384516 0.0811605 0.311184
-0.14321 0.0675553 0.358939
0.140476 -0.125099 0.346192
-0.378297 -0.0651821 0.358939
-0.0610349 0.013334 0.358939
0.240388 -0.220638 0.346192
0.324912 0.202206 0.346192
0.121409 -0.0501626 0.358939
0.0645755 0.168411 0.358939
0.0712612 -0.0723722 0.346192
-0.303699 -0.17846 0.356923
0.125059 -0.121468 0.358939
-0.0488461 -0.0100234 0.358939
0.25432 0.200048 0.346192
-0.20163 0.148736 0.358939
0.339404 0.141281 0.346192
0.00395196 0.198835 0.346192
0.392815 -0.0813236 0.358939
0.113743 -0.0372892 0.358939
0.250474 -0.152226 0.346192
0.103729 0.0238102 0.346192
0.3719 -0.165265 0.299403
-0.129141 0.195453 0.346192
0.256033 -0.0960653 0.346192
0.326517 0.121246 0.358939
0.282865 0.021271 0.346192
0.279953 0.0802262 0.346192
-0.15487 -0.0746792 0.331579
0.147007 -0.079409 0.346192
-0.368672 0.112974 0.323575
0.283744 -0.0885705 0.331579
-0.38862 0.229449 0.353433
-0.0212658 0.00273067 0.358939
0.164968 0.110435 0.346192
-0.294707 -0.0972798 0.358939
-0.205372 0.00426878 0.346192
-0.31176 0.086423 0.346192
0.311135 0.214821 0.346192
0.132939 0.0880162 0.346192
-0.380589 -0.166096 0.223898
-0.315404 -0.0909331 0.346192
0.0598496 0.21722 0.346192
-0.0223085 0.0713842 0.345102
0.280698 -0.146005 0.346192
-0.157843 -0.151088 0.358939
0.0363809 -0.0655222 0.346192
-0.161724 -0.0695567 0.358939
0.398396 -0.0168482 0.346192
0.174251 0.1549 0.358939
0.0589009 0.0289524 0.358939
-0.406951 0.20597 0.358367
0.268158 0.00290918 0.358939
0.126854 -0.0886603 0.346192
0.359844 -0.14004 0.358939
-0.177607 0.146434 0.346192
0.247251 0.0284809 0.346192
0.1531 0.0911015 0.341697
0.387297 -0.11164 0.330199
-0.05089 -0.132489 0.346192
-0.229136 0.101885 0.358939
0.0895626 -0.100571 0.358939
-0.0169433 0.0889026 0.346192
0.391402 -0.0814954 0.346192
0.29556 0.027594 0.358939
-0.307539 -0.076073 0.346192
-0.375889 0.138551 0.311184
0.0574126 0.0387668 0.346192
-0.375137 0.184112 0.00466837
0.330968 -0.157711 0.358939
0.0239559 0.078973 0.331579
0.292083 -0.0575937 0.358939
-0.019761 0.0580367 0.346192
-0.375112 0.0726306 0.331579
0.0826199 -0.0302557 0.358939
-0.171011 -0.0351583 0.346192
0.384741 -0.0681797 0.358939
-0.0812233 -0.0485326 0.358939
0.175168 0.140003 0.358939
0.217822 0.115535 0.358939
0.0776311 -0.215014 0.346192
0.230872 -0.176594 0.358939
-0.378676 -0.168849 0.125284
0.283092 -0.0713842 0.340734
0.37162 0.170835 0.139879
0.0294499 -0.0967549 0.346192
-0.0827645 0.135004 0.358939
-0.371954 0.168262 0.20736
-0.0168373 -0.0882876 0.346192
0.395764 -0.102764 0.346192
0.390854 -0.202647 0.358939
0.375537 -0.189885 0.00836945
-0.298086 0.21457 0.346192
-0.387964 0.181972 0.0573461
0.235114 -0.225166 0.346192
0.332969 -0.0182676 0.358939
0.390741 -0.0902288 0.334969
0.10611 -0.131634 0.358939
-0.214965 0.229363 0.347636
0.0938893 0.0345354 0.358939
0.367902 0.165153 0.323767
0.208861 -0.224036 0.358939
-0.33874 0.184657 0.358939
0.157101 0.0911015 0.343633
0.384598 0.16939 0.190336
0.0856687 0.0197046 0.358939
0.0232184 -0.0713842 0.336143
-0.0131695 0.229449 0.354951
0.377616 -0.0908084 0.311184
-0.093783 0.174884 0.346192
-0.400304 0.229449 0.351644
-0.0197266 -0.165163 0.358939
-0.330707 0.0713842 0.343933
0.00361716 -0.015274 0.346192
-0.0388913 -0.0149764 0.346192
-0.372879 -0.0386083 0.346192
0.0226215 -0.175501 0.358939
0.181258 0.184723 0.346192
0.0344253 0.0225716 0.358939
0.0346906 -0.0911015 0.331633
0.283408 -0.0987698 0.358939
-0.261111 0.143521 0.346192
-0.143719 0.0621854 0.346192
-0.384134 0.146903 0.331579
-0.224954 -0.133953 0.358939
0.296128 0.0911015 0.335785
-0.142826 -0.045737 0.358939
-0.321421 -0.0110312 0.358939
-0.114848 -0.0916875 0.346192
0.407909 0.225635 0.355017
0.40541 -0.082205 0.346192
0.113649 0.108479 0.346192
0.357773 0.185106 0.346192
-0.386821 -0.169991 0.239779
0.221026 0.0768021 0.346192
-0.374862 -0.168261 0.162999
-0.187159 -0.031052 0.358939
0.292227 0.187825 0.358939
-0.296017 -0.0789799 0.346192
-0.355146 -0.0125083 0.358939
-0.341875 -0.173806 0.358939
0.331286 0.0911015 0.340316
-0.057504 0.129172 0.346192
0.104262 -0.0896273 0.346192
-0.386072 -0.184123 0.14365
-0.103 -0.0195174 0.358939
-0.257375 0.0911015 0.335415
0.0993492 0.163205 0.358939
-0.358692 0.0720398 0.358939
-0.224282 -0.0570551 0.358939
0.205137 0.0905483 0.358939
0.378533 -0.191591 0.0452784
0.368617 0.174219 0.173786
-0.407875 -0.16017 0.357444
-0.0723221 0.0713842 0.33417
0.0696103 -0.218678 0.35703
-0.240046 -0.157398 0.346192
-0.234544 0.0848757 0.346192
0.235076 0.17358 0.358939
0.0773003 0.229449 0.351304
0.370637 -0.169426 0.211997
-0.388498 -0.185846 0.0315089
-0.267471 0.169612 0.358939
0.383134 0.191578 0.0483702
0.141694 0.0467725 0.346192
0.0894504 -0.128894 0.358939
-0.202827 0.181054 0.346192
-0.265195 0.111692 0.358939
0.105111 0.0888782 0.331579
-0.0708089 -0.0915948 0.346192
-0.0473196 0.0788993 0.358939
-0.27276 -0.1677 0.346192
0.242656 0.176769 0.358939
-0.160742 -0.0787351 0.346192
-0.374991 -0.0628957 0.311184
-0.157237 -0.0131287 0.358939
-0.343245 0.183055 0.346192
-0.220671 0.0973165 0.346192
0.0536608 0.0520021 0.346192
-0.210901 0.111072 0.346192
0.277576 0.0763809 0.331579
0.192252 -0.102771 0.358939
-0.0324581 0.0852028 0.346192
-0.238334 0.0846596 0.331579
0.0688704 0.0144582 0.358939
-0.313323 -0.0183496 0.346192
0.300127 0.0863471 0.346192
-0.0758662 -0.084389 0.346192
0.102687 0.0985475 0.346192
0.033471 -0.000613764 0.358939
-0.328984 -0.172992 0.346192
-0.221092 -0.113742 0.346192
0.351209 0.214869 0.358939
-0.328934 0.0807305 0.346192
-0.108762 -0.177055 0.358739
0.380933 -0.0622818 0.311184
0.0993168 0.000368966 0.346192
-0.352564 0.0909478 0.346192
-0.27828 0.00364116 0.358939
0.291745 -0.189837 0.346192
-0.321161 -0.146596 0.358939
-0.15176 -0.0472806 0.358939
-0.150394 -0.0713842 0.339347
0.133741 0.0522761 0.346192
0.162486 0.0351523 0.358939
-0.0257797 -0.139302 0.358939
-0.317923 0.102096 0.358939
-0.381644 -0.168473 0.358939
0.373464 0.115124 0.358939
0.0128012 0.0174029 0.346192
-0.213759 0.143669 0.358939
0.283853 0.188494 0.346192
0.382764 -0.172181 0.0199786
0.130231 0.152784 0.358939
-0.384833 -0.134202 0.331579
-0.350419 -0.00446434 0.346192
0.261781 -0.127081 0.346192
0.318617 -0.176698 0.346192
0.183917 -0.0766918 0.358939
-0.121952 0.050033 0.346192
0.273285 -0.0704011 0.346192
-0.0264434 -0.0211199 0.358939
-0.263623 0.0325503 0.346192
-0.162112 0.0412848 0.358939
-0.273118 0.0896755 0.346192
-0.0708264 0.172698 0.358939
0.000666024 -0.172579 0.358939
0.319585 -0.214631 0.346192
-0.373352 -0.17092 0.0951139
-0.369041 0.184023 0.109367
-0.00498938 0.122785 0.346192
-0.0724039 -0.0285194 0.346192
-0.291192 -0.177851 0.347161
0.369279 0.0720378 0.32344
0.22832 0.15472 0.346192
-0.207713 0.1035 0.358939
0.137588 -0.227345 0.346192
-0.096766 0.179528 0.358939
-0.376274 0.1683 0.150304
-0.383556 -0.172456 0.0664834
0.369763 -0.0393389 0.327216
-0.0842983 -0.138134 0.358939
-0.0504437 -0.0560138 0.358939
-0.387298 -0.144467 0.330754
-0.372083 0.171569 0.103745
0.387296 -0.177572 0.0643088
-0.380629 -0.18809 0
-0.387439 0.179129 0.202259
-0.374979 0.166528 0.214287
-0.0847548 0.205214 0.358939
0.317568 0.2113 0.346192
0.033837 0.114226 0.358939
0.0603385 0.220047 0.346192
-0.338926 0.0200508 0.346192
-0.361525 -0.136413 0.346192
-0.388878 0.179236 0.0424346
0.382017 0.190664 0.0832503
-0.377699 -0.182186 0.329428
0.04607 0.100989 0.346192
0.123285 -0.00699468 0.358939
0.186125 0.0931721 0.346192
0.181101 -0.0911015 0.34441
-0.325766 -0.0474908 0.358939
0.035285 -0.143413 0.346192
-0.110883 0.100384 0.346192
-0.215822 0.0368561 0.346192
0.0623245 0.155982 0.346192
-0.33649 0.101204 0.358939
-0.343511 0.10378 0.358939
0.163004 0.151704 0.346192
-0.371087 0.177678 0.358939
0.129769 0.138533 0.358939
-0.311672 -0.139011 0.358939
0.207454 -0.0756371 0.331579
0.198487 0.0911015 0.333426
0.21061 -0.0723906 0.358939
0.273147 0.115146 0.358939
-0.306791 -0.153018 0.346192
0.386973 0.173232 0.158964
-0.00964452 0.151965 0.358939
-0.179039 0.0316378 0.358939
-0.121242 -0.00701718 0.346192
-0.134346 0.145638 0.358939
-0.0906867 -0.122285 0.346192
-0.274774 -0.102358 0.358939
0.371278 0.174072 0.0526442
-0.0821355 0.144156 0.358939
0.407909 0.162721 0.352598
-0.140255 -0.0713842 0.340094
0.384191 0.0736429 0.346192
0.0141803 0.194913 0.346192
0.346273 -0.20075 0.346192
-0.313873 0.0789952 0.346192
-0.246892 0.229449 0.356562
-0.0381482 0.119606 0.346192
-0.387406 -0.119042 0.328896
-0.112832 -0.12277 0.346192
-0.350084 0.025206 0.346192
0.0420973 -0.0797341 0.358939
-0.248628 -0.0359831 0.346192
0.189355 -0.229449 0.352889
0.0617385 0.0939952 0.358939
0.379675 0.185523 0.219333
0.0544635 0.0847081 0.346192
-0.0151864 0.131184 0.346192
0.375743 0.023223 0.346192
-0.0301321 0.17346 0.346192
0.185575 -0.19419 0.358939
-0.230226 0.0415754 0.346192
-0.260469 -0.134225 0.346192
-0.0585085 0.176831 0.358939
-0.0108315 -0.103093 0.358939
-0.37022 0.170736 0.358939
-0.308425 0.0826249 0.331579
-0.402739 0.0869131 0.346192
-0.183361 -0.16252 0.358939
0.233153 0.0381681 0.358939
0.36975 -0.179536 0.277341
-0.385451 0.013248 0.330793
-0.361766 0.20636 0.346192
-0.120078 0.0983938 0.346192
0.0564403 0.134193 0.358939
-0.407909 0.123486 0.352571
0.296285 -0.0481654 0.346192
0.38383 -0.172595 0.0180583
-0.228251 -0.0713842 0.333081
-0.0285197 -0.0401355 0.346192
-0.387729 0.140861 0.324851
-0.188506 -0.0517827 0.358939
0.366391 0.0649689 0.358939
0.288981 -0.0626994 0.346192
0.134608 -0.121799 0.346192
-0.128796 -0.0713842 0.3381
-0.145776 0.0581987 0.346192
0.323865 -0.0129461 0.358939
0.281547 0.118111 0.346192
-0.370987 0.173411 0.0813129
-0.199429 -0.132753 0.346192
-0.138934 -0.0686143 0.346192
-0.105463 0.153047 0.346192
0.297948 -0.194417 0.358939
-0.379945 -0.167949 0.162775
-0.384813 0.171769 0.125132
0.351856 0.188839 0.358939
-0.0653197 0.0543517 0.358939
0.150739 0.00236178 0.358939
0.23995 0.115157 0.346192
-0.37045 -0.0674207 0.346192
-0.374341 -0.175366 0.0114563
-0.29837 -0.0786879 0.346192
-0.369584 -0.0514281 0.325342
0.136704 -0.00892737 0.346192
-0.386172 -0.169948 0.220998
0.387897 -0.173825 0.24499
-0.246646 -0.0787771 0.358939
0.347589 0.195009 0.346192
-0.29813 -0.033582 0.358939
-0.37007 0.169948 0.21335
0.386495 0.179686 0.265065
-0.316829 -0.0685139 0.346192
-0.381376 -0.0808107 0.346192
0.407909 -0.00349751 0.353491
-0.342167 0.19498 0.358939
-0.0733592 -0.0895572 0.346192
-0.375055 -0.19304 0.0230764
0.366372 -0.0217326 0.346192
-0.344614 0.0826016 0.331579
0.150483 -0.0897835 0.331579
-0.338534 0.0889306 0.346192
-0.291902 0.0167407 0.346192
-0.0808534 -0.0160012 0.346192
-0.275457 0.0327929 0.346192
0.191161 -0.225682 0.358939
-0.372099 -0.168076 0.346192
-0.37854 0.168493 0.134904
0.368011 -0.157662 0.327748
0.0630394 -0.14311 0.358939
0.341724 0.0911015 0.334694
0.364304 -0.0861281 0.358939
0.389092 -0.181873 0.0825087
-0.383022 0.169478 0.141741
0.305656 -0.091017 0.358939
0.386232 -0.0397491 0.316872
-0.377731 0.163172 0.293097
-0.287021 0.0511515 0.346192
-0.368376 -0.133392 0.312984
0.27726 -0.110557 0.346192
-0.386475 0.168188 0.283196
-0.0741341 0.0395741 0.346192
-0.311048 0.0227297 0.358939
-0.120527 0.20452 0.346192
-0.22397 0.192115 0.358939
-0.107013 -0.0892417 0.358939
-0.29106 -0.036821 0.358939
-0.324719 0.0382021 0.358939
0.192463 -0.183162 0.358939
-0.369624 -0.0487029 0.321919
-0.0641565 0.0207 0.346192
-0.184945 -0.0762844 0.358939
-0.387305 0.172252 0.225751
-0.278524 0.0719319 0.358939
0.11115 0.0681489 0.346192
0.37143 0.179054 0.0187131
-0.263885 0.0604385 0.358939
-0.332228 0.0367146 0.346192
0.263566 0.0685747 0.358939
0.384774 -0.168061 0.235747
0.218635 0.229449 0.34812
-0.00654741 -0.154662 0.346192
0.38658 0.0634601 0.31395
0.26801 -0.0859428 0.358939
0.0131413 0.0753873 0.358939
