-0.0348614 0.270433 0.21511
-0.145032 0.22907 0.410569
0.00912362 0.291303 0.446301
-0.321201 0.10596 0.158547
-0.0288381 0.223348 0.410569
-0.049928 -0.0461883 0.410569
0.035784 0.137059 0.446301
-0.246083 -0.263369 0.446301
0.157836 -0.0760024 0.446301
-0.324209 -0.101564 0.446301
-0.154076 -0.272054 0.410569
0.263151 -0.0766209 0.446301
-0.0979104 -0.000659227 0.446301
-0.343971 0.0120177 0.427047
0.116124 -0.0744867 0.410569
0.319632 0.22518 0.377321
-0.203065 -0.00914335 0.446301
-0.0145832 -0.276347 0.446301
-0.345852 -0.179578 0.446301
-0.210458 0.210842 0.410569
0.293038 0.218853 0.410569
0.284181 0.224505 0.446301
0.0973121 -0.255431 0.291559
0.314993 -0.164179 0.128529
0.248841 -0.137181 0.410569
-0.0467775 -0.11139 0.410569
0.153152 0.00520489 0.410569
-0.22695 0.157549 0.410569
0.063823 0.263187 0.446301
0.245275 -0.124593 0.446301
0.0562343 0.0529099 0.446301
0.341874 -0.0969697 0.4218
-0.32332 0.0855413 0.446301
-0.262245 0.298109 0.441837
-0.0872883 -0.0847855 0.446301
0.0135563 0.0309801 0.410569
-0.226939 -0.238153 0.410569
-0.201687 0.0368619 0.446301
-0.191057 0.0860072 0.410569
-0.23245 0.00653279 0.446301
-0.282469 0.125033 0.410569
0.190541 -0.1127 0.410569
0.0790165 -0.23976 0.410569
-0.295837 0.0615893 0.446301
-0.318622 0.0997746 0.446301
-0.344098 -0.150586 0.446301
0.296955 0.258729 0.39723
-0.118827 0.0919773 0.410569
-0.296028 -0.292776 0.428495
0.29813 0.249953 0.294562
-0.305965 -0.254227 0.270566
-0.231286 -0.243561 0.410569
0.301481 0.017398 0.446301
-0.101353 0.252398 0.290868
-0.0357372 -0.0182759 0.446301
-0.308686 -0.150473 0.127466
0.313033 0.0957083 0.410569
0.109888 0.119042 0.410569
-0.234394 -0.262947 0.352879
-0.273518 0.162253 0.410569
0.0917635 -0.25969 0.185197
-0.240122 -0.175869 0.410569
-0.307437 0.246597 0.214076
0.102372 0.00843042 0.446301
0.188438 -0.262382 0.337823
0.329479 0.0607195 0.446301
0.0882787 -0.161726 0.410569
0.307735 0.0127722 0.231914
0.23593 -0.0847319 0.410569
-0.229255 0.0782294 0.410569
-0.31258 -0.0610354 0.187443
0.337974 0.288587 0.4416
-0.112181 0.0712389 0.446301
0.293104 -0.200623 0.446301
-0.00800431 0.0922104 0.410569
-0.225919 -0.153533 0.446301
-0.307416 -0.194925 0.00872891
0.259642 -0.152484 0.410569
0.0932018 -0.086251 0.446301
0.0530617 -0.0334924 0.410569
-0.137623 -0.123094 0.446301
0.14447 -0.219936 0.410569
-0.189832 -0.0788147 0.446301
-0.121449 0.294278 0.432253
0.31441 0.14198 0.320024
0.0875508 0.0953677 0.410569
0.195614 -0.229806 0.410569
0.255253 -0.202689 0.410569
-0.091977 -0.265907 0.288428
0.161755 -0.195785 0.446301
-0.194256 -0.26333 0.410569
-0.317056 -0.153391 0.130048
0.153632 0.130055 0.446301
-0.170282 0.0850572 0.410569
0.223645 0.2991 0.444316
-0.165243 0.29249 0.427779
0.242172 -0.215643 0.446301
-0.000414014 0.0991885 0.446301
-0.282683 0.0455611 0.446301
0.0901925 0.254746 0.188619
-0.230791 -0.2372 0.410569
0.0714822 0.0773084 0.446301
0.13959 -0.258858 0.158311
-0.0449806 0.156196 0.446301
0.299858 0.0833179 0.446301
0.150857 -0.11398 0.410569
-0.337422 -0.247248 0.410661
-0.231956 0.0860544 0.410569
0.252461 0.264251 0.0886055
-0.314393 -0.0302045 0.213044
0.339291 -0.106449 0.415334
-0.0483713 0.293021 0.446301
-0.303777 0.255147 0.0990797
0.082891 -0.282111 0.446301
0.333696 -0.202022 0.446301
0.0256568 -0.202004 0.446301
0.19209 0.295731 0.435888
-0.316649 0.0219705 0.213869
-0.273692 0.051762 0.446301
-0.264425 0.221902 0.446301
0.278228 0.0802149 0.410569
-0.299234 0.252643 0.196329
-0.210608 0.0432914 0.446301
-0.262142 -0.29989 0.446301
-0.311172 -0.210176 0.373429
-0.155348 0.250811 0.410569
0.05974 -0.131035 0.410569
-0.301207 -0.279226 0.446301
0.220207 -0.0146851 0.410569
0.0433217 -0.048202 0.410569
-0.0939545 0.143761 0.410569
-0.023947 0.0930713 0.410569
0.335482 -0.205827 0.446301
-0.258773 0.088567 0.410569
0.313201 -0.0833584 0.283038
0.312624 -0.192829 0.364402
-0.099281 -0.156255 0.446301
-0.229426 0.24459 0.446301
-0.0827527 0.298036 0.441656
0.161698 -0.285122 0.446301
-0.157519 0.155488 0.446301
-0.301512 -0.254458 0.24793
-0.0610361 -0.290443 0.446301
0.122897 0.0824894 0.446301
-0.261495 -0.266207 0.375114
0.180047 -0.247348 0.446301
0.331462 -0.246588 0.410569
0.302966 0.255061 0.0965207
0.240381 0.13518 0.410569
0.121711 -0.210014 0.446301
0.32967 0.201523 0.410569
0.0717096 -0.289227 0.446301
0.323812 -0.0270269 0.214174
-0.0929417 -0.264631 0.277815
-0.155589 0.162468 0.410569
-0.244669 0.222679 0.446301
0.326715 0.0435841 0.410569
0.344444 -0.0991317 0.428229
0.19649 -0.215391 0.446301
0.320336 -0.000363961 0.240186
-0.30517 0.157288 0.446301
0.317176 0.222107 0.371824
0.310864 -0.170393 0.116794
-0.318958 0.0408492 0.410569
-0.342733 0.0546387 0.423949
-0.207694 -0.258187 0.410569
0.00738186 0.235339 0.410569
-0.307973 -0.24789 0.285679
-0.158744 -0.11378 0.410569
-0.127804 0.266649 0.167049
0.305264 -0.0567112 0.000751592
-0.335404 -0.160252 0.446301
0.0785087 0.161974 0.410569
-0.0466658 -0.258743 0.410569
-0.301894 -0.122523 0.410569
-0.269334 0.260087 0.371558
0.223261 0.23465 0.446301
-0.187005 -0.202525 0.446301
0.30267 0.2449 0.312862
0.293366 -0.0399927 0.446301
0.329606 -0.0671706 0.410569
0.299616 -0.196275 0.00903883
0.217466 0.0881664 0.410569
0.103132 0.00522596 0.410569
-0.232867 -0.153558 0.446301
-0.314324 -0.232674 0.0697041
0.303459 0.0656363 0.446301
-0.0989838 0.277506 0.410569
0.105242 0.234035 0.410569
-0.158593 0.162346 0.410569
0.0290277 -0.0907408 0.410569
-0.127969 0.256627 0.307881
-0.295093 0.0667267 0.410569
0.300217 0.253921 0.37474
0.220109 0.0421573 0.410569
0.059217 0.180727 0.446301
0.226412 -0.138603 0.410569
-0.325278 0.0424055 0.410569
0.139295 -0.141367 0.410569
-0.306927 0.242828 0.00455966
0.225368 0.126054 0.446301
-0.145303 -0.00255641 0.446301
-0.0924372 0.0626595 0.446301
0.166381 -0.22851 0.410569
0.321411 -0.133412 0.446301
0.180899 -0.263099 0.327334
0.30653 -0.245819 0.0756127
-0.204006 0.269974 0.446301
-0.0899826 0.0224526 0.410569
-0.106023 -0.123626 0.410569
-0.138526 0.081816 0.410569
0.146164 -0.0672579 0.446301
0.0327242 -0.278723 0.410569
0.154827 0.266709 0.320453
-0.298758 -0.0964736 0.00692429
0.301681 0.135296 0.00997264
-0.0512476 0.141201 0.446301
0.308319 0.0840655 0.00656009
0.266695 -0.0343437 0.410569
-0.211017 -0.0645558 0.446301
0.34962 -0.130908 0.446301
-0.256131 0.153452 0.446301
-0.188918 0.182419 0.446301
-0.316342 0.0296828 0.219561
-0.174759 0.152401 0.446301
-0.225469 0.0934961 0.446301
0.25268 -0.266659 0.446301
-0.0249985 0.165785 0.410569
-0.283579 -0.232822 0.410569
-0.298704 0.185324 0.00392958
0.333286 0.118063 0.446301
-0.301828 -0.25459 0.146702
0.0129154 -0.188786 0.446301
-0.11901 0.218413 0.410569
0.34402 0.205115 0.427157
0.2997 -0.246102 0.151853
0.0371937 -0.240421 0.446301
-0.303059 -0.2551 0.184172
-0.00126413 -0.0103509 0.410569
-0.249684 0.194432 0.410569
-0.0825536 -0.0353762 0.410569
-0.283751 0.250535 0.446301
0.186376 -0.267793 0.13032
-0.249336 0.140384 0.410569
0.300528 0.0896029 0.00950562
-0.195737 -0.258751 0.446301
-0.236818 -0.106269 0.410569
-0.313704 0.216467 0.0928635
-0.0991549 -0.042394 0.410569
-0.298476 0.250795 0.153191
0.315018 0.0645802 0.271509
0.0858665 0.131074 0.410569
0.28829 -0.239804 0.404198
0.201072 0.098233 0.446301
0.325743 -0.0124948 0.410569
0.344891 0.205292 0.446301
0.308295 -0.237939 0.410569
-0.0302692 0.248256 0.446301
0.166306 0.247079 0.410569
0.208075 0.277893 0.446301
0.244915 0.0634072 0.446301
-0.21552 -0.0798856 0.410569
0.0299185 0.247822 0.410569
-0.3064 -0.088206 0.00122904
0.243165 -0.0771282 0.410569
-0.327793 -0.254975 0.446301
-0.310973 -0.230538 0.0720799
-0.289509 0.296114 0.436845
-0.0472437 -0.214878 0.410569
-0.121434 -0.157242 0.410569
0.320119 0.20381 0.364743
-0.0649725 0.251722 0.271208
-0.0674635 -0.193922 0.446301
-0.0962007 0.0359134 0.410569
-0.240128 -0.107992 0.410569
-0.123436 -0.145982 0.446301
0.295499 0.284489 0.410569
0.301476 -0.245366 0.267685
-0.117185 0.222509 0.410569
0.305375 0.232168 0.000814724
-0.0356289 0.274523 0.446301
0.306505 -0.0950751 0.292562
-0.310258 0.065141 0.446301
-0.0656802 -0.298266 0.44223
-0.325561 -0.148878 0.446301
-0.0990456 -0.0996206 0.446301
0.19056 -0.0766025 0.410569
-0.325578 0.0174685 0.446301
-0.347705 0.0417396 0.436389
0.000781685 -0.0878804 0.446301
0.334239 -0.0669428 0.410569
-0.193397 0.276952 0.410569
0.23321 -0.0186366 0.446301
0.19924 0.00820485 0.446301
-0.159278 -0.123268 0.410569
-0.0389937 -0.233085 0.410569
-0.119479 -0.228051 0.410569
-0.0620163 0.0446016 0.446301
0.29885 -0.120512 0.00715158
0.049623 -0.26292 0.211361
0.0474438 -0.021939 0.410569
0.320015 -0.121724 0.410569
0.0956176 -0.267282 0.410569
-0.0859797 0.222501 0.410569
-0.33353 -0.289304 0.446301
0.0288531 -0.0548759 0.446301
-0.30091 0.245613 0.2069
-0.226812 -0.23796 0.446301
-0.0672193 -0.0160246 0.446301
-0.134635 0.0668218 0.410569
0.331222 0.214732 0.410569
-0.063927 0.290538 0.422896
0.10287 -0.101969 0.410569
0.234523 0.212773 0.410569
-0.020716 0.0389615 0.446301
0.33975 0.212761 0.446301
-0.0591267 0.297406 0.44008
0.0641381 -0.264571 0.203725
0.257177 -0.0366238 0.410569
0.204759 0.102392 0.446301
0.0404409 -0.0837191 0.446301
-0.184018 -0.0337825 0.410569
-0.227483 -0.23234 0.446301
-0.00382096 0.107376 0.446301
-0.323372 -0.26149 0.410569
0.298142 -0.249982 0.0497016
0.195758 -0.0464897 0.446301
0.0594127 -0.188334 0.410569
0.0766175 -0.235855 0.410569
-0.0428948 0.292675 0.428243
0.0789995 0.102019 0.410569
0.271943 0.149652 0.446301
-0.307383 0.253348 0.24767
-0.264355 0.292834 0.446301
0.220974 -0.162444 0.446301
-0.350538 0.0524095 0.446301
-0.0659222 -0.0657084 0.410569
-0.0717348 0.00995681 0.410569
-0.0258139 -0.260511 0.217565
-0.262677 -0.170525 0.410569
0.183823 -0.181863 0.446301
0.0985395 0.143151 0.410569
0.25527 0.254996 0.0923615
-0.298423 -0.164789 0.00610025
0.329506 0.132832 0.410569
0.28445 0.20296 0.410569
0.224396 -0.298722 0.446301
-0.267539 0.177183 0.410569
0.175176 -0.122003 0.410569
0.11057 -0.0700888 0.446301
-0.246143 -0.220188 0.446301
0.340842 -0.283082 0.439164
0.22084 0.105209 0.410569
-0.115426 -0.270362 0.446301
-0.162328 -0.022797 0.446301
-0.197298 0.177642 0.410569
-0.192278 -0.0345585 0.410569
-0.313206 -0.0507324 0.204378
0.194531 0.0520691 0.446301
-0.111114 0.0514943 0.446301
-0.0612062 -0.267671 0.446301
0.0306554 -0.089018 0.446301
-0.191578 0.136733 0.446301
-0.206996 0.196382 0.446301
-0.263175 -0.255212 0.0885629
-0.0967155 -0.246466 0.446301
-0.132627 0.0990894 0.410569
0.145503 -0.0214786 0.410569
0.153128 0.212712 0.446301
0.247754 0.296595 0.43805
-0.289725 -0.293459 0.430204
0.288948 -0.233453 0.410569
0.306686 0.253924 0.0944846
0.304241 0.222006 0.0103851
-0.115508 0.181747 0.446301
-0.34681 -0.0937565 0.434148
0.235816 0.213352 0.446301
0.185447 0.0672037 0.446301
-0.300864 -0.245619 0.254059
-0.25238 0.142808 0.410569
0.0792793 0.136593 0.410569
-0.0612915 -0.0171958 0.410569
0.224453 -0.0151632 0.410569
0.22213 -0.28425 0.446301
0.073372 0.233969 0.410569
-0.114393 0.256469 0.300657
-0.320408 0.157613 0.12363
0.0208562 -0.168371 0.446301
-0.188278 -0.257528 0.446301
0.31052 0.190892 0.3573
0.308354 0.0976215 0.00647633
0.348007 0.250911 0.437138
-0.057119 0.242042 0.410569
-0.0804348 -0.0795524 0.446301
-0.0197704 -0.233196 0.410569
-0.156591 -0.122982 0.410569
0.130966 -0.18016 0.446301
0.28157 0.210322 0.446301
0.0718999 -0.257244 0.446301
0.306093 -0.0168041 0.00110011
0.00226486 0.179456 0.410569
0.351522 -0.0927264 0.445938
0.0870958 -0.133668 0.410569
-0.236437 0.254544 0.446301
0.283516 0.0502379 0.410569
-0.315423 0.0787142 0.284501
-0.156383 0.176758 0.446301
-0.0684911 0.29178 0.446301
-0.157296 0.100471 0.446301
0.19045 -0.048767 0.410569
-0.194456 0.285355 0.446301
-0.312718 -0.0734119 0.410569
0.133293 -0.22094 0.446301
-0.13266 -0.262805 0.310356
0.184707 -0.228695 0.446301
0.0878513 0.0612438 0.410569
0.0730942 -0.0497683 0.446301
0.0522141 0.121244 0.446301
-0.332934 0.0538217 0.446301
-0.16422 0.241823 0.410569
-0.0148137 -0.137661 0.446301
-0.318348 0.211843 0.372962
0.310913 0.111522 0.446301
0.00333846 -0.0616667 0.410569
0.195946 0.016775 0.446301
0.23998 0.051564 0.446301
-0.238003 -0.182497 0.410569
0.304067 0.231187 0.0104566
-0.0391967 -0.0679931 0.446301
0.166896 0.295043 0.446301
0.260529 0.183713 0.446301
0.314302 0.0970457 0.292401
0.040923 0.144759 0.446301
-0.0508697 -0.112068 0.446301
-0.0233303 -0.293762 0.430963
-0.345167 0.199648 0.43004
-0.305845 -0.254278 0.255952
0.166046 -0.22964 0.410569
-0.262209 0.256509 0.0874786
0.261596 -0.236402 0.410569
-0.319892 -0.118556 0.446301
0.0222082 0.101646 0.446301
-0.295877 0.29037 0.422476
-0.0708268 -0.269488 0.2694
-0.233444 -0.211449 0.446301
0.139484 -0.252806 0.30885
-0.280183 -0.23023 0.410569
0.219084 0.241277 0.410569
0.306979 0.246011 0.0512193
0.153593 0.267203 0.31912
-0.29851 0.248969 0.239259
-0.298553 0.101961 0.00429967
0.0563845 0.212267 0.446301
0.298546 -0.241802 0.400779
0.347498 0.166971 0.435868
0.198745 -0.262983 0.116242
-0.0749808 -0.02014 0.446301
-0.00719801 -0.19388 0.410569
0.294463 -0.0787634 0.410569
-0.221845 0.15222 0.410569
-0.289286 0.213893 0.446301
-0.0322364 0.213981 0.410569
-0.201847 0.186067 0.410569
0.140467 0.108193 0.410569
-0.24035 -0.182019 0.410569
-0.244799 -0.262636 0.10073
0.0885289 -0.182268 0.410569
0.314628 -0.0503141 0.264143
0.170296 0.148825 0.446301
0.0430323 -0.267235 0.204456
0.140805 0.142447 0.410569
-0.305878 0.14769 0.00971407
-0.249169 0.265872 0.0965805
0.200394 0.15072 0.410569
0.0984321 0.0479596 0.446301
0.182669 0.250219 0.446301
0.0763944 0.253519 0.186422
-0.243589 -0.26252 0.101551
0.299483 -0.25325 0.349629
0.291448 0.0781525 0.410569
-0.305605 -0.20517 0.446301
0.0786285 -0.0345846 0.446301
0.311826 0.268903 0.446301
0.110046 0.226315 0.446301
-0.0323178 0.0484623 0.410569
0.096637 -0.111958 0.446301
-0.219158 0.148168 0.410569
-0.0128617 -0.214626 0.410569
-0.0643414 0.259712 0.19635
-0.231513 -0.288134 0.446301
-0.299818 0.0809181 0.00151726
0.32538 0.192791 0.410569
0.246219 -0.261324 0.359391
-0.155328 -0.299401 0.445069
-0.343573 -0.0851542 0.42605
0.275555 -0.29935 0.444943
0.270093 -0.167394 0.446301
-0.305601 -0.294968 0.43398
-0.297632 -0.0582517 0.446301
-0.145319 0.0558024 0.446301
0.269539 -0.0623244 0.410569
-0.046408 0.263883 0.202393
0.309374 -0.0460728 0.410569
0.222858 -0.144763 0.446301
-0.229687 0.243345 0.410569
-0.308109 -0.248216 0.187516
-0.304823 -0.0982907 0.0101465
-0.290156 -0.163081 0.410569
0.148204 0.295205 0.446301
0.0163148 0.232455 0.446301
0.149908 -0.297567 0.440481
0.174353 0.266742 0.446301
-0.226669 -0.226052 0.410569
0.128552 0.262199 0.410569
0.0990243 -0.265392 0.410569
-0.202845 -0.0457629 0.446301
-0.302966 0.255062 0.301829
-0.311482 0.0301417 0.446301
0.182575 0.116718 0.446301
0.303466 0.127942 0.410569
-0.247907 0.0442145 0.410569
-0.105412 0.2647 0.410569
0.306078 -0.25418 0.39502
-0.318224 0.211483 0.369446
0.212421 -0.151941 0.446301
-0.00504363 -0.167078 0.446301
0.159311 0.133758 0.410569
-0.165685 0.0266371 0.446301
0.305775 -0.169799 0.000966214
-0.179811 0.290981 0.446301
-0.0554095 -0.189543 0.410569
-0.259853 0.247717 0.446301
0.0507427 0.0257037 0.410569
-0.318802 -0.0796728 0.446301
-0.185546 -0.0880624 0.410569
-0.0886608 -0.136463 0.446301
0.15622 0.284007 0.410569
0.135225 0.0812094 0.410569
0.202992 0.079581 0.410569
0.0333493 0.0495698 0.446301
-0.093813 -0.0970888 0.446301
0.0975534 -0.030567 0.446301
0.0352212 -0.101882 0.410569
-0.334184 0.0537199 0.410569
-0.221852 0.232518 0.446301
0.235664 -0.0105726 0.410569
-0.0645083 -0.207121 0.446301
-0.175903 -0.0527733 0.410569
0.299499 -0.204386 0.00874873
-0.338294 0.229753 0.446301
-0.152354 0.255556 0.30974
-0.264055 0.260287 0.446301
0.177558 -0.148153 0.446301
0.136165 -0.200739 0.446301
-0.301093 0.245539 0.14074
-0.0600134 0.230222 0.410569
-0.0277527 0.0272486 0.446301
0.261369 -0.101938 0.410569
0.30794 -0.252023 0.322267
0.140599 0.0638926 0.410569
-0.111282 0.0396737 0.446301
-0.136079 -0.16846 0.446301
0.251506 -0.0696758 0.446301
-0.0753489 0.134912 0.410569
0.0532606 -0.159436 0.410569
0.0989385 0.0429799 0.446301
0.058848 -0.0131975 0.410569
-0.245051 -0.203338 0.446301
0.00202465 -0.15636 0.410569
0.311464 0.0614226 0.198574
0.183659 0.271825 0.410569
0.312147 0.116981 0.307394
0.260466 -0.0699755 0.446301
0.218547 -0.110488 0.446301
-0.305081 -0.265089 0.0646035
-0.104212 -0.174242 0.446301
0.201603 -0.13774 0.446301
-0.0750873 -0.261585 0.192006
0.151579 0.189589 0.446301
0.301583 0.135281 0.00993282
0.153718 -0.0619683 0.410569
-0.347838 0.180041 0.446301
-0.324084 -0.229225 0.410569
0.340145 0.0972048 0.417459
-0.346586 0.172563 0.446301
-0.304014 0.255047 0.344577
0.261889 0.0470826 0.446301
0.350682 0.138933 0.443837
0.284629 0.212863 0.446301
0.00726876 0.125056 0.410569
0.0223704 0.265616 0.251646
0.0517649 -0.187383 0.410569
-0.0853859 0.257481 0.27371
-0.345462 0.0507335 0.430776
-0.350625 -0.101042 0.443693
-0.117537 0.267639 0.164026
-0.244131 0.0558993 0.410569
-0.101689 -0.0635785 0.410569
-0.299357 -0.160396 0.0084006
0.316244 -0.114683 0.30882
-0.264229 0.110802 0.410569
0.0383731 0.129708 0.446301
-0.0462162 0.290576 0.42299
0.267523 0.167104 0.446301
0.205867 -0.270634 0.446301
0.325065 -0.293975 0.437571
-0.265569 -0.164595 0.446301
0.242067 0.00185335 0.446301
-0.0327935 -0.0627639 0.446301
-0.158773 -0.20904 0.446301
0.309928 -0.223031 0.0797759
0.118872 -0.172999 0.446301
0.34255 0.222713 0.423475
0.252607 0.0225479 0.410569
0.340991 -0.130467 0.419592
-0.120777 0.287112 0.414324
0.166433 0.201608 0.410569
-0.346813 0.000471562 0.434158
-0.302946 0.0642722 0.446301
-0.120003 0.124739 0.410569
0.0442804 -0.0243192 0.410569
-0.0257625 -0.217198 0.446301
-0.12433 0.26012 0.16016
-0.1118 -0.224309 0.410569
-0.171658 0.266054 0.142057
-0.128185 -0.255574 0.446301
-0.155792 0.0717485 0.446301
-0.285323 -0.239218 0.446301
0.0173798 0.0586586 0.446301
0.308231 -0.24851 0.218542
-0.0946352 0.101821 0.446301
0.203265 -0.210147 0.410569
-0.0354505 0.289585 0.420512
0.0868265 -0.107082 0.410569
0.234408 0.0722571 0.446301
-0.058556 0.283129 0.446301
0.277416 0.115801 0.410569
-0.14995 -0.252918 0.147667
-0.205222 -0.168862 0.446301
-0.0333133 0.00753444 0.446301
-0.316535 -0.171768 0.350815
-0.312371 0.188963 0.350129
-0.327438 0.205366 0.410569
-0.061549 0.0752515 0.446301
-0.192302 0.0619401 0.410569
-0.306798 -0.0997513 0.00139612
0.209029 0.250507 0.410569
0.312103 0.144509 0.141917
0.123305 -0.190938 0.410569
0.102556 -0.256775 0.282974
-0.338707 -0.145851 0.413877
-0.0363888 -0.0380805 0.446301
-0.13431 -0.199738 0.446301
-0.224754 -0.0411104 0.410569
0.303042 -0.255093 0.240965
-0.0559791 0.285971 0.446301
0.265231 -0.0237022 0.446301
-0.00970998 -0.0379836 0.410569
0.180132 -0.280508 0.446301
-0.118877 -0.257204 0.161396
0.015023 -0.218234 0.446301
-0.0862076 0.0922119 0.446301
0.307852 0.247597 0.113334
-0.072306 -0.167822 0.446301
0.309426 -0.234303 0.38206
0.248381 0.0127994 0.410569
0.312707 -0.0845678 0.175504
-0.0917399 -0.164623 0.446301
-0.17427 0.056037 0.410569
0.0952563 -0.0547747 0.410569
0.097337 0.0342322 0.410569
0.124977 -0.21788 0.410569
-0.296516 -0.271705 0.410569
0.0712864 -0.0269109 0.446301
-0.185184 0.255435 0.327822
0.340484 -0.280278 0.446301
-0.140347 0.0449885 0.446301
0.323868 0.28204 0.416853
-0.218885 0.284198 0.446301
-0.300962 -0.123409 0.410569
-0.25119 0.148781 0.410569
0.313492 0.0523086 0.269331
-0.0885938 -0.0742119 0.410569
0.308215 -0.251368 0.344045
-0.347217 -0.258096 0.446301
-0.0258019 0.126666 0.410569
0.299183 0.221928 0.0027576
0.0752614 -0.0397777 0.446301
-0.163261 -0.261243 0.315484
-0.299561 -0.246371 0.225703
0.0181814 -0.0543097 0.446301
0.079988 0.273345 0.410569
-0.140433 -0.164148 0.410569
0.00969622 -0.143054 0.410569
0.0483957 0.260549 0.209549
0.35014 0.268559 0.446301
-0.063794 0.00125861 0.446301
0.205041 -0.290157 0.446301
-0.00957578 0.121244 0.410569
0.225029 0.0226023 0.410569
-0.184545 0.153784 0.410569
0.305336 -0.0953154 0.446301
-0.101261 -0.257838 0.446301
-0.2457 -0.0358455 0.410569
0.198746 0.287819 0.416093
-0.300751 0.254143 0.0323886
0.327555 0.187431 0.446301
0.302971 -0.0486982 0.446301
0.291595 -0.156146 0.410569
0.269114 0.215952 0.410569
-0.267737 -0.237468 0.446301
0.00754228 -0.0998383 0.446301
-0.303087 -0.14172 0.000161198
0.155602 0.257014 0.410569
-0.300715 -0.061742 0.00958144
-0.0543078 0.212432 0.446301
0.265628 -0.259811 0.446301
-0.0379393 -0.168709 0.446301
0.304824 0.0470726 0.20043
-0.117751 -0.151308 0.446301
0.166957 -0.26792 0.139254
0.172157 0.247337 0.410569
0.2743 -0.00162622 0.410569
-0.29113 -0.008154 0.410569
-0.30263 0.244916 0.0643978
0.211625 0.212502 0.410569
0.217557 0.0379668 0.410569
0.312627 -0.136671 0.144925
0.0997466 0.288404 0.446301
0.0166824 0.268271 0.410569
0.143436 -0.0694022 0.446301
0.00942141 0.219713 0.446301
0.0479132 0.189638 0.446301
-0.0684813 0.292757 0.428447
0.154424 0.258221 0.315512
-0.084007 -0.0722314 0.446301
-0.0118922 -0.0165475 0.446301
-0.3085 -0.24916 0.208843
0.296542 -0.289807 0.421066
0.340061 0.264891 0.446301
-0.0645111 0.0553311 0.410569
0.0124426 0.045485 0.410569
-0.3014 -0.254412 0.336744
0.301169 0.245508 0.205797
0.15504 0.264869 0.321926
0.19009 0.0344957 0.446301
-0.325007 -0.115419 0.410569
0.103178 0.260038 0.446301
0.072347 0.257866 0.198875
-0.24015 0.119638 0.446301
0.347339 0.183922 0.435467
0.261383 -0.248989 0.410569
0.0415449 0.0355103 0.446301
0.324214 0.20762 0.410569
0.165049 -0.155458 0.446301
0.212579 0.0775212 0.446301
0.23021 -0.212123 0.446301
0.062834 -0.263684 0.410569
-0.307651 0.248139 0.400133
0.125337 -0.187465 0.410569
-0.300408 0.286616 0.413083
0.312007 0.245472 0.410569
0.0868393 0.117829 0.410569
0.00467268 -0.292815 0.446301
-0.133691 0.030052 0.410569
0.307467 -0.0527199 0.00860645
-0.14795 -0.0609645 0.410569
0.321126 -0.0612172 0.187945
0.0764389 -0.275114 0.410569
-0.0425124 0.00984144 0.446301
-0.127188 0.190399 0.446301
0.102678 0.291271 0.424729
0.196882 -0.0627205 0.446301
-0.296559 0.213894 0.446301
-0.109022 -0.294611 0.433085
-0.234311 0.159291 0.410569
-0.0552387 0.00784096 0.410569
-0.162057 -0.245578 0.446301
-0.314338 -0.170785 0.410569
0.227084 -0.214832 0.446301
-0.319671 0.201133 0.100346
0.163314 -0.266585 0.137982
0.12204 0.140459 0.446301
0.291154 -0.0906513 0.410569
-0.194327 -0.160681 0.410569
-0.201534 -0.158648 0.410569
-0.031132 -0.260571 0.251974
-0.121466 -0.261176 0.169233
-0.262314 -0.256554 0.375111
-0.105313 0.25466 0.284761
-0.0396203 -0.0729058 0.410569
-0.315499 -0.179804 0.344252
-0.236439 0.264715 0.410569
-0.183565 0.132083 0.446301
-0.298571 -0.155099 0.00646357
0.223377 0.149999 0.446301
-0.194071 -0.20731 0.446301
0.0799944 0.111565 0.446301
-0.148674 -0.254664 0.154639
-0.332778 -0.11441 0.410569
0.0159776 -0.220779 0.410569
0.176318 -0.194929 0.446301
0.312021 0.123029 0.315813
-0.0222799 0.0620448 0.446301
-0.131119 0.204362 0.410569
-0.223446 0.0158103 0.446301
0.304428 -0.119851 0.00040031
0.332892 0.138185 0.446301
0.193123 -0.22902 0.446301
0.228155 -0.262041 0.099719
-0.0200807 0.286529 0.446301
0.122934 -0.0827697 0.446301
-0.112697 0.27428 0.410569
0.193096 -0.0852663 0.446301
-0.282524 -0.106647 0.446301
-0.305934 -0.0181254 0.00103318
0.0643399 0.237752 0.446301
-0.308536 -0.249246 0.0805763
-0.17615 -0.0180937 0.410569
0.226868 -0.199304 0.410569
-0.315567 -0.259834 0.410569
-0.298262 0.23771 0.00589168
0.346034 0.13217 0.432203
0.29953 0.246448 0.219052
0.311893 0.12657 0.316173
0.334035 0.005851 0.446301
0.298846 -0.257416 0.397233
-0.182795 0.289206 0.419564
-0.29211 -0.237774 0.400095
0.331191 0.0471443 0.410569
0.12216 -0.154034 0.410569
0.268272 -0.108888 0.446301
-0.119858 -0.255011 0.161149
0.155229 0.242018 0.410569
0.26333 0.264644 0.0829702
-0.2856 0.223239 0.446301
-0.223899 -0.240831 0.410569
0.339271 0.224206 0.446301
0.075546 0.0598893 0.446301
0.299082 0.221943 0.00772305
0.224189 0.207028 0.410569
-0.126617 -0.0895747 0.410569
-0.0900156 0.227292 0.446301
-0.179553 0.267549 0.410569
-0.141517 0.129361 0.446301
0.188111 0.217406 0.410569
0.350481 -0.0318546 0.443334
-0.183346 -0.257831 0.12512
0.033651 0.203278 0.446301
0.304543 0.205353 0.0102614
-0.107746 0.134499 0.410569
0.0907709 0.153238 0.410569
-0.238374 -0.134912 0.410569
0.260896 -0.291466 0.425218
0.30983 -0.103589 0.307091
-0.267552 0.225751 0.446301
-0.214418 0.252086 0.446301
0.304604 -0.148891 0.0102366
0.330938 -0.0660965 0.446301
-0.108304 -0.0699304 0.446301
0.299142 0.251659 0.0183434
-0.125328 -0.261857 0.410569
0.233037 0.0641025 0.446301
-0.300357 -0.253979 0.197597
-0.323226 0.062054 0.193816
-0.0114823 0.236816 0.446301
0.343201 -0.227705 0.425121
-0.0244788 0.134475 0.446301
0.137461 0.189297 0.410569
-0.312222 -0.110739 0.305972
0.2486 0.0618961 0.410569
0.306023 0.245619 0.217637
-0.0705613 -0.266722 0.276992
0.304797 0.186945 0.446301
0.214878 0.162888 0.446301
0.305322 -0.0549494 0.272737
0.309504 0.164352 0.127437
0.138048 0.137179 0.410569
0.0398188 -0.063346 0.446301
0.0583214 0.0415246 0.446301
-0.346481 -0.259089 0.433326
0.302427 -0.254838 0.146362
0.285994 -0.00804228 0.410569
0.317157 0.207753 0.0964533
-0.236239 0.222349 0.410569
0.202646 -0.0116265 0.410569
0.312689 -0.118462 0.156998
-0.242137 0.187858 0.446301
0.307061 -0.145544 0.446301
-0.319541 -0.229107 0.446301
0.176703 0.258032 0.446301
-0.289769 -0.127604 0.446301
0.0670387 0.216472 0.446301
0.347222 -0.257116 0.435179
0.337583 -0.140374 0.446301
0.159997 -0.258456 0.146426
0.350392 -0.211844 0.44311
0.0299236 0.0518573 0.410569
0.0827103 0.178767 0.410569
-0.346757 0.214381 0.434017
-0.318438 -0.121102 0.410569
-0.0369208 0.291069 0.424224
0.307095 0.114544 0.446301
0.318885 -0.202552 0.0923197
-0.340996 -0.00830942 0.419604
-0.314893 -0.244987 0.38611
-0.28054 0.209242 0.446301
0.338811 0.0817848 0.41412
0.103419 0.0689488 0.410569
0.307584 -0.288188 0.41791
0.191093 -0.225833 0.410569
0.347723 0.212998 0.436427
-0.248987 -0.293156 0.446301
0.0290111 -0.182622 0.446301
-0.164195 -0.255345 0.136514
0.318095 -0.253292 0.393642
-0.119164 0.0342422 0.410569
-0.210256 -0.284203 0.446301
0.231575 0.0854706 0.410569
0.274706 0.127313 0.410569
-0.189584 0.257818 0.329284
0.171491 -0.204981 0.446301
0.175495 0.0334711 0.410569
-0.197321 0.25993 0.127731
-0.0261569 -0.202945 0.410569
0.154604 0.183122 0.410569
-0.0842577 0.251816 0.279332
0.18255 -0.161398 0.410569
-0.0702344 0.236957 0.446301
-0.302627 -0.254921 0.202403
-0.142251 -0.0670456 0.410569
-0.112631 0.263512 0.446301
-0.0455914 0.14646 0.446301
0.283156 -0.274877 0.410569
-0.27876 -0.193135 0.410569
-0.0309201 0.0752609 0.446301
0.170875 -0.139524 0.410569
-0.0461447 -0.208467 0.446301
-0.222013 -0.257819 0.355421
-0.202813 -0.0916788 0.446301
-0.320651 -0.118127 0.410569
0.29924 -0.0515486 0.00261764
0.00327909 -0.177777 0.410569
-0.307429 -0.215663 0.446301
-0.239599 0.20961 0.410569
-0.0751538 0.0102199 0.410569
-0.29035 0.0533888 0.446301
0.347866 0.25044 0.436785
0.260606 -0.218661 0.446301
-0.316549 0.13254 0.318738
-0.016888 0.0783587 0.410569
-0.305569 0.0604475 0.276403
0.310797 0.254288 0.410569
-0.14378 -0.211393 0.446301
0.304425 -0.0230197 0.246969
-0.251843 -0.0731935 0.410569
0.00618187 -0.136103 0.446301
-0.107481 0.150673 0.446301
0.222553 0.117235 0.410569
-0.0176286 -0.190521 0.410569
-0.081924 -0.261791 0.282355
0.347985 -0.115345 0.43709
-0.347473 -0.271484 0.440457
-0.0951528 -0.0152635 0.410569
-0.011408 -0.154124 0.410569
-0.315642 -0.195998 0.446301
0.227127 0.22099 0.446301
-0.306141 -0.245656 0.0832199
-0.123063 0.120731 0.446301
0.0810683 0.142126 0.410569
0.242803 -0.232331 0.410569
0.0537064 0.299509 0.445341
0.257562 -0.0835236 0.446301
-0.201821 0.254004 0.342879
0.286329 0.159857 0.410569
-0.211135 -0.188563 0.446301
-0.347553 -0.0636503 0.446301
0.161935 0.0495011 0.446301
0.309478 0.243183 0.393238
-0.271068 0.288782 0.418501
0.250968 -0.0696027 0.410569
-0.307523 0.109982 0.446301
0.219284 0.255821 0.106144
-0.123779 0.241193 0.446301
-0.299659 0.0747127 0.410569
0.126404 0.237744 0.446301
0.0575869 0.136591 0.446301
-0.0332599 -0.251716 0.446301
-0.00496275 0.259037 0.240587
0.0945826 0.297267 0.43973
0.347818 0.0474189 0.436671
0.342773 0.0623158 0.446301
0.109017 -0.262048 0.291091
0.300969 0.24078 0.410569
-0.150844 0.082102 0.410569
0.00440007 0.291087 0.424269
-0.306255 -0.254105 0.109678
-0.14012 0.112078 0.446301
-0.202204 -0.262486 0.446301
0.0129832 -0.0115526 0.446301
0.199163 0.222643 0.446301
0.232285 0.177025 0.446301
0.300402 0.245818 0.278397
0.228455 -0.11509 0.446301
0.0756544 -0.273807 0.446301
0.136077 0.0133037 0.410569
0.28 -0.0306319 0.410569
-0.121969 -0.0758838 0.410569
0.29319 -0.266313 0.446301
0.102262 -0.261418 0.291229
-0.0905612 0.166825 0.410569
-0.118607 -0.232302 0.410569
0.203728 0.0329145 0.410569
-0.0481103 -0.211075 0.446301
-0.178092 0.211846 0.410569
0.243486 0.013701 0.446301
-0.264538 0.269186 0.446301
0.301264 -0.254355 0.102097
-0.322022 -0.183384 0.410569
0.128207 -0.212323 0.446301
-0.316854 -0.242443 0.0640295
-0.349558 0.109948 0.441025
-0.250671 -0.256545 0.366865
-0.177601 -0.175448 0.446301
-0.32277 0.0627341 0.188779
0.0566857 0.251197 0.20128
0.17572 0.256569 0.140675
-0.224734 -0.0155997 0.446301
-0.321823 0.0516997 0.410569
-0.0443067 -0.0884205 0.410569
0.236965 0.148436 0.446301
-0.349131 0.111111 0.446301
-0.314398 0.23507 0.0681119
0.286212 0.255683 0.0703072
-0.0855845 0.118381 0.410569
0.305164 -0.245245 0.242491
-0.29013 -0.263048 0.0656623
-0.159615 0.258715 0.147304
-0.293499 0.168078 0.410569
0.192613 -0.248291 0.410569
-0.304371 0.0196025 0.248808
0.255734 0.118891 0.410569
0.298834 0.248169 0.0923211
0.311014 -0.217676 0.0821581
-0.181412 0.0946837 0.446301
-0.156358 0.0878944 0.446301
0.307836 0.132323 0.00771957
-0.0353319 0.288928 0.418868
0.0892051 0.0586258 0.410569
0.308061 0.00783087 0.00718006
-0.315333 0.123545 0.144316
0.300885 -0.0824652 0.00107495
-0.253358 -0.0883372 0.410569
-0.140505 -0.242995 0.410569
0.314108 -0.152453 0.136172
-0.307703 -0.123259 0.410569
0.0990954 0.0336769 0.410569
0.100259 0.0744877 0.410569
-0.110585 -0.123471 0.446301
-0.313668 -0.159214 0.131799
0.12634 -0.225786 0.410569
-0.311683 0.178017 0.354895
0.156774 0.0836125 0.410569
0.0970599 -0.00624529 0.410569
-0.29657 -0.210535 0.446301
0.344849 -0.135102 0.429242
-0.230391 -0.0318794 0.446301
0.000753284 -0.0378421 0.410569
-0.190722 0.0151905 0.410569
0.263985 0.264508 0.410569
-0.261433 -0.255731 0.0835835
-0.0907099 0.201241 0.410569
0.150074 0.100921 0.410569
-0.0637153 0.153021 0.410569
-0.200978 0.17767 0.446301
-0.164956 -0.101569 0.446301
0.215596 -0.146066 0.410569
0.314916 -0.162316 0.344245
-0.323192 0.0558551 0.194422
-0.122385 0.158873 0.410569
0.132821 -0.274166 0.410569
0.0696377 0.282901 0.446301
0.170295 -0.15636 0.446301
-0.0376707 0.267747 0.207863
0.167996 0.139996 0.410569
0.124755 -0.258891 0.305866
-0.200819 -0.262526 0.11697
-0.0577416 -0.290109 0.421821
0.0438656 -0.294566 0.432973
0.0223385 0.141175 0.446301
0.103721 -0.0332599 0.446301
-0.306235 0.0165335 0.00115982
0.30201 -0.254665 0.085731
0.342301 -0.241029 0.422868
0.34619 -0.238201 0.432598
-0.243997 -0.0892997 0.446301
0.297971 -0.134004 0.446301
-0.116645 -0.111137 0.410569
-0.00764883 0.0520695 0.446301
-0.346991 0.110564 0.434602
-0.0697927 -0.193609 0.410569
0.348082 0.0157636 0.437332
-0.16623 -0.278781 0.410569
-0.308011 -0.0597121 0.187929
0.187723 -0.100645 0.446301
0.14618 0.149891 0.410569
-0.0451729 0.0169525 0.410569
-0.344933 -0.128986 0.429453
0.11559 0.166031 0.446301
-0.190025 0.0257342 0.410569
-0.223951 -0.102153 0.410569
-0.130474 -0.263968 0.309046
0.0144576 0.2588 0.230356
0.223048 -0.000336379 0.446301
0.0227989 0.0884033 0.446301
0.187393 0.0441374 0.446301
0.196444 -0.295899 0.436309
0.230107 0.0638215 0.446301
0.301032 0.245563 0.317794
0.136448 -0.253722 0.446301
0.24904 0.265204 0.446301
-0.0959996 0.184374 0.446301
-0.214574 0.200803 0.410569
-0.10589 0.259295 0.285202
-0.307855 0.0884691 0.00767308
-0.19914 -0.224249 0.446301
0.177709 -0.0629988 0.446301
-0.152825 -0.172601 0.446301
0.308657 -0.0103411 0.235347
0.317429 -0.0278479 0.446301
-0.20001 -0.262434 0.334768
0.289403 0.150412 0.410569
-0.163077 -0.122241 0.446301
-0.308318 0.200615 0.00415706
0.0294495 -0.229074 0.446301
-0.309318 -0.116641 0.160932
0.0247109 0.0962412 0.446301
0.260041 -0.114288 0.410569
-0.0694655 0.146728 0.446301
0.0711849 -0.251536 0.271944
-0.106155 0.0800128 0.446301
0.234131 0.232359 0.446301
-0.140628 -0.0303793 0.446301
0.15632 -0.222252 0.410569
-0.335645 -0.0995578 0.446301
-0.169737 -0.131547 0.446301
0.0735609 -0.265173 0.18681
0.103245 0.135987 0.446301
-0.17009 0.277993 0.446301
-0.271121 0.263701 0.410569
-0.0727438 -0.12723 0.446301
-0.31928 0.0730803 0.178634
-0.309269 -0.0967551 0.174591
0.262627 0.29884 0.443666
0.182163 0.139422 0.446301
0.251392 -0.162639 0.446301
0.0325555 0.270749 0.446301
0.213598 0.0877462 0.410569
-0.307561 -0.246895 0.0527906
-0.1107 -0.127931 0.410569
0.123868 0.183842 0.446301
0.33464 0.2321 0.446301
0.00213555 0.155543 0.446301
0.158687 0.0225169 0.446301
0.30751 0.167875 0.121643
-0.147307 -0.278666 0.410569
-0.2258 0.163342 0.446301
0.106692 -0.285503 0.446301
0.252102 0.0370719 0.410569
-0.20001 -0.277695 0.410569
-0.186194 0.0915286 0.446301
0.238153 0.288503 0.417804
-0.194338 0.2994 0.445069
-0.191265 -0.19677 0.446301
0.282254 0.216115 0.446301
0.211958 0.26013 0.108731
-0.236681 -0.283338 0.410569
-0.32209 0.134883 0.446301
0.319289 0.220857 0.446301
0.348007 -0.224171 0.437144
-0.00291163 -0.14148 0.410569
-0.162831 0.0775162 0.410569
0.190552 -0.0663159 0.410569
0.311554 -0.162017 0.446301
0.15829 0.106354 0.410569
0.344463 -0.148025 0.428277
-0.087598 -0.147798 0.410569
0.299826 -0.0606681 0.0092215
0.307696 0.247221 0.162373
0.0553157 -0.272429 0.446301
-0.246356 -0.231692 0.410569
-0.298895 0.208117 0.446301
-0.311446 0.148059 0.134331
-0.3116 0.14213 0.138969
0.340276 0.127514 0.417786
-0.298262 -0.249582 0.0656167
-0.309097 -0.00386244 0.446301
0.291795 -0.0277056 0.446301
-0.254854 0.0189232 0.410569
-0.316767 -0.240055 0.383355
-0.336397 -8.16286e-05 0.410569
0.211957 -0.258384 0.446301
-0.222425 0.266436 0.410569
-0.100641 -0.216166 0.410569
0.207908 -0.285923 0.446301
0.0799592 -0.280001 0.410569
0.0369526 -0.136052 0.446301
0.216932 0.212058 0.410569
0.303307 -0.139077 0.0106308
0.0901133 -0.252821 0.27869
0.164437 0.0147485 0.446301
0.298721 0.251394 0.0429798
-0.0948654 0.131472 0.410569
0.348451 0.18035 0.438252
0.200088 -0.298345 0.442429
-0.0158908 0.126238 0.446301
-0.316836 -0.0759517 0.446301
-0.117162 -0.13982 0.410569
0.0971117 0.261749 0.280431
0.215309 0.231416 0.410569
-0.351095 -0.031915 0.446301
-0.242389 -0.137687 0.446301
-0.267079 -0.00760254 0.410569
-0.303472 0.244575 0.156839
0.291123 0.221897 0.410569
0.231465 0.286515 0.446301
0.2399 0.207293 0.446301
-0.300096 -0.0867132 0.00140225
-0.300675 0.242783 0.408809
-0.27119 -0.048899 0.446301
0.35093 -0.0119836 0.444457
-0.312703 -0.161799 0.342906
-0.250319 0.126429 0.446301
0.0601385 -0.172027 0.410569
0.0878674 -0.00543451 0.410569
-0.0478265 -0.292604 0.446301
0.0119538 -0.0415883 0.446301
0.311066 0.219045 0.0794912
0.275539 -0.148436 0.446301
0.210645 -0.104668 0.410569
0.256202 0.169588 0.410569
0.313862 -0.196022 0.106808
-0.241337 0.082017 0.410569
0.236102 -0.196547 0.410569
0.292255 0.256092 0.391727
-0.298236 -0.249647 0.228689
0.140721 -0.0587951 0.446301
0.226556 0.129586 0.446301
0.24508 0.287771 0.415972
-0.303991 -0.00351934 0.233853
-0.172249 0.197929 0.446301
0.244581 0.0618943 0.410569
0.312784 0.0821534 0.285857
0.228047 0.263388 0.101971
-0.331033 -0.0248307 0.410569
-0.347087 0.250203 0.434841
0.305197 -0.0878346 0.000723422
-0.0190745 0.291438 0.446301
0.00209022 -0.164955 0.410569
-0.0139449 0.175761 0.410569
0.0126365 0.247027 0.446301
0.307698 0.252599 0.171933
0.115302 0.294257 0.432201
0.31399 0.0303066 0.256342
0.307839 -0.252264 0.274731
0.223658 -0.0110098 0.446301
0.00319546 -0.156819 0.410569
-0.327737 0.214825 0.410569
-0.0875798 -0.199976 0.410569
-0.237225 0.206279 0.410569
0.0701173 -0.289037 0.419142
0.304816 -0.245404 0.446301
-0.0945972 -0.0611465 0.410569
-0.189685 0.268073 0.446301
0.0723405 0.288626 0.446301
0.285871 -0.129275 0.446301
-0.180297 0.259657 0.410569
-0.00505552 -0.0405465 0.446301
-0.266023 -0.254806 0.0824562
-0.28389 -0.163045 0.446301
0.223276 -0.292732 0.428385
-0.108643 0.292185 0.427016
-0.113428 0.28501 0.410569
-0.0474108 0.121552 0.410569
-0.320676 -0.119109 0.315012
-0.195956 0.233813 0.410569
-0.136578 0.262682 0.306896
-0.18858 -0.044295 0.410569
0.0453683 0.257375 0.446301
0.340379 -0.0382071 0.418054
-0.0102654 -0.0766782 0.446301
0.13614 0.29301 0.429082
-0.0896992 0.147523 0.410569
0.307392 0.0398346 0.446301
0.0878441 -0.0115851 0.446301
-0.317466 0.182667 0.103849
-0.277699 0.0186971 0.446301
0.0074383 -0.138217 0.410569
0.254704 -0.0809761 0.410569
-0.277486 -0.132639 0.446301
-0.183558 -0.136048 0.446301
-0.308799 0.0872182 0.446301
0.0453437 -0.229192 0.446301
-0.187576 0.243345 0.446301
0.307673 -0.247164 0.376238
0.307096 0.0643203 0.00152146
-0.312843 0.004249 0.240951
0.232082 0.0398927 0.410569
0.300975 -0.239924 0.405074
0.307177 0.253718 0.0980666
-0.259437 -0.100383 0.446301
-0.247799 -0.156538 0.446301
-0.310534 0.0250718 0.256511
0.11842 -0.274904 0.410569
-0.314673 -0.122394 0.146436
-0.087793 -0.263546 0.410569
-0.0435645 -0.120451 0.410569
-0.145509 0.259934 0.31681
0.231132 -0.103384 0.410569
-0.29912 -0.252367 0.23203
0.292209 0.230364 0.410569
-0.281846 -0.1252 0.446301
0.165109 0.00371855 0.410569
-0.203549 -0.25834 0.339073
0.313502 -0.0499828 0.200312
-0.0242262 -0.266666 0.241169
0.252068 0.288111 0.416824
-0.324608 0.0559779 0.446301
0.260753 0.26163 0.378267
0.141805 -0.120185 0.446301
0.0377621 0.179452 0.410569
0.193932 0.0132619 0.446301
0.197231 -0.100507 0.446301
0.314373 -0.219031 0.369411
-0.188712 -0.158868 0.446301
-0.317805 -0.224805 0.410569
0.235118 0.222212 0.410569
0.255698 0.190685 0.410569
0.123378 -0.110165 0.446301
0.314856 -0.104672 0.410569
-0.0806954 0.163169 0.446301
-0.03414 0.0890151 0.446301
0.177778 -0.170085 0.410569
-0.307097 -0.236582 0.00999572
-0.212555 -0.286564 0.412953
-0.118754 -0.210987 0.446301
-0.332845 -0.0592122 0.410569
0.335851 0.11547 0.410569
0.307925 0.247773 0.27487
0.190488 -0.0803748 0.446301
-0.23266 0.10071 0.446301
-0.0968911 0.176156 0.410569
-0.323423 0.0520061 0.200286
-0.312037 0.203169 0.359287
-0.218586 -0.193493 0.410569
0.0907062 -0.153084 0.446301
-0.301554 -0.0890344 0.410569
0.29924 -0.0221453 0.446301
-0.106301 -0.289584 0.420508
0.0383404 -0.120956 0.410569
0.308305 -0.248688 0.0764522
-0.166695 -0.183389 0.446301
-0.126306 -0.286518 0.446301
-0.216867 -0.025364 0.446301
-0.223615 -0.146111 0.410569
0.309046 -0.127596 0.311052
0.351195 -0.076484 0.445119
-0.207487 -0.127171 0.410569
-0.175019 -0.258274 0.446301
-0.0756753 -0.0262923 0.446301
0.0227996 0.0156096 0.410569
-0.115857 0.260572 0.291494
-0.31459 -0.0139101 0.240851
0.174911 -0.27687 0.446301
0.130772 -0.0734275 0.410569
-0.149225 -0.27378 0.410569
0.0901933 0.00677112 0.410569
0.303602 0.293053 0.429188
-0.35065 0.116102 0.443756
0.177604 0.296802 0.438567
0.295086 0.153209 0.446301
-0.165117 -0.227576 0.410569
0.071065 0.29768 0.440763
-0.0565273 -0.215685 0.446301
0.0257426 0.294997 0.434051
-0.181504 0.263662 0.410569
0.0929505 0.190301 0.446301
0.058314 0.102304 0.410569
0.321424 0.0713109 0.276107
0.0529982 0.227716 0.410569
-0.0916241 0.124499 0.410569
-0.208836 0.289545 0.446301
0.187412 -0.16494 0.410569
-0.299189 -0.112985 0.00274407
-0.220372 -0.153136 0.410569
-0.00653291 0.294959 0.433958
0.285078 -0.25528 0.385568
0.251735 0.103438 0.446301
0.200579 0.181794 0.410569
0.163487 0.121689 0.446301
0.301809 -0.200193 0.410569
-0.0314513 0.186192 0.410569
0.0086499 -0.260715 0.227465
-0.308756 -0.188777 0.00550937
0.316595 0.249839 0.389648
0.340155 -0.222277 0.446301
0.0493068 0.148356 0.410569
0.257074 0.118151 0.446301
0.124614 -0.00632626 0.446301
0.308589 -0.041389 0.00591033
-0.16306 0.046191 0.410569
0.114908 -0.050579 0.410569
-0.190352 0.0763658 0.410569
-0.191792 0.263751 0.337091
-0.123497 0.214135 0.446301
-0.124077 0.0293363 0.410569
-0.0473117 -0.0648592 0.410569
0.0837013 0.0380403 0.446301
0.0978761 -0.186533 0.446301
0.346203 -0.232177 0.43263
0.314519 -0.156329 0.446301
0.116164 0.294556 0.446301
0.20113 -0.17311 0.410569
0.32587 0.062604 0.446301
0.327636 -0.107944 0.446301
-0.0387516 -0.10737 0.446301
-0.307816 0.0644505 0.270312
0.231261 0.0395215 0.446301
0.0577027 0.296869 0.438735
0.0158337 0.20366 0.410569
-0.269352 -0.238058 0.446301
0.0391864 -0.0671894 0.446301
-0.137473 0.260366 0.15204
0.318923 0.0359013 0.263519
-0.236501 0.132573 0.410569
0.00382724 0.198079 0.446301
-0.299485 -0.253255 0.082224
0.00348827 0.0791154 0.410569
0.340383 -0.133002 0.41807
-0.0243714 -0.0730835 0.410569
-0.15682 0.0715279 0.446301
-0.148565 -0.103256 0.446301
0.293268 0.236139 0.400894
0.348249 -0.144262 0.437749
-0.207891 -0.292056 0.446301
-0.0733968 -0.26283 0.278622
-0.156383 0.0931008 0.446301
-0.348851 -0.221943 0.446301
-0.125982 -0.0519029 0.410569
0.244355 0.0693452 0.410569
-0.169371 0.1549 0.410569
-0.248017 -0.215879 0.446301
0.277442 -0.0184897 0.410569
-0.0837561 -0.216698 0.410569
0.174626 -0.0400034 0.410569
0.301821 -0.245223 0.261049
-0.265169 -0.172801 0.410569
0.0809789 -0.255061 0.410569
0.16619 -0.282692 0.446301
-0.315523 -0.197324 0.0944132
-0.0261879 -0.188212 0.446301
-0.00982544 -0.0602105 0.410569
0.0223546 0.273977 0.446301
-0.32363 0.0834869 0.410569
0.17718 -0.257879 0.134347
0.189607 -0.276709 0.446301
0.141658 -0.297619 0.440612
-0.185046 -0.267708 0.332506
0.00602654 0.160364 0.446301
0.0258399 0.16989 0.410569
-0.0687193 0.0504167 0.446301
-0.340363 -0.150055 0.418019
0.0460432 0.230153 0.410569
0.311496 -0.12687 0.410569
-0.315408 0.232297 0.410569
0.0813636 0.117468 0.446301
-0.256384 0.256797 0.0871147
0.337742 -0.0330701 0.41145
-0.349003 -0.0515376 0.439636
-0.0603054 0.00307494 0.410569
0.0867383 -0.26127 0.282796
-0.284483 -0.0160244 0.410569
0.30879 -0.249857 0.243597
-0.319915 0.144557 0.446301
0.180018 -0.292973 0.428987
-0.171121 0.0323651 0.410569
0.15391 -0.261508 0.141834
0.300828 0.265203 0.39652
0.000162035 -0.115027 0.446301
0.304132 -0.258069 0.390396
0.249196 -0.1948 0.410569
-0.0393639 0.122474 0.446301
0.0698871 0.283766 0.410569
0.327857 -0.247955 0.410569
0.344883 -0.134402 0.429329
-0.149818 0.275909 0.410569
-0.322158 -0.109044 0.304869
0.164486 -0.062538 0.410569
0.266894 -0.002507 0.446301
0.111678 -0.257193 0.287782
-0.0788236 -0.108662 0.446301
0.0967354 -0.180404 0.446301
-0.292332 -0.244009 0.409053
0.215246 -0.259436 0.410569
0.242531 -0.295016 0.434099
0.0826741 -0.293892 0.431286
0.0966054 -0.287695 0.415784
-0.15461 0.223785 0.410569
0.302149 -0.254723 0.184795
-0.345438 0.207756 0.446301
0.306362 -0.0984723 0.00951551
0.195851 0.273338 0.410569
-0.105157 0.0714544 0.446301
-0.102584 0.20822 0.446301
0.214974 0.154219 0.410569
0.108828 -0.00729543 0.410569
-0.115302 -0.0217984 0.410569
0.298603 -0.251104 0.0391765
0.19392 -0.00766703 0.446301
-0.298907 0.104155 0.00343414
-0.198149 -0.154127 0.446301
0.207642 0.146585 0.446301
-0.309403 -0.133654 0.149002
0.308333 -0.153604 0.0041948
-0.0204746 0.0948115 0.410569
0.242512 0.0965266 0.446301
-0.00790128 -0.292971 0.428983
0.119379 0.285559 0.410569
0.323036 0.081611 0.410569
-0.150446 0.0693384 0.410569
0.138324 0.254454 0.16044
-0.335141 0.237457 0.410569
-0.187331 0.229184 0.446301
-0.314833 -0.0398717 0.446301
-0.118009 -0.198898 0.446301
-0.0561882 -0.271771 0.446301
-0.219549 0.25423 0.351581
-0.153547 0.25958 0.446301
-0.193564 0.193093 0.446301
0.151796 -0.0778133 0.446301
0.0101618 0.133979 0.410569
0.282993 -0.227438 0.410569
-0.330871 0.0688885 0.410569
-0.0343379 -0.125482 0.446301
0.301332 0.196224 0.000889224
-0.115168 -0.252208 0.168103
-0.320742 -0.102236 0.304541
-0.310341 0.0470596 0.258904
0.304482 -0.028643 0.252856
0.0550517 0.239089 0.446301
-0.311571 -0.143957 0.410569
0.0827889 -0.0928985 0.446301
-0.170244 -0.201503 0.410569
0.19927 0.193039 0.446301
0.348053 0.0939741 0.437258
-0.29842 -0.250658 0.153428
0.247744 0.181952 0.410569
0.155324 0.0548427 0.446301
-0.116582 0.259271 0.171357
-0.160762 0.25953 0.325001
0.106048 0.122436 0.446301
-0.351404 -0.173482 0.445642
0.287836 0.141218 0.446301
0.337338 0.076515 0.446301
-0.0962996 -0.119164 0.410569
-0.112499 0.227232 0.410569
-0.110791 0.299755 0.445956
0.242922 -0.26504 0.446301
0.0768581 0.247996 0.410569
0.166248 0.0342534 0.410569
0.193769 0.26469 0.33178
-0.239616 0.0995335 0.410569
0.314083 0.156014 0.446301
0.0370863 -0.273939 0.410569
-0.308473 0.0636974 0.00618956
-0.198218 -0.26369 0.344918
0.0399254 0.258647 0.446301
0.318055 0.0977819 0.303259
0.219113 -0.0420293 0.446301
-0.0834669 -0.160528 0.446301
-0.147173 -0.149839 0.410569
0.31265 0.0924601 0.295496
-0.264047 -0.250195 0.410569
0.181158 0.221605 0.446301
0.214037 -0.225212 0.410569
0.0324392 0.265218 0.257024
-0.0163859 0.206749 0.446301
-0.310327 -0.213143 0.37446
-0.258328 -0.00472772 0.410569
0.26868 0.271364 0.410569
0.111162 0.0124501 0.446301
-0.0264859 0.156789 0.446301
0.213455 0.053972 0.446301
-0.110306 -0.180811 0.446301
0.302292 -0.20792 0.410569
-0.0594165 0.28491 0.410569
0.0279058 0.26343 0.446301
0.0264964 0.10912 0.446301
0.143069 -0.0847016 0.446301
-0.285419 0.117048 0.410569
-0.00283402 0.179438 0.410569
0.00694385 0.157565 0.410569
-0.019646 -0.00319871 0.410569
0.219548 -0.10673 0.410569
0.283012 -0.161212 0.446301
0.212836 0.213429 0.410569
0.0910517 0.00811505 0.410569
-0.289288 0.165771 0.410569
-0.0132588 -0.161252 0.446301
0.153562 -0.287141 0.414396
0.0297888 -0.289032 0.419127
-0.127547 -0.133512 0.446301
-0.212946 0.228022 0.446301
0.235078 -0.269143 0.410569
0.0380034 -0.165506 0.446301
0.276376 0.167099 0.446301
-0.174931 -0.196101 0.410569
0.303435 -0.110958 1.6932e-05
0.0619898 -0.295668 0.435731
-0.342997 0.250468 0.42461
-0.0305838 0.150849 0.446301
0.117856 -0.0897734 0.446301
-0.121848 0.177456 0.410569
0.102061 0.161599 0.410569
0.0916424 0.0044955 0.446301
0.0482203 0.140408 0.410569
-0.0414699 -0.110435 0.446301
0.178191 -0.277504 0.410569
0.283278 -0.292468 0.446301
0.233939 -0.297449 0.446301
-0.0518667 -0.0495859 0.446301
-0.337114 0.240932 0.446301
0.317192 -0.0353839 0.410569
-0.251545 -0.0467768 0.410569
-0.0118982 0.261307 0.224741
0.202196 -0.250808 0.446301
0.0278336 -0.182251 0.410569
-0.139953 -0.0806733 0.446301
-0.0627525 -0.123598 0.446301
0.270226 0.0606189 0.446301
0.322363 -0.0955331 0.167764
-0.192279 -0.190332 0.410569
-0.120818 -0.102738 0.410569
-0.166194 -0.0686025 0.446301
-0.060983 0.287227 0.414612
-0.105053 -0.221419 0.446301
-0.119226 -0.102662 0.446301
0.0118899 -0.292719 0.428352
-0.30728 0.249826 0.0112086
-0.0600006 0.270148 0.410569
-0.138496 -0.139007 0.446301
0.240917 0.0823649 0.446301
-0.192539 0.187822 0.446301
-0.0850388 0.0529074 0.410569
0.00204176 -0.148436 0.446301
0.0569688 0.260433 0.261913
0.241671 0.0619034 0.410569
0.0515714 -0.2848 0.410569
-0.0301371 0.163097 0.410569
0.314459 0.0816497 0.29145
0.350584 -0.0345551 0.443593
-0.315546 0.198978 0.367977
0.310169 0.078968 0.410569
0.30169 0.244974 0.397486
-0.25226 -0.0227997 0.446301
0.123798 0.267663 0.303377
0.257213 0.233609 0.446301
-0.232811 0.264344 0.357792
0.0345189 0.205445 0.446301
0.304759 0.246248 0.446301
-0.320387 -0.144799 0.32392
-0.318752 0.0768367 0.188078
0.202303 -0.0869591 0.446301
0.275984 -0.266996 0.410569
0.307674 -0.05023 0.272362
0.00527331 -0.232802 0.410569
0.0281653 -0.134144 0.410569
-0.0724346 -0.156362 0.410569
0.310108 -0.235298 0.0708192
0.12383 0.0282561 0.446301
0.106726 -0.13972 0.446301
-0.31501 -0.129253 0.323607
0.171226 -0.19402 0.446301
-0.104624 0.269857 0.410569
-0.266167 0.021603 0.446301
0.302244 0.254762 0.298769
0.346927 -0.00634819 0.434442
0.015149 -0.11493 0.410569
0.333003 -0.157692 0.446301
0.204665 0.278473 0.446301
