-0.27385 0.128506 0.446301
-0.337778 0.279476 0.430646
-0.156202 0.130042 0.410569
0.19414 -0.144701 0.446301
-0.165439 -0.210992 0.446301
-0.021543 -0.0446006 0.446301
0.0648695 0.235082 0.410569
-0.140963 -0.151184 0.446301
-0.305752 -0.0448581 0.20765
0.0353398 -0.270401 0.215006
0.284331 0.240808 0.446301
-0.314073 0.0246794 0.253054
-0.222334 -0.276111 0.446301
-0.0446461 -0.187947 0.446301
0.0981326 0.0565185 0.446301
0.260389 -0.142269 0.446301
0.298178 -0.0639655 0.00521585
-0.32633 -0.278094 0.446301
-0.0705812 0.06862 0.446301
-0.080006 0.131754 0.446301
0.00253248 0.0991174 0.446301
-0.0949555 -0.229215 0.410569
0.323335 -0.0210904 0.223479
-0.186791 0.261815 0.446301
-0.220796 -0.0207192 0.446301
0.343347 -0.158041 0.425485
-0.292816 0.0974438 0.446301
-0.13972 -0.185108 0.410569
0.302611 -0.254914 0.111411
-0.232341 -0.256191 0.410569
-0.15356 0.00656652 0.410569
0.324126 0.19983 0.446301
-0.125241 -0.0459474 0.446301
-0.282127 0.00474206 0.410569
-0.184028 0.112483 0.446301
0.223756 0.157655 0.446301
0.130451 0.123978 0.446301
-0.184964 -0.0717106 0.446301
0.306391 0.209615 0.410569
0.0488869 -0.000526726 0.410569
-0.132104 0.201032 0.446301
-0.303326 0.125465 0.410569
-0.0371959 0.165329 0.446301
-0.192143 -0.193336 0.410569
-0.330851 -0.0556527 0.446301
-0.0272754 0.19147 0.446301
0.266756 0.0550524 0.446301
0.112769 0.0730121 0.410569
0.229124 0.222824 0.446301
0.193233 -0.299073 0.444248
-0.0819859 0.181217 0.410569
0.170681 -0.181633 0.410569
0.350819 0.0981679 0.444178
-0.0470414 0.0963818 0.410569
0.16901 -0.0963683 0.410569
-0.105368 -0.298331 0.442394
0.00365046 0.252727 0.446301
0.209666 -0.261679 0.350667
0.0332242 -0.130342 0.410569
-0.351574 -0.177135 0.446067
0.158744 0.0512048 0.410569
0.0306731 0.269149 0.410569
0.307161 0.0370717 0.20371
-0.302493 -0.155622 0.446301
-0.299262 -0.252711 0.363867
-0.184552 -0.241049 0.410569
-0.318818 -0.233681 0.0773232
0.314098 -0.112933 0.162202
-0.000139296 -0.107178 0.446301
-0.198303 0.0158313 0.410569
0.107146 0.288219 0.417095
-0.195128 -0.247065 0.446301
-0.128981 0.297272 0.439743
-0.270097 0.268732 0.410569
0.167292 0.26367 0.446301
-0.302285 -0.254779 0.254753
-0.278369 -0.276995 0.446301
0.0381007 0.0308321 0.446301
-0.0120089 -0.222372 0.410569
0.254857 -0.174929 0.410569
-0.27846 -0.177784 0.410569
0.275937 0.256981 0.38417
0.116768 -0.042757 0.410569
0.340931 -0.00361949 0.419433
-0.300365 -0.230434 0.446301
0.015215 -0.190023 0.446301
0.00848603 -0.0175148 0.410569
0.294609 -0.258032 0.385318
-0.304104 0.175995 0.410569
-0.155048 0.250844 0.410569
0.266883 -0.205933 0.410569
0.292426 0.272711 0.410569
0.0389464 0.292164 0.426963
0.0366046 -0.208986 0.410569
-0.0794947 -0.151714 0.446301
-0.0881909 -0.036102 0.410569
0.0465619 0.160263 0.446301
0.164509 -0.0723782 0.446301
-0.348799 -0.0945705 0.439126
0.153912 -0.170312 0.446301
0.326062 -0.116971 0.410569
-0.106299 0.0863187 0.410569
0.259536 -0.162598 0.446301
0.304027 -0.161325 0.000231404
0.305051 -0.254611 0.21777
-0.208841 0.0456602 0.446301
0.131139 -0.0222061 0.446301
-0.299597 0.25353 0.296396
0.198505 -0.0395799 0.410569
-0.125376 0.093496 0.410569
-0.0360769 0.29015 0.421925
-0.268695 -0.0143493 0.446301
0.045929 -0.0936552 0.410569
-0.299714 -0.0561541 0.410569
-0.236633 -0.0715433 0.410569
0.342885 0.224828 0.424312
0.320192 0.0716841 0.274976
0.118246 0.0311043 0.446301
0.0379975 -0.28207 0.446301
0.092454 0.255595 0.187882
0.0806294 0.0974482 0.446301
0.336698 0.160386 0.410569
0.346976 0.136323 0.446301
0.265956 0.020956 0.410569
-0.209574 0.224177 0.410569
-0.0359051 0.0877359 0.446301
-0.206914 0.182317 0.446301
-0.179195 0.197589 0.410569
-0.10633 -0.252075 0.173315
-0.268012 -0.165818 0.446301
0.310227 0.20534 0.367061
-0.245258 0.264243 0.446301
0.321589 0.136274 0.322603
-0.255316 0.0856592 0.410569
-0.312071 0.115097 0.155051
-0.147249 0.0236286 0.446301
0.154407 -0.0309624 0.410569
-0.316662 0.249692 0.389829
-0.278683 -0.251181 0.410569
0.192964 -0.0708791 0.446301
0.175291 -0.218325 0.446301
-0.0537842 0.00399905 0.446301
-0.263296 0.0372764 0.410569
-0.0426191 -0.16318 0.410569
0.125325 0.169416 0.446301
0.261399 -0.12127 0.410569
-0.0857382 0.23494 0.446301
0.0302259 0.0546936 0.410569
0.0298893 0.271832 0.446301
0.31087 0.122854 0.144738
0.288779 0.100636 0.410569
-0.117811 0.0391688 0.410569
0.299214 0.252595 0.307664
-0.233731 -0.00844371 0.410569
-0.326778 0.00385842 0.410569
0.0732411 -0.210413 0.410569
-0.167184 -0.178818 0.446301
0.306931 -0.047527 0.410569
-0.339095 -0.182406 0.414847
-0.0325735 -0.265906 0.410569
0.272895 0.093376 0.446301
0.0937338 -0.157649 0.446301
-0.26208 0.165836 0.446301
-0.324747 0.150697 0.446301
-0.34939 0.189083 0.446301
-0.117319 -0.229832 0.446301
-0.30755 0.246868 0.115629
-0.209216 -0.138823 0.410569
0.0234266 0.0798888 0.410569
0.0903382 0.120219 0.410569
-0.0181682 0.0667265 0.410569
0.1887 -0.0598055 0.410569
-0.298886 0.166513 0.00348346
0.163772 0.25333 0.143399
-0.317416 0.129206 0.446301
0.319352 -0.0634265 0.446301
-0.146791 -0.299522 0.445374
0.0857934 -0.243025 0.410569
0.0926149 -0.211894 0.446301
0.21957 0.0307874 0.410569
0.0808963 0.185601 0.446301
0.348812 -0.0964497 0.439157
-0.310576 0.187011 0.106936
0.325986 0.017404 0.410569
0.196153 0.0908109 0.410569
-0.311212 -0.0992893 0.410569
0.0434662 0.11693 0.446301
-0.323926 0.0560009 0.446301
-0.0772632 -0.0767222 0.410569
0.0556937 -0.286977 0.413987
-0.178167 -0.0193682 0.446301
-0.0789614 -0.012764 0.410569
0.314961 -0.0599837 0.271104
-0.096931 0.218401 0.410569
0.110384 -0.160616 0.410569
0.220361 0.299554 0.445454
0.0700789 -0.0816691 0.446301
0.306397 0.254045 0.100978
0.307317 -0.218491 0.410569
-0.190259 -0.133088 0.446301
0.240635 -0.096936 0.410569
0.176438 -0.141736 0.410569
-0.329723 0.089403 0.410569
0.211354 -0.0119028 0.446301
0.110184 -0.268932 0.446301
-0.306736 0.245911 0.194843
0.309851 -0.223742 0.0831879
0.315858 -0.20775 0.446301
0.102776 -0.00845939 0.410569
0.224282 0.0760356 0.410569
0.30274 -0.244841 0.0265973
0.111252 -0.290674 0.423235
0.260726 -0.0180751 0.446301
0.183576 0.138372 0.410569
-0.292333 -0.0144233 0.410569
0.0487823 0.192866 0.410569
-0.249647 -0.0993281 0.446301
0.349651 -0.235459 0.441257
-0.193644 0.128315 0.410569
0.294492 -0.261046 0.0737585
-0.075298 0.0275633 0.410569
-0.111871 0.107691 0.446301
-0.182015 -0.256933 0.125986
0.295708 -0.159408 0.446301
0.140088 0.22105 0.446301
0.0550258 -0.0293411 0.446301
0.234487 -0.0745604 0.446301
-0.0555154 -0.263585 0.446301
0.275894 0.229836 0.410569
0.154072 -0.259486 0.410569
-0.293474 0.0217032 0.446301
-0.268343 -0.0948653 0.410569
-0.103957 0.164036 0.446301
0.229678 0.191594 0.446301
0.27671 -0.256542 0.446301
-0.0212564 -0.0705966 0.410569
-0.0648513 -0.27041 0.410569
-0.346344 -0.0120147 0.446301
0.234972 0.262812 0.0974303
0.212927 0.0593439 0.446301
0.0462592 -0.105084 0.446301
-0.194264 0.0532624 0.410569
-0.108783 -0.0761419 0.446301
0.32257 0.288557 0.425643
0.346046 0.0658571 0.446301
-0.2178 -0.0511042 0.410569
-0.314989 0.17831 0.354844
0.190666 -0.212895 0.410569
-0.306599 0.122816 0.315965
0.193023 -0.254666 0.446301
-0.337371 -0.221221 0.410569
-0.3078 -0.247471 0.0446334
0.318162 0.208274 0.0901773
0.187462 0.162343 0.446301
-0.275972 -0.286256 0.412184
-0.0906754 -0.184691 0.410569
-0.0806698 -0.262928 0.282689
-0.227648 -0.0910105 0.446301
0.13639 -0.0997654 0.446301
0.246479 0.151919 0.410569
0.278223 -0.0462702 0.446301
0.33803 -0.193571 0.41218
-0.112407 0.268052 0.446301
0.250736 -0.292353 0.427436
0.0166308 -0.271617 0.410569
0.163134 -0.272382 0.446301
-0.117793 -0.0151835 0.446301
-0.348372 -0.2494 0.438058
-0.169558 0.0731199 0.446301
0.128153 -0.108739 0.410569
-0.105258 -0.258429 0.446301
-0.0955255 -0.109321 0.410569
-0.303832 -0.255124 0.168911
0.180479 0.0902503 0.446301
-0.0215676 -0.207364 0.446301
-0.243654 0.194327 0.446301
0.143357 0.26696 0.314288
-0.0723211 0.0995437 0.410569
0.209741 -0.24079 0.410569
-0.218241 0.260181 0.410569
-0.123951 -0.121749 0.446301
0.180224 0.225255 0.446301
0.0817454 0.167917 0.410569
0.297728 0.167143 0.446301
0.0125247 0.259045 0.222997
-0.111849 -0.0723793 0.410569
-0.163972 0.220214 0.446301
-0.157385 -0.234887 0.446301
0.023924 -0.254404 0.241349
0.215355 -0.178716 0.410569
-0.305371 0.289192 0.446301
0.346101 -0.00628173 0.446301
-0.106265 0.0492206 0.446301
0.242106 0.19091 0.410569
0.267078 -0.105906 0.446301
-0.302982 -0.173303 0.410569
-0.128558 0.22459 0.446301
-0.258783 -0.205602 0.446301
-0.0487611 0.209722 0.446301
0.219394 -0.293435 0.430145
0.0035986 0.270782 0.410569
-0.290649 0.240962 0.409461
-0.0573097 -0.0786597 0.446301
-0.0373933 0.0446436 0.410569
-0.0589709 0.264259 0.410569
-0.0278005 0.269631 0.446301
0.307694 0.0339397 0.00266808
-0.292362 0.256166 0.072136
-0.31814 -0.173446 0.351704
-0.133786 0.15819 0.410569
-0.243702 -0.167378 0.410569
-0.306256 -0.0581368 0.191095
0.00528952 -0.0700914 0.446301
0.17664 0.0550222 0.446301
-0.0019486 -0.142618 0.410569
-0.0427628 -0.257974 0.21547
-0.216742 -0.294242 0.432162
0.0671254 0.0359132 0.446301
-0.0514929 0.197675 0.410569
0.301427 -0.0786838 0.446301
-0.0157454 -0.139429 0.446301
0.0652442 0.268707 0.272242
0.0207191 -0.255199 0.446301
0.0574088 -0.255487 0.446301
0.29948 0.141456 0.410569
0.103148 -0.0394408 0.446301
0.101594 0.234187 0.410569
0.205111 0.260839 0.348886
0.216092 0.259949 0.410569
0.0880051 0.206879 0.446301
-0.109539 -0.134906 0.446301
-0.0492814 0.0426635 0.446301
0.174261 -0.125576 0.446301
-0.0870044 0.252082 0.282683
-0.260885 -0.235834 0.410569
-0.261622 -0.257695 0.0918833
-0.222354 0.0104177 0.446301
-0.0207329 0.141223 0.446301
-0.101137 0.0860023 0.446301
-0.350602 -0.117916 0.443636
0.339737 0.0580513 0.416439
0.120402 0.108277 0.410569
-0.339756 -0.142652 0.446301
0.185907 0.293938 0.446301
-0.302851 0.250741 0.00993844
0.264561 -0.0509005 0.410569
0.308114 0.0328112 0.446301
0.30974 0.243881 0.39424
0.0975904 -0.106297 0.446301
-0.233105 0.159709 0.410569
-0.186106 -0.0653882 0.410569
-0.311066 -0.00515955 0.225234
-0.338011 -0.269937 0.421128
0.0797417 0.24881 0.446301
-0.249837 0.0647065 0.446301
-0.125873 0.241912 0.410569
0.289068 0.294463 0.432716
0.00526127 0.17861 0.446301
0.307414 0.101916 0.446301
0.0757539 -0.0794363 0.410569
-0.279828 0.222503 0.410569
-0.133431 -0.264691 0.310516
-0.203109 -0.042451 0.446301
0.0671979 0.29892 0.446301
0.316475 -0.234987 0.390942
0.331325 -0.0461725 0.410569
-0.0532783 -0.13448 0.446301
-0.0314783 0.172191 0.410569
-0.252889 0.289937 0.421392
0.011497 -0.0717574 0.410569
0.293977 -0.122784 0.410569
-0.300843 0.0952182 0.410569
0.141487 0.0802425 0.410569
-0.340764 0.211919 0.419023
-0.0193284 0.00360745 0.446301
0.254399 0.265278 0.410569
-0.145651 0.102214 0.446301
-0.116703 -0.254523 0.410569
0.0625207 0.109151 0.410569
0.298671 -0.25127 0.295543
0.101061 0.0416533 0.410569
-0.128067 -0.144334 0.410569
0.11273 0.201072 0.446301
-0.160254 0.289796 0.446301
0.329004 0.168233 0.446301
-0.0303188 0.260868 0.250871
0.115931 -0.26071 0.173039
-0.225541 0.257341 0.109806
-0.198468 0.157103 0.446301
-0.072272 -0.198195 0.446301
-0.175916 -0.211043 0.410569
0.311994 -0.172873 0.351586
-0.186798 -0.276112 0.446301
-0.148731 -0.247489 0.410569
0.175879 -0.265463 0.140335
-0.210796 -0.217852 0.446301
0.139585 0.211948 0.410569
-0.0276275 -0.280846 0.446301
0.0601452 0.227395 0.446301
-0.30002 0.245973 0.369517
-0.312477 -0.130749 0.139281
0.117877 0.0879377 0.446301
0.18441 -0.000772536 0.446301
-0.0235327 -0.0253926 0.410569
-0.220388 -0.107466 0.410569
0.123072 0.279541 0.446301
-0.310658 -0.0740603 0.446301
0.241999 0.0736287 0.446301
-0.238847 0.261843 0.356063
-0.0492801 0.267684 0.201448
-0.347579 0.257303 0.446301
0.0838335 -0.257454 0.272885
0.205931 -0.208656 0.446301
-0.221897 -0.284673 0.410569
-0.0462223 -0.0291754 0.446301
-0.224595 0.0669544 0.410569
-0.0801538 0.271293 0.446301
-0.0127985 0.224334 0.446301
-0.204812 0.0997061 0.410569
-0.0452742 0.241615 0.410569
0.156167 0.255932 0.410569
-0.310201 -0.237461 0.390524
-0.213857 -0.222977 0.410569
0.230235 -0.262983 0.0984172
0.316307 -0.119624 0.311091
-0.293486 -0.173473 0.446301
-0.301705 -0.0573873 0.00998243
-0.297673 0.194689 0.446301
0.341893 0.127959 0.421836
0.307184 0.225487 0.00155836
-0.325755 0.0838507 0.446301
0.235371 -0.188132 0.446301
0.224324 -0.156305 0.446301
-0.0286454 -0.261534 0.252983
0.224711 0.125321 0.446301
-0.0289467 -0.201249 0.410569
0.0323847 0.108102 0.410569
-0.248022 0.224441 0.446301
0.341325 0.259967 0.422479
-0.00944096 0.0608914 0.446301
-0.316137 0.244789 0.061441
-0.210633 -0.0188605 0.410569
0.159747 -0.29923 0.446301
-0.29762 -0.0469096 0.446301
0.165931 0.0169711 0.410569
0.298752 0.104746 0.00691084
-0.301436 -0.212693 0.000846415
0.0155936 0.079287 0.446301
-0.311432 -0.148696 0.331012
0.260174 0.217374 0.446301
0.0337426 -0.180315 0.410569
-0.316597 -0.245871 0.446301
-0.302103 -0.142258 0.0101432
0.123732 -0.220458 0.446301
-0.0527918 0.299254 0.444703
0.158885 -0.00724223 0.446301
-0.0179125 0.00372449 0.410569
-0.143148 -0.0372035 0.410569
-0.276487 -0.0706079 0.410569
0.298679 0.0413976 0.410569
-0.344654 0.066474 0.428756
0.302095 0.260857 0.0581536
0.248275 0.150295 0.446301
-0.31529 -0.0550526 0.265292
0.302472 -0.291084 0.424261
0.0792946 0.19074 0.410569
0.00990725 0.0368393 0.446301
0.309514 -0.276702 0.446301
0.306941 0.245995 0.169458
-0.111385 -0.202827 0.410569
-0.294062 -0.265388 0.387287
-0.146125 0.0305125 0.410569
-0.307274 0.0280635 0.410569
0.0225435 -0.161721 0.410569
-0.0704244 0.268373 0.198339
-0.154414 -0.12205 0.446301
0.126791 -0.262995 0.410569
-0.130914 0.0402727 0.446301
-0.159799 -0.0932137 0.410569
0.321156 -0.148829 0.410569
-0.305628 -0.254369 0.105501
0.318646 -0.0967537 0.410569
0.241716 -0.285873 0.446301
-0.305761 0.254313 0.222639
-0.322356 -0.101316 0.301041
0.109184 -0.237003 0.446301
0.306994 -0.187884 0.410569
-0.241596 -0.295717 0.446301
0.121988 0.261007 0.410569
0.304025 -0.00546897 0.238732
0.135495 -0.260567 0.310989
-0.164615 0.243255 0.446301
0.00702226 -0.228081 0.446301
0.2018 0.199565 0.410569
-0.317837 0.152165 0.410569
-0.199642 0.293927 0.446301
0.103363 0.109597 0.446301
0.30523 0.0639681 0.190516
0.0411451 -0.154367 0.446301
-0.287567 0.201439 0.410569
0.230336 0.285942 0.411397
-0.0836615 -0.255608 0.410569
-0.204546 -0.158295 0.410569
-0.319034 0.244851 0.446301
0.125886 0.0476697 0.410569
-0.191333 -0.267483 0.334599
0.027927 0.0249931 0.410569
-0.173155 0.154712 0.410569
-0.0693781 0.104827 0.446301
-0.182045 0.263083 0.410569
-0.173901 0.0341549 0.410569
-0.0103375 -0.0442965 0.410569
-0.180093 0.0493852 0.446301
-0.32214 0.0498739 0.196547
0.0722274 -0.128856 0.410569
-0.098101 -0.138113 0.410569
0.111928 -0.239874 0.410569
0.341622 0.0822618 0.421159
0.233002 0.100184 0.410569
-0.0316452 0.121207 0.410569
0.1165 -0.288569 0.446301
0.222207 -5.51641e-05 0.410569
-0.0597071 0.16567 0.446301
0.102328 0.299359 0.444965
-0.312575 -0.230371 0.410569
-0.129366 0.28641 0.412569
0.338127 -0.0885286 0.412416
0.142706 0.288868 0.418718
-0.0438689 0.133399 0.446301
0.0162152 -0.231838 0.410569
0.186971 0.202108 0.446301
-0.323013 -0.176441 0.446301
-0.163914 -0.0847017 0.446301
0.268675 -0.234451 0.446301
0.3101 -0.253224 0.410569
-0.241249 -0.266861 0.363887
-0.0820226 0.0438484 0.446301
0.0769075 -0.00580394 0.410569
-0.0606604 0.228624 0.446301
-0.00503626 -0.173011 0.446301
-0.31414 0.0497803 0.269792
-0.266868 0.166037 0.410569
0.308606 0.261056 0.410569
0.300225 0.166183 0.00938297
0.318551 -0.146892 0.446301
-0.308659 0.0956225 0.00497282
0.333597 0.233828 0.446301
-0.343434 0.237503 0.425703
0.109813 -0.0873545 0.410569
-0.183337 -0.00322193 0.410569
0.00800493 -0.280898 0.446301
-0.29936 0.25295 0.141887
-0.0844295 -0.280239 0.446301
-0.274043 -0.0903256 0.446301
0.301854 -0.0361039 0.000672845
0.0152952 0.124553 0.446301
0.347976 -0.263656 0.438223
0.170553 -0.232887 0.410569
0.327651 0.0520599 0.446301
-0.317382 0.129329 0.140272
0.345587 0.172941 0.431082
-0.347677 -0.0446393 0.436318
-0.115365 -0.0442748 0.410569
-0.153757 0.266313 0.446301
-0.12166 0.177661 0.410569
0.0363179 -0.293632 0.430636
-0.181047 -0.161227 0.446301
0.198078 0.247907 0.446301
-0.295863 -0.297143 0.43942
-0.0520363 0.0678965 0.410569
0.254236 0.25663 0.370239
-0.101152 0.218619 0.446301
0.0930267 0.0197898 0.446301
-0.235352 0.286398 0.446301
0.267697 0.291249 0.446301
-0.303842 0.255119 0.0909191
-0.0343695 -0.238984 0.410569
0.315497 -0.168336 0.113675
-0.335361 -0.109583 0.410569
0.164574 0.163416 0.446301
0.0623783 -0.259746 0.410569
-0.251794 0.111078 0.446301
-0.255289 -0.263773 0.410569
-0.325228 -0.0452324 0.410569
0.00424978 -0.0315004 0.446301
0.186528 0.0277824 0.410569
-0.317884 -0.295892 0.438614
-0.256282 0.00974149 0.446301
0.341273 -0.132104 0.420297
0.330198 0.193753 0.410569
0.00288697 0.269999 0.238824
0.245089 -0.120503 0.446301
-0.22094 -0.0662911 0.446301
0.170697 0.164547 0.410569
0.287192 -0.18497 0.410569
-0.109051 0.133912 0.446301
0.315592 -0.0454322 0.208352
-0.329971 0.0123957 0.446301
0.201956 -0.0446751 0.446301
-0.0578598 -0.107064 0.446301
-0.162713 0.0016903 0.446301
0.317304 0.00811344 0.446301
0.0796172 -0.0408139 0.446301
0.11419 -0.154336 0.446301
0.242325 0.247786 0.410569
0.189335 -0.261603 0.330305
0.303342 -0.0911201 5.56963e-05
0.00887007 0.290828 0.423622
0.350318 -0.191934 0.442926
0.163921 -0.0995438 0.446301
0.302865 -0.231745 0.446301
-0.0983075 0.161747 0.410569
-0.120767 0.0724894 0.410569
-0.128956 -0.287731 0.415874
0.298792 0.248272 0.334495
0.273545 -0.2326 0.410569
-0.23828 0.212192 0.410569
-0.164512 0.261969 0.325159
0.290799 0.0733559 0.410569
0.265861 -0.15313 0.410569
0.0573759 -0.187048 0.410569
0.108282 0.143416 0.446301
0.145837 0.247902 0.446301
-0.305832 -0.254283 0.2756
0.0730724 0.0665152 0.446301
-0.3052 -0.254548 0.0772804
-0.251789 -0.270488 0.446301
-0.215645 -0.136382 0.446301
0.250399 0.119128 0.446301
0.207597 0.177871 0.446301
-0.271187 0.264475 0.446301
-0.279641 -0.196809 0.446301
0.152843 -0.203858 0.446301
0.31743 0.178653 0.410569
0.0648572 -0.26584 0.203148
0.186049 0.113592 0.410569
0.238296 -0.00675496 0.446301
-0.341499 -0.243625 0.420863
-0.0745164 0.249826 0.410569
-0.00780621 -0.247992 0.410569
-0.157471 0.21254 0.410569
0.24077 0.0483442 0.446301
0.00359628 0.0524751 0.410569
0.288554 0.215496 0.446301
-0.083574 -0.253531 0.446301
0.040991 -0.203236 0.446301
-0.0597211 -0.0859918 0.410569
0.340567 0.116747 0.446301
-0.149361 0.276514 0.410569
-0.346449 0.122821 0.446301
0.267007 0.270441 0.446301
0.300757 -0.18465 0.00959831
-0.235704 0.168474 0.446301
0.0188779 -0.163659 0.446301
-0.167333 0.104484 0.410569
-0.328945 0.286817 0.446301
-0.270231 -0.128992 0.446301
0.307487 -0.246717 0.132475
-0.327183 0.264959 0.410569
-0.275768 0.18836 0.446301
0.0189199 0.190527 0.410569
-0.264413 -0.201189 0.410569
0.152495 -0.281722 0.410569
-0.263158 -0.296232 0.43714
0.243794 0.0427174 0.410569
0.304136 -0.0735325 0.410569
0.127706 -0.0656753 0.410569
0.147838 -0.194181 0.410569
-0.221955 0.184538 0.410569
0.0895774 0.0811199 0.410569
0.110358 -0.128015 0.410569
-0.124582 -0.286236 0.446301
0.134593 -0.170612 0.410569
-0.00350142 0.239065 0.410569
0.176244 0.0738163 0.410569
0.205366 -0.283872 0.410569
-0.267471 0.108647 0.410569
-0.0779032 -0.292784 0.428515
-0.162902 -0.166755 0.410569
0.063364 0.261123 0.410569
0.0463926 -0.151604 0.410569
0.162048 0.295485 0.435272
0.139942 -0.0737204 0.446301
0.113344 -0.00340796 0.446301
-0.156852 0.0511004 0.446301
0.212573 -0.0822344 0.410569
0.174882 -0.0288891 0.410569
0.275122 0.202197 0.410569
0.148191 0.0443481 0.446301
-0.092781 -0.174634 0.446301
0.0034205 0.208314 0.410569
0.292339 -0.137139 0.446301
0.318461 -0.0154781 0.410569
-0.0365587 -0.0652929 0.446301
-0.0363454 -0.0907594 0.410569
-0.153467 -0.107948 0.410569
-0.0780703 -0.0625677 0.446301
0.116744 -0.129494 0.446301
-0.302967 0.0711367 0.010493
-0.0647987 -0.176354 0.410569
-0.235509 -0.217731 0.446301
0.0604894 0.188817 0.446301
0.234071 0.0133133 0.446301
-0.15515 0.119227 0.446301
0.00925949 0.00306496 0.410569
-0.0523155 0.188371 0.446301
0.140532 0.123871 0.410569
0.0900682 0.168073 0.446301
0.0255376 -0.102575 0.410569
-0.176758 -0.0485031 0.446301
0.178531 -0.118706 0.410569
-0.0738978 0.0133314 0.446301
-0.266697 0.0833178 0.446301
0.0667213 0.116438 0.446301
0.0879326 -0.271338 0.446301
0.27081 -0.261876 0.383408
-0.286748 -0.152341 0.410569
0.1296 0.0637082 0.446301
-0.0978734 -0.215789 0.446301
0.179687 -0.289413 0.420082
0.220035 0.246623 0.446301
0.0983882 0.259049 0.410569
0.132653 -0.0460199 0.446301
0.0942595 0.017204 0.410569
-0.253321 -0.0344459 0.446301
0.0113697 -0.266453 0.233353
0.191002 0.140465 0.446301
0.345278 0.21754 0.446301
-0.228348 -0.128 0.410569
-0.241531 -0.260836 0.103474
0.138507 0.147871 0.446301
-0.297564 -0.25524 0.446301
0.082904 -0.287205 0.414556
0.23308 0.102185 0.446301
0.287153 -0.183895 0.446301
-0.171098 -0.262315 0.410569
0.289797 0.0129153 0.410569
0.243333 -0.197168 0.410569
0.244375 0.0771692 0.410569
0.0944124 -0.0373453 0.410569
0.273895 -0.00625822 0.410569
-0.268097 -0.0206216 0.410569
0.31954 0.0843276 0.446301
-0.0546064 -0.0432315 0.410569
0.225161 -0.0976704 0.446301
-0.164492 0.177441 0.410569
-0.217352 0.136043 0.410569
-0.0383294 -0.285677 0.410735
-0.109139 0.294119 0.431856
0.29978 -0.246069 0.368655
0.318443 0.230548 0.378851
-0.321427 0.196064 0.410569
0.1386 -0.0435407 0.410569
-0.308204 -0.251395 0.341402
-0.344158 -0.205355 0.427515
-0.0342748 -0.245139 0.446301
0.0505292 0.0944324 0.446301
0.207399 0.0549433 0.410569
0.296536 -0.241659 0.410569
0.32327 -0.0909049 0.446301
0.182816 -0.19188 0.446301
0.233803 -0.261103 0.352789
-0.205455 -0.266377 0.410569
0.232389 -0.0283867 0.410569
-0.0193807 -0.119253 0.410569
-0.30278 0.254984 0.320438
-0.223659 0.254168 0.446301
-0.171511 -0.256936 0.446301
0.234882 -0.146619 0.410569
0.193789 0.107184 0.446301
0.0589568 0.262437 0.446301
0.294679 -0.271245 0.410569
-0.273914 -0.234593 0.446301
-0.317455 -0.192732 0.410569
0.0371583 0.155881 0.410569
-0.107098 -0.100959 0.446301
0.019114 -0.0493909 0.446301
-0.308547 -0.217294 0.0874717
0.183159 0.253424 0.129967
-0.114761 0.0135662 0.410569
0.102125 -0.180571 0.446301
-0.314783 -0.0225401 0.410569
0.318384 -0.0817613 0.172737
-0.125386 -0.208373 0.446301
-0.0187207 -0.159313 0.410569
-0.309862 0.0379335 0.446301
-0.188009 -0.0034087 0.446301
0.282966 -0.288934 0.418883
-0.110321 -0.162931 0.410569
-0.123121 0.0196717 0.446301
-0.207493 0.106416 0.446301
0.185801 -0.27775 0.446301
-0.253776 0.0150612 0.410569
0.308502 -0.250687 0.189593
-0.017017 -0.0222783 0.446301
0.110458 -0.190339 0.410569
-0.30477 -0.126807 0.446301
0.277274 -0.0787171 0.446301
-0.0868597 -0.261673 0.184066
-0.304546 -0.00557561 0.000449581
-0.297971 -0.0797388 0.410569
-0.33258 0.110382 0.410569
0.275653 0.156331 0.410569
-0.307008 -0.0263483 0.222154
0.177839 -0.169967 0.446301
-0.345532 -0.000741631 0.430952
-0.326864 0.181223 0.446301
-0.0558385 0.12269 0.410569
0.0496143 0.286892 0.446301
0.19306 -0.0896736 0.410569
-0.0114099 -0.0836606 0.446301
0.0625088 -0.282612 0.446301
0.0665395 -0.203381 0.446301
0.109129 0.262285 0.173556
0.20492 0.14497 0.410569
-0.236803 -0.228901 0.410569
-0.163589 -0.262919 0.139621
0.035475 0.184296 0.446301
-0.320867 0.169505 0.119088
0.310984 0.0207536 0.226314
0.3028 0.244848 0.245933
0.310906 0.298739 0.443415
-0.235839 -0.0319682 0.410569
0.0639803 0.291306 0.424818
-0.292145 -0.236214 0.409882
-0.286867 0.155211 0.410569
0.0137479 0.221843 0.446301
-0.216371 -0.248459 0.446301
-0.11171 0.186133 0.446301
0.0276451 -0.0907333 0.446301
0.327226 -0.0368272 0.446301
0.0490659 0.216355 0.410569
0.213014 -0.262521 0.410569
-0.330957 0.0247241 0.410569
0.326802 0.134413 0.410569
0.325255 0.223483 0.410569
0.14573 -0.0938835 0.410569
-0.202293 0.20121 0.410569
-0.012463 0.0889012 0.410569
0.303712 0.255174 0.07713
-0.343647 0.181754 0.426237
0.0788944 -0.187669 0.410569
0.156365 -0.046377 0.446301
-0.189868 0.2858 0.411041
-0.144118 -0.125829 0.410569
0.243052 0.0120489 0.410569
0.0514249 0.0451079 0.410569
-0.116722 0.262386 0.410569
-0.242353 0.137702 0.410569
-0.0860677 0.151577 0.446301
0.0288298 0.248586 0.446301
0.314315 0.108358 0.165208
0.350989 -0.0744189 0.446301
-0.348033 -0.0656022 0.43721
0.290974 -0.0291066 0.410569
-0.310927 0.0508822 0.410569
0.0151711 0.0123321 0.446301
-0.225467 -0.181618 0.410569
0.313449 -0.195882 0.354554
-0.325834 0.264627 0.446301
0.317199 0.120595 0.306171
0.0953046 0.142714 0.410569
-0.207164 0.067417 0.446301
-0.0143123 0.287282 0.414749
-0.206999 -0.192451 0.446301
-0.247283 -0.17585 0.446301
0.29346 0.245249 0.409031
-0.282816 -0.113474 0.410569
-0.141842 -0.0142718 0.410569
-0.186422 -0.203108 0.446301
-0.241084 0.258616 0.410569
0.181434 -0.163996 0.410569
-0.283715 0.083318 0.410569
0.254644 0.133573 0.410569
0.160718 -0.236551 0.446301
0.139463 0.00784084 0.446301
0.0967273 -0.0821725 0.446301
0.00126719 -0.20769 0.446301
-0.308061 0.025851 0.00717952
0.0530603 -0.23467 0.410569
-0.242691 -0.104181 0.410569
0.194658 0.252683 0.410569
-0.303875 0.255105 0.270306
0.307836 -0.25227 0.31903
-0.276182 0.266093 0.0783219
-0.298586 0.146758 0.446301
0.0295273 0.257667 0.211854
-0.308373 0.0701788 0.446301
-0.0482273 0.217509 0.410569
0.307193 -0.246098 0.237925
-0.244713 0.0571192 0.410569
-0.287012 -0.0225401 0.446301
0.340549 -0.026062 0.418478
0.239936 -0.125208 0.410569
-0.0900535 0.0106746 0.410569
-0.12866 -0.0809923 0.446301
0.264353 -0.100659 0.410569
0.0494939 0.260135 0.260413
-0.0533533 0.175413 0.410569
0.0861465 0.0993512 0.410569
0.076282 -0.171553 0.446301
-0.0188937 -0.295259 0.434706
0.34816 0.278416 0.445654
-0.146969 0.08913 0.410569
0.212233 0.108736 0.410569
0.0631907 -0.0610353 0.446301
-0.0575489 0.288091 0.416775
-0.0552534 0.0176615 0.410569
-0.111122 0.254185 0.28841
0.125171 0.237417 0.446301
0.290993 0.189409 0.446301
0.0100004 -0.211839 0.410569
0.319934 -0.13691 0.145642
-0.0591156 -0.157914 0.446301
0.133008 -0.0244106 0.410569
0.0912526 0.0790271 0.446301
-0.0961053 -0.237757 0.446301
0.0463873 0.0870915 0.410569
0.066293 -0.0242737 0.410569
-0.190704 -0.225265 0.446301
0.330361 -0.268432 0.446301
0.237851 -0.207816 0.446301
0.257393 -0.270753 0.446301
-0.228008 -0.112834 0.446301
0.270751 0.0775387 0.410569
-0.165768 -0.187644 0.410569
0.26532 -0.0739665 0.410569
-0.111903 0.110658 0.410569
-0.109578 0.244034 0.446301
-0.132103 -0.258173 0.165274
0.265716 -0.0290978 0.410569
0.303187 -0.23605 0.000751153
-0.277635 -0.219968 0.410569
0.320397 -0.000584433 0.228151
-0.135634 0.278105 0.446301
0.301728 -0.143638 0.0099915
-0.0157574 0.194544 0.410569
0.148262 0.262088 0.153558
-0.0605396 0.254962 0.446301
-0.163307 -0.0263387 0.410569
0.311588 0.155893 0.332058
-0.319342 0.198323 0.446301
0.301934 0.254633 0.0423585
0.250347 0.1977 0.446301
0.290515 0.14818 0.446301
-0.0376524 0.150761 0.410569
0.256578 -0.184746 0.446301
-0.343359 0.258193 0.426079
0.322969 0.0427274 0.258792
0.214277 -0.0792287 0.446301
0.334758 0.0369631 0.410569
-0.327543 -0.0135633 0.446301
0.255042 -0.250843 0.446301
0.308975 0.148071 0.138347
-0.0726942 0.0785865 0.410569
-0.00911033 0.164238 0.446301
-0.0899163 -0.130027 0.446301
-0.209851 0.284206 0.410569
0.336512 -0.171558 0.410569
0.0709372 -0.0999438 0.410569
0.0225634 0.291742 0.446301
-0.142844 -0.163886 0.410569
0.00150597 -0.286346 0.412408
-0.115144 -0.0925081 0.410569
-0.107846 -0.161667 0.446301
-0.212713 0.0384656 0.410569
0.144899 0.0255653 0.410569
0.306343 -0.245741 0.0783184
0.0980555 0.036025 0.446301
-0.00806466 -0.199016 0.410569
-0.0557987 -0.0472552 0.446301
-0.254522 0.297552 0.440444
0.31832 0.191915 0.352987
-0.0223455 0.119583 0.446301
-0.289748 0.28824 0.417146
0.196999 -0.227578 0.446301
0.312029 0.22664 0.0859363
-0.316972 -0.00765678 0.244941
0.308276 -0.0779992 0.278916
0.139215 0.190211 0.446301
-0.0401852 -0.118938 0.410569
0.322405 -0.0116741 0.446301
-0.0834526 -0.0911689 0.446301
-0.306171 0.00492597 0.410569
-0.163744 -0.233294 0.410569
0.159566 -0.129856 0.410569
-0.082183 -0.203523 0.410569
-0.343706 0.0914372 0.426383
0.294154 0.0853148 0.446301
-0.328148 0.0675185 0.410569
-0.191862 0.131524 0.446301
-0.340966 -0.081264 0.419528
-0.209078 -0.117197 0.446301
0.303974 -0.244745 0.0471291
-0.319063 -0.223691 0.374996
-0.0402728 0.021892 0.446301
-0.303389 -0.244572 0.151483
0.050705 0.17244 0.410569
0.175946 0.183653 0.446301
0.00162709 0.198366 0.446301
-0.32906 -0.16508 0.410569
0.0888329 -0.0222634 0.446301
0.21309 -0.0544113 0.410569
-0.078541 0.211404 0.446301
0.207395 0.230627 0.446301
-0.0104089 -0.26933 0.243538
0.194965 0.0306489 0.446301
-0.34813 -0.225866 0.437452
0.173222 -0.072917 0.410569
0.0218342 0.105798 0.446301
-0.2859 -0.141823 0.446301
-0.256339 -0.076154 0.410569
-0.18308 0.235138 0.446301
0.321512 0.253438 0.446301
-0.132326 0.260638 0.163989
-0.284277 0.179655 0.410569
0.0350037 -0.0278813 0.446301
-0.00780186 -0.284113 0.446301
-0.145446 0.235523 0.446301
0.0578839 -0.068792 0.410569
0.153823 0.194865 0.410569
0.0854861 -0.0605507 0.410569
-0.315706 0.205269 0.100427
-0.0173302 0.0445471 0.410569
-0.33559 -0.260301 0.446301
-0.0614402 -0.0224367 0.410569
0.345227 -0.201466 0.430189
0.289896 -0.0595169 0.410569
-0.0936197 0.237916 0.410569
-0.232523 0.0547484 0.446301
0.170762 -0.211591 0.410569
-0.318525 -0.100163 0.446301
0.0383202 -0.264477 0.446301
-0.300185 0.231089 0.00936704
0.0538485 0.278577 0.410569
0.213922 0.221424 0.410569
0.235187 -0.176843 0.410569
0.174759 -0.148508 0.446301
0.220877 0.240695 0.410569
-0.02309 -0.229546 0.446301
0.29527 0.256569 0.388026
-0.0308577 0.0818258 0.410569
0.191719 0.0740777 0.446301
0.312176 -0.26222 0.0601275
0.31933 0.277546 0.410569
-0.345894 0.0753119 0.446301
-0.313388 0.00879413 0.237073
-0.187904 -0.143855 0.410569
-0.0623797 -0.106513 0.410569
0.338127 0.0994941 0.412406
0.0759629 0.141927 0.410569
0.168015 -0.00255162 0.410569
-0.275197 0.0149898 0.446301
0.217796 -0.282404 0.446301
0.210573 0.291981 0.426506
-0.0969135 0.299812 0.446098
-0.309652 0.243099 0.410569
0.213786 -0.139802 0.446301
-0.146641 -0.290844 0.423662
-0.136667 0.131214 0.410569
0.286291 0.0557526 0.446301
-0.203822 -0.0901517 0.410569
0.0418891 0.136385 0.446301
-0.132898 0.00278136 0.446301
0.178324 0.241212 0.410569
-0.318338 -0.252142 0.060367
0.165113 0.214771 0.446301
-0.0937771 -0.0650651 0.410569
-0.216458 -0.0705388 0.410569
0.260574 0.0166541 0.446301
-0.108127 0.259027 0.172465
0.123753 -0.282808 0.410569
-0.172671 0.0314125 0.446301
-0.323081 0.133447 0.410569
-0.260798 0.264651 0.371084
0.0659428 0.0165756 0.446301
0.324614 -0.209777 0.410569
0.336469 -0.0538452 0.446301
-0.0408674 -0.206934 0.446301
-0.0297755 -0.119013 0.446301
0.040919 -0.00768656 0.446301
0.30912 -0.0419389 0.267439
-0.19605 0.198289 0.446301
-0.20083 0.245403 0.410569
-0.164587 0.0985267 0.446301
-0.301702 -0.254537 0.294428
-0.230285 -0.0494298 0.446301
0.0278011 -0.110612 0.446301
0.065231 0.257933 0.191398
-0.0421116 -0.187195 0.410569
-0.1481 0.262592 0.315105
-0.279033 -0.0426702 0.410569
-0.244224 0.243314 0.446301
0.179755 -0.238214 0.446301
-0.184128 -0.175864 0.410569
-0.196617 0.221491 0.446301
0.0976785 -0.292367 0.446301
-0.119647 0.155232 0.446301
-0.303579 -0.196357 0.0106569
-0.349911 0.169936 0.446301
0.143173 0.0983975 0.446301
-0.168566 -0.0730468 0.410569
0.284871 -0.0241181 0.446301
-0.24788 0.17186 0.410569
-0.336043 -0.162418 0.446301
0.26923 -0.124903 0.446301
0.329028 -0.236711 0.446301
0.292476 -0.268042 0.446301
0.0468558 0.24113 0.446301
0.291844 0.113014 0.446301
0.107023 0.091241 0.410569
0.11552 -0.0855728 0.446301
0.316874 0.182173 0.446301
-0.266291 0.209073 0.410569
0.053826 -0.133793 0.410569
-0.317472 0.223525 0.381931
-0.245439 -0.143643 0.410569
-0.0647224 0.147318 0.446301
-0.328678 0.113894 0.446301
-0.0404487 0.226808 0.446301
-0.0036945 0.125084 0.446301
0.30407 0.0869471 0.410569
-0.264088 -0.00207484 0.410569
0.285534 -0.221551 0.446301
-0.330255 0.166784 0.410569
0.313008 0.199129 0.104645
0.287737 0.255393 0.0722878
0.273109 0.262296 0.410569
0.25477 -0.284757 0.410569
0.20534 0.152801 0.446301
-0.308139 0.196085 0.36272
-0.159762 -0.153211 0.446301
-0.0640332 -0.01188 0.446301
-0.086429 0.114013 0.446301
0.316877 -0.163315 0.336578
-0.014168 -0.267177 0.446301
-0.305227 -0.0771854 0.000735997
-0.191428 0.0783283 0.410569
-0.152255 0.154415 0.410569
-0.254835 -0.0782015 0.446301
0.157142 0.145067 0.446301
-0.298168 -0.250044 0.187746
-0.315779 0.138806 0.320187
0.122491 -0.251367 0.446301
0.0167364 -0.140347 0.410569
0.279555 0.286324 0.412352
0.343671 -0.219811 0.426296
-0.348069 0.278016 0.446301
0.0660529 -0.222235 0.446301
0.0853121 0.245572 0.410569
0.0662538 -0.0997572 0.446301
0.0204875 -0.288486 0.417763
0.347589 -0.17444 0.436099
-0.0817325 0.0907403 0.446301
-0.250778 0.274632 0.410569
0.120899 0.219194 0.446301
0.0915891 -0.054157 0.446301
0.192848 -0.12347 0.446301
0.148459 -0.222032 0.446301
0.0961908 0.275248 0.446301
0.232772 -0.286831 0.41362
0.116238 -0.107225 0.446301
-0.336543 0.22903 0.410569
0.282942 -0.145622 0.410569
0.122446 0.184336 0.410569
0.220182 -0.0490616 0.446301
-0.128987 -0.209306 0.410569
0.247429 0.213182 0.410569
-0.310416 -0.197018 0.0947565
0.182926 -0.103298 0.446301
0.348137 -0.120474 0.437469
0.109519 -0.270829 0.410569
-0.282564 0.0367635 0.446301
-0.0598051 0.282108 0.446301
0.0961381 0.182873 0.410569
-0.296561 0.257854 0.410569
0.305489 -0.181109 0.446301
0.157377 -0.261169 0.139922
-0.0247632 0.0713292 0.446301
0.145693 0.164952 0.446301
0.0464553 0.0250607 0.410569
0.245108 0.232186 0.446301
0.342616 -0.253684 0.423656
-0.344406 -0.125917 0.428134
-0.151074 -0.169738 0.446301
-0.0685418 0.204833 0.410569
0.124397 0.135381 0.410569
0.21588 0.261738 0.107522
-0.0461972 -0.25314 0.410569
-0.0545458 -0.291773 0.425985
0.314867 -0.204731 0.0888181
0.0341772 0.204117 0.410569
-0.0951492 -0.192914 0.446301
0.306647 0.0522918 0.00133276
-0.216398 0.0833564 0.446301
0.239794 -0.251549 0.410569
0.302514 0.244963 0.373597
-0.0311734 -0.00864169 0.410569
-0.120967 0.0916861 0.446301
0.15616 -0.128653 0.446301
-0.34814 0.215202 0.437477
0.0544221 0.0525951 0.446301
0.35038 0.0124379 0.443082
-0.255842 -0.184969 0.410569
0.274765 -0.17149 0.410569
-0.037682 0.266196 0.410569
0.267503 -0.249886 0.410569
-0.19011 0.292382 0.427509
-0.263908 -0.111827 0.446301
0.0986155 -0.266587 0.173424
0.247209 -0.0390792 0.410569
0.00194681 -0.124778 0.410569
-0.0817966 -0.0944043 0.410569
0.00778958 -0.0502076 0.410569
0.212652 -0.19676 0.410569
0.0864577 0.116454 0.446301
-0.0721497 -0.0592128 0.410569
0.234527 0.058417 0.410569
0.0294316 -0.0544852 0.410569
0.170827 0.266764 0.410569
-0.305964 -0.254228 0.395396
0.166942 0.10244 0.446301
-0.203409 -0.013123 0.446301
0.120385 0.299765 0.445982
0.225114 -0.299516 0.446301
0.0644364 0.206677 0.410569
0.230262 0.20468 0.410569
-0.321979 -0.146316 0.446301
0.0383743 -0.269272 0.410569
0.279414 0.129217 0.410569
0.255975 0.257271 0.0844013
0.330099 0.101956 0.446301
0.322113 -0.290679 0.446301
0.101051 -0.225386 0.410569
0.249409 0.0943406 0.446301
0.212894 -0.149025 0.410569
-0.228094 0.227126 0.410569
-0.305849 -0.265084 0.0621121
0.151414 0.00624141 0.410569
-0.0868571 0.169595 0.446301
0.327777 0.0227892 0.446301
0.0984729 -0.147093 0.410569
0.158349 0.212307 0.410569
0.344621 0.104914 0.428667
-0.33694 -0.10648 0.446301
0.324888 0.28776 0.446301
-0.308099 -0.228206 0.00708783
0.0247569 0.286098 0.411788
-0.131116 0.0577836 0.410569
0.0242245 0.0477116 0.446301
-0.272574 0.290194 0.422035
-0.156705 0.137116 0.446301
0.111639 0.0683409 0.446301
-0.0611176 -0.241454 0.446301
0.346612 0.163514 0.446301
0.209186 -0.266682 0.446301
0.251897 0.169002 0.410569
0.113704 0.20798 0.410569
0.131908 -0.156979 0.446301
0.19447 0.0534141 0.446301
0.0652805 0.135483 0.446301
-0.11178 0.228361 0.410569
0.337284 0.0821963 0.446301
-0.307088 0.0101281 0.446301
-0.220811 0.193542 0.446301
-0.28733 -0.0906952 0.410569
-0.209378 -0.197988 0.410569
-0.0453856 0.252137 0.254783
-0.333545 -0.190759 0.446301
-0.191252 0.0350456 0.410569
0.32513 -0.114417 0.446301
-0.294708 0.261589 0.384907
0.248974 0.295902 0.436316
0.00155932 0.18665 0.410569
0.0889876 -0.25072 0.446301
0.104707 0.165227 0.410569
0.0184135 -0.189325 0.410569
-0.198684 -0.263033 0.124971
-0.231838 0.273792 0.410569
0.152487 -0.0133007 0.410569
-0.206123 -0.295957 0.446301
0.216852 -0.257836 0.108896
-0.330582 -0.284606 0.427803
-0.0188694 0.0927055 0.446301
-0.0025596 -0.0541809 0.446301
-0.107531 -0.0463162 0.446301
-0.112988 -0.180429 0.410569
-0.313436 -0.0710415 0.181342
-0.123269 0.172554 0.446301
-0.299431 -0.246692 0.0602021
-0.130558 0.0214774 0.410569
-0.0272668 0.214226 0.446301
-0.037938 -0.00373667 0.446301
-0.234524 0.0194819 0.410569
-0.0596049 0.0823986 0.446301
-0.0707046 0.00920632 0.410569
0.253859 -0.03686 0.446301
0.299633 0.246192 0.218169
-0.284592 0.112635 0.410569
-0.0378377 -0.146266 0.410569
0.129252 0.259076 0.300427
0.197756 0.0133075 0.446301
0.0576777 -0.29556 0.435461
-0.131027 -0.103872 0.446301
0.338246 0.17772 0.412701
-0.0921209 0.201542 0.410569
-0.256077 -0.22291 0.446301
0.253449 0.234257 0.410569
0.298796 0.251576 0.124409
-0.14638 -0.143189 0.410569
-0.143858 -0.0863441 0.410569
0.133862 0.0970954 0.410569
-0.0808595 -0.11885 0.410569
0.193723 0.0734912 0.410569
0.128324 0.262871 0.446301
-0.301723 -0.282188 0.446301
0.0958816 0.06668 0.410569
-0.136854 0.106668 0.410569
0.0218342 0.173161 0.446301
0.333686 -0.0765749 0.446301
-0.203823 -0.00281456 0.410569
-0.302359 0.25481 0.0577593
-0.298264 0.149167 0.00500648
-0.0974668 0.256552 0.446301
0.126595 0.0465653 0.446301
0.0330534 0.175268 0.410569
0.0656241 0.172203 0.446301
0.158854 0.0799681 0.410569
0.00678104 -0.250484 0.238407
-0.196858 -0.126627 0.410569
-0.344064 -0.106317 0.42728
0.0912741 -0.000743181 0.446301
0.158473 -0.290961 0.423954
0.0872489 0.226115 0.446301
-0.261007 -0.168055 0.410569
-0.0233215 -0.173323 0.446301
-0.0120266 0.260845 0.227779
-0.0330258 0.229404 0.410569
-0.146359 -0.221571 0.446301
-0.108271 0.0663598 0.446301
-0.124399 0.119545 0.446301
0.0361584 0.0137008 0.446301
0.0847166 -0.0945104 0.446301
-0.320686 -0.215183 0.410569
0.168477 0.130126 0.410569
0.197026 -0.256178 0.410569
-0.0889525 0.0738839 0.446301
-0.0323911 0.190249 0.410569
0.301552 -0.0984541 0.410569
-0.285556 0.295037 0.434153
0.0592349 -0.117494 0.410569
-0.0768903 0.256009 0.269386
-0.119458 -0.14903 0.446301
-0.101876 0.06975 0.410569
-0.205377 -0.278661 0.446301
0.307368 0.152971 0.446301
0.0179367 0.117291 0.410569
0.169555 0.284759 0.446301
-0.031199 -0.29788 0.446301
-0.0959623 -0.273514 0.410569
-0.0283613 -0.0550584 0.410569
0.256132 0.0408714 0.446301
-0.2861 -0.266551 0.410569
-0.0148267 -0.191704 0.446301
0.192935 0.258404 0.333619
-0.329802 -0.0934946 0.410569
-0.012502 0.18302 0.446301
-0.290472 0.025478 0.410569
-0.0319751 -0.264417 0.446301
0.22371 -0.0954393 0.410569
0.235332 0.291968 0.426474
-0.169062 0.199959 0.446301
0.308243 0.248538 0.293874
0.245975 -0.256688 0.0957546
0.128236 -0.235181 0.410569
0.258717 0.0699862 0.446301
0.00744671 0.251989 0.410569
0.316614 -0.139534 0.321566
-0.139463 0.0548698 0.446301
-0.123797 -0.0589234 0.410569
0.172197 0.103945 0.410569
0.121246 0.104472 0.446301
-0.158974 -0.203088 0.410569
-0.10445 0.282926 0.446301
0.316325 -0.224666 0.373986
-0.153521 0.206976 0.446301
0.028976 0.0895298 0.446301
-0.0445561 0.267957 0.446301
-0.0187746 -0.176148 0.410569
0.267687 0.243333 0.446301
0.303925 0.0220633 0.410569
0.123585 -0.25272 0.302081
-0.226752 -0.091919 0.410569
-0.175651 0.283084 0.446301
-0.276385 -0.258334 0.0839014
0.309614 -0.136641 0.410569
-0.0700065 -0.291397 0.446301
-0.178102 -0.236343 0.446301
-0.239473 -0.190853 0.410569
-0.132255 0.268721 0.410569
0.262881 0.106824 0.446301
0.292772 -0.102783 0.446301
0.313787 0.0486568 0.410569
0.276707 -0.128088 0.410569
-0.190415 0.0674829 0.446301
-0.298835 0.193233 0.00360948
0.161638 0.14566 0.410569
0.306084 -0.106944 0.301906
0.227101 0.163218 0.410569
0.0853765 0.031352 0.410569
0.00882596 -0.249473 0.410569
0.0669869 0.153299 0.446301
-0.302998 -0.255075 0.0306099
0.228173 -0.131412 0.446301
-0.00475541 -0.00741425 0.410569
0.308791 -0.249861 0.0968143
-0.345616 0.0257807 0.431161
0.0222158 -0.00736743 0.410569
-0.155995 -0.0135165 0.446301
0.135398 -0.261601 0.163168
0.076251 -0.189896 0.446301
-0.310498 0.108723 0.410569
-0.315809 -0.288044 0.421057
-0.323118 -0.0644687 0.276697
-0.309337 0.182887 0.446301
-0.00421429 -0.0770915 0.410569
-0.106522 -0.121737 0.410569
-0.244481 0.262195 0.101928
0.165173 0.267571 0.318737
0.190437 -0.0231667 0.410569
0.194328 0.268793 0.446301
0.300326 -0.245843 0.27999
0.0476841 -0.260485 0.210221
-0.1513 -0.202409 0.446301
0.0711965 0.1261 0.410569
-0.275274 -0.180874 0.446301
-0.229087 0.271111 0.446301
0.224987 0.257033 0.353607
0.156716 -0.257168 0.446301
0.2784 -0.257391 0.0732485
-0.310339 0.161327 0.344089
-0.326824 0.0397596 0.446301
-0.291798 0.217561 0.446301
0.156784 -0.0581427 0.410569
0.130239 0.275267 0.410569
0.282591 -0.200973 0.410569
-0.307381 0.293605 0.43057
-0.0392755 -0.143117 0.446301
-0.118286 -0.27639 0.410569
0.307972 0.196757 0.446301
0.310259 0.0524838 0.446301
0.215071 -0.0381003 0.410569
0.307699 0.210407 0.00804891
-0.0352993 0.206414 0.410569
0.0865754 0.297635 0.440653
-0.213351 -0.0990887 0.446301
0.080487 -0.132994 0.446301
0.329633 -0.0645681 0.410569
-0.231808 -0.291841 0.426155
0.226026 0.187717 0.410569
0.329784 -0.220337 0.446301
-0.0152309 0.152727 0.410569
-0.332528 0.165105 0.446301
-0.340946 -0.285471 0.446301
0.186392 0.159894 0.410569
0.217817 0.0114329 0.446301
0.0439176 0.231874 0.410569
-0.186035 -0.0817353 0.410569
-0.0684062 0.0348043 0.446301
0.172961 -0.289609 0.446301
-0.268028 0.24187 0.446301
0.268549 0.187397 0.410569
0.147449 -0.239813 0.410569
-0.349494 -0.265166 0.44208
0.208007 0.115144 0.446301
0.34297 0.0386536 0.424537
-0.126475 -0.0648611 0.446301
-0.205339 -0.0708837 0.446301
-0.19301 -0.0260037 0.446301
0.0052667 -0.260246 0.446301
-0.0339247 0.0479951 0.446301
-0.132129 -0.183639 0.446301
0.185264 -0.267419 0.127225
-0.0536233 0.0451628 0.410569
-0.0254499 0.234499 0.446301
-0.169308 0.0104766 0.410569
-0.0487728 0.150294 0.446301
0.236816 -0.145959 0.446301
0.318747 0.253011 0.0639459
0.351445 0.19309 0.445745
0.19475 0.270652 0.410569
-0.250352 -0.191782 0.446301
0.317364 0.0974358 0.410569
0.0235899 -0.289433 0.446301
-0.26564 -0.0449294 0.446301
0.246101 -0.0580918 0.410569
-0.251871 -0.0299319 0.410569
-0.249375 -0.00486508 0.446301
0.00925812 0.0876475 0.410569
-0.274543 0.241339 0.410569
-0.20344 0.0675366 0.410569
-0.298164 -0.0423 0.00546191
0.0902852 -0.0186705 0.410569
-0.342773 -0.0298475 0.42405
-0.345875 -0.080438 0.446301
-0.0461393 -0.167415 0.446301
-0.000774533 0.0102658 0.446301
-0.048222 -0.0941986 0.446301
-0.262384 0.197239 0.446301
0.0365626 0.0602793 0.446301
0.151973 0.289631 0.446301
0.0932468 -0.256766 0.289331
-0.176084 -0.125575 0.446301
-0.215566 0.295863 0.446301
0.166066 -0.153968 0.410569
0.223711 -0.200257 0.446301
-0.245675 -0.247296 0.410569
-0.330321 -0.202375 0.410569
0.29701 -0.250637 0.446301
0.172712 0.239406 0.446301
-0.290778 0.0440621 0.410569
0.348394 0.243092 0.446301
-0.151478 0.0873231 0.446301
-0.114151 0.035313 0.446301
0.135948 -0.0793737 0.410569
-0.187287 -0.256776 0.410569
-0.212267 -0.122463 0.410569
-0.299084 -0.247549 0.378965
-0.347712 0.241369 0.446301
0.273327 -0.175981 0.446301
-0.301162 0.24551 0.235087
-0.310903 -0.0556529 0.446301
0.163661 -0.182871 0.446301
-0.109756 -0.0288925 0.446301
0.199278 0.28537 0.446301
-0.184747 0.165078 0.446301
0.198539 -0.0291909 0.446301
-0.32364 -0.0375743 0.257575
-0.144302 0.298777 0.443509
-0.126631 -0.0780674 0.410569
0.206903 0.0213082 0.410569
0.316372 0.114949 0.446301
-0.016293 0.124982 0.410569
-0.303656 0.244648 0.35223
-0.194716 -0.022792 0.410569
0.146533 -0.0587324 0.446301
-0.0252813 0.0980849 0.410569
0.243875 -0.261972 0.446301
0.160052 0.289682 0.420754
-0.15524 -0.25995 0.446301
-0.30206 0.125712 0.446301
-0.296112 0.214652 0.410569
0.224654 0.141047 0.446301
0.0724751 -0.291569 0.425476
-0.315203 -0.0880654 0.296554
-0.0938102 0.204733 0.446301
0.00777492 0.286465 0.446301
0.281659 0.161144 0.446301
0.32058 0.148817 0.410569
-0.318967 0.00906157 0.222417
0.0121996 -0.0974984 0.446301
-0.299133 0.247429 0.389989
0.313246 0.193725 0.410569
-0.0425668 0.267364 0.215571
-0.298238 -0.0835575 0.446301
-0.148572 -0.0795357 0.446301
0.301764 0.0897251 0.0100063
0.0859964 0.266253 0.274205
0.240841 -0.0251576 0.446301
-0.180097 0.120596 0.410569
0.127905 -0.0638131 0.446301
-0.308769 0.0983627 0.303372
-0.190836 -0.292928 0.428876
0.133102 -0.205283 0.410569
-0.153536 -0.22153 0.410569
-0.0412814 0.135617 0.410569
-0.103033 0.148277 0.446301
0.0715271 -0.262021 0.446301
-0.119107 -0.251349 0.446301
0.0662003 0.167421 0.410569
-0.335676 0.196405 0.446301
-0.309726 -0.0442075 0.410569
-0.132999 -0.238757 0.410569
-0.315455 0.0676625 0.18296
-0.309719 -0.0701244 0.410569
0.00815266 -0.155914 0.410569
-0.0580403 0.0854385 0.410569
0.228409 -0.0488226 0.410569
0.316452 -0.239072 0.410569
0.219808 -0.229141 0.446301
0.350684 0.0512654 0.446301
-0.270231 -0.0564321 0.410569
0.317239 -0.13146 0.446301
0.309942 0.0494471 0.194826
-0.345405 -0.141142 0.430635
-0.278901 -0.265874 0.384402
-0.23848 0.0717823 0.410569
-0.129732 -0.0249558 0.446301
0.313498 -0.122902 0.146272
-0.190439 -0.0556326 0.446301
-0.236938 0.106921 0.446301
0.100263 -0.0994629 0.410569
-0.0681894 -0.0933056 0.446301
-0.298938 0.251922 0.0247986
-0.010706 -0.118396 0.446301
0.314471 0.00664964 0.2404
-0.167942 0.048853 0.410569
-0.340263 0.00576136 0.417769
-0.313738 -0.149051 0.138723
0.298333 -0.250447 0.352479
0.0125531 0.0230334 0.410569
-0.223678 0.260872 0.358396
0.301479 0.0578743 0.410569
0.328121 -0.135133 0.410569
0.25716 0.0335426 0.410569
0.117281 -0.206532 0.446301
0.109001 0.285587 0.446301
-0.0683179 -0.13162 0.446301
-0.318053 -0.26111 0.446301
0.12828 -0.00674385 0.446301
0.313051 -0.0960907 0.172146
0.117162 0.186435 0.446301
-0.215339 0.0535271 0.410569
0.139121 -0.274316 0.410569
0.314152 0.211416 0.446301
0.342812 0.156887 0.424135
0.00128672 0.144721 0.446301
-0.307633 -0.154243 0.00252349
-0.0518963 -0.263567 0.256265
0.252498 -0.296633 0.446301
-0.227248 -0.211824 0.410569
0.0825041 -0.109571 0.446301
0.123198 0.017151 0.446301
-0.223022 0.00228587 0.410569
0.252367 0.182687 0.446301
-0.115518 0.280611 0.410569
0.0199944 -0.0298921 0.446301
0.069129 -0.2592 0.276028
0.345091 0.247288 0.429835
0.0817887 0.206348 0.410569
0.0308288 -0.227991 0.410569
-0.07036 0.0534488 0.446301
0.289457 0.117937 0.410569
-0.307535 0.246832 0.13076
0.169707 0.0298097 0.446301
0.311016 -0.296545 0.437924
0.303491 0.255267 0.277768
0.113383 -0.175541 0.410569
-0.246227 -0.293826 0.431123
-0.159088 0.0228464 0.410569
0.218091 0.277226 0.410569
-0.0628588 -0.249091 0.410569
-0.298343 0.249382 0.103681
0.233639 -0.168104 0.446301
0.04594 -0.294823 0.446301
-0.023833 -0.260453 0.222829
0.235597 0.16689 0.446301
0.307834 0.29109 0.424277
-0.13817 -0.0529484 0.410569
-0.285939 0.119623 0.446301
-0.348701 0.0133018 0.438881
0.207526 -0.0585888 0.446301
0.349226 -0.0608528 0.440194
0.227188 0.0357094 0.446301
0.262651 0.210458 0.410569
-0.228089 -0.23917 0.446301
0.176365 0.152325 0.446301
0.313493 -0.251801 0.396098
0.119376 0.245236 0.410569
-0.1655 0.141907 0.410569
0.172984 0.00881678 0.446301
0.0101774 0.0390897 0.410569
0.268259 0.266121 0.375228
-0.348288 -0.16157 0.437847
-0.131883 -0.296968 0.438984
-0.225244 -0.147776 0.446301
-0.154683 0.197909 0.410569
-0.323768 -0.0750628 0.410569
-0.316001 -0.163311 0.446301
0.0309121 -0.0886967 0.410569
0.0865227 0.268033 0.410569
0.0271557 0.0398493 0.410569
-0.298804 -0.126153 0.00368492
-0.294566 -0.104396 0.410569
-0.151828 0.0650633 0.446301
-0.0963768 0.184834 0.410569
