-0.307903 0.0222636 0.414807
0.0316794 0.332014 0.431891
0.0313654 -0.331058 0.431781
-0.145946 0.169678 0.425294
-0.294963 0.175783 0.431891
-0.0572 -0.177352 0.425294
0.0232911 0.395239 0.00310426
0.400691 0.187637 0.431891
0.188098 -0.297555 0.421403
-0.42478 0.145655 0.423239
0.00886851 -0.0595365 0.385191
0.103101 -0.0662927 0.425294
-0.2337 0.384971 0.431302
0.3415 0.091978 0.431891
0.098223 -0.366177 0.431891
-0.3329 -0.0622888 0.431891
0.0382062 0.0976352 0.404645
-0.400238 0.000322112 0.286353
-0.408642 0.010608 0.0978868
0.262962 0.365044 0.422624
-0.060104 0.329529 0.431891
-0.122779 0.431775 0.429239
-0.287731 -0.000664916 0.383458
-0.0192221 0.00508703 0.425294
0.409587 0.0095719 0.0950318
0.23807 -0.194421 0.414807
0.0283165 0.254339 0.386966
-0.147342 0.267829 0.425294
-0.434579 0.0250771 0.431891
-0.141131 -0.32457 0.421403
-0.314884 0.32023 0.421403
0.117707 -0.215614 0.414807
0.359939 -0.266319 0.431891
-0.298761 -0.177375 0.431891
0.0788884 0.207945 0.414807
0.227008 0.0183604 0.383811
-0.0954642 0.0399138 0.404645
0.395655 0.0181582 0.292742
0.250388 -0.0992007 0.425294
-0.379198 -0.239227 0.431891
0.0285322 -0.226483 0.415131
-0.232604 -0.113323 0.425294
-0.150703 0.0982202 0.414807
-0.21221 0.21285 0.414807
-0.0101933 -0.141651 0.390737
-0.312106 0.100766 0.429583
0.108602 0.369853 0.421403
0.264077 -0.313932 0.431891
0.146713 0.24774 0.414807
-0.0406053 0.185273 0.425294
0.0771507 0.0733965 0.414807
-0.00804989 -0.378764 0.203112
0.0215436 0.385455 0.167584
0.0430793 0.385782 0.431891
0.377239 -0.220714 0.431891
0.218256 0.193979 0.425294
-0.162393 -0.046171 0.425294
0.267057 -0.0207757 0.425294
0.409925 0.0543712 0.431891
-0.284481 -0.248933 0.431891
0.157484 0.0174007 0.403887
-0.0163649 -0.384605 0.421403
0.378568 -0.0970942 0.431891
0.338041 0.0248713 0.421403
0.28419 0.244499 0.431891
-0.0957659 -0.0357017 0.425294
0.0922426 0.140823 0.425294
-0.254427 -0.326005 0.421403
-0.119644 -0.393857 0.431891
-0.104977 -0.42245 0.421403
-0.180583 -0.270338 0.426637
0.172963 0.333016 0.431891
-0.398067 -0.0920334 0.431891
0.381969 0.239669 0.431803
0.406371 -0.0645414 0.421403
0.176644 0.102499 0.425294
-0.0125258 -0.384883 0.0763351
0.0150446 -0.0169156 0.386968
0.0251812 0.344377 0.277788
0.179517 -0.239807 0.414807
-0.337829 0.028907 0.421403
0.246119 0.126772 0.414807
0.147028 -0.396612 0.431891
0.107889 -0.117509 0.425294
0.0803799 -0.295361 0.414807
-0.18797 -0.00208408 0.388271
-0.352517 0.147319 0.431891
-0.260541 0.0692151 0.414807
-0.210001 0.332616 0.431891
-0.292156 0.248355 0.431891
-0.194565 -0.108846 0.414807
0.127364 0.429077 0.421403
-0.380065 -0.00477218 0.431891
-0.336317 -0.208553 0.431891
-0.00465211 0.214147 0.404645
-0.0913112 0.383887 0.431891
0.171187 -0.0953408 0.414807
0.00534195 -0.324479 0.348888
0.0436949 0.0270303 0.425294
0.225977 -0.261592 0.431891
-0.0295901 -0.312872 0.425294
-0.26171 -0.0704542 0.414807
-0.0335437 -0.23483 0.404645
-0.0865394 -0.117613 0.425294
0.318529 -0.195806 0.431891
-0.182479 -0.336834 0.421403
0.0108001 0.442592 0.421403
-0.0246072 0.0856495 0.404645
0.100877 -0.0161437 0.404645
0.0294817 -0.426802 0.421403
0.0585882 0.276115 0.425294
-0.0323523 -0.124595 0.415131
0.305584 -0.0850205 0.425294
-0.0871194 -0.303134 0.414807
-0.146445 -0.171492 0.425294
0.0017206 0.150781 0.404645
0.370502 -0.160141 0.431891
0.00449883 0.399771 0.431891
0.296715 0.0823632 0.414807
-0.173129 0.409356 0.421403
-0.202821 -0.208123 0.414807
0.283133 0.0260566 0.425294
-0.0139646 0.293469 0.40973
0.377766 0.134629 0.421403
-0.299536 -0.0289729 0.425294
-0.00685632 -0.194455 0.385347
-0.0825383 0.152269 0.425294
-0.112331 0.307949 0.42839
0.0526937 -0.0917572 0.425294
0.187287 0.0420911 0.425294
0.169606 -0.345873 0.431891
0.0530561 -0.0352301 0.414807
-0.0613254 0.0720665 0.414807
-0.245031 0.191313 0.425294
-0.0698462 -0.0013107 0.392628
0.0141261 0.401645 0.0629971
0.245457 0.229144 0.421403
0.266185 0.298792 0.431891
0.134807 -0.163878 0.414807
-0.248365 0.0166282 0.391672
0.126244 -0.316666 0.431891
-0.370944 -0.15058 0.421403
-0.411714 0.000413641 0.128868
-0.223692 0.0848208 0.414807
-0.290869 -0.274572 0.421403
-0.17405 0.247937 0.425294
-0.441405 0.0863488 0.421403
-0.152904 0.0412371 0.415131
0.0540328 -0.392516 0.431891
-0.173573 0.295469 0.431891
0.0601703 -0.202476 0.414807
-0.177762 0.132746 0.425294
0.0883733 0.319172 0.419973
0.133589 0.00512019 0.404645
-0.108858 0.20607 0.414807
-0.263741 0.339181 0.431891
0.332047 0.198586 0.421403
-0.027719 -0.289855 0.414807
0.313315 -0.298955 0.421403
-0.00742015 -0.0766488 0.425294
-0.302099 -0.110389 0.425294
-0.34848 0.197789 0.421403
0.172453 0.216325 0.425294
-0.282478 0.12222 0.425294
0.416053 0.0210531 0.0545593
0.152149 -0.0429766 0.425294
0.238461 0.0473657 0.412542
0.243703 -0.0477803 0.414807
0.0151301 -0.164523 0.425294
0.0577279 -0.350937 0.431891
-0.394383 0.000550515 0.321195
0.221219 -0.337645 0.421403
0.173424 0.288556 0.431891
-0.428385 0.017066 0.0472737
-0.371016 -0.0534379 0.421403
0.202594 0.145229 0.425294
-0.149437 -0.239227 0.425294
-0.10515 0.0870137 0.425294
-0.0261302 0.364686 0.421403
0.382791 0.0439689 0.431891
0.035513 0.202687 0.425294
0.260933 -0.156459 0.425294
-0.189749 -0.0663244 0.414807
0.38892 -0.0193281 0.421403
0.041087 0.134463 0.425294
0.433888 -0.0940584 0.421403
0.175795 -0.196865 0.425294
-0.355119 0.0767008 0.421403
0.316401 0.131199 0.431891
-0.14723 0.00523545 0.414807
-0.249606 -0.190558 0.414807
0.22118 -0.143908 0.414807
0.153807 0.384599 0.431891
-0.0760222 0.287412 0.414807
0.127602 0.198915 0.425294
-0.0553184 -0.232027 0.425294
-0.416003 -0.0257871 0.421403
-0.282102 -0.118108 0.414807
-0.236788 -0.153462 0.414807
-0.108699 -0.337322 0.431891
-0.402735 0.0158673 0.233364
0.155601 -0.272644 0.414807
-0.146927 0.229104 0.414807
-0.329057 0.268726 0.431891
-0.128142 -0.288798 0.425294
0.340227 0.253197 0.431891
-0.391391 0.0278699 0.431891
-0.326116 -0.00027487 0.385918
-0.149059 0.379115 0.431891
-0.401724 0.190769 0.421403
0.139237 0.130821 0.414807
0.0535659 -0.268586 0.414807
0.270973 -0.113208 0.425294
0.0198004 0.349789 0.326204
0.0889996 -0.176537 0.414807
-0.0882891 -0.198548 0.425294
-0.231451 -0.251729 0.431891
-0.37609 -0.194455 0.431891
0.00343764 -0.0310511 0.415131
0.0325792 -0.289857 0.414807
0.336207 0.0517825 0.421403
0.112062 0.250584 0.425294
-0.0142752 0.114221 0.415131
-0.34686 -0.115524 0.431891
0.111461 0.0376335 0.425294
-0.256978 0.227037 0.431891
0.056955 0.236826 0.425294
0.0142552 0.257468 0.425294
0.294194 0.33422 0.431891
-0.0508964 0.01539 0.425294
-0.219963 -0.361017 0.431891
0.0128073 0.0608128 0.415131
0.417795 0.00370948 0.153341
0.0851169 0.396822 0.421403
0.232048 -0.30279 0.421403
0.216021 0.349521 0.421403
-0.113694 -0.016227 0.425294
0.146429 0.054512 0.425294
-0.126118 0.135162 0.414807
0.0253531 0.293003 0.389505
0.269289 -0.357134 0.421403
-0.290744 -0.318776 0.421403
0.0184142 -0.10692 0.414807
-0.441934 -0.0218829 0.421403
-0.190946 -0.0178145 0.409766
0.104356 -0.388847 0.421403
-0.123695 -0.0713679 0.414807
-0.0273013 0.250886 0.406203
-0.0246156 0.198792 0.404645
0.262313 -0.272839 0.431891
0.333402 -0.235393 0.431891
-0.122309 -0.216265 0.414807
0.00367206 -0.100466 0.38352
-0.294737 0.296675 0.421403
0.195224 -0.0642129 0.414807
-0.324086 0.213435 0.431891
-0.252672 -0.0160318 0.404645
-0.191868 0.177484 0.425294
0.391382 0.00324074 0.332342
0.199653 0.226798 0.425294
0.296397 -0.0356365 0.414807
0.0115774 0.0740574 0.387723
0.271013 0.024371 0.388256
-0.215336 0.256997 0.421403
-0.0391806 -0.0335299 0.425294
-0.0194743 0.340279 0.421403
0.320794 -0.26793 0.431891
-0.0146814 -0.379102 0.163613
-0.190506 0.377541 0.421403
-0.199361 0.0947323 0.414807
0.403253 -0.133584 0.421403
0.261861 0.187336 0.414807
0.0135068 0.385595 0.133463
-0.432647 -0.119528 0.428561
0.406843 0.113815 0.431891
0.111338 0.154733 0.425294
0.261563 -0.22611 0.431891
-0.045413 0.157549 0.414807
-0.0218581 -0.199565 0.425294
-0.147817 -0.424113 0.42666
0.111955 0.32837 0.431891
-0.106682 0.252114 0.425294
0.332886 -0.119448 0.431891
0.406152 0.0039242 0.252098
-0.316853 0.149301 0.421403
0.0300619 0.209911 0.39553
0.340859 -0.00893512 0.431891
-0.0647853 -0.413339 0.421403
0.181218 0.0226989 0.385278
-0.28535 0.00793454 0.425294
-0.122259 -0.157649 0.425294
0.348496 0.164939 0.431891
-0.220877 0.292116 0.431891
0.43898 -0.0481422 0.431891
-0.0132425 -0.356857 0.240331
-0.179191 -0.146719 0.425294
0.0654289 0.168 0.425294
0.416312 0.0182764 0.421403
0.0704351 -0.121273 0.414807
-0.317688 0.068211 0.429216
-0.080253 -0.0567254 0.425294
0.443858 0.0775301 0.431889
0.0800904 0.00562558 0.425294
-0.146652 -0.357154 0.421403
0.247596 0.017223 0.414807
-0.350996 -0.267079 0.421403
0.212377 -0.230456 0.414807
-0.268127 -0.214749 0.431891
-0.0673943 0.213397 0.414807
-0.00208412 -0.249692 0.425294
0.273901 0.0623368 0.425294
-0.0810619 0.442906 0.431455
-0.0136136 0.0299422 0.414807
-0.00297034 -0.31235 0.382911
-0.423887 0.0594674 0.421403
0.20289 -0.179763 0.425294
0.0754819 -0.23801 0.414807
0.213702 0.0056014 0.404645
0.165268 -0.000834083 0.425294
-0.0863805 0.344226 0.431891
0.0515125 -0.446519 0.421444
0.0321254 0.370099 0.192404
0.291054 0.120431 0.425294
0.405614 -0.18761 0.431891
0.364712 0.204029 0.431891
-0.343084 0.28896 0.428179
-0.125171 0.389246 0.421403
-0.324053 -0.247032 0.421403
0.177346 0.241944 0.425294
0.0863574 0.107161 0.425294
0.281323 -0.188522 0.431891
0.368722 0.00504232 0.431891
-0.158645 -0.0184353 0.407018
0.130557 -0.0846518 0.414807
-0.007082 -0.407952 0.0549003
-0.220793 0.0133764 0.425294
-0.346595 -0.0200792 0.421403
-0.0686004 0.0276756 0.404645
0.00266083 -0.334279 0.431891
0.0125007 0.244869 0.399864
-0.22514 -0.0774696 0.425294
0.305711 0.267719 0.421403
-0.386651 0.15304 0.431891
-0.0453444 -0.408558 0.431891
0.00626262 -0.225463 0.397227
0.0507709 0.0759038 0.414807
0.158952 0.416464 0.431891
0.180827 0.37556 0.421403
-0.0441914 -0.0195263 0.404645
-0.183526 0.0550674 0.404645
-0.423785 0.00649175 0.164554
-0.120375 0.0542574 0.4124
0.365181 -0.0619821 0.421403
0.0291654 0.394314 0.0342608
0.205427 -0.111978 0.425294
0.378288 0.0869353 0.431891
-0.154551 -0.0854351 0.414807
-0.0277137 0.445401 0.431891
-0.0131744 -0.39551 0.0977311
-0.438451 -0.0748936 0.421403
-0.209378 -0.308614 0.421403
-0.297255 -0.079746 0.414807
-0.116251 0.350044 0.431891
0.00668477 0.100567 0.425294
0.240472 0.323394 0.421403
0.184965 -0.402655 0.421403
-0.266399 0.0335894 0.414807
-0.06861 -0.0934384 0.425294
0.138639 0.277152 0.414807
-0.0662746 -0.312831 0.415013
0.165988 -0.319765 0.431891
0.43954 0.0372724 0.431891
-0.228055 -0.229018 0.414807
-0.177731 0.022303 0.425294
0.0247087 0.130308 0.398338
-0.0841356 -0.382747 0.421403
0.0139927 -0.132214 0.425294
-0.0428772 -0.158553 0.425294
0.148409 -0.190582 0.425294
0.130559 -0.0254552 0.425294
0.026394 -0.00888517 0.425294
0.140791 -0.371379 0.421403
0.335158 -0.174815 0.431891
0.135803 0.357667 0.431891
-0.120435 0.0186486 0.425294
-0.338945 0.112504 0.421403
-0.166564 0.195849 0.414807
0.130166 0.0958922 0.414807
0.0677519 -0.407938 0.421403
-0.137493 0.290937 0.425416
0.172413 0.0479561 0.404645
0.27256 0.150636 0.414807
0.132353 -0.143809 0.425294
0.0904415 -0.327371 0.431891
0.0733556 0.372373 0.431891
0.0237747 -0.364151 0.421403
-0.0340156 -0.0988005 0.40984
0.0620966 -0.00546508 0.393966
0.0271765 -0.0494737 0.425294
0.14712 -0.245624 0.425294
-0.037954 0.294368 0.425294
-0.276101 -0.155089 0.414807
-0.0346821 0.0131808 0.38979
-0.228094 0.357804 0.421403
-0.094913 0.119585 0.414807
-0.403742 0.0104874 0.421403
0.0339382 -0.0756394 0.404645
-0.25693 0.160667 0.414807
-0.429137 0.00514484 0.0748169
0.175443 0.147657 0.425294
-0.039364 0.0488164 0.425294
-0.299057 -0.214343 0.431891
0.0466834 0.430192 0.431891
-0.00676814 -0.333368 0.314517
0.0688122 -0.0580125 0.414807
0.304138 0.204518 0.431891
0.219723 0.313724 0.421403
-0.0150236 -0.136936 0.425294
0.409727 0.149096 0.421403
0.290602 -0.333246 0.431891
-0.396943 -0.127684 0.431891
-0.110495 0.168271 0.414807
0.099753 -0.144485 0.414807
-0.263236 0.298506 0.421403
0.332764 -0.0715033 0.431891
0.349652 -0.207754 0.421403
0.0457494 0.231342 0.406534
-0.396074 -0.059043 0.431891
0.208232 0.089071 0.414807
-0.381329 0.176249 0.421403
-0.131594 -0.0316037 0.425294
-0.230861 0.226644 0.414807
0.0115337 0.310797 0.414807
0.277983 -0.0637766 0.414807
0.240532 0.163885 0.425294
0.0071963 0.359815 0.431891
0.264151 0.100312 0.414807
0.118146 0.016161 0.384099
0.0168885 0.352867 0.248319
-0.339228 0.167576 0.421403
-0.255146 -0.0954962 0.425294
-0.0226601 0.398714 0.421403
0.295772 0.303935 0.431891
-0.268907 -0.0448629 0.414807
0.0305821 0.414792 0.431891
-0.419138 0.00158857 0.2109
-0.202481 -0.247734 0.414807
0.238083 0.260667 0.431891
-0.0935629 0.0041293 0.403205
0.0121599 0.198061 0.404645
-0.247764 0.0347497 0.415131
0.430596 -0.118562 0.421403
0.29199 -0.222951 0.431891
-0.394474 0.133425 0.421403
-0.378101 0.0465297 0.421403
0.140744 0.307017 0.431891
0.0281315 -0.192271 0.415131
0.42186 -0.0227703 0.421403
0.151176 -0.0143452 0.404645
0.28825 -0.128523 0.425294
-0.022194 -0.0501686 0.425294
-0.0018498 -0.285542 0.414807
0.0656539 0.0450436 0.415131
-0.252739 0.110655 0.414807
-0.0607542 -0.126854 0.425294
-0.372418 0.00547164 0.344528
0.216727 0.0410743 0.425294
0.053353 -0.310351 0.414807
0.061728 0.343684 0.421403
0.365799 -0.127075 0.421403
-0.0768001 -0.44328 0.421403
0.424516 0.0193555 0.124689
0.181792 0.18003 0.425294
-0.0305249 -0.352306 0.421403
0.249799 -0.338137 0.421403
-0.157638 0.322204 0.421403
0.0239195 -0.448516 0.426605
-0.174309 -0.301023 0.421403
-0.0680576 0.370126 0.431891
-0.0611533 0.397811 0.431891
-0.428426 0.111314 0.421403
0.0975043 0.272917 0.414807
-0.275774 0.198455 0.421403
-0.142629 0.412145 0.421403
-0.326015 0.190332 0.431891
0.0943527 -0.0931729 0.425294
-0.203875 -0.0392585 0.425294
-0.294906 0.071596 0.414807
0.229169 0.383834 0.421403
-0.000124924 0.101482 0.391596
-0.158815 -0.375491 0.431891
0.0597221 0.187263 0.425294
0.242718 -0.00674537 0.415131
0.199184 -0.261154 0.429541
0.417323 0.00500196 0.031146
-0.338137 -0.176714 0.421403
0.173774 -0.119602 0.425294
-0.0891418 -0.221161 0.414807
-0.175928 -0.239087 0.414807
0.250793 -0.367763 0.421403
0.00902091 0.267304 0.404645
-0.0285037 -0.179819 0.404645
-0.154451 -0.137727 0.414807
-0.101203 0.4115 0.421403
0.090281 -0.0442707 0.425294
0.218044 0.11506 0.425294
-0.141525 -0.191583 0.414807
0.0578267 -0.00635757 0.425294
-0.0817242 0.184611 0.414807
0.380771 0.164573 0.421403
-0.078368 -0.00339463 0.425294
-0.418488 0.00506094 0.247752
-0.285681 0.269665 0.421403
-0.0554019 0.25953 0.414807
0.345699 0.135325 0.421403
-0.0400451 -0.258314 0.414807
-0.209886 0.132958 0.414807
0.059953 -0.175432 0.425294
0.012443 0.00793239 0.425294
-0.216234 0.182824 0.425294
-0.177563 -0.172556 0.414807
-0.00262892 0.17366 0.425294
0.0310274 -0.153379 0.404645
-0.315594 -0.269495 0.421403
-0.156374 0.00887555 0.384792
0.314809 0.236379 0.421403
0.114196 0.119661 0.414807
0.278468 0.220359 0.421403
0.303608 0.0432848 0.414807
-0.346355 -0.229835 0.421403
-0.343836 0.237976 0.421403
-0.056151 -0.293466 0.425294
-0.0897055 0.0654576 0.425294
-0.374112 0.210728 0.431891
0.0913907 0.24449 0.425294
0.365002 0.109796 0.431891
-0.195044 0.274575 0.421403
0.403654 0.0862733 0.421403
-0.0846592 -0.349835 0.421403
-0.154363 -0.267483 0.414807
0.143051 -0.336825 0.421403
-0.200695 0.0154038 0.404645
0.087533 -0.263646 0.425294
0.0338524 0.0536013 0.425294
0.151488 0.331489 0.421403
-0.250445 -0.231369 0.431891
0.155459 0.0880946 0.425294
-0.21204 0.0620908 0.414807
-0.21207 -0.136063 0.425294
0.0227973 -0.263173 0.410183
0.420718 -0.0406174 0.431891
-0.0293811 0.223358 0.425294
0.0991966 0.419568 0.431891
0.00453724 -0.409942 0.421403
-0.138537 0.034274 0.404645
0.132089 -0.117399 0.414807
0.0222345 -0.0439216 0.402243
-0.321469 -0.00421611 0.42537
-0.34164 0.0156204 0.370152
0.192891 -0.327605 0.421403
-0.0412084 -0.213525 0.425294
-0.397305 -0.204609 0.421403
-0.0969131 0.276486 0.425294
0.324396 0.155365 0.421403
0.195787 0.308858 0.421403
0.0389574 0.320471 0.416184
-0.363292 0.0985445 0.431891
-0.175706 0.110582 0.425294
-0.197074 -0.371739 0.431891
0.117875 -0.240993 0.425294
0.183282 0.0748646 0.414807
0.324962 0.274549 0.431891
0.194128 0.118139 0.414807
0.0417623 0.260662 0.425294
-0.0622122 -0.0366142 0.414807
0.0119618 -0.172595 0.404645
0.152018 -0.303433 0.421403
-0.18749 -0.00196434 0.425294
-0.00740236 0.128116 0.425294
0.168816 -0.0693399 0.425294
0.166466 0.132439 0.414807
0.123493 -0.423956 0.421403
-0.321186 -0.0867322 0.420834
-0.182891 0.32044 0.431891
0.385817 -0.0481095 0.431891
-0.155939 0.137835 0.414807
0.0596196 0.106314 0.414807
-0.255913 0.257875 0.431891
0.252326 -0.0652809 0.425294
0.153621 -0.219978 0.425294
0.00268641 -0.397835 0.0340426
0.319763 -0.0253569 0.414807
0.247226 -0.132897 0.425294
0.204944 -0.369261 0.421403
0.347614 -0.0943944 0.421403
0.0141038 0.285904 0.425294
-0.370819 -0.10833 0.431891
0.107634 0.0120891 0.415131
-0.251076 -0.130938 0.414807
-0.105905 -0.137713 0.414807
0.309224 0.102903 0.428186
0.0419995 0.359757 0.421403
0.401853 -0.107852 0.421403
-0.0664618 -0.261373 0.425294
0.0665985 0.311153 0.414807
0.296362 -0.282222 0.421403
0.30588 0.00467642 0.425294
0.0324639 0.173342 0.415131
-0.234789 0.0316474 0.404645
0.366569 -0.187613 0.421403
-0.257572 0.127649 0.425294
-0.289566 0.332243 0.421403
0.136857 -0.00394082 0.425294
0.379478 0.0240324 0.350091
-0.0751187 0.419471 0.421403
-0.0123417 -0.236575 0.390936
0.0973514 0.0564609 0.425294
-0.269694 0.0891385 0.414807
-0.26291 -0.273016 0.431891
-0.0827328 0.0282581 0.425294
0.271254 0.00608993 0.404645
0.241504 0.298075 0.431891
0.200987 -0.0897028 0.414807
-0.0113351 -0.16632 0.396425
-0.210971 -0.33293 0.431891
0.0848427 -0.350561 0.421403
-0.00403264 -0.0795939 0.404645
-0.306785 -0.297771 0.431891
-0.106145 -0.0996226 0.425294
0.313921 -0.323486 0.431727
0.0661719 0.135485 0.414807
0.224492 0.213919 0.425294
-0.290156 0.0406065 0.414807
0.196901 -0.212989 0.414807
-0.109352 -0.181047 0.414807
-0.2194 0.0103397 0.385073
0.171111 0.266026 0.414807
-0.40226 0.0510885 0.421403
-0.139635 0.209129 0.425294
-0.00863561 0.0553988 0.415131
0.324435 0.0706649 0.420343
-0.412454 0.0824636 0.431891
0.0924103 -0.206703 0.425294
0.0310764 0.388967 0.0757553
-0.0377794 0.107105 0.414807
0.203851 0.252373 0.415348
-0.186377 0.218463 0.425294
-0.21892 0.157211 0.425294
0.129873 0.39953 0.431891
0.179595 -0.269863 0.414807
0.340167 -0.283524 0.421403
0.256114 0.271071 0.421403
-0.355684 0.010665 0.431891
0.00662144 -0.310957 0.414807
-0.329483 -0.134079 0.421403
0.00407862 -0.254067 0.401366
-0.153728 0.0714904 0.414807
-0.0284295 0.146464 0.404645
-0.00934734 -0.357956 0.216711
0.108221 -0.294796 0.425294
0.158028 -0.419207 0.421403
-0.149976 -0.295591 0.431281
-0.0662314 -0.148782 0.414807
-0.181884 0.349575 0.421403
0.106954 0.198661 0.414807
0.188042 0.00555179 0.404645
0.0198839 0.223214 0.414807
0.00744265 0.119123 0.402002
0.0656011 -0.370012 0.421403
-0.309926 0.0163988 0.388837
0.223527 -0.0898339 0.425294
-0.0347872 0.27358 0.425294
0.164039 -0.165469 0.414807
-0.299774 -0.0572907 0.425294
0.0352585 -0.00989216 0.403995
0.00570198 -0.215831 0.425294
-0.00626448 -0.17685 0.425294
0.0129135 0.275657 0.381649
-0.0949019 0.0125328 0.385692
-0.364028 0.129916 0.421403
-0.230145 -0.00393285 0.404645
0.242538 -0.154997 0.414807
0.110977 -0.192741 0.414807
-0.0989089 0.230347 0.414807
-0.346914 0.0503342 0.431891
-0.125164 0.0969804 0.425294
-0.272758 -0.312856 0.431891
0.0638261 0.0171506 0.387405
0.415563 0.0120243 0.283603
0.0735786 0.256152 0.414807
0.191912 0.272107 0.431555
-0.167029 0.167649 0.414807
-0.00208156 -0.0544717 0.415131
0.262325 -0.25117 0.421403
0.290974 0.00720147 0.381967
0.180738 -0.0443125 0.425294
-0.248596 -0.347231 0.431891
0.0450425 0.19456 0.405503
-0.0631362 -0.199966 0.414807
0.172913 -0.376701 0.421403
0.0386536 -0.1268 0.415131
0.00129201 0.419281 0.421403
0.0167617 0.036496 0.425294
-0.242839 0.330728 0.421403
-0.159846 0.279974 0.414807
0.347509 -0.138301 0.421403
-0.312809 0.235703 0.431891
0.0353564 0.284381 0.415131
-0.219397 -0.273586 0.421403
0.282163 -0.00968134 0.425294
-0.0613479 0.14248 0.414807
-0.442439 0.0454329 0.431891
-0.0551021 0.302138 0.414807
-0.101231 -0.0185903 0.404645
-0.0449868 0.0451536 0.404645
0.359265 0.066916 0.431891
0.00758367 -0.128666 0.388173
0.0127962 -0.27359 0.425294
-0.0166852 -0.259947 0.414807
0.197183 0.330559 0.421403
-0.053906 -0.373709 0.431891
-0.208946 0.234363 0.425294
-0.00459067 -0.450579 0.423046
-0.107258 0.143313 0.425294
-0.290054 0.096293 0.414807
0.160918 0.0307013 0.425294
-0.0227339 -0.158756 0.415131
-0.231926 0.0481033 0.425294
-0.288123 0.216945 0.431891
0.23019 -0.113523 0.414807
0.268748 -0.0936547 0.414807
0.415476 0.0206489 0.260536
0.203764 0.028386 0.394134
0.00683013 0.0457217 0.396758
0.317 0.18194 0.431891
0.00208462 0.0793512 0.425294
0.147467 0.110755 0.425294
0.0283827 0.370717 0.145786
0.124938 0.230422 0.414807
-0.00819701 -0.10656 0.404645
-0.433478 0.00573742 0.02081
0.391235 0.21206 0.431891
0.351615 0.184701 0.421403
-0.0169365 -0.225601 0.425294
0.234804 -0.231972 0.429934
0.020388 -0.389036 0.421403
-0.0435093 -0.334583 0.431891
-0.326018 -0.0262452 0.418464
-0.24882 0.358815 0.431891
0.220014 -0.0453707 0.425294
0.0599274 0.403401 0.421403
0.266788 -0.0388975 0.414807
0.0241488 0.374424 0.113649
-0.19024 0.159287 0.414807
-0.0748917 0.0909613 0.414807
-0.142614 0.119433 0.425294
-0.0669142 -0.433241 0.431891
0.0861063 0.0244775 0.415131
-0.01716 -0.0218379 0.414807
-0.0188154 0.0725017 0.425294
0.281415 -0.00970075 0.404645
-0.294853 -0.141117 0.41688
-0.202677 -0.0922317 0.425294
0.0138233 0.154778 0.425294
0.026327 0.0813409 0.414807
-0.100284 0.0457409 0.425294
-0.0100712 0.242218 0.415131
-0.0292228 0.316945 0.414807
0.400768 -0.165683 0.431891
-0.317041 0.0409669 0.426044
-0.31989 -0.18811 0.431891
0.00562993 0.330812 0.418418
-0.118175 -0.239348 0.425294
0.11584 -0.349627 0.421403
-0.0759257 -0.241708 0.414807
0.0387449 -0.252868 0.425294
0.401376 0.0160107 0.228296
-0.259223 0.0155168 0.425294
-0.166534 0.0026319 0.414807
0.268463 0.0346688 0.414807
-0.273447 -0.187123 0.43093
0.273659 0.314221 0.421403
-0.00749658 -0.291463 0.372359
-0.273516 -0.00732689 0.406221
-0.233189 -0.175838 0.425294
0.317074 -0.0602466 0.416861
-0.363019 -0.170848 0.431891
-0.0601579 -0.0138256 0.425294
0.230619 -0.35995 0.431891
0.418112 -0.00807062 0.431891
-0.0278164 -0.0717657 0.404645
-0.132648 0.246192 0.425294
0.333526 0.0209069 0.371479
-0.0914824 0.30499 0.414807
-0.224724 -0.382214 0.421403
0.444342 -0.0282809 0.431891
-0.130613 0.0733664 0.425294
0.433677 -0.0675619 0.421403
-0.302688 -0.236853 0.421403
-0.190334 0.0305088 0.404645
-0.207029 0.398144 0.425681
-0.0401347 0.247506 0.425294
0.0783623 0.294653 0.414807
0.356873 0.271804 0.431075
-0.00157081 0.0113398 0.404645
0.215239 -0.191782 0.414807
0.393025 -0.201723 0.421403
-0.107723 -0.370057 0.421403
-0.394484 0.109291 0.431891
0.104142 0.0353564 0.404645
-0.00508412 0.378593 0.421403
0.141165 0.0349911 0.415131
-0.335413 0.141797 0.421403
0.220157 0.0220399 0.415131
0.416334 0.0227779 0.16194
0.0259505 0.0157549 0.414807
-0.447074 -0.0438401 0.428676
0.170153 0.308819 0.421403
0.279989 0.276158 0.431891
0.257987 -0.186279 0.425294
-0.38788 -0.0296489 0.431891
0.0473527 0.0483542 0.404645
-0.271435 -0.0226003 0.425294
-0.398321 0.00927486 0.25859
0.202773 0.0480516 0.40762
-0.408633 0.167344 0.431891
-0.393425 0.0171896 0.338648
0.127236 0.019396 0.425294
-0.42101 -0.00102874 0.0527027
0.189456 0.0165696 0.425294
0.285148 -0.310913 0.421403
0.20279 0.178282 0.414807
-0.176446 0.0515072 0.425294
-0.263186 0.0470046 0.425294
-0.0834204 -0.0796702 0.414807
0.0828672 -0.0174622 0.425294
0.0394231 -0.098087 0.40891
0.0412819 -0.0126013 0.385371
-0.00851319 0.0673294 0.393286
0.0143759 -0.0763569 0.415131
-0.0360486 0.0275011 0.425294
0.358485 -0.238726 0.431891
-0.295724 0.143456 0.429451
-0.124708 -0.3132 0.431891
-0.0200797 -0.409879 0.431891
0.04398 0.155598 0.414807
0.00393162 -0.0999717 0.425294
-0.056327 0.438782 0.431891
-0.087025 -0.174063 0.414807
0.276818 -0.147704 0.414807
-0.109065 0.369556 0.421403
-0.450365 0.0132242 0.429334
0.0101329 0.11863 0.425294
-0.341668 -0.0864487 0.431891
-0.239981 -0.207911 0.425294
0.224942 0.0701714 0.414807
-0.206856 -0.00911942 0.404645
0.360768 -0.0250596 0.431891
0.170444 -0.0247496 0.4147
-0.220699 0.105411 0.425294
-0.348009 -0.0416921 0.431891
-0.353644 -0.146277 0.431891
-0.288255 -0.211107 0.421403
0.222704 -0.022139 0.414807
-0.270861 0.242265 0.421403
-0.0045343 0.202714 0.425294
-0.394457 -0.171183 0.431891
0.0390466 0.447496 0.423462
0.129677 -0.264436 0.425294
0.086236 0.350313 0.421403
-0.138483 -0.262004 0.425294
0.30909 -0.113406 0.429639
0.405082 0.0222801 0.312893
0.250536 -0.211265 0.417468
0.122068 0.173618 0.414807
0.263665 0.249257 0.431891
-0.415139 0.00399818 0.0315422
-0.271357 0.016937 0.389629
0.135282 -0.0541393 0.414807
0.25993 -0.0171466 0.404645
-0.279868 -0.337228 0.431891
-0.170792 0.391639 0.431891
0.302064 0.144277 0.421403
0.112402 -0.000116618 0.425294
-0.00389287 -0.195917 0.414807
-0.00555155 0.297066 0.425294
-0.165062 -0.349015 0.431891
0.0418123 -0.366532 0.421403
0.121574 0.0489626 0.404645
0.0297282 0.352325 0.3043
-0.109782 0.285366 0.414807
0.363122 0.0217469 0.379372
0.00190228 -0.353908 0.421403
-0.169194 -0.0725024 0.425294
0.0671773 -0.324421 0.43103
0.290553 -0.161915 0.431891
0.0838229 0.188127 0.425294
0.203421 -0.160824 0.414807
-0.438779 -0.0965561 0.430993
-0.24002 -0.00933162 0.425294
-0.123488 0.228656 0.414807
-0.152374 -0.400434 0.431891
-0.268235 -0.135899 0.425294
-0.129273 0.339421 0.421403
-0.170897 -0.103951 0.414807
0.0591272 -0.224785 0.425294
-0.14691 -0.215718 0.425294
-0.0861967 0.256057 0.414807
-0.376356 -0.218481 0.421403
0.0220622 0.372069 0.247934
0.0491016 -0.419156 0.431891
0.000730295 -0.00599649 0.425294
0.0720805 -0.0955593 0.414807
-0.0482394 -0.000614099 0.414807
-0.100256 0.0190966 0.414807
-0.198718 0.30943 0.421403
-0.13421 -0.00191264 0.404645
0.136211 -0.225051 0.425294
-0.195562 0.195227 0.425294
-0.358555 -0.189881 0.421403
0.348743 0.222079 0.431891
0.00682708 -0.154 0.404645
0.230047 -0.0670179 0.414807
-0.438586 0.0658229 0.431891
0.414098 0.170126 0.431891
0.411723 0.00327316 0.177705
-0.0594165 0.0538277 0.425294
0.1103 -0.173066 0.425294
0.299528 -0.20287 0.421403
0.0104877 -0.374706 0.431891
0.308232 -0.23419 0.421403
-0.128045 -0.0190235 0.405547
-0.0435764 -0.273865 0.425294
0.393895 0.1399 0.431891
-0.152495 0.0186573 0.404645
0.0783567 0.153304 0.414807
0.254568 0.144377 0.425294
-0.00650023 -0.363278 0.178079
0.358922 0.0437156 0.431891
0.211313 -0.322239 0.431891
-0.0622756 0.17532 0.414807
-0.270303 0.358044 0.425357
-0.303655 0.265445 0.421403
0.429322 0.0893613 0.421403
-0.273117 -0.0963395 0.414807
0.283102 0.19403 0.431891
-0.365368 -0.0243702 0.431891
0.218598 -0.279226 0.421403
0.0388675 0.00786999 0.425294
-0.372249 -0.128527 0.421403
-0.334357 0.0921982 0.431891
0.264226 0.0126283 0.425294
-0.128192 0.274816 0.414807
0.249466 0.339766 0.431891
0.197944 -0.345619 0.431891
0.0174045 0.183999 0.414807
0.318999 0.0412009 0.427716
-0.229406 0.0274578 0.425294
0.0528269 0.297271 0.425294
0.0870981 -0.156978 0.425294
-0.0503712 0.0242203 0.392075
-0.00686492 -0.305895 0.425294
0.0687517 -0.276242 0.425294
-0.0159223 -0.4057 0.0251872
-0.179307 -0.0330755 0.414807
-0.194538 0.251577 0.414807
-0.246886 0.093374 0.425294
-0.133173 -0.407136 0.421403
-0.248962 0.0417272 0.404645
0.17142 0.397937 0.431891
-0.0141457 -0.112201 0.425294
0.305608 -0.131241 0.419851
0.229842 0.0151487 0.425294
-0.37742 0.0669168 0.431891
0.0168563 0.240258 0.425294
-0.304439 -0.201342 0.421403
0.0947026 -0.409588 0.421403
-0.183042 -0.124569 0.425294
0.0134178 0.08533 0.404645
-0.140706 -0.0533188 0.425294
-0.0770402 -0.31578 0.429201
0.435046 0.00943116 0.431891
-0.0112082 -0.0458174 0.404645
-0.424874 0.00195422 0.421403
0.350295 -0.160036 0.421403
0.139047 0.0487203 0.404645
-0.127076 -0.0937362 0.425294
0.0350407 -0.202735 0.404645
-0.426827 -0.141332 0.43059
0.251993 -0.293003 0.431891
-0.160294 -0.0236689 0.425294
-0.0361871 0.383967 0.431891
-0.161813 0.21573 0.425294
-0.0800974 0.132071 0.425294
-0.425624 0.0144109 0.112268
0.110487 -0.0428374 0.425294
-0.226689 -0.342207 0.421403
-0.1031 -0.0699589 0.414807
-0.0404417 0.0199837 0.404645
0.100903 0.0936239 0.414807
0.154321 0.0133714 0.385742
0.0213369 0.326398 0.326906
0.0115623 0.372264 0.182748
0.417715 0.0205406 0.0173694
-0.12272 -0.00120547 0.415131
0.119515 -0.401609 0.431891
0.255368 0.00674746 0.396807
0.18809 -0.0110241 0.425294
0.0193845 0.386774 0.421403
0.153024 0.212749 0.414807
0.00516945 -0.192469 0.4012
0.178252 -0.163153 0.425294
-0.279553 -0.28936 0.431891
-0.114465 -0.0477274 0.425294
-0.0677614 -0.336135 0.431891
0.045515 -0.0235057 0.425294
-0.0265375 -0.176892 0.425294
-0.402144 -0.150441 0.431891
0.428771 0.0210194 0.0357009
0.173751 -0.284222 0.431553
-0.00379304 0.0907034 0.414807
0.0261315 0.0605028 0.404645
-0.403531 0.0185049 0.312386
-0.100435 0.433787 0.431891
0.0437709 0.292364 0.40561
-0.0397937 -0.429483 0.421403
0.408984 0.00662952 0.119311
-0.404995 0.00760512 0.153354
0.0568591 -0.293687 0.425294
-0.181562 0.0823183 0.414807
0.214761 0.159976 0.414807
0.0446523 -0.239059 0.414807
0.00455774 -0.378416 0.15483
-0.0787893 0.326141 0.421403
0.127214 0.320599 0.421403
-0.376103 -0.0873093 0.431891
0.269638 -0.338708 0.431891
-0.257921 0.00129452 0.385924
-0.241943 0.0583717 0.414807
0.0379883 -0.172734 0.411366
-0.402458 -0.0127157 0.431891
0.0599732 0.32371 0.430448
0.215769 0.370636 0.431891
0.156435 0.352438 0.421403
-0.0343619 -0.389968 0.431891
0.183161 0.200921 0.414807
-0.10005 0.334877 0.421403
0.00150759 -0.401097 0.0733214
0.156312 0.0761759 0.414807
-0.0124897 -0.325898 0.360692
0.0426919 -0.0569633 0.414807
-0.132821 0.365141 0.431891
0.103594 0.43775 0.423262
0.013637 0.411408 0.0132553
0.00326935 -0.355805 0.253867
0.15408 -0.13652 0.414807
-0.0486375 0.312767 0.425294
0.114365 0.389271 0.421403
0.427798 0.0594278 0.421403
0.0336845 -0.0795263 0.425294
-0.0003401 -0.373595 0.227992
-0.0497308 0.00269029 0.390281
-0.360794 -0.243274 0.421403
-0.311586 0.129924 0.421403
0.336923 -0.258982 0.421403
0.0716809 -0.43994 0.421403
-0.327352 0.303079 0.421403
-0.262425 -0.171201 0.414807
0.145633 0.0224436 0.425294
0.404051 0.0320196 0.431891
-0.124478 -0.376094 0.421403
-0.246697 0.242286 0.421403
-0.148786 -0.117325 0.414807
0.0939441 0.223516 0.425294
-0.334913 -0.277739 0.421403
-0.0180384 0.273894 0.414807
0.148177 0.194178 0.425294
0.0797708 -0.316167 0.418243
-0.0446225 0.129662 0.414807
-0.179808 0.0149316 0.397622
0.0154116 0.408066 0.042983
0.30682 0.286014 0.431891
0.0550975 0.21587 0.425294
0.277588 0.175507 0.428547
0.0191717 -0.30218 0.425294
0.245869 0.357163 0.431891
0.0977473 -0.246795 0.425294
0.152448 0.265415 0.425294
-0.130558 0.313885 0.431891
0.0377146 0.115729 0.415131
0.24232 0.0267215 0.395342
0.111869 -0.327573 0.421403
0.176545 -0.22201 0.425294
0.0298885 0.390727 0.0548084
-0.0151485 -0.384874 0.123974
-0.119484 0.0289715 0.404645
-0.319594 0.00880947 0.372014
0.227582 0.239544 0.41892
0.24502 -0.319083 0.421403
-0.0360541 -0.0853909 0.425294
-0.171003 -0.193573 0.414807
0.0343122 -0.398975 0.431891
0.158123 0.284213 0.415855
-0.357191 -0.0953437 0.421403
-0.255616 -0.253629 0.431891
0.164841 -0.397645 0.421403
-0.155544 0.0577016 0.425294
0.0572966 0.365937 0.431891
-0.0621576 0.347246 0.421403
-0.0157322 -0.204728 0.404645
0.0945859 0.00561049 0.404645
0.319605 0.254475 0.431891
0.0246617 0.358305 0.210703
-0.318207 0.286304 0.431891
0.428426 0.00949506 0.0866432
0.0275854 -0.204974 0.425294
-0.137247 -0.342133 0.431891
0.358658 0.253743 0.421403
0.286638 -0.0998941 0.425294
-0.239378 -0.0878877 0.414807
-0.418517 -0.0904243 0.431891
0.172173 0.165261 0.414807
-0.0451791 -0.249837 0.425294
0.0678032 -0.0404437 0.425294
0.386958 -0.127007 0.431891
0.377959 0.004077 0.347837
-0.396534 0.209944 0.426245
0.025965 0.0953486 0.425294
0.0638161 0.0238508 0.425294
-0.0121319 -0.00811047 0.404645
0.201755 0.381514 0.421403
0.0743223 0.23903 0.414807
-0.0178167 0.430988 0.421403
0.275113 0.0867147 0.425294
-0.230947 0.271693 0.431891
0.122086 -0.38141 0.431891
0.0305843 0.235736 0.39492
0.082337 -0.0767797 0.425294
0.331314 0.234931 0.431891
0.329077 -0.139422 0.431891
-0.148916 0.19108 0.425294
-0.364403 0.261244 0.431891
-0.169329 0.0661428 0.414807
0.197344 0.0105445 0.38684
0.0246148 0.365294 0.168928
0.0161005 0.199562 0.385144
0.127447 0.263726 0.425294
-0.0424041 -0.0620822 0.414807
-0.197377 -0.228202 0.414807
0.0026629 -0.383815 0.0932752
-0.371165 0.193777 0.421403
-0.127756 0.161015 0.425294
-0.263696 0.280642 0.431891
-0.26325 0.179743 0.414807
-0.0187327 -0.328234 0.41823
-0.199084 0.0144268 0.425294
0.0289164 0.264701 0.404645
0.26151 0.206323 0.421286
0.0118775 -0.00352464 0.404645
0.350159 0.00891247 0.421403
-0.423744 0.0158201 0.133142
0.13115 0.152285 0.425294
0.416923 -0.0948416 0.431891
0.235444 -0.0329435 0.425294
0.188362 -0.36572 0.431891
0.300671 -0.175518 0.421403
0.104926 -0.423105 0.431891
0.192197 0.347918 0.421403
0.121842 0.0252527 0.401431
-0.325076 -0.114657 0.421403
0.0134781 0.355048 0.293196
0.0312432 0.366975 0.230895
-0.117655 -0.259205 0.425294
0.0408045 0.00840216 0.404645
-0.0845139 0.366455 0.421403
-0.154273 -0.318371 0.431891
0.154976 -0.0789219 0.414807
-0.35687 0.223067 0.421403
-0.40884 0.11801 0.421403
-0.00685365 -0.233755 0.415131
0.125308 -0.067653 0.425294
0.0259951 0.143213 0.414807
-0.0255698 0.177872 0.414807
-0.0503422 -0.312343 0.425294
-0.195842 0.0498298 0.425294
-0.244185 -0.280223 0.421403
0.248559 0.106292 0.425294
-0.0855879 -0.134274 0.414807
0.131733 -0.190007 0.414807
-0.401162 0.00918957 0.213565
-0.163576 -0.216024 0.414807
-0.266451 0.143431 0.414807
-0.071045 -0.368044 0.421403
0.268235 -0.129638 0.414807
-0.410648 0.0104557 0.0706517
0.25036 0.0694149 0.414807
-0.0794156 0.226192 0.425294
0.322734 0.0902174 0.421403
0.0531502 -0.109854 0.414807
0.372382 -0.0369379 0.421403
-0.140008 0.0546348 0.409763
0.0624271 0.430708 0.421403
0.370661 0.177699 0.431891
-0.127671 -0.142007 0.414807
-0.329948 0.0549539 0.421403
-0.190789 -0.189946 0.425294
0.0779774 0.331221 0.431891
-0.0634237 0.292741 0.425294
-0.00922677 0.186748 0.404645
0.123736 -0.302789 0.416515
0.0143528 -0.0625314 0.403693
-0.175581 0.26738 0.425294
-0.329529 0.252305 0.421403
-0.114136 0.116379 0.414807
0.0247971 0.25164 0.415131
-0.297422 -0.012701 0.414807
-0.0775157 0.396776 0.421403
0.00453352 -0.0784947 0.385203
-0.425802 0.00156191 0.0965795
0.189063 -0.187284 0.414807
0.429054 0.0182015 0.0687228
0.0683452 -0.154254 0.414807
-0.405409 0.0143007 0.175108
0.285934 0.0169937 0.398883
-0.0759827 0.110221 0.414807
-0.244468 0.30347 0.421403
-0.0818641 -0.101962 0.414807
0.244248 0.195489 0.414807
-0.130475 0.181371 0.425294
-0.283034 0.285314 0.431891
0.106935 0.343873 0.421403
-0.0807929 0.0134254 0.414807
-0.012702 0.160919 0.414807
0.0123196 -0.23858 0.425294
0.201568 0.0276922 0.415131
-0.0799462 0.0446681 0.415131
0.0248078 -0.32189 0.416089
-0.196852 0.355817 0.431891
0.40232 0.0195532 0.331809
0.0168043 -0.347535 0.431891
0.00665388 0.134431 0.393022
0.445992 0.0588106 0.427713
-0.289503 -0.190602 0.421403
-0.0239503 -0.0311517 0.404645
-0.266555 -0.113851 0.425294
-0.289113 0.0132988 0.39658
0.337976 0.00539609 0.381903
-0.353556 0.182518 0.431891
0.0162721 0.306202 0.366099
0.289587 0.0588218 0.414807
-0.197805 -0.29746 0.431891
-0.197713 -0.346803 0.431891
0.309302 0.312575 0.421403
-0.0437302 0.357104 0.421403
-0.0904175 -0.415742 0.431891
-0.394654 -0.0750042 0.421403
0.0178333 -0.0934617 0.404645
-0.31004 0.163988 0.431891
-0.279811 -0.168674 0.427755
0.405166 0.13052 0.421403
-0.144743 -0.102499 0.425294
0.0919501 0.0412023 0.415131
-0.0565092 -0.0546242 0.425294
0.382824 0.0124805 0.421403
-0.0960409 -0.327629 0.421403
-0.275344 0.313254 0.421403
-0.221011 -0.155709 0.425294
0.242679 -0.276371 0.431891
0.000702753 0.278532 0.414807
-0.04701 -0.189558 0.414807
-0.238683 0.155262 0.414807
0.0285908 0.393644 0.107158
0.199405 -0.396129 0.431891
-0.403524 0.0185368 0.282106
0.396347 0.0624898 0.421403
-0.405678 0.148727 0.421403
-0.289907 -0.22759 0.431891
-0.183884 -0.313566 0.431891
-0.421738 0.0185177 0.0860121
0.299561 0.232336 0.431891
-0.162279 -0.413078 0.421403
-0.225534 -0.0617233 0.414807
0.218275 0.297771 0.431891
-0.366769 -0.0685485 0.431891
0.00431985 -0.425629 0.431891
-0.0283773 -0.219989 0.414807
0.15839 -0.202684 0.414807
-0.327726 -0.22684 0.421403
0.250159 0.0398908 0.425294
0.32987 0.144397 0.431891
0.11539 -0.133962 0.414807
-0.242524 -0.372273 0.421403
-0.00473173 0.444502 0.431891
-0.227292 0.320106 0.421403
0.0907788 -0.222253 0.414807
0.0713677 0.0176128 0.404645
-0.0740362 -0.230102 0.425294
-0.367295 0.152375 0.421403
0.329391 -0.211164 0.431891
0.124474 0.342661 0.431891
0.0449189 -0.189866 0.414807
0.317711 0.217485 0.431891
-0.395804 0.0706879 0.431891
0.199714 0.0658099 0.414807
0.123059 -0.0115836 0.415131
-0.0091364 -0.267212 0.399484
0.0279713 0.184208 0.399926
-0.0137493 0.323567 0.427641
0.00383747 0.21947 0.425294
-0.00148464 -0.325451 0.331474
0.112067 -0.0875281 0.414807
-0.340151 -0.158125 0.421403
-0.27419 -0.233363 0.431891
-0.389099 -0.00112975 0.339392
0.40833 0.0195207 0.13393
0.0983261 -0.343139 0.431891
0.330732 -0.104213 0.421403
-0.213537 -0.224043 0.425294
0.0277722 0.350179 0.431891
-0.260678 0.0116742 0.404645
-0.194894 0.139881 0.425294
0.16399 -0.0526579 0.414807
0.200121 -0.0497261 0.425294
-0.301375 0.209321 0.421403
-0.197401 -0.147389 0.425294
-0.345279 0.00868935 0.386947
-0.173987 0.147541 0.414807
-0.0290142 0.414205 0.431891
-0.00665041 -0.371502 0.24955
0.277953 0.106814 0.425294
0.185736 -0.0898166 0.425294
0.330485 0.169194 0.431891
0.225743 0.101915 0.414807
0.0588339 -0.074324 0.425294
0.424285 0.0207316 0.106261
0.173976 0.412926 0.421403
0.376888 -0.0819959 0.421403
-0.0311528 0.152331 0.425294
-0.0237025 -0.0679854 0.425294
-0.214427 -0.0283651 0.414807
0.0022249 -0.392171 0.0529927
-0.200576 -0.020087 0.425294
0.276647 0.13189 0.425294
0.293129 -0.264111 0.421403
-0.0111819 0.359298 0.431891
0.0208516 0.123905 0.415131
-0.317865 -0.298768 0.421403
0.279979 0.258973 0.421403
0.365507 0.0231013 0.431891
-0.214952 0.278289 0.421403
-0.361768 0.0110644 0.358351
-0.12458 -0.272531 0.414807
-0.374261 0.0213922 0.431891
-0.16049 0.123151 0.425294
-0.0791796 -0.0114648 0.404645
0.363787 -0.112256 0.431891
-0.336492 0.00385769 0.431891
0.00475675 -0.244683 0.387872
0.0164365 0.292888 0.409845
0.198149 -0.00400332 0.415131
-0.171194 -0.260153 0.414807
-0.169275 0.341665 0.431891
-0.0071595 -0.130308 0.404645
-0.129629 0.404945 0.431891
0.0914891 0.121106 0.414807
0.26118 0.0546634 0.414807
0.34122 0.291846 0.425922
-0.0854836 0.170249 0.425294
0.132201 0.372043 0.421403
-0.290412 0.157474 0.419237
0.0950257 0.36396 0.431891
0.147701 -0.0195776 0.425294
-0.151416 -0.0675899 0.414807
0.235491 -0.330363 0.431891
-0.0213408 0.0470426 0.425294
-0.121714 -0.344263 0.421403
-0.0629395 -0.0129302 0.404645
0.297902 -0.0686484 0.425294
-0.152504 0.00195338 0.402915
-0.0755882 0.308794 0.414807
-0.304304 0.0561637 0.414807
-0.27586 0.102494 0.425294
-0.0936859 -0.235143 0.425294
-0.402114 -0.0420265 0.431891
0.166432 -0.181426 0.425294
0.0114953 0.214872 0.39811
0.263733 -0.0763362 0.414807
-0.342032 -0.248166 0.421403
0.262387 0.165503 0.414807
0.202066 -0.301947 0.431891
-0.366151 0.038104 0.431891
0.354524 0.0986044 0.421403
-0.0241814 0.128987 0.404645
0.374613 -0.142749 0.421403
0.203134 -0.251647 0.414807
-0.235351 0.115206 0.414807
0.361578 -0.0901574 0.431891
-0.348761 0.0972968 0.421403
0.0184947 0.404715 0.421403
0.0562135 -0.336436 0.421403
0.143409 0.404854 0.421403
-0.235518 0.0161629 0.415131
-0.188785 -0.285394 0.421403
0.412494 -0.174263 0.421403
-0.085589 -0.364328 0.431891
0.0137032 0.360353 0.27609
0.0766809 0.427981 0.431891
0.266102 -0.33074 0.421403
-0.445774 -0.0618145 0.431149
-0.0102585 -0.377766 0.104038
-0.3656 -0.0045557 0.421403
-0.162928 0.407683 0.431891
-0.286499 -0.0352164 0.414807
-0.195682 0.0793228 0.425294
-0.0204527 -0.222707 0.404645
0.237943 -0.0891956 0.414807
0.108965 0.281798 0.425294
-0.171183 0.363808 0.421403
-0.29627 -0.0972333 0.414807
0.408789 -0.0821789 0.421403
-0.112147 0.395312 0.431891
0.150442 0.00130299 0.415131
0.015782 -0.212453 0.404645
0.0910721 0.380118 0.421403
-0.0646497 0.0106942 0.415131
-0.163074 -0.162335 0.414807
0.0567449 0.445529 0.429303
-0.0352073 -0.146371 0.414807
-0.0571194 0.223285 0.425294
0.366843 0.160417 0.431891
0.253439 -0.116631 0.425294
0.286534 0.0413991 0.414807
0.331529 -0.0538599 0.431891
-0.176302 0.0372709 0.414807
-0.0346639 0.0288176 0.385316
0.0992942 -0.279102 0.425294
0.392557 0.0103161 0.309459
-0.115637 0.268176 0.425294
0.0597825 0.151275 0.425294
-0.0900661 -0.285732 0.414807
-0.141762 0.137099 0.425294
0.170932 0.0226724 0.414807
0.114096 0.417495 0.421403
-0.101942 0.183652 0.414807
-0.0083041 -0.372998 0.431891
-0.0178363 -0.0861976 0.414807
0.14883 -0.32363 0.431891
0.359447 0.132226 0.431891
0.00263497 -0.311012 0.359837
0.00649246 0.178909 0.404645
0.022538 -0.414547 0.431891
0.0157585 -0.0905838 0.391775
0.0784338 -0.0312187 0.414807
0.320499 0.289237 0.421403
-0.00732421 0.227239 0.414807
-0.00932389 -0.369209 0.149385
-0.318676 0.178363 0.421403
-0.0897037 -0.437775 0.431891
-0.199718 0.264243 0.431235
0.345206 -0.190844 0.421403
0.00294705 -0.387823 0.421403
-0.0700755 -0.292767 0.414807
0.277121 -0.0482466 0.425294
0.280386 -0.209939 0.431891
0.145465 0.295871 0.41856
-0.417187 0.0242671 0.431891
-0.233023 0.178217 0.425294
0.414921 -0.112483 0.431891
0.163997 -0.00262773 0.404645
-0.412245 0.0137874 0.296352
0.0608838 -0.25684 0.425294
0.260285 -0.208835 0.431891
0.202459 0.201076 0.425294
-0.0207453 -0.240891 0.415131
0.303072 -0.250984 0.431891
-0.18892 -0.164775 0.425294
0.102711 -0.104111 0.414807
0.106409 0.135115 0.414807
-0.170965 -0.0897076 0.425294
-0.183863 0.188036 0.414807
0.365367 0.22678 0.431891
0.182382 0.0338574 0.404645
-0.0146279 -0.339264 0.328715
0.231323 -0.127774 0.425294
0.041229 0.226107 0.425294
-0.285354 0.345245 0.431891
0.127567 0.0737204 0.414807
-0.0719263 -0.161197 0.425294
-0.286618 0.235343 0.421403
-0.0614916 0.419508 0.431891
0.134881 0.0126752 0.385964
0.0315017 0.368415 0.431891
-0.294747 0.0154171 0.38052
-0.188759 0.295471 0.421403
0.0283495 -0.0277177 0.38718
0.417099 0.00425414 0.0577488
0.254072 0.323267 0.431891
0.389499 -0.178571 0.431891
0.215486 -0.242409 0.426644
0.389894 0.111559 0.431891
-0.102927 -0.39029 0.431891
0.0140228 0.105066 0.404645
0.0627843 -0.0212035 0.415131
-0.236431 0.255527 0.431891
0.0328468 0.431727 0.421403
0.290578 0.0943419 0.425294
0.0172239 0.355571 0.231484
0.203518 -0.12891 0.425294
-0.272925 -0.0778099 0.425294
-0.342927 -0.196884 0.421403
0.102024 0.39452 0.431891
0.118144 -0.153154 0.425294
0.0303812 -0.0023331 0.393422
0.412668 0.00478968 0.268491
-0.28096 0.024355 0.425294
-0.234071 0.233296 0.430115
0.284546 -0.234059 0.421403
0.175721 0.00847039 0.39275
-0.252123 -0.144256 0.425294
-0.310302 0.0900334 0.416553
0.400626 0.0209266 0.268744
0.0802026 -0.106133 0.425294
-0.39668 -0.191304 0.431891
-0.1078 -0.22576 0.425294
0.353191 -0.254255 0.421403
-0.210118 0.194634 0.414807
0.247293 0.182548 0.425294
0.359654 -0.198962 0.431891
-0.309771 -0.134548 0.421403
-0.275303 0.261393 0.431891
0.187261 -0.13328 0.414807
-0.189144 0.404026 0.421403
0.249489 0.253922 0.421403
0.424788 0.0428014 0.421403
-0.118462 0.078644 0.414807
0.353499 0.00648561 0.368136
0.121309 -0.254178 0.414807
-0.0783608 -0.426466 0.421403
0.258672 0.12258 0.425294
-0.221034 0.125829 0.425294
0.212358 -0.056151 0.414807
-0.031232 -0.251988 0.404645
-0.00497074 -0.147541 0.414807
0.233153 0.335616 0.431891
0.245889 -0.254598 0.421403
0.0052525 -0.296032 0.382338
-0.208528 -0.0748465 0.425294
0.265703 0.232565 0.431891
0.166871 -0.23623 0.425294
0.114447 0.265458 0.414807
0.00557648 0.0296544 0.414807
-0.234093 -0.331387 0.431891
0.412369 0.101941 0.421403
0.225648 -0.378658 0.421403
0.02981 0.0411458 0.414807
0.0485192 0.335879 0.431891
-0.0125896 0.312828 0.414807
-0.303684 -0.249897 0.431891
-0.221484 -0.187868 0.414807
-0.130012 -0.185376 0.425294
-0.214107 0.0225332 0.415131
-0.0279496 0.217088 0.409814
0.0286766 0.321506 0.34115
0.0710502 0.113968 0.425294
0.0815884 0.175265 0.414807
-0.216869 -0.172101 0.425294
0.0339278 -0.355966 0.431891
-0.11494 -0.0810316 0.425294
0.154521 -0.288618 0.42875
-0.303173 -0.278848 0.431891
-0.220322 0.383421 0.421403
-0.00334418 -0.161616 0.425294
0.235539 0.1192 0.425294
0.214796 -0.011491 0.404645
-0.0365119 -0.0462434 0.414807
0.181379 0.120614 0.425294
-0.14249 -0.0187458 0.413902
0.43052 0.0068393 0.0443059
-0.422783 0.127156 0.421403
0.0269856 0.387317 0.14521
-0.0132657 -0.332894 0.345585
-0.102677 -0.0036202 0.414807
0.392836 0.0951583 0.431891
-0.0549573 0.190286 0.414807
0.0912541 0.293632 0.425294
0.119027 0.132356 0.425294
0.301441 0.0703439 0.425294
0.293441 0.00120215 0.414807
0.15298 -0.345427 0.431891
0.371617 0.215487 0.421403
0.348555 0.112198 0.431891
0.420144 0.0215082 0.145815
-0.0284535 0.116 0.425294
0.229998 0.176733 0.425294
-0.170095 0.183465 0.425294
-0.379532 -0.163905 0.431891
-0.117784 0.411904 0.421403
-0.0492421 0.402614 0.421403
-0.169119 -0.383155 0.421403
0.419276 -0.0533782 0.421403
-0.221735 -0.10653 0.414807
-0.357137 0.165453 0.421403
-0.450011 -0.00325529 0.427753
0.0425458 0.398578 0.421403
-0.181113 0.206792 0.414807
-0.106188 -0.357347 0.431891
-0.141646 -0.368937 0.431891
-0.31308 0.248497 0.421403
0.134027 0.168576 0.425294
0.401702 -0.0198671 0.431891
-0.101508 0.108632 0.425294
0.237048 -0.34866 0.421403
-0.0607574 -0.107986 0.425294
-0.225755 -0.12411 0.414807
-0.0301382 0.0326107 0.404645
0.150941 0.314707 0.421403
-0.305264 -0.288076 0.421403
0.00310574 0.255698 0.414807
0.169033 -0.412742 0.431891
0.392922 -0.0375262 0.421403
0.0439334 0.136862 0.409214
0.159881 0.153097 0.425294
0.392555 0.0786802 0.431891
0.409754 -0.0336607 0.421403
0.360413 0.144877 0.421403
-0.299059 0.281574 0.431891
-0.383271 0.219483 0.421403
0.42246 0.00517959 0.137641
-0.222908 0.0142758 0.400638
-0.300736 0.326329 0.431891
-0.0521962 -0.140867 0.425294
-0.00996029 0.0999689 0.404645
0.301891 -0.0543805 0.414807
-0.267805 -0.340896 0.421403
-0.0713214 0.263432 0.414807
-0.0826893 -0.259078 0.425294
0.329038 -0.155788 0.431891
-0.129196 0.0157715 0.404645
-0.32814 0.229285 0.431891
-0.0141245 -0.392614 0.052819
0.00177439 -0.363521 0.192183
0.182412 -0.32072 0.431891
0.328021 -0.0830972 0.421403
0.274589 -0.0245427 0.404645
0.23637 0.244159 0.431891
0.0313348 0.234188 0.415131
-0.377215 -0.0420083 0.431891
0.28721 -0.0271872 0.425294
0.43542 -0.0799138 0.431891
-0.0205896 -0.344764 0.431891
0.128185 -0.347838 0.431891
0.0968395 0.0112382 0.385582
0.414388 0.0134771 0.00310426
0.00760996 0.166168 0.415131
-0.265824 0.0462447 0.404645
-0.127627 0.113177 0.425294
-0.00358078 -0.269397 0.414807
-0.0932671 0.210576 0.414807
0.033942 0.214971 0.414807
-0.0943409 -0.0885271 0.425294
0.286148 0.296203 0.421403
0.207591 0.26691 0.421403
0.156778 -0.0911114 0.425294
-0.167559 -0.333033 0.431891
0.281964 0.335545 0.421403
0.0206799 0.433488 0.431891
0.189064 -0.27908 0.431891
-0.187932 -0.254756 0.414807
-0.192405 0.104855 0.425294
-0.16863 0.312869 0.431891
0.340445 0.0724602 0.421403
0.259849 0.0824754 0.414807
0.0671178 0.204514 0.425294
-0.0344707 -0.20296 0.415131
-0.0967106 0.365266 0.431891
-0.140708 0.0383973 0.425294
-0.0281536 -0.0116739 0.414807
0.110417 -0.364797 0.421403
-0.0697666 -0.210236 0.425294
0.428233 -0.134454 0.422521
0.448257 0.0274934 0.422528
0.345149 0.0348074 0.431891
