0.00159864 0.338604 0.493272
0.214056 0.370033 0.519072
-0.0371341 -0.0926067 0.493272
0.256675 0.177975 0.522969
-0.016286 -0.381722 0.522969
-0.132457 0.162564 0.522969
-0.200705 -0.161184 0.493272
0.337254 0.0631109 0.522969
-0.367927 0.0331711 0.493272
-0.0796213 -0.179242 0.522969
-0.104725 -0.0416767 0.522969
0.261108 -0.254751 0.493272
-0.0383745 -0.230469 0.522969
0.115032 0.0780265 0.493272
-0.313982 -0.132468 0.522969
-0.311513 -0.020082 0.522969
0.400067 0.124999 0.522969
-0.23684 -0.00181164 0.493272
-0.000369041 -0.146633 0.0530031
-0.275006 -0.327403 0.516019
0.175503 0.311303 0.522969
0.116228 0.0311514 0.493272
-0.364329 -0.00818501 0.493272
-0.0244578 0.00883882 0.224306
-0.108428 0.295923 0.522969
-0.239701 0.0621541 0.493272
0.342239 -0.144758 0.522969
-0.0861294 -0.129742 0.522969
0.294939 -0.118242 0.493272
-0.248965 -0.0530893 0.522969
0.281182 0.201672 0.522969
0.277147 6.35467e-05 0.0118789
-0.247635 -0.0155276 0.522969
0.221887 0.294305 0.522969
0.330216 0.0622257 0.493272
-0.288504 -0.0901794 0.522969
0.0596618 -0.135919 0.493272
0.231552 0.0588916 0.522969
0.0148396 -0.288742 0.011498
0.25318 -0.271184 0.493272
-0.308191 -0.103002 0.522969
-0.12518 0.0132686 0.0356735
0.270435 -0.109762 0.493272
0.292287 0.103682 0.522969
-0.381426 0.123002 0.522969
0.378508 -0.0378142 0.522969
0.351012 -0.202312 0.500814
-0.406215 -0.0397323 0.522969
-0.194509 0.347369 0.522969
-0.0763477 0.114553 0.522969
0.342506 -0.033351 0.493272
-0.0234755 0.00255333 0.430564
-0.366536 0.190552 0.522969
0.420158 -0.0683644 0.522395
-0.0874093 0.389467 0.522969
-0.37245 0.118084 0.522969
0.155375 -0.222027 0.522969
-0.00837848 0.192798 0.522969
-0.292157 0.0734205 0.522969
-0.000538605 0.0236692 0.358107
0.0179182 -0.0154588 0.395228
0.0137223 0.284477 0.0229899
0.164881 -0.0681935 0.522969
-0.00901831 0.220446 0.0368911
-0.185705 0.139771 0.493272
-0.185806 -0.347478 0.522969
0.0271978 0.0167075 0.178671
0.362265 0.184007 0.501502
-0.0522965 0.0413292 0.493272
0.39824 0.088398 0.522969
-0.0435901 0.307128 0.493272
0.38346 0.0419185 0.493272
-0.0594107 -0.167612 0.522969
0.222087 -0.00899932 0.0393635
0.188632 -0.053916 0.493272
0.0732128 0.0740886 0.522969
0.0165422 0.0169559 0.36228
0.0220494 -0.141796 0.522969
-0.166197 0.283103 0.522969
-0.343041 -0.107821 0.493272
0.0983587 -0.394492 0.522969
0.00426267 -0.145961 0.0531556
0.0293101 0.0316536 0.107989
0.241396 -0.322325 0.499436
0.189151 -0.00933277 0.0400992
0.319324 -0.0366656 0.493272
-0.29868 0.176125 0.522969
-0.170896 0.156934 0.493272
0.0396549 -0.000146202 0.522969
-0.250142 -0.290783 0.522969
-0.106731 0.369824 0.522969
-0.0219862 -0.289774 0.522969
0.272544 -0.17566 0.522969
-0.0822479 0.169882 0.493272
-0.0566861 0.0698923 0.522969
0.0358439 -0.410296 0.504619
-0.316722 0.147137 0.493272
0.291459 -0.0286885 0.522969
0.254078 -0.181927 0.522969
-0.258919 -0.168452 0.522969
0.0694761 -0.132631 0.522969
0.0916899 -0.277888 0.522969
0.203249 -0.368224 0.522969
0.420805 -0.0751962 0.517438
0.163769 -0.339933 0.493272
-0.162524 -0.395491 0.51887
-0.0217643 -0.0711018 0.0658853
0.0270337 -0.0430428 0.0491085
0.0217944 -0.00919329 0.364254
0.0953064 -0.215297 0.493272
-0.167628 0.236203 0.493272
0.3459 0.197867 0.522969
-0.336106 0.109225 0.493272
0.0140897 0.080148 0.0369475
-0.296513 -0.011462 0.0118789
-0.148618 0.00937971 0.522969
-0.0633681 -0.347494 0.493272
-0.00686243 -0.0735459 0.522969
0.00943847 -0.0360604 0.143763
-0.0859972 -0.282093 0.522969
-0.125864 -0.281337 0.522969
-0.303912 0.136292 0.522969
0.267878 0.326602 0.510629
0.114718 -0.362322 0.522969
0.307703 0.288933 0.522969
0.219334 -0.277882 0.493272
0.105654 -0.410488 0.511443
0.00160705 0.0236626 0.298601
-0.0245377 -0.0141541 0.493272
-0.0617667 -0.00158601 0.102136
-0.223503 0.0987684 0.493272
-0.245446 0.296182 0.522969
0.0251203 0.174741 0.493272
0.294074 0.118706 0.522969
-0.0367703 -0.024483 0.040925
-0.0480705 0.390815 0.494358
-0.324157 0.0761317 0.493272
-0.115658 0.209072 0.493272
-0.379496 -0.117013 0.496186
-0.310926 0.293266 0.513336
-0.00929589 0.192253 0.0410049
0.334117 0.17923 0.522969
-0.0965684 -0.158833 0.522969
-0.111092 0.000558549 0.0650832
-0.106692 0.18525 0.522969
-0.194268 -0.0499394 0.522969
0.0358268 0.218457 0.493272
-0.403888 0.00384524 0.522969
0.0539902 -0.214346 0.493272
0.069424 -0.260175 0.493272
-0.231132 0.220927 0.493272
0.336565 0.0858659 0.493272
-0.156141 -0.0171663 0.522969
0.412199 -0.0748533 0.50862
-0.0149024 0.222813 0.522969
0.175743 0.350685 0.493548
-0.245254 -0.105868 0.493272
-0.0487015 0.382235 0.493272
0.0199391 -0.159175 0.493272
-0.207253 0.0774213 0.522969
-0.0109273 0.0483513 0.0398629
-0.00255039 -0.296285 0.522969
-0.108581 -0.31667 0.493272
0.143951 -0.249572 0.522969
0.159121 0.355419 0.522969
-0.2249 0.11675 0.522969
0.187577 0.0406002 0.522969
-0.227909 -0.242465 0.493272
0.243195 -0.323915 0.522969
-0.0389645 0.0278421 0.0630946
0.0279401 -0.00321725 0.173734
-0.267759 0.171962 0.493272
0.0370556 0.266472 0.493272
-0.237775 0.306416 0.522969
0.376232 -0.071755 0.493272
0.0571732 -0.194186 0.522969
-0.412146 -0.0915253 0.510349
0.304004 -0.289304 0.509072
-0.232647 -0.321327 0.495994
0.325628 0.261954 0.508017
-0.079778 0.0858821 0.522969
0.220626 0.295562 0.493272
0.271306 0.0429909 0.493272
-0.28356 -0.0289951 0.493272
-0.00214366 0.262531 0.493272
-0.00890299 0.225511 0.0400127
0.00899128 -0.2237 0.0331864
-0.00259237 -0.023482 0.2773
-0.418879 0.0405066 0.522969
0.2016 -0.103229 0.522969
-0.247986 -0.11865 0.493272
0.239535 0.0949846 0.493272
-0.314753 0.0262425 0.522969
0.00576289 -0.228982 0.493272
0.097138 0.257638 0.493272
-0.0319563 -0.382395 0.493272
-0.00793773 0.309024 0.493272
-0.203978 0.0814944 0.493272
-0.0440874 0.178986 0.522969
-0.288708 0.101412 0.493272
-0.0307864 0.0294786 0.0515741
0.0700101 0.306935 0.493272
-0.0802137 -0.149047 0.522969
0.262183 -0.214402 0.493272
0.214989 -0.0640048 0.493272
-0.363783 -0.0380507 0.522969
-0.00316382 -0.0466891 0.123485
0.0148957 -0.0184308 0.419838
0.0124584 -0.0201357 0.338294
-0.349299 -0.246513 0.518218
-0.0304059 -0.190047 0.493272
-0.302787 0.216007 0.522969
-0.196202 0.276173 0.522969
-0.0660746 -0.0226738 0.063917
-0.0336699 0.0877157 0.522969
-0.320136 0.0840659 0.522969
-0.0124503 -0.397645 0.496656
0.0111434 -0.299604 0.0248621
-0.0047231 0.121438 0.522969
-0.141389 -0.363724 0.493272
-0.283048 -0.286007 0.522969
0.197318 -0.126966 0.522969
0.103475 -0.100277 0.493272
0.193423 -0.055887 0.493272
-0.134277 -0.177415 0.493272
-0.139059 0.282338 0.493272
0.205938 -0.131781 0.522969
0.172638 0.211578 0.493272
-0.0332847 0.0376637 0.493272
0.384067 0.0933157 0.495235
0.0183895 -0.0833272 0.522969
0.311521 -0.22726 0.493272
-0.150657 -0.159277 0.522969
-0.111365 -0.349094 0.493272
0.133542 0.249815 0.493272
0.023063 0.00546375 0.264908
0.1475 -0.320881 0.522969
-0.0447676 -0.0992914 0.522969
-0.334128 -0.242757 0.522969
-0.0140472 0.0140713 0.243815
0.370341 -0.182644 0.522969
0.173332 0.383595 0.50975
-0.222436 0.250681 0.522969
0.010197 -0.128401 0.0579679
-0.179651 -0.353686 0.495949
-0.0142183 -0.326392 0.493272
0.0262362 -0.0612912 0.522969
0.0133974 -0.230823 0.493272
-0.197001 0.165169 0.522969
-0.302841 -0.139285 0.493272
0.206741 -0.0876392 0.493272
-0.318486 0.183142 0.493272
-0.112251 -0.363055 0.522969
-0.0220928 -0.25355 0.522969
-0.414501 -0.0301967 0.506678
0.279128 -0.309571 0.522969
-0.386522 0.0651936 0.493272
-0.0554929 -0.0324757 0.493272
0.0370788 0.15612 0.522969
-0.0685532 0.274662 0.493272
-0.0894095 0.418082 0.515045
-0.224547 -0.358868 0.522969
-0.0118202 0.0327415 0.151127
-0.00159049 0.0235301 0.258391
0.064804 0.044423 0.522969
-0.200632 -0.216178 0.522969
-0.259185 -0.125034 0.522969
-0.383216 0.0428288 0.493272
0.0454342 -0.0265488 0.0797222
-0.260537 -0.0215517 0.522969
0.0671481 -0.269643 0.493272
0.0110388 0.38458 0.522969
0.0210827 -0.330976 0.522969
-0.285008 0.00312197 0.0416825
0.150036 -0.257792 0.493272
-0.184307 0.295123 0.493272
0.258075 -0.219731 0.493272
-0.0107541 0.251918 0.0300797
0.163835 -0.392541 0.512277
0.341867 0.23008 0.522969
-0.168453 -0.312673 0.522969
-0.0289275 0.0327741 0.149176
0.0681894 0.268339 0.493272
-0.191608 0.214173 0.522969
-0.0233884 -0.326097 0.493272
0.152199 0.074673 0.493272
-0.00412261 -0.0272532 0.184008
-0.00321268 -0.22165 0.043551
0.00826159 -0.0425931 0.522969
0.291636 0.0914399 0.493272
0.00124528 -0.0539761 0.493272
-0.397515 0.0236891 0.496847
-0.133841 -0.353435 0.522969
-0.038502 -0.293522 0.522969
-0.0255209 0.225909 0.522969
0.26535 -0.139998 0.493272
0.341078 -0.0232293 0.493272
0.269019 0.269001 0.522969
-0.147438 0.396276 0.522969
0.302418 -0.201388 0.493272
0.239324 0.0509482 0.522969
-0.0334857 -0.0156983 0.149506
-0.0506802 0.273354 0.493272
0.127688 -0.340245 0.493272
0.023531 0.00287985 0.424635
0.0368124 0.0285287 0.522969
-0.00486587 0.109959 0.493272
-0.013692 -0.294032 0.0307179
-0.248472 0.258223 0.522969
-0.220012 -0.215563 0.522969
-0.192015 -0.381036 0.513006
-0.121884 -0.380901 0.497833
-0.156264 -0.0159035 0.493272
0.102296 -0.300938 0.522969
-0.191265 0.123298 0.493272
-0.0389625 -0.0441857 0.522969
-0.217509 -0.184054 0.522969
0.182867 -0.351148 0.495567
-0.143251 -0.315236 0.493272
-0.410029 0.08373 0.508291
0.203269 -0.220024 0.522969
-0.230056 0.334955 0.501413
-0.250426 0.26139 0.493272
-0.217826 0.354341 0.506852
0.0021396 -0.0235909 0.249123
-0.258678 -0.0807588 0.522969
0.0271966 -0.0422264 0.0626219
0.253342 -0.0908728 0.522969
0.0559752 -0.38219 0.522969
-0.26645 0.141282 0.522969
-0.266041 0.0734193 0.493272
-0.209742 0.232939 0.493272
-0.0944369 0.0354218 0.493272
0.290212 0.0588684 0.493272
0.306905 0.025364 0.522969
-0.394378 -0.127061 0.505959
-0.0195871 -0.0132922 0.374095
-0.100789 0.0809159 0.493272
-0.0959036 -0.354813 0.493272
0.0548762 -0.221339 0.493272
0.209798 0.113946 0.522969
0.243566 -0.0897908 0.493272
-0.189667 0.165112 0.493272
0.114838 0.24856 0.493272
-0.192336 -0.163258 0.493272
-0.207198 0.047269 0.493272
0.071604 -0.0438436 0.522969
-0.236924 0.111851 0.522969
-0.300263 0.0120212 0.000609592
0.394443 0.0607273 0.522969
-0.329535 0.247042 0.522969
0.329277 -0.103874 0.522969
0.320173 -0.26271 0.505915
0.0118125 0.0361185 0.0409855
0.173058 -0.338995 0.493272
0.0209727 -0.0109646 0.37288
-0.0693288 -0.236544 0.493272
0.292332 -0.207377 0.522969
0.180558 -0.219981 0.493272
0.245862 0.349628 0.51442
-0.403693 0.105996 0.507671
0.0877148 0.361665 0.493272
0.0487245 0.252984 0.522969
0.0814995 -0.291415 0.522969
-0.415183 0.0747144 0.510234
-0.0272272 0.0420218 0.0486465
-0.0148055 0.0183718 0.462128
-0.418847 -0.0806852 0.521714
0.00223533 0.171568 0.493272
-0.120483 -0.0928371 0.522969
0.126055 0.404186 0.522969
0.187612 0.000461578 0.493272
-0.198188 -0.0820655 0.493272
0.34174 -0.09682 0.522969
0.17415 0.0308361 0.493272
0.107461 -0.326746 0.522969
0.226112 0.219724 0.522969
-0.14259 0.085965 0.493272
0.0287491 0.386424 0.522969
0.206514 -0.371481 0.522653
-0.394896 0.0337515 0.522969
0.317097 -0.179227 0.522969
0.119687 0.405224 0.522969
-0.261864 -0.263972 0.522969
0.0726712 -0.0214861 0.081285
0.246937 -0.0795028 0.522969
-0.157919 0.058662 0.522969
-0.158479 0.361289 0.494753
0.358235 -0.140173 0.522969
0.389818 0.0709785 0.495774
-0.27452 0.233715 0.493272
0.255398 0.156079 0.522969
-0.136025 -0.288669 0.493272
-0.419708 -0.0702308 0.522569
0.199739 -0.350241 0.499717
-0.0811152 0.2964 0.522969
0.204686 -0.359219 0.505497
0.0588457 -0.0239748 0.0892905
-0.147531 0.143179 0.493272
-0.149099 -0.146673 0.493272
0.258437 0.073904 0.493272
-0.325307 0.205024 0.493272
-0.307662 -0.00982989 0.493272
-0.147868 -0.377489 0.522969
0.409923 0.0293808 0.504131
0.0873691 -0.275994 0.493272
0.0672351 -0.265916 0.493272
0.403121 -0.122392 0.522969
0.218666 0.0206952 0.493272
-0.365622 0.0373221 0.522969
0.15656 0.109403 0.493272
-0.0267798 0.0957828 0.522969
-0.181547 0.202916 0.522969
-0.0659899 0.155314 0.522969
-0.394477 -0.147047 0.509738
0.102899 -0.00802795 0.0691078
-0.277515 -0.174451 0.493272
-0.303146 0.29596 0.511227
0.0371687 -0.175745 0.522969
0.373557 0.0686641 0.493272
0.250019 -0.0921135 0.493272
0.180759 -0.176753 0.522969
-0.00595596 0.275393 0.0417806
0.316481 -0.0876337 0.493272
-0.00423238 0.0958404 0.03551
-0.00625104 -0.0228639 0.385054
-0.309995 0.139279 0.493272
-0.0198792 -0.0127547 0.481477
-0.00248531 -0.283261 0.522969
-0.253912 0.027544 0.493272
0.385867 0.0470731 0.522969
-0.314462 -0.0566628 0.493272
0.161631 -0.236954 0.493272
-0.249704 -0.282251 0.522969
-0.0680926 -0.332715 0.522969
-0.357125 0.197749 0.522969
0.0320217 -0.0331661 0.493272
-0.225777 -0.348042 0.522969
-0.221813 -0.0977671 0.493272
-0.35093 0.0856362 0.522969
-0.224403 0.0123427 0.493272
-0.217543 0.362256 0.510652
-0.0771444 0.350012 0.522969
-0.177569 -0.323929 0.493272
0.054019 0.202038 0.493272
-0.0388772 0.293327 0.493272
0.279213 -0.187093 0.493272
0.275513 0.0978398 0.493272
0.0711353 -0.0407811 0.522969
0.0307062 0.330686 0.493272
-0.279575 0.0149457 0.522969
-0.273605 0.209938 0.522969
-0.0305228 -0.185613 0.522969
0.0349299 -0.365853 0.522969
0.16784 0.138321 0.493272
0.09663 -0.380171 0.493493
0.324035 -0.143642 0.493272
-0.38097 -0.137616 0.522969
-0.236013 0.294596 0.522969
-0.0640852 -0.00440819 0.0384219
-0.0156465 0.0954113 0.0728076
-0.28733 -0.163233 0.522969
0.31703 -0.275684 0.509319
0.158463 -0.139411 0.493272
-0.0989328 0.414182 0.512535
-0.125047 0.236699 0.522969
0.0861595 -0.324972 0.493272
0.234268 0.296705 0.522969
-0.00433788 0.023208 0.440609
-0.21031 -0.243523 0.522969
-0.42754 0.0113587 0.513938
0.100581 0.114417 0.522969
0.180467 -0.274778 0.493272
-0.202583 0.0467815 0.522969
0.047118 -0.301833 0.522969
-0.00952721 -0.0295507 0.159225
-0.00838457 -0.277091 0.000445111
0.0287634 -0.0144097 0.165154
0.00812404 0.356751 0.522969
-0.293026 -0.208689 0.493272
0.0953908 -0.131967 0.493272
-0.0140241 -0.203559 0.493272
-0.19493 0.188978 0.522969
0.0861607 0.23452 0.493272
-0.0597209 -0.200116 0.493272
-0.285805 0.261637 0.493272
-0.0151814 0.0661879 0.097023
0.0382738 0.119034 0.493272
0.127273 0.387479 0.502337
-0.248547 -0.118332 0.493272
0.0333289 -0.0289748 0.127048
-0.359142 -0.037968 0.493272
0.298571 0.169622 0.493272
0.0875808 0.193183 0.522969
0.0883919 0.151198 0.493272
0.0298043 -0.305568 0.493272
-0.122403 -0.157127 0.522969
0.136492 0.258508 0.522969
0.021292 0.188361 0.522969
-0.171419 0.27232 0.493272
-0.250209 0.218606 0.493272
0.112552 0.350096 0.493272
-0.201247 -0.108833 0.522969
0.0711811 -0.351307 0.493272
0.0563898 0.0377708 0.493272
-0.0924186 0.0659166 0.522969
0.0679958 -0.235759 0.522969
0.21054 0.000669561 0.522969
-0.0626038 0.34922 0.522969
-0.0432388 -0.266615 0.522969
0.103477 -0.137206 0.493272
0.158042 -0.0154743 0.493272
-0.166935 0.240701 0.493272
0.360228 0.0136935 0.522969
-0.277793 0.0134629 0.0080628
0.239496 0.0707366 0.522969
0.0622293 -0.135877 0.493272
0.286132 -0.317516 0.518444
-0.00505989 -0.21922 0.043717
0.0511361 0.0254103 0.0466299
0.279829 -0.0388778 0.522969
0.102672 -0.137095 0.522969
0.161062 -0.0626164 0.522969
0.39133 0.0151255 0.522969
0.280663 0.179179 0.493272
-0.0677241 -0.395761 0.498748
0.163988 0.33458 0.522969
0.0677243 0.221524 0.522969
-0.0585729 0.0623063 0.522969
-0.222742 -0.107248 0.522969
0.106803 0.283103 0.493272
0.115209 -0.387748 0.500415
0.0636878 -0.113794 0.493272
-0.00881251 -0.0271858 0.183573
-0.288489 -0.154531 0.493272
-0.155455 -0.00608982 0.493272
-0.0505717 0.322985 0.522969
-0.143064 0.0689579 0.493272
0.0131294 0.0625416 0.0385615
-0.357548 -0.0604138 0.522969
0.0198295 0.0527038 0.114203
-0.0225922 -0.357179 0.493272
0.129409 0.0813379 0.493272
-0.218182 -0.0627397 0.493272
0.175156 -0.322618 0.522969
0.1389 0.206317 0.493272
-0.0774253 -0.207269 0.493272
-0.0414688 0.100745 0.493272
0.289032 0.0161345 0.0110779
0.137542 0.0464656 0.493272
-0.137898 -0.113585 0.522969
0.132121 0.353279 0.522969
0.154608 0.222613 0.493272
0.00144807 -0.391809 0.522969
0.231046 0.314592 0.493272
-0.269132 0.0140645 0.493272
-0.130167 0.0573709 0.522969
-0.243662 0.179005 0.522969
0.116179 -0.257293 0.493272
0.0565969 -0.0935203 0.522969
-0.102875 0.305348 0.493272
0.144408 -0.26983 0.522969
-0.228768 0.165258 0.522969
-0.0500129 0.156585 0.493272
-0.00492415 -0.00249841 0.522969
0.0631263 -0.0563345 0.493272
-0.027975 0.357347 0.493272
0.090734 -0.324334 0.522969
-0.122945 -0.0546215 0.493272
-0.301346 -0.01418 0.00433421
-0.280516 0.0835155 0.522969
-0.0234724 0.00265179 0.418056
-0.0384042 -0.0632528 0.522969
0.0269444 0.0249212 0.17672
-0.115758 0.218833 0.522969
-0.352706 -0.0174574 0.493272
-0.128174 -0.252572 0.522969
-0.0609285 0.0235987 0.0940622
0.199694 -0.221856 0.522969
-0.258756 -0.0397995 0.493272
0.136787 0.386214 0.522969
-0.194221 0.318362 0.522969
-0.0790279 -0.0501218 0.493272
-0.146104 0.221962 0.522969
0.0409622 0.0302973 0.522969
-0.221423 -0.213685 0.522969
0.309605 0.2946 0.515728
-0.0608909 -0.385678 0.493272
-0.354603 -0.0134832 0.493272
0.216076 -0.172488 0.522969
-0.0673577 -0.153611 0.522969
-0.253597 0.29887 0.522969
-0.352199 -0.183647 0.496195
-0.265744 0.0206281 0.522969
0.162239 0.090545 0.522969
0.109351 0.26671 0.493272
0.129502 0.176353 0.522969
0.149519 -0.254135 0.493272
-0.256286 0.256507 0.493272
0.315339 0.216829 0.493272
-0.245316 0.258839 0.493272
0.028612 0.035153 0.0533336
-0.388166 0.110809 0.499855
0.166222 -0.094459 0.493272
0.185043 0.363138 0.502172
0.18865 0.291153 0.493272
-0.268589 -0.288018 0.522969
-0.154839 -0.131686 0.493272
0.123857 -0.276179 0.493272
0.370174 0.126766 0.493272
0.173104 -0.144399 0.493272
0.369794 -0.149107 0.497151
0.166766 -0.182565 0.493272
0.0568707 -0.385518 0.522969
0.339236 -0.0749684 0.522969
0.313345 0.289871 0.521278
0.237049 -0.0370099 0.522969
-0.025752 0.00814618 0.210788
-0.0753881 -0.109912 0.493272
-0.337861 -0.0941139 0.493272
-0.401781 -0.13307 0.522969
-0.078342 -0.105229 0.493272
0.0657143 0.262415 0.493272
0.00692767 -0.0668823 0.0962195
0.313453 -0.0776201 0.493272
0.0981657 0.307848 0.522969
-0.234593 0.201212 0.522969
-0.299846 -0.0464219 0.522969
0.0775323 -0.0057041 0.0859642
-0.224726 0.192239 0.522969
0.00439814 -0.272727 0.0418267
-0.23359 -0.312744 0.522969
0.194283 -0.0912965 0.522969
-0.0018344 -0.091426 0.493272
0.00131113 -0.0235778 0.438051
-0.0825375 -0.0971496 0.522969
-0.0975996 -0.0534837 0.522969
-0.116337 -0.320982 0.493272
-0.416081 0.0858913 0.511892
-0.318036 0.17317 0.522969
0.0555102 0.262108 0.493272
-0.0952833 0.012608 0.522969
-0.397636 -0.0894303 0.522969
0.298056 0.172293 0.493272
-0.276255 0.0662246 0.493272
-0.0781251 0.0834975 0.522969
-0.108225 0.10355 0.493272
0.0538575 -0.186588 0.493272
-0.161621 -0.384412 0.507481
0.0211361 -0.0106076 0.41111
-0.354302 0.222772 0.522969
-0.084185 0.0404655 0.493272
0.0527318 -0.186091 0.522969
-0.273383 -0.0819573 0.522969
0.263957 0.116623 0.493272
0.11362 0.291651 0.493272
0.199361 -0.109356 0.522969
0.112809 0.412045 0.520233
0.0396873 -0.06357 0.522969
-0.209375 -0.0693293 0.522969
0.396142 -0.0920457 0.501735
-0.0828971 0.102245 0.493272
-0.203898 -0.338301 0.495021
0.103044 0.165007 0.522969
-0.222495 0.339152 0.500981
0.32048 0.233076 0.49576
0.402564 0.00611764 0.522969
0.0941978 0.39481 0.501158
0.0906988 -0.0791659 0.493272
0.0764242 -0.0675611 0.522969
0.00614998 -0.120862 0.522969
-0.0866481 -0.319404 0.522969
0.0511022 -0.204208 0.493272
0.0904647 -0.181603 0.493272
0.0690477 -0.192839 0.522969
0.131249 0.345503 0.522969
-0.0383036 -0.0279748 0.0431747
0.269 -0.162528 0.493272
-0.130086 -0.0123734 0.0558062
-0.17291 0.283582 0.493272
0.0822617 0.357937 0.522969
-0.182537 -0.0342456 0.522969
0.370255 -0.136702 0.494943
-0.0200598 0.399089 0.497678
0.139771 0.320561 0.522969
0.219842 -0.00115968 0.522969
0.0478451 -0.259451 0.522969
0.0327504 0.12951 0.522969
-0.339796 0.123395 0.522969
-0.16892 -0.125073 0.522969
0.321308 -0.0988728 0.493272
-0.105645 0.397715 0.504336
0.160022 -0.114243 0.493272
0.23433 0.0426405 0.522969
-0.244551 -0.185824 0.493272
0.226928 -0.00895321 0.036733
0.308208 0.251496 0.522969
0.275579 0.0839985 0.493272
0.295894 0.265282 0.496464
0.243163 -0.227169 0.493272
-0.059682 -0.286923 0.522969
-0.412805 0.024225 0.505512
0.214614 0.369725 0.519398
0.011835 -0.263788 0.0204003
-0.123981 -0.121805 0.493272
0.244949 0.22314 0.493272
0.195742 0.379868 0.520226
0.198598 -0.0694971 0.522969
0.150844 0.0540319 0.522969
-0.0126512 -0.127328 0.056583
0.00239141 -0.0235387 0.243932
0.290667 -0.0804201 0.493272
0.023171 -0.0045317 0.247088
-0.277176 0.289206 0.498142
0.0578418 -0.0538868 0.522969
0.14045 -0.179817 0.493272
-0.147145 -0.374711 0.522969
-0.0920889 0.297978 0.493272
0.0684553 -0.334221 0.522969
0.0124406 -0.135575 0.0373977
-0.284596 -0.149678 0.522969
-0.0331806 0.027929 0.149821
-0.178413 -0.19076 0.522969
-0.175738 -0.180435 0.522969
-0.0215136 -0.00998714 0.522969
0.196595 0.3383 0.522969
-0.197894 0.00924656 0.0251349
0.111744 0.0762336 0.522969
-0.165196 -0.316816 0.522969
0.209177 0.0206412 0.493272
0.00874084 -0.231782 0.493272
-0.0159087 0.0305471 0.155874
-0.331488 0.094937 0.522969
-0.39869 -0.153178 0.520992
-0.0076499 -0.361285 0.522969
-0.152239 0.0710862 0.493272
-0.117225 0.281596 0.522969
-0.277636 0.10096 0.493272
-0.010478 0.298621 0.493272
-0.00244615 -0.0235229 0.320242
-0.0231308 -0.0203514 0.205398
-0.119428 0.138407 0.493272
-0.130905 -0.184402 0.493272
-0.17473 -0.273646 0.493272
0.173213 -0.221306 0.522969
-0.0788129 0.34293 0.522969
0.253436 0.282953 0.522969
-0.0167381 -0.308254 0.493272
-0.125133 0.169403 0.493272
0.0171732 0.022584 0.216348
-0.277463 -0.259678 0.522969
0.0850568 -0.189082 0.493272
-0.399701 -0.151723 0.514689
0.238858 0.178445 0.522969
0.0799764 -0.322672 0.522969
-0.315743 -0.0865382 0.522969
0.169412 0.37456 0.522969
-0.264367 -0.186371 0.522969
-0.380264 -0.194317 0.521253
-0.231452 0.315714 0.493272
0.00768656 0.143523 0.522969
-0.223914 0.361721 0.512236
0.141438 0.11021 0.522969
-0.228325 -0.0223003 0.522969
0.322323 -0.0172294 0.493272
-0.0145685 -0.111076 0.0347774
-0.19938 -0.0338339 0.522969
0.0681137 0.0357945 0.522969
0.173499 -0.292169 0.493272
-0.276302 0.299898 0.502233
0.00496704 -0.0829766 0.493272
-0.0769123 -0.420486 0.519531
-0.395435 -0.137705 0.522969
0.0332841 0.270866 0.493272
-0.0525069 -0.0700733 0.493272
-0.150264 0.105804 0.493272
0.272727 -0.00911322 0.493272
0.148952 -0.0767544 0.522969
0.15567 -0.348782 0.522969
-0.048895 0.0263262 0.522969
0.00898588 0.0949558 0.522969
0.191272 -0.262661 0.522969
-0.119134 0.0137545 0.0527249
-0.122066 -0.368836 0.522969
-0.0345029 -0.314091 0.493272
-0.261347 -0.158362 0.522969
0.239289 0.273183 0.522969
0.0124764 -0.0201262 0.335806
0.0390216 -0.0278326 0.0603906
-0.308604 0.202089 0.522969
0.0338261 0.010217 0.041197
-0.17399 -0.263274 0.493272
-0.050421 -0.00885884 0.522969
-0.250696 0.010647 0.0171172
0.329276 0.258112 0.508295
0.0794461 0.000753126 0.0843437
0.0646794 0.129742 0.522969
-0.0218368 -0.0399212 0.522969
0.0462753 -0.282023 0.522969
0.0779044 -0.0247886 0.522969
-0.232935 -0.218643 0.493272
0.0844584 0.0501244 0.493272
0.148789 -0.0606701 0.522969
-0.250217 0.307929 0.522969
0.201914 -0.25126 0.493272
0.187853 0.11415 0.493272
-0.13992 -0.223216 0.493272
-0.306937 0.0950337 0.522969
-0.108347 0.185696 0.493272
0.374345 -0.0395407 0.493272
-0.011061 -0.32599 0.522969
-0.00774753 -0.0992798 0.493272
-0.107897 -0.162605 0.522969
0.0123014 -0.26889 0.0282291
0.371445 0.144538 0.497087
-0.0208425 0.202416 0.493272
0.304121 -0.00550619 0.0221372
0.0684869 0.207354 0.493272
-0.0772689 0.417446 0.511779
0.121708 0.0871252 0.522969
-0.149887 0.368722 0.496709
-0.0268212 -0.281752 0.522969
-0.166235 0.349278 0.522969
0.0987083 -0.182393 0.522969
-0.0105399 -0.159232 0.0339768
-0.310961 -0.00119166 0.522969
-0.0280055 -0.0216866 0.522969
0.110509 0.000497317 0.0341653
-0.187319 0.290466 0.493272
0.236476 -0.0247897 0.493272
-0.382229 -0.0493397 0.522969
-0.0792182 0.169505 0.522969
-0.0611736 -0.00370737 0.493272
-0.0199555 -0.0405959 0.134394
0.167123 -0.376339 0.522969
0.150949 0.232928 0.493272
-0.113501 -0.320112 0.522969
-0.190373 0.00223302 0.0462112
-0.285127 0.108825 0.493272
-0.0411288 -0.0274101 0.115175
0.00234025 0.220815 0.0436081
-0.401677 -0.0261025 0.499285
0.0708948 -0.0699461 0.522969
0.0100185 -0.0214334 0.29535
0.344556 0.13947 0.522969
-0.116673 -0.272177 0.493272
0.187134 -0.381141 0.522777
0.157183 -0.172604 0.522969
0.152908 -0.112015 0.493272
-0.315256 -0.288792 0.51509
-0.00780052 0.0223488 0.369905
0.286015 0.200383 0.493272
-0.0120593 -0.401138 0.522969
-0.189965 0.291289 0.522969
0.0458971 0.326022 0.522969
0.0700686 -0.221711 0.522969
0.288601 -0.0990587 0.522969
0.0102437 0.0315318 0.153888
-0.00408649 -0.150402 0.0305101
0.0807703 -0.383569 0.49338
0.103765 0.31226 0.493272
0.0785953 -0.306556 0.522969
0.107282 -0.166974 0.522969
-0.195597 -0.101762 0.522969
0.123561 -0.270227 0.493272
-0.0895562 -0.000797798 0.522969
0.0676521 0.000463083 0.522969
-0.00725503 -0.0250034 0.224192
0.0519716 0.14185 0.522969
-0.0240711 -0.0735795 0.522969
-0.00979663 -0.0372506 0.493272
0.336123 0.0135842 0.522969
-0.326626 0.0940569 0.522969
0.110344 -0.275772 0.493272
-0.249038 0.314975 0.522969
-0.176775 -0.356466 0.496598
-0.389398 0.0565555 0.522969
-0.0915497 0.269807 0.493272
0.125302 0.400211 0.522969
-0.280396 0.181159 0.493272
0.224782 -0.161933 0.522969
0.0318191 -0.0292757 0.0972769
0.144387 0.0545759 0.522969
-0.322296 -0.214392 0.493272
-0.367555 -0.215797 0.522081
0.0110627 -0.328065 0.493272
0.149701 0.0165829 0.522969
0.207244 -0.338572 0.496133
0.0235767 0.000513917 0.488408
0.0743753 0.0125175 0.0374776
0.119276 -0.268983 0.522969
-0.0129727 -0.281596 0.000447143
0.346431 -0.191791 0.522969
0.369295 0.170511 0.522969
0.0167434 -0.0361835 0.522969
0.0391037 -0.19807 0.522969
0.32521 0.275489 0.521872
0.0917015 0.164902 0.522969
0.00396171 -0.246953 0.0424267
0.00462693 0.336212 0.493272
-0.289757 -0.276488 0.498136
-0.00256968 -0.107587 0.493272
0.0939741 0.0475677 0.493272
0.229287 -0.24139 0.493272
0.408298 -0.103403 0.522969
-0.225937 0.235987 0.493272
0.292725 0.0126666 0.0404619
-0.156644 0.247265 0.493272
-0.000308057 0.30673 0.00161887
-0.0322885 -0.29693 0.493272
-0.0779763 0.0205329 0.0801429
0.335679 0.00486487 0.493272
-0.150372 -0.0910214 0.493272
-0.000282221 -0.258724 0.042069
-0.00681791 0.119954 0.0612777
-0.0444416 -0.203766 0.522969
0.0666791 -0.152644 0.493272
-0.12814 0.1172 0.493272
0.146515 0.0115657 0.0434726
-0.184233 -0.306068 0.493272
0.0072071 -0.425927 0.512643
-0.300158 0.132917 0.493272
-0.0653227 -0.0596813 0.522969
-0.129651 -0.118894 0.493272
0.240229 0.18305 0.493272
0.12954 -0.0129183 0.0539122
-0.261727 -0.0116472 0.0300004
-0.338582 -0.0282255 0.522969
0.120494 0.150431 0.522969
-0.00741137 0.204899 0.0442851
0.219782 0.00152336 0.0436784
-0.412376 -0.0137002 0.522969
0.140392 -0.0346632 0.522969
-0.0723996 -0.196055 0.522969
-0.297665 0.00956492 0.0413017
0.0965075 -0.271768 0.493272
0.346554 0.0232036 0.493272
-0.0486864 0.339231 0.522969
0.13203 0.196687 0.522969
-0.179103 0.235841 0.522969
-0.352169 0.177039 0.522969
0.0192424 0.357123 0.493272
0.235879 -0.133052 0.522969
-0.237307 0.132308 0.522969
0.059797 -0.218693 0.522969
0.274709 -0.262006 0.493272
-0.163481 0.199334 0.493272
0.281493 0.0113225 0.0117777
0.00937384 -0.231043 0.522969
-0.355683 -0.176407 0.496139
0.119828 0.320962 0.493272
0.105714 -0.408366 0.522969
-0.305167 -0.07579 0.493272
-0.160925 0.127855 0.522969
0.0865059 -0.341038 0.522969
0.325706 0.017634 0.493272
-0.403374 -0.00822872 0.499772
0.170961 -0.218841 0.522969
-0.111216 0.2314 0.522969
0.164714 -0.173375 0.522969
-0.0353011 0.281941 0.493272
-0.199046 0.303979 0.522969
0.214128 0.349272 0.503358
-0.127382 0.00283401 0.0326183
0.0438702 0.104724 0.522969
0.286718 0.00111633 0.0416748
-0.00980174 -0.413277 0.522969
-0.395528 -0.101229 0.502521
0.216299 0.357327 0.507897
0.0681599 -0.329258 0.493272
0.264839 -0.262207 0.522969
0.0854924 -0.082394 0.522969
-0.241175 -0.14666 0.522969
-0.011218 -0.257006 0.0289824
-0.222715 0.167676 0.522969
0.309612 0.173412 0.522969
0.215025 0.23145 0.522969
-0.200064 -0.292256 0.493272
-0.0582184 0.321575 0.522969
-0.00118889 0.0237029 0.478022
0.31877 0.0716585 0.493272
0.112536 -0.389075 0.522969
-0.00144911 0.0634112 0.100236
-0.273824 0.000846142 0.0418077
0.000179691 0.0599132 0.493272
0.0200181 0.0126233 0.427725
-0.00447521 0.0706028 0.0924081
-0.24086 -0.279473 0.522969
0.0598745 0.141791 0.522969
0.0535403 0.04552 0.493272
0.373509 0.116589 0.493272
0.113594 0.295546 0.493272
0.281322 -0.130948 0.493272
-0.0396374 -0.361736 0.522969
0.127469 -0.240565 0.493272
0.226293 0.311411 0.493272
-0.184941 0.127548 0.522969
-0.200743 0.0824307 0.493272
0.147144 -0.276039 0.493272
-0.0973387 0.0182197 0.522969
0.322399 0.20803 0.522969
-0.0613502 0.413507 0.508066
0.301675 -0.292031 0.522969
-0.066106 0.255447 0.522969
-0.0111616 -0.277392 0.493272
-0.211204 0.172978 0.522969
-0.259368 -0.263979 0.493272
0.199632 0.0839573 0.493272
-0.171016 -0.164223 0.522969
-0.126932 -0.107 0.522969
0.0114478 0.381059 0.493272
-0.00336705 -0.314791 0.493272
0.0906474 -0.109098 0.522969
0.0217222 -0.016237 0.22293
0.00529754 0.278771 0.0134028
0.0194368 0.0135116 0.35354
-0.205213 -0.315688 0.493272
-0.345904 0.23905 0.509445
0.240877 -0.229089 0.493272
0.147925 0.281117 0.522969
-0.158244 0.347184 0.493272
-0.290428 0.224516 0.522969
-0.105432 0.37949 0.494318
-0.0788532 0.312491 0.493272
0.104104 -0.332659 0.522969
-0.156601 0.0912872 0.493272
-0.248402 -0.0799258 0.493272
-0.0292709 0.00274675 0.161552
-0.340574 -0.164542 0.493272
0.124251 0.249919 0.493272
0.274302 0.0397034 0.522969
-0.106207 -0.0638868 0.522969
0.137151 -0.123492 0.522969
0.271046 -0.148327 0.522969
0.144761 -0.097953 0.493272
-0.00919669 -0.234877 0.038105
0.0605975 -0.055322 0.493272
0.276146 -0.13341 0.493272
0.0430363 0.0474506 0.493272
0.248252 -0.27423 0.493272
-0.103682 0.220233 0.522969
0.0925346 -0.0185156 0.493272
-0.079683 0.0969156 0.522969
0.194522 0.0330989 0.493272
-0.310479 0.255249 0.522969
-0.185141 -0.0517767 0.493272
0.0586584 -0.133666 0.522969
0.0310942 0.0116595 0.154751
0.115474 -0.391756 0.522969
0.396538 -0.0808251 0.522969
0.191283 0.11871 0.522969
-0.068921 0.018467 0.0379745
0.294998 -0.159679 0.522969
-0.282068 0.21885 0.522969
0.0517293 -0.0120523 0.0395535
-0.0426011 0.0858138 0.522969
0.127771 -0.100421 0.522969
-0.0515443 -0.0253262 0.0680907
-0.362202 0.0656525 0.522969
-0.099599 0.119146 0.493272
0.148245 -0.0496889 0.522969
-0.27414 -0.270137 0.493272
-0.390518 -0.13928 0.506053
0.073411 -0.131558 0.493272
-0.294334 0.0150818 0.000582797
-0.345864 -0.0927406 0.522969
0.259148 -0.0108779 0.493272
0.0417184 0.0760245 0.522969
0.260287 -0.258091 0.493272
-0.380331 0.14917 0.502661
-0.00708137 -0.376359 0.522969
-0.0743271 0.190539 0.522969
0.0266602 -0.0449096 0.0495792
0.00292648 -0.417903 0.508058
-0.316787 -0.19781 0.493272
-0.269055 -0.030475 0.522969
0.0330653 -0.0282434 0.148114
-0.186398 0.312785 0.493272
-0.0953738 -0.111289 0.493272
0.353383 0.139944 0.522969
-0.0037851 0.257372 0.493272
-0.423159 0.0618477 0.513925
-0.0515211 0.0253308 0.0589314
-0.228928 0.178507 0.522969
0.012211 0.115446 0.0626636
0.0196178 0.0432508 0.522969
-0.0231427 -0.0254437 0.18786
0.00115713 -0.179249 0.522969
-0.259575 0.117924 0.522969
-0.250461 0.304304 0.522969
-0.314152 -0.052919 0.493272
0.0858281 0.24437 0.522969
0.103044 0.163017 0.522969
-0.114778 0.335462 0.493272
-0.175029 0.282214 0.493272
-0.178895 -0.270653 0.522969
-0.122065 0.201086 0.493272
-0.325001 -0.226602 0.49563
-0.201868 0.275417 0.522969
-0.151223 0.173616 0.493272
0.0524551 0.365146 0.522969
0.192009 -0.0242958 0.493272
-0.187159 -0.290833 0.493272
0.164724 0.248877 0.522969
0.14145 -0.0878131 0.493272
0.155453 -0.0562362 0.522969
0.0948795 -0.0869685 0.522969
0.25533 0.148957 0.493272
-0.0130224 -0.0434137 0.522969
-0.164649 0.0104085 0.493272
0.275291 0.178713 0.493272
-0.080653 -0.353524 0.522969
-0.057512 -0.0128922 0.107289
-0.00670674 0.244974 0.493272
0.151913 -0.295236 0.522969
-0.314542 -0.22554 0.493272
-0.16369 -0.0517412 0.493272
-0.0293128 -0.0315954 0.103766
0.422741 -0.00125468 0.510768
-0.00960582 0.267032 0.522969
0.31533 0.149652 0.493272
0.000161488 0.168014 0.0288969
-0.0192523 3.98743e-05 0.522969
-0.205526 0.079845 0.522969
0.0111395 -0.0266038 0.522969
-0.0588187 0.357121 0.522969
-0.0964132 -0.254073 0.493272
-0.0445011 0.0944196 0.493272
0.027824 0.0157653 0.172774
-0.017927 -0.411905 0.522969
-0.290925 0.0487372 0.493272
0.139083 -0.0457332 0.493272
-0.0538969 -0.27362 0.522969
-0.00829369 0.0442151 0.522969
0.117827 -0.112807 0.493272
-0.0945241 0.0615469 0.493272
-0.121125 0.0315433 0.493272
0.105344 0.100307 0.493272
0.0108479 -0.0210638 0.457637
-0.111271 0.340915 0.522969
0.229035 -0.338631 0.502882
-0.211924 0.0741318 0.493272
0.159267 -0.238997 0.493272
-0.0182271 -0.0151588 0.374794
0.403815 0.0754385 0.522969
-0.33858 -0.235589 0.522969
-0.0193274 -0.0137514 0.293286
-0.0314193 -0.12268 0.493272
0.216171 -0.00860349 0.0420726
0.348059 0.127837 0.522969
0.324858 -0.194943 0.493272
-0.0444395 0.0267474 0.0523006
0.304358 -0.00557232 0.000546435
0.381917 -0.125572 0.522969
-0.299042 -0.238426 0.522969
0.291486 -0.0139848 0.0270756
0.0258234 0.402715 0.522969
-0.125029 -0.147527 0.493272
0.352018 0.22025 0.522969
-0.0918675 -0.100708 0.522969
-0.000830652 0.137556 0.0553108
-0.0220481 -0.00851271 0.40425
0.0553272 0.167833 0.493272
0.220173 -0.154145 0.493272
0.0246874 -0.0943285 0.522969
0.0657195 -0.0627802 0.493272
0.0732681 0.0310975 0.493272
-0.221821 -0.183166 0.522969
-0.135773 -0.0742815 0.522969
-0.328179 0.256556 0.522969
0.030395 0.224339 0.522969
-0.046357 0.260613 0.493272
0.0204411 -0.104704 0.522969
0.166024 -0.209578 0.522969
0.045078 -0.209534 0.493272
-0.00199756 0.268249 0.522969
0.210651 0.169217 0.522969
-0.217807 -0.0720301 0.522969
-0.103146 -0.189525 0.522969
0.10744 -0.0100432 0.0344467
0.0680497 -0.413583 0.522969
0.0868997 -0.0170241 0.0783183
-0.01165 0.193837 0.522969
-0.0576128 -0.0241966 0.0810361
0.298117 -0.202517 0.493272
0.0636852 -0.181543 0.493272
0.145351 -0.0844301 0.493272
-0.295247 -0.270087 0.522969
0.414983 -0.102825 0.518059
0.362407 0.113137 0.522969
-0.30354 0.0163495 0.493272
-0.134886 0.249742 0.493272
-0.344005 -0.0374607 0.493272
-0.0445047 -0.268268 0.522969
0.172757 -0.302447 0.493272
-0.382034 -0.168884 0.507858
0.281324 -0.287865 0.499336
-0.000925444 0.0512765 0.116257
-0.314326 -0.0973838 0.493272
0.324168 0.167647 0.522969
0.31871 0.00111378 0.522969
0.162983 -0.198154 0.522969
-0.228506 -0.315737 0.522969
0.34288 -0.19998 0.496198
0.149698 -0.211864 0.493272
-0.406254 0.124677 0.522709
-0.211715 0.0909163 0.522969
0.406996 -0.130753 0.513737
0.0258201 0.000954118 0.22075
-0.014362 -0.0455736 0.125486
-0.398411 0.00434476 0.49696
-0.213644 -0.361091 0.522969
0.111808 0.0743347 0.522969
-0.283613 0.256873 0.493272
0.304357 -0.296254 0.511954
0.356677 0.223151 0.509637
-0.134103 -0.299424 0.493272
-0.120954 -0.0184253 0.493272
-0.0465549 -0.0114614 0.123719
0.0567639 0.373299 0.522969
0.382467 0.103851 0.522969
-0.0355002 0.0285352 0.0547773
0.286129 0.0446052 0.493272
-0.252997 0.220829 0.493272
0.149605 0.124058 0.522969
0.335626 0.25285 0.509389
-0.372464 -0.0475323 0.522969
-0.0903858 0.35447 0.522969
-0.182289 -0.10081 0.493272
-0.182904 0.130207 0.493272
-0.120901 0.068231 0.522969
0.0381132 -0.309592 0.522969
0.13587 -0.386654 0.522969
-0.407665 -0.0759238 0.506161
-0.362728 0.067184 0.522969
0.0621451 -0.227688 0.522969
0.245925 0.0549485 0.493272
-0.0474191 -0.422734 0.512293
0.350732 0.210329 0.522969
-0.294695 -0.267904 0.522969
-0.307785 0.0923272 0.522969
0.315281 0.116565 0.493272
-0.294213 -0.211876 0.493272
-0.330725 0.167694 0.493272
0.0057369 -0.135045 0.493272
0.195919 0.114603 0.522969
0.0159958 0.328989 0.522969
-0.0164846 0.0264856 0.185569
0.110199 0.382271 0.522969
-0.312077 0.0329001 0.493272
-0.364126 -0.101423 0.522969
-0.280795 -0.171658 0.522969
0.36066 0.115141 0.493272
0.0502717 -0.0028542 0.522969
-0.152521 0.00993784 0.0506309
-0.180605 -0.00592326 0.522969
0.219268 0.359289 0.522969
-0.359741 0.214613 0.508536
-0.000214219 -0.28958 0.522969
0.364253 -0.0462589 0.522969
-0.327479 -0.269984 0.522863
0.0970907 0.136436 0.493272
-0.0649267 0.0316074 0.522969
-0.125514 0.0360751 0.493272
0.320493 -0.085738 0.493272
-0.153354 -0.0333925 0.522969
-0.229583 0.178826 0.522969
0.274261 0.0806836 0.493272
-0.183852 -0.118133 0.522969
-0.0175704 0.325031 0.522969
-0.347204 0.00184545 0.493272
0.146367 0.109345 0.493272
0.230451 -0.0543917 0.522969
-0.179574 0.373936 0.522969
-0.20073 -0.276917 0.493272
-0.311306 0.166919 0.522969
-0.030498 -0.203264 0.493272
0.167368 -0.377077 0.504948
0.108385 0.0920388 0.493272
-0.0549268 -0.366595 0.522969
-0.172924 -0.0941501 0.493272
0.185576 0.133182 0.522969
-0.0805821 -0.0123382 0.0369077
0.349642 -0.096306 0.522969
-0.00170959 -0.121076 0.0608423
0.121027 0.131166 0.493272
-0.00251331 0.237383 0.493272
-0.281571 -0.274715 0.494108
0.02728 0.389537 0.522969
-0.302733 0.00173979 0.0118789
0.144161 -0.044407 0.522969
-0.38357 0.0756673 0.493272
0.340351 -0.258485 0.514392
-0.105853 0.069861 0.493272
-0.190161 0.0916975 0.522969
-0.0682368 0.166241 0.493272
-0.0839807 0.00441718 0.0809311
-0.00803018 -0.0952281 0.0733832
0.00950037 -0.228634 0.493272
0.152245 -0.3853 0.522969
-0.188022 0.009344 0.0385722
0.311602 0.0473124 0.522969
0.288876 0.0141164 0.0273687
-0.402668 -0.0176209 0.522969
-0.0741621 -0.021219 0.0758812
-0.0367564 0.308832 0.522969
-0.328226 0.0329483 0.522969
-0.24566 -0.231015 0.522969
-0.137434 0.365281 0.493272
-0.256367 0.00996701 0.493272
0.101604 -0.0384558 0.522969
0.00429776 0.160035 0.0503382
-0.125092 -0.0934349 0.493272
-0.0711299 -0.274694 0.522969
0.189686 0.294537 0.493272
-0.195827 -0.360663 0.503728
-0.0235676 -0.00250762 0.315783
0.0692929 0.0220928 0.0820621
-0.0375881 0.307797 0.493272
0.371017 0.0976289 0.522969
-0.0194152 0.0136117 0.308321
-0.228053 -0.277402 0.493272
-0.117335 0.388055 0.500927
0.304627 0.137665 0.493272
-0.363308 -0.21161 0.509376
0.0702369 -0.197466 0.493272
0.10124 -0.0864235 0.522969
-0.0893374 -0.0742958 0.522969
-0.301447 -0.0801263 0.522969
0.0962735 0.00935691 0.0354709
0.0237835 0.0643168 0.493272
-0.0860958 -0.0190694 0.0371358
0.308236 0.151596 0.522969
0.194132 -0.101936 0.522969
-0.00984269 0.0262725 0.196499
0.0102931 -0.264785 0.0413364
0.097621 0.22773 0.522969
-0.394409 -0.165468 0.516047
-0.251657 -0.162898 0.522969
0.376103 -0.175384 0.522969
0.0900782 -0.216385 0.493272
0.234268 -0.218046 0.493272
-0.16373 -0.26136 0.493272
0.205818 0.00803755 0.0435699
0.057345 0.177777 0.493272
-0.259001 -0.204083 0.493272
-0.284153 -0.207137 0.493272
0.0615351 -0.190042 0.493272
0.226074 -0.0213847 0.522969
0.372313 0.00502671 0.522969
-0.028302 0.00877871 0.169768
-0.126088 0.319973 0.522969
0.145168 0.0250109 0.493272
-0.0578777 0.0738063 0.522969
-0.260586 -0.189843 0.522969
-0.211242 0.0426619 0.493272
-0.261565 0.308555 0.522969
0.0244302 0.0563504 0.087728
0.113059 0.408236 0.522969
-0.218545 -0.21549 0.493272
-0.111457 -0.0957456 0.493272
0.240858 0.16794 0.493272
0.0201446 0.0801288 0.0689039
-0.0420863 0.337357 0.522969
0.287246 0.139362 0.522969
0.244427 -0.127925 0.522969
0.028243 -0.0369898 0.0835288
-0.188256 0.198837 0.493272
-0.0552064 -0.176382 0.493272
0.127619 0.0720773 0.522969
-0.106017 -0.349861 0.493272
-0.359779 0.0669159 0.493272
0.201217 0.196777 0.493272
-0.122232 -0.0889875 0.522969
0.329532 0.198226 0.522969
-0.0095318 -0.381393 0.522969
0.406229 0.0772985 0.522969
-0.076537 0.0821522 0.493272
-0.243486 -0.291529 0.522969
-0.110084 -0.00892902 0.065538
-0.0831251 0.0196053 0.052378
-0.267137 -0.03666 0.522969
-0.189524 -0.279275 0.493272
-0.0527725 -0.0337956 0.522969
-0.0107984 0.0210848 0.264247
0.401906 0.123591 0.509498
0.307302 0.0277883 0.493272
-0.129561 0.388316 0.503118
-0.144584 0.0138201 0.493272
-0.21283 -0.274174 0.522969
-0.0384921 0.191566 0.522969
0.188222 -0.0486755 0.493272
-0.0110337 -0.153069 0.0374433
-0.225532 0.0518809 0.493272
0.0375666 -0.360556 0.522969
-0.269621 0.0122603 0.0388392
-0.39073 0.162969 0.511005
0.208605 0.360471 0.507214
0.129354 0.338736 0.522969
0.0167461 0.356665 0.522969
-0.0170674 0.0694141 0.0379303
0.241526 0.110475 0.522969
-0.0667375 0.111278 0.522969
0.325337 -0.203855 0.493272
0.0997539 -0.354211 0.522969
-0.0553849 -0.403156 0.522969
0.0398798 -0.403466 0.522969
-0.197831 0.234585 0.522969
0.275192 -0.255609 0.493272
0.322133 0.274572 0.522969
-0.234565 0.0945535 0.522969
0.274285 0.281844 0.494134
-0.405755 0.0126888 0.522969
0.123665 -0.37449 0.494718
-0.264678 0.0897173 0.522969
0.133682 -0.308694 0.522969
-0.0496411 -0.148971 0.522969
0.091025 -0.225759 0.522969
-0.0090288 -0.219048 0.0270134
-0.278688 -0.177228 0.493272
0.0235284 0.0128375 0.221988
0.104806 0.0437831 0.493272
-0.304218 0.0532949 0.493272
-0.258034 0.0427621 0.493272
-0.0107603 -0.187581 0.493272
-0.173531 -0.090672 0.493272
0.313176 0.172874 0.493272
0.0340063 -0.134221 0.522969
0.11347 0.175623 0.522969
0.206594 0.257899 0.493272
0.179641 0.21799 0.493272
0.261757 0.149587 0.493272
-0.226074 0.0471776 0.522969
0.0901391 -0.299832 0.493272
0.18844 -0.331938 0.522969
0.0719007 -0.34691 0.493272
0.338261 0.261288 0.518574
-0.301833 0.261816 0.497573
0.020806 -0.395227 0.522969
0.0113921 0.175782 0.493272
0.357781 0.100881 0.493272
0.195083 -0.22458 0.493272
0.332225 0.253618 0.522969
-0.251938 0.0100218 0.522969
-0.37519 -0.0089876 0.522969
-0.0608699 0.124948 0.493272
0.0189303 -0.0141934 0.370653
-0.271878 0.179359 0.522969
0.192966 -0.170739 0.493272
0.0863786 0.27012 0.493272
0.207012 -0.0053787 0.493272
0.155904 0.374625 0.501172
0.163227 -0.0240457 0.522969
0.199539 0.323849 0.522969
0.344289 -0.13267 0.493272
-0.301521 -0.0329002 0.522969
0.197794 -0.329811 0.493272
-0.285966 -0.240838 0.522969
0.304184 -0.166964 0.522969
0.290386 -0.00161933 0.522969
0.184189 -0.309413 0.522969
0.0756381 -0.00718199 0.522969
-0.0380255 -0.193367 0.493272
0.171607 0.00351583 0.0285683
0.054848 0.000856858 0.493272
-0.287574 -0.151151 0.522969
0.39045 0.022206 0.493272
-0.321848 -0.272428 0.522969
0.178696 -0.222444 0.522969
0.0512385 0.121858 0.522969
-0.113371 0.103947 0.522969
0.185711 -0.0678896 0.493272
0.0977158 0.233396 0.493272
-0.232903 0.306355 0.522969
-0.0249657 -0.00658504 0.22557
0.166475 -0.078169 0.493272
0.00941812 -0.0217345 0.484533
-0.159605 0.297284 0.522969
-0.081506 0.256112 0.522969
-0.0249313 -0.0519889 0.112046
0.263473 0.253909 0.522969
-0.0126081 0.27232 0.0163559
-0.170274 -0.238508 0.522969
0.07854 -0.199545 0.522969
-0.0245533 -0.0971541 0.493272
-0.0213933 -0.0100721 0.284604
0.334686 0.0644116 0.493272
-0.0452395 0.0687742 0.522969
0.284655 0.00516488 0.493272
-0.260417 0.182283 0.493272
0.1124 -0.120527 0.493272
0.0945563 -0.145018 0.493272
-0.0282162 -0.0108754 0.170215
0.178584 0.0165644 0.493272
0.289313 -0.110376 0.493272
0.0961495 0.0131398 0.0728196
0.0235729 -0.00148414 0.249247
-0.0575283 0.386778 0.522969
-0.0905464 -0.0456871 0.493272
0.221065 0.309133 0.493272
-0.0247579 -0.0247639 0.0536072
-0.140574 0.241234 0.493272
0.266762 0.201075 0.522969
-0.125643 -0.390245 0.522969
-0.137841 0.203134 0.493272
-0.26524 0.237568 0.522969
-0.321721 -0.0210731 0.522969
0.0941948 -0.179528 0.493272
-0.124871 -0.334425 0.522969
0.21842 0.190019 0.522969
-0.0591993 0.212605 0.493272
-0.375199 0.126979 0.522969
0.01872 -0.0145383 0.462547
-0.0415211 0.124005 0.522969
-0.42505 -0.0181565 0.512234
0.264922 -0.329992 0.511057
0.101117 -0.158763 0.522969
0.0522935 0.220458 0.522969
-0.0834817 0.0195401 0.0395495
-0.389378 0.060128 0.522969
-0.0904201 -0.416423 0.522098
-0.000979553 0.154291 0.0513974
-0.369519 -0.163723 0.522969
-0.203254 0.219709 0.493272
-0.0820514 -0.198948 0.493272
0.0165598 0.0238294 0.209141
0.0309908 -0.00980477 0.155008
0.231172 0.0165779 0.493272
-0.397716 0.0869184 0.501795
0.143194 0.214636 0.522969
-0.156527 -0.308926 0.522969
0.0666671 -0.301886 0.522969
0.20972 -0.0341515 0.522969
0.179227 0.110024 0.493272
0.0446436 0.163177 0.522969
0.0235269 0.424398 0.512062
-0.242745 0.267595 0.522969
-0.204088 -0.125047 0.522969
-0.00468461 -0.0231614 0.415776
0.0569397 0.000999967 0.0390784
-0.1643 0.014457 0.522969
-0.28708 -0.0457644 0.522969
0.0284443 0.029773 0.156327
0.243748 -0.302406 0.522969
-0.30112 -0.202045 0.522969
0.0525159 -0.012677 0.0394812
0.31945 -0.214515 0.522969
0.392532 0.0766619 0.497851
0.0276545 0.0034901 0.177744
-0.075785 -0.0217552 0.522969
0.304227 0.241086 0.493272
0.0454155 0.351977 0.493272
-0.381202 -0.153157 0.522969
0.0556248 0.273103 0.493272
0.0612176 -0.0613947 0.493272
0.161923 -0.144248 0.493272
0.00919955 0.203157 0.0299276
0.0338561 -0.155831 0.493272
-0.0977315 -0.0942351 0.522969
0.396926 -0.0258733 0.496606
0.0235836 -0.00219576 0.479343
-0.121168 0.246103 0.522969
0.364798 0.149415 0.522969
0.125442 -0.340691 0.493272
-0.127021 -0.107973 0.522969
0.332695 -0.231518 0.522969
-0.0463748 0.301233 0.493272
0.180036 0.283395 0.522969
0.2441 -0.173267 0.493272
-0.059834 -0.0192898 0.10437
-0.288819 -0.0141121 0.029613
0.0762612 -0.128891 0.493272
0.376961 0.0782337 0.493272
0.153623 -0.0266719 0.522969
-0.267143 0.244518 0.522969
0.367059 0.0568603 0.522969
-0.0162579 -0.101699 0.0564756
-0.0521851 0.266992 0.493272
0.0669792 0.377088 0.522969
-0.18203 -0.368132 0.503875
0.234689 -0.31783 0.522969
0.0217512 -0.0712333 0.0389071
0.25647 0.115838 0.522969
-0.25705 0.244894 0.493272
-0.0936362 -0.350123 0.493272
-0.111343 -0.304294 0.522969
0.410449 0.0777394 0.522969
0.0654201 -0.321968 0.493272
0.130796 -0.304065 0.522969
-0.0106484 0.0857404 0.493272
0.231161 -0.311585 0.522969
0.103641 0.214794 0.493272
-0.0489473 0.27693 0.493272
0.0572315 0.0777296 0.522969
0.181683 0.122447 0.493272
-0.103321 -0.31743 0.522969
0.0129586 0.194827 0.522969
0.292427 -0.279853 0.50058
0.0214136 0.010009 0.470932
0.126987 -0.393046 0.505291
-0.15267 -0.00248733 0.0303019
0.196277 -0.0635531 0.493272
0.0230333 -0.00541239 0.384939
-0.165144 -0.209414 0.493272
0.179233 0.234572 0.493272
0.360218 -0.21196 0.522969
0.175235 -0.307708 0.493272
-0.0754309 0.420769 0.518315
-0.0233224 0.00416681 0.327991
0.0435036 0.337646 0.493272
0.0262373 -0.00530622 0.493272
-0.159303 -0.0395431 0.522969
0.0900853 -0.175695 0.522969
0.018533 0.172942 0.522969
-0.405509 0.135663 0.518863
-0.372873 0.14809 0.522969
0.282411 0.242121 0.522969
0.1509 0.0763049 0.522969
-0.0855224 0.412617 0.509941
0.0775818 -0.240528 0.522969
-0.272224 -0.192801 0.522969
-0.20986 0.155087 0.493272
0.0199245 0.081358 0.0750887
-0.0468386 0.414798 0.50778
-0.0411751 -0.285407 0.493272
0.0997638 -0.0648453 0.522969
0.358506 -0.0371779 0.493272
-0.0144004 0.11201 0.0469754
0.031596 0.376239 0.522969
-0.400635 0.113277 0.507023
0.00718847 0.315602 0.522969
0.117691 0.0598254 0.522969
0.0822352 -0.278749 0.493272
0.160498 0.349524 0.522969
0.255711 0.096489 0.522969
-0.0460872 -0.0264176 0.0599895
-0.190999 0.119122 0.522969
0.15727 -0.197399 0.522969
0.0983017 -0.0105501 0.0352848
0.0511608 -0.131732 0.493272
-0.0203752 -0.206085 0.522969
-0.0579301 0.384341 0.493272
-0.190816 0.366152 0.505149
0.00954317 0.359137 0.493272
-0.18139 -0.0502757 0.493272
0.0218494 0.0782819 0.522969
0.0720688 -0.0434671 0.493272
0.0715407 -0.00795913 0.0915404
-0.258566 -0.324725 0.522969
-0.202128 0.097515 0.493272
-0.217518 -0.336065 0.522969
0.296758 0.00329438 0.493272
0.0960008 -0.410593 0.510097
0.0107923 -0.156179 0.0355058
0.208349 -0.020561 0.522969
0.104413 -0.0157756 0.0618553
-0.347371 0.182769 0.493567
-0.0382911 0.220476 0.493272
0.257125 0.239184 0.522969
0.0830868 -0.159924 0.493272
-0.0797979 0.0202037 0.0467148
0.0163667 -0.0171079 0.397111
-0.364873 -0.105865 0.493272
0.0050355 -0.406132 0.522969
-0.289338 -0.168939 0.522969
-0.00470068 0.0232262 0.329791
0.11681 -0.349712 0.522969
-0.0155196 -0.0178894 0.348509
