-0.352266 0.0239454 0.522969
0.388364 0.01931 0.522969
0.00475171 0.0158623 0.522969
0.00371653 0.0971823 0.522969
0.0637482 0.00332425 0.0998458
-0.301312 0.303285 0.514834
0.181541 -0.125106 0.522969
-0.252203 -0.292985 0.522969
-0.293186 -0.0130513 0.493272
0.0778993 0.0269057 0.522969
-0.146281 -0.162427 0.493272
-0.00761362 0.148509 0.493272
-0.101244 -0.326429 0.522969
0.0449816 -0.347579 0.493272
0.0179448 -0.092382 0.0385991
0.219909 -0.0283237 0.522969
0.054659 -0.423089 0.521551
-0.0716567 -0.00811534 0.0914326
-0.185686 0.0453469 0.493272
-0.276374 0.0760771 0.493272
-0.164273 0.241672 0.522969
0.204749 -0.345502 0.522969
0.406791 0.131343 0.515995
-0.0818762 0.3549 0.522969
-0.335923 -0.142034 0.522969
-0.0124592 0.0200505 0.288706
-0.197517 0.116952 0.522969
-0.0532353 -0.284223 0.493272
0.173027 -0.278141 0.522969
0.166174 -0.0938478 0.493272
-0.153577 0.339231 0.493272
-0.139974 -0.366639 0.493614
0.081156 0.258271 0.493272
-0.354883 0.232103 0.522969
0.231816 0.294263 0.522969
0.323242 -0.176232 0.522969
-0.2423 -0.0834801 0.493272
0.187449 0.0664494 0.493272
0.267253 -0.30052 0.522969
0.329326 -0.218764 0.495292
-0.0690567 0.274309 0.493272
0.0582263 -0.390403 0.522969
0.0241989 0.211457 0.493272
0.100259 -0.0491288 0.493272
-0.0796173 0.0108542 0.522969
0.0959486 0.159972 0.493272
-0.245764 0.0216424 0.522969
-0.238818 -0.226806 0.522969
0.0494661 -0.202082 0.493272
0.314977 0.244232 0.522969
-0.174162 -0.0822041 0.493272
-0.265617 0.0120033 0.0260491
0.00502171 0.0342261 0.0411596
0.31802 0.11863 0.522969
-0.262367 -0.238336 0.493272
-0.0232904 -0.00381761 0.463314
0.279912 0.243453 0.522969
0.346858 0.177314 0.522969
0.144098 -0.0368708 0.522969
0.192853 -0.00929696 0.0273833
-0.296258 0.183916 0.522969
-0.0566181 -0.0088955 0.0391053
-0.0490096 -0.101255 0.522969
-0.0783024 -0.04315 0.522969
0.15925 0.297385 0.493272
-0.26221 0.0977792 0.522969
0.0282106 0.0217951 0.168654
0.138494 0.0810388 0.522969
-0.191268 0.289399 0.493272
-0.241654 -0.165131 0.493272
0.180055 0.218051 0.522969
-0.291996 0.237862 0.493272
-0.0788778 0.175724 0.522969
0.31556 0.150835 0.493272
-0.00916902 0.204964 0.035487
-0.310838 -0.128402 0.522969
0.0609061 0.340855 0.493272
-0.273935 -0.32571 0.522547
0.284281 -0.12524 0.493272
-0.0192645 0.413004 0.522969
0.0623166 -0.143778 0.522969
0.109493 -0.183411 0.493272
0.0669784 0.047105 0.493272
-0.0347572 -0.387132 0.493272
-0.00467404 -0.236434 0.493272
0.335346 -0.0735332 0.522969
-0.142789 0.0562282 0.522969
-0.174862 -0.117065 0.522969
-0.0778419 -0.167521 0.493272
-0.00230738 -0.0477258 0.0399228
-0.211187 -0.188462 0.522969
0.254889 -0.193977 0.522969
0.382171 -0.107786 0.496287
0.159386 0.188544 0.522969
0.281498 0.244528 0.493272
0.0833188 0.358602 0.522969
-0.277626 0.270518 0.522969
0.328113 0.00608111 0.493272
-0.0540125 -0.00440658 0.112318
-0.382459 -0.0940053 0.522969
0.0658161 0.118276 0.522969
-0.258794 0.250234 0.493272
-0.403892 0.0560584 0.502231
0.152488 0.130697 0.493272
0.0739385 -0.240879 0.522969
-0.00383694 -0.316293 0.493272
0.232706 0.321328 0.496023
-0.186496 0.347206 0.522969
-0.103124 0.0368039 0.493272
-0.0667126 0.122746 0.522969
0.101963 -0.351429 0.522969
0.153287 -0.0123154 0.493272
-0.329169 -0.01419 0.493272
0.282693 0.0697154 0.493272
0.122493 -0.025036 0.522969
0.0994264 -0.318357 0.493272
0.179716 0.299687 0.522969
-0.105091 -0.275887 0.493272
-0.126879 0.155448 0.493272
0.0401611 -0.0590645 0.493272
0.400909 -0.0784227 0.502714
-0.292722 -0.0668693 0.522969
0.266805 -0.264736 0.493272
0.11804 0.397667 0.522969
-0.370739 0.154949 0.522969
0.327248 0.0138822 0.522969
-0.0830907 -0.231446 0.522969
0.0346837 -0.0736353 0.522969
-0.155848 -0.0999716 0.493272
-0.320764 0.170917 0.493272
-0.00692256 -0.0923786 0.0751371
-0.327818 -0.226947 0.522969
0.109642 0.0134902 0.0649297
0.147343 -0.163062 0.522969
0.0230495 0.00501973 0.491077
-0.165078 -0.0223902 0.522969
0.261978 -0.091401 0.522969
0.0972784 0.22417 0.493272
0.208377 -0.244861 0.493272
0.229805 -0.190665 0.493272
0.249936 -0.0252838 0.493272
0.00220284 0.36551 0.522969
0.177763 0.241143 0.493272
-0.0338311 -0.41814 0.522969
0.269614 -0.00220794 0.0418807
0.358857 -0.138257 0.522969
0.216081 -0.237094 0.522969
-0.0203564 0.0789265 0.0536916
-0.175833 -0.355864 0.522969
0.341753 0.200141 0.4957
-0.344865 0.0650718 0.522969
0.290314 0.0995264 0.522969
-0.194264 0.191088 0.493272
0.017432 0.0952352 0.0480031
0.00362097 -0.0233216 0.265814
0.152514 -0.268678 0.493272
-0.157655 -0.169752 0.522969
-0.12079 -0.33368 0.493272
0.220108 0.159718 0.493272
0.100431 0.000986464 0.493272
-0.417507 -0.0537019 0.50972
-0.355095 -0.154218 0.493272
-0.0212451 -0.0498261 0.493272
0.150669 -0.220402 0.522969
0.221478 0.0455328 0.522969
-0.114894 0.378628 0.495435
0.0950449 0.0853369 0.493272
0.232032 0.250532 0.493272
0.133099 0.349079 0.493272
-0.171703 0.163403 0.522969
-0.27962 -0.00721649 0.0118789
-0.0870566 0.302468 0.522969
0.0606068 0.0236587 0.0553056
-0.0181596 -0.0311391 0.15454
-0.191798 -0.0302433 0.493272
0.0179109 -0.286791 0.00521493
-0.243765 0.0332553 0.493272
0.240013 0.213077 0.522969
-0.0116434 0.145429 0.0328219
-0.326378 -0.220763 0.494417
0.223214 -0.0982532 0.493272
-0.260319 0.151114 0.522969
0.0232226 0.00449807 0.442853
-0.0531682 -0.223932 0.493272
0.353854 0.100533 0.493272
-0.190858 -0.336395 0.493272
0.0491289 0.019008 0.119348
0.0329887 0.293562 0.522969
-0.387197 -0.160484 0.522969
0.22024 -0.318478 0.493272
0.0493686 -0.302486 0.493272
0.268585 -0.0292761 0.522969
-0.147448 0.250301 0.493272
-0.241241 0.222501 0.522969
-0.214217 -0.20878 0.522969
-0.384619 0.126811 0.500662
-0.022883 -0.0227003 0.203537
-0.215274 0.274742 0.522969
0.017938 0.0588963 0.493272
-0.127782 0.260728 0.522969
0.166361 0.11924 0.522969
-0.0798581 -0.368277 0.493272
-0.267083 -0.0210067 0.522969
0.00380991 0.00951426 0.243815
0.00441983 0.153256 0.522969
-0.200824 -0.297412 0.522969
-0.32654 0.175063 0.522969
-0.0352766 -0.137458 0.493272
0.0919955 0.417336 0.51994
0.0142768 -0.309409 0.522969
-0.188591 -0.0790645 0.522969
0.371979 0.210405 0.515092
0.320964 0.282083 0.513385
-0.333064 -0.191418 0.522969
0.291854 0.0579134 0.522969
-0.182416 0.24334 0.493272
-0.0239061 0.244381 0.493272
-0.0262651 -0.28725 0.522969
0.00437228 -0.302826 0.0407914
-0.161465 0.0909322 0.493272
0.153643 -0.354358 0.493272
-0.388644 0.0327643 0.522969
-0.164624 -0.00356496 0.0292069
0.074995 0.33329 0.522969
-0.122358 -0.264058 0.522969
-0.199441 -0.249395 0.493272
-0.324094 -0.0226478 0.522969
-0.311073 0.112829 0.493272
0.0575074 -0.349937 0.522969
-0.243519 0.351389 0.519003
-0.264572 0.213658 0.522969
0.366354 0.124381 0.522969
0.0482902 0.0412024 0.522969
0.177579 -0.143619 0.493272
0.292584 -0.016651 0.00163622
0.257477 -0.0825555 0.493272
0.188185 0.0696204 0.522969
0.202434 0.110693 0.493272
0.246 0.199203 0.493272
0.140481 0.284318 0.522969
-0.0550757 0.10026 0.493272
0.00735369 0.0748148 0.0884879
-0.0406534 0.327409 0.493272
0.215169 -0.157874 0.493272
-0.14298 -0.396929 0.522969
0.00920855 -0.202282 0.0243686
-0.22044 -0.096645 0.493272
-0.275691 0.0478344 0.522969
0.11175 0.175918 0.522969
-0.105897 -0.0114657 0.0675584
0.0325453 0.384034 0.493272
-0.0131088 0.296164 0.522969
0.0465009 0.143317 0.493272
0.0247274 0.353216 0.493272
0.015385 -0.0180287 0.392429
0.0795279 -0.0900042 0.493272
-0.0143511 -0.0688633 0.522969
-0.376445 0.00540013 0.493272
0.122033 0.0577659 0.522969
-0.237854 -0.128976 0.522969
0.143796 0.402613 0.515902
-0.0181989 0.0151522 0.338044
-0.0697807 0.219695 0.522969
-0.386122 -0.0306151 0.522969
-0.0333723 -0.197389 0.522969
0.193261 0.0179609 0.493272
-0.0181506 -0.0528221 0.11404
0.12923 -0.404496 0.511875
-0.197398 0.20401 0.522969
0.260286 0.138025 0.522969
0.0922688 0.289834 0.493272
-0.148482 0.364772 0.522969
-0.154642 -0.246749 0.493272
0.0127362 -0.386657 0.522969
0.0601003 0.202052 0.522969
0.35405 -0.0332956 0.493272
-0.0745631 -0.134062 0.522969
-0.0206069 -0.138538 0.522969
-0.1932 0.374508 0.510004
-0.0559131 -0.247142 0.522969
-0.0397811 0.0263563 0.134769
-0.118445 0.210894 0.522969
0.0237216 0.000110761 0.298515
0.0136508 -0.120482 0.0497171
0.0685957 0.245388 0.522969
0.17707 0.343716 0.493272
0.0488942 -0.183421 0.522969
0.0452274 -0.393914 0.495848
-0.293904 -0.106459 0.493272
-0.111165 0.128661 0.522969
-0.0075171 0.274653 0.00156133
-0.0979376 0.21182 0.493272
0.281507 -0.175507 0.493272
0.344866 -0.201268 0.522969
-0.100431 0.394345 0.522969
0.363145 -0.170231 0.498469
0.0336676 -0.23724 0.522969
0.125213 -0.0127895 0.0573929
0.236162 0.0700363 0.493272
0.149822 0.23121 0.522969
0.341554 -0.124387 0.493272
-0.100318 -0.0424893 0.493272
0.300813 -0.076859 0.522969
-0.0686919 0.0222029 0.0682369
0.101138 -0.300985 0.522969
-0.30472 0.0826007 0.522969
-0.41808 -0.090315 0.518205
0.00905335 0.392363 0.493639
-0.158206 0.119264 0.522969
0.216753 -0.161012 0.522969
-0.00702916 -0.359598 0.493272
0.0269275 -0.0183117 0.180231
0.0651047 0.387002 0.522969
-0.297872 -0.292405 0.522969
-0.0373446 0.0264839 0.522969
-0.0479475 0.386286 0.522969
-0.131643 -0.0589071 0.493272
0.22097 -0.283308 0.522969
-0.0519548 0.157227 0.493272
-0.262591 0.297301 0.522969
-0.303347 -0.000324288 0.0409423
0.163069 0.386548 0.50895
-0.209998 0.12308 0.493272
-0.208534 0.340703 0.497551
-0.0913653 -0.392606 0.522969
-0.178011 0.00502724 0.493272
0.0765986 -0.0207837 0.0647825
-0.0901453 0.046951 0.522969
-0.319063 0.261196 0.504791
0.0572762 -0.030012 0.522969
-0.341052 -0.0852555 0.522969
0.0701779 -0.0985135 0.522969
-0.285812 -0.213691 0.522969
-0.0375942 0.0322714 0.493272
0.407928 0.0216716 0.502733
0.325654 -0.238409 0.522969
-0.234163 0.0774478 0.522969
-0.0974829 -0.271966 0.522969
-0.292122 -0.055308 0.493272
0.181536 -0.0543174 0.522969
0.149114 -0.348861 0.522969
0.0484602 -0.0153734 0.039852
0.425225 -0.0391345 0.520607
-0.146466 -0.278231 0.522969
0.0683228 0.220045 0.493272
0.166904 -0.229647 0.493272
0.373704 0.00994123 0.493272
0.0109203 -0.427321 0.519367
0.223215 -0.118698 0.522969
0.000164777 0.199661 0.522969
-0.116446 -0.181441 0.522969
0.134513 -0.270911 0.522969
0.202386 0.181386 0.522969
0.0157417 0.0177143 0.350345
0.0255517 -0.15662 0.493272
0.194881 -0.27456 0.493272
0.281406 0.00302625 0.493272
-0.0990018 0.285767 0.493272
0.0120243 -0.165702 0.522969
0.221308 -0.0525635 0.493272
-0.0131071 0.0543303 0.522969
0.389549 0.0935941 0.522969
-0.0141849 0.189527 0.493272
-0.0107127 -0.251481 0.0185423
-0.0909354 0.0797266 0.493272
-0.302251 -0.253952 0.494906
-0.172396 -0.194515 0.493272
-0.23458 0.206626 0.493272
0.181421 0.341408 0.522969
-0.363033 -0.0772593 0.493272
-0.232395 0.140881 0.522969
-0.324475 -0.156629 0.493272
-0.296633 0.027591 0.493272
-0.23095 -0.202276 0.493272
0.261117 0.0368959 0.522969
-0.105015 -0.215597 0.522969
-0.122351 -0.0339329 0.522969
0.0172125 0.102054 0.493272
-0.0264744 0.0458284 0.116194
0.0881403 -0.201276 0.493272
-0.0562498 -0.329461 0.522969
-0.253153 -0.252502 0.522969
0.149577 -0.164642 0.493272
-0.0104903 0.249044 0.0383925
0.211415 0.286567 0.493272
0.0525638 -0.0201852 0.114412
0.00464057 0.0232814 0.460081
0.415945 0.0472605 0.522969
-0.178382 -0.0472688 0.522969
0.375637 0.0593374 0.522969
0.241993 0.18128 0.522969
-0.342586 -0.256052 0.51547
0.110735 -0.28435 0.493272
0.236852 0.341926 0.522969
0.130488 0.014552 0.522969
0.338303 -0.181123 0.493272
-0.382314 0.0902233 0.493734
0.299989 -0.24763 0.493272
-0.155765 0.177428 0.493272
-0.112733 0.34293 0.493272
0.10742 -0.153411 0.522969
-0.104698 -0.0853828 0.522969
0.0254491 -0.0509614 0.10327
-0.0113269 0.284752 0.0413683
-0.101001 0.0126331 0.493272
-0.203327 -0.142318 0.522969
0.324819 0.157374 0.522969
-0.20494 0.00838595 0.493272
0.194283 0.0936078 0.522969
-0.11353 -0.130261 0.493272
-0.11949 0.364836 0.522969
-0.28882 -0.0989805 0.522969
-0.350775 0.167265 0.493272
-0.333804 -0.119546 0.493272
0.318946 -0.132277 0.522969
0.0232894 0.248866 0.493272
0.28232 0.279142 0.522969
-0.242287 -0.340706 0.508044
-0.0128073 -0.118687 0.0604708
-0.142871 0.211948 0.522969
-0.0331722 0.119465 0.493272
0.389999 -0.113178 0.522969
-0.239699 0.0665599 0.493272
0.286769 -0.260627 0.522969
0.109832 0.248002 0.522969
-0.299066 0.147354 0.522969
-0.198004 0.000201728 0.522969
0.0925438 -0.409979 0.522969
-0.273146 0.116079 0.493272
-0.0266901 -0.379292 0.522969
0.300763 0.210298 0.493272
0.38386 0.174468 0.522969
-0.417405 0.0931044 0.51599
-0.284118 -0.253154 0.522969
0.0952187 0.0871434 0.522969
-0.0330459 0.139449 0.522969
0.118419 0.191727 0.493272
-0.0225577 -0.0225636 0.0472619
-0.0538584 -0.0248725 0.0711048
-0.127441 -0.346668 0.522969
-0.147681 0.0124501 0.522969
0.0113867 0.145689 0.0505743
0.105122 0.014712 0.522969
-0.00719839 0.0297229 0.15782
-0.10157 0.0976981 0.522969
-0.0647949 0.307547 0.522969
-0.0188435 0.0142685 0.409341
0.309238 -0.115385 0.522969
-0.015819 -0.294195 0.493272
-0.0470586 -0.0939352 0.493272
0.250183 0.283732 0.493272
0.126243 -0.0777308 0.493272
0.341691 0.0418861 0.522969
-0.0907298 -0.0182361 0.0467785
0.0187982 -0.217341 0.493272
-0.0546497 -0.0432722 0.493272
-0.0375992 0.0920272 0.522969
-0.266225 -0.270132 0.493272
0.182086 0.258732 0.522969
-0.00881222 -0.0219504 0.434762
-0.005357 0.32039 0.522969
-0.13805 0.0324666 0.493272
0.260971 -0.332129 0.510573
0.200349 -0.345068 0.497362
-0.147714 0.0555209 0.493272
-0.0791869 0.329172 0.493272
0.382333 -0.052268 0.522969
0.258341 0.162988 0.493272
0.237943 0.00666046 0.522969
0.302923 -0.0388308 0.522969
0.0180408 -0.0897014 0.0747101
-0.0232956 -0.0233015 0.0920697
0.21696 -0.00289492 0.493272
-0.0235736 -0.00171539 0.259465
0.187247 0.177298 0.493272
0.194697 -0.310743 0.522969
-0.250108 -0.200374 0.522969
-0.141503 0.127438 0.493272
-0.064201 0.0406113 0.493272
0.000739576 0.324273 0.493272
0.0370153 0.0754952 0.522969
-0.151027 0.366276 0.495649
-0.113857 -0.1826 0.493272
-0.279175 0.291962 0.500047
0.116181 -0.35202 0.493272
-0.365702 0.0449309 0.493272
-0.0169695 -0.0683407 0.094532
0.157101 -0.0833495 0.522969
0.291801 -0.0850437 0.493272
-0.127351 -0.246015 0.493272
-0.122866 0.409437 0.517908
0.207747 0.347713 0.50074
0.36988 -0.069782 0.493272
-0.265092 -0.197441 0.493272
0.0231822 0.0169726 0.212992
0.319639 0.201949 0.522969
0.0372495 -0.320915 0.522969
-0.354639 -0.116971 0.522969
-0.0784279 0.180279 0.493272
-0.0521291 -0.0142404 0.522969
-0.238105 0.260025 0.522969
-0.24754 -0.0475514 0.493272
0.0343623 -0.247711 0.493272
-0.241683 -0.0123763 0.522969
0.256204 -0.266609 0.522969
-0.0318719 0.397263 0.496979
-0.302237 -0.166784 0.522969
0.0363022 0.028377 0.0841811
0.258652 0.269894 0.522969
0.142286 0.314427 0.522969
0.0316392 0.38944 0.522969
0.369454 -0.175181 0.522969
0.296308 -0.201223 0.522969
0.288093 0.205616 0.522969
0.0103948 -0.0690308 0.493272
0.38159 0.146058 0.502763
-0.0442331 -0.0563946 0.522969
0.173734 -0.0229544 0.522969
0.0357102 0.00927112 0.0410237
-0.32574 -0.19257 0.493272
0.227473 -0.361826 0.51921
-0.215512 0.230512 0.522969
-0.166206 -0.240159 0.522969
0.194105 -0.0763101 0.493272
0.293635 -0.294805 0.506991
-0.22472 -0.129398 0.493272
-0.234518 -0.155676 0.522969
0.279509 -0.165957 0.522969
-0.0103879 0.222929 0.522969
0.0950384 -0.1538 0.493272
-0.392405 -0.0767138 0.497755
-0.106645 -0.0661695 0.493272
0.237818 0.0663043 0.522969
0.0565288 0.280227 0.493272
-0.254351 -0.0104517 0.0403646
0.113087 -0.239875 0.522969
0.0235121 -0.0614492 0.0537205
-0.130219 -0.012865 0.0334569
-0.0141152 -0.0821788 0.0367613
0.112239 0.371825 0.522969
-0.248075 0.00974864 0.493272
-0.405411 0.0254731 0.501372
0.289407 0.0379662 0.493272
0.00761956 0.0632424 0.0384991
-0.154996 -0.332772 0.493272
0.2994 0.0112598 0.0355631
0.0750607 -0.346114 0.493272
0.0358916 -0.00309267 0.144136
-0.204527 -0.0649124 0.493272
-0.0103463 -0.0213517 0.291848
-0.212457 0.023128 0.522969
0.193951 0.144169 0.493272
0.136208 -0.309574 0.493272
-0.215708 -0.0925622 0.522969
0.0841175 -0.236158 0.493272
-0.0301163 0.0234136 0.0415372
0.0988197 0.120505 0.493272
0.0199084 0.16921 0.493272
-0.324279 0.0830799 0.493272
-0.191248 0.0884751 0.493272
-0.234252 0.148206 0.493272
0.129861 0.0120465 0.0323923
0.197244 -0.0938692 0.522969
-0.285006 0.18816 0.493272
0.29441 0.119653 0.493272
-0.369192 0.202487 0.509769
0.0130307 0.13537 0.493272
-0.0446318 0.420604 0.522969
-0.0941538 -0.150093 0.522969
-0.39099 -0.121463 0.522969
-0.195629 0.313415 0.522969
0.121332 -0.370023 0.522969
0.109713 0.329999 0.522969
-0.310572 0.0492611 0.522969
0.357 0.0109847 0.522969
-0.161014 0.276295 0.522969
0.0713673 -0.382844 0.493272
0.0737166 0.171519 0.522969
-0.0980284 -0.0195884 0.522969
0.164556 -0.193757 0.522969
-0.395698 -0.00102215 0.522969
-0.256782 -0.052703 0.522969
0.240778 -0.138762 0.522969
0.0511697 -0.213904 0.522969
0.0280019 0.205018 0.522969
-0.170425 0.0768928 0.522969
0.126113 0.104031 0.522969
-0.0405722 0.292905 0.493272
-0.150251 -0.215682 0.493272
-0.357122 -0.230035 0.511847
-0.111515 -0.380949 0.49612
-0.0623895 -0.40076 0.501026
-0.0260804 -0.261608 0.493272
0.156429 0.0594468 0.522969
0.0436603 0.0305926 0.493272
-0.32467 0.229458 0.496434
0.175785 -0.329549 0.522969
-0.164755 0.305659 0.493272
-0.217188 0.364646 0.522838
0.103335 -0.269161 0.522969
0.287139 -0.202147 0.493272
-0.353839 -0.188102 0.498216
-0.00380307 0.0270399 0.188006
0.0853247 -0.369666 0.522969
0.0667516 -0.173364 0.493272
-0.279743 -0.168031 0.493272
0.347788 -0.0298442 0.522969
-0.0662903 -0.250759 0.493272
0.177226 -0.240907 0.522969
-0.191621 -0.330224 0.522969
-0.00517207 0.0434515 0.493272
0.208609 -0.216891 0.493272
0.154622 -0.127623 0.493272
0.324261 0.116928 0.493272
-0.337794 -0.0459363 0.493272
0.0448988 0.323107 0.522969
-0.0688696 0.241756 0.493272
0.375857 0.111673 0.493484
0.0497093 0.00848364 0.522969
-0.399052 -0.0281321 0.497875
0.137279 -0.0374403 0.493272
-0.224554 0.28373 0.493272
0.192882 -0.156666 0.522969
-0.0660759 0.125583 0.493272
0.203014 -0.123411 0.493272
-0.197618 -0.29969 0.493272
0.123751 0.244421 0.493272
-0.0373003 -0.00641644 0.140978
-0.272088 -0.300344 0.500806
-0.262557 -0.120882 0.522969
-0.328541 0.147205 0.522969
0.249417 -0.0105287 0.0204585
-0.00776545 -0.0227443 0.240554
-0.0653602 -0.0800282 0.522969
-0.359246 -0.173705 0.522969
-0.0621143 -0.205682 0.522969
-0.273188 0.00983936 0.522969
0.108575 0.0312165 0.493272
0.0351516 0.125015 0.522969
0.41727 0.0770265 0.522877
0.175863 0.00740041 0.0475961
0.0911862 -0.00289524 0.0758742
-0.084487 -0.290483 0.493272
-0.390065 0.138384 0.522969
-0.0483773 -0.194816 0.493272
0.0134279 -0.0514149 0.522969
0.271758 -0.0546731 0.493272
-0.0173488 -0.0162143 0.4833
-0.220893 -0.268882 0.522969
0.0633608 0.386918 0.493385
0.338399 -0.261103 0.514921
-0.0701133 0.27399 0.522969
-0.198267 -0.370114 0.50909
-0.031561 -0.329095 0.493272
-0.00132322 -0.26456 0.522969
-0.0924246 -0.321578 0.493272
0.0849099 -0.00989749 0.522969
-0.224554 -0.319574 0.522969
-0.358209 -0.0184852 0.522969
0.0503627 0.199437 0.493272
-0.097099 -0.252684 0.493272
-0.278855 -0.0775949 0.493272
0.0712942 -0.320776 0.522969
-0.22259 0.00899945 0.0234582
0.0329919 0.324278 0.493272
-0.0845932 -0.215887 0.493272
-0.129466 -0.0890891 0.493272
0.0897925 0.327967 0.493272
-0.28746 -0.220866 0.493272
-0.108175 0.0737085 0.522969
0.120941 -0.0762486 0.522969
-0.0572033 0.251666 0.522969
0.167339 0.210847 0.493272
0.414856 -0.102167 0.520393
0.307071 -0.00569029 0.522969
-0.375681 -0.140088 0.522969
0.0794383 -0.0619782 0.493272
0.00980169 -0.168547 0.0422659
0.234054 -0.341547 0.505818
0.316152 -0.126333 0.493272
-0.350215 0.0951972 0.493272
-0.193715 -0.118615 0.493272
0.0227095 0.00659134 0.40996
-0.0123982 -0.129317 0.0324416
-0.418844 0.0635538 0.522969
-0.188503 0.234527 0.522969
0.000151148 0.100923 0.0350439
-0.148316 -0.102464 0.522969
0.135397 0.216837 0.493272
-0.109171 0.335758 0.522969
0.12554 -0.332018 0.522969
-0.18505 -0.21169 0.522969
0.179321 -0.173825 0.493272
-0.238426 -0.256732 0.493272
-0.279219 -0.139456 0.522969
0.0878673 0.0177672 0.0362393
-0.0913053 0.0107175 0.0757959
-0.0218143 -0.00927529 0.32263
0.12733 0.0957307 0.493272
0.423849 0.0216719 0.522828
-0.00868086 -0.21554 0.0418361
-0.126755 0.187998 0.493272
-0.063543 0.0207269 0.099807
0.26707 -0.0596166 0.522969
0.0217241 -0.319435 0.493272
-0.190976 0.321458 0.493272
-0.00526345 -0.145436 0.493272
0.232909 -0.270332 0.493272
0.247769 -0.117251 0.493272
-0.16701 -0.206456 0.522969
0.00794455 -0.272028 0.0418388
0.0236663 -0.000724352 0.371043
0.152558 -0.00341106 0.522969
0.375982 0.0766272 0.493272
0.373839 -0.13086 0.495717
0.301741 0.0284351 0.522969
-0.00181835 -0.0421155 0.131674
0.0486954 0.356342 0.522969
0.17434 0.098336 0.493272
0.0675819 0.308364 0.493272
-0.193122 0.00386027 0.045913
0.133947 -0.192729 0.522969
0.153359 0.15676 0.493272
-0.0544958 0.157761 0.522969
-0.00905235 -0.190454 0.0436119
0.141551 0.0180617 0.493272
0.0216349 -0.0352334 0.493272
0.013911 0.292158 0.0293644
-0.0148304 0.100744 0.493272
-0.0458013 -0.303471 0.522969
0.215155 0.233266 0.522969
-0.114385 0.293807 0.522969
-0.214229 -0.176565 0.493272
-0.28248 0.32022 0.521215
-0.00469503 -0.0231648 0.408871
0.223136 -0.189687 0.522969
0.118374 0.305995 0.522969
-0.0315876 -0.167263 0.493272
0.0658999 0.0859456 0.522969
0.0503469 -0.270475 0.522969
0.271675 0.215621 0.493272
-0.203126 0.219833 0.493272
-0.333137 0.204088 0.522969
-0.22115 -0.234463 0.493272
0.154252 -0.130186 0.522969
-0.0538246 0.0699299 0.493272
-0.0107545 0.0211026 0.359896
-0.133922 -0.31095 0.493272
-0.0246888 0.0548491 0.0413162
0.141614 -0.246205 0.493272
0.292622 0.148466 0.522969
-0.110994 -0.293807 0.522969
0.0194299 -0.185837 0.493272
-0.0892314 0.141985 0.522969
0.0129927 0.112408 0.063682
-0.109239 0.183075 0.522969
-0.117585 0.246288 0.493272
0.250395 -0.23804 0.522969
-0.0542818 -0.397198 0.522969
0.410087 -0.0133498 0.522969
-0.1995 0.170049 0.522969
-0.0106627 -0.0978137 0.522969
-0.293389 0.164749 0.493272
-0.173833 -0.288091 0.522969
-0.0383622 -0.351522 0.522969
-0.299933 -0.27904 0.503279
0.274129 0.0990383 0.493272
0.207655 -0.0296369 0.493272
0.138725 -0.187448 0.493272
0.0389806 0.264417 0.522969
0.356382 -0.228924 0.511298
-0.194995 0.0848604 0.522969
-0.277561 0.126937 0.522969
0.169198 0.368608 0.522969
0.085654 -0.170684 0.522969
-0.18192 0.0220762 0.522969
-0.303626 0.14111 0.493272
-0.409897 0.121741 0.518219
0.220012 0.0360605 0.493272
0.00515017 0.273728 0.522969
0.0964382 0.0559626 0.493272
-0.0221445 0.351837 0.522969
-0.317212 -0.0717131 0.522969
-0.397931 -0.0596844 0.522969
-0.327015 0.0199801 0.493272
0.31765 0.183714 0.493272
0.00402838 0.0233691 0.423441
-0.142992 -0.126246 0.493272
-0.00551024 0.0254634 0.219995
0.337954 0.228052 0.522969
-0.167114 0.119705 0.493272
0.21534 0.088665 0.493272
0.141615 0.154538 0.522969
0.00997976 0.161268 0.0295148
0.309421 0.242723 0.494135
0.0543731 -0.104603 0.493272
-0.335945 -0.0493145 0.522969
-0.0802648 0.0201196 0.0463561
-0.357561 0.0703927 0.493272
-0.341316 0.257603 0.519518
-0.303321 0.0541358 0.493272
0.279019 0.272101 0.493272
0.02303 -0.00564624 0.253725
-0.128268 -0.156187 0.522969
0.20788 0.336474 0.522969
0.0348816 -0.151342 0.522969
0.25972 0.323399 0.506272
0.0742786 -0.200969 0.522969
-0.21883 0.316204 0.493272
0.146568 -0.0702082 0.493272
-0.040631 0.29166 0.522969
-0.0133948 -0.280991 0.0291173
0.0611346 0.287816 0.522969
-0.168333 0.210858 0.493272
-0.0810184 -0.0168301 0.493272
0.028517 -0.0356295 0.0421828
-0.19218 -0.0267799 0.522969
0.0177778 -0.0155735 0.429992
-0.0152402 0.0647753 0.0986575
-0.00889017 -0.402937 0.522969
-0.0997937 -0.351406 0.493272
-0.266853 0.178968 0.522969
-0.172947 -0.147675 0.522969
0.364687 0.188993 0.504005
0.348942 -0.0926087 0.493272
0.259888 0.0520262 0.493272
-0.0688608 -0.134848 0.493272
-0.353668 0.176841 0.522969
0.231064 -0.22764 0.493272
0.0346452 -0.419309 0.509662
-0.156732 -0.375164 0.522969
0.350563 0.13744 0.493272
0.131439 0.208604 0.522969
-0.319199 0.280448 0.522723
0.0234744 -0.364348 0.493272
0.0961793 -0.121957 0.493272
0.25279 -0.171597 0.493272
0.0693717 -0.0717962 0.522969
-0.224951 0.0474521 0.522969
0.153821 -0.250953 0.522969
0.130259 0.148648 0.493272
0.199657 -0.191238 0.493272
0.329396 -0.0362336 0.493272
0.0778045 -0.02029 0.493272
0.122411 0.299943 0.493272
-0.0806708 0.37946 0.522969
-0.139566 0.136768 0.522969
0.243704 0.227466 0.493272
-0.0130368 -0.315286 0.522969
-0.231861 0.105306 0.522969
0.182622 0.268643 0.493272
0.192204 -0.369064 0.50698
-0.257505 0.0702722 0.522969
0.291363 -0.151133 0.493272
-0.262322 0.222582 0.493272
0.0655732 0.123569 0.493272
0.197416 -0.265721 0.522969
-0.10929 0.311627 0.493272
-0.0273749 -0.0145827 0.177355
0.0724048 -0.407781 0.505869
0.195037 0.0377838 0.522969
-0.139805 -0.275941 0.493272
0.0703656 -0.000528568 0.037847
0.232964 -0.214954 0.522969
0.212496 -0.292361 0.493272
0.267964 -0.298803 0.498655
0.227916 -0.0976911 0.522969
0.0162958 0.0172228 0.281771
0.0439019 0.223044 0.522969
-0.0842073 0.32694 0.522969
0.0972146 0.148736 0.522969
-0.421133 -0.0246247 0.522969
-0.250112 0.101225 0.493272
-0.00692262 -0.360373 0.522969
-0.234065 0.297593 0.522969
0.349892 -0.159329 0.493272
0.24255 0.15586 0.522969
-0.303757 0.212819 0.493272
-0.0209476 0.0111376 0.485237
0.0138254 0.419571 0.509099
0.308553 -0.148728 0.522969
0.13021 0.384637 0.501342
-0.40166 -0.143441 0.512819
-0.381639 0.0681325 0.522969
0.188864 -0.0129972 0.493272
0.273586 -0.0127287 0.0171793
0.299049 -0.0106323 0.493272
0.0287974 0.0342018 0.128827
-0.0179982 -0.175252 0.522969
-0.125043 0.0658008 0.493272
0.127621 -0.00522035 0.493272
0.269006 0.0830659 0.522969
-0.029442 -0.22278 0.493272
-0.0484663 -0.133172 0.522969
-0.393575 0.154726 0.510823
0.0301658 -0.085449 0.493272
0.173003 -0.29003 0.493272
0.0140441 0.0650683 0.522969
0.0523876 -0.228589 0.493272
0.315893 -0.193303 0.493272
-0.178697 0.139082 0.522969
0.165054 0.326873 0.493272
-0.278676 0.142383 0.493272
0.00698339 -0.0226165 0.368274
0.209095 0.207654 0.522969
-0.0708064 -0.421551 0.5164
-0.350062 0.0104089 0.493272
0.254545 0.243555 0.522969
-0.0232172 0.0630451 0.0776132
-0.0892539 -0.391965 0.498997
-0.141944 -0.188308 0.522969
-0.0767266 0.000158297 0.0372625
0.144101 0.00510515 0.0535789
-0.0537909 -0.364805 0.493272
0.092278 0.399821 0.503705
0.0336575 0.0799617 0.493272
0.353396 -0.00729758 0.493272
0.0340801 -0.292194 0.522969
-0.111274 0.0355931 0.522969
-0.0884236 0.111934 0.493272
0.0755011 -0.304613 0.493272
0.168422 -0.358141 0.522969
-0.223703 0.20305 0.522969
-0.0136196 0.019289 0.262558
0.021906 0.0703711 0.072072
-0.12216 -0.153161 0.493272
-0.0215014 -0.0883964 0.493272
0.0232269 -0.00468471 0.341373
0.239494 0.130149 0.493272
0.207169 0.25998 0.493272
-0.0836773 0.354739 0.493272
-0.0210752 -0.0749389 0.0605925
0.0478669 0.00863495 0.493272
0.341304 0.0331236 0.493272
0.412549 -0.0559584 0.507171
-0.169308 -0.133355 0.493272
0.323207 0.22304 0.493818
-0.290139 -0.0315147 0.522969
-0.0279784 -0.22181 0.522969
-0.076492 0.0980976 0.522969
-0.307924 -0.243093 0.522969
-0.273743 0.0072064 0.493272
0.331072 0.091503 0.493272
-0.17213 0.325797 0.522969
-0.0237088 0.000668423 0.438103
-0.048312 0.256093 0.493272
0.00615594 -0.150251 0.030524
-0.217068 -0.241361 0.522969
0.164486 0.279644 0.522969
-0.286155 0.234936 0.522969
0.0881014 0.268763 0.522969
-0.0320706 0.209652 0.522969
0.0206501 -0.397979 0.496991
0.198996 -0.0140131 0.522969
-0.0253517 -0.249695 0.522969
-0.00989021 0.167403 0.0417565
0.128287 0.270581 0.493272
-0.1169 -0.404079 0.509578
-0.20902 0.148743 0.493272
-0.206786 -0.276807 0.493272
-0.0359465 -0.0264171 0.493272
-0.295416 0.10923 0.522969
-0.191478 0.268075 0.522969
-0.0240455 0.00503614 0.235964
0.24266 0.120914 0.522969
0.178157 -0.349585 0.493597
-0.0339758 0.00421001 0.522969
0.36579 0.035299 0.522969
-0.299418 0.0856968 0.493272
0.248838 0.09152 0.493272
0.245335 -0.0473504 0.522969
-0.00125817 -0.271486 0.00699753
-0.26784 0.0314206 0.493272
0.377666 -0.0919521 0.522969
-0.261887 -0.0883072 0.522969
0.385065 -0.0483282 0.493272
0.315159 -0.260382 0.522969
0.00977389 0.121881 0.0331227
-0.173034 0.066332 0.493272
-0.356086 -0.200254 0.522969
0.0798189 0.375405 0.493272
-0.0141413 -0.427247 0.515274
-0.0975407 0.161333 0.493272
-0.131602 -0.306818 0.522969
-0.0263575 -0.0403504 0.13352
0.0255365 0.0255308 0.105216
-0.269667 -0.10413 0.493272
0.035565 -0.04103 0.522969
0.142046 -0.332951 0.493272
-0.353863 -0.0281047 0.493272
-0.331849 0.0389679 0.522969
0.338192 0.0966223 0.522969
0.215532 -0.00906876 0.0361027
-0.00307737 0.023483 0.319239
-0.36137 -0.105654 0.493272
-0.0560959 -0.156285 0.522969
0.304105 -0.228146 0.522969
0.0434545 -0.177862 0.493272
-0.375599 -0.17169 0.505185
0.0176806 0.0327585 0.151146
-0.0220592 0.00868443 0.307795
0.0315514 -0.371434 0.522969
0.404488 0.0451091 0.501892
0.385445 -0.170621 0.510095
0.027223 -0.196367 0.522969
-0.0235929 -0.00100412 0.284696
0.159748 0.33111 0.522969
0.0141773 0.0294718 0.493272
-0.140278 0.239568 0.522969
-0.0606984 -0.270742 0.522969
-0.255892 0.327917 0.506876
-0.145371 -0.0460592 0.522969
0.254151 0.259959 0.493272
-0.0250297 -0.0530073 0.0456672
0.00903594 0.219496 0.0297267
0.170312 0.0943873 0.522969
-0.202609 -0.0549862 0.522969
-0.184907 -0.053208 0.493272
-0.0234921 0.390589 0.522969
-0.0604675 0.344101 0.493272
-0.19819 -0.111755 0.522969
-0.0591544 0.0159477 0.0388705
0.33724 -0.14846 0.522969
-0.225069 0.0469891 0.493272
-0.0958951 0.416515 0.51961
-0.1286 -0.205696 0.493272
-0.143305 0.341506 0.522969
0.353447 0.223752 0.508286
-0.304076 0.257702 0.522969
0.0853826 -0.282965 0.493272
0.412858 0.108515 0.513162
-0.410826 -0.113395 0.51262
0.0306879 -0.402249 0.522969
0.24259 -0.00268516 0.493272
-0.0806767 0.305466 0.493272
-0.32398 -0.254075 0.504463
-0.100914 0.226357 0.522969
0.183338 0.039512 0.493272
0.21423 0.00728861 0.522969
-0.327258 -0.168419 0.522969
-0.116888 -0.0255407 0.493272
0.305513 0.0130941 0.493272
-0.339669 0.145615 0.493272
0.0387933 -0.0278781 0.0967822
0.116657 -0.176603 0.522969
0.317443 -0.0580995 0.522969
0.305178 0.297448 0.52195
-0.0394393 -0.0796553 0.522969
-0.0460946 -0.0229969 0.124543
0.0152519 0.279793 0.00513917
0.0765961 0.0180599 0.0866817
-0.0614157 0.332931 0.522969
-0.0181165 0.106005 0.522969
-0.0108826 0.0209734 0.441496
0.274314 -0.103924 0.493272
0.0472521 0.360027 0.493272
-0.257847 0.28469 0.493272
0.205301 0.190494 0.493272
0.0120206 -0.0204444 0.29898
-0.0622378 0.192306 0.522969
-0.250482 -0.121914 0.493272
0.0792958 0.143473 0.493272
0.0989834 -0.0167534 0.0586618
-0.0709096 -0.109551 0.522969
0.240596 -0.0173993 0.522969
-0.170845 0.0272866 0.493272
-0.00927329 0.226142 0.493272
-0.107202 -0.358308 0.522969
0.0931849 0.19521 0.522969
-0.0273552 0.272163 0.493272
-0.224588 -0.00678389 0.0430164
0.00793451 -0.286983 0.522969
-0.138724 0.389165 0.505308
-0.0287172 0.15865 0.493272
-0.252478 0.0461574 0.522969
0.135222 -0.223858 0.493272
0.237319 -0.305391 0.522969
-0.0166938 0.295948 0.00254883
0.14617 0.374157 0.522969
0.0264411 -0.00371952 0.203036
0.318883 -0.0909244 0.522969
-0.156995 -0.00860884 0.0505082
-0.172035 -0.306345 0.493272
0.180371 0.309481 0.493272
0.305508 -5.97056e-05 0.0113153
-0.0441858 0.0267971 0.0886699
0.279705 0.194084 0.493272
0.399165 0.153182 0.516223
0.0975081 -0.328735 0.522969
-0.244365 0.0100648 0.0366351
0.229206 -0.0759262 0.493272
-0.148765 -0.0433818 0.493272
-0.0375128 0.000222867 0.0408589
-0.15208 0.190775 0.522969
0.195442 0.316581 0.522969
0.147703 -0.396341 0.522969
0.105434 0.114184 0.522969
0.324262 -0.240884 0.500124
0.340962 0.120518 0.522969
0.010996 0.131188 0.522969
0.261936 0.206086 0.522969
-0.3086 -0.0502342 0.522969
0.219505 0.0802168 0.522969
-0.278581 -0.0367424 0.493272
-0.0979733 -0.173585 0.522969
-0.00108192 -0.0259192 0.21881
0.183728 0.385894 0.518154
0.2458 -0.116369 0.522969
-0.270602 -0.230853 0.522969
0.0229351 0.314152 0.522969
-0.231838 -0.185221 0.522969
0.124029 -0.128537 0.522969
-0.0260011 0.161203 0.522969
0.0293956 0.0312377 0.041536
-0.0410314 -0.0718887 0.493272
0.222284 0.319158 0.522969
-0.178989 0.387084 0.521829
0.262519 0.104956 0.522969
0.0722603 -0.0491518 0.522969
0.00727609 0.041515 0.132743
-0.000787506 0.171092 0.493272
0.00285799 0.0843747 0.493272
-0.224908 -0.0642988 0.493272
-0.101036 -0.042589 0.522969
0.195271 -0.179274 0.522969
-0.0359696 -0.303805 0.493272
-0.131956 0.228223 0.493272
-0.0706546 0.218269 0.493272
0.393178 0.044949 0.522969
0.0117739 0.180177 0.522969
0.0615601 -0.119484 0.522969
-0.198529 0.267931 0.493272
0.207304 0.115885 0.522969
-0.055316 -0.165069 0.493272
-0.298555 -0.0114606 0.000196198
-0.279682 0.00372356 0.0417067
-0.297983 -0.194629 0.522969
-0.0186016 -0.115994 0.493272
0.0766859 0.190577 0.493272
-0.1201 -0.0136766 0.0501949
0.120213 -0.0474254 0.522969
-0.242272 0.127206 0.493272
-0.361933 0.0504574 0.522969
0.0262728 -0.0468426 0.0757102
0.147371 -0.0590767 0.522969
-0.121355 0.149879 0.522969
0.119332 0.035497 0.522969
0.290331 0.288706 0.503235
-0.043669 -0.02537 0.0402903
-0.147651 0.0032812 0.493272
-0.123362 0.0138673 0.493272
0.11457 -0.142845 0.493272
0.00889246 -0.337757 0.493272
-0.0195019 -0.336657 0.522969
0.11512 -0.0324693 0.493272
-0.0953523 -0.195492 0.522969
-0.176065 0.364071 0.500303
-0.117925 -0.108416 0.493272
0.234611 0.176632 0.493272
0.0251471 -0.213948 0.522969
0.266766 0.0584297 0.522969
-0.203657 0.0542884 0.493272
-0.0666292 0.0142194 0.493272
0.0933844 -0.358734 0.493272
0.146659 0.366634 0.494996
-0.307917 -0.21605 0.522969
-0.156591 0.143763 0.493272
-0.0870432 -0.0179169 0.0773475
0.104325 -0.0758083 0.493272
0.00798917 -0.072921 0.522969
0.414021 0.000579825 0.505816
-0.162747 -0.262038 0.522969
0.068677 0.312085 0.522969
0.0164762 -0.0289278 0.163892
0.299366 -0.274282 0.501305
0.0797622 -0.27596 0.522969
0.272656 0.0126442 0.0176092
-0.119131 -0.0593827 0.522969
0.250332 -0.316442 0.499847
-0.246655 -0.104099 0.522969
0.257898 -0.167981 0.522969
0.118228 -0.326862 0.493272
-0.190676 0.11278 0.493272
-0.369911 0.1726 0.502462
0.131425 0.124774 0.493272
-0.0462545 0.18738 0.493272
-0.0765017 -0.25565 0.522969
-0.292711 3.02284e-05 0.522969
-0.0764948 -0.0540637 0.493272
-0.173918 0.10409 0.522969
-0.0931951 -0.186615 0.493272
-0.162167 -0.0247932 0.493272
0.177884 0.368228 0.502953
-0.0801135 -0.331868 0.522969
0.0412127 -0.0121304 0.493272
-0.0410837 -0.172097 0.522969
0.156218 -0.0489813 0.493272
0.313555 0.0560559 0.522969
-0.24454 -0.27763 0.493272
0.403866 -0.0416334 0.522969
-0.264693 -0.154771 0.522969
0.199363 0.329088 0.493272
0.0425834 0.300955 0.493272
0.388907 -0.0733539 0.522969
-0.334299 0.124578 0.493272
-0.00590347 0.0881245 0.0778175
-0.119519 0.2097 0.493272
0.343343 -0.168129 0.522969
0.0871852 -0.120259 0.522969
-0.069956 -0.0219757 0.0515545
-0.00331408 -0.126115 0.522969
0.343737 -0.0535962 0.522969
-0.0869978 0.0693509 0.522969
0.0316131 0.12435 0.493272
-0.0310096 0.219332 0.493272
-0.268978 0.250815 0.522969
-0.242067 0.188697 0.522969
0.270424 -0.239973 0.522969
-0.316318 -0.0457447 0.493272
-0.228146 -0.0384037 0.493272
0.255704 0.310569 0.522969
-0.021809 0.337614 0.493272
0.0722966 -0.215685 0.493272
0.0461402 -0.372683 0.493272
0.235643 -0.171076 0.522969
0.199978 -0.0509324 0.493272
-0.0894721 0.115072 0.522969
-0.244559 -0.272041 0.522969
0.00191733 -0.112011 0.034027
0.00636774 -0.165976 0.493272
-0.218411 0.340126 0.522969
0.0449705 0.400246 0.499389
-0.216676 -0.0100746 0.522969
0.0499964 -0.0917213 0.522969
0.228123 -0.020989 0.493272
0.269768 0.141659 0.493272
0.0406809 -0.123479 0.522969
0.326975 0.26224 0.508713
-0.159912 -0.0664539 0.493272
0.225986 0.354303 0.509391
0.34096 0.141751 0.522969
-0.224247 -0.314913 0.493272
-0.0511363 -0.41752 0.509575
0.0395008 -0.125174 0.493272
0.117588 -0.163822 0.493272
0.36514 0.0312437 0.493272
0.280885 -0.100953 0.522969
0.192014 -0.0727241 0.522969
0.00244575 0.252689 0.493272
0.26708 0.0202872 0.493272
0.101874 0.0513571 0.522969
-0.117164 0.274937 0.493272
0.0709201 0.407316 0.522969
-0.399403 0.00562753 0.497522
-0.373473 0.110507 0.493272
0.35178 0.197812 0.522969
0.0519729 0.25979 0.493272
0.27404 -0.280607 0.522969
-0.0161964 0.186454 0.522969
0.332877 -0.0063608 0.522969
-0.386679 0.0437876 0.493272
0.176576 0.137596 0.522969
0.145711 0.0414007 0.522969
-0.328136 0.0976018 0.522969
0.134556 -0.245201 0.522969
0.0767749 -0.341653 0.522969
-0.096381 0.28306 0.522969
0.101862 -0.21712 0.493272
0.243227 -0.00487946 0.0425448
0.102037 -0.401861 0.506175
0.0562134 0.0661213 0.522969
-0.155122 -0.18139 0.493272
-0.175017 0.344394 0.493272
-0.0219649 -0.0219708 0.0681653
-0.215416 0.0264899 0.493272
-0.386952 0.069835 0.493992
0.0645044 0.240592 0.493272
-0.33912 -0.174114 0.493272
0.0891086 0.317899 0.522969
0.270815 -0.025426 0.493272
-0.140908 -0.24003 0.522969
-0.0203031 0.276577 0.522969
-0.0706304 -0.272707 0.493272
0.0774958 -0.0188666 0.0855134
0.38926 0.124613 0.502807
-0.283435 -0.245175 0.493272
-0.213365 -0.169029 0.522969
-0.100169 0.26058 0.522969
-0.245954 0.169735 0.493272
0.143227 0.175485 0.522969
-0.368051 -0.0570678 0.493272
0.0563657 0.0244227 0.0877018
0.0113057 0.228793 0.493272
0.0981198 0.187565 0.493272
0.170898 0.241325 0.522969
0.00656523 -0.147821 0.0527333
-0.071725 0.0874204 0.493272
0.109724 0.268684 0.522969
0.0971892 -0.0265403 0.522969
0.39643 0.0742352 0.522969
-0.0136908 0.284245 0.0208972
-0.170737 0.368238 0.522969
-0.27645 0.19683 0.522969
0.0839028 0.21358 0.522969
0.355322 -0.209382 0.504939
-0.149327 0.293214 0.522969
-0.129081 0.383021 0.522969
0.00517549 -0.126428 0.493272
0.00959143 0.24553 0.040743
-0.0259267 0.03187 0.152814
-0.170743 -0.216327 0.493272
-0.286403 0.0653083 0.522969
-0.253682 -0.0277921 0.493272
-0.00212339 0.30484 0.028608
-0.215499 -0.122645 0.522969
-0.30355 -0.233629 0.493272
-0.128504 -0.382528 0.522969
-0.129511 0.193733 0.522969
0.197721 0.16152 0.522969
0.223338 -0.121614 0.493272
-0.010883 0.396119 0.49575
-0.113545 -0.311697 0.493272
0.0670665 0.265716 0.522969
0.0201405 0.0123388 0.467533
-0.182452 0.190153 0.522969
0.342144 -0.0521219 0.493272
0.346741 -0.242551 0.522969
0.0324541 0.185155 0.522969
-0.0264033 0.312885 0.493272
0.215937 0.22542 0.493272
-0.0701727 -0.186349 0.493272
-0.333973 -0.00489106 0.522969
0.400025 -0.107463 0.505977
-0.137864 -0.135749 0.522969
0.00166839 -0.0348634 0.522969
-0.0542604 0.367009 0.522969
0.105627 0.349859 0.522969
0.270479 0.187754 0.522969
-0.375585 0.00107739 0.522969
-0.314258 -0.175928 0.493272
-0.0111376 0.256139 0.0194715
-0.00771603 -0.0223322 0.311866
0.0612008 -0.0814871 0.493272
-0.00019154 -0.0770302 0.086426
0.0244631 0.0230968 0.193778
0.0248761 -0.35237 0.522969
-0.0228909 -0.00609647 0.409804
0.196937 -0.24531 0.522969
0.409302 -0.0681161 0.522969
-0.0805974 0.0287905 0.493272
0.133209 -0.362824 0.493272
-0.0461634 0.0103671 0.493272
-0.0879123 0.0500229 0.493272
-0.00716785 0.106672 0.0671587
-0.0664526 0.394254 0.522969
0.243501 0.046993 0.522969
-0.0641396 -0.0592954 0.522969
-0.335423 -0.111091 0.522969
0.114371 0.167989 0.493272
-0.0059547 -0.028256 0.170224
-0.0332243 -0.0289933 0.108568
-0.344927 0.0851396 0.522969
-0.094161 -0.135374 0.493272
-0.0130104 0.086164 0.522969
-0.13499 0.0746426 0.522969
0.187855 -0.217864 0.522969
-0.302935 0.00732891 0.0168768
-0.0393269 0.0513469 0.493272
-0.213912 0.194658 0.493272
-0.131822 -0.39156 0.505246
0.0208836 0.223655 0.522969
-0.211247 0.0732917 0.522969
-0.112346 -0.103802 0.522969
0.217425 -0.137758 0.522969
-0.154941 0.0108915 0.0470039
0.0280869 0.106402 0.522969
-0.120875 0.111287 0.522969
0.116138 -0.389186 0.522969
-0.132584 0.342779 0.493272
0.323716 -0.107986 0.493272
-0.0742163 0.0686857 0.493272
0.135732 -0.150449 0.493272
-0.0480046 0.025884 0.116745
0.329061 -0.01371 0.493272
-0.0849062 -0.0857218 0.522969
0.171891 0.134589 0.493272
-0.0168634 -0.098336 0.0590982
0.210567 -0.371955 0.517235
-0.199909 -0.0107379 0.493272
-0.271888 -0.291231 0.522969
0.121719 -0.285954 0.522969
0.30344 -0.111223 0.493272
-0.219062 0.254813 0.522969
-0.016337 0.0130591 0.522969
-0.218848 -0.289413 0.522969
0.0387494 0.175009 0.493272
0.368647 -0.0921033 0.493272
-0.0552262 -0.186902 0.522969
0.287161 -0.0227843 0.522969
0.166978 -0.163195 0.522969
0.0291633 -0.00234209 0.162568
0.203634 -0.117336 0.522969
-0.027118 0.00240833 0.186967
-0.0146486 0.125932 0.493272
-0.255547 -0.214579 0.493272
-0.015037 -0.018299 0.338663
-0.396245 -0.0800849 0.522969
-0.0106279 -0.0333746 0.493272
-0.30289 -0.20374 0.493272
0.00083135 -0.253823 0.0422092
0.385526 -0.141367 0.522969
-0.0797777 -0.00868459 0.522969
-0.153604 -0.296408 0.522969
0.171975 -0.270279 0.493272
0.0507327 0.0579383 0.493272
-0.100675 0.369991 0.522969
0.306064 0.162742 0.522969
-0.255171 -0.330993 0.522969
0.0153336 -0.0976729 0.522969
-0.0103928 0.3534 0.493272
0.304333 -0.180847 0.522969
0.069741 -0.0427129 0.493272
0.133353 -0.14955 0.522969
0.246147 -0.0663827 0.493272
0.169865 0.00969409 0.0292512
-0.23758 0.326735 0.50009
0.196441 0.0841774 0.493272
-0.245271 -0.189155 0.493272
0.183506 0.176882 0.522969
-0.232961 -0.252475 0.522969
0.236338 0.244967 0.522969
-0.374115 -0.0138411 0.493272
0.219654 0.307268 0.493272
0.196991 0.243487 0.493272
-0.260537 -0.176926 0.522969
-0.189907 -0.157014 0.522969
-0.00129449 0.0390038 0.522969
0.425355 -0.0190556 0.512557
0.264385 0.182297 0.493272
-0.280361 -0.0133427 0.032675
-0.414736 0.0702811 0.509526
0.115947 0.0490669 0.493272
0.194398 -0.327157 0.493272
0.119331 0.0151893 0.493272
-0.262385 0.319469 0.522969
-0.0805524 0.258807 0.493272
-0.025785 0.378461 0.493272
0.229855 0.269698 0.493272
0.405597 0.0279618 0.522969
0.0515039 -0.411684 0.506329
0.311033 -0.0856453 0.493272
-0.0469015 -0.0327532 0.522969
0.400899 -0.129028 0.522969
0.127867 0.254685 0.522969
-0.0956839 -0.252833 0.522969
-0.369206 0.0232006 0.493272
0.0991134 -0.269049 0.493272
0.0544617 -0.312388 0.522969
0.0194209 -0.0134394 0.282711
0.390708 -0.127062 0.504027
0.329873 -0.106627 0.522969
0.27105 0.122167 0.522969
0.104086 -0.134542 0.522969
-0.235044 -0.357119 0.514744
0.303814 0.052807 0.493272
0.36031 -0.188614 0.501713
0.0492902 0.176097 0.522969
0.212499 0.126929 0.493272
0.226915 0.199856 0.493272
0.0144025 -0.237081 0.493272
-0.0378868 0.0814593 0.493272
-0.0107754 0.0445332 0.127342
-0.354143 0.000146425 0.522969
0.313256 -0.261281 0.502379
-0.376889 -0.180893 0.522969
0.0922059 -0.246284 0.522969
-0.137369 -0.229812 0.493272
0.0188553 0.375322 0.522969
0.031205 -0.0215398 0.154351
-0.101938 0.201426 0.522969
0.155584 -0.372118 0.499797
-0.391987 0.117497 0.522969
0.398704 -0.00778941 0.497262
0.231583 -0.248076 0.522969
-0.408223 -0.0700097 0.505861
-0.0622486 0.0184952 0.522969
0.0856249 -0.175253 0.493272
0.113139 -0.407909 0.522969
0.417263 0.0627506 0.510403
0.358657 0.162484 0.522969
-0.101799 -0.0984591 0.493272
-0.179181 -0.00973321 0.522969
-0.166671 -0.187518 0.522969
-0.247336 0.268937 0.493272
-0.256984 -0.0715332 0.493272
0.112091 0.209549 0.493272
-0.0162801 0.101571 0.0443729
-0.108591 0.194276 0.493272
0.188863 -0.383463 0.518708
0.00522362 0.0231262 0.40462
0.366231 -0.0337479 0.522969
0.20251 -0.171841 0.493272
0.160753 -0.102081 0.522969
0.0162941 0.0876202 0.0779556
-0.080707 -0.238635 0.493272
0.102948 -0.0818219 0.522969
0.255374 0.342672 0.519675
-0.344472 0.235912 0.507752
-0.0426924 -0.252749 0.493272
-0.129044 0.00958854 0.522969
-0.320253 0.195146 0.493272
0.15528 0.141618 0.522969
-0.0857665 0.00162711 0.493272
0.273241 -0.197999 0.522969
0.00454766 -0.023313 0.477525
-0.0206861 0.011498 0.372618
-0.0401798 -0.274636 0.522969
0.0500641 -0.0126769 0.522969
0.292421 -0.285027 0.522969
0.0371293 0.245791 0.522969
-0.371998 0.189519 0.522969
0.37084 0.0935426 0.522969
-0.170159 0.25998 0.522969
-0.100171 0.401638 0.505762
-0.206662 -0.354338 0.503615
0.354619 0.0113512 0.493272
-0.168235 -0.0629609 0.522969
-0.354598 -0.142449 0.522969
-0.124357 0.136949 0.493272
0.0645659 -0.173321 0.522969
-0.0496793 0.234616 0.522969
-0.0540275 -0.146099 0.493272
0.388411 -0.0665936 0.494596
0.0328114 0.23294 0.493272
0.0426635 -0.0140283 0.130683
0.0638284 -0.256496 0.522969
-0.210968 -0.0256838 0.493272
-0.072814 -0.39375 0.522969
-0.124474 -0.23136 0.522969
-0.281424 0.153177 0.522969
-0.0424887 0.348753 0.493272
0.386158 0.141798 0.522969
-0.0766145 -0.0355214 0.493272
0.0696287 0.226875 0.522969
-0.270818 -0.0648047 0.522969
-0.014413 -0.0187068 0.452113
-0.185162 0.133178 0.493272
-0.10559 0.228672 0.493272
-0.0134981 0.0401507 0.0406146
0.11899 0.231958 0.522969
-0.296315 0.287139 0.504952
-0.0829148 0.201096 0.493272
0.384429 -0.185744 0.520958
0.162365 0.115153 0.493272
0.155311 -0.146025 0.493272
0.323611 0.175746 0.522969
0.181896 -0.0474715 0.493272
-0.166795 0.383927 0.508408
-0.211144 -0.112697 0.493272
0.357351 0.0734696 0.522969
0.169547 -0.219608 0.522969
-0.350312 -0.136463 0.493272
0.0369575 0.0556797 0.522969
0.378544 -0.159203 0.522969
0.0322938 -0.169534 0.522969
-0.204266 0.0091828 0.0247624
-0.127568 0.047549 0.493272
0.0203095 -0.0792492 0.0569165
-0.341549 -0.211386 0.498756
0.0833157 0.0387515 0.493272
0.393439 0.120868 0.522969
0.203099 0.0568772 0.493272
0.300471 0.190136 0.493272
-0.0487812 0.316476 0.522969
-0.146395 -0.00462788 0.0308768
-0.0786729 0.156968 0.522969
-0.0362815 -0.0245691 0.143255
0.176923 -0.147665 0.522969
0.284448 -0.145108 0.522969
0.143535 -0.284638 0.493272
-0.219602 -0.0746825 0.522969
0.0656845 0.019329 0.038272
0.0647872 -0.0181765 0.098645
-0.0289608 0.413008 0.505793
0.194887 -0.00698791 0.0453802
0.0552973 0.338114 0.522969
-0.0109712 0.0664828 0.038201
0.375098 0.19048 0.522969
0.183712 -0.00403814 0.522969
0.124506 0.0133225 0.0497504
-0.394154 0.0548766 0.522969
-0.249176 0.0105081 0.0183212
-0.0636111 -0.352041 0.522969
-0.25795 0.34042 0.520888
-0.0160204 0.369001 0.522969
-0.160653 -0.00471378 0.522969
0.276024 -0.0759329 0.493272
-0.361123 0.139476 0.522969
-0.358383 -0.212482 0.507242
-0.149667 -0.379363 0.502276
0.102566 -0.0193161 0.493272
-0.257765 -0.216864 0.522969
0.052369 -0.273925 0.493272
-0.213488 0.158456 0.522969
-0.243023 -0.239157 0.493272
-0.386077 -0.140614 0.503965
0.214353 -0.139751 0.493272
0.198258 -0.105904 0.493272
-0.00903417 -0.237019 0.0407247
0.084828 -0.0823043 0.522969
0.120913 -0.0950401 0.493272
0.306921 0.0333716 0.493272
-0.415614 0.00919111 0.522969
-0.0301326 -0.0107738 0.157003
0.240454 0.159518 0.493272
0.302506 0.216526 0.522969
0.122618 -0.00171331 0.522969
-0.288512 -0.233137 0.522969
0.116113 0.396081 0.50509
0.0953648 -0.251391 0.493272
0.113778 -0.25741 0.493272
-0.310789 -0.0629195 0.493272
-0.395153 -0.117519 0.504748
0.219315 -0.305699 0.522969
-0.196478 -0.225599 0.522969
0.238995 -0.338115 0.522969
0.367163 -0.0467558 0.493272
0.218482 -0.3505 0.505275
0.161797 0.0808374 0.493272
-0.321929 0.148338 0.493272
-0.0766034 0.0351979 0.522969
-0.405797 0.083841 0.505953
0.290165 -0.232642 0.493272
-0.296863 -0.14969 0.522969
0.251638 0.0786594 0.522969
-0.00276023 0.169673 0.522969
0.0798046 -0.147617 0.522969
-0.345552 -0.0644121 0.522969
0.077167 -0.153187 0.493272
0.105604 0.306033 0.493272
0.158301 -0.191202 0.493272
0.0449097 -0.251135 0.522969
-0.151505 -0.307765 0.493272
0.0993583 0.343057 0.493272
-0.193974 -0.196219 0.522969
0.157191 0.0772799 0.522969
0.356785 -0.135527 0.493272
0.336508 0.254555 0.522969
-0.131929 0.373348 0.495532
-0.0230055 0.0435412 0.493272
-0.177433 0.16844 0.493272
0.324218 0.0823042 0.522969
0.066738 0.00329466 0.522969
0.121234 -0.384524 0.49966
-0.357578 -0.0786496 0.522969
0.123598 0.189197 0.522969
-0.294769 0.0136017 0.0339515
-0.0209276 0.0111884 0.454063
0.192673 0.357135 0.501158
-0.147953 -0.0271568 0.522969
0.234426 0.140052 0.522969
-0.295994 -0.0822767 0.493272
0.108882 0.413314 0.51616
0.184515 -0.227337 0.493272
0.0152888 -0.107145 0.0613202
-0.000476094 0.270709 0.0418616
0.0117471 0.332744 0.522969
-0.0618232 0.416245 0.522969
-0.140736 -0.00385682 0.522969
0.078097 -0.420277 0.51702
-0.158395 -0.0879389 0.522969
-0.0189128 -0.0709258 0.493272
