0.220485 -0.164373 0.744716
0.0163253 0.0660964 0.622255
-0.139774 -0.20439 0.698834
0.082025 0.0176731 0.698852
0.1316 0.0702659 0.698834
0.14538 -0.0539315 0.744716
0.187476 0.229362 0.744716
0.00318555 0.303946 0.744716
0.100518 -0.093575 0.0260816
0.0753249 0.0518569 0.744716
0.102542 -0.197317 0.698834
-0.113474 0.056586 0.744716
-0.0992854 0.318165 0.707927
0.0579528 0.0412389 0.744716
0.0771216 -0.172284 0.744716
-0.124727 -0.0856222 0.698834
0.0366704 -0.0529406 0.590526
0.167365 -0.242544 0.744716
-0.0141155 0.0390281 0.369164
0.0267608 -0.0337461 0.0302726
-0.0347977 -0.0182263 0.68417
0.315438 -0.103092 0.709413
-0.15106 0.27705 0.744716
0.110437 -0.0956265 0.698834
-0.0407897 -0.0478212 0.0212388
-0.0117399 0.312294 0.698834
0.00368384 -0.0275294 0.236848
0.16123 -0.0103099 0.744716
-0.00477254 -0.108448 0.698834
0.148389 0.244865 0.698834
-0.298658 0.12857 0.698834
-0.0489166 -0.0425629 0.591566
-0.248848 -0.135099 0.744716
0.0278511 -0.331858 0.735823
-0.0387473 0.0377306 0.489277
0.285148 0.141086 0.698834
0.186391 -0.160779 0.744716
-0.133811 -0.140807 0.0230691
0.31232 -0.0870017 0.698834
0.0343103 -0.0219788 0.36246
-0.135775 -0.129027 0.0443984
-0.0104567 -0.300034 0.744716
0.007958 -0.120161 0.698834
-0.00132563 -0.0328665 0.288615
-0.194166 -0.193587 0.698834
0.171982 -0.17879 -2.77556e-17
0.0712883 -0.324118 0.732323
-0.203575 -0.251226 0.698834
-0.0972423 0.00461544 0.744716
0.0183498 -0.23269 0.698834
-0.0146424 0.0582005 0.545667
0.194477 0.141889 0.698834
0.125305 0.0262091 0.698834
0.163875 0.1682 0.0146154
0.0661241 0.0492221 0.744716
-0.284352 -0.0927261 0.698834
0.199542 0.142255 0.744716
-0.242697 -0.032755 0.698834
-0.0466747 0.19897 0.744716
0.159699 0.179822 0.744716
0.153896 0.165975 0.744716
0.18463 0.177655 0.0245732
0.0441923 0.011881 0.408347
-0.0702607 0.00451398 0.68417
0.052905 0.328026 0.704148
0.00313663 0.100923 0.698834
-0.250142 -0.0306359 0.698834
-0.124353 0.050759 0.698834
-0.0724641 0.314385 0.744716
-0.21464 0.0363486 0.744716
-0.103781 0.145835 0.698834
0.176116 -0.237317 0.698834
0.31359 0.0249596 0.744716
-0.251132 0.0276158 0.698834
-0.273292 -0.165725 0.744716
0.0402402 0.0263625 0.431595
-0.0635065 -0.0184755 0.607385
-0.0286259 -0.0153111 0.685106
-0.293721 -0.0740533 0.744716
-0.054873 -0.0589224 0.744716
-0.217266 0.226828 0.698834
-0.330715 -0.028255 0.714877
-0.0606827 -0.00628034 0.559857
-0.0991936 -0.267352 0.744716
0.0595578 0.0211159 0.685106
-0.0242326 0.0490219 0.493811
-0.206108 0.194409 0.744716
0.00179696 -0.0430725 0.387607
0.304169 -0.0377769 0.698834
-0.00891296 -0.0287303 0.698852
-0.284107 0.0255114 0.698834
0.0159766 0.00915069 0.0535687
0.194758 -0.167615 0.698834
-0.0283293 0.0214433 0.0411271
0.0530971 -0.0334021 0.575682
-0.0486706 0.135422 0.744716
-0.0689934 0.00792536 0.641346
-0.0207166 0.0396881 0.397072
-0.0510974 0.00295867 0.462036
0.251892 0.199901 0.698834
0.195791 -0.159391 0.744716
-0.19432 -0.0795278 0.744716
0.083783 -0.115922 0.744716
0.22263 -0.2304 0.744716
-0.110772 -0.27674 0.744716
-0.0266547 0.0320505 0.685106
0.304158 0.136895 0.731628
-0.064213 0.00464663 0.59016
0.0888187 0.213714 0.698834
0.170482 0.0589771 0.744716
0.192558 0.0279411 0.744716
-0.181149 -0.174225 0.0275241
-0.00715527 0.0195512 0.16855
-0.130225 0.250747 0.744716
0.152862 0.295204 0.723131
-0.320839 0.0451616 0.744716
0.0663948 0.0106169 0.618316
0.00781498 -0.0652289 0.744716
-0.109474 0.0718649 0.698834
0.105733 0.236759 0.744716
-0.11305 -0.105997 0.0213174
0.0353946 0.000297361 0.30482
-0.195577 -0.264366 0.698834
0.0863165 0.227532 0.698834
0.329657 0.0182594 0.744716
0.214739 0.0978339 0.744716
-0.260047 0.0183391 0.744716
0.18536 0.171224 0.0073008
0.0904277 -0.290519 0.698834
-0.273733 0.00356885 0.744716
-0.00963088 -0.143851 0.698834
0.208898 -0.258429 0.720114
0.223776 0.0274845 0.698834
-0.140185 0.1333 0.028793
-0.119124 0.308209 0.698834
-0.188764 -0.213527 0.744716
0.0450623 -0.0107476 0.415413
-0.0666727 0.25482 0.698834
0.0992002 -0.0743375 0.698834
-0.0426274 0.0375516 0.744716
0.253353 -0.177679 0.744716
-0.179304 0.0314681 0.744716
0.0250616 0.0690434 0.678099
0.0530598 0.0319837 0.68417
0.104794 0.0978812 0.0406956
0.21976 0.190382 0.698834
0.242391 -0.226755 0.724839
0.128594 0.0487264 0.698834
0.0460777 -0.0491297 0.620853
-0.0673288 0.19205 0.744716
-0.0995624 0.0491353 0.744716
0.0194687 -0.331858 0.741328
0.158202 0.102441 0.744716
-0.0932626 0.10027 0.0279349
0.128464 -0.26585 0.744716
0.0350497 0.177753 0.698834
-0.0537674 0.0311487 0.570892
-0.0198082 -0.279114 0.698834
-0.0142461 0.299998 0.698834
-0.0341347 -0.00404715 0.698834
-0.144928 -0.0165388 0.698834
-0.105941 -0.284298 0.744716
0.102352 0.317515 0.734894
-0.117238 0.0118489 0.698834
0.198983 0.0358547 0.744716
0.0389784 0.0295418 0.685106
0.0979287 0.139594 0.744716
-0.04413 -0.0755546 0.692643
0.114566 0.225726 0.698834
0.0101684 0.0408871 0.698834
-0.259564 0.0918087 0.744716
0.270848 0.144585 0.698834
-0.199247 -0.0672196 0.744716
0.000687274 0.0704757 0.68417
0.079439 0.0741489 0.0183531
-0.331492 -0.0194435 0.698834
-0.0570295 0.0318956 0.601918
-0.254584 0.0331057 0.698834
0.00381893 0.0271859 0.229714
-0.0537702 0.030302 0.744716
0.0203494 -0.012949 0.744716
0.093558 0.199276 0.698834
-0.056524 0.126754 0.698834
0.141966 -0.145424 0.0498887
0.0939354 -0.0959711 0.0183531
0.0830908 0.178174 0.744716
0.165491 -0.172549 0.0207311
-0.0409023 -0.0651238 0.698852
0.0621699 -0.167445 0.744716
0.0448386 -0.069773 0.744716
0.105236 0.112078 0.0340671
0.261374 -0.176214 0.698834
0.117617 0.299376 0.744716
-0.275908 -0.147941 0.744716
-0.177185 0.176478 0.698834
-0.24086 0.0130997 0.698834
-0.104242 0.0632452 0.744716
0.156664 0.149702 0.0297415
-0.124778 0.0194651 0.744716
0.0206528 0.303021 0.698834
0.122502 0.290706 0.744716
0.255419 -0.165853 0.744716
0.0751676 -0.0821386 0.0322193
-0.170435 0.047677 0.698834
-0.0149264 0.144145 0.744716
-0.181788 -0.143151 0.744716
0.144561 0.151202 0.043446
0.147259 0.140402 0.0370517
-0.0214137 0.0423721 0.744716
0.260284 0.206879 0.718207
-0.0346228 0.0126718 0.744716
-0.0235266 -0.170718 0.744716
-0.00184777 0.138671 0.698834
-0.0761867 0.136279 0.744716
0.18458 -0.169337 0.0182146
0.255649 -0.0282776 0.744716
0.03433 0.0402151 0.478387
-0.0266922 0.0362371 0.403013
-0.0171511 0.0628869 0.698834
-0.00165432 -0.0133775 0.0995831
0.301875 0.140849 0.73061
0.00347726 0.0415646 0.685106
0.142003 0.142694 0.698834
0.293766 -0.154897 0.723928
0.259291 -0.160878 0.698834
0.273611 0.175058 0.698834
0.0438292 -0.0278073 0.470692
-0.0545565 0.00966083 0.685106
-0.211033 -0.0819447 0.744716
0.0435544 -0.326214 0.744716
0.0300018 0.0553932 0.570069
0.0214657 0.0680671 0.65727
0.0140139 0.0864883 0.744716
-0.0384035 0.0286987 0.429948
0.0916576 0.216296 0.744716
0.0408639 0.0569083 0.698852
-0.203252 0.0893925 0.698834
-0.310883 -0.117094 0.714529
-0.180081 0.0443598 0.698834
0.0583506 0.0440809 0.669666
-0.0331183 -0.0292877 0.0183531
-0.301102 0.00980504 0.698834
0.278245 -0.103873 0.744716
-0.0329109 -0.0249193 0.367425
0.139213 -0.285282 0.744716
-0.0818934 -0.259945 0.744716
-0.0723247 0.00574991 0.744716
-0.210521 0.111871 0.744716
-0.218107 -0.0522513 0.698834
-0.201912 -0.0266164 0.698834
0.217985 0.0810715 0.744716
0.163431 -0.1064 0.698834
-0.0641425 -0.171897 0.698834
0.0612756 -0.102748 0.698834
-0.182147 0.210444 0.698834
-0.205904 0.0832819 0.744716
0.0494477 0.042413 0.0249063
0.0229973 -0.0102963 0.744716
-0.0641852 0.0331721 0.668219
0.312974 -0.0639152 0.698834
-0.025803 0.00777344 0.22854
-0.0521922 -0.271492 0.744716
0.128027 -0.0805755 0.698834
0.162921 0.0806097 0.698834
-0.106831 0.0999914 0.0347101
0.0685139 0.0755656 0.0196336
0.257899 0.0591499 0.744716
0.00951462 -0.0341574 0.312126
-0.0171002 0.298066 0.744716
-0.241009 -0.162392 0.744716
-0.159584 -0.20164 0.744716
0.16601 0.00430754 0.698834
0.138155 -0.133238 0.0494088
-0.0343349 0.318617 0.744716
-0.036639 0.0429614 0.514998
0.0676777 0.00950216 0.698834
-0.138868 -0.127383 0.744716
-0.28022 -0.105167 0.698834
-0.0914685 -0.0698106 0.698834
0.161988 -0.29114 0.705449
0.109539 0.103839 0.0183531
-0.00568313 0.0122559 0.097153
0.290546 -0.160473 0.720278
0.0800921 0.197733 0.744716
-0.327368 0.0601095 0.727276
0.0280692 0.00912493 0.68417
-0.0391929 0.0122282 0.363946
0.00319625 -0.306764 0.698834
0.0151609 -0.0954089 0.744716
-0.181843 -0.161104 0.698834
0.118014 -0.217313 0.744716
-0.311478 -0.0285527 0.744716
0.12922 0.169877 0.698834
0.0588745 -0.0275042 0.595607
0.0116489 0.0325584 0.301049
-0.301976 0.0295753 0.698834
0.154356 0.14753 0.0375935
0.179369 -0.222735 0.744716
0.0813923 0.127014 0.698834
-0.0433406 0.00980794 0.399485
-0.00411682 0.0286779 0.685106
-0.0421746 0.330307 0.713026
-0.109701 0.0911775 0.698834
0.138759 0.0194693 0.698834
-0.0243073 -0.322515 0.698834
-0.227378 -0.186821 0.698834
-0.0636768 -0.0179166 0.744716
0.134317 0.0949753 0.698834
0.105577 -0.162762 0.698834
-0.206164 0.0445946 0.744716
-0.125547 0.0617813 0.744716
0.110833 -0.273428 0.698834
-0.172861 0.165819 0.0201379
0.165415 0.158613 0.0371533
0.170857 -0.253083 0.744716
0.0263346 0.178154 0.698834
0.129871 -0.123132 0.045916
-0.236326 0.142135 0.744716
-0.165686 -0.10835 0.698834
-0.320094 -0.0029936 0.744716
0.137187 0.273295 0.698834
-0.0345069 -0.0502761 0.744716
-0.110622 -0.282782 0.698834
0.199515 -0.110722 0.698834
0.0303928 0.0597406 0.685106
0.114994 0.0283322 0.744716
-0.0927875 0.122239 0.698834
-0.065025 -0.00855929 0.605178
0.0717339 0.0414855 0.698852
-0.216213 0.25311 0.708565
-0.152454 -0.122646 0.698834
-0.173715 -0.163005 0.0183531
0.329812 -0.0368492 0.705874
0.0694504 -0.13004 0.698834
-0.171598 -0.116105 0.744716
-0.0551677 -0.0620202 0.0413523
-0.0664717 0.0835097 0.744716
-0.320253 -0.0882658 0.717155
-0.00905446 0.0673082 0.698834
0.0491568 -0.0440888 0.0630728
-0.0408092 0.0481263 0.579377
-0.324014 -0.0712996 0.744716
0.0914638 0.232758 0.698834
0.02759 0.331858 0.743542
0.0268403 0.0497458 0.68417
0.0480675 0.26182 0.698834
-0.129754 0.14111 0.698834
-0.0899434 0.19677 0.698834
-0.0261537 -0.0163247 0.685106
0.150587 -0.0921634 0.744716
0.025564 0.00690981 0.68417
-0.164789 0.181989 0.00185383
0.0169888 0.0229394 0.698834
-0.251206 -0.19233 0.698834
0.0303503 -0.022524 0.33184
0.144317 -0.187005 0.744716
-0.0739641 0.0256072 0.698852
0.00745233 0.00065941 0.0794673
-0.200226 -0.264725 0.703424
-0.0115008 -0.0863453 0.697696
0.060851 -0.326337 0.712647
0.290392 0.160739 0.71019
-0.00524087 0.0465542 0.417574
0.119736 0.087498 0.744716
-0.0981507 -0.289901 0.698834
0.000998387 0.00672075 0.698852
-0.0777852 0.0819941 0.698834
-0.138852 -0.176993 0.698834
0.212894 0.0933744 0.744716
-0.197698 0.0820364 0.744716
0.0505483 -0.328527 0.721229
-0.0419528 0.330354 0.725988
0.0346386 -0.0414359 0.0554711
-0.170328 -0.177403 0.0184021
0.111027 -0.173974 0.744716
0.0177827 -0.287637 0.698834
0.0369416 -0.0776053 0.688856
0.0684912 -0.0861285 0.744716
-0.00397014 0.010963 0.030421
0.236329 -0.200965 0.698834
0.0235266 0.291138 0.744716
-0.327066 0.0629796 0.722817
0.132276 0.125379 0.0372108
-0.0836544 0.0904339 0.0501685
-0.091151 0.00260342 0.744716
0.0534918 -0.0741742 0.744716
-0.0872475 -0.0150497 0.698834
-0.0409397 -0.0574856 0.652708
0.172995 0.166209 0.0368007
-0.020899 -0.0572688 0.561523
-0.016005 -0.0707576 0.698834
0.181894 -0.0347837 0.744716
0.204056 0.165066 0.698834
-0.0716823 -0.0648083 0.0458981
0.137638 -0.301982 0.732747
-0.261744 -0.0126298 0.698834
-0.0430614 -0.0191049 0.698852
0.0913321 0.0712268 0.698834
0.0495678 -0.0530436 0.671699
-0.0826568 0.3217 0.726998
0.086297 0.0930276 0.0518561
-0.0134569 -0.271386 0.744716
0.0967369 0.261277 0.698834
0.302937 0.0244876 0.698834
-0.00470988 -0.0297053 0.257953
-0.0377634 -0.313663 0.744716
0.0308403 0.0276607 0.0183531
0.237514 0.135516 0.744716
-0.202879 -0.203621 0.744716
-0.00810802 0.145188 0.698834
-0.233298 0.161636 0.744716
-0.0436546 -0.261977 0.698834
-0.0223155 -0.0534499 0.531416
0.007326 -0.331858 0.724887
-0.0910873 0.0843181 0.0469721
0.0830677 -0.321614 0.740437
0.320278 -0.0881967 0.708314
0.0380883 -0.0272166 0.685106
0.0126003 -0.187777 0.698834
0.144006 -0.226479 0.698834
-0.220097 -0.249654 0.698834
-0.171935 -0.161559 0.744716
0.271322 0.0747268 0.698834
0.0729485 -0.0392652 0.698852
-0.0199531 -0.285612 0.698834
0.032582 -0.331078 0.698834
-0.0656693 0.0539784 0.698834
-0.240233 0.158271 0.744716
-0.149556 -0.125556 0.698834
-0.136478 -0.302496 0.708636
-0.241641 0.155136 0.744716
0.310132 -0.0730378 0.698834
-0.0504162 0.014817 0.685106
-0.28916 -0.126303 0.744716
0.0769205 0.321897 0.698834
-0.12644 0.0966226 0.744716
-0.0845766 -0.243585 0.744716
0.175974 -0.195596 0.698834
0.308331 -0.124968 0.705906
0.170978 0.285975 0.72901
-0.0265583 -0.0980202 0.744716
-0.163423 -0.247598 0.744716
-0.240074 -0.0377892 0.744716
-0.0516283 -0.238331 0.698834
0.0959767 0.140831 0.698834
-0.0787559 -0.182794 0.744716
0.138049 -0.292108 0.744716
-0.089291 0.12194 0.744716
-0.011559 0.00256697 0.0836921
0.0336091 -0.0576914 0.606749
-0.139701 0.172195 0.698834
0.0948268 0.15402 0.744716
-0.00662703 0.331858 0.702218
-0.173179 0.0774028 0.698834
0.00314981 0.00859603 0.0419369
-0.0381952 0.0776743 0.691659
-0.240203 0.104281 0.744716
0.268026 -0.103666 0.744716
-0.1039 -0.196004 0.744716
0.0520182 -0.0052975 0.472696
0.125452 0.175637 0.698834
-0.0153806 0.200002 0.744716
0.204107 0.154889 0.698834
0.152103 0.0861995 0.744716
-0.0434541 0.0239098 0.449146
-0.149314 0.0736851 0.744716
0.168142 -0.142773 0.744716
-0.14504 -0.151755 0.0183531
-0.0614468 -0.137367 0.698834
-0.0134071 -0.262016 0.744716
0.048672 -0.0392146 0.566703
-0.083007 0.076081 0.0267441
-0.0552883 -0.291656 0.698834
0.0823338 0.32177 0.702313
-0.213252 -0.255262 0.707711
0.0467616 0.271009 0.744716
-0.0458187 -0.27577 0.744716
-0.0138993 0.0657777 0.612268
-0.286171 0.167247 0.698834
0.10028 -0.018762 0.744716
-0.0888441 -0.0524599 0.698834
-0.0144864 0.0252014 0.685106
-0.137062 0.169821 0.698834
-0.190828 -0.026727 0.698834
0.22965 0.240908 0.728585
0.0239065 -0.0310698 0.698834
-0.0713317 0.171827 0.698834
-0.182434 -0.0381635 0.698834
0.197811 0.126636 0.698834
-0.0743447 -0.148949 0.698834
-0.122758 -0.184503 0.744716
-0.0189957 -0.0105791 0.68417
-0.0443969 -0.0334704 0.685106
-0.0673102 0.0237309 0.651904
0.112254 0.0904661 0.744716
-0.0603104 0.0417074 0.677069
0.0730556 -0.0800213 0.0329216
0.280994 -0.105591 0.698834
0.0204771 0.136338 0.744716
-0.202045 -0.0158657 0.744716
-0.0151066 0.0220842 0.0324084
0.175865 -0.0341012 0.698834
-0.323478 0.0783459 0.731404
0.0500478 -0.00668197 0.68417
-0.0800079 -0.104402 0.698834
-0.0179345 0.123638 0.698834
0.141245 0.146402 0.744716
-0.0282716 0.046252 0.487275
-0.0462589 -0.00441721 0.418934
-0.130863 -0.178827 0.744716
0.0623982 0.0163477 0.589777
-0.0950201 0.303577 0.744716
0.306443 -0.0690523 0.744716
0.0995844 0.0726882 0.698834
0.044322 0.0183513 0.68417
0.000129062 -0.0377088 0.698834
0.0750104 0.117118 0.744716
0.0132522 0.0209562 0.685106
-0.0918096 -0.0504625 0.698834
-0.00298263 -0.140088 0.698834
-0.182921 0.0186564 0.698834
0.130744 0.1342 0.0183531
-0.0360061 -0.216744 0.698834
0.142934 -0.299624 0.722094
-0.209193 -0.0679983 0.698834
0.0279779 -0.0670461 0.673189
0.226594 -0.244302 0.702619
0.20088 0.12109 0.744716
0.226765 0.194126 0.698834
0.103078 -0.258009 0.744716
-0.192186 -0.266564 0.698834
0.19419 0.269113 0.721689
-0.0766307 0.0168354 0.744716
-0.0275584 0.132496 0.698834
0.0292788 -0.146721 0.698834
0.163573 -0.0278277 0.698834
-0.163294 -0.255903 0.698834
0.33098 -0.0257419 0.718669
0.0482287 0.00961666 0.443098
-0.254084 0.0807366 0.744716
0.0444026 -0.0278682 0.698834
-0.232876 0.185361 0.744716
-0.172218 0.233781 0.698834
0.102103 0.197977 0.744716
0.127638 -0.181102 0.698834
0.206078 -0.108625 0.698834
-0.281197 0.176653 0.741446
-0.0174013 0.0244143 0.0276378
-0.0897719 0.106316 0.744716
0.147078 0.231703 0.698834
-0.0991002 0.105941 0.0442152
0.24195 -0.21146 0.744716
0.114847 -0.121741 0.0384661
-0.0160019 -0.0622362 0.590543
0.0272283 -0.033551 0.387559
0.184695 0.087057 0.698834
0.0203338 0.0175467 0.68417
-0.326898 0.0645799 0.70254
0.0652012 0.0132622 0.611363
-0.0587584 -0.0435001 0.674669
-0.0926315 -0.239069 0.698834
-0.172309 -0.100048 0.744716
0.167558 -0.26914 0.698834
0.0326546 -0.0342794 0.426802
0.197665 -0.205747 0.744716
0.136894 -0.302313 0.718263
-0.0354743 -0.193543 0.744716
-0.040185 -0.0165568 0.698834
-0.232025 -0.0700452 0.744716
-0.00550506 -0.0681421 0.68417
-0.0432243 0.148514 0.744716
0.166993 0.0708133 0.698834
0.240122 -0.137259 0.698834
-0.0308143 0.0432634 0.480922
-0.303241 0.0244914 0.744716
0.237052 -0.232685 0.705321
-0.0247738 0.0598046 0.744716
0.289191 0.0925718 0.698834
0.172355 0.271124 0.744716
-0.229965 0.0824926 0.744716
0.187653 0.228975 0.698834
0.299054 -0.145737 0.737414
-0.169498 0.162551 0.0254496
-0.0267552 0.0131654 0.256756
0.253314 -0.0642304 0.744716
0.0110967 -0.053613 0.494703
0.00955164 0.242831 0.744716
0.0663206 0.0626248 0.698834
0.254403 -0.188271 0.698834
0.0826653 -0.104175 0.744716
0.0628665 0.146029 0.698834
0.310488 0.118328 0.721802
-0.00267492 0.323555 0.744716
-0.169876 -0.1848 0.0123739
-0.0076698 -0.038123 0.343105
0.022654 -0.0531343 0.528715
0.279885 -0.178939 0.703785
0.120192 -0.300476 0.744716
0.0856407 -0.110265 0.744716
-0.298253 0.0679936 0.698834
0.333205 -0.00456694 0.742281
-0.104063 0.163561 0.744716
0.065375 -0.0712178 0.744716
-0.181643 -0.0986579 0.744716
-0.167098 -0.192804 0.744716
-0.138008 0.035793 0.698834
0.178369 -0.280605 0.701912
-0.0497751 -0.305041 0.744716
0.313662 0.0609063 0.698834
-0.0355655 0.0682745 0.68417
0.0562295 0.0173222 0.532489
-0.152644 0.2953 0.728717
0.00968393 0.243038 0.744716
0.00639278 -0.020541 0.177656
0.0179796 -0.0179066 0.744716
0.17317 -0.155291 0.744716
0.257138 0.144864 0.744716
-0.0514181 -0.0849171 0.744716
-0.0494236 -0.0153284 0.744716
0.28729 -0.0361014 0.698834
-0.306337 0.0939282 0.744716
-0.10323 0.163671 0.698834
-0.121039 -0.12273 0.0183531
-0.241762 0.0658885 0.744716
-0.180643 0.0586765 0.744716
0.0816218 0.0842993 0.0599792
0.0296659 -0.221711 0.698834
-0.150037 0.00150727 0.698834
-0.0105083 0.0677315 0.622982
0.0557475 0.108544 0.698834
0.0196718 -0.032712 0.698852
0.134374 0.27534 0.744716
-0.0554963 0.0450062 0.652628
0.0826966 0.230297 0.698834
0.164063 0.167745 0.0155464
0.261668 0.0502612 0.744716
-0.0368145 -0.0437319 0.0353897
-0.0345066 -0.0839964 0.744716
0.0174263 0.0166546 0.685106
0.197273 -0.20245 0.744716
0.0101098 -0.0450535 0.413412
0.0630804 -0.0310055 0.68417
0.223217 0.150041 0.698834
-0.306413 0.12356 0.698834
-0.0193546 -0.330579 0.744716
0.325724 0.071434 0.723223
-0.200525 -0.186495 0.698834
0.318494 -0.0216246 0.698834
-0.0198823 -0.0484851 0.478085
0.142071 -0.21795 0.744716
0.00339282 -0.0294535 0.25551
0.0898334 -0.200577 0.744716
-0.105031 -0.10445 0.744716
0.244636 -0.0046321 0.744716
0.120821 -0.0970483 0.744716
0.00908606 0.0668418 0.614351
-0.172719 -0.0913637 0.744716
0.317478 -0.0475489 0.698834
0.177874 -0.0684425 0.744716
-0.0742232 0.205229 0.698834
-0.303168 0.0710936 0.744716
-0.146983 -0.139965 0.0260322
0.0624725 -0.000136217 0.563887
-0.009511 0.0112826 0.744716
-0.13929 0.0877834 0.698834
-0.0454256 0.225242 0.744716
-0.233662 -0.0246618 0.744716
0.0151362 -0.0148405 0.173122
-0.0257611 -0.0692424 0.68417
0.26298 0.0854089 0.744716
0.0252371 0.083497 0.697161
0.211998 -0.163905 0.698834
-0.0483342 -0.328997 0.734331
-0.0466202 -0.0432213 0.582139
0.00357891 0.0706451 0.651241
-0.0895271 0.0964679 0.0368906
-0.0589239 -0.0222148 0.744716
-0.185483 0.239985 0.744716
-0.00682786 -0.163316 0.698834
0.27501 0.187384 0.742443
-0.00913269 0.0588134 0.536481
0.10588 -0.251012 0.698834
0.10745 0.0523175 0.698834
0.0641284 -0.00903779 0.594678
0.0391282 -0.0327356 0.45569
0.0938114 -0.100806 0.0291034
-0.112319 -0.162587 0.744716
-0.0631962 -0.020752 0.608257
-0.230534 -0.220441 0.744716
0.0272957 0.0469522 0.484619
0.13856 -0.13181 0.0430339
-0.249303 0.219068 0.701891
-0.24937 -0.00305343 0.744716
0.0855786 -0.20278 0.698834
-0.136622 -0.284758 0.698834
0.173705 -0.0195059 0.744716
0.309096 0.035849 0.744716
-0.1777 -0.184487 0.0350496
-0.217367 -0.177871 0.698834
0.111489 0.16259 0.698834
-0.0192501 0.0310144 0.698834
0.231199 -0.196755 0.698834
0.237139 0.208325 0.698834
-0.0467836 -0.0389863 0.552184
-0.125193 0.128274 0.744716
0.257458 0.079151 0.698834
-0.0194656 -0.324584 0.744716
-0.111604 -0.106553 0.0533477
0.219033 0.153493 0.744716
-0.00629657 0.289439 0.744716
-0.222678 -0.00320773 0.744716
0.185062 -0.0926997 0.744716
0.0931444 0.201411 0.698834
0.172224 0.0677779 0.698834
-0.0283443 0.265933 0.698834
0.0959531 0.00420966 0.698834
0.102777 -0.0892211 0.698834
0.152178 0.091915 0.698834
0.208265 -0.0839916 0.698834
0.193778 -0.0232047 0.698834
-0.0599533 0.0385974 0.658984
0.118692 -0.0407951 0.698834
0.109371 0.0898098 0.698834
0.0512424 0.10898 0.744716
-0.0394358 -0.00962821 0.362538
-0.0822474 0.0775818 0.0183531
0.0122981 -0.0647379 0.600088
0.0406778 -0.271097 0.744716
0.286226 -0.164441 0.744716
0.238426 -0.0916563 0.744716
-0.0178086 0.0596555 0.744716
0.022953 -0.0593594 0.586445
0.0944267 -0.0149189 0.744716
-0.179756 -0.193365 0.744716
-0.0383867 0.0518409 0.68417
-0.0726841 -0.0173712 0.698852
0.0227356 -0.331858 0.730699
0.0407866 0.0374944 0.0183531
-0.26878 0.197433 0.700803
0.0232266 0.0242317 0.29038
-0.0392618 -0.188322 0.698834
0.00339687 -0.0736411 0.684104
0.149302 -0.126352 0.698834
0.26478 0.201885 0.734787
-0.0846903 -0.0165595 0.698834
0.0351024 0.0280255 0.0191067
-0.114375 -0.0874503 0.698834
0.0299687 0.150537 0.698834
0.264392 0.202316 0.704364
0.0308411 -0.0103311 0.278856
0.216719 -0.0477675 0.698834
0.150335 0.0302626 0.698834
-0.313542 -0.108915 0.699875
0.0447113 -0.0115911 0.413479
-0.0686423 -0.111421 0.698834
-0.273354 -0.0817683 0.744716
0.234494 0.147396 0.698834
0.188205 -0.27346 0.741554
0.0830964 -0.265546 0.698834
0.0117909 -0.00227484 0.0421161
-0.32323 0.0708586 0.744716
-0.147319 -0.115669 0.744716
0.167606 0.288424 0.740804
-0.165044 -0.233439 0.744716
0.322671 -0.0754043 0.744716
0.0280252 0.323331 0.744716
0.0564775 -0.0495412 0.0307362
-0.0483959 -0.0111582 0.744716
0.00160641 -0.0117658 0.0313247
0.0820972 -0.261703 0.698834
0.143509 -0.0171018 0.744716
0.0615626 -0.0849443 0.698834
-0.0501969 -0.0516419 0.685106
0.284561 -0.17084 0.700688
-0.0149006 0.0585295 0.549522
0.020579 0.0310157 0.324293
-0.257252 0.085005 0.698834
0.149156 -0.0184624 0.744716
0.00335737 -0.0103622 0.0276269
0.0383958 -0.00746884 0.346211
0.259152 0.208136 0.704581
0.0662606 0.0164447 0.685106
-0.034125 -0.0179864 0.744716
-0.00147795 0.0606207 0.698852
-0.0211471 0.00630035 0.181584
-0.256856 -0.210679 0.727363
-0.158117 0.192672 0.698834
-0.0543286 0.0467384 0.653362
-0.0418883 -0.0856762 0.744716
-0.180066 -0.175281 0.0430527
-0.180477 0.243606 0.698834
0.212661 0.184195 0.698834
0.0605243 0.01394 0.567826
0.174098 -0.0613173 0.698834
-0.308833 -0.0915845 0.744716
-0.0911204 0.319901 0.713886
-0.153276 -0.112117 0.744716
-0.0839337 -0.163225 0.744716
0.165801 0.198005 0.744716
0.203166 0.0867314 0.698834
-0.210007 0.122646 0.744716
0.0700853 0.00128959 0.63788
0.0072388 0.126275 0.744716
-0.161018 -0.17602 0.698834
-0.145928 0.122875 0.698834
0.0801912 -0.0195802 0.68417
0.10193 -0.236547 0.744716
0.201281 0.0844749 0.698834
0.168017 0.0562064 0.698834
0.207877 -0.11429 0.744716
0.288306 0.117491 0.744716
-0.0814708 0.27444 0.744716
0.067385 -0.010712 0.628605
-0.037523 -0.0191857 0.378358
0.0236981 -0.209345 0.744716
-0.0560866 0.0051189 0.698834
0.0189861 0.0120198 0.0342959
0.0491947 -0.0202552 0.479134
0.0473132 -0.00499653 0.68417
-0.00317537 -0.0338856 0.2985
-0.0649126 0.0833756 0.698834
-0.0989735 0.174846 0.698834
0.0459265 0.27626 0.698834
0.0569291 -0.0265888 0.574825
0.0494353 -0.0132202 0.68417
0.0513654 0.296622 0.698834
-0.0533989 -0.0515339 0.698852
-0.0105814 -0.131856 0.698834
0.0910391 0.0892282 0.0593421
0.0274505 0.282332 0.698834
0.0184316 -0.0488329 0.475491
-0.11675 -0.0910703 0.698834
0.046373 0.14231 0.698834
0.0486141 -0.26128 0.698834
0.16822 0.0433589 0.744716
0.310918 -0.117006 0.707731
0.0248034 0.331858 0.719168
-0.0944825 0.0409132 0.698834
0.0461311 0.171215 0.744716
-0.0436863 0.289504 0.698834
-0.211542 -0.150012 0.744716
-0.0628833 -0.13011 0.744716
-0.156062 0.164779 0.698834
0.199296 0.264594 0.744716
-0.296446 0.15024 0.734186
0.0545129 -0.0526573 0.68417
-0.165664 0.15871 0.0250203
-0.138723 -0.275744 0.698834
-0.220918 -0.14084 0.698834
0.245024 -0.109827 0.744716
0.109593 -0.204192 0.744716
0.137733 -0.216388 0.698834
0.0351221 -0.178016 0.698834
-0.0114446 -0.0493988 0.458403
0.248531 -0.0856601 0.698834
0.166268 0.164674 0.0168776
-0.214117 0.069975 0.744716
-0.0647782 0.208273 0.698834
-0.17246 -0.0508062 0.744716
0.213041 -0.255419 0.705808
0.177594 -0.0289302 0.744716
-0.0521469 -0.00779285 0.480868
-0.0400279 -0.0265716 0.435223
-0.317053 0.0981131 0.725677
-0.141125 0.134087 0.0204211
-0.0661774 0.0600867 0.0183531
0.0830456 0.321619 0.734738
0.330077 0.0343337 0.709819
0.0984885 0.183909 0.744716
-0.155768 0.15089 0.0183531
0.00254668 0.014584 0.68417
0.163188 -0.232542 0.698834
-0.327934 -0.0547165 0.735864
0.0459462 0.329505 0.702952
0.0314114 0.0671398 0.685106
-0.03357 0.00381032 0.296051
-0.0582064 -0.215387 0.744716
0.318464 -0.0937793 0.739809
0.0640681 -0.0389415 0.698852
0.28589 -0.0781755 0.744716
-0.0296865 0.132238 0.744716
0.0286743 -0.0624448 0.633564
0.0623978 -0.0148401 0.587906
-0.0344947 -0.0114637 0.685106
-0.0179468 0.0250041 0.021688
-0.143472 -0.207029 0.744716
-0.228221 -0.24199 0.698834
0.0792162 0.0768946 0.0183531
0.173838 -0.18084 0.0233189
-0.26908 -0.0519604 0.744716
-0.220329 -0.142428 0.698834
-0.0587074 -0.0655425 0.0431604
-0.168077 0.0538032 0.698834
0.0037152 -0.02142 0.177591
-0.0353418 0.0732687 0.68417
-0.297979 0.0469271 0.698834
-0.333469 0.00205328 0.728261
-0.0163526 0.0480522 0.458838
-0.0311513 -0.0373826 0.4423
0.0170226 -0.0386446 0.377953
-0.107242 -0.253463 0.744716
0.0772261 -0.143034 0.744716
0.140473 -0.27158 0.744716
0.0312111 -0.0117191 0.286665
-0.194546 -0.0762685 0.744716
0.13777 -0.225428 0.698834
0.0747956 -0.0288034 0.744716
0.0144101 -0.252076 0.744716
-0.132301 0.123825 0.744716
-0.0650115 -0.0567522 0.697998
-0.0518017 0.039625 0.595492
-0.0366598 0.0781731 0.685847
0.0158129 0.277284 0.698834
-0.0304951 -0.0333212 0.40803
0.176144 -0.16959 0.0183531
-0.0357217 -0.0601473 0.639949
-0.00868016 0.0636252 0.583153
0.0212599 0.0286124 0.310676
0.228494 0.0816657 0.744716
0.326014 -0.00546548 0.744716
-0.0983654 0.125479 0.744716
-0.255742 -0.0272117 0.744716
-0.290035 -0.145642 0.698834
-0.0564366 -0.0366916 0.622142
0.267621 -0.198729 0.701557
-0.139971 0.0671268 0.698834
-0.246651 -0.0647055 0.744716
0.259681 0.121289 0.744716
-0.126961 0.194954 0.698834
-0.102527 -0.00268776 0.698834
-0.180755 0.19615 0.698834
-0.174524 0.0767142 0.698834
0.226294 0.242804 0.744716
-0.0697422 0.100753 0.698834
0.146314 0.0757331 0.744716
-0.0866602 -0.0796184 0.0228527
0.323779 -0.0371615 0.698834
-0.0112155 -0.0593143 0.548022
-0.0410025 0.00154701 0.363223
0.0822631 -0.00552073 0.68417
-0.0427256 0.0397479 0.0183531
-0.170661 0.0399671 0.698834
0.107362 -0.00559926 0.744716
0.104848 -0.0297733 0.698834
-0.0689651 -0.324611 0.744551
-0.0120095 0.00659469 0.698834
0.141333 0.137268 0.0183531
-0.165907 0.222341 0.698834
-0.277651 0.182795 0.74067
-0.168978 -0.172112 0.0183531
0.302006 -0.103518 0.744716
-0.201002 0.227737 0.698834
-0.00209124 0.0488203 0.439554
0.0162601 0.22197 0.698834
0.200552 -0.00181553 0.744716
-0.102973 0.14515 0.744716
0.0667601 -0.0738025 0.022634
-0.108177 0.28318 0.744716
-0.0133936 -0.222989 0.698834
0.186804 0.0163787 0.744716
-0.00833624 -0.0724752 0.672795
-0.0230612 -0.0611253 0.603852
-0.058218 -0.0233792 0.572538
-0.0160506 -0.0235029 0.685106
-0.0458893 -0.0125149 0.42905
-0.0344937 -0.00376785 0.685106
-0.239008 -0.012481 0.698834
-0.0681882 0.0137464 0.698852
-0.0647889 0.0092345 0.603392
0.0362792 -0.0363449 0.698834
-0.10336 0.110423 0.0203532
-0.0709594 -0.155812 0.744716
-0.0460779 0.0164581 0.436839
-0.164701 -0.166199 0.000184523
-0.0821323 -0.189097 0.698834
0.0516849 0.328285 0.720709
-0.30877 0.0673672 0.744716
-0.272176 0.185277 0.744716
0.090253 0.066959 0.744716
-0.0645269 -0.0319565 0.667136
-0.144093 -0.0685698 0.698834
0.0673335 0.297386 0.698834
-0.154193 0.29461 0.719991
-0.12034 0.278532 0.744716
0.0170096 0.0799997 0.68417
0.00430486 0.0110666 0.0441172
-0.10476 0.108604 0.744716
0.223721 0.0874318 0.744716
0.295477 0.0849236 0.698834
-0.0332618 -0.0123965 0.309634
-0.0633596 0.0591937 0.0621765
-0.226756 0.244113 0.708203
-0.0995497 0.0258452 0.698834
-0.062224 -0.0302023 0.639283
-0.0491161 0.192324 0.698834
-0.120255 -0.0551001 0.744716
-0.199859 0.0961879 0.698834
0.0355607 0.324941 0.744716
0.183356 0.0799109 0.744716
0.12545 0.192763 0.744716
-0.281712 -0.0028632 0.698834
-0.0663907 -0.0271442 0.659451
0.105004 0.286334 0.698834
-0.135774 -0.0684942 0.744716
0.325872 0.0448661 0.698834
-0.206141 0.170922 0.744716
-0.172747 0.257776 0.698834
-0.0711889 -0.159472 0.744716
0.257349 0.0738274 0.744716
0.0493497 -7.87485e-05 0.698834
0.0402754 -0.0343622 0.68417
-0.222656 -0.059196 0.744716
-0.211254 0.0667912 0.744716
-0.123801 -0.268956 0.698834
-0.0861722 0.190606 0.744716
-0.162841 0.176044 0.698834
0.255454 -0.1727 0.698834
-0.00467281 -0.0185581 0.154829
-0.078672 -0.18546 0.698834
0.0299385 0.205703 0.698834
-0.242886 0.170175 0.698834
0.00578935 -0.0509936 0.698834
-0.02477 -0.0108603 0.230851
0.0770455 -0.169786 0.698834
0.192661 -0.140882 0.744716
-0.116042 0.109133 0.0274787
-0.0892101 -0.26714 0.744716
0.300133 0.143868 0.725353
0.0567463 0.00554045 0.517607
-0.0397797 -0.033349 0.46613
-0.122568 -0.218239 0.744716
-0.163144 0.160061 0.0183531
0.0536566 0.317586 0.698834
-0.138185 -0.18661 0.744716
-0.180008 0.18896 0.744716
0.145772 0.0213029 0.698834
-0.026912 -0.0605557 0.698852
0.0717001 0.0334486 0.698852
-0.0174774 -0.027461 0.744716
0.20636 -0.0648232 0.744716
-0.0656406 -0.147817 0.744716
0.0517808 -0.188058 0.744716
0.0457488 -0.327012 0.698834
0.14949 0.118338 0.744716
-0.0762225 -0.0778719 0.0183531
0.00588223 0.0483555 0.435046
0.237281 0.171529 0.744716
-0.02964 0.0352617 0.414145
-0.132762 0.100424 0.744716
-0.144299 -0.151062 0.0399513
0.0312577 0.124499 0.744716
0.020935 0.0583519 0.566958
0.210162 0.0798341 0.744716
-0.0463621 -0.329416 0.70964
-0.0642722 -0.0574475 0.0515109
0.000994867 -0.00613895 0.0189031
0.171297 0.00480278 0.698834
0.0461136 -0.0530661 0.0346779
0.175505 0.244119 0.698834
-0.184388 0.222509 0.698834
-0.0542559 -0.0520318 0.698834
0.139513 0.301147 0.72174
-0.016132 -0.0429082 0.414802
-0.0658126 0.00708759 0.609553
-0.0701867 -0.0678757 0.0183531
-0.0678572 0.121197 0.698834
-0.196297 -0.0177841 0.744716
-0.100144 0.0928905 0.744716
0.0215376 -0.0394689 0.400456
0.0555911 -0.0727439 0.744716
-0.303081 -0.0115473 0.744716
-0.0320743 0.298291 0.744716
0.0654782 0.137136 0.698834
-0.0311982 -0.0256853 0.0183531
-0.056219 -0.0232095 0.554923
-0.0208127 -0.0172417 0.228552
0.0186696 0.301164 0.698834
-0.210086 -0.243762 0.698834
-0.0591977 -0.0250526 0.685106
0.0198329 0.0533749 0.517938
-0.0447737 -0.290143 0.698834
0.271359 -0.00537283 0.744716
0.00962265 0.273407 0.744716
-0.328305 -0.0511871 0.706341
-0.145844 0.138874 0.02414
0.217493 -0.0750439 0.744716
-0.0663934 -0.209012 0.744716
0.153937 -0.0615246 0.698834
0.23925 0.107477 0.698834
0.0862651 -0.119486 0.698834
-0.0328719 0.0115814 0.302478
-0.164648 -0.0399335 0.698834
-0.144849 0.026042 0.744716
-0.1955 -0.153494 0.698834
0.185914 0.0377274 0.744716
-0.179632 -0.0958935 0.744716
-0.00446813 -0.037946 0.337883
0.0825641 -0.178023 0.698834
0.150487 0.0676124 0.744716
0.00156637 -0.0476859 0.432354
0.0356324 -0.202582 0.744716
0.0202883 -0.0889271 0.744716
0.029711 0.170512 0.698834
0.0730265 0.00664371 0.68417
0.018004 0.0213181 0.0183531
-0.110318 0.224111 0.744716
0.133243 0.0592843 0.744716
0.146122 0.145407 0.698834
0.0289144 0.0822398 0.693905
0.0196599 -0.267911 0.744716
-0.0719091 -0.180439 0.698834
-0.180354 0.17784 0.0183531
-0.254391 -0.0418146 0.744716
0.0165639 -0.0370817 0.362185
-0.156309 -0.131414 0.698834
-0.19547 -0.26818 0.737823
0.127083 0.133814 0.0457679
-0.26244 -0.131974 0.744716
-0.0219329 -0.00143958 0.18154
0.0651557 -0.0636016 0.0183531
0.0840997 -0.28504 0.744716
-0.00144839 -0.29737 0.744716
0.103112 -0.223275 0.744716
-0.0267193 -0.0291678 0.0183531
0.0520316 0.0453495 0.0588233
-0.0944108 -0.0874978 0.0405505
0.0440918 0.0223486 0.444481
-0.26228 0.202477 0.744716
0.114722 0.294906 0.698834
0.12965 -0.0779757 0.698834
-0.088265 0.28442 0.698834
-0.03918 -0.0634395 0.68417
-0.326908 -0.0644855 0.717355
0.0506441 -0.0234525 0.506817
0.00311507 -0.286831 0.698834
0.0098931 -0.0681863 0.68417
-0.120754 -0.11536 0.0514138
0.17377 0.247196 0.744716
0.19235 -0.209225 0.698834
-0.0651182 -0.237536 0.698834
0.286465 0.167543 0.706458
0.0288524 -0.0503897 0.52428
-0.111416 -0.0638838 0.744716
0.0771756 -0.310521 0.744716
0.153241 -0.224204 0.744716
0.119128 -0.0404922 0.744716
-0.179034 0.280122 0.699389
0.170995 0.154556 0.698834
-0.0382097 0.012667 0.355294
0.127112 0.287385 0.744716
0.229464 -0.206247 0.698834
-0.0793558 -0.254924 0.744716
-0.147738 0.138794 0.744716
0.140037 -0.105577 0.698834
0.062899 -0.27083 0.744716
0.1466 -0.295115 0.698834
-0.154499 -0.0281323 0.744716
0.00263297 0.011759 0.037275
0.0735833 0.214543 0.744716
0.0482275 0.163529 0.744716
0.104129 0.101092 0.0566317
0.0764265 0.0677057 0.744716
0.268398 -0.11391 0.698834
0.0627683 -0.00456083 0.574154
0.265412 0.0081614 0.698834
-0.274689 0.133657 0.698834
0.0430802 0.0477873 0.0638096
0.132968 -0.237637 0.744716
0.0866582 0.209522 0.744716
-0.261499 -0.18827 0.698834
-0.0882569 -0.180981 0.744716
-0.0353267 0.0496591 0.744716
0.077826 0.023247 0.698834
0.0281498 -0.107124 0.744716
0.123784 0.285593 0.744716
0.279205 0.0725363 0.744716
-0.0182038 -0.124526 0.698834
0.0129519 0.0106508 0.68417
-0.250055 -0.0988899 0.698834
0.200568 -0.0736058 0.744716
0.239551 -0.158053 0.698834
-0.0471244 0.0487223 0.623183
0.20071 -0.0560767 0.698834
0.026263 0.1799 0.698834
0.0448231 0.328527 0.698834
0.00225947 0.17519 0.698834
0.105986 0.0318807 0.698834
0.176501 0.185897 0.744716
0.24523 -0.178488 0.744716
-0.0736125 0.0453011 0.69171
0.0623405 -0.0782714 0.744716
-0.0584658 -0.0409975 0.660073
-0.0284334 0.101604 0.744716
-0.0580109 -0.0240158 0.698834
-0.191298 -0.128514 0.744716
-0.0577887 -0.177509 0.744716
-0.0558565 0.0322691 0.593876
-0.139255 0.301169 0.744716
0.128295 -0.120068 0.698834
0.0230178 -0.331858 0.698888
-0.22559 -0.114257 0.698834
-0.256345 0.211246 0.711142
-0.0173034 0.00557378 0.744716
-0.0721274 0.0776723 0.0579172
-0.21164 0.19575 0.698834
-0.0507305 -0.00474395 0.4622
-0.0163413 0.0073163 0.744716
0.16799 -0.257404 0.744716
-0.110562 0.0749365 0.698834
0.0231266 0.0156025 0.235647
-0.0500052 -0.261622 0.744716
0.0547161 0.236754 0.744716
-0.240804 0.138699 0.698834
0.0928625 0.0860939 0.0183531
0.169384 -0.0727426 0.698834
-0.0162218 -0.0297994 0.295614
-0.159553 -0.16301 0.0183531
-0.241169 0.179874 0.698834
0.162817 -0.233808 0.744716
0.207766 -0.135432 0.744716
0.314763 0.102567 0.744716
-0.271017 -0.146795 0.744716
0.103185 0.232399 0.698834
-0.0135836 0.13204 0.744716
0.00437143 -0.072579 0.673803
0.0489469 0.0163398 0.744716
0.0289867 0.0063077 0.698852
0.0187943 0.105096 0.744716
-0.102063 0.109008 0.0362707
0.163137 0.202315 0.698834
-0.184842 0.275903 0.7332
-0.044944 0.0560333 0.66391
0.136977 0.130062 0.035482
-0.221668 -0.247044 0.698834
-0.109555 0.118625 0.698834
0.0593347 -0.283078 0.698834
-0.157361 0.0411885 0.744716
0.221205 0.16022 0.698834
-0.0416923 -0.143285 0.744716
-0.192028 -0.0823875 0.744716
-0.0330675 -0.0262098 0.744716
0.263914 0.131531 0.744716
-0.14285 0.218021 0.744716
0.210407 -0.142012 0.698834
-0.0584992 0.186026 0.698834
-0.30692 0.129288 0.737545
0.331202 0.0236301 0.724553
-0.00971464 0.0288427 0.26173
-0.0564116 -0.0633449 0.0303389
-0.042707 0.303883 0.744716
0.0469127 0.0253022 0.482502
-0.260141 -0.15433 0.698834
-0.277814 -0.131602 0.698834
-0.014146 0.00471714 0.698834
-0.014059 0.0476082 0.447184
-0.312536 0.112009 0.709914
0.130867 -0.253097 0.698834
0.0696035 -0.151658 0.744716
-0.261866 0.132958 0.744716
-0.0301904 -0.0370615 0.0425948
0.188796 0.19275 0.744716
-0.0301481 -0.109781 0.698834
0.00184414 -0.225039 0.744716
0.0433531 0.137395 0.698834
-0.0987569 -0.117057 0.744716
0.219267 -0.134356 0.698834
-0.19113 -0.0371621 0.698834
0.0112324 0.0224971 0.207961
-0.150602 0.078692 0.698834
0.205234 0.144756 0.698834
-0.239166 0.121619 0.698834
-0.0416434 -0.110625 0.698834
-0.0240895 0.00928449 0.215549
0.0499984 -0.10066 0.744716
-0.0499591 -0.0409535 0.588402
0.122762 0.298504 0.698834
-0.0547952 0.0575571 0.744716
-0.0425079 -0.196399 0.698834
0.211673 -0.183956 0.744716
-0.243251 0.13523 0.744716
-0.0259214 0.191184 0.744716
-0.161845 -0.123196 0.698834
0.0249241 -0.0384087 0.409296
0.194486 0.00434921 0.698834
0.280093 -0.0845563 0.744716
0.051934 -0.328232 0.728181
-0.111763 0.131974 0.698834
0.114611 -0.155222 0.698834
0.159129 0.224464 0.744716
-0.0872915 0.0678469 0.744716
-0.0300908 -0.0637629 0.65123
-0.0456505 -0.0356425 0.526449
-0.184632 0.253447 0.698834
-0.00995294 -0.200371 0.744716
0.162366 0.171844 0.00485406
-0.0674932 -0.0273836 0.698834
0.119482 0.041449 0.744716
-0.299989 -0.0307463 0.744716
-0.324801 0.0742756 0.734175
0.0727879 -0.19364 0.744716
0.100234 -0.0262583 0.744716
-0.0956045 -0.0121561 0.744716
-0.0221903 -0.0199081 0.256581
0.12314 0.198224 0.698834
0.140538 0.264987 0.698834
0.240289 -0.102521 0.744716
0.155449 0.028666 0.744716
-0.0193309 0.0236615 0.263671
-0.28858 0.154627 0.698834
-0.0652149 -0.051277 0.698834
-0.221745 -0.105275 0.698834
-0.295947 -0.0694053 0.698834
-0.144065 -0.241319 0.698834
-0.0238724 -0.0509659 0.513943
0.0849896 0.179083 0.744716
-0.184788 -0.205961 0.698834
-0.273582 -0.111625 0.698834
-0.182801 0.0180569 0.698834
0.0620788 -0.035736 0.662451
-0.0653549 -0.300055 0.744716
-0.0345864 0.302244 0.744716
0.00933283 -0.00216298 0.685106
0.298668 -0.0207589 0.744716
0.080899 0.030842 0.698852
0.207548 0.0692033 0.698834
-0.0385656 -0.00655566 0.349047
-0.203 -0.192987 0.698834
0.247734 -0.123014 0.698834
0.280512 -0.144248 0.744716
-0.00173585 0.161708 0.744716
0.211283 -0.16881 0.744716
-0.0783452 0.0317823 0.698852
0.102208 0.109165 0.025
-0.0045395 0.0527683 0.477847
-0.0146709 0.0659299 0.698834
0.245028 -0.223826 0.743338
0.0680038 -0.324816 0.715711
-0.0276031 -0.142375 0.744716
-0.172783 0.161966 0.744716
0.0847611 0.0133338 0.689718
0.241675 -0.114361 0.744716
0.0798953 0.0868881 0.0229608
0.0493326 -0.00101498 0.439838
-0.00963405 -0.0166267 0.0293726
-0.021032 -0.0278461 0.0516182
-0.308817 0.123451 0.711417
0.0445865 0.0555529 0.656317
0.16593 -0.00792699 0.744716
-0.0506354 0.314455 0.698834
0.0386704 0.0414411 0.514557
-0.226141 -0.0506291 0.744716
-0.101896 0.0983592 0.0183531
0.225558 -0.026611 0.744716
0.0643433 -0.0180603 0.611909
-0.00661401 0.193769 0.744716
0.328521 0.0491331 0.735572
0.228561 -0.179554 0.744716
0.153333 0.0520766 0.698834
0.0334473 -0.0610273 0.68417
0.210745 -0.152095 0.744716
-0.0174992 -0.0548865 0.528522
-0.190384 -0.140262 0.744716
0.161762 0.155933 0.0183531
0.04578 0.280906 0.698834
0.209261 -0.206276 0.744716
0.000712591 -0.253292 0.698834
0.163094 0.170087 0.00297864
-0.192871 0.0708108 0.744716
-0.0501177 -0.0564776 0.68417
-0.0539924 -0.0626669 0.744716
0.202033 -0.0204785 0.698834
0.0190979 0.0314058 0.317979
-0.142169 -0.123968 0.698834
0.223593 0.187124 0.698834
0.270196 0.195721 0.704347
-0.234103 0.125199 0.698834
0.272919 0.0154041 0.698834
-0.0119941 0.00498993 0.0275592
-0.331567 0.0201564 0.73693
0.0224822 0.0699421 0.685106
-0.0525679 0.0457316 0.0440068
0.136386 -0.0822127 0.698834
0.212067 -0.229271 0.744716
0.276988 -0.0645777 0.744716
0.0318343 -0.286848 0.698834
0.0153563 -0.00960461 0.143222
-0.0655308 -0.0315853 0.673768
0.184769 0.169796 0.0181178
0.191746 -0.238863 0.744716
0.221928 -0.101159 0.698834
-0.0426766 0.249374 0.744716
0.0306695 0.0623896 0.68417
-0.0158801 -0.331858 0.699938
-0.207557 -0.0739241 0.744716
0.215531 0.253611 0.706996
0.210666 0.0795165 0.744716
-0.222637 -0.223243 0.744716
-0.224344 0.183261 0.698834
0.108888 -0.0941789 0.744716
-0.281986 0.0795689 0.698834
0.142125 -0.295368 0.744716
0.228003 0.158905 0.698834
0.20105 0.26413 0.724973
0.21524 -0.0884461 0.744716
0.00045575 0.0768263 0.744716
-0.136249 -0.00746261 0.744716
0.0253864 -0.149122 0.744716
-0.194439 -0.000795549 0.744716
-0.0699624 -0.0723856 0.744716
0.146397 0.0920153 0.698834
-0.0690129 0.0757494 0.0549026
0.112995 -0.0348762 0.698834
-0.0535535 -0.134022 0.698834
0.00655821 0.0608293 0.556035
0.263221 0.203617 0.710692
-0.0048619 -0.155551 0.744716
-0.061967 0.00916295 0.68417
0.124288 -0.14282 0.698834
0.055265 0.0496836 0.679269
0.0471368 0.0121017 0.436847
0.0165953 0.185909 0.744716
0.128311 0.201144 0.698834
-0.241109 -0.0555836 0.698834
0.158587 0.152972 0.698834
0.308034 -0.0632027 0.744716
0.229206 -0.0223001 0.698834
0.0569996 -0.269492 0.698834
0.0311036 0.0124888 0.698834
0.0421428 -0.329534 0.744716
-0.0752712 -0.00914195 0.698834
0.144111 -0.159508 0.698834
0.0822743 -0.247213 0.744716
0.00165622 0.261095 0.744716
0.236575 -0.023314 0.744716
-0.0626807 -0.0707603 0.698834
-0.3137 -0.108428 0.743892
-0.0335381 0.133893 0.744716
-0.0632905 -0.0641598 0.698834
-0.266959 0.0784782 0.744716
0.171597 0.0263487 0.744716
0.0537262 -0.231304 0.698834
0.0508359 0.244237 0.698834
-0.201722 -0.23924 0.698834
-0.158542 -0.181755 0.698834
-0.114177 -0.301237 0.698834
-0.0969148 -0.041315 0.698834
-0.232004 0.0595816 0.698834
-0.0142244 -0.0583647 0.549354
0.17505 0.24964 0.698834
-0.0337089 -0.049771 0.550298
-0.0221346 0.0555827 0.546654
0.0227076 0.0678716 0.659609
-0.053839 -0.0489 0.669346
0.0409054 0.00471781 0.364899
0.212936 -0.125675 0.744716
-0.154304 -0.255396 0.698834
-0.0211681 0.0894836 0.698834
0.204008 -0.105686 0.698834
-0.291459 -0.158878 0.724254
-0.0545398 -0.0446499 0.644809
0.219376 0.21504 0.698834
0.206922 -0.239215 0.698834
-0.221217 -0.00171641 0.744716
0.0748709 0.286189 0.698834
-0.174958 -0.261877 0.698834
0.183236 0.198713 0.744716
0.0184293 0.0911637 0.744716
-0.0239077 0.0266861 0.314684
-0.000689741 0.0518871 0.4693
0.167154 0.288752 0.737782
0.0676761 0.198683 0.698834
-0.0472353 0.0421552 0.575078
0.122263 0.10383 0.698834
-0.266828 0.0312675 0.744716
-0.261387 0.135011 0.698834
0.0577209 0.184274 0.698834
0.248192 0.111143 0.698834
0.0849893 0.266052 0.698834
0.200191 -0.109671 0.698834
-0.302942 0.097644 0.744716
0.00755674 -0.00344125 0.698852
-0.122778 0.254383 0.698834
0.0483911 -0.0395833 0.685106
-0.00119975 0.0120977 0.0626377
-0.178967 -0.191226 0.744716
-0.0952064 0.237106 0.698834
0.0431983 0.330089 0.704131
-0.305322 0.0418466 0.744716
0.0250736 0.0562127 0.685106
-0.0803417 -0.180846 0.744716
-0.0276856 -0.0211567 0.305279
0.0230728 -0.00891419 0.685106
-0.0494662 -0.300419 0.698834
-0.142952 -0.135941 0.0271546
0.180695 0.165789 0.0183531
-0.0253508 0.0507983 0.698834
-0.0225044 0.168642 0.698834
-0.125516 -0.146496 0.744716
0.048882 -0.12003 0.744716
0.325182 -0.0731048 0.724738
-0.0445529 0.00790852 0.685106
0.189112 -0.0797329 0.744716
-0.255664 -0.0307394 0.744716
-0.266913 0.0570469 0.744716
0.319814 0.0157021 0.744716
-0.0476013 0.0447434 0.596592
0.0491654 -0.0277972 0.515469
0.0378789 -0.0343026 0.459545
0.0564678 -0.182206 0.698834
0.043681 -0.0131954 0.406336
-0.0460145 -0.0144149 0.433448
0.0617635 -0.0146642 0.581551
-0.0290513 0.187858 0.744716
-0.0442826 0.00587827 0.401861
-0.0259368 0.0997913 0.698834
-0.0866596 -0.138152 0.698834
0.306023 0.13207 0.701622
-0.000462633 -0.331858 0.725928
0.0646054 -0.0357716 0.744716
0.0552222 0.133841 0.744716
-0.246784 -0.0814125 0.698834
-0.216222 0.0347042 0.698834
0.0517674 -0.0311902 0.553783
0.121791 -0.309038 0.742443
0.318355 0.0941153 0.723909
-0.16921 0.164915 0.0454635
0.17546 0.185896 0.0144207
-0.0477907 0.0139852 0.685106
-0.121966 0.0339914 0.744716
-0.0997749 -0.285731 0.744716
0.222257 0.0805072 0.698834
-0.119362 0.310116 0.711694
0.0505137 -0.0697693 0.693983
-0.24043 -0.228924 0.735591
-0.106871 -0.0956916 0.744716
0.000608526 0.062111 0.568466
0.31697 0.0983781 0.732192
-0.05847 -0.0130508 0.550131
0.134287 -0.0289574 0.744716
0.0727738 -0.0183336 0.698834
0.0451925 0.229265 0.698834
0.174839 -0.0288364 0.698834
-0.196898 -0.0570191 0.744716
-0.00982259 0.294556 0.744716
0.0395702 -0.059967 0.698834
-0.1517 -0.158662 0.0249426
0.0530032 -0.164354 0.744716
0.0296059 -0.0573403 0.590133
-0.0205318 -0.0522662 0.514705
-0.325093 -0.0313651 0.698834
0.0463083 -0.0415138 0.56569
-0.281544 0.0510815 0.744716
0.0591153 -0.0224344 0.573039
0.0245032 0.169001 0.698834
0.0131429 0.0345485 0.698834
-0.0671039 0.0759078 0.744716
0.0525198 0.0868298 0.744716
-0.302986 0.098674 0.698834
-0.0702651 -0.0564909 0.698834
-0.0378017 0.0314533 0.438253
-0.0321995 0.224103 0.698834
-0.0953794 -0.301237 0.698834
0.331095 -0.0246398 0.707059
0.13531 0.210581 0.744716
0.0166661 -0.0202812 0.223091
0.128978 -0.078443 0.744716
0.209872 -0.250936 0.744716
0.106944 0.0999309 0.744716
-0.0495951 0.0238997 0.500684
0.24811 0.0129453 0.698834
0.101741 0.131959 0.744716
-0.0233811 0.0681731 0.685106
-0.0796668 0.0802569 0.0612287
0.0530983 -0.0530226 0.0183531
0.0192517 -0.0244864 0.270464
-0.0866382 0.212081 0.744716
0.052288 -0.0453734 0.631653
0.309618 -0.0698284 0.698834
-0.0261541 -0.298951 0.698834
0.161826 -0.262605 0.744716
-0.00832707 0.0676554 0.622243
0.300178 -0.123168 0.744716
0.312922 0.0155543 0.698834
-0.0552399 -0.0598529 0.68417
-0.0673771 0.0546221 0.688521
0.00551572 0.0158522 0.128429
0.181567 -0.130642 0.744716
0.225938 -0.118788 0.744716
0.0214109 0.0660129 0.638365
0.112186 -0.125192 0.698834
0.276264 -0.076979 0.744716
-0.262779 -0.107525 0.744716
0.26346 0.0215278 0.744716
-0.202751 -0.0881975 0.744716
-0.11149 -0.082449 0.698834
0.0111155 0.00433033 0.0591553
-0.272777 0.0648086 0.744716
0.283314 -0.100328 0.698834
0.0408257 0.0404734 0.520803
0.327823 -0.0557748 0.730083
0.03685 0.00842438 0.332395
-0.167642 0.184828 0.744716
0.194058 -0.198793 0.744716
-0.0138912 0.00799175 0.685106
-0.0577942 0.125801 0.744716
0.255501 -0.211613 0.698834
-0.0696711 -0.144992 0.698834
-0.139254 -0.0489325 0.744716
-0.241117 -0.188716 0.698834
-0.0376728 0.0183326 0.373531
-0.0513039 0.241984 0.698834
0.154458 -0.147506 0.0255809
0.184828 -0.129449 0.744716
-0.0566213 -0.0288888 0.585848
0.179292 0.279935 0.732996
-0.284305 -0.17127 0.724364
-0.0212815 0.0557312 0.698834
0.201444 0.0741321 0.698834
0.330841 0.0270626 0.71982
0.00664359 -0.0616109 0.567418
0.0113755 0.0875419 0.744716
0.139455 -0.202218 0.698834
-0.31559 0.102614 0.717347
-0.0260912 0.110981 0.744716
0.243281 0.225766 0.711366
0.0310553 -0.116066 0.698834
-0.0776715 -0.266575 0.744716
-0.0947387 0.284198 0.698834
-0.111257 -0.245139 0.744716
-0.173575 0.161647 0.00844349
-0.332695 -0.00942139 0.732491
-0.169893 -0.206678 0.698834
-0.148676 -0.101482 0.744716
0.0164539 0.314959 0.698834
-0.00383242 0.0207999 0.168912
0.148716 -0.015711 0.698834
-0.120527 -0.0476991 0.744716
0.0532366 0.22274 0.698834
-0.0976589 0.318511 0.700693
0.0698072 -0.0213863 0.669701
-0.237939 -0.193116 0.744716
-0.0239496 -0.00453495 0.206022
0.0273006 -0.0612121 0.617767
0.00688351 -0.0303842 0.268999
0.122411 -0.0311279 0.698834
0.156883 -0.265032 0.744716
0.118457 0.215778 0.744716
0.0305272 -0.0516779 0.698834
0.217428 0.126059 0.744716
0.254148 0.139002 0.698834
0.325748 -0.0713601 0.709164
0.051367 0.268849 0.698834
-0.31484 -0.0324771 0.744716
0.0305486 -0.0350506 0.419404
0.0978084 0.17957 0.698834
0.0915368 -0.0830469 0.698834
0.0323999 -0.323745 0.744716
