0.053599 -0.356807 0.600147
0.0261994 0.136069 0.57572
0.0495116 -0.107131 0.600147
-0.263276 -0.263409 0.57572
-0.380599 0.077588 0.575299
0.0468553 -0.0331677 0.425521
-0.255775 -0.252235 0.57572
0.228065 -0.0228141 0.575299
-0.113088 -0.383223 0.588107
0.268435 0.206287 0.600568
0.0840398 0.101807 0.600568
-0.129489 0.105275 0.600568
0.212946 -0.17294 0.600147
0.142896 0.372889 0.598186
0.105948 -0.195235 0.574491
0.0813336 -0.147403 0.186195
0.085131 -0.0994705 0.465195
0.0921731 -0.111669 0.479503
-0.028568 -0.0535357 0.600568
-0.193596 0.14951 0.600147
0.270302 -0.240274 0.57572
0.0891207 0.106379 0.313221
-0.215263 -0.0782921 0.57572
-0.156331 0.0168462 0.260459
-0.341881 0.197419 0.57572
-0.181177 -0.0156406 0.374033
0.0628813 -0.0815597 0.287147
0.11714 0.228265 0.57572
0.0794976 0.112375 0.575299
-0.359757 -0.169022 0.600568
-0.0771447 -0.34103 0.600147
0.0150719 -0.0404783 0.493908
0.0938515 0.181956 0.223473
0.0903648 -0.14194 0.186526
-0.350071 -0.125758 0.600147
0.136799 -0.221392 0.0462955
0.0481724 -0.0358643 0.561965
0.0491156 0.321069 0.575299
-0.19458 -0.247919 0.600568
-0.113749 0.303168 0.57572
0.169876 -0.157857 0.600568
0.0602989 -0.123844 0.486746
0.00610731 0.0297743 0.456402
-0.36214 -0.160965 0.575299
0.0771239 -0.259825 0.600568
0.1123 -0.213912 0.221391
0.0678346 0.136895 0.44115
-0.079546 0.207824 0.600147
0.11184 0.186431 0.57572
0.0191441 0.0525648 0.429412
-0.209195 0.0386408 0.575299
-0.259179 -0.145519 0.575299
0.0686099 -0.138238 0.299617
-0.0323975 0.325152 0.600147
-0.338462 -0.138442 0.600568
-0.272768 0.00833827 0.00817275
0.228002 -0.255419 0.600568
-0.0474404 0.027669 0.430034
-0.248649 0.0144364 0.600568
0.051221 -0.0966979 0.600568
-0.164716 -0.137825 0.600568
-0.0363189 -0.188741 0.600147
0.206277 -0.2279 0.600147
0.334163 -0.00437179 0.575299
0.183501 0.114288 0.575299
-0.249468 0.0133501 0.573227
-0.145178 -0.17373 0.600568
-0.135176 -0.294883 0.575299
-0.138934 -0.284443 0.575299
0.397128 0.0338016 0.58669
0.0561537 0.118305 0.57572
-0.394315 -0.0021828 0.575299
-0.265367 0.278468 0.600147
-0.0832653 -0.204481 0.57572
-0.0236919 0.335766 0.600568
-0.121402 -0.00868099 0.573227
0.179371 0.212349 0.575299
-0.322238 -0.0460756 0.600147
0.293533 -0.267659 0.600147
0.0514099 -0.041475 0.54746
0.126959 -0.0841913 0.600568
0.040463 -0.0894888 0.553243
-0.273833 0.190583 0.600147
-0.0539377 0.125954 0.600147
0.122127 -0.177276 0.321053
0.0435158 -0.0401418 0.600147
0.0625 0.362404 0.600147
0.24445 0.0353523 0.57572
0.0629934 -0.00361665 0.57572
-0.136442 0.187572 0.600147
0.114369 0.306926 0.57572
0.231334 0.123419 0.600568
0.0703874 0.245015 0.575299
0.346634 0.00711417 0.575299
-0.200575 -0.0848193 0.600147
0.241945 0.13475 0.57572
0.083535 0.367552 0.575299
0.0716218 0.213527 0.600147
-0.187041 0.0168462 0.203865
-0.2691 0.205107 0.600147
-0.138594 0.0168462 0.400566
0.148165 0.23108 0.0248486
0.302662 -0.0864663 0.57572
0.0512924 -0.111046 0.573227
0.204264 0.318966 0.600568
0.0658195 -0.0660167 0.333408
-0.265604 0.0711139 0.575299
-0.115431 0.0401194 0.575299
0.0571874 -0.0329192 0.422783
-0.250721 0.227512 0.600147
0.0411043 -0.090599 0.311163
0.0311169 -0.103269 0.600568
0.249077 0.157801 0.600147
-0.229775 -0.149048 0.600147
-0.163139 0.284227 0.575299
-0.00507606 -0.136622 0.600147
-0.137379 0.224087 0.600568
-0.1251 -0.0168462 0.391107
0.113569 0.148727 0.173795
0.0862522 0.127505 0.57572
-0.250204 0.0731272 0.575299
-0.135177 -0.00583922 0.600568
0.0716706 -0.112243 0.239959
0.397989 -0.0201264 0.598952
0.113743 0.31355 0.600147
0.11107 -0.144867 0.561318
0.359557 -0.0311768 0.575299
0.21536 0.264626 0.57572
0.199928 -0.129735 0.575299
0.130671 -0.149847 0.600147
0.0768195 -0.133434 0.485942
0.123649 0.23357 0.158073
-0.332892 0.0542601 0.600568
-0.212112 0.170021 0.57572
0.103661 -0.185691 0.574491
-0.0423191 0.170187 0.600568
0.114405 0.236686 0.575299
-0.353405 0.0316664 0.600568
0.101132 -0.0250599 0.600147
0.317958 0.0607984 0.575299
0.146966 -0.189923 0.57572
0.34565 0.101619 0.57572
-0.0715454 0.0409742 0.57572
-0.390779 0.040847 0.600568
0.150321 0.027606 0.57572
-0.285388 0.0178294 0.600568
0.28764 0.277661 0.600027
-0.396161 0.0491605 0.581891
0.175234 -0.255537 0.00944859
0.191802 -0.244563 0.575299
-0.185785 0.352577 0.586842
-0.252933 -0.0168462 0.121916
0.0978022 -0.121419 0.420108
-0.297181 -0.117367 0.600147
0.0710903 -0.271351 0.600147
0.330827 -0.0293353 0.57572
0.0673245 -0.169378 0.575299
-0.0228928 -0.392738 0.600147
0.0820254 -0.094533 0.547158
0.256724 -0.145625 0.57572
0.0177333 0.211278 0.600568
0.284354 0.0561517 0.600147
-0.0511867 -0.0201854 0.421741
-0.036652 -0.279963 0.600147
0.153258 0.367885 0.59385
0.0877323 -0.103973 0.248724
-0.387562 0.0466155 0.600147
0.354072 -0.155925 0.575299
0.309061 -0.25153 0.580586
0.101688 0.140705 0.179524
0.0411069 0.0438799 0.53744
0.184561 -0.0648145 0.57572
-0.119323 -0.0840285 0.575299
0.107503 0.146486 0.574491
0.28584 -0.101177 0.575299
-0.0926286 0.0199697 0.575299
-0.0828943 -0.0168462 0.392033
0.0452475 0.0352918 0.575299
-0.272228 0.0185562 0.574291
0.125634 -0.00291865 0.600568
0.359085 -0.0400635 0.575299
0.0820982 0.0942141 0.267225
0.126469 -0.33617 0.600147
-0.242095 -0.190818 0.600568
-0.281489 -0.245886 0.575299
-0.0492871 0.23939 0.600147
0.0855375 0.163034 0.573227
0.100801 -0.193992 0.125946
0.358194 0.0381167 0.575299
0.320717 0.0620994 0.575299
0.0892379 0.106585 0.461378
0.0944257 -0.12687 0.47746
-0.312787 0.172805 0.57572
-0.046324 0.0146794 0.57572
0.128902 0.233065 0.036911
0.393903 0.0615893 0.593895
0.0225574 0.00634008 0.431623
-0.226584 -0.222429 0.57572
0.0624028 0.0839624 0.600568
-0.0185563 0.115875 0.600568
0.36066 -0.0398754 0.600568
0.120109 -0.227436 0.155637
-0.368442 0.0353031 0.600568
-0.237894 0.266044 0.57572
0.333431 0.0565879 0.575299
-0.0799051 -0.0335563 0.600568
-0.276887 0.0774313 0.575299
0.0650759 -0.0651589 0.551277
-0.156311 0.0467947 0.57572
0.299754 0.11817 0.57572
0.304615 0.0815194 0.575299
-0.186084 0.0168462 0.183103
-0.22277 0.278085 0.575299
-0.25386 0.0168462 0.09844
-0.228141 -0.134644 0.57572
0.28799 0.0674702 0.57572
0.265001 -0.254553 0.575299
0.0600492 -0.0883892 0.280291
0.0284652 0.00423354 0.575299
0.265354 -0.195413 0.600147
-0.201672 0.290588 0.57572
0.296199 -0.0919023 0.575299
0.0520132 -0.383466 0.600147
-0.130085 0.370975 0.600568
-0.0910018 0.0588602 0.600568
-0.285769 -0.106141 0.575299
0.310741 -0.0606352 0.57572
0.281951 0.0544017 0.57572
0.211279 0.145942 0.600568
-0.268562 0.0978833 0.575299
-0.234939 0.0168462 0.161774
0.316196 -0.0682836 0.575299
-0.318392 0.241572 0.590252
0.0472245 -0.0392837 0.600568
0.149821 0.369245 0.577833
0.107637 0.0135624 0.57572
-0.162491 0.360541 0.600147
-0.0464521 0.342185 0.575299
0.0387555 0.225326 0.600147
-0.111864 -0.317751 0.600147
-0.156054 -0.188552 0.600147
0.388001 -0.0970368 0.588356
0.339065 -0.150647 0.575299
0.330595 0.0239622 0.600568
-0.152138 -0.0570842 0.600568
0.197606 0.181469 0.600568
0.119723 -0.3676 0.600147
0.0365034 -0.0180738 0.417831
-0.0993466 0.318608 0.57572
0.119941 -0.152726 0.575299
0.0407016 0.0899017 0.317742
0.264938 -0.162275 0.575299
0.0373365 0.139221 0.57572
0.156349 -0.222829 0.0624953
0.00672977 0.304432 0.57572
-0.0527567 -0.0168462 0.440848
-0.049486 0.0193985 0.447821
0.1085 0.0913059 0.575299
0.0610196 -0.0409362 0.575299
-0.0115101 -0.327777 0.57572
0.0711895 0.38134 0.600147
0.133565 0.0300779 0.575299
-0.23098 -0.151906 0.57572
0.0499267 -0.0384883 0.497073
0.299732 -0.130919 0.600568
0.0472855 -0.0991294 0.600568
0.0130943 -0.267817 0.600568
-0.146709 -0.210047 0.600568
0.137874 -0.145379 0.600147
0.035154 -0.234948 0.600147
0.0913436 0.117569 0.218053
-0.221777 -0.239098 0.600147
0.0595743 -0.129777 0.562438
0.0997704 0.124827 0.294504
0.0375729 0.0844829 0.497787
-0.126745 -0.0177564 0.574491
0.0662817 0.133244 0.221199
-0.38429 0.0939639 0.575299
-0.104574 0.378396 0.57572
0.163173 0.0519338 0.600568
0.0278796 -0.0232527 0.574491
-0.204706 -0.12261 0.600147
0.0495707 0.0618819 0.323253
0.0279719 -0.0033783 0.551814
0.0680236 0.128717 0.509017
-0.200521 0.166519 0.600147
-0.272242 0.0629036 0.57572
-0.145298 0.0168462 0.278772
0.116375 -0.153588 0.194549
0.0894214 0.174283 0.204253
-0.111869 -0.140705 0.575299
-0.0519797 0.220032 0.57572
-0.314214 0.180125 0.575299
0.240177 0.264372 0.600568
0.134705 0.0472758 0.57572
0.222092 0.292133 0.600147
0.0370793 0.0907738 0.557231
0.0516795 0.0379481 0.575299
0.136359 0.0347406 0.600147
-0.172586 0.0168462 0.173511
0.122359 -0.163954 0.236736
-0.291194 -0.0215119 0.600568
0.0886897 -0.125354 0.57572
-0.280491 -0.0842231 0.575299
0.239525 0.123558 0.575299
-0.140658 -0.0620656 0.575299
-0.181157 -0.0467484 0.575299
0.118426 0.307331 0.57572
-0.109022 0.37562 0.600568
-0.1766 -0.0418464 0.600147
-0.0201816 0.365022 0.600568
-0.00223725 0.0468597 0.575299
0.132277 0.181135 0.201652
-0.0588664 -0.0284168 0.600568
0.134722 -0.0247701 0.600147
0.262054 -0.205709 0.57572
-0.323518 0.0776147 0.575299
0.068172 -0.0653853 0.600568
0.0876402 0.103816 0.393582
-0.371232 0.0791149 0.600147
-0.0115926 -0.193699 0.57572
-0.0297916 0.0932775 0.600147
0.376866 0.0544301 0.600147
0.20283 0.285407 0.600147
0.0873103 -0.378657 0.57572
0.144703 -0.228261 0.574491
-0.331516 0.0539115 0.57572
0.022496 -0.00961964 0.57572
0.124303 -0.167321 0.19358
-0.174465 0.0351357 0.575299
0.282935 -0.265279 0.57572
-0.289852 0.0979977 0.600568
-0.354751 -0.162646 0.600568
-0.0176324 0.348158 0.600147
-0.079323 -0.253693 0.57572
0.0175008 -0.0497186 0.409344
0.100991 0.19432 0.208277
0.148786 -0.271904 0.0606455
0.158896 0.146615 0.600568
-0.329231 -0.0447645 0.57572
0.0765657 0.385904 0.600568
-0.0634628 -0.252163 0.57572
-0.154322 0.171393 0.600568
-0.216148 -0.333859 0.575299
0.0210681 -0.272148 0.57572
-0.274755 0.0168462 0.0330169
-0.215511 -0.120865 0.600147
0.324533 -0.214214 0.600147
-0.253947 -0.277137 0.57572
0.174959 -0.255854 0.0561929
0.141164 -0.00339346 0.600147
0.0289931 -0.0737971 0.43984
0.0514192 0.184269 0.600568
0.0657518 -0.0659001 0.558866
-0.0705796 -0.0172421 0.546348
0.128962 -0.175391 0.140672
-0.247361 0.00879778 0.600568
-0.00836709 -0.00696576 0.600568
-0.365589 0.045132 0.600147
0.0036619 -0.384709 0.57572
0.265798 0.172038 0.600147
0.172722 0.246912 0.600147
0.281731 -0.093411 0.57572
-0.0920024 -0.0955773 0.575299
0.0651744 -0.215934 0.600147
0.101882 -0.128482 0.214653
-0.368665 0.140029 0.57572
-0.169208 -0.28987 0.57572
0.14441 0.113452 0.575299
0.121451 -0.281806 0.600568
-0.221588 -0.319359 0.575299
-0.00473483 0.243726 0.600147
-0.245737 0.109336 0.57572
0.026567 0.212787 0.57572
-0.0247721 0.399307 0.582054
-0.156027 0.241877 0.57572
0.141409 0.263239 0.086071
-0.0715978 0.222276 0.57572
0.0385163 -0.0451844 0.57572
0.075189 -0.331315 0.600568
-0.339578 -0.205879 0.600568
-0.239995 0.0738114 0.600147
0.0310418 0.310645 0.57572
0.184719 0.095053 0.600147
-0.0571379 0.00363209 0.567315
0.0926394 0.112477 0.474562
-0.022937 0.0168462 0.445228
0.0433291 0.0338772 0.57572
0.0726552 -0.0808135 0.571987
0.0999848 0.125198 0.266955
-0.23082 0.122073 0.57572
0.171355 0.167431 0.600568
-0.00709593 0.183769 0.600147
-0.127599 -0.0191721 0.57572
-0.219717 -0.0168462 0.251404
0.0946602 0.00637578 0.600147
-0.076415 0.0532433 0.600568
-0.236732 0.0168462 0.182972
0.00242693 -0.0062847 0.430997
-0.308275 0.17521 0.57572
0.168711 0.272955 0.0323221
0.16733 -0.311315 0.575299
-0.162563 -0.0979611 0.600568
-0.0733377 -0.0168462 0.560504
-0.0169085 0.393893 0.575299
0.100092 -0.125385 0.451169
0.033321 0.341586 0.600568
0.142003 0.27246 0.568491
-0.131484 -0.36451 0.575299
0.0764549 -0.151825 0.356319
0.284191 -0.259866 0.575299
0.24533 -0.260195 0.600147
-0.101764 0.381962 0.575299
-0.0561555 -0.0861697 0.600147
0.0426193 -0.0245392 0.426654
0.0090905 0.180325 0.575299
0.323942 -0.153116 0.600147
-0.015662 0.149943 0.57572
-0.104013 -0.260214 0.600147
-0.00143735 0.289778 0.57572
0.053469 0.0433755 0.4368
0.0380709 0.27761 0.600147
-0.265579 -0.13589 0.600147
0.0902467 -0.138243 0.575299
-0.33071 -0.22253 0.585339
0.0367777 0.372536 0.575299
-0.272318 -0.292048 0.588298
0.313063 0.0408665 0.600568
-0.0760212 0.217747 0.57572
-0.0503652 0.292758 0.575299
0.173932 -0.216264 0.600568
-0.0713627 0.380898 0.57572
0.0396314 0.0880482 0.419887
0.111675 0.219091 0.600147
0.112187 0.187775 0.574491
0.0263112 0.152915 0.575299
0.139079 0.145407 0.575299
-0.0570025 -0.0841123 0.600147
-0.189208 -0.0141698 0.573227
-0.362121 0.160698 0.575299
0.196656 -0.219106 0.57572
-0.125405 0.307765 0.575299
-0.315412 0.163955 0.57572
0.311365 0.0363644 0.600147
0.162707 -0.0856994 0.575299
0.0411722 0.162529 0.57572
-0.132707 -0.0411822 0.600568
0.254961 0.24864 0.600147
-0.296872 -0.211421 0.575299
-0.0422617 0.396292 0.579669
0.0705961 -0.141678 0.222701
0.213048 0.124273 0.600568
-0.0230747 -0.246862 0.600147
0.115652 0.219713 0.143995
0.141062 -0.169294 0.575299
0.396946 0.036684 0.59287
-0.129329 0.329427 0.600147
-0.281591 0.135462 0.600147
-0.0130988 0.0168462 0.418964
-0.116856 -0.306511 0.57572
0.106088 -0.140739 0.600147
-0.254813 0.0241219 0.575299
0.0136986 0.344487 0.57572
-0.156357 -0.231229 0.600568
0.122638 0.223663 0.574491
0.124334 -0.115899 0.57572
-0.0976931 0.151081 0.600568
0.398987 -0.0039902 0.600147
-0.300417 0.0625848 0.600147
0.117143 0.249611 0.600147
0.0820439 -0.356627 0.575299
0.116745 0.155499 0.373773
-0.14894 0.0168462 0.387651
-0.139665 0.303117 0.575299
0.149709 -0.0212585 0.600147
-0.341762 0.0685968 0.575299
-0.304069 0.258885 0.594575
0.00859432 -0.0430929 0.43979
0.351659 -0.0880215 0.575299
0.0774922 -0.35056 0.57572
0.0376847 0.0172822 0.444983
-0.0238816 -0.372168 0.600147
-0.0506582 0.0374098 0.600568
0.388704 -0.0842159 0.575299
0.131514 -0.317285 0.600568
0.0024372 0.0613452 0.57572
0.0349105 0.0798717 0.459223
-0.123465 -0.00115419 0.573227
-0.199696 0.0583284 0.57572
0.207663 0.326815 0.57572
0.279679 -0.000696044 0.600568
-0.298086 0.217827 0.600147
0.284455 -0.132307 0.57572
0.224316 0.197766 0.600147
0.0376285 0.237214 0.57572
-0.375677 -0.0148268 0.600568
0.229951 -0.22611 0.575299
0.0231961 0.0595828 0.47873
0.0362061 -0.395431 0.600568
-0.181716 -0.311543 0.57572
0.263611 0.299071 0.589204
0.319774 -0.0687348 0.600568
-0.180589 0.0172926 0.565365
-0.0923361 0.22053 0.575299
-0.248505 -0.278545 0.600147
0.0529851 -0.268793 0.575299
-0.217782 0.205174 0.600147
-0.0880432 0.161471 0.600568
0.0919191 0.111227 0.347685
0.292228 0.16501 0.600147
0.231342 0.0966268 0.57572
-0.0289387 0.38316 0.600147
0.213488 -0.0464118 0.600147
-0.0672994 -0.0170837 0.408961
0.209671 -0.307717 0.57572
0.119865 0.159633 0.163222
0.0301323 -0.0579056 0.555607
-0.118425 -0.278534 0.575299
0.153685 0.0254429 0.57572
0.102214 0.0358985 0.600568
0.256949 -0.294181 0.600568
0.18783 0.0162758 0.600147
0.0674379 0.0364303 0.600147
0.351461 -0.147031 0.57572
-0.241267 0.207849 0.600568
-0.199227 0.267749 0.57572
-0.40009 0.000121247 0.597109
-0.188028 -0.176104 0.600147
-0.183 -0.211586 0.575299
0.114875 0.0360182 0.600147
0.290976 0.17754 0.600568
0.0379706 0.145769 0.57572
-0.126176 -0.0168462 0.43208
-0.186092 0.319335 0.57572
0.395056 0.00391803 0.600568
-0.0766464 0.00382372 0.573227
0.119459 -0.161931 0.568602
0.081658 0.0934534 0.388903
0.078451 -0.0883378 0.557845
-0.186974 0.159279 0.600147
0.0666687 0.134876 0.402957
0.00890967 -0.0419743 0.546393
0.288904 -0.124861 0.600147
-0.350607 -0.132096 0.600147
-0.256478 0.217566 0.575299
0.0789946 0.379171 0.575299
0.255604 -0.0572014 0.575299
0.108955 0.0643008 0.600568
-0.148766 -0.0172421 0.570553
-0.109693 -0.333777 0.57572
0.0523362 0.0414204 0.405047
0.17604 0.256933 0.0245809
0.0514145 0.184275 0.57572
-0.10628 -0.0903796 0.57572
0.397325 0.044029 0.599785
0.100888 0.172714 0.600568
-0.148663 0.236281 0.575299
0.210066 -0.340192 0.588295
0.388292 -0.0604631 0.575299
-0.140827 -0.165078 0.600147
0.269154 0.189635 0.57572
-0.229739 0.161122 0.600147
0.142112 0.209372 0.600147
-0.0477321 -0.339805 0.575299
0.0724875 -0.0493923 0.600568
-0.127919 0.237345 0.600568
0.349929 -0.00392558 0.575299
0.0416875 0.308609 0.575299
-0.216652 -0.305928 0.575299
0.358489 -0.0282226 0.57572
0.144778 0.371242 0.587519
0.0654828 0.350852 0.600147
0.10895 -0.194465 0.600568
0.298458 0.191021 0.600568
0.0297299 0.278469 0.57572
-0.0675598 0.294149 0.600147
0.350949 0.171663 0.600568
0.0675712 -0.145122 0.57572
0.115378 -0.209882 0.573227
0.112853 0.25661 0.600147
-0.113839 0.0185562 0.56716
-0.169752 0.307557 0.57572
0.0039563 -0.224829 0.575299
0.169578 0.325273 0.600568
0.165817 -0.239227 0.0647039
0.198609 -0.240693 0.600568
0.0413979 0.262781 0.600147
-0.198144 -0.27934 0.600568
0.0153139 -0.304899 0.600147
-0.199222 0.335748 0.57572
-0.28727 0.0172926 0.567474
-0.122331 0.153245 0.575299
0.126833 0.120894 0.600147
-0.0898999 -0.345066 0.57572
-0.139468 -0.0209852 0.575299
-0.37783 -0.122621 0.57572
0.108891 0.167395 0.362327
-0.103488 -0.101642 0.600147
0.0946017 -0.115875 0.415388
-0.0420001 -0.16918 0.575299
-0.292163 -0.0204892 0.600147
-0.135622 0.223079 0.57572
-0.219408 -0.126474 0.600568
-0.236335 0.0168462 0.121098
-0.246335 0.301422 0.575299
0.332376 -0.221478 0.590345
0.210628 -0.0135398 0.600147
-0.0632462 -0.141606 0.57572
0.136637 0.188686 0.203898
-0.157605 -0.12373 0.600568
-0.265598 0.00107397 0.148646
0.0180773 -0.154678 0.600147
-0.256936 0.26548 0.600147
0.0428111 -0.357727 0.575299
-0.138224 0.218843 0.575299
-0.0883849 0.0168462 0.424742
0.339887 -0.173673 0.600568
0.081971 0.168506 0.567613
0.0415062 -0.379034 0.600147
0.381267 0.118773 0.588037
0.0899562 0.175209 0.197565
-0.0485211 -0.307731 0.575299
0.0252935 -0.239607 0.575299
0.0661471 -0.264891 0.600568
0.0129222 0.00661485 0.573227
0.316563 -0.0930546 0.575299
0.20942 0.0801543 0.600568
0.167856 0.310379 0.600568
-0.203044 -0.290264 0.57572
-0.320692 0.235999 0.600147
0.120009 -0.159883 0.188717
-0.0933175 0.21014 0.57572
0.0598133 -0.0556139 0.423753
-0.143179 0.207791 0.57572
-0.342638 -0.0646065 0.600147
0.0126475 -0.0165142 0.57572
-0.0223521 -0.399028 0.57572
0.00375875 -0.00397605 0.436755
-0.256852 -0.0168462 0.142902
0.113697 0.15334 0.387343
-0.194261 0.0678453 0.575299
-0.105344 0.039408 0.57572
-0.117201 0.00847589 0.245235
0.046123 0.0992914 0.418186
-0.0427254 0.0193985 0.405332
-0.226256 0.0185562 0.567035
-0.245355 -0.0172421 0.57062
-0.265946 0.166304 0.600568
0.0474498 -0.0371368 0.548928
0.246149 -0.137985 0.57572
0.0725169 -0.145005 0.304924
-0.0906259 0.385493 0.57572
0.0689085 -0.0718006 0.555573
-0.0950326 0.134412 0.600568
-0.127163 -0.300876 0.57572
-0.0407505 -0.202036 0.600568
0.196498 -0.139128 0.575299
0.155749 0.341821 0.57572
0.0100135 0.0439045 0.565622
-0.0156143 -0.186553 0.575299
0.17999 -0.179607 0.600147
0.210143 0.1128 0.57572
-0.351613 -0.158578 0.600568
0.0168933 0.0193249 0.436402
0.351417 -0.103241 0.600147
0.371819 -0.147667 0.578307
-0.13839 0.0135874 0.600147
0.370463 0.0162567 0.600568
0.0729882 -0.167883 0.600568
-0.283022 -0.234189 0.600568
-0.191152 0.0163293 0.34453
0.368767 0.0727941 0.600568
-0.0254652 -0.115286 0.600568
0.0475198 -0.380178 0.575299
0.169012 -0.257406 0.575299
-0.294111 -0.203632 0.600568
0.107433 -0.00625175 0.57572
-0.278686 -0.173305 0.600147
-0.297421 0.00201357 0.575299
0.0797886 -0.330738 0.600147
-0.127096 -0.280663 0.600147
-0.332227 0.208555 0.600147
0.343952 -0.156298 0.57572
0.247594 0.064642 0.600147
-0.162916 -0.0208047 0.600568
0.350303 -0.179229 0.600568
-0.0846541 0.069655 0.600568
0.0728987 0.150274 0.567983
-0.0999318 0.138377 0.575299
0.123107 0.379783 0.58912
-0.14573 0.0961122 0.600568
0.315497 -0.108038 0.575299
0.065666 -0.0426683 0.57572
0.0485845 -0.217431 0.600147
-0.0650056 -0.0168462 0.542494
0.11495 0.16451 0.57572
-0.0855211 0.270975 0.575299
-0.360095 -0.0761262 0.57572
-0.0497665 0.310381 0.600147
-0.221044 -0.331934 0.600551
-0.0431154 -0.151964 0.575299
0.160008 -0.231307 0.574491
0.0513115 0.36337 0.57572
-0.37497 0.0950511 0.575299
0.297372 -0.0333411 0.600147
-0.252126 -0.242383 0.57572
0.374098 0.0771664 0.575299
-0.164639 -0.156143 0.600147
-0.201217 -0.0607391 0.57572
-0.217172 -0.0956622 0.575299
-0.227845 0.267711 0.600147
-0.101869 -0.0168462 0.379396
0.148986 0.102 0.600568
-0.23703 0.166761 0.57572
-0.118446 0.273425 0.600147
-0.120951 -0.013165 0.600147
0.0526171 0.253563 0.600147
0.176316 -0.123817 0.57572
0.052233 0.0327878 0.57572
0.199174 0.187294 0.57572
0.158269 -0.0782408 0.575299
0.10363 0.131577 0.575299
0.185367 0.0529484 0.57572
-0.228609 0.308375 0.600147
0.181267 -0.092896 0.600147
0.0418831 -0.0410651 0.531849
0.114448 0.153169 0.567843
0.223097 -0.0099146 0.57572
0.209011 0.141263 0.600147
0.0431931 -0.277384 0.57572
-0.0430382 0.360721 0.600568
-0.149354 0.00390863 0.574491
0.0340046 0.0499091 0.600568
-0.0885582 -0.278116 0.57572
0.0994806 0.179251 0.130341
-0.191648 -0.0176354 0.57572
0.0726748 -0.156921 0.600147
-0.247236 -0.0944096 0.57572
0.304267 -0.258645 0.59678
-0.291136 -0.13317 0.600147
0.0852077 -0.0795899 0.600147
-0.0547404 -0.0168462 0.547625
-0.167648 -0.0168462 0.284786
-0.124528 -0.239566 0.600568
0.103715 0.27952 0.600147
0.217238 -0.010101 0.575299
0.100334 0.193183 0.182451
-0.265648 0.0464659 0.575299
0.314935 -0.104108 0.600568
0.152868 0.218411 0.57572
-0.268275 -0.0137151 0.140528
0.126864 -0.239131 0.0664195
0.15692 -0.0448045 0.600568
0.0829857 -0.157702 0.171863
0.0145631 0.0446307 0.441201
-0.177855 -0.157416 0.57572
-0.155605 -0.268156 0.57572
-0.323833 -0.215814 0.600568
-0.0431838 0.012192 0.600147
0.183604 -0.35049 0.57572
-0.0503269 -0.0172421 0.563131
0.330521 -0.109033 0.57572
0.217704 -0.116141 0.600568
-0.0202569 0.0310291 0.575299
0.195152 0.295799 0.600568
0.3231 0.157417 0.575299
0.128802 0.160204 0.57572
-0.218285 0.114864 0.57572
0.0538799 0.0446876 0.57572
-0.22528 -0.09015 0.600568
-0.117434 -0.0168462 0.282278
0.256559 0.277223 0.57572
0.120247 -0.160294 0.161169
0.0352598 -0.0804766 0.324701
-0.172026 0.0172926 0.56548
-0.199816 0.279817 0.600147
0.320053 0.0300692 0.600147
-0.185589 -0.0172421 0.551506
0.134672 0.275924 0.600147
0.0793953 -0.12014 0.573227
0.224429 -0.223298 0.57572
0.0564681 0.049818 0.536833
0.197639 -0.34606 0.588872
-0.0748988 0.25787 0.57572
0.27331 -0.0185151 0.600568
0.141576 0.197241 0.11508
-0.0999041 0.0334395 0.600147
-0.234893 -0.02376 0.575299
-0.0634134 -0.240981 0.575299
0.205089 -0.135906 0.600568
0.0500653 0.0391488 0.551189
0.0964981 -0.183222 0.129101
-0.043423 0.263644 0.575299
0.00277397 -0.182095 0.600147
-0.157745 -0.0168462 0.312213
0.119514 0.371854 0.575299
0.180808 0.255747 0.600568
0.0882369 -0.104849 0.359408
0.261405 0.0726202 0.575299
0.154598 -0.219794 0.134024
0.273692 0.0900178 0.575299
0.104367 -0.200172 0.256347
-0.0179811 0.397963 0.600568
0.165403 0.278152 0.575299
0.0810284 0.159746 0.223619
-0.172798 0.119353 0.600147
-0.140436 0.0172926 0.552988
-0.369432 0.126134 0.57572
0.141772 0.034153 0.575299
-0.164366 -0.0168462 0.282848
-0.0606652 -0.340715 0.600568
-0.0646479 0.021755 0.600568
-0.0459047 0.0168462 0.514082
0.221397 0.226697 0.57572
0.196596 0.0595435 0.600568
-0.0698801 0.144008 0.600147
0.0462806 0.212306 0.600568
-0.00908838 0.398464 0.596585
-0.012373 0.160555 0.57572
0.165232 0.238216 0.0115307
0.110572 0.166663 0.600568
-0.171257 -0.000928998 0.57572
-0.154477 0.00139331 0.450895
0.087513 0.103595 0.348278
0.0630783 0.128657 0.262898
-0.103289 -0.0168462 0.318441
-0.104819 0.0168462 0.545615
-0.0681344 0.354988 0.600568
0.0608026 -0.124716 0.282759
-0.242383 0.0172926 0.569244
-0.346785 -0.0603771 0.600568
0.0696097 0.0950407 0.600568
0.0429351 -0.0250853 0.438662
0.237715 0.0468597 0.600568
-0.024584 -0.0515825 0.600568
-0.220557 0.0168462 0.17401
-0.269683 0.172829 0.600568
0.0663091 0.0974191 0.57572
0.0873741 -0.274326 0.575299
-0.149972 -0.140803 0.57572
-0.00759537 -0.109122 0.575299
-0.08884 -0.157891 0.575299
0.364711 -0.148944 0.600568
-0.120838 -0.179596 0.575299
0.300855 0.210311 0.575299
0.134065 0.202596 0.600568
-0.084923 -0.383628 0.600568
-0.298945 -0.0168462 0.0343689
0.110999 -0.209457 0.255855
0.216288 -0.329322 0.600147
-0.0423675 0.368889 0.57572
-0.321784 0.153381 0.600568
0.355749 -0.153858 0.600568
0.126178 -0.239178 0.57572
0.147613 0.291124 0.57572
-0.168325 0.0558821 0.600568
0.25976 -0.193353 0.57572
0.0688092 -0.138583 0.350224
-0.24188 0.316795 0.575822
-0.163321 -0.322508 0.600147
0.0902586 -0.110275 0.542301
-0.282951 -0.207419 0.57572
0.00651255 -0.342991 0.57572
-0.118125 0.261148 0.57572
-0.0742411 -0.0168462 0.495955
-0.164643 -0.348088 0.600568
-0.250334 0.281173 0.600568
0.204803 -0.134573 0.575299
0.365345 -0.159451 0.596215
0.0856861 0.123273 0.497819
0.0664832 0.371222 0.600147
-0.18252 0.169267 0.600568
0.194823 0.292105 0.57572
0.200993 -0.113351 0.600568
0.373687 0.0257456 0.600568
0.137527 -0.219586 0.575299
0.175169 -0.142308 0.600568
0.167551 -0.151247 0.575299
0.199269 -0.0553848 0.600147
0.0653994 0.290949 0.600568
0.0752392 -0.376317 0.600147
0.0817452 0.195249 0.600568
-0.118307 -0.0126774 0.243557
0.317647 -0.177792 0.600147
0.394736 0.0617028 0.587148
0.0594995 -0.126407 0.600147
0.0453026 -0.316598 0.600568
0.243576 0.0602909 0.57572
-0.0842617 0.373079 0.600568
0.167921 -0.326503 0.600568
0.215289 -0.194611 0.600568
0.133371 0.183029 0.238382
0.0100428 0.00924492 0.600147
0.222966 0.281039 0.575299
0.08605 0.101063 0.525716
0.0103981 0.260013 0.600147
0.179256 -0.307204 0.57572
-0.168703 -0.0292166 0.57572
0.150226 -0.264102 0.57572
-0.170313 -0.00492438 0.407819
0.148001 0.242879 0.574491
-0.312165 -0.000291829 0.600568
-0.177384 -0.267504 0.575299
0.171949 0.256636 0.575299
-0.242425 0.300698 0.57572
0.086425 -0.17631 0.567842
-0.196686 -0.273009 0.600568
0.157056 0.161559 0.575299
-0.0807312 0.110851 0.600568
0.113623 -0.21377 0.57572
0.195556 0.200133 0.600568
0.163358 0.301046 0.575299
-0.033508 -0.127838 0.575299
0.194739 0.34477 0.575299
-0.288795 -0.240972 0.57572
0.250588 0.114641 0.600147
-0.00970097 -0.399307 0.584305
-0.214298 -0.0205702 0.575299
0.183509 0.353829 0.581525
-0.293977 0.043189 0.600147
-0.19722 -0.0161539 0.573227
0.063223 -0.0833086 0.284579
-0.0763934 -0.32299 0.600147
-0.0747279 -0.0879153 0.600568
-0.264578 0.00340611 0.575299
-0.20784 -0.016487 0.297437
-0.290616 -0.144298 0.600147
0.221892 0.331318 0.598211
-0.148473 -0.250688 0.600147
0.0171073 0.0614835 0.600147
0.0494729 -0.200138 0.575299
-0.357305 -0.17654 0.587606
-0.128987 0.110828 0.57572
0.0631893 -0.150505 0.600147
0.188 -0.297053 0.57572
-0.228108 0.274521 0.600147
0.0773357 0.29499 0.600147
0.300069 0.206127 0.600147
-0.234239 -0.323071 0.57572
-0.0330718 0.201356 0.600147
0.329664 -0.0682584 0.57572
0.289019 0.135249 0.575299
0.0132897 0.231319 0.57572
0.10707 0.0113139 0.600568
-0.201541 -0.0168462 0.289618
0.0709614 -0.0749256 0.471074
0.310582 -0.248662 0.600147
0.325113 -0.219676 0.600568
0.27671 0.199686 0.600568
0.101088 -0.195803 0.573227
0.0951536 0.184211 0.193308
0.16501 -0.165744 0.575299
0.0895953 0.314619 0.575299
-0.354325 0.00722239 0.600568
-0.116237 -0.0168462 0.482245
-0.179371 -0.356104 0.586003
-0.0549804 -0.104148 0.57572
0.151884 -0.268076 0.0667001
-0.320927 0.17198 0.575299
0.145218 -0.0636277 0.600568
-0.126575 0.100015 0.575299
0.260944 0.276849 0.600147
-0.319887 -0.0516598 0.57572
0.124105 0.166978 0.143683
-0.295081 0.1083 0.575299
-0.132497 0.322335 0.600568
-0.323803 0.0848237 0.57572
0.144436 -0.372279 0.588858
0.0411519 -0.280314 0.600147
0.122164 0.247946 0.600147
-0.20635 -0.0678916 0.575299
-0.398373 0.0273797 0.578422
0.122061 -0.21411 0.573227
-0.0378988 0.00986596 0.575299
0.0679276 0.158047 0.575299
0.146232 -0.252109 0.57572
-0.0275194 0.359991 0.575299
-0.123213 0.36117 0.575299
-0.145964 -0.0168462 0.217892
0.0920405 0.16455 0.573227
0.322766 -0.148489 0.57572
-0.19648 0.00925502 0.336645
0.0908005 -0.109289 0.326898
-0.268646 0.105517 0.575299
-0.314663 -0.0161665 0.0094288
-0.397503 0.0411985 0.576459
0.181573 0.0892929 0.57572
-0.30219 -0.0597435 0.575299
0.0863018 0.339749 0.575299
0.0337919 0.376039 0.575299
0.0156724 0.00669403 0.414386
0.150857 -0.240374 0.133347
0.131493 -0.101745 0.57572
0.110135 -0.14278 0.298489
-0.22338 -0.307641 0.575299
-0.0484278 -0.329544 0.575299
-0.0637172 0.374774 0.600568
0.25688 -0.113636 0.57572
0.395791 0.0346322 0.57572
-0.0850452 -0.26452 0.57572
0.229351 -0.0411299 0.600568
0.12978 -0.177362 0.57572
-0.0770546 0.0168462 0.499272
0.059359 -0.00258379 0.57572
0.0282084 0.0865366 0.600568
0.187801 -0.232438 0.600147
-0.0643191 0.394359 0.588115
0.283369 -0.174787 0.600568
0.222024 -0.0794664 0.57572
-0.0993251 0.336324 0.57572
0.338235 -0.153608 0.600568
-0.124504 -0.242688 0.57572
-0.184239 0.188414 0.600147
-0.135969 -0.117388 0.57572
0.3399 0.0220434 0.600147
-0.386033 0.0228908 0.600568
-0.151119 0.00756559 0.57572
0.127826 0.240802 0.110293
0.199759 -0.0860811 0.57572
0.196018 0.306289 0.600147
-0.228345 0.0918354 0.600147
0.116411 -0.221027 0.123233
-0.041121 0.106344 0.575299
-0.184424 -0.256425 0.575299
0.0883111 0.138765 0.575299
-0.145127 0.127188 0.600568
-0.15487 0.293308 0.600568
0.0880368 0.0684674 0.600147
-0.0935546 -0.0917202 0.600147
-0.238977 -0.0476239 0.600147
0.250569 0.302129 0.57572
-0.078592 0.331634 0.600147
-0.222717 -0.0158915 0.600568
0.125535 -0.169457 0.236246
-0.0758045 0.0733124 0.600568
0.279287 -0.0678201 0.57572
-0.189673 0.0106356 0.575299
0.0325395 0.0418668 0.573227
-0.231733 0.107033 0.575299
0.110839 -0.178024 0.334642
-0.0552167 -0.0168462 0.40049
0.239759 0.0109034 0.600147
-0.166588 -0.0551182 0.575299
-0.164528 -0.214215 0.600568
-0.23496 -0.131829 0.575299
-0.255208 -0.218514 0.57572
-0.168244 0.0775921 0.600568
-0.304624 0.0498023 0.57572
0.230479 -0.214967 0.57572
-0.12639 -0.164043 0.600568
0.260913 0.135505 0.57572
-0.0154012 0.0185562 0.546259
-0.259142 0.161201 0.57572
0.0874882 -0.154878 0.600147
-0.0394451 -0.147232 0.575299
0.0341193 0.0831274 0.570427
-0.318016 0.0471587 0.575299
-0.311594 0.0945561 0.57572
0.160342 0.324851 0.600568
0.0579843 -0.0342442 0.600568
-0.173787 0.194604 0.575299
-0.0499941 0.0839435 0.57572
0.354256 -0.0103828 0.575299
0.250315 -0.0852888 0.575299
-0.0668596 0.259979 0.57572
0.278526 0.205641 0.575299
0.0569162 0.0505966 0.499309
-0.223998 -0.0168462 0.174642
-0.219769 -0.289165 0.575299
0.353512 0.113721 0.575299
0.0190332 0.0567149 0.574491
-0.05801 0.0299855 0.57572
-0.0732617 -0.0185056 0.549722
-0.0757718 0.223067 0.57572
-0.190875 -0.202796 0.600147
-0.182276 -0.241395 0.575299
0.116561 -0.153912 0.253354
0.0845848 0.268954 0.57572
0.0951956 0.0540038 0.600568
0.190804 -0.220912 0.57572
-0.070587 0.1957 0.57572
-0.304139 -0.00957067 0.57572
0.118146 -0.339311 0.600147
-0.197246 0.0168462 0.212474
0.0579877 0.0246686 0.575299
-0.107155 0.030944 0.600568
-0.362101 0.0521031 0.57572
-0.309606 0.119526 0.600568
0.363681 -0.086752 0.600147
0.109162 0.180729 0.573227
0.111774 -0.145619 0.249335
-0.240555 -0.0168462 0.0933174
0.0156868 0.0465769 0.444822
-0.272729 0.043255 0.57572
-0.129308 -0.121443 0.600568
-0.078876 -0.036594 0.600568
0.300866 0.262757 0.584672
-0.135667 -0.0201285 0.575299
0.240033 0.178862 0.57572
0.0812163 -0.0926905 0.543212
0.00043819 0.0273227 0.55187
-0.172579 -0.0736669 0.600568
-0.167754 -0.0168462 0.179998
0.16154 -0.0411401 0.57572
0.00866053 -0.0390136 0.566426
0.00574781 -0.0305562 0.574491
0.245983 -0.0873924 0.600147
-0.294372 0.0861256 0.600568
0.0931902 0.180812 0.309876
-0.388839 0.0881487 0.585832
-0.308106 0.00854056 0.0330239
-0.195046 -0.092785 0.575299
-0.159708 -0.179556 0.600147
0.0538084 0.180362 0.600147
0.0385642 -0.196986 0.575299
0.030904 -0.00848852 0.573227
0.108149 0.211309 0.55824
0.263881 0.0870469 0.57572
0.014587 0.295149 0.600147
0.0828259 0.162859 0.285679
0.0475614 0.101783 0.371937
-0.187187 -0.222996 0.57572
0.270491 -0.125866 0.600147
-0.113389 -0.0147255 0.561038
0.0303536 -0.300084 0.600568
-0.325503 -0.232308 0.599143
0.0504961 0.0394744 0.501309
0.287121 -0.0453722 0.600147
-0.248698 -0.0520858 0.600568
0.175943 0.0361529 0.600568
0.382791 -0.100017 0.600147
0.133851 -0.10665 0.600568
0.332037 0.112014 0.600147
-0.0253958 0.0168462 0.44248
-0.0906858 0.35798 0.575299
-0.18374 0.183473 0.57572
-0.321413 0.0610565 0.600147
0.138052 0.191511 0.561811
0.00494162 -0.0748898 0.57572
-0.135909 -0.0168462 0.316067
-0.273158 -0.0185056 0.568305
-0.299234 0.065575 0.600147
0.0897356 -0.213524 0.600568
-0.0601846 0.364162 0.600568
-0.00660134 -0.398377 0.575299
0.0649837 -0.0573102 0.575299
-0.32206 -0.0741372 0.57572
-0.0100065 0.0054868 0.57572
0.0343262 0.0788604 0.545311
0.112217 0.162779 0.573227
0.00243655 -0.185464 0.600568
0.194191 0.307879 0.57572
-0.0765791 -0.362977 0.575299
-0.251942 -0.0384548 0.57572
-0.0601568 0.276548 0.600568
0.272481 0.0279684 0.600568
-0.187147 -0.261263 0.575299
0.0402224 -0.223714 0.57572
0.174905 -0.277309 0.0136406
0.265834 0.294043 0.600568
-0.00360197 0.220743 0.600568
-0.183208 0.0945394 0.575299
-0.0449132 0.00267003 0.533975
0.306923 0.117265 0.600147
-0.103667 0.183227 0.600568
-0.123266 0.00814928 0.575299
-0.0871827 -0.0472808 0.600568
0.355279 0.052188 0.600147
-0.0831523 0.39004 0.580024
0.0858784 -0.150847 0.573227
0.0346661 -0.0866108 0.555918
-0.0907089 0.264752 0.57572
-0.119305 0.117537 0.600568
0.174315 -0.263501 0.0469666
0.228748 -0.160626 0.600147
-0.061262 -0.131851 0.57572
-0.297913 0.262547 0.57572
-0.298734 -0.264015 0.594193
-0.306405 -0.0409365 0.600568
0.121629 -0.0839948 0.600147
-0.0981573 0.165857 0.600568
-0.217911 -0.33421 0.579238
0.188492 -0.00238729 0.57572
-0.33756 0.148239 0.600568
-0.183388 0.00196669 0.372257
-0.123291 -0.379263 0.575299
-0.385029 -0.00592681 0.575299
0.164936 -0.274163 0.0346109
0.0449244 0.142237 0.575299
0.198176 0.0771842 0.57572
0.103126 -0.198019 0.175686
-0.0718715 -0.377974 0.600568
-0.142623 -0.355554 0.575299
0.120346 0.163379 0.568775
0.262241 0.250529 0.600147
-0.142094 0.230479 0.57572
-0.0770352 0.0326787 0.600568
0.0124774 -0.0410182 0.430096
0.150067 0.333183 0.57572
-0.0051077 -0.00804566 0.416254
-0.1296 -0.378152 0.58825
0.300144 0.24249 0.575299
-0.0962238 -0.145185 0.600147
0.179514 0.120876 0.600568
0.145089 -0.071125 0.57572
-0.130652 0.232385 0.575299
0.065811 0.0700983 0.575299
0.0534335 -0.0445617 0.522665
0.196182 0.205933 0.600568
0.037745 -0.366331 0.57572
0.137024 0.232036 0.575299
0.147998 0.0552918 0.600147
0.0973644 0.136808 0.450055
0.129114 -0.0178563 0.600568
0.386859 0.0985338 0.599884
-0.229053 0.177209 0.600147
-0.350598 -0.0714884 0.600568
0.209269 -0.322657 0.600568
0.0719034 -0.215557 0.57572
0.146131 -0.228747 0.167163
0.2132 0.33847 0.578755
0.244634 -0.302397 0.600147
-0.386109 -0.0498148 0.575299
0.115961 0.323927 0.57572
-0.121531 -0.189896 0.600568
0.0829589 -0.16309 0.262681
-0.227465 -0.176316 0.600147
0.0703029 -0.073785 0.472973
0.156391 -0.222899 0.125247
0.107325 0.137912 0.253963
0.237848 -0.225185 0.57572
-0.0364289 0.0234071 0.575299
0.317286 -0.0628756 0.575299
-0.0996469 -0.035736 0.600147
-0.271732 -0.195992 0.57572
-0.113944 0.0150092 0.251714
0.174986 -0.255108 0.00680138
-0.0512881 -0.0167782 0.352834
-0.0697621 -0.0193479 0.427097
-0.352311 0.0792679 0.600147
0.136287 0.222905 0.57572
0.0683746 -0.13783 0.259475
0.109639 0.209302 0.212444
-0.173719 -0.207689 0.600568
-0.0459554 0.157087 0.575299
-0.0750193 -0.0401875 0.575299
0.149713 -0.0290302 0.575299
0.10711 0.373392 0.57572
0.117638 0.156161 0.564559
-0.390452 0.0796886 0.581693
-0.262359 0.0426318 0.600568
0.109333 -0.141227 0.575299
0.268796 0.132012 0.600568
0.120757 0.0260869 0.57572
-0.156529 0.180938 0.575299
-0.190046 -0.0168462 0.197839
-0.272628 -0.0661943 0.575299
0.00680825 0.108987 0.600568
-0.195021 -0.125873 0.600147
0.151446 -0.188977 0.600568
0.356421 -0.152336 0.57572
-0.142451 0.00886893 0.57572
-0.0347771 -0.369169 0.600568
-0.0374234 -0.300141 0.600568
-0.00491786 0.217115 0.600568
0.371538 -0.00562808 0.575299
-0.156693 0.0557985 0.575299
-0.0986677 0.386057 0.580819
-0.0270044 0.361795 0.600147
0.198814 -0.127828 0.600147
-0.236162 -0.0305726 0.57572
0.0703258 -0.14121 0.392074
-0.178179 -0.264052 0.600568
0.0138947 0.358584 0.57572
-0.0215728 0.00226976 0.57572
-0.353851 0.0857933 0.600147
-0.034033 -0.389818 0.575299
-0.120815 0.324432 0.600147
-0.167708 0.249608 0.575299
-0.052569 0.0747387 0.575299
-0.0844879 -0.172602 0.57572
0.0112467 -0.243176 0.575299
0.314889 -0.0402453 0.600568
0.0671697 0.385116 0.57572
0.0191426 -0.0405083 0.499529
0.0216976 0.293725 0.57572
-0.147977 0.00168234 0.573227
-0.155731 -0.302396 0.57572
0.086018 0.0700497 0.600568
-0.119057 -0.0168462 0.472942
-0.0677138 0.393078 0.582039
0.167121 -0.24086 0.575299
0.270456 -0.190638 0.57572
-0.20624 0.243658 0.57572
-0.299975 -0.0070141 0.574491
-0.00630678 -0.276403 0.575299
0.0495377 -0.027755 0.575299
-0.318883 0.20999 0.600568
0.114065 0.22262 0.575299
0.0739075 -0.0800278 0.397284
-0.364391 0.162887 0.600147
0.00404725 0.35651 0.57572
-0.0541081 0.346383 0.600568
-0.3164 0.0666526 0.600147
0.187304 -0.123272 0.575299
0.110587 0.382997 0.600187
0.052656 0.0419729 0.424906
0.0463074 -0.0369505 0.600147
-0.388018 0.0517816 0.600147
-0.0173954 0.399307 0.593978
0.332211 0.00898152 0.600568
-0.270146 0.228667 0.600147
0.118827 0.225212 0.0944255
0.285305 0.1195 0.600147
0.169449 0.109101 0.600147
0.389959 0.0867669 0.598072
0.0226466 -0.256598 0.600568
0.255563 -0.306628 0.598735
-0.175809 -0.315823 0.600147
0.280165 0.0413927 0.57572
-0.37449 0.093396 0.575299
0.32747 0.188632 0.575299
0.074607 -0.39306 0.598342
0.0719015 -0.239314 0.575299
0.0844139 0.280175 0.575299
0.023109 -0.0541422 0.573227
-0.183811 -0.186036 0.57572
0.040421 -0.0220222 0.449495
-0.0681802 0.0168462 0.46723
0.0997304 0.191101 0.573227
-0.269126 -0.202443 0.600147
-0.0539701 0.000371544 0.558675
0.312379 -0.2426 0.600147
-0.370956 -0.0687681 0.575299
-0.129537 -0.343369 0.600147
-0.278027 -0.0168462 0.0259774
-0.00931 0.389148 0.57572
-0.206666 0.063473 0.57572
0.0713983 -0.11209 0.573227
0.343414 -0.0971476 0.57572
0.143201 -0.267436 0.0518137
-0.266212 -0.00731466 0.573227
0.131647 -0.0964096 0.600147
-0.278661 -0.0165391 0.104241
0.348822 0.0767799 0.600147
-0.066448 0.33923 0.600568
0.383248 -0.0997028 0.600568
-0.180634 -0.116881 0.600568
0.0870904 -0.32161 0.600147
0.0998236 0.0539154 0.575299
0.260239 -0.167079 0.575299
0.0674594 -0.299129 0.57572
-0.117011 0.203181 0.600568
-0.308171 0.23505 0.575299
-0.032029 0.0331924 0.575299
0.0831797 0.132828 0.574491
0.292206 -0.102597 0.57572
-0.130556 -0.353558 0.600147
-0.0922056 0.227567 0.600147
0.0204552 -0.017269 0.422648
0.11791 0.132326 0.600568
0.0295256 -0.0609071 0.600147
-0.385821 0.10204 0.587962
0.062307 0.127158 0.600147
0.0254311 -0.00958708 0.575299
0.00296382 -0.111061 0.57572
0.0360692 0.391232 0.57572
0.0892334 -0.106574 0.272924
0.0403003 -0.283887 0.600147
-0.0293759 -0.220263 0.575299
0.0615487 0.393856 0.594658
0.263162 0.0721948 0.575299
-0.0726546 0.0168462 0.409547
0.0580241 -0.0525148 0.432555
-0.0628026 0.215391 0.57572
0.0342476 0.0709019 0.574491
0.0808898 -0.0921209 0.275351
-0.304659 -0.168831 0.600568
0.0737639 0.136438 0.57572
-0.155872 -0.0152056 0.188062
0.076642 -0.156592 0.57572
0.263816 -0.0561187 0.600568
0.123196 -0.18473 0.302042
-0.108309 0.217046 0.57572
0.178076 0.178854 0.600147
-0.390729 -0.0827225 0.578993
0.0234576 -0.0688432 0.436414
0.0813923 0.092993 0.381935
0.203467 -0.116193 0.57572
-0.178812 0.312668 0.57572
0.207478 0.299193 0.600147
0.0709077 -0.298197 0.600147
-0.082919 0.0207986 0.600568
0.0577881 -0.0521052 0.383275
0.0559779 -0.229294 0.57572
0.043839 0.0953358 0.533372
-0.0909506 0.125928 0.600147
-0.197513 -0.0168462 0.151965
0.074009 -0.10357 0.600147
-0.13541 0.0164353 0.495006
-0.267486 -0.0448098 0.600147
0.106212 -0.033612 0.575299
0.360148 0.0643117 0.57572
0.335116 -0.215589 0.598286
-0.275368 -0.256741 0.600568
-0.17788 0.31492 0.600147
0.352694 0.1602 0.575299
-0.154064 -0.0175504 0.57572
-0.117083 -0.117364 0.57572
0.000406148 -0.0861033 0.600147
-0.200647 -0.039741 0.600568
-0.261807 0.0548496 0.575299
-0.373379 -0.0532535 0.600568
-0.0376665 0.385098 0.600147
0.297849 0.125771 0.600147
0.348831 0.195553 0.598584
0.345943 -0.133436 0.575299
0.167741 0.256105 0.0733305
-0.169073 -0.155533 0.600147
0.0483167 0.0328018 0.600568
0.0642565 0.130698 0.232344
-0.133114 0.0185562 0.547286
0.0604202 -0.370142 0.575299
-0.0910066 0.32905 0.57572
-0.0818147 0.0168462 0.340325
0.0365056 0.340991 0.600568
-0.0636134 -0.215548 0.600147
0.100379 -0.187056 0.326735
-0.0259887 -0.387759 0.600147
0.0695938 0.0725573 0.513851
-0.0674028 -0.246053 0.575299
0.167602 -0.248079 0.0913924
-0.12886 -0.34672 0.57572
-0.0782567 0.281183 0.600568
0.383461 0.0614599 0.600147
-0.011118 -0.168368 0.600568
-0.345894 0.182373 0.575299
-0.226129 0.00410332 0.575299
0.0433854 -0.34811 0.600568
-0.14086 -0.321636 0.600147
0.0392105 0.0468857 0.575299
0.316317 -0.00910851 0.600147
0.0259644 0.251512 0.57572
-0.0460179 0.0185562 0.547247
-0.0459633 0.0527012 0.600568
-0.16697 0.141481 0.57572
0.177046 -0.358342 0.589398
-0.208667 0.340961 0.578228
-0.1098 0.0377946 0.600568
-0.138819 -0.0172421 0.5669
-0.367877 -0.156047 0.577722
0.159001 -0.18586 0.600147
-0.326969 0.095579 0.600568
-0.397974 -0.0337142 0.591688
-0.231932 -0.325067 0.582688
-0.31563 -0.143703 0.600568
0.278607 0.080161 0.600147
0.056811 0.117803 0.532343
-0.206128 -0.040834 0.575299
-0.133821 0.104692 0.57572
0.0670968 0.0682302 0.400748
-0.18444 0.0182755 0.600147
0.221692 0.149043 0.600147
0.151266 -0.0800887 0.57572
0.0534956 -0.346395 0.575299
-0.089335 0.00643227 0.287699
-0.190154 0.314519 0.575299
0.214318 0.336821 0.589408
0.341592 -0.122326 0.600147
-0.196583 0.34664 0.593331
-0.145797 0.0168462 0.354181
-0.203196 0.0468413 0.600147
-0.112172 0.0834345 0.57572
0.0852504 -0.167061 0.366995
-0.189981 -0.351232 0.579821
-0.17944 0.1261 0.57572
0.16443 -0.0784427 0.57572
-0.0895358 -0.140931 0.57572
0.0281884 0.390184 0.600147
0.0747571 0.341466 0.575299
-0.248381 0.0172926 0.567383
0.107989 -0.139528 0.572358
0.120921 0.0495012 0.600568
-0.103946 0.215134 0.575299
0.0300032 0.216817 0.575299
0.167108 -0.23579 0.575299
0.178385 -0.0734717 0.600147
0.040624 -0.10216 0.57572
-0.105708 -0.0847998 0.600147
0.247581 -0.0623466 0.57572
0.182679 0.274959 0.600568
0.125364 0.16916 0.232015
-0.169079 -0.197558 0.600147
-0.175321 0.0355697 0.575299
-0.14423 -0.0615567 0.600568
-0.324023 0.0304056 0.600568
0.112471 0.291793 0.575299
0.167212 -0.363263 0.586949
0.0410367 -0.0976513 0.545112
-0.0880695 0.270688 0.600568
0.109369 -0.0523354 0.57572
-0.183936 0.294183 0.57572
0.0524526 -0.304163 0.600568
-0.368544 0.082593 0.600147
0.0527807 -0.340243 0.600147
0.148137 0.0221114 0.600147
-0.11913 0.0144839 0.573227
0.340061 0.20937 0.577876
-0.147748 0.245327 0.575299
0.305329 0.133884 0.57572
0.134884 0.0561086 0.600147
-0.203222 -0.198477 0.600147
-0.0210936 0.00213546 0.600568
0.138663 -0.24179 0.146598
-0.139006 -0.0850492 0.57572
0.00754998 -0.168869 0.600147
-0.244399 0.132962 0.57572
0.208691 0.191495 0.600147
0.131918 0.180512 0.133897
0.113257 0.158659 0.573227
-0.0796254 0.280174 0.57572
-0.0869581 0.0230982 0.600568
0.038465 -0.0186336 0.464441
-0.163051 -0.268212 0.600147
-0.244971 -0.00295101 0.57572
0.33015 -0.00999675 0.57572
-0.0900061 0.0168462 0.34896
-0.192242 -0.0257974 0.57572
0.214634 0.1202 0.575299
0.0126989 0.310599 0.575299
-0.158375 -0.350801 0.575299
0.195924 -0.303509 0.600568
0.0190482 0.0311512 0.600147
-0.047818 0.212587 0.600568
0.0222066 -0.0162581 0.426926
0.0245431 -0.353721 0.575299
0.261867 0.129716 0.575299
0.256632 0.0737948 0.600568
0.312163 0.00736022 0.600568
-0.0838707 0.00810313 0.575299
0.249672 -0.0093591 0.57572
-0.13135 0.155717 0.57572
-0.187093 -0.108343 0.600147
-0.0149307 0.383738 0.600568
0.117347 0.156175 0.369934
0.224169 -0.083502 0.575299
-0.170215 0.0168462 0.375986
-0.0406844 0.25915 0.600568
-0.192442 -0.224103 0.57572
0.0725583 -0.153337 0.57572
0.37452 -0.0912235 0.575299
0.285739 0.0800236 0.600147
-0.0912307 -0.172858 0.57572
-0.221758 -0.231395 0.600147
-0.142189 0.253282 0.600147
0.134096 -0.292983 0.57572
0.086514 0.101863 0.253436
-0.153704 0.131681 0.600568
-0.0310219 -0.398563 0.585832
0.0672178 -0.0684414 0.507458
-0.117694 0.0724519 0.600568
0.235156 0.140886 0.600147
-0.025834 -0.0183362 0.600568
-0.00199682 0.31396 0.57572
-0.251057 0.278694 0.600568
-0.0932942 -0.00229045 0.281666
0.0227239 -0.314477 0.575299
0.190275 0.309558 0.600568
0.12563 -0.169619 0.316081
0.156209 0.0415434 0.600147
0.239547 0.0755793 0.575299
-0.0455592 0.0227893 0.575299
-0.0805764 0.00976685 0.575299
0.0368979 -0.0833139 0.463026
0.366771 -0.0204845 0.575299
0.119832 0.159577 0.336529
-0.153846 0.140594 0.600568
-0.252546 -0.0332105 0.600568
0.280987 -0.241433 0.575299
-0.12155 -0.000124488 0.238608
-0.152937 -0.0122248 0.573227
-0.0578059 0.324594 0.57572
-0.134976 0.0991245 0.575299
0.303687 0.0828084 0.600147
0.0713965 -0.106531 0.573227
0.22319 0.108861 0.600568
-0.0739121 -0.0168462 0.555585
-0.173043 -0.217366 0.575299
-0.045743 -0.0362356 0.600568
-0.131105 0.329121 0.600147
0.0429268 -0.0937557 0.460295
-0.0837609 0.389884 0.588562
-0.0125327 -0.277435 0.600568
0.0277291 0.102028 0.57572
-0.24201 0.196186 0.57572
-0.0139208 -0.0172421 0.54767
-0.149998 -0.286747 0.57572
0.0150233 0.0500627 0.570337
0.0494739 0.315025 0.57572
-0.0584308 0.337918 0.575299
0.00869855 0.00143261 0.57572
-0.123796 0.0200849 0.57572
0.122935 -0.224145 0.209461
0.113454 -0.367091 0.575299
-0.377458 -0.075527 0.600568
-0.154534 -0.00367328 0.45074
0.053746 -0.145013 0.600147
-0.288644 0.148923 0.57572
0.0848051 -0.0989045 0.36414
-0.272843 0.169336 0.575299
0.0912255 0.110425 0.554804
0.240383 0.0390631 0.600147
-0.236511 0.250463 0.575299
-0.0162419 -0.398464 0.59167
0.137376 0.0184537 0.575299
0.322431 -0.0748596 0.600147
0.1718 0.295643 0.600147
-0.0935601 -0.154104 0.575299
0.155699 -0.276061 0.042702
-0.0678247 -0.0193479 0.43171
-0.151176 -0.242913 0.600568
-0.258906 -0.0348769 0.57572
-0.12635 -0.364046 0.600568
0.301668 0.034227 0.57572
0.025131 0.214077 0.575299
0.148073 0.231793 0.573227
0.114993 0.126592 0.600568
-0.186867 -0.0506289 0.575299
0.214045 -0.304171 0.575299
-0.198702 -0.0164597 0.12596
-0.373672 -0.0894095 0.600147
0.14117 -0.0659228 0.57572
-0.0759565 -0.0185056 0.556855
0.188869 0.0765424 0.600147
0.150207 -0.0625992 0.575299
0.394424 -0.0588569 0.589406
0.207847 0.195279 0.600568
0.0881671 0.0154034 0.575299
0.317583 -0.108619 0.600147
0.0267167 -0.0355223 0.498078
-0.275128 0.242551 0.600568
0.101963 -0.196004 0.114983
0.0486063 0.110736 0.547349
0.137634 -0.165891 0.600568
0.214948 -0.179875 0.57572
0.0345166 0.0433946 0.527308
-0.231469 0.0168462 0.156571
-0.146351 0.0998864 0.600147
-0.0465885 -0.191743 0.600147
0.210116 0.11551 0.57572
0.309344 0.109226 0.600147
-0.158173 0.0168462 0.34915
-0.103622 -0.384785 0.595889
-0.073235 -0.0710314 0.600568
0.123171 0.134355 0.600147
0.293342 0.0528191 0.600568
-0.234343 0.0168462 0.163595
0.24793 -0.0447447 0.600147
-0.089277 0.155592 0.600568
-0.104367 0.203522 0.600568
-0.115081 0.223981 0.57572
-0.117673 0.209548 0.57572
-0.251991 0.21282 0.600147
0.125722 -0.221691 0.211542
0.343277 0.13165 0.57572
0.297999 -0.231755 0.600568
-0.253309 -0.0109892 0.0378253
-0.0535474 0.338372 0.57572
-0.385935 0.022298 0.575299
-0.0462165 -0.0431821 0.600147
-0.0418522 -0.0714595 0.57572
0.308224 -0.243287 0.600568
0.150377 0.211885 0.57572
-0.126336 -0.00269799 0.231315
0.376353 0.13389 0.582129
-0.187674 -0.155969 0.57572
-0.323252 -0.235696 0.575848
-0.136703 0.0168462 0.399258
0.150465 0.00615197 0.600147
0.392866 -0.0670304 0.579155
-0.232235 -0.0168462 0.224538
-0.183622 0.112963 0.600568
0.150864 -0.318335 0.575299
0.325065 -0.0566048 0.600147
0.0156057 -0.284282 0.600568
-0.13018 -0.377741 0.600147
0.144124 0.0538149 0.57572
0.0784879 0.134916 0.574491
-0.189574 0.155083 0.600147
0.13532 -0.253778 0.0140409
0.0502622 -0.10646 0.413321
-0.190543 -0.0163561 0.345897
0.157274 0.324716 0.600568
