0.0992 0.108292 0.475846
0.160655 0.216955 0.475846
0.0657057 -0.217729 0.475846
0.0768466 -0.0882459 0.451939
-0.203341 -0.155884 0.123256
-0.213028 -0.179725 0.00282627
0.304212 -0.0593938 0.475846
0.0750828 0.249049 0.451939
-0.0329571 0.182477 0.451939
0.181809 0.141506 0.271572
0.216003 -0.0335379 0.451939
-0.0556172 0.110404 0.475846
-0.161276 -0.101763 0.382615
-0.170794 0.0907904 0.215089
-0.316483 0.142829 0.475846
-0.0809387 -0.027495 0.451939
-0.155815 -0.0908406 0.329378
-0.157952 -0.0651051 0.373091
-0.0836854 0.0972876 0.451939
0.192549 0.164308 0.0796203
0.186002 -0.12733 0.451939
0.148077 -0.0753661 0.432389
-0.306908 0.0573322 0.451939
0.0128972 -0.294743 0.468511
0.114846 -0.292778 0.476789
-0.18127 0.141751 0.253498
0.259626 0.0525191 0.451939
-0.194833 0.138869 0.183054
-0.236863 -0.244092 0.451939
0.207332 -0.276483 0.451939
-0.115416 -0.289937 0.451939
0.125616 -0.188383 0.451939
-0.327492 -0.0539653 0.463391
0.216745 0.190251 0.475846
0.230447 -0.0652882 0.475846
-0.208898 -0.174193 0.117806
0.13469 -0.087361 0.451939
0.19643 -0.00398588 0.475846
0.278886 -0.0493432 0.451939
-0.149337 0.0478756 0.367725
-0.0792183 0.0607602 0.475846
0.207444 0.0506686 0.451939
0.308676 -0.0884073 0.451939
-0.292015 -0.225616 0.451939
-0.00964901 -0.164278 0.475846
-0.0101718 0.158819 0.475846
-0.189363 0.157937 0.178752
-0.150636 0.0804826 0.368491
-0.241964 -0.0199398 0.475846
-0.314302 0.283298 0.451939
-0.180509 0.140229 0.222965
-0.171141 -0.121494 0.301436
-0.228355 0.0709569 0.475846
0.188212 -0.173306 0.475846
-0.284745 -0.1138 0.475846
0.196122 -0.171455 0.0899961
0.173682 -0.294743 0.465919
0.192613 -0.222627 0.475846
-0.0109767 0.291788 0.475846
0.300906 0.229077 0.475846
-0.162213 -0.103637 0.368965
-0.0049116 0.104007 0.451939
-0.288134 0.234527 0.475846
-0.294347 0.274801 0.475846
-0.146864 -0.056539 0.416326
-0.150121 -0.0790863 0.264857
-0.0762233 0.259722 0.451939
-0.101767 -0.0705922 0.451939
0.189291 0.130002 0.268272
-0.229355 0.166234 0.475846
0.111904 0.136529 0.451939
-0.327492 -0.0632696 0.467926
0.110023 0.00356705 0.334015
-0.300685 -0.0413134 0.451939
0.167744 0.101867 0.335107
0.0894342 -0.280873 0.475846
-0.204191 -0.158175 0.146546
-0.22043 -0.152925 0.475846
-0.00341302 -0.222982 0.451939
0.319483 -0.0295552 0.451939
-0.230976 0.128045 0.451939
-0.28919 0.0881822 0.451939
0.172062 0.0397674 0.475846
-0.126392 -0.096386 0.475846
0.0296831 -0.0402315 0.451939
0.159991 -0.0991925 0.27872
0.205997 0.154913 0.475846
0.274021 -0.0531066 0.475846
0.250687 -0.1121 0.475846
0.0101544 0.122462 0.475846
0.0811284 0.284184 0.451939
0.314743 0.0121725 0.475846
0.25118 -0.294668 0.453623
-0.149025 -0.077262 0.386268
0.221593 0.145149 0.451939
-0.225797 -0.225227 0.451939
-0.150119 0.0644957 0.277948
-0.00746089 -0.14962 0.475846
0.0472295 -0.133066 0.475846
0.0277687 0.264506 0.475846
0.0499213 -0.294743 0.469668
0.000353813 0.276273 0.475846
0.021658 0.23037 0.451939
0.0096626 0.196236 0.451939
-0.126635 -0.175352 0.475846
0.177355 -0.10391 0.219329
-0.168853 0.0869063 0.347238
-0.0354349 -0.019478 0.451939
0.3088 -0.0826761 0.451939
0.184675 -0.148562 0.117892
-0.298204 -0.0927362 0.451939
-0.151896 -0.123567 0.475846
0.197802 0.144804 0.116121
0.167635 0.179245 0.451939
0.207428 0.165278 0.126038
0.225876 -0.215941 0.475846
0.215625 -0.0723475 0.475846
-0.200879 -0.175372 0.0355276
0.0126674 -0.0301863 0.475846
0.0381654 -0.0655453 0.475846
0.185069 -0.0528762 0.475846
-0.286715 -0.0395783 0.451939
0.0620539 0.225818 0.475846
-0.246821 0.224746 0.451939
-0.209744 0.253037 0.451939
0.0121415 0.266599 0.451939
0.185425 -0.15006 0.174355
-0.241575 -0.139851 0.451939
-0.014774 -0.195734 0.475846
-0.241014 0.214089 0.451939
-0.0507972 0.275943 0.451939
0.169493 -0.089656 0.420389
0.171577 -0.10296 0.335527
0.31602 -0.134013 0.475846
0.184866 -0.0732418 0.475846
0.196893 -0.142985 0.158443
0.192963 -0.036123 0.451939
0.214135 0.180387 0.0771023
-0.208825 -0.0815915 0.475846
-0.185915 0.145042 0.104302
0.290183 -0.223726 0.475846
-0.211577 -0.172357 0.0259725
0.195684 -0.140568 0.156743
0.203928 0.187066 0.0765745
-0.277572 -0.174728 0.475846
-0.0786715 -0.207381 0.475846
-0.202194 0.0925295 0.451939
-0.173558 -0.126328 0.302288
-0.190318 0.159847 0.191486
-0.159997 -0.0730733 0.341688
-0.307567 0.278335 0.475846
-0.219798 -0.201916 0.0267328
-0.157895 0.241337 0.451939
-0.215629 0.209677 0.00492675
-0.225915 -0.162292 0.451939
0.207955 -0.195067 0.0560374
-0.290806 0.240894 0.451939
0.158182 0.0655651 0.263511
0.0165977 -0.246446 0.451939
-0.174919 0.128389 0.150713
0.108651 -0.122946 0.475846
-0.103954 0.0806338 0.451939
-0.09669 -0.179447 0.475846
0.327492 0.104655 0.454612
0.201291 -0.165457 0.0459028
0.17669 0.132591 0.277275
0.206944 -0.193098 0.0288838
-0.0837488 -0.149615 0.475846
-0.327492 -0.0794118 0.46055
-0.00178766 -0.268047 0.451939
0.0111592 0.0554514 0.475846
-0.263246 -0.0244387 0.475846
0.15118 0.0515597 0.395639
0.320304 0.267425 0.451939
0.0982152 0.269405 0.475846
-0.0270289 -0.162875 0.475846
-0.161619 0.10245 0.28742
-0.186197 0.149871 0.0990222
-0.138415 0.0480506 0.349111
-0.0139952 -0.0449671 0.475846
0.327492 0.150678 0.469742
0.215034 0.274278 0.475846
-0.0933999 0.110145 0.475846
-0.0343304 0.144578 0.475846
0.0153066 0.201937 0.451939
-0.161889 -0.102989 0.350379
0.270632 -0.0179209 0.451939
-0.327492 0.107927 0.469959
0.10504 0.17646 0.451939
0.172206 -0.0936122 0.299732
-0.168241 -0.251371 0.451939
-0.327492 0.12045 0.47086
0.205798 0.227208 0.475846
-0.261376 0.260211 0.451939
0.0423602 -0.114502 0.451939
0.0678821 0.00535873 0.451939
0.203468 -0.174118 0.0310471
-0.286639 0.0977696 0.475846
0.121824 0.134431 0.451939
-0.250683 -0.232019 0.451939
-0.199146 -0.113758 0.475846
0.20775 0.208117 0.451939
-0.139255 -0.196868 0.475846
-0.148071 0.125271 0.475846
0.00471866 0.294743 0.45902
0.0344315 0.193923 0.451939
-0.0325488 0.220172 0.451939
0.119609 -0.0156857 0.338578
-0.15427 0.0577411 0.390833
0.221955 0.112427 0.475846
0.157959 -0.0951299 0.42653
0.100071 0.0763551 0.451939
-0.110498 0.244194 0.475846
-0.126238 0.102836 0.451939
0.0335738 -0.0628695 0.475846
0.241416 0.0807814 0.475846
0.0544826 0.0991825 0.451939
0.293219 0.188539 0.451939
-0.0379646 -0.107742 0.451939
0.176072 -0.101356 0.359334
-0.0481113 -0.0394327 0.451939
-0.233998 -0.175172 0.475846
0.306845 -0.119683 0.451939
0.136785 -0.272593 0.451939
-0.0345306 -0.0326177 0.451939
0.159643 -0.108858 0.451939
-0.22851 -0.180697 0.475846
-0.155204 -0.198023 0.475846
-0.259261 0.101184 0.451939
-0.317137 -0.224941 0.451939
0.144507 0.0595405 0.336166
-0.189961 -0.159133 0.0902817
-0.167573 0.0843469 0.339745
-0.0270299 -0.198911 0.451939
0.163625 0.101915 0.339928
-0.105635 0.00896232 0.346103
0.194416 -0.294743 0.465798
-0.0348466 -0.123232 0.475846
-0.31626 -0.137218 0.475846
-0.15594 -0.0782463 0.451939
0.158062 0.0653239 0.403563
0.17782 0.120607 0.345402
0.154202 0.0576044 0.414996
0.203461 -0.156121 0.0927982
0.173897 0.125649 0.332965
0.1487 -0.0766104 0.308961
-0.136097 0.257215 0.475846
0.190796 0.0418136 0.475846
0.132501 0.189547 0.451939
-0.139173 0.0484623 0.378103
-0.149568 -0.0783477 0.401939
-0.294834 -0.0681883 0.475846
-0.224421 -0.135726 0.451939
-0.0632668 0.119411 0.451939
0.0933123 0.179457 0.475846
-0.273258 -0.130751 0.451939
-0.0433831 0.200744 0.451939
0.295723 0.290992 0.475846
-0.17684 0.102882 0.22741
-0.104821 -0.218938 0.475846
0.0526348 -0.0759389 0.451939
0.119117 0.294743 0.474356
0.209023 -0.188291 0.00218923
-0.214382 0.0641403 0.451939
0.190504 0.108686 0.451939
-0.164387 -0.131907 0.451939
-0.209789 -0.196107 0.062947
-0.155021 -0.0890387 0.451939
0.254791 -0.130162 0.475846
0.090504 0.00488099 0.451939
0.164152 0.0855142 0.221926
-0.0287032 -0.0575463 0.451939
-0.0126365 0.00789285 0.337356
-0.20463 -0.18847 0.0645948
0.286938 0.291959 0.475846
-0.181514 0.259347 0.451939
-0.141603 0.00853226 0.451939
-0.0360714 -0.0227713 0.451939
-0.0958445 0.134015 0.475846
-0.103875 -0.262933 0.451939
-0.173581 -0.108982 0.451939
-0.135344 0.0323089 0.333523
-0.0627781 0.214525 0.451939
-0.0283911 0.231331 0.475846
0.173773 0.0193363 0.475846
0.0305835 -0.0965617 0.475846
0.142043 -0.0632977 0.331992
-0.145355 0.0619695 0.349083
0.0507971 0.0874746 0.475846
0.251246 0.292778 0.477132
0.175996 0.0378432 0.451939
-0.151179 0.08157 0.390339
-0.288101 -0.0468874 0.451939
0.0454529 0.11673 0.451939
0.0605582 0.120143 0.451939
-0.00861129 0.196865 0.475846
-0.313376 0.186763 0.475846
-0.241942 0.118995 0.475846
0.0536416 0.053362 0.451939
0.262506 0.190447 0.475846
0.19181 0.132819 0.191981
-0.116334 0.0318594 0.451939
-0.15482 0.0980392 0.475846
-0.287637 -0.126847 0.451939
-0.223789 -0.0935225 0.451939
0.228617 -0.125612 0.475846
-0.0390538 0.199536 0.475846
0.153865 -0.05693 0.394165
0.153784 -0.0867798 0.417209
0.171719 -0.0931 0.19906
-0.00716096 -0.192648 0.451939
-0.194285 0.16396 0.0636046
0.171155 -0.112526 0.384047
-0.179258 0.127907 0.139057
-0.205567 -0.190345 0.0273647
0.165767 -0.212433 0.451939
-0.173005 -0.0952116 0.240784
0.0854699 -0.19948 0.475846
-0.140081 0.154811 0.451939
0.14184 -0.18531 0.451939
0.189818 0.147586 0.246712
0.249201 -0.206776 0.451939
-0.171669 0.115794 0.337531
-0.3102 -0.250354 0.451939
-0.238243 0.104521 0.451939
-0.173108 0.0968004 0.391893
-0.163892 0.0753953 0.475846
-0.139867 -0.0732342 0.451939
-0.154745 -0.0309639 0.451939
0.127242 -0.196952 0.451939
-0.165925 -0.0853264 0.340638
0.149638 -0.0484763 0.311918
0.182455 -0.114111 0.167788
-0.298308 0.119359 0.451939
0.101563 -0.189739 0.451939
0.193523 -0.136246 0.158903
-0.202283 -0.100488 0.475846
-0.184215 0.117633 0.14663
-0.0518714 0.196457 0.475846
-0.111152 -0.121468 0.475846
0.0589371 -0.288126 0.451939
-0.282976 -0.0903546 0.451939
-0.247996 -0.294743 0.455354
0.122114 0.0721835 0.451939
0.289302 0.278982 0.451939
0.257236 0.0293571 0.451939
0.0360466 0.0294573 0.475846
0.226919 0.232942 0.451939
-0.267299 -0.201506 0.451939
0.0851442 0.203001 0.475846
-0.0501016 -0.200197 0.475846
-0.150927 -0.076617 0.345585
0.298356 0.165271 0.451939
0.272198 -0.21986 0.451939
-0.159351 0.240759 0.451939
0.304115 0.0842807 0.475846
-0.1323 0.277726 0.475846
-0.198658 -0.2733 0.451939
-0.288885 -0.01131 0.475846
0.273454 0.235245 0.451939
0.017164 -0.0094042 0.341315
0.150457 -0.0801261 0.392588
0.225993 -0.0424451 0.451939
-0.108402 0.27863 0.451939
0.137369 0.0417085 0.357725
-0.00608289 0.223483 0.475846
0.0176159 -0.236811 0.475846
0.174657 -0.110007 0.16999
-0.262757 0.0266773 0.451939
0.0950679 0.171651 0.475846
-0.178341 0.105884 0.264553
0.324854 -0.1031 0.451939
0.229527 -0.248514 0.451939
0.216044 -0.0767951 0.451939
-0.208474 0.166151 0.0435791
-0.225243 0.124119 0.475846
0.268196 -0.0695129 0.475846
0.221028 0.289487 0.475846
0.173918 -0.270273 0.475846
-0.210597 0.183782 0.0971831
-0.0695217 0.216938 0.451939
-0.135847 0.1571 0.475846
-0.175413 0.100027 0.359281
-0.135331 -0.023792 0.348587
-0.308201 -0.201185 0.475846
0.260102 -0.286663 0.475846
0.195165 -0.248435 0.475846
0.0324399 -0.00570348 0.451939
0.0205849 0.131024 0.451939
0.145129 0.0510523 0.304682
0.202205 -0.163936 0.0455516
-0.109939 -0.248496 0.475846
0.183022 0.115244 0.239942
-0.204806 0.188822 0.0656261
-0.129044 -0.273988 0.451939
0.172435 -0.124155 0.451939
0.187091 0.123382 0.1447
-0.144277 0.19166 0.475846
-0.0427661 0.29283 0.477469
0.320188 0.171369 0.475846
0.286475 -0.100049 0.451939
0.115993 0.0261625 0.475846
-0.150768 0.0507371 0.302118
0.290607 0.138242 0.451939
-0.149597 -0.0784053 0.273793
0.195501 0.170213 0.10397
-0.101136 0.20435 0.475846
0.0653301 0.0457322 0.475846
-0.0190744 0.172581 0.475846
-0.152045 0.106392 0.475846
-0.314736 -0.0189224 0.475846
-0.0794897 0.28601 0.451939
0.196417 0.294743 0.458622
0.228313 -0.210946 0.451939
-0.199608 0.0248444 0.475846
0.294367 -0.225719 0.475846
-0.306773 -0.0473255 0.475846
0.276811 -0.251304 0.451939
-0.26027 0.0412164 0.475846
0.232716 0.294743 0.465414
-0.15857 0.19182 0.451939
-0.192239 0.133679 0.229178
0.0798009 -0.0648387 0.475846
0.286555 0.0541782 0.475846
0.268213 0.178765 0.475846
-0.283134 -0.128133 0.451939
-0.091718 0.232706 0.475846
-0.108709 0.226633 0.475846
-0.103189 -0.206672 0.475846
-0.327492 -0.0126854 0.454525
0.185065 0.125979 0.475846
0.0374788 0.0271842 0.475846
-0.120619 0.017833 0.338912
-0.238607 -0.12965 0.475846
-0.0998135 -0.266929 0.451939
0.158083 -0.0653664 0.289774
0.201964 0.160269 0.475846
-0.327395 -0.23206 0.453179
0.2821 -0.093084 0.475846
0.0487691 -0.191463 0.475846
0.160125 -0.0910643 0.224783
0.121693 -0.0528883 0.451939
0.0165511 0.230189 0.451939
0.290774 -0.228096 0.451939
0.143327 0.0440213 0.384403
0.145792 -0.0499159 0.349918
0.0794687 0.256485 0.451939
0.116594 0.264754 0.451939
0.144108 0.0674281 0.418159
-0.12507 -0.0690734 0.451939
-0.209541 0.168408 0.101977
-0.202047 0.159089 0.171969
0.108688 -0.287847 0.451939
-0.327492 -0.0294432 0.466914
-0.195501 0.140204 0.151149
-0.00313294 0.249155 0.475846
0.201899 0.0374354 0.475846
-0.211212 0.254961 0.451939
0.0169176 0.00357586 0.475846
0.0903053 -0.291733 0.475846
-0.140365 -0.0357106 0.350251
0.0838003 0.177968 0.451939
0.132511 -0.0116101 0.475846
0.107644 -0.0170648 0.475846
-0.167284 0.287302 0.451939
0.111506 0.0367973 0.475846
-0.133265 -0.129732 0.451939
0.291657 0.240618 0.451939
-0.260158 -0.112356 0.475846
-0.327492 -0.14611 0.474951
0.0106467 0.0746145 0.475846
0.296396 -0.239334 0.475846
0.035002 0.0642829 0.451939
-0.0124725 -0.0677831 0.475846
0.0578817 0.098012 0.451939
0.0191165 -0.11676 0.451939
0.0747117 -0.066815 0.451939
-0.165919 0.0810381 0.381809
-0.203168 0.264044 0.451939
-0.213287 0.181194 0.000558631
-0.196579 0.142361 0.156514
0.0306068 0.199653 0.475846
0.182143 0.2795 0.451939
-0.177608 -0.218134 0.475846
0.29745 -0.19785 0.451939
-0.00662377 -0.152569 0.475846
0.151097 0.0814046 0.371329
0.14783 0.258461 0.475846
-0.20387 -0.0308238 0.451939
-0.195483 -0.140168 0.10685
0.129343 0.0250136 0.341798
-0.165549 -0.110309 0.304511
0.192723 0.134646 0.166153
-0.280655 0.0610779 0.451939
0.299591 -0.0864712 0.451939
-0.0719079 -0.294743 0.466845
0.157403 0.143926 0.475846
0.0497734 -0.237119 0.475846
0.196506 -0.172223 0.103082
0.118538 -0.0077205 0.475846
-0.00856328 0.207565 0.475846
0.0219271 0.178204 0.475846
0.0804403 -0.139283 0.475846
-0.181224 0.125942 0.321984
-0.225781 -0.264995 0.475846
0.327492 -0.111497 0.462216
0.0402442 -0.242854 0.451939
-0.327492 -0.172981 0.468727
0.258393 0.0923687 0.475846
0.210306 0.224984 0.475846
0.230904 -0.135733 0.451939
-0.181505 0.257431 0.451939
-0.189032 -0.130834 0.113422
0.116245 0.115132 0.451939
-0.00727946 0.117252 0.475846
0.0979085 -0.0069927 0.475846
0.0583891 -0.124454 0.475846
0.157794 -0.0948003 0.430605
0.0737907 -0.236879 0.475846
-0.00973436 -0.120725 0.475846
0.047578 -0.0316593 0.451939
-0.327492 0.126649 0.462018
0.12869 -0.137665 0.475846
-0.100447 -0.173213 0.475846
0.037258 0.0684452 0.475846
0.0063954 0.0530105 0.475846
-0.241294 0.275162 0.451939
0.298982 -0.221001 0.475846
0.255823 -0.294743 0.466192
0.327335 -0.293811 0.467573
0.135234 0.0412345 0.349432
-0.252506 0.226723 0.475846
0.251788 -0.255342 0.475846
-0.246236 -0.214557 0.451939
0.0218181 -0.000336677 0.475846
-0.112605 0.210756 0.451939
-0.32651 -0.274003 0.477481
0.0171246 -0.00572105 0.350584
-0.126483 0.213537 0.475846
-0.101244 -0.264959 0.475846
-0.18212 -0.290104 0.475846
0.14921 -0.0111388 0.475846
-0.161256 -0.135432 0.451939
-0.169706 -0.0931488 0.451939
-0.314779 -0.117468 0.475846
-0.0951802 -0.0517646 0.451939
-0.159315 0.280992 0.475846
-0.231828 -0.294743 0.46001
-0.0254855 0.286705 0.475846
0.180459 0.138957 0.125084
-0.190869 -0.155455 0.0811105
-0.182072 0.113346 0.255301
-0.195853 0.140908 0.112113
-0.102014 -0.043735 0.451939
0.16346 0.106133 0.388725
0.292782 0.145342 0.451939
0.110013 -0.171101 0.451939
0.166643 -0.0826272 0.223713
-0.327492 -0.12079 0.459671
0.14788 0.187717 0.475846
0.095847 -0.0424778 0.451939
0.0354347 0.23502 0.475846
-0.104251 0.266688 0.451939
0.163063 -0.075326 0.344596
-0.0636702 -0.0246234 0.451939
-0.11262 -0.0567499 0.451939
-0.32717 -0.171813 0.452542
0.0658586 -0.0715149 0.475846
-0.252551 0.0791361 0.451939
0.22398 0.294743 0.460782
-0.0325898 -0.284505 0.451939
0.315191 0.236116 0.475846
-0.248868 0.0557069 0.475846
-0.177188 -0.17506 0.475846
-0.0376336 0.152203 0.475846
0.1833 -0.0499424 0.451939
-0.115683 -0.0622848 0.475846
0.0498956 -0.0714713 0.451939
-0.218862 0.294743 0.457572
0.194629 0.149613 0.224144
-0.294132 0.0356007 0.451939
0.152655 -0.0698471 0.334759
-0.195436 -0.114298 0.475846
0.141345 0.0164537 0.451939
-0.200334 -0.15073 0.178194
-0.256509 -0.0605751 0.451939
-0.209543 -0.198296 0.0352873
0.29743 -0.174205 0.451939
0.0462968 0.173108 0.451939
0.0520378 -0.189322 0.475846
0.327423 -0.0882918 0.453392
0.105788 0.0192302 0.451939
-0.158343 -0.0727524 0.337454
0.313304 0.275105 0.475846
0.18248 0.0420812 0.451939
-0.179637 -0.138484 0.17119
-0.285481 -0.193817 0.451939
0.14653 -0.0422613 0.352828
-0.200859 -0.180928 0.0580501
0.211376 0.294743 0.47364
0.161753 -0.0727072 0.316692
0.16696 0.138986 0.451939
0.0349334 -0.0140297 0.451939
-0.00203797 0.133414 0.451939
0.0799103 -0.00211051 0.451939
0.1082 0.0872874 0.475846
-0.0314205 -0.294743 0.460251
-0.119932 -0.163367 0.451939
-0.25398 0.225589 0.451939
0.303744 0.165877 0.451939
-0.146948 0.0518271 0.408923
-0.135636 0.294743 0.460058
-0.0541269 0.00715652 0.451939
-0.281137 -0.0972088 0.475846
0.13632 -0.0372593 0.348503
0.189712 -0.158636 0.176379
-0.143567 -0.0536295 0.400842
-0.31608 -0.294743 0.456361
-0.185215 -0.240173 0.475846
-0.0812333 0.103144 0.475846
-0.327492 0.170651 0.45649
0.308288 0.0983689 0.475846
-0.172452 0.0941061 0.3196
-0.0778406 -0.151912 0.451939
0.179531 0.108262 0.18789
0.167257 -0.293719 0.477232
0.192349 0.163408 0.0712785
-0.294316 0.139871 0.451939
-0.253976 -0.0961045 0.475846
-0.120537 0.289598 0.475846
-0.0558742 -0.147386 0.451939
0.18821 -0.125619 0.222489
-0.327399 0.0983016 0.453214
0.0217006 0.228849 0.475846
-0.141637 -0.0624858 0.34602
-0.00790489 -0.271227 0.451939
-0.203899 0.17826 0.13078
0.120415 0.14474 0.475846
-0.241343 -0.149864 0.451939
-0.170995 0.0911906 0.39499
0.141071 -0.0613537 0.353579
0.220291 0.119236 0.451939
-0.238949 0.196133 0.475846
-0.0816948 0.0575218 0.451939
0.0345268 -0.0320891 0.451939
0.191536 0.162283 0.172449
-0.327492 0.10718 0.456806
0.222736 0.196086 0.00930868
-0.324654 -0.272673 0.451939
0.148666 0.0765438 0.410555
-0.313324 0.186658 0.451939
0.0370385 0.0263452 0.475846
0.00257707 -0.155121 0.475846
0.179313 0.107825 0.174016
0.304859 -0.159902 0.451939
0.298851 0.229384 0.451939
-0.038873 0.03624 0.475846
0.153598 -0.0563964 0.365344
-0.252178 0.209346 0.451939
-0.125139 0.00284269 0.451939
-0.215757 0.254025 0.451939
0.170217 -0.119646 0.319683
-0.139513 0.0854472 0.451939
-0.253145 -0.152226 0.451939
0.152602 0.0844164 0.384195
-0.311149 0.0876019 0.475846
0.186466 -0.127743 0.292257
0.0857983 -0.209031 0.451939
-0.161356 -0.101923 0.273287
0.150714 -0.0806398 0.368936
-0.236363 0.140186 0.475846
-0.247566 -0.294743 0.468414
0.277757 -0.188173 0.451939
0.247328 -0.290338 0.451939
0.129499 0.0365655 0.341479
0.0451601 0.294743 0.466853
0.127919 -0.144223 0.451939
-0.0115089 0.0326705 0.451939
-0.166543 -0.112297 0.327626
0.134538 -0.0433752 0.475846
0.0950812 0.0716877 0.475846
-0.161912 -0.103035 0.311347
0.0653128 -0.197622 0.475846
0.122162 0.282507 0.451939
0.183895 0.11699 0.187728
0.151314 -0.181492 0.451939
0.217686 -0.18457 0.0321565
-0.0146239 0.117402 0.475846
0.16652 -0.0909618 0.451939
-0.207058 -0.220057 0.475846
0.0731787 0.258335 0.475846
0.140111 0.246839 0.451939
0.09198 0.274929 0.475846
0.313391 -0.137697 0.475846
0.266811 0.168418 0.475846
0.276989 0.153999 0.475846
0.252976 0.0676358 0.475846
-0.263926 -0.170484 0.475846
-0.217766 0.294743 0.455668
0.0530585 -0.132114 0.475846
0.233808 -0.282414 0.451939
0.217198 0.191242 0.475846
-0.315468 0.233323 0.451939
-0.0548815 -0.216126 0.451939
-0.173456 0.207819 0.475846
-0.162147 -0.0734954 0.25305
-0.11598 -0.156202 0.451939
-0.12082 0.065879 0.451939
0.11705 0.094488 0.475846
0.157004 -0.093219 0.275507
0.0743749 0.110515 0.451939
0.147088 0.198995 0.475846
-0.276711 0.190981 0.451939
-0.033428 -0.0621836 0.475846
-0.183234 0.145679 0.149015
0.292608 0.120364 0.475846
-0.271684 -0.243227 0.451939
-0.109265 0.245453 0.451939
0.188471 -0.126142 0.183495
-0.266239 -0.149126 0.451939
-0.162754 0.0747088 0.331737
-0.155746 -0.082258 0.24483
0.134961 -0.285111 0.451939
-0.275903 -0.168685 0.451939
0.181733 0.138373 0.286645
0.0292743 -0.246423 0.475846
-0.0366572 -0.259353 0.475846
0.327492 0.00599736 0.461407
-0.0449404 0.0774408 0.451939
0.0644532 0.273024 0.451939
0.0890433 0.00738477 0.348921
-0.327492 -0.207836 0.470764
-0.0864087 0.157089 0.451939
-0.214591 0.121096 0.451939
0.193461 -0.153959 0.220776
0.148027 -0.0638902 0.432094
-0.104917 0.206918 0.451939
0.228727 -0.253946 0.451939
0.191985 -0.13317 0.133449
-0.249351 0.136937 0.451939
-0.0193569 -0.106877 0.475846
-0.17641 -0.106045 0.34446
-0.299547 0.125396 0.475846
0.205787 -0.147829 0.475846
0.102296 0.241608 0.475846
-0.327492 0.152362 0.472287
-0.193473 -0.136149 0.174188
0.144881 -0.0389637 0.333709
-0.327462 0.0749742 0.47574
-0.239687 0.191093 0.451939
0.0266735 0.174883 0.451939
-0.161529 0.10227 0.347146
-0.327492 -0.166588 0.46137
0.0949877 0.0894816 0.475846
-0.132843 -0.0186882 0.475846
-0.060471 -0.294743 0.459859
0.327492 0.0568316 0.470312
0.255676 0.216403 0.475846
-0.180921 0.231918 0.475846
-0.0766742 0.113319 0.475846
0.271203 0.0516787 0.451939
0.298 -0.0659094 0.475846
0.327492 0.118589 0.472388
0.200522 -0.294743 0.461729
0.306024 -0.0869002 0.451939
-0.024887 -0.00112653 0.475846
-0.188671 -0.156552 0.098618
-0.194115 -0.167441 0.0897202
0.127118 0.140701 0.451939
0.18981 -0.137274 0.263848
0.135149 0.225066 0.475846
-0.228903 0.0144489 0.451939
0.212119 0.075224 0.475846
-0.238512 0.0337405 0.475846
-0.186175 -0.275424 0.475846
-0.0426823 0.0713067 0.451939
0.208688 0.17589 0.0171101
0.164279 0.26166 0.475846
-0.196189 -0.148119 0.216446
0.289359 -0.194291 0.475846
-0.126336 0.0151946 0.451939
-0.19707 0.279018 0.451939
0.0656256 0.00934932 0.344659
0.0842347 0.0468715 0.475846
0.216056 0.0836268 0.451939
0.14266 0.0645308 0.32984
-0.314413 0.00350484 0.475846
0.0399532 -0.00208219 0.352151
0.327492 -0.25575 0.4626
-0.0876359 -0.292673 0.451939
-0.293285 -3.85046e-05 0.475846
-0.185614 -0.0745369 0.451939
-0.15893 0.077489 0.475846
0.327492 0.0754779 0.462889
0.0582211 0.294743 0.463775
-0.083045 -0.132859 0.475846
0.167337 0.0838743 0.270616
-0.0145606 -0.10795 0.451939
0.14608 0.0413617 0.319507
0.194526 0.0123341 0.475846
0.148855 -0.00393695 0.451939
0.316335 -0.0407991 0.451939
-0.122368 -0.0792046 0.451939
-0.195296 0.139795 0.104319
-0.0872145 0.074402 0.451939
0.144159 -0.080902 0.475846
-0.282614 0.0328277 0.451939
-0.261214 -0.096846 0.451939
-0.0283563 0.0508804 0.475846
-0.148006 0.00286815 0.475846
-0.174517 0.0982359 0.205685
0.0888031 -0.249921 0.475846
0.0152774 -0.1813 0.451939
-0.327492 0.282143 0.46762
0.0216865 0.109899 0.475846
-0.0861343 0.0782561 0.475846
0.313073 0.125827 0.475846
0.19971 -0.26046 0.451939
-0.289681 -0.229628 0.475846
-0.226838 -0.213054 0.451939
0.195834 -0.148523 0.218137
0.101706 0.133424 0.475846
-0.218163 0.185529 0.0337386
-0.201647 -0.294743 0.466653
0.260522 0.144546 0.451939
0.292265 0.0568752 0.451939
-0.121929 0.156845 0.451939
0.146271 0.0417423 0.336953
-0.16939 0.0926091 0.201871
0.140509 0.0393919 0.475846
0.204464 0.00434831 0.475846
0.18997 -0.133953 0.107705
0.0908189 0.289554 0.475846
0.151272 -0.0517443 0.36867
0.181336 -0.112984 0.326503
-0.198904 0.0437258 0.451939
-0.224096 0.0805129 0.451939
0.219001 -0.231835 0.451939
-0.133906 -0.262602 0.451939
-0.188557 -0.126315 0.242552
-0.0822141 -0.0430785 0.475846
0.192792 -0.134784 0.149595
0.18692 -0.12304 0.245293
-0.218143 -0.211898 0.0026457
-0.264856 -0.286165 0.475846
0.0039399 0.0373 0.451939
-0.160865 0.0709309 0.302036
-0.0874877 -0.0841621 0.475846
0.164588 0.0783769 0.380133
-0.318896 0.00325528 0.451939
0.16608 0.105781 0.338355
0.108693 0.0981644 0.475846
-0.17073 0.0906623 0.252044
-0.213499 0.176201 0.0110552
0.193887 -0.293281 0.477349
0.162037 -0.0732754 0.304447
0.00973266 -0.164958 0.451939
0.163372 0.0759455 0.269651
-0.106482 0.0107771 0.451939
0.17618 -0.131572 0.158026
-0.218864 -0.0366039 0.475846
-0.147687 -0.0745848 0.439295
0.174796 -0.128803 0.266596
0.213927 -0.235254 0.451939
-0.250284 -0.210836 0.451939
0.216444 -0.0728531 0.475846
-0.144613 0.200048 0.475846
-0.241939 -0.132491 0.475846
-0.18865 -0.206524 0.451939
0.1822 -0.000674903 0.451939
-0.157603 -0.0944169 0.369766
-0.269098 -0.291334 0.475846
-0.318208 0.228864 0.451939
-0.178495 0.00267369 0.451939
-0.112945 -0.0978643 0.475846
0.143582 -0.0418982 0.381774
0.023722 -0.015536 0.475846
-0.327492 -0.143109 0.46727
0.167388 0.294743 0.465149
0.121626 0.106015 0.475846
0.210441 0.115447 0.475846
0.20493 0.189071 0.049939
0.00307366 -0.144147 0.475846
0.226832 -0.086878 0.451939
0.104429 0.197834 0.451939
-0.256989 -0.161189 0.475846
0.267724 0.143408 0.451939
0.00240785 -0.209854 0.475846
0.148122 0.0570758 0.290975
-0.199976 0.149332 0.0710756
-0.152904 -0.0550101 0.310077
0.116702 -0.0172213 0.475846
-0.173283 -0.125777 0.298767
-0.15538 -0.0599604 0.35806
0.0881238 -0.00671363 0.451939
0.0865077 0.293646 0.45217
-0.325607 -0.0779249 0.475846
-0.0838871 -0.107897 0.451939
0.280987 0.146876 0.475846
-0.0429415 -0.0424764 0.475846
-0.17298 -0.125172 0.218338
0.25205 -0.232444 0.451939
-0.102165 -0.121105 0.475846
0.169627 -0.0884539 0.335694
0.17861 0.12574 0.14301
-0.168142 0.292778 0.475926
-0.162514 0.0742289 0.286658
-0.198793 0.149404 0.070196
0.327492 0.076976 0.462493
-0.207841 -0.0475419 0.475846
-0.287568 -0.0874335 0.451939
0.327492 -0.0684664 0.47013
-0.0174326 -0.216577 0.475846
0.189218 0.0837137 0.451939
0.199191 0.147582 0.147563
0.137205 -0.186956 0.451939
0.283157 -0.086786 0.451939
0.205264 0.294743 0.475433
0.154329 0.0578582 0.368292
-0.149115 -0.0535292 0.347772
-0.310252 -0.0136645 0.451939
-0.130051 0.286879 0.451939
0.165735 -0.171686 0.451939
-0.291241 0.262234 0.451939
0.202664 0.138872 0.451939
0.287475 -0.294416 0.452857
0.0337716 -0.0766248 0.451939
-0.0606366 -0.0800737 0.451939
-0.320117 -0.124001 0.451939
0.0780795 0.0572751 0.451939
0.203404 0.156008 0.0843002
-0.184914 0.120663 0.451939
0.153288 -0.063835 0.475846
0.0426939 0.0188355 0.451939
0.18222 -0.117967 0.341779
-0.0695078 -0.226054 0.451939
0.0656098 0.210393 0.451939
0.139895 -0.0366524 0.342898
0.168854 0.0869075 0.226894
-0.0112036 0.136968 0.475846
0.202191 -0.120848 0.475846
-0.0917698 0.162672 0.451939
0.0216435 -0.0421171 0.451939
0.0240526 0.0770063 0.475846
-0.170849 -0.251456 0.451939
-0.228582 -0.223645 0.475846
0.316875 -0.294743 0.463977
-0.116204 -0.173624 0.451939
-0.13985 0.0336533 0.346386
0.0576993 0.0736248 0.451939
-0.237916 -0.0816254 0.451939
0.195189 -0.146713 0.2236
0.269527 -0.288141 0.451939
0.195238 -0.154044 0.0727479
0.0567805 0.110578 0.451939
0.231274 0.294743 0.469559
-0.164387 -0.107986 0.233268
0.160949 -0.10111 0.3964
-0.189726 -0.141033 0.260098
0.134337 0.0728448 0.451939
0.109743 0.222956 0.451939
-0.015226 -0.294423 0.476558
0.0938244 0.0599388 0.451939
0.227462 -0.158342 0.451939
0.162281 -0.0737616 0.375124
-0.327492 -0.141446 0.461946
0.16854 0.236647 0.475846
0.0117826 -0.074057 0.475846
-0.148228 0.0527435 0.414587
-0.0854755 -0.277948 0.451939
-0.13436 -0.0311346 0.475846
-0.224329 0.222728 0.451939
-0.152645 -0.217882 0.451939
-0.327492 -0.258397 0.466266
-0.0554398 0.133143 0.475846
-0.0817984 0.0551356 0.475846
-0.144297 -0.211899 0.451939
0.20194 0.157181 0.17193
0.325492 -0.174058 0.451939
0.0396547 -0.00785716 0.33732
0.093276 -0.0823611 0.451939
0.124889 -0.113869 0.451939
-0.0849291 0.171094 0.475846
-0.145539 0.290541 0.475846
0.17089 0.113196 0.382593
0.263479 -0.0258135 0.475846
0.0184993 0.234485 0.451939
0.177769 -0.13475 0.174717
0.00923717 0.0806882 0.475846
-0.313571 -0.0654042 0.451939
-0.231602 -0.172157 0.475846
0.0112197 -0.200026 0.475846
0.0519271 0.0205407 0.475846
0.185411 0.150034 0.161231
0.0256663 -0.0545925 0.475846
0.0353909 -0.19647 0.451939
-0.126445 -0.192627 0.475846
0.165464 -0.110139 0.329992
-0.090544 0.0774945 0.475846
-0.212926 -0.175055 0.0321354
-0.167933 0.0850679 0.303821
-0.265244 -0.200106 0.475846
-0.319039 -0.294743 0.459149
0.327492 -0.0190611 0.455112
-0.171465 -0.0924325 0.396904
0.184641 0.142244 0.272023
0.0699555 0.242263 0.475846
0.137442 0.066991 0.475846
-0.259615 -0.294743 0.458149
-0.0457243 -0.262929 0.451939
-0.126663 0.0721994 0.475846
0.327492 -0.210251 0.454596
0.0619227 0.0983906 0.451939
-0.000455678 0.116374 0.451939
0.13677 -0.0527516 0.361118
-0.00273967 0.267996 0.475846
0.111 -0.207579 0.451939
0.0723985 -0.240505 0.451939
-0.204007 -0.163621 0.451939
-0.162201 0.103613 0.350526
-0.32651 0.15365 0.477041
-0.157097 -0.262154 0.475846
-0.0087783 -0.212238 0.451939
0.144829 0.0688699 0.358707
0.215415 -0.217484 0.451939
-0.179595 -0.108392 0.221422
0.296779 -0.137081 0.475846
0.116705 -0.293312 0.452081
0.213248 0.0321536 0.451939
-0.00898314 -0.257155 0.451939
0.154086 -0.0873827 0.375092
-0.00273114 -0.0372311 0.451939
0.215111 -0.27651 0.475846
-0.327492 0.244052 0.456487
0.0369894 0.173102 0.475846
-0.203805 0.186821 0.0570171
-0.142517 -0.0591036 0.406336
0.0812265 -0.090697 0.451939
0.306185 0.258693 0.451939
-0.164098 -0.110898 0.451939
0.101857 -0.12198 0.451939
-0.1292 -0.154384 0.451939
0.171498 -0.169284 0.475846
-0.195479 0.170168 0.130889
-0.162722 -0.0194088 0.451939
-0.184354 0.00907943 0.475846
0.167241 0.0836832 0.270161
-0.12209 -0.114213 0.451939
0.27199 0.237606 0.451939
-0.162413 -0.0740272 0.286019
0.292002 0.0425956 0.475846
0.227507 0.221532 0.451939
0.185476 0.135461 0.287233
0.207288 -0.101711 0.475846
0.325044 0.173357 0.451939
-0.256622 -0.217142 0.475846
-0.176763 -0.265408 0.475846
-0.187027 0.138868 0.475846
-0.261995 -0.117475 0.475846
-0.0398793 0.228021 0.475846
0.132514 0.291492 0.451939
-0.327492 0.202652 0.466411
-0.29247 -0.123211 0.475846
0.0756387 -0.142724 0.451939
-0.222562 0.167029 0.475846
-0.0469667 0.194283 0.475846
0.202835 0.265329 0.475846
-0.178287 0.119998 0.334844
0.274271 -0.165499 0.451939
0.135548 0.0993334 0.475846
-0.0134395 -0.0465297 0.475846
-0.292203 -0.148174 0.475846
0.0987064 0.0553735 0.475846
0.202685 0.15457 0.139194
0.117278 0.294743 0.473316
-0.167157 0.113527 0.365143
-0.192939 0.165088 0.101175
-0.132518 -0.0223172 0.334434
-0.201731 0.274724 0.475846
0.0378074 -0.194777 0.475846
-0.284265 0.126342 0.451939
0.0933592 0.261737 0.451939
-0.303824 0.120112 0.475846
0.254655 -0.270884 0.475846
-0.085545 0.01218 0.451939
-0.227038 -0.196716 0.475846
-0.302069 -0.048266 0.451939
0.223674 -0.237421 0.475846
0.00187212 -0.284294 0.475846
-0.212998 0.205679 0.475846
-0.0773131 -0.23583 0.475846
-0.186127 0.294743 0.462999
0.274513 0.23752 0.475846
0.294359 -0.199941 0.451939
0.191999 0.133048 0.451939
0.0560925 -0.27023 0.451939
-0.195402 0.27627 0.451939
-0.295319 0.211372 0.451939
0.191572 -0.148572 0.475846
-0.0870961 0.224339 0.475846
-0.0334189 -0.153317 0.475846
0.327492 0.0961068 0.474065
-0.0524815 -0.294743 0.472621
-0.287783 0.226306 0.451939
-0.0897392 0.208808 0.475846
0.0532658 0.00876568 0.338932
0.0675403 -0.0534225 0.451939
0.192819 0.134838 0.225734
-0.0600267 0.108585 0.475846
-0.223557 -0.275845 0.475846
-0.146154 0.0715194 0.317421
-0.026261 -0.256401 0.451939
0.0274812 0.0363278 0.475846
-0.160973 -0.101157 0.278009
-0.0413625 0.294743 0.458563
-0.167997 -0.115206 0.232433
0.213858 0.187633 0.0762508
0.0565283 -0.0869717 0.451939
-0.163885 -0.106982 0.266001
0.193655 0.139747 0.23527
-0.158418 -0.0920215 0.344472
-0.21563 0.191048 0.0626925
0.0220338 0.155426 0.475846
0.233151 0.00630713 0.475846
0.123572 -0.195986 0.451939
0.152915 -0.0812813 0.343768
0.158747 0.0960835 0.4418
-0.177119 -0.10344 0.346142
0.169776 0.113708 0.475846
0.138958 -0.0794906 0.475846
-0.242346 0.108482 0.451939
-0.319754 0.0770295 0.451939
-0.196028 -0.168078 0.0550458
0.124834 0.181078 0.475846
-0.27159 -0.267782 0.451939
0.205542 0.190294 0.0684957
0.177287 0.0368819 0.451939
0.13323 -0.232291 0.475846
-0.20865 0.0493424 0.475846
-0.200948 0.179858 0.0315651
-0.285244 0.124955 0.451939
-0.321441 0.260599 0.451939
-0.0102219 -0.0228007 0.451939
-0.301636 0.286798 0.451939
-0.134494 -0.286465 0.475846
0.106327 0.294743 0.464209
0.153384 0.0683166 0.335198
-0.0331712 0.139575 0.475846
0.191462 -0.132124 0.190893
0.211891 -0.229978 0.451939
-0.0234233 0.00845769 0.451939
0.191213 0.131626 0.170509
0.19158 -0.132359 0.117984
-0.201976 0.183162 0.0554159
-0.0445431 0.109483 0.475846
0.0567761 0.224117 0.451939
-0.0632445 -0.0695697 0.451939
0.179859 0.108918 0.274418
-0.253364 0.226199 0.475846
0.310755 0.292518 0.475846
-0.173233 -0.125678 0.278225
0.083833 0.00856797 0.338194
-0.327492 0.152583 0.464127
-0.149361 0.0779339 0.374448
0.186356 0.151156 0.0984102
0.326088 -0.222351 0.451939
-0.28104 0.251262 0.451939
-0.178481 0.0075714 0.475846
-0.0535436 0.231977 0.475846
-0.0423155 -0.180189 0.475846
0.189327 0.143122 0.257612
0.11161 -0.167678 0.451939
0.0138338 0.17644 0.451939
0.168933 -0.0877084 0.211023
-0.18904 0.156309 0.212082
-0.209299 0.190942 0.451939
-0.0716968 -0.111261 0.451939
0.109055 -0.294233 0.476748
0.217626 -0.0749323 0.475846
0.222534 -0.19544 0.00916049
0.271195 -0.206571 0.475846
0.168333 0.115877 0.315631
0.205293 -0.108528 0.451939
0.301046 0.134086 0.451939
0.204955 -0.18912 0.0505001
-0.19246 -0.134123 0.146997
-0.17944 -0.138092 0.209777
0.153978 -0.160404 0.451939
0.319923 -0.273609 0.451939
-0.0913299 0.0922463 0.475846
-0.202002 -0.187813 0.475846
0.266814 -0.294743 0.463475
-0.156996 0.093204 0.361409
-0.147761 -0.0747346 0.436284
0.128588 0.128376 0.475846
-0.0267054 0.265567 0.475846
-0.0363404 0.128649 0.451939
0.314223 -0.0385157 0.475846
-0.127322 0.0776882 0.475846
0.205512 0.160223 0.130482
0.172681 0.0945629 0.370321
-0.185065 -0.285889 0.475846
0.0851557 -0.0804788 0.475846
0.0180236 -0.282696 0.475846
0.131386 0.0413179 0.475846
-0.00529495 -0.294743 0.461808
0.0497808 -0.0057968 0.350509
-0.285407 -0.294743 0.454318
-0.0995822 -0.0684879 0.475846
-0.156132 -0.142029 0.475846
-0.106386 -0.0714334 0.451939
0.144924 -0.208647 0.475846
0.152414 0.0540293 0.389553
-0.17611 0.102166 0.364219
0.191235 -0.0377694 0.475846
0.16835 -0.115911 0.201026
0.326206 -0.0286337 0.475846
0.0389515 -0.263888 0.451939
0.186651 -0.152514 0.132794
0.202668 0.204919 0.451939
0.196309 0.2489 0.475846
0.182878 -0.144967 0.234575
-0.314746 0.268353 0.475846
-0.205063 0.189336 0.0591732
0.207886 0.129765 0.475846
0.163936 -0.107083 0.273172
0.0564539 0.149552 0.475846
-0.0472264 0.0373243 0.451939
0.171021 -0.0956766 0.345549
0.185471 -0.00602371 0.475846
0.154835 -0.0888822 0.400579
-0.226127 0.0810906 0.475846
-0.215194 0.179591 0.00890289
-0.243396 0.206966 0.451939
-0.241164 0.224119 0.451939
-0.00982445 -0.0242252 0.475846
0.0801614 0.267263 0.451939
0.248394 -0.294743 0.470129
-0.155057 0.0593161 0.331078
-0.203633 0.0658592 0.451939
0.138123 -0.280485 0.475846
0.164759 0.108729 0.228558
-0.220799 -0.251865 0.475846
0.0907278 -0.00195104 0.451939
0.0791438 -0.246278 0.451939
-0.166201 0.0886766 0.213638
0.250228 -0.0496341 0.451939
0.166208 -0.0816165 0.359625
-0.257178 -0.20396 0.451939
0.163828 -0.0768568 0.384033
0.0729084 -0.0661371 0.451939
0.221597 -0.152954 0.451939
-0.045948 0.294743 0.454974
-0.0923905 0.170191 0.475846
0.252097 -0.271245 0.451939
-0.265257 -0.195752 0.451939
0.0528479 -0.294743 0.464529
0.135864 0.0447154 0.341114
-0.248395 -0.135547 0.451939
0.164098 -0.0773975 0.382566
-0.152391 -0.0539831 0.313992
-0.228626 0.101234 0.475846
0.114438 -0.149944 0.475846
0.189658 0.253071 0.451939
0.116246 -0.0882092 0.451939
-0.210655 0.196153 0.0638637
-0.036467 0.121011 0.475846
-0.188003 0.139331 0.270027
0.197702 -0.154858 0.201291
0.169825 0.0963659 0.451939
0.296169 -0.281759 0.451939
-0.201453 -0.0375045 0.475846
-0.325103 0.042852 0.475846
0.207597 -0.170066 0.475846
-0.254975 -0.27806 0.451939
0.196526 -0.142939 0.206342
-0.0797523 0.294743 0.473318
-0.0626905 -0.0149058 0.475846
0.0817089 0.00040206 0.333167
0.0957645 0.292778 0.476433
-0.176322 -0.248433 0.451939
0.175085 0.129382 0.268518
-0.214711 -0.151738 0.475846
0.0829751 0.0812971 0.475846
0.0724311 -0.0181457 0.451939
0.116573 0.0111563 0.342656
0.0784882 0.0425981 0.475846
0.25512 -0.0711989 0.451939
0.284368 -0.0978386 0.475846
0.113807 -0.191873 0.475846
-0.169965 0.089131 0.331655
-0.0225683 0.183845 0.451939
0.169058 -0.117328 0.221112
-0.188981 0.134392 0.271396
0.238683 -0.109307 0.475846
0.290856 0.234189 0.451939
0.00613433 0.0857768 0.475846
0.123006 0.261539 0.451939
-0.168448 -0.0961057 0.350128
-0.0999565 0.273789 0.475846
-0.256075 -0.260827 0.475846
0.185823 -0.150857 0.16849
-0.182178 0.0616239 0.475846
0.160953 0.0578041 0.475846
-0.327492 -0.12475 0.472999
-0.0447133 0.182814 0.451939
-0.121574 -0.0524841 0.451939
0.288046 -0.258641 0.475846
-0.246482 0.0499056 0.451939
0.163887 -0.099444 0.336976
-0.119686 0.0649024 0.451939
-0.149698 -0.0603064 0.350449
0.312038 -0.260072 0.451939
0.225107 0.133471 0.451939
-0.181619 -0.181173 0.451939
0.285978 0.236673 0.475846
-0.253699 0.113701 0.451939
0.204287 -0.0456602 0.451939
-0.139995 -0.0592003 0.336468
0.239459 -0.0119241 0.475846
-0.174219 -0.127649 0.241226
0.15203 -0.083272 0.264957
-0.223157 -0.205962 0.0047718
-0.197933 0.145068 0.1866
-0.217633 -0.0726241 0.475846
-0.0369324 0.220148 0.451939
0.178115 0.135441 0.254134
0.0499463 0.00888453 0.346393
0.29609 -0.292778 0.476153
0.146061 0.0713343 0.407226
-0.316022 -0.0211097 0.451939
0.138606 -0.0392351 0.358851
-0.0072505 -0.00193836 0.35219
0.298179 -0.285237 0.451939
-0.0279588 0.0500886 0.475846
0.227738 0.282306 0.475846
-0.0308016 0.119733 0.475846
-0.163489 -0.0855083 0.475846
0.0360551 0.0782713 0.451939
0.0189825 -0.106261 0.475846
0.0628245 0.00560218 0.475846
0.247701 0.178125 0.475846
-0.326326 0.0121304 0.475846
0.112308 -0.0586357 0.451939
-0.0556797 0.014268 0.475846
0.151755 0.149142 0.475846
0.0218645 0.281243 0.451939
0.274527 -0.221142 0.451939
0.0984589 0.197854 0.451939
-0.188309 -0.155829 0.164736
0.145165 -0.170584 0.475846
0.198745 0.176701 0.0997878
-0.166064 0.0946475 0.207136
-0.117082 0.258473 0.451939
0.0999955 0.120452 0.475846
0.204 0.157199 0.132039
0.255264 -0.043255 0.451939
-0.0353081 -0.0249956 0.475846
-0.197531 0.174045 0.0481173
0.145179 0.061429 0.336552
-0.139887 -0.0589862 0.376977
0.167107 -0.0834152 0.386572
0.261293 -0.198683 0.475846
-0.0991369 -0.289724 0.451939
0.167095 -0.1134 0.225057
-0.130172 0.116369 0.451939
0.148262 0.067731 0.439117
0.0454694 0.0216662 0.451939
0.119035 -0.26089 0.451939
-0.194256 0.162829 0.0649624
-0.0381289 0.0882724 0.475846
-0.1556 -0.0904121 0.442599
0.144429 0.12902 0.475846
-0.139118 -0.242704 0.475846
-0.0917362 0.00824562 0.451939
-0.173999 -0.251111 0.475846
0.298321 0.192839 0.451939
0.0986275 0.294743 0.466174
-0.187826 -0.154018 0.219948
-0.160669 0.0488462 0.475846
-0.101923 -0.0293327 0.451939
-0.252479 -0.154028 0.451939
0.0626645 -0.284867 0.475846
0.148705 0.0504228 0.343908
-0.0918668 0.263477 0.475846
-0.102014 -0.0844092 0.475846
0.0934459 -0.00782795 0.337291
0.0346434 0.118958 0.475846
-0.308551 -0.0741269 0.451939
-0.0512155 -0.00798401 0.451939
-0.263003 -0.265704 0.475846
-0.327492 -0.0246891 0.47079
-0.139651 0.129973 0.475846
0.0602889 0.00218609 0.475846
-0.0548306 -0.0448223 0.451939
0.147719 -0.074649 0.439996
0.174988 -0.0786321 0.451939
0.2495 -0.294224 0.476757
-0.211875 -0.110452 0.451939
0.104276 -0.166145 0.451939
-0.00879222 0.11132 0.451939
-0.233591 -0.278377 0.475846
-0.327492 0.151735 0.456349
-0.309626 0.087221 0.451939
0.146231 -0.0416639 0.324097
-0.0572063 0.294743 0.471821
-0.178461 0.132423 0.309208
0.31024 0.251821 0.451939
-0.0603447 -0.250878 0.475846
-0.205218 -0.261383 0.475846
-0.166869 0.148387 0.475846
0.148443 -0.0760984 0.368616
-0.188842 -0.126886 0.205905
0.0166869 0.158568 0.451939
0.218512 0.22582 0.475846
-0.101071 -0.190621 0.451939
0.178799 0.13681 0.148516
-0.288119 -0.043228 0.475846
-0.0378067 -0.0706281 0.475846
0.122985 0.0969024 0.475846
0.155889 -0.0267817 0.475846
-0.128961 -0.168544 0.475846
0.133297 0.246748 0.475846
-0.113915 0.14133 0.475846
-0.130402 -0.0856282 0.475846
0.156097 0.0613943 0.333073
0.170328 0.116126 0.372075
0.283665 -0.0543465 0.451939
-0.196766 -0.146465 0.211592
0.197421 -0.174053 0.0685895
-0.137592 0.191696 0.475846
0.0521918 0.104287 0.451939
-0.107536 -0.0772225 0.451939
0.077335 0.199031 0.451939
0.264499 -0.134355 0.475846
-0.303451 0.0672297 0.475846
0.0478675 0.277164 0.475846
-0.128742 -0.213505 0.451939
0.269556 -0.059391 0.451939
0.193668 0.173701 0.475846
-0.179641 -0.138494 0.230001
0.126344 -0.20132 0.475846
-0.129536 0.0275961 0.351891
-0.286775 0.0495271 0.475846
0.192552 -0.134303 0.2192
-0.116367 0.294743 0.454028
-0.162523 -0.0253113 0.451939
-0.147672 -0.264918 0.451939
0.205951 0.1611 0.0997397
0.0699898 -0.112199 0.451939
-0.0106468 0.0796703 0.475846
0.140412 0.110071 0.451939
-0.235041 -0.287367 0.451939
0.121282 -0.187438 0.475846
0.116411 0.214033 0.451939
-0.234631 0.0411453 0.475846
-0.0165144 -0.248079 0.451939
-0.0724976 -0.255097 0.475846
0.00210953 -0.162493 0.451939
-0.0213348 -0.236901 0.451939
-0.166882 0.247579 0.475846
0.223252 -0.0841443 0.451939
0.224248 0.280264 0.451939
-0.166314 0.0248089 0.451939
-0.137746 -0.0484227 0.3479
-0.0462917 0.0346787 0.475846
0.163115 0.205527 0.451939
-0.245206 -0.293719 0.45219
0.0806387 -0.0339347 0.475846
0.11018 0.233007 0.475846
0.202636 -0.240474 0.475846
-0.327492 0.0205809 0.458314
-0.13671 -0.12956 0.475846
-0.0802492 0.279057 0.451939
0.0432837 0.249762 0.451939
0.0964387 0.119619 0.475846
-0.300201 0.0334113 0.475846
-0.158602 -0.139977 0.451939
-0.0646703 -0.122171 0.475846
0.219214 0.0102741 0.451939
0.203501 0.176196 0.137547
0.0358321 0.192317 0.451939
-0.251874 0.163371 0.475846
-0.194774 0.166769 0.451939
0.206527 -0.245497 0.451939
-0.257214 -0.218958 0.451939
-0.189682 -0.128565 0.215222
-0.18907 -0.136148 0.107254
-0.194683 -0.22004 0.451939
-0.327492 -0.273199 0.455581
-0.0150995 0.247389 0.475846
0.166792 0.112795 0.25838
-0.00165451 0.266719 0.475846
-0.0225041 -0.156156 0.475846
0.0357287 0.00870982 0.347045
0.190353 0.129905 0.233266
-0.138354 0.233653 0.451939
-0.179511 0.108224 0.236672
0.17138 -0.0898396 0.451939
-0.192049 0.133299 0.233489
-0.091929 0.0530487 0.451939
0.182581 -0.114362 0.270504
-0.211223 0.11337 0.451939
0.15431 0.25292 0.451939
0.201072 -0.151344 0.152187
0.261977 -0.0994956 0.451939
-0.232282 -0.239001 0.451939
0.0284395 0.205486 0.475846
0.185028 -0.119256 0.224404
-0.168105 -0.0449067 0.451939
0.204966 0.263312 0.451939
0.161974 0.255864 0.451939
-0.314728 0.00607911 0.451939
-0.270233 -0.232276 0.451939
-0.212669 -0.204547 0.0122546
-0.251876 -0.019849 0.451939
-0.0672663 -0.260701 0.475846
-0.00763986 -0.0259361 0.475846
-0.219145 0.142305 0.451939
-0.0551357 -0.179658 0.475846
-0.32612 -0.289171 0.451939
0.0731735 0.117005 0.451939
0.146006 -0.0553479 0.33486
0.16606 -0.0813213 0.258208
0.148002 0.277463 0.475846
0.00992849 -0.268872 0.475846
-0.274684 0.128663 0.475846
-0.12503 0.0826804 0.451939
-0.0664188 0.205668 0.475846
0.199664 -0.148526 0.172702
-0.0545024 0.222144 0.451939
0.120954 0.129234 0.475846
0.0284289 -0.212332 0.475846
0.188664 0.27722 0.451939
-0.327129 -0.236972 0.476963
0.148365 0.0620125 0.334899
-0.0388121 0.123807 0.451939
-0.193398 0.0518805 0.451939
0.17506 0.0448555 0.451939
0.150228 0.242858 0.475846
-0.0903772 -0.209117 0.451939
0.185432 0.129475 0.123174
0.247879 0.240021 0.475846
0.172397 -0.102604 0.398008
-0.126704 -0.0968769 0.475846
-0.188868 -0.268999 0.451939
0.254308 0.0779534 0.475846
-0.168819 -0.11685 0.31419
-0.170419 0.104104 0.186402
0.161768 -0.294743 0.468942
0.250502 0.0851106 0.475846
0.0666917 0.211448 0.475846
-0.199495 -0.20218 0.451939
0.31911 0.0438813 0.475846
-0.209783 0.266282 0.451939
0.040078 -0.102148 0.475846
0.0692023 -0.101723 0.475846
-0.0612246 0.294743 0.461467
-0.310327 -0.13321 0.475846
-0.116275 0.194934 0.451939
-0.0992317 -0.286538 0.475846
0.203901 -0.187013 0.0326616
-0.00502616 0.208495 0.475846
0.16549 0.274675 0.475846
-0.325815 0.270643 0.451939
-0.0804202 0.267797 0.451939
-0.061763 0.0818385 0.475846
0.168759 -0.11673 0.302408
-0.102072 0.00605731 0.335521
-0.0955333 0.00812066 0.451939
0.111132 0.192475 0.451939
-0.178613 -0.136437 0.165785
0.296824 -0.182711 0.475846
-0.322884 -0.258782 0.451939
-0.153629 -0.0646832 0.269722
0.327492 -0.232482 0.456528
0.031016 -0.126333 0.451939
-0.261981 0.281337 0.451939
0.208356 0.173991 0.121159
-0.155792 -0.128957 0.475846
-0.189614 0.0638962 0.475846
-0.0829656 -0.0939269 0.451939
-0.184629 0.11846 0.23395
0.100723 -0.14048 0.475846
-0.149407 -0.214861 0.451939
-0.327405 -0.0920067 0.453255
0.179151 -0.0750732 0.451939
-0.0776261 -0.0789678 0.475846
0.21419 -0.0762927 0.451939
-0.0706465 -0.0312527 0.475846
0.293376 0.164914 0.475846
-0.327492 0.263948 0.459857
-0.237605 0.0260569 0.475846
-0.102014 -0.017063 0.475846
-0.182168 0.143546 0.201575
0.206746 0.229699 0.475846
0.242652 -0.150557 0.475846
-0.0744405 0.224034 0.475846
0.188622 -0.126443 0.207811
0.217177 0.0477242 0.451939
-0.200629 -0.15046 0.157598
0.112951 0.196669 0.475846
-0.146894 -0.0470459 0.344548
0.32651 0.0140466 0.475849
0.0686347 -0.0579104 0.475846
-0.295165 -0.222411 0.451939
-0.201402 -0.152636 0.0626464
-0.139891 0.229631 0.475846
0.327089 0.0242448 0.45238
-0.170017 -0.0920147 0.201305
-0.275387 0.228039 0.475846
0.299911 -0.0469456 0.475846
-0.254822 0.253626 0.475846
0.0389131 0.14338 0.475846
-0.0468088 -0.20652 0.475846
0.32651 0.0932639 0.476864
-0.254897 -0.0528934 0.451939
0.259355 -0.208991 0.475846
0.215206 0.179611 0.00775048
0.082145 0.291347 0.475846
0.0465191 -0.0865812 0.475846
0.000804812 0.147425 0.451939
0.176311 -0.103514 0.368041
-0.119865 0.23337 0.451939
0.0403697 -0.0907265 0.451939
-0.175681 -0.130573 0.252479
0.27132 -0.218879 0.451939
-0.248718 0.0239651 0.451939
0.168986 0.0914891 0.345237
-0.160732 -0.001452 0.475846
-0.0441925 -0.145529 0.451939
0.121385 0.0150806 0.475846
0.157108 -0.0934272 0.430181
0.255979 0.00993863 0.475846
-0.087208 -0.0523575 0.475846
0.0380313 -0.0308897 0.475846
-0.327492 0.0850863 0.474333
-0.0497157 0.292778 0.47714
0.0159321 -0.286547 0.451939
-0.172679 -0.12457 0.240256
-0.160453 0.0989101 0.435033
-0.176637 0.111593 0.364822
-0.176803 0.294743 0.46165
0.193426 -0.140003 0.092909
-0.184359 -0.147929 0.118205
-0.159367 -0.0679352 0.360903
-0.0848243 0.294743 0.469315
0.299777 -0.294743 0.461928
-0.188137 -0.125476 0.1364
-0.280633 -0.201328 0.451939
0.0370623 0.268778 0.475846
0.201133 0.174889 0.145812
-0.0954744 0.160258 0.475846
0.214091 -0.133203 0.451939
-0.0393169 -0.0572089 0.451939
-0.149207 -0.181208 0.451939
0.0620817 0.294743 0.463743
0.143699 0.0666099 0.323581
0.257839 -0.235106 0.475846
-0.145226 0.0696627 0.393006
-0.179795 0.109948 0.451939
0.0414195 0.132122 0.451939
0.0295571 0.123892 0.451939
0.109692 -0.294743 0.474186
0.304884 -0.0796539 0.475846
-0.157758 -0.222753 0.475846
-0.266803 0.151307 0.451939
0.313435 0.294743 0.469883
-0.269558 -0.041851 0.475846
-0.0983323 -0.121952 0.451939
-0.203494 0.0432464 0.451939
0.31761 0.0166809 0.451939
0.233943 -0.0124661 0.451939
0.0781827 -0.201826 0.475846
0.165741 -0.103552 0.348509
-0.275671 -0.104068 0.475846
0.19419 0.026611 0.451939
-0.0525522 0.0942118 0.451939
-0.0820729 0.209176 0.475846
-0.216665 0.186733 0.0584244
-0.194312 0.175678 0.475846
0.181285 -0.141781 0.157414
-0.294934 -0.264853 0.475846
0.185526 0.124939 0.298912
-0.11315 0.172755 0.451939
0.110143 -0.0971168 0.451939
0.199151 0.1475 0.160644
