-0.182322 0.123162 0.14263
0.183414 -0.0394469 0.0730239
-0.201719 -0.13722 0.241914
0.206827 -0.165336 0.0758597
0.0396358 -0.210424 0.580636
0.192436 -0.192023 0.250668
-0.19809 0.159791 0.456163
0.0542744 -0.190669 0.596188
0.0497962 -0.00438316 0.586618
-0.104818 0.144675 0.586618
-0.18523 -0.193809 0.104593
0.189826 -0.142563 0.287374
-0.186976 -0.171975 0.421071
0.121406 -0.031326 0.596188
0.0647367 -0.0738656 0.58981
-0.334438 -0.158473 0.596188
-0.205363 -0.131568 0.58981
-0.207081 0.0207181 0.121302
-0.275684 0.0974996 0.58981
-0.192727 0.0746593 0.586618
-0.101831 -0.128692 0.586618
0.0419053 0.0486711 0.58981
0.205638 -0.168995 0.17702
-0.186816 0.208276 0.11856
0.222346 -0.086024 0.58981
0.075176 -0.124452 0.580636
0.0413029 0.199489 0.586618
0.0271713 -0.00436385 0.58981
-0.224068 0.142256 0.580636
0.187897 -0.116573 0.181695
-0.134533 -0.0958466 0.580636
0.0213757 0.112668 0.580636
-0.16401 -0.173609 0.58981
-0.237611 0.200541 0.586618
0.185511 -0.076901 0.112623
0.0495201 -0.0564431 0.58981
0.230413 -0.00855681 0.522694
0.185951 -0.0753954 0.407138
0.220203 0.122451 0.586618
-0.179061 0.0710343 0.00878415
-0.123554 -0.187583 0.586618
-0.19964 0.138811 0.455826
0.289203 -0.112681 0.586618
0.0276203 -0.0424801 0.596188
-0.184426 0.00532341 0.544951
-0.176837 -0.0512028 0.0660559
-0.174322 0.0499595 0.552343
0.207702 0.097626 0.527025
-0.246958 0.211424 0.591028
0.184763 0.141843 0.580636
-0.181759 0.114233 0.12289
-0.0284546 0.0316479 0.596188
-0.206207 0.0349282 0.201701
0.0645947 -0.212165 0.580636
-0.139094 0.0214991 0.580636
-0.20556 -0.0688298 0.295305
-0.212758 -0.0176849 0.58981
0.252555 -9.55462e-05 0.586618
0.0313372 -0.0673486 0.580636
0.23423 -0.132808 0.580636
0.208075 0.112715 0.239707
-0.110881 0.0106291 0.520939
0.186689 -0.0774467 0.316455
0.185387 -0.084727 0.0282553
-0.198498 0.150912 0.483292
0.259505 0.16822 0.580636
0.21217 0.0341023 0.0823252
0.206961 -0.156552 0.132459
0.182943 -0.0345302 0.035515
0.209297 0.070326 0.480022
-0.207512 -0.0386953 0.081439
-0.207283 -0.0587329 0.106012
0.210065 -0.0194082 0.424978
-0.185679 0.00793929 0.508009
-0.174322 0.0759432 0.56705
0.184101 0.00536545 0.319161
-0.215036 -0.0906064 0.586618
-0.206315 -0.0135038 0.21378
-0.0219851 -0.021617 0.586618
0.190554 -0.189225 0.0262543
0.188005 0.209572 -1.38778e-17
0.185382 -0.00987369 0.586618
0.187678 0.122874 0.0930189
-0.0623268 -0.194002 0.586618
0.208123 -0.152363 0.038581
-0.30097 -0.0307838 0.596188
-0.323042 0.0103201 0.580636
0.00197226 -0.038388 0.596188
0.199706 -0.0501756 0.580636
-0.1995 -0.176143 0.170215
0.18074 0.144011 0.582337
-0.336375 -0.0733968 0.588107
-0.201398 -0.103119 0.553929
-0.0800116 -0.165042 0.58981
0.210064 0.0708216 0.247376
0.15135 -0.168789 0.586618
-0.0506685 -0.119172 0.596188
0.00550619 -0.0340794 0.580636
0.120344 -0.105686 0.580636
0.323757 -0.204047 0.596188
0.184589 0.0503821 0.225044
-0.179546 -0.0415219 0.439359
0.16463 -0.0727727 0.58981
-0.185293 0.152385 0.393098
0.209269 -0.0991319 0.344297
0.183238 0.0436964 0.00882429
-0.199861 -0.142264 0.405427
0.209356 0.0817388 0.335313
0.189153 -0.152565 0.0947265
0.235681 0.204298 0.580636
0.210799 -0.112054 0.0711591
0.18835 -0.139811 0.0666729
0.254528 0.0619207 0.58981
0.185641 -0.0706424 0.185112
-0.184911 0.121257 0.580636
0.291398 0.0106291 0.585444
0.209332 0.0767339 0.47336
-0.182994 0.129859 0.198507
-0.194887 0.0106291 0.52191
0.174833 -0.205501 0.596188
-0.204723 0.046076 0.00881991
0.18837 0.11448 0.275547
0.210228 -0.0733888 0.405515
-0.0486097 -0.155474 0.580636
-0.105323 0.0931775 0.596188
0.287349 0.0739123 0.580636
0.202871 -0.0763538 0.00943403
-0.194816 0.0605617 0.496399
-0.243677 -0.156988 0.596188
-0.201677 0.137184 0.0287994
-0.205909 0.0472135 0.064441
-0.204126 0.00425341 0.454071
0.210347 -0.0380159 0.393409
-0.129016 -0.0106185 0.563938
-0.101309 -0.0719484 0.586618
0.212692 -0.0664252 0.0596268
0.0867839 -0.0528092 0.596188
0.209657 0.0785472 0.264736
0.336403 0.096803 0.591577
0.0165217 0.174941 0.58981
-0.176128 0.0115403 0.0710521
0.244817 -0.0160795 0.58981
0.210421 -0.0122833 0.386008
-0.182319 -0.142854 0.209516
-0.0768487 0.0620615 0.596188
0.18074 0.13189 0.57915
-0.178542 -0.0497028 0.331919
-0.31017 0.166393 0.580636
-0.164468 -0.197814 0.580636
-0.0613794 0.01178 0.58981
-0.20116 -0.156316 0.148552
-0.294151 0.080023 0.586618
0.19598 0.00640541 0.505105
-0.254412 -0.0377004 0.580636
-0.0545573 -0.173095 0.580636
-0.207135 0.00291033 0.123688
0.204315 0.209934 0.58981
-0.203634 -0.112484 0.231888
-0.319229 -0.213377 0.596189
-0.119492 0.150161 0.58981
0.100619 0.0806221 0.596188
-0.203635 -0.0841713 0.461479
0.18074 -0.102877 0.576837
0.191979 0.196741 0.189504
0.19605 0.130602 0.580636
0.199411 0.243214 0.000223864
-0.100133 -0.0106185 0.548779
-0.184744 0.147776 0.34037
0.213613 -0.0120818 0.0348403
-0.18519 0.167476 0.252778
-0.201384 0.134136 0.236132
-0.2058 -0.0731232 0.185751
-0.122165 0.0494341 0.586618
-0.179412 -0.00617857 0.425982
0.260733 -0.0398425 0.580636
0.11462 0.150587 0.586618
0.339978 0.0810094 0.584582
0.185729 0.0775843 0.142029
-0.207683 -0.0214744 0.0631279
0.221786 -0.101933 0.586618
-0.182195 0.165015 0.596188
0.321492 0.207515 0.586618
-0.176136 -0.0400886 0.0751785
0.191433 -0.182961 0.222205
0.324282 0.134157 0.580636
-0.324966 0.149316 0.58981
-0.31234 -0.0506168 0.596188
0.233952 0.0106291 0.567081
-0.20381 -0.0849172 0.43613
0.212489 -0.0551391 0.073105
0.257089 -0.0619183 0.580636
0.331554 0.136052 0.586618
0.191087 -0.145666 0.469898
0.203185 -0.175177 0.377388
0.194136 0.197224 0.238335
-0.186137 -0.130263 0.588991
-0.217728 0.122802 0.586618
0.187093 -0.0929554 0.242182
0.317854 -0.1178 0.580636
-0.176923 -0.0682747 0.158669
0.0463847 0.0896949 0.58981
-0.0874467 -0.0850197 0.586618
-0.198484 -0.171838 0.317066
-0.159437 0.136482 0.58981
0.017131 -0.153498 0.596188
0.238084 0.00521062 0.58981
0.282993 0.0789975 0.58981
0.207329 0.129831 0.204723
0.210424 0.0504318 0.364846
-0.278587 -0.145986 0.58981
-0.201229 0.125335 0.390227
0.312985 -0.107555 0.580636
0.201767 -0.128408 0.588991
-0.134857 0.217458 0.591345
0.0582727 0.0408961 0.596188
0.226376 0.18123 0.586618
-0.184958 0.142234 0.420751
0.114084 0.208698 0.586618
-0.205427 -0.0946705 0.179234
0.0634682 -0.151179 0.596188
-0.0601721 -0.0311161 0.580636
-0.180013 -0.117695 0.168694
-0.196057 0.0399776 0.586618
-0.151156 -0.19523 0.58981
0.232977 -0.0038341 0.519145
0.2125 -0.0346259 0.0596194
-0.000361711 0.129354 0.580636
0.253006 0.153441 0.580636
0.195693 -0.220274 0.0660925
-0.206112 -0.0439267 0.136837
0.331792 0.0953181 0.586618
-0.122955 -0.00308457 0.58981
-0.183122 0.129638 0.221392
0.211806 0.0445585 0.0177418
0.337366 -0.155005 0.598769
0.183645 0.219081 0.00331543
-0.126654 0.155819 0.586618
0.101205 0.0106291 0.556023
-0.250668 0.211032 0.580636
0.183936 -0.043847 0.228426
0.266877 -0.135837 0.580636
0.114063 -0.00102955 0.586618
-0.334653 0.105827 0.596188
-0.0739691 -0.214739 0.598884
0.210236 -0.0722357 0.308937
0.313614 -0.120171 0.596188
0.191888 0.213857 0.0428353
0.179498 0.0106291 0.5694
0.179451 0.0542142 0.565283
-0.204131 -0.052738 0.340503
0.209867 -0.0618167 0.339598
0.210849 -0.0498217 0.234078
-0.265823 -0.163313 0.586618
-0.180065 0.0787327 0.134023
-0.0243445 0.088416 0.58981
-0.326609 0.218225 0.589259
0.191342 0.0126262 0.58981
-0.0744137 -0.139957 0.580636
-0.0862631 0.0971415 0.586618
-0.138933 0.0106291 0.525336
0.209421 -0.0704173 0.389463
-0.0011915 -0.191861 0.580636
-0.198392 0.188621 0.189089
0.240058 -0.0106185 0.545472
-0.22029 -0.0186292 0.596188
0.208908 0.0992166 0.580636
-0.255388 0.0414231 0.586618
0.3371 0.00802422 0.598557
0.207322 -0.10206 0.534771
-0.17585 -0.0250487 0.0449816
0.179451 -0.159893 0.586865
-0.190455 -0.184642 0.35734
-0.174322 0.125956 0.558157
-0.193544 -0.0995216 0.580636
-0.0918718 0.0203846 0.58981
-0.188601 -0.113332 0.596188
-0.0210378 0.213583 0.596895
-0.202192 0.118534 0.207277
-0.185528 0.196665 0.0700769
0.114248 0.0307299 0.596188
0.129386 0.00974807 0.508946
0.193018 -0.0052597 0.00892247
-0.22208 -0.194607 0.580636
0.160054 -0.0491816 0.58981
-0.0841202 -0.0106185 0.536989
-0.174322 0.046217 0.563082
0.173638 -0.0318212 0.58981
0.311537 -0.173678 0.58981
0.20653 -0.0106185 0.535498
0.187156 0.177698 0.58981
0.168381 -0.0502536 0.580636
0.209621 0.0584803 0.449584
0.182184 -0.0108313 0.116058
-0.180468 -0.135653 0.0707
0.191114 0.143577 0.489505
0.184108 -0.0543979 0.0652287
-0.234741 0.010842 0.596188
0.10302 -0.0696075 0.580636
0.18714 0.0955949 0.227321
-0.17868 -0.0593802 0.25027
-0.185438 0.187694 0.128433
0.335256 0.202927 0.580636
-0.183386 -0.00529135 0.574812
0.214276 0.0352427 0.58981
0.275114 -0.176371 0.580636
-0.0380149 -0.100574 0.58981
-0.217635 -0.172181 0.58981
0.200805 -0.111061 0.586618
0.140035 0.154421 0.580636
-0.238509 -0.152106 0.596188
-0.250921 0.130776 0.58981
0.186697 0.0774499 0.302583
0.210526 0.0586512 0.30461
-0.173851 -0.0500909 0.587643
-0.17761 -0.0220191 0.124245
0.186671 0.0908782 0.188564
-0.336736 0.204374 0.590071
-0.0681986 0.0120999 0.596188
-0.176642 -0.00626059 0.129921
-0.203346 -0.0696685 0.429354
0.184967 -0.0707125 0.073581
-0.307053 0.0717195 0.586618
0.0648252 0.0381476 0.596188
-0.0309258 -0.148501 0.586618
0.191659 -0.192209 0.183936
0.185792 0.00114141 0.4904
-0.231715 0.0320073 0.580636
-0.173033 -0.0812518 0.56265
0.18933 -0.117079 0.52243
0.129713 -0.183356 0.586618
0.00507641 -0.207983 0.596188
-0.0879437 -0.171324 0.580636
0.134447 0.0106291 0.531974
-0.0805468 0.0233511 0.586618
0.113947 0.121347 0.58981
0.141585 0.0468466 0.58981
0.302268 -0.0381721 0.580636
-0.178844 0.0607518 0.0798421
0.187522 -0.120516 0.0878203
0.213081 -0.212122 0.592785
-0.169835 0.0106291 0.571618
-0.204301 -0.0417404 0.434545
0.204632 -0.00608215 0.580636
0.293078 -0.000294507 0.54354
0.290409 -0.0719703 0.586618
-0.107632 -0.0106185 0.563751
-0.0549138 0.199187 0.58981
0.185471 -0.020042 0.465571
-0.169598 0.0489917 0.586618
-0.205641 0.0516962 0.0895702
-0.20808 -0.0495667 0.0185657
0.189032 0.154227 0.0598653
0.213563 -0.0407576 0.0396484
0.112439 -0.101247 0.586618
-0.00306565 0.0370431 0.596188
0.204824 -0.14178 0.487417
-0.233804 -0.00280814 0.596188
-0.227762 0.0106291 0.572401
-0.079842 0.1186 0.596188
0.010861 -0.000890029 0.501095
-0.176118 0.0118196 0.0638109
0.208508 -0.109219 0.346213
0.00940913 0.183679 0.580636
-0.24331 0.171408 0.586618
0.0786619 -0.217097 0.592477
-0.195647 0.172346 0.440302
-0.177896 -0.0582535 0.262759
0.206328 0.0314032 0.58981
0.211535 -0.0995633 0.0915307
0.183585 -0.122589 0.596188
-0.337575 -0.0470698 0.594631
0.160225 0.201727 0.58981
-0.207002 -0.0224673 0.0348083
-0.158705 -0.152972 0.58981
-0.183013 -0.171905 0.0465981
-0.0266569 -0.0867954 0.58981
0.280915 0.10351 0.58981
0.311682 0.116124 0.580636
0.178468 -0.0106185 0.572575
-0.180075 0.0193907 0.489366
0.162697 0.168139 0.58981
-0.282114 -0.206174 0.580636
0.211459 -0.00978509 0.517448
-0.180481 0.0794478 0.196598
0.127602 0.204577 0.580636
-0.205587 -0.110706 0.031529
-0.202643 -0.118208 0.294486
-0.208767 -0.0259339 0.596188
-0.179186 -0.00958513 0.588614
0.162461 -0.0650831 0.596188
-0.197995 -0.161317 0.456242
0.1858 -0.0778186 0.470974
0.053575 -0.170291 0.586618
0.172015 0.126959 0.586618
-0.244289 -0.199889 0.58981
-0.181787 0.113956 0.129802
-0.182755 -0.163129 0.0906417
-0.20523 0.0631297 0.0251064
-0.196762 -0.181997 0.345157
-0.184636 0.126796 0.493966
0.18074 0.0632414 0.580006
0.211853 0.017551 0.222101
-0.203179 -0.0739763 0.448622
-0.271594 -0.0888116 0.580636
-0.0778076 0.0384022 0.596188
0.0385694 -0.202861 0.58981
-0.144084 0.00307418 0.586618
-0.162674 0.0692941 0.586618
0.134045 -0.0679184 0.586618
-0.220642 0.0106291 0.582325
0.22259 0.159762 0.586618
0.201922 0.200338 0.580636
0.189935 0.174887 0.0396508
0.0788196 -0.0658575 0.586618
0.212276 -0.00950324 0.0669663
-0.198754 0.16242 0.361746
-0.18268 0.112786 0.286402
0.20979 -0.0146641 0.45538
-0.20631 -0.0370176 0.213734
-0.0847241 -0.102067 0.596188
-0.300121 0.0588748 0.58981
0.185213 0.0501514 0.438824
0.166947 -0.0106185 0.546956
-0.0134631 0.055634 0.580636
0.303366 -0.148601 0.580636
-0.183972 0.134075 0.325182
-0.311856 0.00949182 0.586618
-0.176255 0.0141264 0.0834441
-0.145493 0.0948957 0.596188
0.191217 -0.196077 0.0795562
0.148018 -0.101357 0.586618
0.204297 0.0418637 0.586618
-0.178503 -0.0142999 0.328613
-0.270204 0.0293106 0.580636
-0.143781 -0.188745 0.586618
0.307683 -0.211516 0.591142
0.211609 -0.0661516 0.253882
0.185221 -0.0202296 0.438993
-0.190885 0.0365351 0.00883417
-0.194389 -0.164848 0.514365
-0.233416 0.18724 0.596188
-0.314277 -0.198751 0.58981
-0.180429 -0.0890634 0.447012
-0.199431 0.140439 0.465636
-0.294416 0.176726 0.580636
0.138024 0.164363 0.586618
-0.203683 -0.0851175 0.448451
0.189473 -0.141787 0.235583
0.219361 0.00549501 0.586618
0.203561 0.148765 0.567779
0.128142 -0.0975072 0.58981
-0.270438 0.0726535 0.58981
-0.176919 -0.0729012 0.158081
-0.204361 0.0734152 0.203211
0.170741 0.185375 0.586618
-0.0207082 -0.03618 0.58981
0.226133 0.11675 0.586618
-0.0167321 0.0506283 0.580636
0.205289 -0.173004 0.182837
0.325629 0.0925445 0.586618
0.0450137 -0.0409496 0.58981
-0.0129751 0.151646 0.586618
-0.177164 -0.0562527 0.184566
0.212134 -0.0653074 0.114749
0.245828 0.213072 0.595506
-0.269367 0.218993 0.580636
-0.17983 -0.0833388 0.429753
0.0712981 0.106595 0.586618
-0.204624 0.0411376 0.580636
-0.111205 0.0543405 0.586618
-0.186211 0.200579 0.150587
-0.258028 0.0573608 0.596188
-0.189617 -0.0120414 0.580636
-0.336586 -0.180733 0.592447
-0.007999 0.194692 0.580636
-0.0589541 -0.0106185 0.575672
-0.301763 0.0099618 0.559008
0.18909 -0.140511 0.182887
-0.207361 -0.0245795 0.0984819
0.150271 0.157049 0.586618
-0.203763 0.0940067 0.0196239
-0.174322 -0.000568986 0.549254
0.209368 -0.0756387 0.397893
-0.156722 0.165977 0.586618
-0.138461 0.105499 0.58981
0.252415 0.100471 0.580636
-0.177808 -0.0692332 0.253103
0.139872 0.111427 0.596188
-0.177267 -0.0760326 0.122273
-0.201186 -0.152714 0.174887
0.206289 -0.177345 0.0376268
0.262668 0.0106291 0.543718
0.209794 -0.127593 0.0556403
-0.203726 0.0840989 0.261611
0.0211622 0.0521494 0.586618
-0.177948 -0.0888858 0.183372
-0.231506 0.127242 0.586618
0.189204 -0.123273 0.342443
-0.149321 0.0847003 0.596188
0.25673 0.0195979 0.58981
-0.282988 0.180847 0.586618
0.0783219 -0.176563 0.596188
-0.171432 -0.206611 0.58981
-0.0625692 -0.130116 0.596188
-0.198167 -0.18896 0.212995
-0.204308 0.07843 0.114737
-0.184568 0.168481 0.142168
0.183779 0.0356651 0.286126
0.191148 0.153317 0.415582
0.0896023 -0.0523233 0.58981
-0.181732 0.0957326 0.529694
-0.174322 -0.0707817 0.545894
0.335985 0.105453 0.589314
0.209602 -0.0487134 0.475064
0.279669 0.172946 0.58981
0.0808555 0.143289 0.580636
-0.103603 -0.140654 0.580636
-0.172265 0.00809109 0.596188
-0.203914 0.0888725 0.0648634
-0.0153554 0.0145227 0.586618
-0.221515 -0.0465755 0.586618
0.213007 0.0197135 0.0122277
-0.179532 -0.00539943 0.438791
-0.203643 0.0860605 0.256669
-0.294525 0.0106291 0.55975
-0.204638 0.0185279 0.391469
-0.154699 -0.0835705 0.580636
0.187194 -0.108562 0.131402
0.209676 0.0747042 0.342944
-0.0949797 0.0106291 0.562217
-0.174333 -0.116749 0.58981
0.288062 0.14781 0.596188
-0.0800821 -0.111577 0.58981
-0.0853939 -0.0574562 0.596188
-0.307053 -0.149666 0.586618
0.205406 -0.174456 0.158246
-0.0993603 -0.104395 0.58981
0.0707508 -0.00956382 0.587643
0.213074 0.0173539 0.0339191
-0.138236 -0.0106185 0.556697
0.205373 -0.179415 0.121652
-0.324784 -0.190951 0.596188
-0.183818 0.135648 0.286982
-0.183388 -0.113794 0.560977
-0.266823 -0.0823438 0.58981
-0.318219 -0.151533 0.586618
-0.202498 0.0945522 0.500241
-0.0496008 -0.0833724 0.586618
0.140876 -0.20577 0.586618
0.208129 -0.111843 0.366623
0.21138 0.0501177 0.0934861
0.086166 -0.0817043 0.596188
-0.224251 -0.0562648 0.58981
-0.155498 0.0584962 0.580636
0.065273 -0.199467 0.58981
-0.145531 0.155517 0.580636
0.0667787 -0.173861 0.586618
-0.00854468 0.114306 0.596188
-0.182858 -0.153281 0.182066
-0.179426 -0.11498 0.128135
-0.231998 0.119229 0.596188
-0.337784 -0.0438747 0.595766
-0.241747 0.0105295 0.536837
-0.102352 0.16496 0.580636
0.209517 -0.0583189 0.372565
0.193723 -0.203223 0.186453
-0.186965 -0.164167 0.48447
0.137946 -0.106039 0.586618
0.0553992 0.0106291 0.540506
0.0884456 -0.0537588 0.596188
-0.18882 -0.205094 0.17934
0.286682 -0.0886188 0.596188
0.211328 -0.032313 0.175635
-0.0965287 0.108743 0.58981
0.210943 -0.0709386 0.326952
-0.00495115 -0.17163 0.596188
-0.185214 0.0594506 0.58981
0.208703 -0.136339 0.104704
0.204772 0.164651 0.305613
-0.177638 -0.0982006 0.0741733
-0.173033 0.0473315 0.575975
0.0862938 -0.169793 0.596188
0.20487 0.141794 0.480252
0.198409 -0.210775 0.14692
0.163547 0.0817612 0.586618
-0.184864 0.167254 0.201009
0.11337 -0.130944 0.586618
0.199605 0.166258 0.504093
-0.203207 0.0914342 0.340774
0.203555 -0.171776 0.383741
-0.337914 -0.175587 0.5991
0.185793 0.159506 0.58981
0.166779 -0.15486 0.596188
-0.0482119 -0.220307 0.580636
0.332278 -0.209715 0.580636
0.206172 0.156519 0.147758
-0.202365 -0.106343 0.421196
0.205411 -0.199846 0.00195361
-0.0793763 -0.187862 0.586618
0.204777 0.164285 0.307975
-0.307791 -0.0387095 0.596188
0.209814 -0.0790349 0.447348
0.196526 0.190301 0.310375
0.188558 0.107227 0.489021
0.189992 -0.00974646 0.587643
0.22416 -0.182288 0.596188
0.154896 0.116076 0.580636
0.202948 0.185164 0.304992
0.336509 0.122143 0.596188
0.0340482 0.0283065 0.586618
0.188554 -0.104728 0.581104
0.24981 -0.161402 0.596188
0.188592 0.129963 0.185472
0.205063 -0.128556 0.568433
0.295328 0.0401701 0.586618
-0.21539 0.146307 0.596188
-0.207285 -0.0743817 0.105319
0.0471967 -0.0588937 0.596188
-0.189101 -0.0875055 0.586618
-0.179302 -0.0480106 0.413085
-0.0605842 0.0893624 0.58981
0.208531 0.0883781 0.510801
0.177959 0.123059 0.586618
0.210046 -0.066572 0.324565
-0.294822 -0.0150007 0.580636
-0.307482 -0.122163 0.580636
0.188644 -0.145847 0.0657619
0.205741 0.140589 0.394198
0.122794 0.127996 0.580636
0.274024 -0.0208085 0.58981
0.327879 0.00750248 0.586618
0.186614 -0.0833273 0.425641
0.156902 0.220778 0.58232
0.215142 0.129793 0.596188
-0.177807 -0.0585518 0.253215
0.185107 0.0658945 0.135129
0.204598 -0.159716 0.366814
0.210878 -0.0401781 0.334915
0.130824 0.104385 0.596188
0.187372 0.105018 0.188501
0.240252 -0.0763958 0.586618
-0.179706 -0.127944 0.0522314
0.191458 0.128921 0.586618
-0.303697 0.0353486 0.586618
-0.256248 -0.0397384 0.580636
0.212034 -0.0667493 0.125545
0.20929 0.0796423 0.413811
0.212222 -0.0589179 0.10201
0.185197 -0.0819664 0.00948966
-0.179254 -0.0670869 0.310703
0.326288 -0.0816734 0.596188
-0.0663026 0.0688819 0.586618
-0.0779391 0.212492 0.580636
0.202716 -0.205941 0.145149
-0.307842 -0.208586 0.58981
-0.0881977 0.127611 0.580636
0.325727 0.0434136 0.586618
-0.313345 0.183322 0.580636
0.207515 -0.143466 0.177668
0.13214 -0.135682 0.586618
0.315857 0.21353 0.596188
0.179451 0.044461 0.5636
-0.327804 0.0730795 0.58981
0.00644082 0.214004 0.598041
-0.283109 -0.0125843 0.586618
-0.186683 0.213285 0.0716923
-0.175152 0.0685179 0.586618
-0.203106 0.0961377 0.282396
-0.173033 -0.16232 0.573676
0.257413 0.0847373 0.58981
-0.202493 0.0947843 0.498959
0.208092 -0.144228 0.107995
0.126343 -0.20745 0.586618
0.0400848 -0.102979 0.58981
-0.177769 -0.0616774 0.249098
0.204894 0.188117 0.0365213
0.18763 0.109462 0.194646
0.000182271 0.0547603 0.580636
0.114574 0.0189447 0.586618
0.261306 0.215201 0.597477
-0.0658092 0.21295 0.596188
-0.131237 -0.0131483 0.586618
-0.204928 0.0574057 0.297689
-0.202258 0.0936481 0.534146
0.307417 0.0616972 0.596188
-0.179131 -0.0958604 0.252769
-0.206861 -0.0266647 0.0513975
0.14272 -0.0188773 0.596188
-0.179569 -0.0429815 0.44181
0.210811 -0.0405347 0.232332
-0.311299 0.00905991 0.58981
-0.203897 0.0862157 0.132642
0.186952 -0.0878741 0.260465
-0.182189 0.0996879 0.482544
-0.269116 -0.0419191 0.596188
-0.14297 -0.0451061 0.58981
0.182751 -0.0146855 0.176537
0.185703 -0.071565 0.386087
-0.249392 -0.1236 0.580636
0.0184584 -0.11987 0.58981
0.185013 -0.0646157 0.130844
-0.178983 0.0558576 0.303625
-0.0387461 -0.155626 0.58981
0.145723 -0.19849 0.586618
-0.322327 -0.0263648 0.580636
-0.205263 -0.0319447 0.328973
-0.228094 -0.178542 0.596188
0.119924 0.000264689 0.586618
-0.199417 -0.16563 0.264722
-0.20224 0.0394856 0.495773
0.212066 -0.0973048 0.0514553
0.185074 -0.0588582 0.283275
-0.189986 0.147673 0.586618
0.296216 -0.075019 0.596188
0.223618 0.0106291 0.556531
0.18943 -0.118014 0.422689
0.105609 0.130684 0.580636
-0.0330369 0.179383 0.596188
-0.179012 -0.069447 0.381674
-0.181832 -0.10901 0.433815
-0.209851 0.174686 0.596188
0.189984 0.151437 0.239318
-0.204069 -0.0681202 0.356003
0.261955 -0.203385 0.58981
-0.0497687 -0.0954781 0.58981
-0.320551 0.0106291 0.577129
-0.30009 0.0159841 0.580636
0.023101 -0.217678 0.590898
0.204285 -0.174953 0.277605
-0.248786 0.0535687 0.580636
-0.0771545 -0.115024 0.586618
0.21333 -0.0123926 0.0660487
0.190835 -0.193338 0.0389055
-0.341109 -0.211262 0.581744
-0.0930094 -0.0922337 0.596188
0.283999 0.00474951 0.580636
-0.309065 0.166954 0.58981
-0.14816 -0.036199 0.580636
-0.181443 -0.127879 0.238206
-0.1772 -0.0483987 0.0996351
0.11667 -0.199947 0.580636
0.189977 0.174329 0.0512511
0.243187 0.00732874 0.587643
-0.293926 0.154682 0.580636
-0.170328 -0.111124 0.596188
-0.158187 -0.12457 0.580636
0.119161 0.214234 0.595469
-0.340736 0.0603958 0.583771
-0.178821 -0.0595269 0.361508
0.185404 0.0705434 0.146084
0.20526 0.177271 0.109438
-0.0976467 -0.0973604 0.596188
-0.00332245 -0.0276538 0.586618
-0.233733 0.209142 0.596188
-0.0393873 0.131165 0.580636
0.284556 0.03317 0.586618
0.329217 0.151869 0.58981
-0.323971 0.192756 0.586618
-0.202661 0.106615 0.255352
0.209162 -0.117929 0.2036
0.208521 0.112701 0.0285284
0.130127 -0.063211 0.596188
-0.178 0.0308605 0.58981
-0.300435 0.0333142 0.58981
-0.273482 0.0418489 0.586618
0.192264 -0.174424 0.386338
0.165452 0.0265105 0.596188
0.212767 0.00616568 0.126548
-0.183699 0.122218 0.376994
-0.206437 0.0259799 0.190322
0.102808 -0.0813743 0.580636
-0.288602 0.146517 0.580636
0.305495 0.0928959 0.58981
-0.177651 0.0266714 0.227075
0.183498 0.00757616 0.255188
-0.0564304 -0.00166057 0.596188
0.210815 -0.21749 0.580636
-0.208874 -0.110697 0.58981
-0.277832 0.0767114 0.580636
0.18633 -0.0730821 0.305143
-0.143789 0.0879467 0.596188
-0.331364 -0.0687314 0.58981
-0.174005 -0.0906477 0.596188
-0.0159111 -0.0535353 0.58981
-0.197891 -0.212466 0.0526588
0.2094 -0.109417 0.246423
0.185363 -0.0746816 0.106386
-0.19787 0.165462 0.434361
-0.0736664 0.142936 0.580636
-0.0243063 -0.00398831 0.596188
-0.178002 -0.0135082 0.275118
-0.204513 -0.0462738 0.298403
0.205214 -0.130383 0.536991
0.211452 -0.0353784 0.164998
-0.00164084 -0.00442701 0.502301
-0.177637 -0.0354357 0.235557
-0.237284 0.212575 0.594156
-0.121677 -0.206476 0.586618
0.130093 -0.120289 0.596188
-0.203661 0.0817894 0.344481
-0.0504387 0.106721 0.580636
-0.182982 -0.106115 0.580461
0.142328 -0.212017 0.580636
-0.158517 -0.0253712 0.58981
0.182744 -0.0316125 0.0266157
-0.178746 -0.0672531 0.353286
0.0665496 0.124513 0.580636
-0.242961 0.149619 0.580636
-0.244921 0.0473766 0.580636
0.340413 -0.114271 0.582217
-0.148807 0.152201 0.596188
0.141458 0.160437 0.586618
0.187014 -0.0880121 0.586618
0.185635 0.000637019 0.456317
0.171024 -0.0106185 0.550247
0.324667 0.200787 0.580636
0.108919 0.167046 0.586618
-0.0121796 -0.011228 0.580636
0.185709 0.203222 0.596188
0.210401 -0.0359662 0.387508
-0.177181 -0.0467543 0.0968247
0.190247 -0.169492 0.136811
0.0368589 -0.122721 0.58981
-0.188685 -0.195676 0.580636
-0.17938 -0.0391099 0.421679
0.158552 0.202412 0.58981
0.00323665 -0.153167 0.596188
0.0758455 -0.139721 0.58981
0.209481 0.0861048 0.177146
-0.176664 -0.0536557 0.131326
0.041508 0.205728 0.58981
0.20613 0.0865442 0.537072
-0.284423 -0.165277 0.596188
0.0496221 7.58492e-05 0.501095
0.148402 -0.0457835 0.580636
-0.201861 0.120061 0.329223
-0.0900721 0.136067 0.586618
0.0522326 0.201461 0.580636
0.203875 0.193077 0.173681
-0.20489 0.00927751 0.367806
-0.203438 -0.0978011 0.372461
0.204192 0.160392 0.580636
0.186944 0.0861613 0.415257
-0.294933 0.0726771 0.580636
0.119131 0.0545577 0.586618
-0.24158 0.126461 0.586618
-0.0626175 0.0914781 0.586618
0.0873822 0.155264 0.586618
-0.311856 -0.0457939 0.586618
-0.327545 0.073278 0.58981
0.184637 -0.0226558 0.377227
0.322681 -0.203858 0.586618
0.220366 -0.158199 0.586618
-0.185047 0.164527 0.253352
0.198169 -0.188902 0.325602
-0.289579 -0.0679475 0.580636
-0.217624 0.125362 0.586618
0.217061 -0.00795043 0.580636
0.189213 -0.153337 0.0982813
-0.182284 0.115804 0.196526
-0.26873 0.00430375 0.596188
0.211404 -0.0908395 0.0101603
0.202119 0.216286 0.0700983
0.0417439 0.181541 0.58981
-0.176953 -0.0687274 0.0874421
-0.204043 -0.0639671 0.356078
0.0402723 0.0106291 0.554065
-0.197894 -0.192803 0.21188
0.0920385 -0.0889369 0.580636
-0.233917 0.0483958 0.586618
-0.18321 0.132526 0.212309
-0.0975301 0.177005 0.580636
0.243506 -0.146016 0.596188
-0.289009 -0.0767219 0.586618
0.122385 -0.064839 0.596188
-0.203528 0.0880777 0.265386
-0.265315 0.134154 0.586618
-0.207654 -0.0101471 0.520498
0.189275 -0.154806 0.0966239
-0.0138897 0.114213 0.596188
0.139482 0.0949777 0.596188
0.20941 -0.0665539 0.495658
0.195436 0.16992 0.472113
-0.184312 -0.152078 0.347081
-0.179431 0.027836 0.416738
0.163111 -0.0875123 0.580636
0.208257 0.107754 0.265999
-0.173033 0.0832957 0.575587
0.0612423 -0.0964205 0.586618
-0.272118 -0.119449 0.596188
0.186511 0.163507 0.580636
-0.205942 -0.0897981 0.162107
-0.120249 -0.166689 0.586618
-0.0445797 0.0106291 0.579953
0.138532 0.11172 0.596188
0.214054 0.00307901 0.596188
0.0174398 -0.129247 0.580636
0.336951 0.204416 0.597747
0.212815 -0.0814084 0.0979728
0.191935 0.174407 0.369461
0.189435 0.186499 0.586618
0.281012 0.0494622 0.586618
-0.179904 0.0180304 0.471691
-0.0741354 0.0441642 0.586618
0.0603959 0.144013 0.58981
-0.205275 0.0553127 0.00880639
-0.218518 -0.0106185 0.577454
-0.152613 0.111025 0.586618
0.209072 0.195004 0.58981
0.00517097 -0.128321 0.586618
-0.32101 -0.000588253 0.58981
-0.289 0.0243369 0.586618
0.19971 0.165919 0.506573
0.191881 -0.20713 0.0986647
0.190761 0.137946 0.477358
-0.22537 -0.0473991 0.580636
-0.338454 -0.163719 0.580636
-0.314082 -0.182842 0.580636
-0.190705 0.208291 0.0128549
0.275841 -0.142215 0.580636
-0.201685 0.134572 0.0841754
-0.186808 0.152369 0.573976
-0.207085 0.0225724 0.0658882
0.204258 0.168788 0.328648
0.263525 -0.0212477 0.580636
-0.160029 0.0792623 0.596188
0.291795 0.207475 0.586618
-0.0609565 0.115893 0.596188
0.207397 -0.139098 0.226005
-0.176267 -0.0578282 0.0143403
-0.105095 0.0106291 0.523944
0.210328 -0.053699 0.28853
-0.0563934 0.111887 0.58981
0.209718 -0.0269825 0.462954
0.187824 0.122703 0.118362
-0.199614 0.150976 0.359967
0.103287 0.0106291 0.535215
0.0857239 -0.153765 0.580636
-0.204832 -0.0500406 0.268737
-0.146965 0.0813501 0.580636
0.189097 -0.114533 0.558909
0.103929 -0.185286 0.596188
0.257168 -0.0477252 0.596188
0.337033 0.152321 0.580636
-0.0387519 -0.211277 0.590492
0.0776309 -0.00855862 0.506518
-0.205976 -0.0851635 0.195895
-0.206181 -0.0673915 0.227036
-0.178806 0.0671519 0.0213927
-0.228041 0.133755 0.58981
-0.1848 -0.0732864 0.00941196
0.00954053 -0.186288 0.586618
0.0006423 0.152362 0.596188
-0.221759 0.164143 0.596188
0.213743 -0.00923049 0.0206933
-0.257084 -0.18613 0.58981
-0.240477 -0.0106185 0.560656
0.211801 0.0429184 0.057218
-0.167635 0.208415 0.580636
0.193463 0.218498 0.0553015
-0.201203 -0.142922 0.252403
-0.23474 0.0781292 0.596188
-0.2372 -0.139207 0.596188
-0.206683 -0.0299631 0.172922
0.211432 -0.0535649 0.27364
0.175631 -0.065417 0.596188
0.19634 -0.196703 0.586618
-0.337102 0.0351005 0.596188
0.179216 -0.0999543 0.586618
-0.180013 -0.126824 0.0942102
-0.0143936 0.169109 0.580636
0.291993 0.147087 0.58981
-0.173033 -0.122086 0.569177
-0.203685 0.0333396 0.489752
-0.0219894 0.0464143 0.586618
-0.206939 -0.039254 0.0511475
0.0401179 0.0741104 0.586618
0.210817 -0.045954 0.341552
0.210679 -0.0824224 0.324743
-0.256072 0.210731 0.580636
-0.266666 0.16471 0.586618
0.182427 0.129608 0.580636
-0.193438 -0.0865449 0.533893
0.214125 -0.0837131 0.586618
-0.275565 -0.136906 0.586618
0.194449 0.215307 0.0938586
0.00137767 -0.212227 0.59307
-0.0347107 -0.2142 0.598423
0.205849 0.128888 0.47722
-0.338769 0.0133625 0.594455
-0.0820981 0.186679 0.580636
-0.143638 -0.0788192 0.58981
-0.198629 0.174171 0.280177
0.145337 0.119995 0.580636
0.188778 0.120816 0.2909
0.213388 0.113128 0.580636
-0.177633 -0.00321828 0.586618
-0.177649 -0.0297157 0.132592
0.010733 -0.189046 0.596188
0.0216067 -0.113106 0.58981
0.213589 -0.0440519 0.0366956
0.182395 0.00270663 0.137986
-0.181296 -0.125349 0.243154
-0.199441 -0.156702 0.334456
-0.20017 0.140299 0.385425
-0.183955 -0.145138 0.365611
0.212875 -0.0357048 0.0227368
0.296317 -0.0221595 0.596188
0.187013 0.0870429 0.559042
0.239768 -0.0284064 0.580636
0.183182 -0.0002178 0.160648
0.0637934 0.218595 0.580636
-0.207183 -0.0691001 0.0446615
-0.206296 -0.0033742 0.21616
-0.198827 0.136407 0.564819
-0.122726 0.0430387 0.586618
-0.00427848 -0.0048779 0.58981
-0.198827 -0.18415 0.179417
-0.183594 0.0865442 0.536864
0.0523549 -0.160767 0.580636
-0.340831 0.165584 0.583257
-0.183405 -0.157394 0.206873
-0.176993 -0.0687186 0.0912797
0.208431 0.106738 0.206654
0.184325 0.0159995 0.343324
-0.262408 0.0306008 0.580636
-0.20544 -0.0383148 0.30936
-0.182479 0.114179 0.241831
0.130618 0.0802624 0.58981
-0.186091 0.183204 0.272745
-0.145966 0.193666 0.58981
-0.101283 -0.016878 0.58981
-0.258261 0.0801992 0.586618
-0.339152 -0.0588216 0.580636
0.071377 -0.114597 0.596188
-0.198938 -0.197766 0.0566687
-0.311678 0.0652655 0.596188
0.211951 0.0389325 0.0767264
0.189943 -0.13714 0.35099
-0.256028 0.0487538 0.586618
0.218211 0.166527 0.58981
0.182822 -0.0228705 0.184622
0.221641 -0.17605 0.596188
0.208014 0.105758 0.426197
0.184179 -0.00274795 0.327348
-0.200034 0.135793 0.436944
0.297002 0.040766 0.58981
-0.198237 -0.193538 0.168105
0.213342 -0.0567476 0.0635093
0.20395 0.164898 0.394105
-0.0966561 0.0348347 0.580636
-0.306148 0.0106291 0.582108
0.00797203 0.0540342 0.586618
-0.178722 -0.0103011 0.352119
0.333881 0.124466 0.580636
-0.179379 -0.0804847 0.404928
-0.125086 -0.201603 0.586618
-0.128437 0.0843644 0.586618
0.31247 0.0807662 0.58981
-0.199152 -0.0865449 0.545362
-0.299587 -0.146833 0.586618
-0.192992 -0.00983583 0.512656
0.00353268 -0.151913 0.586618
0.213274 -0.0754089 0.0344109
-0.20613 -0.102822 0.0357466
0.184196 -0.0307505 0.330884
-0.177977 -0.0466354 0.174286
0.198042 -0.091002 0.588991
0.210856 0.00810502 0.336016
0.189924 -0.125786 0.440478
-0.177914 -0.0728346 0.183564
-0.134394 -0.107388 0.580636
0.18899 0.151055 0.0788535
0.321513 0.191919 0.586618
-0.334898 -0.00971369 0.586357
0.208191 -0.114424 0.338878
0.214488 -0.19595 0.586618
-0.177143 -0.0245663 0.0802631
0.338145 -0.165551 0.580636
0.204563 0.163139 0.340845
-0.176324 -0.00259498 0.0961122
-0.206335 -0.0430474 0.11406
0.0955945 -0.216961 0.580636
0.305034 -0.108884 0.58981
0.190031 0.0275542 0.586618
-0.204601 -0.0922836 0.289353
0.210529 -0.0575346 0.270775
-0.120495 0.0773635 0.58981
-0.249643 -0.107268 0.586618
-0.185216 -0.161069 0.370253
-0.242065 -0.197462 0.596188
-0.185799 0.190667 0.163616
0.0514682 -0.190011 0.580636
-0.249457 -0.219761 0.580636
-0.176445 0.0164337 0.0469831
0.186379 0.0876694 0.166752
-0.197234 -0.156899 0.538604
0.211428 -0.0668266 0.273673
0.186875 0.00603901 0.49449
-0.205699 -0.0328388 0.281049
-0.0263739 0.0106291 0.581229
0.205884 0.135868 0.41678
-0.187286 0.0865442 0.514133
0.173128 -0.00451797 0.580636
-0.163607 -0.00171541 0.501095
0.209606 -0.070408 0.370934
0.269254 0.00938839 0.586618
0.105062 -0.166257 0.586618
-0.0530363 0.0586967 0.580636
0.19753 0.164979 0.519213
-0.273685 0.0114436 0.580636
-0.293278 -0.085088 0.586618
0.21211 -0.023809 0.199842
-0.198639 0.180559 0.227249
-0.0543017 0.0702205 0.596188
-0.0339047 -0.10931 0.586618
0.209881 0.0700792 0.350713
0.186851 -0.0893306 0.231941
0.184065 -0.0467329 0.254172
0.0167905 -0.10193 0.586618
0.338713 -0.143424 0.591451
0.206084 0.147801 0.297945
0.119176 -0.103269 0.586618
0.0134595 0.110192 0.586618
-0.195964 -0.0943008 0.580636
-0.338931 0.112502 0.593578
0.321007 -0.214065 0.594859
-0.0230602 0.063252 0.580636
-0.0797601 -0.112329 0.580636
-0.188988 0.172063 0.44783
0.190166 -0.127026 0.470249
0.304624 0.204533 0.596188
0.165518 0.14076 0.58981
0.18074 -0.0237643 0.547834
-0.279275 -0.114756 0.580636
0.205722 -0.153104 0.296739
-0.17662 -0.0761882 0.0714445
-0.205019 -0.0840639 0.310071
-0.133067 0.0356576 0.596188
0.123001 -0.177983 0.596188
0.278527 -0.0173123 0.580636
0.0766613 -0.0106185 0.582121
0.193399 -0.102233 0.580636
-0.182234 0.121445 0.142125
0.206226 -0.199677 0.00195361
0.190952 -0.13501 0.534532
-0.310294 -0.0338119 0.586618
-0.0354275 -0.139454 0.580636
0.10927 0.119558 0.586618
0.19448 -0.0469286 0.58981
0.00400437 0.0106291 0.550332
-0.149084 0.0106291 0.547281
0.185848 -0.000718512 0.482392
-0.015373 -0.141773 0.586618
-0.325993 0.165167 0.580636
-0.298568 -0.0793079 0.596188
-0.180822 0.0443556 0.580636
0.184679 -0.0599637 0.369465
-0.069601 -0.156955 0.586618
-0.18136 0.0967896 0.199691
0.148884 -0.0106185 0.523339
-0.303975 -0.117696 0.596188
0.279231 0.142518 0.596188
-0.112662 -0.216942 0.592898
-0.206123 -0.011257 0.234995
-0.198817 0.197522 0.0154294
0.190863 0.157585 0.333846
-0.244664 0.117792 0.580636
0.0475604 0.157649 0.596188
-0.249144 0.0106291 0.568875
-0.0348518 -0.0744902 0.58981
-0.0710911 -0.0901559 0.586618
0.215037 0.188909 0.58981
-0.316419 -0.0585735 0.58981
0.21203 -0.0850679 0.154666
-0.293847 -0.201578 0.58981
-0.176821 0.0210429 0.0711692
0.249129 0.0801932 0.580636
0.203859 -0.0865449 0.576681
-0.178225 0.026187 0.288588
0.20232 0.190416 0.276844
0.183984 -0.0415932 0.149402
0.211055 -0.0952235 0.179534
0.209641 -0.030951 0.471277
0.0651859 -0.0391098 0.580636
0.336911 -0.115941 0.594335
-0.202095 0.234715 0.00190596
-0.177635 -0.0924623 0.120631
-0.289193 0.0305803 0.58981
0.222957 0.0106291 0.534886
-0.192893 0.0436862 0.580636
0.21147 -0.0391803 0.165465
0.19152 -0.142694 0.574081
0.1948 -0.00986648 0.58981
0.179451 0.0233707 0.550079
-0.091535 -0.0234651 0.580636
0.144186 -0.106254 0.596188
0.139223 0.178641 0.580636
-0.120281 0.14502 0.58981
0.141354 0.194695 0.580636
0.09336 0.0138206 0.586618
0.0426954 0.0844895 0.58981
-0.209346 -0.0566689 0.58981
0.26094 0.220532 0.580636
-0.201942 0.108917 0.444958
0.0989153 -0.128643 0.58981
0.187734 -0.11611 0.158628
0.28885 0.0933325 0.580636
-0.215749 0.0105081 0.525791
0.213457 -0.0153387 0.0519497
0.263876 -0.126424 0.596188
0.145556 -0.197323 0.58981
0.126944 -0.135601 0.58981
-0.192248 0.0818879 0.58981
0.183583 -0.040615 0.0913617
0.267491 0.153156 0.58981
0.184026 -0.0414693 0.174214
-0.0671314 -0.14436 0.586618
0.0524425 0.164091 0.596188
-0.18441 0.160278 0.183278
0.298507 0.106935 0.596188
0.0531202 -0.00885881 0.586618
-0.181983 0.0943133 0.322528
0.204192 0.171776 0.311637
-0.195214 -0.183047 0.580636
0.103443 -0.136478 0.596188
-0.199806 0.154953 0.306517
0.23521 0.0383942 0.58981
0.0316032 0.0371003 0.58981
0.0836632 -0.030209 0.596188
0.207372 -0.105229 0.503527
-0.00650799 0.171506 0.596188
-0.159715 0.108367 0.58981
0.236375 -0.100897 0.586618
0.0463253 -0.096316 0.586618
0.184648 0.0532636 0.262242
0.205724 0.16439 0.181363
-0.0274025 -0.0403401 0.596188
-0.0608001 0.166525 0.580636
0.191079 0.17784 0.203934
0.049785 -0.146842 0.586618
0.212109 -0.0913314 0.0951191
0.211332 0.0501372 0.115638
-0.183321 -0.0441446 0.586618
-0.199192 -0.18988 0.0927374
0.323292 -0.129578 0.580636
0.16178 0.0490451 0.596188
-0.186021 0.201083 0.115178
0.212199 -0.0612588 0.105738
-0.260919 0.0495054 0.58981
-0.184699 -0.154973 0.364727
0.335703 -0.00715287 0.587784
0.176235 -0.0106185 0.574779
0.211519 -0.0222339 0.150463
0.113863 -0.0918605 0.58981
-0.185702 -0.146957 0.537237
-0.198193 0.15071 0.518524
0.209122 -0.128539 0.121945
-0.205289 -0.0544985 0.225666
-0.203051 0.108135 0.0367833
0.279809 -0.00178248 0.58981
0.255065 0.0713325 0.58981
-0.100594 0.0106291 0.575297
0.231319 0.046801 0.58981
-0.206555 -0.0462784 0.186432
0.207683 -0.123258 0.323074
-0.246425 -0.165376 0.586618
0.0647096 0.116173 0.596188
0.244146 -0.0598633 0.596188
0.337523 0.143763 0.597918
-0.317867 -0.147898 0.586618
-0.204493 -0.120296 0.0740998
0.187951 0.13644 0.027104
-0.0925963 0.125512 0.580636
-0.225278 0.0133084 0.58981
-0.158367 0.165231 0.586618
0.191462 -0.196423 0.58981
-0.0774973 -0.180741 0.580636
0.275161 -0.0694228 0.58981
0.00176665 0.177193 0.58981
0.071316 -0.142387 0.586618
0.0696072 0.210843 0.596188
0.210445 -0.0970526 0.23179
-0.179548 0.076893 0.0639719
-0.227899 0.0347537 0.586618
-0.182417 0.141229 0.0107498
0.140916 -0.179954 0.586618
-0.0530423 -0.0509195 0.596188
0.208982 -0.130503 0.121375
0.334765 -0.16619 0.580636
0.210044 -0.0664917 0.425948
0.00532451 0.0365251 0.586618
-0.177505 -0.0155618 0.221898
0.206683 0.123958 0.425478
-0.110403 0.0718971 0.586618
-0.0698332 0.0929547 0.596188
-0.318821 -0.142488 0.580636
-0.211418 0.051904 0.58981
-0.213362 0.145124 0.58981
-0.182414 -0.103178 0.543625
0.271045 -0.00798856 0.596188
-0.173033 0.0800329 0.551177
-0.21687 -0.175454 0.586618
0.0615005 0.0763514 0.580636
-0.241618 0.174611 0.596188
-0.17587 0.00731549 0.045371
0.18074 0.022777 0.58449
-0.185666 -0.151453 0.49669
0.183567 -0.0501549 0.0106697
-0.0688175 -0.123658 0.58981
0.138875 -0.181997 0.58981
-0.20147 0.134431 0.189129
0.187793 -0.120367 0.133665
-0.176572 0.0208328 0.0318935
0.328823 0.139101 0.586618
-0.178042 -0.109139 0.0280637
0.0370858 0.0960152 0.596188
0.135153 0.212706 0.580636
0.0813051 0.137376 0.586618
0.283009 0.159502 0.586618
0.123387 -0.0670024 0.596188
-0.173033 -0.168367 0.579195
0.201722 -0.176713 0.401349
0.204408 0.199016 0.019782
0.0436132 -0.0588821 0.586618
0.206187 0.220815 0.58222
-0.201685 0.126545 0.266068
0.210765 -0.0480024 0.241384
-0.17685 -0.0341209 0.0573337
-0.101059 0.0224083 0.586618
-0.161403 -0.065732 0.586618
-0.234252 -0.0172348 0.596188
-0.202952 0.223286 -1.38778e-17
0.206498 -0.213861 0.0148085
0.208483 0.102395 0.280464
-0.192828 -0.174321 0.010139
-0.168572 -0.214011 0.594712
-0.179153 0.0264775 0.387602
0.187527 0.0999127 0.255697
0.132321 -0.210731 0.596188
0.0681854 -0.183103 0.596188
0.205078 0.126574 0.580889
0.0101292 0.0377222 0.586618
-0.261999 0.170043 0.596188
0.188301 0.107321 0.322638
-0.184226 0.149606 0.240174
0.190841 -0.160613 0.307216
-0.206003 -0.0589893 0.246815
-0.0710324 -0.00366204 0.587643
-0.3363 0.036228 0.590893
0.212923 -0.0534668 0.109665
0.30581 -0.211061 0.586715
-0.200575 -0.151946 0.248249
0.203986 -0.194498 0.151935
0.276571 0.0627628 0.586618
0.0569338 -0.097368 0.596188
-0.176439 0.0126642 0.103771
0.208472 -0.121317 0.251983
0.18489 0.0743481 0.0303641
0.186556 0.20779 0.0115767
-0.051428 -0.0932553 0.58981
-0.159591 0.126326 0.58981
-0.203387 0.0964073 0.143051
-0.234135 0.136293 0.586618
-0.1999 0.173393 0.049468
-0.185478 -0.00526399 0.513864
0.192805 0.213389 0.593172
-0.176613 -0.00756377 0.0187019
-0.206352 -0.045533 0.208886
-0.185862 0.155877 0.458153
0.190361 -0.128054 0.583494
0.186215 -0.0721799 0.309698
0.224459 0.215091 0.597776
0.211364 0.031642 0.269707
0.322431 0.153454 0.596188
0.20914 -0.0684992 0.416484
-0.179467 0.0576331 0.207828
-0.337671 0.152285 0.595152
0.233878 -0.0749348 0.580636
0.190878 -0.134329 0.544957
0.212593 -0.00262089 0.147385
0.183832 -0.0481475 0.0708458
0.12859 -0.14467 0.580636
0.20645 -0.152826 0.218897
-0.0755456 -0.00941621 0.596188
-0.205572 -0.0426884 0.190166
-0.161981 -0.0807477 0.586618
0.189118 -0.111162 0.427181
0.205639 0.148248 0.343282
-0.178803 -0.21862 0.588338
0.0894781 0.00403741 0.586618
0.211716 -0.0360538 0.139001
-0.184346 0.124358 0.524351
0.211135 -0.0861514 0.244326
-0.173033 -0.0437788 0.560348
-0.204259 -0.0683711 0.596188
0.20309 0.194821 0.220041
-0.206759 -0.020071 0.0577547
0.192034 -0.139044 0.596188
0.0875115 -0.0945719 0.580636
0.191758 -0.209353 0.0602433
-0.199071 -0.239462 0.00268531
0.315056 -0.00765771 0.580636
0.206575 -0.106819 0.578389
-0.252017 0.0364849 0.58981
-0.201984 0.11437 0.39606
0.211662 0.0393076 0.204965
-0.150947 0.0588179 0.580636
0.187413 0.087174 0.340946
-0.185845 0.19384 0.145247
-0.0515074 0.0201148 0.58981
0.20492 0.154406 0.372418
0.164737 -0.212449 0.590479
-0.200208 0.15949 0.218471
0.238371 -0.0948057 0.58981
-0.138144 0.210648 0.586618
0.145727 -0.180229 0.586618
-0.15266 0.0243108 0.580636
0.23633 -0.028643 0.586618
0.0737176 0.00904259 0.507236
0.152845 -0.03196 0.596188
-0.180474 0.0774161 0.406043
-0.120967 -0.189318 0.596188
0.208291 -0.098544 0.456661
0.0102097 -0.20554 0.58981
-0.00385162 0.220868 0.580636
-0.115728 -0.182695 0.580636
-0.174322 0.0292604 0.575293
0.197716 0.201799 0.219878
-0.231636 0.182557 0.596188
0.313409 0.0826432 0.580636
0.105557 -0.219473 0.586021
-0.0430188 -0.0558665 0.58981
-0.181441 0.0958561 0.580636
0.189758 0.175035 0.0093336
-0.185543 0.1552 0.580636
0.0454214 0.132041 0.586618
0.189937 0.149158 0.250109
0.21728 0.0412597 0.586618
0.150317 0.12523 0.58981
0.203747 -0.173799 0.34613
-0.206478 -0.0201821 0.19567
0.184283 -0.0576162 0.0678082
-0.0383959 0.212332 0.596188
-0.184487 0.139657 0.364263
0.212364 -0.0695735 0.170664
-0.200427 0.121273 0.511503
0.031188 0.202295 0.586618
0.210109 -0.0803606 0.404275
0.287389 -0.122363 0.596188
-0.00270316 0.140814 0.586618
-0.204582 0.017572 0.397988
-0.204429 0.0251832 0.411478
0.186276 0.0848459 0.172769
0.191256 0.00548146 0.532472
-0.200203 -0.152468 0.284994
-0.200082 0.122789 0.537107
-0.300685 -0.0117618 0.586618
0.0572267 -0.169902 0.58981
-0.076903 0.0842378 0.58981
-0.110984 -0.0106185 0.553685
-0.0722277 -0.0106185 0.563669
-0.198084 0.207948 0.0661254
-0.297646 -0.0541403 0.586618
0.178961 -0.193018 0.596188
-0.119058 -0.0974623 0.580636
0.0210954 -0.163541 0.58981
-0.234223 0.0106148 0.58981
-0.00959092 0.0106291 0.58553
-0.180553 -0.130534 0.580636
0.190536 -0.132202 0.489054
-0.288833 -0.00397374 0.58981
-0.224801 -0.125927 0.580636
0.270864 0.159337 0.596188
-0.199067 -0.180979 0.178727
-0.181211 0.102167 0.131184
-0.202849 0.0969238 0.386004
0.187983 -0.130078 0.586618
-0.180349 -0.0936804 0.580636
-0.2386 0.0325024 0.586618
-0.0907774 -0.050021 0.58981
-0.178921 -0.0736136 0.28198
0.256507 0.0406681 0.586618
0.213015 0.000177339 0.101051
-0.161325 -0.0136206 0.586618
0.131609 -0.0765049 0.596188
-0.205239 0.0202708 0.00885665
0.00876147 -0.0817581 0.58981
0.0308461 0.00123669 0.596188
-0.234081 0.154164 0.586618
-0.179599 0.059181 0.254556
0.256499 -0.148467 0.58981
0.207278 0.129777 0.230179
0.191307 0.0106291 0.552311
0.212148 -0.0836769 0.596188
-0.177722 0.0465339 0.0112409
0.0171513 0.0433063 0.580636
0.20687 0.135147 0.30148
-0.199763 0.171874 0.148373
0.151781 -0.101665 0.580636
-0.179386 -0.0905212 0.323658
-0.210768 0.20676 0.580636
-0.201186 0.11727 0.460448
0.253616 0.147037 0.596188
0.048555 -0.0246542 0.586618
0.185167 -0.057042 0.435624
-0.271565 -0.129992 0.586618
-0.202068 0.0995299 0.507224
0.223496 0.00632915 0.580636
0.205668 -0.170901 0.158308
-0.0729851 0.0048871 0.502563
0.183851 0.0434023 0.234723
0.113299 -0.168132 0.586618
-0.317647 -0.00898949 0.588614
-0.206244 -0.0505744 0.127701
0.0650959 -0.148099 0.586618
-0.234999 -0.0170142 0.586618
0.182649 0.0178377 0.165479
0.33774 -0.0096332 0.596739
0.143546 -0.113205 0.58981
0.0907873 0.0106291 0.579528
-0.0991861 -0.014041 0.580636
0.188044 -0.113767 0.228888
-0.208606 0.137928 0.596188
-0.335057 -0.168379 0.580636
-0.205776 -0.0297614 0.272591
-0.206058 -0.0251562 0.2418
-0.180894 0.0832597 0.233507
-0.202341 0.110364 0.321985
-0.243633 -0.0842358 0.58981
-0.210712 -0.0482127 0.580636
-0.191843 -0.215871 0.106831
-0.177138 -0.0354886 0.0861721
-0.187703 0.156328 0.560015
0.189788 0.120147 0.493932
0.0493698 -0.0181898 0.586618
0.205543 0.0629515 0.00879767
-0.265356 -0.184934 0.586618
-0.112863 0.0232099 0.580636
0.301991 0.205395 0.580636
0.190655 -0.131419 0.534632
0.151636 -0.0104614 0.512795
-0.206984 -0.0649835 0.0621914
-0.177634 -0.103372 0.0315635
-0.0143194 -0.111865 0.586618
-0.273807 -0.216128 0.580636
-0.178977 -0.0492886 0.378365
0.208293 0.115228 0.0794744
0.198651 0.0393687 0.596188
-0.17738 -0.0968003 0.0580317
0.119302 0.0714639 0.580636
0.188713 0.213037 -1.38778e-17
-0.279113 -0.0608425 0.586618
-0.177368 -0.0491598 0.206544
0.0160484 0.0747914 0.596188
-0.30313 -0.0106185 0.577196
0.206669 0.140253 0.28111
-0.182818 -0.15894 0.131564
0.101174 0.162806 0.580636
0.269718 0.200896 0.586618
0.186271 -0.0741018 0.331998
-0.0146098 -0.0657432 0.586618
-0.300996 -0.0101205 0.588123
-0.186418 0.164227 0.459502
0.19899 -0.0546715 0.00927802
0.201614 0.0803157 0.596188
-0.204573 -0.0905636 0.306369
-0.164731 -0.206367 0.58981
0.27349 0.10274 0.58981
-0.183889 -0.172569 0.134776
-0.052538 0.135796 0.58981
-0.177083 -0.0224712 0.0731526
0.0818007 -0.0507006 0.586618
0.182262 0.192308 0.586618
0.0485954 -0.1934 0.580636
-0.183006 0.137659 0.13691
-0.203268 -0.0753765 0.440573
0.22142 -0.10072 0.586618
0.225752 -0.212299 0.580636
-0.207028 -0.0209085 0.0312816
0.0613329 -0.0112527 0.596188
-0.198535 0.153882 0.455165
-0.0318551 0.00502318 0.588614
0.246751 0.1042 0.580636
-0.201149 0.143337 0.13918
-0.0624435 0.194712 0.580636
-0.152826 0.159948 0.586618
-0.161028 -0.0336319 0.58981
-0.0950013 -0.162409 0.596188
-0.183998 -0.0857189 0.58981
0.208814 -0.00875288 0.580636
-0.289952 0.198418 0.596188
0.206019 0.118151 0.545646
0.208818 0.0992584 0.192835
0.208399 -0.117639 0.289828
-0.109108 0.0106291 0.542354
0.341313 0.00356887 0.573726
0.144406 0.0257408 0.58981
0.187702 0.130223 0.0369354
0.0472997 0.192667 0.586618
0.0252358 0.107782 0.586618
0.0381552 -0.0106185 0.559839
0.291087 -0.0612521 0.580636
0.202014 -0.00498073 0.494744
-0.179526 0.201734 0.586618
-0.310522 0.206 0.58981
-0.297129 0.0395892 0.596188
0.10481 0.0530819 0.58981
0.183976 -0.0566479 0.0251218
0.302724 -0.137261 0.580636
0.152241 0.118884 0.596188
-0.197119 0.206379 0.00859191
0.190592 -0.138033 0.450607
0.319235 0.149558 0.586618
-0.206219 0.0106291 0.551781
-0.184433 -0.13278 0.517484
-0.0415963 0.0825222 0.596188
-0.153126 -0.0184667 0.586618
0.0953214 -0.0758487 0.580636
-0.157148 -0.183438 0.586618
0.0926273 0.203024 0.58981
-0.19458 0.217498 0.591235
-0.182588 -0.00648879 0.00893132
0.243457 -0.15364 0.580636
-0.0806908 0.0578564 0.596188
0.00275832 0.138549 0.58981
0.18074 -0.0817256 0.561048
0.190952 -0.0865449 0.546246
0.20884 0.0477892 0.586618
0.210959 0.0621524 0.0198933
0.205239 -0.176739 0.158061
0.203833 -0.211465 0.58781
0.188454 -0.129433 0.168441
-0.20784 -0.20136 0.586618
-0.204954 0.0611561 0.200333
-0.17906 -0.0738808 0.295637
-0.0405452 -0.0738489 0.58981
-0.0345099 0.187649 0.58981
-0.168356 0.159305 0.586618
-0.310062 0.13156 0.580636
0.212014 -0.0356872 0.210152
0.210776 -0.0360687 0.233153
0.205278 -0.171859 0.193424
-0.182293 -0.0865449 0.513452
0.267787 -0.195311 0.596188
-0.181986 -0.143488 0.168872
0.262317 -0.166559 0.596188
0.162507 -0.0411295 0.58981
-0.176771 0.0175858 0.1371
-0.176413 -0.0455492 0.104615
-0.20555 -0.0382603 0.297318
0.209054 -0.114009 0.247245
0.19895 0.162228 0.538652
-0.184327 0.12773 0.435449
-0.186175 0.193124 0.205561
0.129124 -0.147027 0.580636
0.31577 -0.101901 0.580636
-0.00789005 -0.112743 0.580636
0.335755 0.135631 0.591261
-0.207273 -0.0389459 0.0175598
-0.177535 0.0378167 0.0517154
-0.206057 -0.0370544 0.138175
0.28595 -0.158294 0.586618
0.0375738 -0.20793 0.596188
0.185196 -0.030831 0.437061
-0.024532 -0.12336 0.586618
0.237064 -0.0615858 0.58981
-0.182321 0.0971806 0.354736
0.156684 -0.135347 0.596188
-0.179154 -0.119978 0.0582796
0.209164 0.0898631 0.241631
-0.236147 -0.0220607 0.586618
-0.198334 0.149494 0.512879
-0.18281 0.10575 0.365265
-0.23459 -0.117312 0.596188
0.185387 -4.04686e-05 0.355129
0.319742 0.0262756 0.586618
0.211465 -0.0799714 0.258233
0.205065 -0.174427 0.196042
-0.211291 -0.0106185 0.542862
-0.117209 -0.12003 0.58981
-0.183441 0.112694 0.48524
