0.102588 0.220417 0.460987
-0.258634 -0.300643 0.475378
0.195648 -0.191841 0.460987
0.221805 0.0374557 0.460987
0.256092 -0.300235 0.480165
0.0175215 0.0492812 0.460987
0.0254797 -0.241445 0.481029
-0.198481 -0.0980474 0.460987
0.0115174 -0.0135798 0.431589
-0.00214574 -0.170551 0.481029
0.0290247 -0.0315524 0.460987
0.190092 0.0398046 0.481029
0.320469 -0.263537 0.480299
0.195352 -0.0535757 0.4505
0.176079 0.0221279 0.429119
0.0652862 0.0877052 0.460987
-0.223429 -0.243008 0.460987
0.207185 0.142412 0.208472
0.242012 0.13326 0.460987
-0.0839376 -0.135843 0.481029
0.00813869 0.256223 0.460987
-0.0952217 -0.269212 0.481029
0.304032 -0.126659 0.460987
-0.31597 -0.239409 0.468339
-0.239926 -0.0353995 0.460987
-0.186479 0.245997 0.481029
-0.0415606 -0.0167024 0.445677
-0.194238 0.183284 0.131081
0.138113 -0.0965718 0.460987
-0.213738 -0.194421 0.460987
-0.208638 0.0417133 0.481029
-0.234583 0.196224 0.481029
-0.137363 0.234459 0.460987
0.0587904 -0.216917 0.460987
-0.14561 -0.258796 0.460987
0.287009 0.103731 0.460987
0.0575452 0.0733532 0.481029
-0.157482 -0.248903 0.481029
0.151598 -0.194353 0.460987
-0.195352 -0.0562792 0.457669
-0.244959 -0.109122 0.460987
-0.21566 -0.151611 0.460987
0.131212 -0.123896 0.481029
-0.211197 -0.165886 0.183239
-0.0398075 -0.157068 0.481029
0.227651 -0.159879 0.460987
-0.162823 -0.126191 0.481029
0.0737205 -0.0665732 0.481029
-0.100274 0.0402595 0.481029
-0.202562 0.111817 0.295132
-0.117426 -0.172023 0.481029
0.057044 -0.123243 0.460987
0.196819 -0.0863848 0.347353
0.139957 0.264643 0.481029
0.133164 -0.258546 0.481029
-0.118572 -0.185958 0.460987
-0.0313235 -0.300302 0.480099
-0.207768 -0.141861 0.233978
-0.212529 0.20158 0.0492696
0.302256 0.205396 0.460987
-0.0536039 0.176719 0.460987
0.0775025 -0.0146428 0.431589
-0.107484 0.214806 0.481029
0.278517 0.200101 0.460987
-0.175811 0.0030998 0.460987
0.153924 0.0998016 0.481029
0.222409 0.264914 0.481029
0.0787124 0.283979 0.46701
0.208067 -0.143039 0.212692
-0.0946754 0.0664831 0.460987
0.0145846 0.174799 0.481029
-0.199062 -0.201229 0.109648
-0.0621212 -0.215177 0.460987
-0.0100245 0.241924 0.481029
-0.0204913 -0.0820962 0.460987
-0.192605 0.0969077 0.372715
-0.0866493 -0.0423858 0.460987
0.100705 0.0088582 0.460987
-0.0204185 0.0770234 0.460987
-0.209512 0.158009 0.16648
-0.00536391 0.162793 0.460987
-0.212509 -0.088148 0.481029
-0.269806 -0.0584607 0.460987
0.314489 -0.0544576 0.481029
0.202105 -0.198192 0.125799
0.252747 0.240494 0.481029
0.000666767 -0.13229 0.460987
0.193747 0.114289 0.460363
-0.149183 0.236182 0.481029
0.0562324 -0.155641 0.481029
0.162294 0.198055 0.460987
-0.194802 0.122147 0.24514
0.205667 0.182062 0.0972869
-0.172806 -0.0691414 0.418772
0.195352 0.0384147 0.449556
0.159783 -0.0748406 0.481029
-0.294201 -0.264785 0.481029
-0.0987974 0.216613 0.460987
-0.201337 0.175642 0.481029
0.222651 0.0820962 0.460987
0.222455 0.201407 0.481029
0.222731 -0.223389 0.0349257
-0.290672 0.300643 0.476619
0.181828 -0.0236011 0.429715
0.25497 -0.18021 0.481029
-0.283205 -0.0764555 0.481029
-0.225404 0.227018 0.460987
0.21341 0.169592 0.153618
-0.0297037 -0.00178851 0.431589
-0.0024859 0.116318 0.481029
0.101732 0.112588 0.460987
0.075811 0.2166 0.460987
0.307551 0.0577958 0.4626
-0.0843519 -0.0651239 0.481029
0.275322 0.175739 0.481029
-0.290787 0.257045 0.460987
-0.14465 0.109864 0.481029
0.021671 0.223182 0.460987
0.0338198 -0.0798091 0.481029
-0.172951 -0.203676 0.481029
-0.131657 -0.0167024 0.437351
-0.183619 -0.0796272 0.352822
0.313316 0.120515 0.481029
-0.0625542 0.272113 0.463774
0.209021 -0.263501 0.461425
0.265951 0.0196797 0.481029
0.0115515 0.300643 0.476248
0.2397 -0.0907596 0.460987
0.160755 0.0239304 0.481029
-0.0852843 0.107072 0.460987
0.00107732 -0.119858 0.481029
-0.125118 0.102328 0.460987
0.253549 -0.251304 0.481029
0.121213 0.233562 0.481029
-0.170765 0.049367 0.453074
0.182152 0.111258 0.331084
0.0813493 -0.255172 0.481029
-0.155751 -0.0686267 0.460987
0.224221 0.0820214 0.481029
0.227509 0.135086 0.481029
-0.204276 -0.300462 0.472335
0.193323 -0.0818277 0.400733
0.198566 -0.104872 0.481029
-0.244015 0.0194066 0.481029
0.118294 -0.0167024 0.450601
-0.301065 0.0642755 0.481029
0.120606 0.0528006 0.460987
-0.251746 -0.105227 0.481029
0.202374 0.194229 0.460987
-0.198783 -0.248981 0.481029
-0.197616 -0.138433 0.273906
0.162929 0.0914872 0.460987
0.173472 0.300643 0.477529
-0.0451726 0.299822 0.471457
0.088044 0.0355725 0.481029
-0.198795 0.144786 0.481029
-0.200518 0.188419 0.150293
-0.290364 -0.209868 0.460987
-0.29322 0.0777606 0.460987
-0.31785 0.186345 0.481029
-0.290325 0.133808 0.481029
0.18499 0.0860599 0.404841
-0.288321 0.000972867 0.481029
-0.217568 -0.18033 0.481029
-0.210452 0.104162 0.460987
0.196839 0.235242 0.481029
0.0481389 0.120031 0.460987
-0.039101 0.127712 0.481029
-0.195352 -0.0127409 0.434968
-0.13604 0.271865 0.463706
0.121913 -0.18419 0.460987
-0.271138 0.173033 0.460987
0.266195 -0.0733069 0.460987
-0.113989 6.05285e-05 0.481029
0.0908161 0.140117 0.481029
0.0659507 -0.036859 0.460987
0.192315 -0.00166622 0.460987
0.00876263 0.0976269 0.460987
0.0764519 0.174109 0.460987
0.172487 -0.161811 0.460987
-0.114131 0.165025 0.460987
0.310833 -0.10073 0.481029
0.0521573 0.262362 0.481029
-0.0487737 -0.126569 0.481029
-0.187793 0.0764993 0.460987
-0.305089 -0.101719 0.481029
-0.166796 0.160523 0.460987
-0.191031 0.0534071 0.430984
-0.178685 0.0805027 0.362029
0.115833 -0.259585 0.460987
0.221765 -0.123646 0.460987
0.293362 0.102042 0.481029
-0.25395 0.210037 0.481029
-0.210614 0.300643 0.478768
-0.295483 -0.150274 0.481029
-0.238445 0.24841 0.481029
-0.274236 -0.0335224 0.481029
-0.242812 0.0558757 0.481029
0.166581 -0.146781 0.481029
0.0414839 -0.00297153 0.481029
0.24341 -0.0658531 0.481029
-0.182607 0.020746 0.481029
-0.0190655 -0.19947 0.460987
-0.25148 0.122059 0.481029
-0.320107 -0.0764834 0.480877
-0.253976 0.0339116 0.460987
0.320687 -0.174316 0.475207
-0.14939 -0.00317851 0.431589
-0.23685 0.168805 0.460987
0.202117 0.226441 0.0312284
-0.0539364 0.207633 0.481029
-0.0604165 -0.104584 0.460987
-0.180892 0.111865 0.308533
0.0133986 -0.0254812 0.481029
0.280979 -0.107819 0.460987
0.0321364 0.0193166 0.460987
0.136377 -0.0605949 0.481029
0.203797 0.262706 0.461208
0.260104 0.0304634 0.460987
0.141169 0.203277 0.481029
-0.161569 0.0879538 0.481029
-0.0484413 0.078667 0.460987
-0.112966 0.0398055 0.460987
-0.159548 0.126979 0.460987
-0.123872 -0.00274786 0.460987
0.192362 -0.070147 0.381169
0.0267394 -0.201581 0.460987
0.155003 -0.210198 0.481029
0.0960707 -0.183363 0.481029
0.127523 0.157382 0.481029
0.114782 0.0489616 0.481029
0.107785 0.275421 0.481029
-0.116882 -0.060581 0.460987
0.171898 0.262168 0.481029
-0.111876 0.0993181 0.481029
0.0491101 0.175926 0.481029
0.231563 0.287194 0.467887
0.247563 -0.246769 0.460987
0.00520915 -0.195364 0.460987
-0.0455714 -0.212005 0.481029
0.194489 0.079165 0.360255
-0.213601 0.182781 0.103674
-0.189977 0.157438 0.212286
-0.0521457 0.110627 0.460987
0.299244 -0.269188 0.462976
-0.0263515 -0.248252 0.481029
0.188512 -0.112996 0.337994
0.165073 0.148248 0.460987
0.20041 0.217201 0.055265
-0.001183 0.0559186 0.481029
0.0790557 0.258827 0.460987
0.0601085 0.0544091 0.481029
0.191993 -0.172067 0.164851
0.118768 -0.150349 0.460987
0.225568 0.179017 0.460987
-0.186549 -0.090931 0.392531
-0.0845064 0.144881 0.481029
-0.213177 -0.0226173 0.481029
0.175504 0.220081 0.460987
0.296865 0.0781295 0.460987
0.015953 0.211157 0.481029
0.261588 -0.151072 0.481029
-0.166311 0.273067 0.481029
0.200662 -0.208038 0.0940698
-0.243747 -0.260521 0.460987
0.285066 -0.0451208 0.460987
0.224021 0.229028 0.0187145
0.182921 -0.0859381 0.437051
0.216134 -0.194406 0.0760732
0.173196 -0.0844231 0.460987
0.0440377 0.15845 0.460987
0.0115626 0.272925 0.481029
-0.0548255 0.0246068 0.460987
-0.283864 0.0163289 0.460987
0.178922 -0.00950801 0.481029
-0.0673938 0.0366491 0.481029
-0.1212 -0.120532 0.460987
-0.166852 0.182352 0.481029
0.304186 0.27232 0.481029
0.191352 0.112038 0.481029
0.0191734 -0.300643 0.475714
-0.158801 -0.200015 0.460987
0.189413 0.141361 0.262381
0.0447869 -0.0167024 0.436238
0.100274 0.0685145 0.481029
-0.0792516 -0.00794369 0.460987
0.204642 -0.144709 0.246801
-0.312744 -0.0136312 0.481029
-0.124138 -0.259041 0.481029
0.207008 -0.15476 0.168795
-0.0239329 0.260276 0.460987
0.181469 -0.0363905 0.460987
-0.0989559 0.0167024 0.447755
0.103924 0.162336 0.460987
0.282945 -0.188178 0.481029
-0.152839 0.0220213 0.460987
0.272244 -0.24487 0.460987
0.161529 -0.213665 0.460987
-0.0324878 0.224737 0.460987
0.0362105 -0.111267 0.481029
0.200211 -0.224597 0.481029
-0.300265 -0.0440598 0.460987
-0.214511 -0.11883 0.460987
-0.285649 0.281224 0.466259
-0.070198 -0.270514 0.481029
-0.0260347 0.181491 0.481029
-0.037617 0.00277287 0.460987
0.0856542 -0.227999 0.481029
0.252652 -0.0385143 0.481029
-0.207301 -0.191028 0.144155
-0.227195 -0.233743 0.481029
-0.175452 -0.121589 0.460987
0.114673 0.137728 0.460987
0.28508 0.286909 0.467809
-0.300733 0.23169 0.460987
-0.220636 -0.0554506 0.481029
-0.0413017 -0.0886234 0.481029
-0.108356 -0.102369 0.481029
-0.182822 0.218273 0.481029
0.0431559 0.20789 0.481029
-0.314674 0.126126 0.467455
-0.305207 0.163466 0.461
-0.0143431 -0.00302812 0.481029
-0.246444 0.266187 0.462158
-0.0820197 -0.168164 0.481029
-0.19813 0.170437 0.195619
0.0684969 -0.0460488 0.481029
0.274319 0.258606 0.481029
0.195026 0.186075 0.139118
0.158562 0.140189 0.481029
-0.206439 0.224007 0.00423356
-0.0122208 0.300643 0.473109
0.192354 0.181066 0.481029
0.188305 0.10042 0.300441
0.283048 -0.278368 0.481029
0.306489 0.143942 0.461876
0.278594 -0.060923 0.481029
0.301466 0.00619578 0.481029
-0.00828207 -0.0396788 0.460987
0.227838 -0.092274 0.481029
0.220712 0.0126052 0.460987
0.320687 0.223003 0.477927
0.102524 0.206981 0.481029
-0.125469 0.189897 0.481029
0.215482 -0.0343454 0.481029
0.0953179 -0.292835 0.481029
-0.218581 -0.202562 0.0889067
0.239244 0.000391543 0.481029
-0.155394 -0.16671 0.481029
-0.261173 -0.15868 0.460987
-0.211863 0.121137 0.481029
0.19145 -0.27758 0.481029
-0.287491 0.249 0.481029
-0.161551 -0.0565434 0.481029
0.126187 0.0818489 0.481029
-0.19539 0.126813 0.460987
-0.00486085 0.0326882 0.460987
0.197024 -0.166425 0.481029
-0.150914 -0.0167024 0.45048
-0.0619633 0.11923 0.481029
-0.184081 -0.146301 0.481029
-0.143646 -0.0272449 0.481029
-0.200481 0.215312 0.0669218
-0.17989 -0.0967848 0.329621
0.0730713 0.0117942 0.460987
0.171929 -0.0516931 0.438622
-0.21952 0.206328 0.0773435
0.31112 0.191474 0.481029
-0.0832434 -0.0304036 0.481029
0.0967134 -0.00769708 0.481029
0.119852 0.230434 0.460987
0.08061 0.0757999 0.460987
0.186495 0.137899 0.234921
-0.117985 0.257983 0.460987
-0.0149106 0.0753182 0.481029
0.205329 0.150717 0.1774
-0.143865 -0.221857 0.481029
0.127752 0.103328 0.460987
0.172137 -0.299758 0.480638
-0.285613 -0.105665 0.460987
0.209364 0.0183479 0.481029
-0.0896664 0.238734 0.481029
0.311805 -0.154484 0.4655
0.212262 -0.0525248 0.460987
0.137641 0.000806779 0.460987
0.154867 -0.261214 0.460987
-0.0614108 0.153023 0.481029
0.246345 0.0554263 0.481029
-0.242918 -0.203963 0.481029
0.0853812 -0.0768657 0.460987
-0.188602 0.255179 0.460987
-0.0240326 -0.261977 0.46101
-0.211478 0.155876 0.460987
0.109838 -0.256522 0.481029
0.225024 -0.191817 0.460987
0.176295 0.166844 0.460987
0.20025 -0.117927 0.310911
0.11738 -0.0773364 0.460987
-0.0558443 -0.0547162 0.481029
0.186787 -0.136806 0.267204
-0.104245 -0.299814 0.480583
0.183985 0.10324 0.359713
0.00481495 -0.0745159 0.481029
-0.100274 0.0730178 0.481029
-0.230066 -0.295291 0.481029
-0.068087 0.264312 0.481029
-0.0525351 0.0546137 0.460987
-0.315524 -0.160133 0.481029
-0.278648 0.0601939 0.460987
0.0704331 -0.202901 0.481029
-0.0236209 0.147165 0.460987
0.315692 0.0323636 0.46815
0.0334086 -0.228481 0.460987
0.246167 0.249656 0.460987
-0.0567487 -0.188019 0.460987
-0.191383 -0.168696 0.172465
-0.264147 0.206795 0.460987
-0.129663 0.0270402 0.481029
0.00333273 0.12629 0.460987
-0.167183 0.201043 0.460987
0.0286195 0.0518708 0.481029
0.273328 0.056731 0.481029
-0.155411 0.159074 0.481029
0.251847 -0.17636 0.460987
-0.210211 -0.180348 0.103237
-0.203497 0.206146 0.481029
-0.102466 0.281435 0.466316
0.0663041 -0.276856 0.465067
0.13808 0.0759376 0.460987
-0.275001 -0.200923 0.481029
0.3196 -0.197527 0.481029
0.287758 -0.117847 0.481029
-0.306449 -0.219567 0.481029
0.137532 -0.0126831 0.431589
0.202374 0.11821 0.300634
0.034621 0.147344 0.481029
0.195352 0.0727995 0.457055
-0.194962 0.0617174 0.460987
0.174102 -0.11725 0.45965
-0.284623 -0.293211 0.481029
0.256965 0.198124 0.481029
-0.100077 -0.0248331 0.460987
-0.203566 -0.219936 0.021714
-0.143272 -0.177168 0.460987
-0.217385 0.0271563 0.460987
-0.0406404 -0.0410328 0.460987
0.145717 -0.0268474 0.460987
-0.170765 -0.0434776 0.456607
-0.00129241 -0.193301 0.481029
-0.250044 -0.0408811 0.481029
0.0945026 -0.0167024 0.456821
-0.225249 -0.284138 0.467053
0.0374033 -0.0735476 0.460987
0.0286226 0.10588 0.481029
0.171642 0.0626098 0.432627
0.0489089 -0.169813 0.460987
0.0067282 0.0277292 0.481029
0.0718678 -0.139296 0.460987
0.0372981 -0.0314501 0.481029
0.119932 0.0152234 0.460987
0.0864999 -0.107218 0.460987
-0.0740838 -0.249554 0.460987
-0.125826 -0.294368 0.469843
-0.097753 -0.103912 0.460987
-0.19366 -0.221177 0.481029
0.0277751 -0.139111 0.460987
0.303159 -0.0338922 0.481029
-0.150992 0.296678 0.481029
0.202075 -0.169444 0.128977
-0.191404 -0.128234 0.30038
-0.171695 -0.300643 0.473776
0.289286 -0.00513825 0.460987
0.220547 0.156395 0.460987
-0.117283 -0.215752 0.481029
0.00567392 -0.260495 0.481029
-0.0875488 0.0186924 0.481029
0.0195294 -0.179201 0.481029
-0.182765 0.121356 0.295802
0.186389 -0.13272 0.241933
-0.221865 -0.223092 0.00699079
0.157957 0.0041146 0.431589
-0.156299 -0.234942 0.460987
-0.15629 0.0228134 0.481029
0.196207 0.0778332 0.384673
0.173199 0.0644887 0.481029
0.141772 0.248531 0.460987
0.220896 -0.215858 0.0576444
-0.108258 0.133607 0.481029
-0.00532722 0.228548 0.460987
0.17667 0.0649357 0.397476
0.0167996 -0.253928 0.460987
0.155395 -0.108484 0.481029
0.279597 0.250759 0.460987
0.196416 0.273962 0.481029
0.0467481 0.0560852 0.460987
-0.261755 -0.0891225 0.460987
0.190435 0.245388 0.460987
-0.0772244 -0.225979 0.481029
0.130638 -0.206515 0.481029
-0.00866458 -0.102989 0.460987
-0.207337 -0.225012 0.0599016
0.188401 -0.150918 0.207743
0.0416915 0.0167024 0.437661
0.141829 -0.167399 0.460987
0.210704 -0.02573 0.460987
-0.183626 -0.10729 0.481029
-0.266656 -0.252995 0.481029
-0.192917 -0.0567904 0.481029
-0.0867278 -0.247597 0.481029
0.100274 -0.0728528 0.481029
0.18261 -0.0896156 0.481029
0.189597 0.158729 0.194158
-0.171528 -0.253564 0.460987
-0.206887 -0.157439 0.481029
-0.229179 -0.217672 0.460987
-0.029374 -0.191571 0.481029
0.238855 0.217606 0.481029
0.126468 -0.0382809 0.481029
0.212763 0.0540176 0.481029
0.257836 0.180704 0.460987
-0.0499556 0.253372 0.460987
-0.123848 0.271528 0.481029
-0.18498 -0.0212534 0.460987
0.150318 0.027718 0.460987
0.0183168 -0.206606 0.481029
0.0572996 0.203016 0.460987
-0.263885 0.299143 0.471142
-0.294723 -0.134211 0.460987
0.194334 -0.226341 0.460987
-0.195352 0.0327927 0.440335
0.278821 -0.300145 0.47178
-0.19338 0.0760165 0.410775
0.038647 -0.0513086 0.481029
-0.195352 -0.0376153 0.438208
0.201532 -0.201847 0.481029
-0.274758 -0.278708 0.465572
-0.301876 0.166949 0.481029
-0.20086 -0.173993 0.460987
0.22239 -0.222498 0.0122745
-0.170765 -0.0951594 0.460811
-0.267161 0.0631011 0.481029
-0.236434 -0.133499 0.460987
-0.139217 -0.0837774 0.481029
0.293281 0.137668 0.481029
-0.188934 0.115958 0.330621
0.28132 0.20839 0.481029
0.23624 -0.288663 0.468287
-0.0622509 0.060849 0.481029
-0.170765 0.0277823 0.454311
-0.307802 0.00425658 0.46277
0.297843 0.17198 0.460987
0.113258 -0.102083 0.460987
0.148049 -0.189968 0.481029
-0.2761 0.111818 0.481029
-0.18824 -0.00759917 0.481029
0.0145991 -0.0978395 0.481029
0.300768 -0.256259 0.481029
0.117287 -0.146924 0.481029
0.0397228 -0.261932 0.481029
0.0114414 0.199318 0.460987
-0.00585219 0.14188 0.481029
0.253368 -0.226752 0.481029
0.227554 0.210823 0.460987
-0.0363891 -0.268556 0.481029
-0.202816 0.239678 0.460987
-0.212272 0.186992 0.460987
-0.0710189 0.190339 0.460987
-0.1915 0.134447 0.221328
0.0786611 0.295696 0.481029
0.0609703 -0.104195 0.460987
0.220183 0.126287 0.460987
-0.17504 0.0600304 0.412011
-0.2726 -0.033837 0.460987
0.100545 -0.123618 0.481029
0.134301 -0.281265 0.481029
-0.256584 0.182333 0.481029
0.166576 0.169278 0.481029
0.145866 -0.237059 0.460987
-0.112039 -0.0713897 0.481029
0.186968 -0.059801 0.399858
-0.0768229 -0.170425 0.460987
-0.196282 0.149979 0.179624
-0.0722503 0.0556359 0.460987
0.0607617 0.018101 0.481029
-0.265244 -0.126648 0.481029
0.320629 0.248927 0.479565
-0.0259518 -0.024217 0.460987
-0.188211 -0.14629 0.241712
0.307307 -0.245676 0.462434
0.192582 -0.101352 0.363124
-0.175225 -0.272838 0.481029
-0.0529345 -0.296682 0.470474
0.186218 -0.0633817 0.481029
-0.0696795 0.293475 0.4696
0.169911 -0.00957629 0.460987
-0.0461185 -0.164812 0.460987
0.066372 -0.179003 0.481029
-0.111558 -0.136816 0.460987
-0.157595 -0.280522 0.466067
0.285451 0.0525613 0.460987
0.101994 -0.189111 0.460987
0.072774 0.227724 0.481029
0.301745 -0.204441 0.460987
-0.205694 0.165169 0.139185
0.208664 -0.204503 0.0423616
-0.0107419 0.0587989 0.460987
-0.124629 -0.23921 0.481029
0.269055 0.114524 0.460987
-0.201264 -0.212356 0.0451098
0.11465 0.195496 0.460987
0.225751 -0.27106 0.481029
0.100374 -0.100226 0.481029
-0.230362 -0.178316 0.460987
-0.00100973 0.27773 0.465306
-0.309266 0.252438 0.481029
0.185933 -0.259833 0.460987
-0.123133 0.246775 0.481029
0.242056 0.0430438 0.460987
0.150178 -0.0750177 0.460987
-0.0354291 -0.218198 0.460987
-0.320687 0.077666 0.475464
-0.251439 -0.0136058 0.460987
-0.252289 0.102576 0.481029
0.0447352 0.0907414 0.460987
-0.267461 -0.0145478 0.481029
-0.211277 -0.270196 0.481029
-0.0623288 -0.153299 0.481029
-0.140815 -0.13516 0.460987
-0.283499 0.244173 0.460987
0.116723 -0.186103 0.481029
-0.0913088 0.193329 0.460987
0.259959 -0.201022 0.481029
-0.0244268 0.108474 0.481029
0.102892 0.0385008 0.460987
-0.197561 -0.0883984 0.368292
0.141768 0.0167024 0.438158
0.102094 0.244795 0.460987
0.296035 0.0605844 0.481029
-0.235447 -0.0589042 0.460987
-0.295618 -0.122551 0.481029
0.0970627 0.279649 0.465829
-0.29939 -0.202312 0.481029
-0.179209 -0.0578195 0.443568
-0.0450371 0.0167024 0.442612
0.0894035 -0.0428758 0.460987
-0.198143 -0.113492 0.268972
0.202557 -0.125986 0.288117
-0.28602 0.0398194 0.460987
-0.310874 -0.264578 0.464865
0.319626 -0.0781206 0.481029
0.0838979 0.268929 0.481029
-0.198697 -0.107649 0.335064
0.188277 0.110722 0.277463
-0.250646 -0.231111 0.460987
0.193933 0.0673613 0.399268
-0.185449 0.0866432 0.437634
-0.0899163 -0.285352 0.467384
0.195352 -0.00865041 0.43535
0.0264312 0.28762 0.468003
0.0519321 -0.129061 0.481029
0.289953 -0.229429 0.460987
-0.22853 0.225798 0.481029
0.0413468 -0.29504 0.470027
0.011052 0.0119713 0.460987
-0.167642 -0.011385 0.481029
0.0714408 -0.278637 0.481029
-0.199468 -0.147532 0.182472
0.292057 0.123152 0.460987
0.122629 -0.121274 0.460987
0.0550093 -0.239261 0.460987
-0.208142 0.228147 0.0524891
-0.294397 0.0441591 0.481029
-0.073339 -0.0866295 0.460987
0.196001 0.193446 0.11428
-0.10518 0.0036995 0.431589
0.0999892 -0.057406 0.460987
-0.17708 -0.0907497 0.371794
-0.0827397 -0.00192696 0.481029
-0.259426 -0.278492 0.481029
0.216226 0.201124 0.103869
-0.27467 -0.0987534 0.481029
-0.157384 0.225689 0.460987
-0.126886 0.123553 0.460987
0.220165 0.206208 0.067016
0.320655 0.146135 0.479319
0.044327 -0.0147118 0.460987
-0.196159 0.0777877 0.386332
-0.209782 -0.156512 0.204636
0.207538 0.138123 0.231312
-0.251275 0.150416 0.460987
0.0837319 -0.0308715 0.481029
-0.271166 0.0860869 0.460987
-0.221892 -0.0969164 0.460987
-0.301397 0.0867778 0.481029
-0.240581 -0.180906 0.481029
-0.194019 0.277158 0.46515
-0.233829 0.10614 0.460987
-0.0191887 0.226767 0.481029
0.0295573 0.259381 0.460987
0.31648 -0.123466 0.481029
-0.0349264 0.190149 0.460987
0.196489 -0.192372 0.10195
-0.0464903 0.0377927 0.481029
0.269877 -0.00229591 0.481029
-0.134541 -0.240436 0.460987
0.306842 0.0988577 0.462116
-0.100918 -0.188279 0.481029
-0.201751 -0.107475 0.310816
0.207848 0.154018 0.481029
-0.20515 0.264884 0.481029
0.0877953 0.0142569 0.481029
-0.00881502 -0.0623112 0.460987
0.199949 -0.0979026 0.329211
-0.11159 -0.0167024 0.446356
-0.276779 0.201131 0.481029
-0.237355 -0.156295 0.460987
0.209159 -0.241529 0.0172157
-0.0413775 0.277925 0.465359
0.236622 0.0665455 0.460987
0.103672 -0.00557673 0.431589
0.135333 0.284713 0.481029
-0.00743449 -0.148601 0.481029
-0.025101 0.0167024 0.45075
-0.265406 0.145019 0.481029
0.207109 -0.149779 0.460987
0.245354 0.112839 0.481029
0.0611905 0.106737 0.460987
0.19373 0.0558809 0.460987
-0.207174 0.145267 0.235103
0.213769 0.177082 0.481029
-0.178863 0.0940495 0.458236
0.0535029 0.0167024 0.460585
0.11072 0.132228 0.481029
-0.276814 -0.184577 0.460987
-0.202904 0.229472 0.0283511
0.288961 0.300582 0.479253
0.190065 -0.0515867 0.431717
-0.116843 -0.151732 0.481029
-0.256284 -0.221916 0.481029
-0.220411 0.28215 0.481029
-0.307592 -0.113065 0.462627
0.178408 -0.0950535 0.34166
-0.143322 0.193125 0.460987
0.153112 -0.295986 0.470285
-0.295124 -0.239058 0.460987
-0.26658 0.0101565 0.481029
0.0480912 -0.266181 0.462156
-0.169815 -0.225886 0.481029
0.252596 0.0897555 0.460987
-0.150876 0.176291 0.460987
-0.177734 -0.0635333 0.460987
0.20885 -0.170986 0.184241
-0.150231 0.129728 0.481029
0.144084 -0.239875 0.481029
0.319283 -0.145702 0.481029
-0.0645714 0.0935619 0.460987
-0.170765 0.0688499 0.460228
0.177221 0.129686 0.460987
0.0782647 0.102868 0.481029
0.304309 -0.104359 0.460987
0.264603 -0.279997 0.481029
0.218235 -0.281969 0.466462
0.195352 -0.0752695 0.453567
-0.19377 0.0971499 0.307534
0.00365055 -0.271584 0.46363
0.0602825 -0.0867112 0.481029
0.027872 0.128549 0.460987
-0.191436 -0.0594179 0.411831
0.271242 0.228834 0.460987
-0.205307 0.193846 0.0702105
0.281312 -0.130862 0.460987
-0.10753 -0.215517 0.460987
0.157886 0.241457 0.460987
-0.183243 -0.125066 0.280367
0.0864157 0.0951653 0.460987
0.0100877 -0.0167024 0.452769
0.0409321 -0.0523727 0.460987
-0.120534 0.211399 0.460987
0.255205 -0.0433788 0.460987
-0.117742 0.0768561 0.460987
-0.0295247 -0.129455 0.481029
-0.0857529 0.21327 0.481029
0.131022 0.152147 0.460987
-0.0843425 0.0585563 0.481029
-0.187688 0.155609 0.460987
0.251423 0.146063 0.481029
-0.299051 0.143179 0.460987
-0.185431 0.192982 0.481029
-0.152831 0.00430614 0.460987
-0.192743 -0.185428 0.481029
0.290293 0.160058 0.481029
-0.137657 0.0419045 0.460987
-0.118738 -0.0986727 0.460987
-0.0912336 0.04148 0.460987
0.20412 0.212498 0.481029
0.202219 0.136641 0.460987
0.202891 -0.163229 0.211842
-0.141306 0.175415 0.481029
0.0661272 0.135316 0.460987
-0.106159 0.14109 0.460987
-0.0555769 -0.238973 0.460987
-0.195352 0.00290532 0.456003
0.0837698 -0.223477 0.460987
-0.201314 -0.221524 0.460987
-0.0365865 -0.00818887 0.481029
0.103513 -0.16044 0.460987
-0.180133 -0.199118 0.460987
-0.233378 -0.116808 0.481029
0.17738 0.0971271 0.481029
-0.0698145 -0.0248972 0.460987
-0.0547262 -0.0119562 0.431589
-0.228215 0.173344 0.481029
0.181925 0.0671698 0.447354
-0.259545 0.247862 0.481029
0.19851 0.206245 0.0748161
0.0279454 0.000682533 0.460987
-0.114073 -0.130826 0.481029
0.188153 -0.1858 0.481029
0.231317 -0.1351 0.481029
0.200595 -0.125698 0.481029
0.165198 0.117521 0.481029
0.080194 -0.13005 0.481029
0.284446 -0.0837586 0.460987
-0.185215 -0.00441055 0.426246
0.234197 -0.0199382 0.481029
0.110517 -0.206282 0.481029
0.185992 0.286986 0.46783
0.310311 0.0413809 0.481029
-0.251598 0.0732913 0.481029
-0.211275 -0.259968 0.460987
0.216171 0.101848 0.460987
0.152875 -0.128794 0.481029
0.154315 0.24964 0.481029
-0.128188 0.212969 0.481029
-0.225982 0.0556741 0.481029
0.187216 0.0956006 0.460987
0.26843 0.0116197 0.460987
-0.132568 0.0184375 0.460987
-0.297299 0.279763 0.481029
0.320352 -0.0172668 0.480588
0.177686 0.0943997 0.349555
0.170765 0.044101 0.458411
0.0209242 -0.126089 0.481029
-0.1304 -0.282731 0.481029
-0.245216 -0.244756 0.481029
0.244589 -0.278947 0.481029
0.155675 0.178614 0.460987
-0.269906 0.257057 0.460987
-0.0309176 0.097032 0.460987
-0.0973396 -0.0492746 0.481029
0.106325 0.0167024 0.446487
0.177232 -0.079652 0.412746
-0.0170498 0.0172702 0.481029
-0.218832 -0.00522587 0.460987
-0.193107 0.0794338 0.481029
0.261107 0.218163 0.481029
-0.291144 -0.0574556 0.481029
-0.0986015 -0.0148241 0.481029
0.239142 0.26889 0.462895
0.0735307 0.171587 0.481029
-0.120295 0.053545 0.481029
0.155201 0.10894 0.460987
0.19344 -0.254181 0.481029
0.29057 -0.0828948 0.481029
-0.311169 0.0631586 0.465066
-0.0903919 -0.111977 0.481029
-0.228951 0.131589 0.481029
-0.305405 0.109771 0.481029
-0.0990819 0.121978 0.460987
0.194429 -0.182994 0.146364
0.285866 0.0740586 0.481029
0.211409 0.283932 0.481029
0.031931 0.190818 0.481029
-0.173491 -0.0806928 0.452829
-0.117273 0.232205 0.460987
-0.204928 0.127366 0.271086
-0.0404283 -0.0789645 0.460987
0.26952 -0.203401 0.460987
0.245935 0.28205 0.481029
0.0453767 -0.191538 0.460987
0.0238149 0.257095 0.481029
-0.0127065 -0.153366 0.460987
-0.00411248 0.163592 0.481029
-0.281925 -0.159568 0.460987
0.273187 0.0777439 0.460987
-0.0957437 0.169292 0.481029
-0.17448 -0.0778313 0.395156
0.0417974 0.0355698 0.460987
-0.187497 0.115037 0.270106
0.198845 -0.129778 0.226488
0.0316119 0.127513 0.481029
-0.122436 0.286901 0.467807
-0.196717 -0.0881805 0.340286
-0.0606091 0.173053 0.481029
-0.17014 0.234385 0.481029
0.275097 -0.165864 0.481029
-0.224274 -0.147493 0.481029
-0.309421 -0.204712 0.463874
0.180658 -0.205036 0.460987
0.185672 0.0160593 0.460987
-0.00500998 0.186165 0.460987
0.153099 -0.257899 0.481029
-0.0898444 -0.0620453 0.460987
-0.139045 -0.0850241 0.460987
-0.154928 0.01594 0.432069
0.144013 0.275072 0.464581
0.0395833 0.0789351 0.481029
-0.0153051 -0.211461 0.481029
-0.0722009 0.136276 0.460987
-0.0266175 0.166797 0.460987
-0.0516051 0.253223 0.481029
-0.29272 -0.191196 0.460987
-0.195883 0.187357 0.111172
-0.229419 0.00606459 0.481029
-0.178667 0.156941 0.481029
0.061248 0.244829 0.481029
-0.244534 -0.285785 0.467503
-0.061573 -0.0428421 0.460987
0.104998 0.0650936 0.460987
0.31376 -0.285245 0.467355
0.216158 -0.213618 0.0805491
0.214737 0.0993085 0.481029
0.17895 0.0401946 0.436433
-0.136965 -0.154958 0.481029
0.00361416 0.227746 0.481029
0.233288 -0.251942 0.481029
-0.1113 0.154217 0.481029
-0.161615 0.254025 0.481029
-0.0693091 -0.111687 0.481029
-0.220448 0.216799 0.0587783
0.0858616 -0.00287724 0.460987
-0.0520005 -0.122256 0.460987
0.128536 -0.202605 0.460987
0.243193 0.0772769 0.481029
-0.176073 -0.243935 0.481029
0.210565 0.157486 0.196502
-0.222453 0.203638 0.460987
0.222636 0.258664 0.460987
0.0311472 -0.221287 0.481029
0.0585427 0.265599 0.461998
0.185322 0.0209157 0.481029
0.0973945 0.230572 0.481029
0.186817 0.123078 0.256222
0.271554 -0.219828 0.481029
0.320687 0.068896 0.478852
0.0843176 -0.0839864 0.481029
0.175081 0.108961 0.460987
0.0190158 -0.0797808 0.460987
0.186574 -0.0933227 0.386804
0.0129476 -0.158379 0.481029
-0.0906813 -0.156893 0.460987
0.183231 -0.116235 0.319701
0.0643603 -0.0167024 0.445982
-0.235648 0.243411 0.460987
0.107863 -0.241987 0.460987
0.220607 -0.0935929 0.460987
-0.319845 -0.0268854 0.470981
-0.310582 0.264292 0.464666
-0.218837 -0.210638 0.034997
0.254393 -0.0193626 0.481029
-0.154091 -0.200055 0.481029
0.048938 0.177006 0.460987
-0.156974 0.274 0.464288
0.303961 -0.0418969 0.460987
0.164178 0.00271705 0.481029
0.069645 -0.238536 0.481029
-0.190498 -0.0713111 0.44903
0.027768 0.228406 0.481029
0.261461 -0.220807 0.460987
-0.2195 0.0873495 0.460987
0.20979 0.218548 0.00935998
-0.187611 0.109652 0.460987
0.0686291 -0.0556916 0.460987
-0.215785 -0.18796 0.125669
0.154651 0.0808052 0.481029
-0.198854 0.0919698 0.349323
-0.276691 0.227164 0.481029
-0.224568 -0.198274 0.481029
-0.202494 -0.108844 0.481029
-0.0427128 0.19042 0.481029
0.230934 0.238503 0.460987
0.228718 -0.0540024 0.481029
-0.098018 -0.193181 0.460987
-0.196516 -0.285479 0.481029
0.141527 0.0470467 0.460987
-0.296099 -0.0223182 0.481029
0.0491349 0.226754 0.481029
-0.320124 -0.22129 0.471168
-0.130472 0.0965928 0.481029
0.248273 -0.0676593 0.460987
0.123689 -0.279126 0.465687
0.0576185 -0.216621 0.481029
-0.192728 -0.257106 0.460987
0.193294 -0.148033 0.481029
0.0360422 -0.000765149 0.431589
-0.126936 -0.147561 0.460987
0.0765098 0.152231 0.481029
0.171499 -0.18053 0.460987
-0.0167733 -0.219804 0.460987
0.283926 0.0127384 0.481029
-0.287033 0.0968739 0.460987
-0.00433517 0.267123 0.481029
0.320594 0.273372 0.472151
-0.146186 -0.275223 0.481029
0.179303 -0.0710349 0.448919
0.275144 -0.273196 0.464069
-0.0788368 0.0763043 0.460987
-0.214021 0.175405 0.151157
-0.135193 0.287247 0.481029
-0.0677108 0.245429 0.460987
-0.019206 0.24072 0.460987
-0.0731625 -0.00951664 0.431589
-0.00520973 -0.0167024 0.439057
0.0513333 -0.0175966 0.481029
0.0363795 -0.171402 0.481029
-0.320687 -0.176488 0.474035
0.0897881 0.0837582 0.481029
-0.0985082 -0.149348 0.481029
0.179604 -0.144771 0.460987
-0.201082 0.216518 0.0414355
0.16717 -0.0678008 0.460987
-0.0453408 -0.0698521 0.481029
-0.219777 -0.210536 0.0716267
-0.126167 -0.278342 0.465473
-0.277706 -0.155002 0.481029
-0.253249 0.181075 0.460987
0.20191 -0.209595 0.460987
0.0846803 0.202577 0.481029
-0.194195 -0.131064 0.481029
-0.136876 0.161786 0.460987
0.269422 0.232839 0.481029
0.098603 0.258054 0.460987
0.207755 -0.228395 0.0512246
-0.0882872 0.0108382 0.431589
0.122596 -0.0100375 0.481029
-0.0777055 -0.0478661 0.481029
-0.191425 0.164471 0.169526
0.00703731 -0.157234 0.460987
0.241933 -0.197837 0.481029
-0.151589 0.0571287 0.460987
-0.2941 -0.184801 0.481029
0.0118572 -0.14197 0.481029
0.116106 -0.0610468 0.481029
0.140853 -0.122083 0.460987
0.0809806 -0.296723 0.470485
-0.216655 -0.196615 0.10878
0.0409209 -0.114794 0.460987
-0.155973 -0.0908586 0.481029
0.150045 -0.154338 0.481029
0.221347 -0.109256 0.481029
-0.300027 0.189902 0.481029
-0.108034 -0.246586 0.481029
-0.305243 0.214129 0.461025
-0.195247 -0.17098 0.190166
0.196952 0.168088 0.140033
-0.0836114 0.262501 0.461152
-0.236038 0.0314767 0.460987
-0.207014 -0.158065 0.159727
-0.0765232 -0.113452 0.460987
-0.257853 -0.186301 0.481029
-0.279473 -0.0737471 0.460987
0.192442 0.0563002 0.442953
0.0535922 0.00343512 0.431589
0.26422 -0.101073 0.460987
0.0754602 0.0711057 0.481029
-0.243093 0.285965 0.467552
0.30361 0.243119 0.481029
0.126089 -0.240248 0.460987
0.208962 -0.0798328 0.460987
-0.0369546 0.128865 0.460987
-0.320581 -0.103547 0.472027
0.19703 0.107715 0.340583
0.184608 -0.0541787 0.460987
-0.131108 0.000340922 0.431589
0.232326 -0.138211 0.460987
-0.184358 -0.130589 0.263294
-0.19291 -0.117303 0.460987
0.209865 -0.15126 0.196807
0.0372753 0.281665 0.481029
0.214786 0.234558 0.481029
0.250389 -0.0260849 0.460987
-0.0560015 -0.197404 0.481029
0.00701946 -0.213213 0.460987
-0.0100469 -0.183293 0.460987
0.0742191 0.19707 0.460987
0.293372 0.194037 0.481029
0.259483 0.0432383 0.481029
-0.132176 -0.20498 0.481029
-0.176233 0.120506 0.460987
0.196982 0.197326 0.0938382
0.138879 0.185154 0.481029
0.0239624 0.032486 0.481029
0.0569747 0.23404 0.460987
-0.201801 -0.0412987 0.481029
-0.251049 0.0401349 0.481029
-0.210776 0.169546 0.180022
-0.0968705 -0.00523981 0.460987
-0.0985493 0.297686 0.470748
0.0760298 -0.0928232 0.460987
-0.285452 0.0789147 0.481029
0.195614 0.177787 0.460987
-0.0205062 -0.278787 0.465594
-0.191577 0.300643 0.47671
-0.0953773 0.0927327 0.481029
0.170765 -0.0276119 0.446342
-0.0992576 0.199065 0.481029
-0.0332931 0.215986 0.481029
-0.159131 -0.143554 0.481029
0.19724 0.136953 0.277689
-0.0683425 0.195324 0.481029
0.309811 0.00103182 0.464141
-0.245588 -0.00119665 0.481029
-0.204166 -0.21578 0.0805262
0.184443 -0.073702 0.365361
0.100316 0.297265 0.470633
0.284885 0.267574 0.462536
-0.0438457 -0.106131 0.481029
0.305154 -0.06452 0.460987
-0.182124 0.0780988 0.424246
-0.0355119 -0.15068 0.460987
0.242254 0.201028 0.460987
0.152596 0.156803 0.481029
-0.171859 0.0347465 0.481029
-0.0960739 -0.271152 0.463512
-0.0469077 -0.0245385 0.460987
-0.217723 -0.244952 0.0105062
0.320366 0.0495749 0.471477
-0.0556661 -0.256328 0.481029
0.210844 0.0690172 0.460987
0.248805 0.0156476 0.481029
-0.0236126 0.251702 0.481029
0.264875 -0.0725362 0.481029
0.199925 0.184938 0.158978
0.274683 0.096027 0.481029
-0.297825 0.149648 0.481029
0.124792 -0.166802 0.460987
0.177714 0.0820962 0.460987
0.285692 -0.135239 0.481029
0.310057 0.184083 0.464309
0.197257 -0.0850924 0.373486
-0.208366 -0.280811 0.466146
0.283866 -0.260727 0.481029
-0.282497 0.22787 0.460987
0.195352 -0.0390017 0.443351
0.244361 -0.0979591 0.481029
0.198037 -0.0334078 0.481029
0.0276611 -0.0136496 0.481029
-0.108892 0.0111409 0.460987
-0.0681966 -0.277958 0.465368
0.193308 0.209139 0.460987
0.222811 0.221368 0.0355453
-0.171814 0.0340649 0.433951
-0.171968 0.204036 0.481029
-0.00197518 0.0738509 0.460987
0.0737615 0.0435977 0.481029
-0.137756 0.25623 0.481029
-0.201191 0.169889 0.460987
0.228443 -0.0775212 0.460987
-0.320327 0.172114 0.471379
-0.00966129 -0.239959 0.481029
-0.100624 0.265866 0.46207
0.134735 -0.0671612 0.460987
-0.177239 0.0743855 0.378172
0.255859 -0.117957 0.460987
0.0568017 0.160419 0.481029
0.0857963 -0.206164 0.460987
0.0492632 -0.031289 0.460987
-0.127858 0.113982 0.481029
0.132056 0.217936 0.481029
0.0379165 0.217356 0.460987
0.204727 0.236872 0.0156902
-0.148715 0.0741318 0.460987
0.078612 -0.122549 0.460987
-0.0403955 -0.182574 0.460987
0.123532 0.1763 0.481029
-0.170765 -0.0174123 0.440009
-0.273008 0.129588 0.481029
0.0200914 0.156534 0.481029
-0.272355 0.16463 0.481029
-0.164444 -0.286854 0.481029
0.174234 0.05936 0.415962
-0.305486 0.248263 0.461191
0.184743 -0.237514 0.481029
0.196088 -0.165906 0.146419
-0.212281 0.207872 0.100238
-0.190665 0.105411 0.356158
0.222978 -0.207624 0.460987
0.142946 0.164473 0.460987
0.282958 0.0434467 0.481029
-0.183183 0.0406092 0.460987
0.228584 0.116279 0.481029
0.0522598 -0.0407042 0.481029
-0.131462 -0.0697092 0.460987
0.280918 0.183186 0.460987
-0.00288782 -0.0203581 0.481029
-0.173892 0.00607777 0.481029
-0.215199 0.179935 0.125739
0.0168947 -0.125982 0.460987
0.144039 0.0206177 0.481029
-0.0582828 0.215999 0.460987
0.252715 0.0974815 0.481029
-0.264023 -0.085463 0.481029
-0.299197 0.0517716 0.460987
-0.141302 -0.285841 0.467518
-0.202117 -0.145615 0.251484
-0.304507 0.00617653 0.481029
-0.119633 0.080684 0.481029
0.00996897 -0.177851 0.460987
0.200154 -0.0406109 0.460987
0.278729 0.133682 0.460987
-0.189019 0.0654 0.445507
0.201453 -0.198257 0.0684562
0.198793 0.091493 0.349408
-0.247902 -0.138898 0.481029
0.166098 -0.197354 0.481029
-0.216165 -0.246631 0.481029
0.274566 0.285448 0.481029
0.142862 -0.0472122 0.460987
-0.0107404 -0.0167024 0.455069
-0.307341 -0.254121 0.481029
0.209998 0.198644 0.0558087
-0.138254 -0.161014 0.460987
0.316794 -0.0342517 0.468902
0.105976 -0.0264762 0.460987
0.186426 -0.131496 0.283245
0.157688 -0.12354 0.460987
-0.194176 0.128536 0.481029
0.120759 0.0711732 0.460987
0.195745 -0.275832 0.464788
0.30143 0.275242 0.464627
0.193568 0.0721837 0.41549
-0.223173 0.226129 0.00393825
-0.19949 -0.176433 0.117287
0.315138 0.238241 0.467772
-0.0493923 0.198755 0.460987
-0.186867 0.107005 0.288048
0.0887966 0.156266 0.460987
0.104565 0.0166624 0.481029
0.171564 0.251223 0.460987
-0.305822 -0.0205217 0.46142
-0.228431 -0.0312108 0.481029
0.0607933 0.102407 0.481029
-0.313045 -0.138649 0.481029
0.26199 0.24411 0.460987
-0.30259 -0.0851473 0.481029
0.237249 0.163995 0.481029
-0.247125 0.138217 0.481029
0.208027 -0.143375 0.230467
0.310121 -0.242392 0.481029
0.20052 0.279411 0.465764
0.11774 0.262009 0.481029
-0.00112814 0.142384 0.460987
-0.193617 -0.0939185 0.481029
-0.3082 -0.0696675 0.463042
0.171396 0.234998 0.481029
0.214894 -0.138449 0.481029
0.270073 0.0438204 0.460987
-0.235919 0.116093 0.481029
0.0437785 0.298809 0.480982
-0.285652 -0.0520431 0.460987
0.297264 -0.287034 0.481029
-0.244497 -0.211154 0.460987
0.253098 0.164753 0.460987
-0.135219 -0.0237949 0.460987
0.222587 -0.0395019 0.460987
0.0209019 -0.284998 0.481029
-0.0783641 0.250905 0.481029
-0.162523 -0.07318 0.481029
-0.320687 0.061283 0.478538
0.208623 -0.0047459 0.460987
-0.214077 0.0505694 0.460987
-0.320687 0.00647086 0.475776
-0.304399 0.184787 0.460987
0.126519 0.0167024 0.444675
-0.0363567 0.0760207 0.481029
0.0946671 -0.141408 0.460987
-0.187941 -0.0497325 0.42973
-0.307818 0.0272512 0.481029
-0.281008 0.287019 0.481029
-0.196353 0.079851 0.369931
0.184841 -0.130699 0.481029
-0.113675 0.0563167 0.460987
0.203815 -0.183558 0.163747
0.0645254 0.248724 0.460987
-0.0343398 0.208335 0.460987
-0.152103 0.190861 0.481029
-0.0253202 -0.0845899 0.481029
-0.189527 0.0356965 0.481029
0.258515 0.0669742 0.481029
-0.288024 0.266812 0.481029
0.0920925 -0.246579 0.460987
-0.116374 0.274003 0.464289
0.195352 0.0143275 0.445049
0.198735 -0.194474 0.0850374
0.0784183 -0.156125 0.481029
-0.149379 0.114106 0.460987
0.0850483 -0.0258977 0.460987
-0.205472 0.162184 0.209971
0.226187 -0.290698 0.481029
-0.132443 -0.0095962 0.481029
-0.0608905 0.00943205 0.460987
0.207473 -0.247239 0.460987
-0.0294819 -0.16973 0.481029
-0.067403 0.120674 0.460987
-0.159729 -0.219005 0.460987
0.241507 0.184745 0.460987
0.138604 0.297979 0.470828
-0.215059 0.137455 0.460987
-0.307746 -0.143849 0.462732
-0.248746 -0.12215 0.481029
-0.120623 -0.0852099 0.481029
-0.204701 -0.141136 0.203099
-0.0249985 -0.138282 0.460987
-0.293478 -0.233837 0.481029
-0.143918 -0.208203 0.460987
0.176056 -0.0506989 0.481029
-0.0370403 0.169546 0.481029
0.19607 0.17228 0.187997
0.0970876 -0.215241 0.481029
-0.212278 -0.188506 0.0839134
-0.22181 -0.219573 0.01929
-0.117021 -0.0209488 0.460987
0.312582 0.207559 0.481029
0.235696 -0.176484 0.460987
-0.320687 0.114511 0.476672
-0.225245 -0.2679 0.462625
-0.174554 0.21541 0.460987
0.213404 0.22028 0.0710898
-0.284315 0.0567553 0.481029
0.309365 -0.172678 0.463836
0.175292 -0.0822395 0.384581
0.195352 -0.0228945 0.44413
0.120462 0.164333 0.460987
-0.266353 -0.247433 0.460987
-0.280043 0.209149 0.460987
0.077665 0.0167024 0.444238
-0.218812 -0.0733707 0.481029
0.170765 0.0286816 0.453915
-0.0227333 -0.0167117 0.481029
-0.251289 -0.0563665 0.460987
0.0366569 -0.0904572 0.460987
-0.145103 -0.259241 0.481029
-0.230613 0.268478 0.462783
0.316722 -0.20751 0.468852
0.187606 -0.108659 0.45965
-0.134076 -0.190262 0.460987
-0.199457 -0.211191 0.0615964
0.10508 0.178292 0.460987
-0.289855 0.177556 0.481029
0.303011 0.293167 0.481029
0.0130397 0.0678962 0.481029
-0.208057 0.217119 0.0808683
-0.0862533 0.129006 0.481029
0.0577671 -0.0673156 0.481029
-0.20778 0.14143 0.216873
0.218524 -0.201246 0.090358
-0.305401 -0.173526 0.481029
0.100922 0.250878 0.481029
-0.200616 0.159521 0.15332
0.0533595 0.0706039 0.460987
0.191516 0.0929976 0.38315
0.181904 0.114044 0.295198
-0.208583 0.254534 0.460987
0.0980891 -0.167563 0.481029
0.19301 -0.136708 0.213404
-0.0562603 0.274952 0.481029
0.116913 -0.116984 0.481029
-0.195352 0.00309014 0.440133
-0.0193811 -0.0157909 0.431976
0.119015 0.24628 0.460987
0.00709692 0.216919 0.460987
-0.105771 0.186821 0.460987
0.294879 -0.198592 0.481029
-0.0355379 0.291673 0.481029
-0.0146171 0.286299 0.481029
0.237724 0.168537 0.460987
0.130042 0.0645019 0.481029
0.232559 -0.227889 0.481029
-0.221228 0.171237 0.460987
-0.198555 0.0937555 0.460987
-0.0887557 -0.0862448 0.481029
-0.211502 0.243857 0
-0.227206 -0.27628 0.481029
-0.169644 0.109013 0.481029
-0.180779 0.266751 0.481029
0.152925 -0.156148 0.460987
0.24286 -0.265496 0.461969
0.0109408 0.0995739 0.481029
0.227169 -0.0696918 0.481029
-0.21109 0.248781 0.481029
0.302296 0.0358967 0.460987
-0.0460486 -0.28186 0.466432
-0.277326 -0.280295 0.481029
0.00518516 0.240252 0.460987
-0.0733039 -0.226235 0.460987
-0.092881 -0.0829348 0.460987
0.186483 -0.119273 0.264351
-0.152175 -0.0439509 0.481029
-0.11225 -0.0103121 0.431589
-0.04033 0.0644821 0.460987
0.218256 0.24395 0.0120731
-0.198421 -0.189489 0.460987
0.193342 -0.00333229 0.481029
0.20592 -0.286698 0.481029
-0.251834 -0.130638 0.460987
0.16351 -0.228305 0.481029
0.204991 -0.239505 0.481029
-0.304851 0.297597 0.470724
0.26166 0.195871 0.460987
-0.296709 -0.259242 0.460987
-0.270251 -0.102805 0.460987
-0.163005 -0.131027 0.460987
-0.167765 -0.0348066 0.481029
0.140362 -0.0756945 0.481029
-0.201747 0.108732 0.314308
0.0571588 0.285713 0.481029
-0.175113 -0.0718901 0.441297
0.0112439 0.0820962 0.460987
0.211563 -0.186402 0.0886117
0.0634421 0.281112 0.466228
-0.316858 0.196052 0.468945
0.138722 0.0966296 0.481029
0.0533202 0.146002 0.460987
-0.24063 -0.0569236 0.481029
0.119049 0.0373709 0.460987
-0.281664 0.146665 0.481029
0.0373574 -0.243456 0.460987
-0.0852769 0.090383 0.460987
-0.255424 -0.0242732 0.481029
0.26159 -0.0574159 0.481029
-0.0221531 0.0889879 0.481029
0.169882 -0.0317582 0.481029
-0.183187 -0.0608779 0.396553
-0.138542 -0.0991894 0.481029
-0.111568 0.0297569 0.481029
-0.190019 0.0918777 0.387527
0.320687 0.0191462 0.474286
0.200482 -0.102574 0.311992
-0.0457017 -0.288132 0.481029
0.0439134 0.0122207 0.481029
0.0864079 0.128315 0.460987
0.0456897 -0.208919 0.460987
-0.21586 -0.170741 0.460987
-0.131608 0.0431844 0.481029
0.092973 0.281295 0.481029
-0.203591 -0.206357 0.460987
0.00216794 0.046295 0.460987
-0.026426 0.281125 0.466231
0.311679 -0.15902 0.481029
-0.112867 -0.248928 0.460987
0.0599147 -0.290703 0.468844
0.259093 0.260069 0.481029
-0.0644071 -0.217651 0.481029
-0.00285149 0.107543 0.460987
0.0674666 0.258775 0.481029
0.067631 0.0848112 0.481029
-0.0768051 0.277377 0.465209
0.224351 0.0211088 0.481029
-0.0772803 -0.284001 0.481029
0.0955067 0.079228 0.460987
0.202732 0.0851914 0.460987
0.00143892 0.290312 0.481029
0.209831 -0.186332 0.460987
-0.255265 -0.27018 0.463247
-0.234962 0.0505136 0.460987
-0.0158373 0.0601527 0.481029
-0.320687 0.243978 0.475734
-0.238129 -0.00275835 0.460987
-0.141394 -0.118072 0.460987
-0.195092 -0.0792268 0.396982
-0.256129 0.0842291 0.460987
0.0987968 -0.27809 0.481029
0.170765 -0.0447541 0.452485
0.233268 0.0630728 0.481029
-0.0477913 -0.254688 0.460987
0.178707 0.136816 0.481029
0.170765 0.0561528 0.446273
-0.188976 0.123523 0.311313
-0.0494495 0.00221379 0.431589
-0.18148 -0.291689 0.481029
0.172923 0.277245 0.481029
0.31075 0.0571719 0.481029
-0.17167 0.255677 0.460987
-0.26647 0.0254379 0.460987
-0.170134 -0.010889 0.460987
0.184345 0.0380832 0.460987
0.178973 0.196194 0.481029
0.213329 0.235318 0.0359579
0.175999 0.073395 0.384902
0.206083 0.016141 0.460987
-0.213589 0.142073 0.481029
3.24845e-06 0.198016 0.481029
0.113792 0.151249 0.481029
0.159807 0.123255 0.460987
-0.220787 0.123313 0.460987
-0.231742 -0.214015 0.481029
-0.264462 -0.0732982 0.460987
-0.317003 -0.0454648 0.469043
-0.173631 0.0728698 0.404392
-0.320687 0.284942 0.474006
0.134506 -0.155158 0.460987
-0.231988 -0.16186 0.481029
0.131799 -0.266969 0.462371
0.221099 0.215918 0.0556566
0.116587 0.215159 0.460987
-0.0368274 -0.269442 0.463046
0.157568 -0.246351 0.460987
0.127778 -0.0217084 0.460987
0.115944 0.191392 0.481029
-0.135335 0.128788 0.481029
0.170247 -0.284411 0.481029
-0.258901 -0.0279332 0.460987
-0.275095 0.25938 0.481029
0.132583 0.11805 0.460987
0.15383 -0.275605 0.464726
0.238982 0.0812544 0.460987
0.18429 0.00412368 0.426246
0.0640105 0.215678 0.481029
-0.241328 0.27992 0.481029
-0.30937 0.140271 0.481029
-0.215199 -0.295108 0.481029
0.167084 -0.194727 0.460987
0.230924 0.0234044 0.460987
0.176945 0.074926 0.426231
-0.247745 0.223532 0.481029
0.194791 -0.186658 0.131986
-0.091879 0.134945 0.460987
0.145576 -0.222233 0.460987
0.0976201 0.125303 0.481029
-0.187431 -0.0875529 0.455606
-0.00145149 -0.0909557 0.481029
0.144333 0.130844 0.481029
0.123525 0.139641 0.481029
0.0855466 -0.10274 0.481029
0.150497 0.171416 0.481029
-0.314277 0.145825 0.467185
0.0267784 0.0167024 0.4456
0.150465 0.117049 0.481029
-0.273621 0.273019 0.464021
0.245644 -0.131919 0.460987
0.155187 -0.174628 0.481029
-0.048271 -0.00987694 0.460987
0.0917211 -0.244725 0.481029
-0.292747 -0.176477 0.460987
0.196559 -0.0849192 0.481029
0.307722 -0.13529 0.481029
-0.128296 0.246038 0.460987
-0.200526 -0.0796218 0.481029
-0.211469 -0.232697 0.481029
0.240504 -0.182829 0.481029
0.206506 0.196504 0.131651
-0.20113 0.184908 0.096213
-0.206577 0.17477 0.115059
-0.204774 0.125554 0.255336
0.294142 -0.300643 0.476576
0.298687 -0.00819308 0.481029
-0.0294489 -0.215248 0.481029
0.284333 -0.184185 0.460987
-0.184778 0.288424 0.481029
-0.188716 -0.0354015 0.460987
-0.20511 0.215639 0.0241344
-0.291161 -0.224473 0.460987
-0.100248 -0.126069 0.481029
0.298223 -0.15152 0.460987
0.0200387 -0.0749404 0.481029
-0.200253 0.22054 0.481029
0.207611 0.169459 0.460987
-0.260576 0.132758 0.460987
0.187466 0.143781 0.221599
0.241098 0.126793 0.481029
-0.255458 0.277246 0.465174
0.223332 -0.236993 0.0135586
-0.18624 0.141001 0.239976
-0.215863 0.218582 0.481029
0.176626 -0.227015 0.460987
0.154779 0.0503321 0.481029
-0.13955 0.220064 0.460987
-0.255598 -0.264446 0.481029
-0.28767 0.163165 0.481029
0.199503 -0.210613 0.0768626
-0.0872758 -0.255676 0.460987
-0.309635 -0.0915013 0.46402
-0.195352 0.0351913 0.455172
-0.10018 -0.0518312 0.460987
0.179445 -0.100304 0.32815
0.211545 -0.0546538 0.481029
0.207129 0.156504 0.164198
-0.157075 -0.0455447 0.460987
-0.102439 0.23183 0.481029
-0.319087 -0.231894 0.481029
0.197208 0.129956 0.29337
-0.183835 0.226561 0.460987
0.193363 -0.158541 0.221713
0.140914 -0.1091 0.481029
-0.0179677 0.167836 0.481029
0.251065 -0.161033 0.481029
0.280934 -0.212323 0.460987
-0.316011 -0.00741553 0.468367
-0.0208868 -0.297104 0.470589
-0.239787 -0.283775 0.481029
0.113968 0.221038 0.481029
0.0116975 0.18897 0.481029
0.184963 0.150638 0.460987
-0.227585 0.0204042 0.481029
0.196288 0.114868 0.263422
0.11256 -0.131651 0.481029
0.207996 0.26392 0.481029
-0.171914 -0.258778 0.481029
-0.154872 0.0363186 0.460987
0.0258003 0.037462 0.460987
0.19559 0.161626 0.481029
0.18859 -0.14472 0.249621
0.179329 -0.0672223 0.386567
0.0608794 -0.192122 0.481029
-0.195352 -0.0506678 0.444297
-0.132569 0.181178 0.460987
-0.0277957 0.0268303 0.481029
-0.105593 -0.20188 0.481029
-0.197469 0.0974367 0.481029
0.0850129 -0.00238418 0.431589
0.162424 -0.0218467 0.460987
-0.180275 0.0566844 0.460987
-0.0620039 -0.174642 0.460987
0.220976 -0.255548 0.460987
0.273847 -0.230602 0.460987
-0.0175992 0.10239 0.460987
-0.102521 -0.124798 0.460987
0.209594 -0.214808 0.0179591
0.171671 -0.0643594 0.481029
-0.238371 -0.0195238 0.460987
0.10186 -0.021078 0.481029
-0.0829954 -0.153863 0.481029
-0.0271642 0.0588273 0.460987
-0.09058 -0.289674 0.481029
0.0693995 -0.23835 0.460987
0.301994 -0.116332 0.481029
0.1429 0.232249 0.481029
0.0355906 0.171227 0.481029
-0.217821 0.193289 0.0949565
-0.307625 0.123885 0.481029
0.011873 0.271774 0.463681
0.192439 0.158298 0.17243
0.313615 -0.276041 0.481029
0.208257 -0.15144 0.182616
0.188507 0.119514 0.321343
-0.200531 0.128695 0.23074
-0.182185 -0.102966 0.45965
-0.162221 0.145523 0.481029
0.0828113 -0.0167024 0.44465
0.19307 -0.0605053 0.423178
-0.211944 0.106899 0.481029
-0.290608 0.181257 0.460987
0.0084728 -0.0282087 0.460987
0.219581 0.222994 4.46222e-05
0.155726 -0.170382 0.460987
-0.239895 0.262546 0.481029
-0.188435 0.151012 0.224864
-0.231127 -0.112348 0.460987
0.121592 -0.0532598 0.460987
0.192496 -0.127151 0.303413
-0.149278 -0.182703 0.481029
0.320629 -0.296552 0.472472
-0.0352924 -0.142411 0.481029
-0.272796 -0.300643 0.474663
-0.195352 -0.0106549 0.460146
-0.180481 -0.0635579 0.481029
0.152605 0.0167024 0.452393
0.150425 -0.00526997 0.460987
-0.19994 -0.0176244 0.481029
0.275283 0.300643 0.474517
-0.215127 -0.132952 0.460987
0.140247 -0.216881 0.481029
0.150537 0.286502 0.481029
0.17183 -0.259328 0.460987
0.0533238 -0.25817 0.481029
0.311732 0.0860584 0.46545
0.176869 -0.0358366 0.434669
-0.0404091 -0.24933 0.481029
0.212007 0.183333 0.150855
0.0279099 -0.153549 0.460987
-0.286312 -0.0370359 0.460987
0.280637 -0.105711 0.481029
0.116769 0.246901 0.481029
0.0859593 -0.0582172 0.460987
0.19589 0.0104864 0.481029
-0.173164 -0.147091 0.460987
-0.320687 -0.263788 0.474862
