-0.40302 0.041661 0.297158
0.013379 0.143349 0.297158
-0.287068 -0.0139923 0.252615
0.383951 -0.149899 0.286807
0.283719 0.0481759 0.264772
-0.136476 -0.0371055 0.297158
-0.268565 -0.0209496 0.280348
-0.151748 -0.165267 0.286807
-0.319483 0.161762 0
0.0750298 -0.155602 0.286807
0.0327988 0.186314 0.289649
0.302032 0.14443 0
-0.323058 -0.137339 0.0257363
-0.449886 0.0800277 0.297158
-0.31033 -0.127754 0.0719486
-0.274697 -0.115099 0.297158
-0.117312 0.0889305 0.286807
0.199289 0.0460262 0.297158
0.0858979 0.0612231 0.286807
-0.395484 0.0518489 0.297158
-0.111268 -0.0873632 0.286807
0.148611 -0.0889828 0.286807
-0.358808 0.112387 0.286807
-0.282228 -0.0816926 0.278009
-0.235104 0.077854 0.297158
0.243118 0.0309758 0.297158
0.0543093 -0.147494 0.297158
-0.347508 -0.184634 0.288352
0.109187 0.166337 0.297158
0.283175 -0.000771932 0.251789
-0.290805 0.107189 0.19546
0.421955 -0.0575868 0.286807
-0.210895 0.0120251 0.286807
0.154619 0.0365202 0.286807
-0.067681 0.0814411 0.268017
-0.127967 -0.0572883 0.286807
0.0982849 0.062727 0.286807
0.0667187 0.0733565 0.297158
-0.40655 0.0385683 0.297158
0.344809 0.0834706 0.286807
0.021955 0.0886545 0.297158
-0.178992 0.106922 0.297365
0.069006 -0.114805 0.297158
0.333057 -0.0682687 0.286807
0.0408986 0.0802493 0.297158
-0.277751 -0.0650192 0.287871
-0.302428 0.0739049 0.269797
-0.0587579 0.0703797 0.297158
-0.387135 -0.0919753 0.297158
0.302225 -0.0793079 0.286807
0.340788 0.0198435 0.297158
0.455442 0.0476562 0.294183
0.225379 -0.164177 0.286807
0.45448 0.0546728 0.296872
0.134239 0.118401 0.297158
-0.352916 -0.0281731 0.297158
0.214098 -0.00160092 0.297158
0.318667 -0.0126876 0.297158
0.232537 -0.168014 0.29508
0.232486 0.0163876 0.286807
-0.0434495 -0.186075 0.288803
-0.111071 -0.156477 0.286807
-0.205453 -0.0807371 0.267325
-0.00756645 -0.0519656 0.286807
-0.145011 -0.102139 0.297158
0.344118 0.0297464 0.297158
0.0203973 -0.15224 0.286807
0.321337 -0.163323 0.297158
-0.346969 0.0319088 0.297158
-0.16769 -0.151897 0.286807
-0.235511 0.0271329 0.286807
-0.190901 -0.121397 0.286807
0.213598 -0.0342596 0.286807
-0.374335 0.0150895 0.286807
0.0868912 0.13788 0.297158
0.264898 0.10413 0.297158
-0.208228 0.131829 0.286807
0.402191 3.89814e-05 0.286807
0.408692 0.122886 0.297158
0.115334 -0.12459 0.297158
-0.120917 -0.119858 0.297158
0.356048 0.127908 0.297158
-0.252576 0.177115 0.297158
-0.369278 -0.177183 0.297158
-0.319351 -0.137114 0.0233029
-0.0166264 0.182678 0.287741
0.0709679 0.179704 0.28681
-0.421629 0.0324531 0.297158
0.13958 0.174444 0.286807
-0.239482 0.0598284 0.286807
-0.326884 -0.16669 0.297158
-0.0218804 -0.132579 0.297158
-0.0256561 0.0777143 0.276824
0.302457 0.186253 0.288859
-0.076371 0.0745829 0.268945
-0.252365 -0.125004 0.297158
0.283556 0.0674581 0.274573
-0.25715 0.165059 0.297158
-0.409199 0.0568745 0.286807
-0.0133464 0.0587777 0.297158
0.440131 0.0546719 0.286807
0.0180312 0.0709277 0.286807
-0.39575 0.0672531 0.297158
-0.00482595 0.103519 0.297158
-0.419693 -0.0161643 0.297158
0.173339 0.076185 0.267761
0.187089 -0.0953983 0.297158
-0.304751 -0.132676 0.286807
0.176161 -0.163897 0.297158
-0.312779 0.13381 0.0365005
-0.217792 0.00314863 0.297158
-0.375398 -0.178347 0.297158
-0.157609 0.115216 0.286807
-0.104904 -0.0747188 0.272996
0.35135 0.124602 0.297158
0.384029 0.0556951 0.297158
-0.165832 -0.151797 0.297158
-0.0305166 0.101537 0.297158
0.15917 0.0950641 0.297158
0.0803146 -0.0840077 0.286807
-0.189022 0.10061 0.297365
0.235645 -0.174091 0.293846
0.207588 -0.0449272 0.297158
-0.0487976 0.0165964 0.297158
0.20021 0.00200511 0.297158
-0.32073 0.0364744 0.286807
-0.29334 -0.119354 0.186837
-0.105372 0.0401333 0.286807
-0.332696 -0.0193753 0.286807
0.089728 0.00805566 0.297158
0.294507 0.065966 0.297158
0.235727 -0.0289093 0.286807
-0.272815 0.00680997 0.271856
-0.382598 0.0270016 0.297158
0.164046 0.101459 0.297158
-0.420272 -0.0105972 0.297158
-0.215973 -0.0857646 0.297158
0.105221 -0.0667381 0.297158
-0.449321 0.0656527 0.297158
-0.280853 -0.0829349 0.277301
-0.141724 -0.175099 0.293846
0.285583 0.116135 0.193439
0.219179 -0.103721 0.297158
-0.445374 -0.073704 0.297158
0.275433 -0.0699515 0.25094
0.276306 0.152812 0.286807
-0.278825 -0.0262347 0.287871
0.445586 -0.08023 0.286807
0.17212 -0.185557 0.293364
0.00299323 -0.0620711 0.297158
0.412602 -0.120998 0.297158
-0.309575 0.0698184 0.297158
0.303121 0.0806425 0.286807
0.149724 0.0960261 0.286807
0.274181 -0.000567697 0.27331
0.424023 0.0873134 0.286807
-0.0889289 0.0501487 0.286807
0.0147361 -0.113588 0.286807
0.277332 0.00757703 0.251148
0.0864686 0.0830864 0.273407
-0.129229 0.0672563 0.286807
0.124326 -0.170605 0.293846
-0.119448 0.0100123 0.286807
-0.152921 -0.157134 0.286807
-0.367581 -0.179341 0.297158
-0.000644892 -0.0423732 0.297158
0.425179 0.138227 0.297158
0.270456 0.0834047 0.272638
0.109345 -0.104592 0.286807
0.223902 -0.138628 0.286807
0.192738 -0.167002 0.296325
0.145509 -0.0960517 0.297158
0.124363 0.068647 0.286807
-0.314838 -0.124142 0.00176585
-0.174817 0.0927896 0.286807
-0.0761254 -0.139447 0.297158
0.353133 -0.182658 0.287734
0.263594 0.0179157 0.297158
-0.252156 0.0178721 0.297158
0.322191 0.0101627 0.297158
0.408576 0.0111706 0.286807
0.284897 -0.128167 0.286807
0.0959015 0.108269 0.297158
-0.415562 -0.0144854 0.297158
-0.225926 0.0959343 0.287243
-0.200936 -0.0766568 0.275986
0.109429 -0.057058 0.297158
-0.0253639 0.158718 0.297158
-0.281175 -0.155997 0.286807
0.27077 0.0809528 0.287871
-0.380787 -0.123669 0.286807
0.329813 0.0474783 0.286807
-0.24035 0.0968481 0.296868
0.272689 0.0521368 0.260547
-0.134728 0.0787162 0.266889
0.452836 -0.0376137 0.288063
0.174155 -0.1048 0.297158
-0.0207054 -0.0140439 0.297158
-0.00865947 0.118824 0.297158
-0.147561 0.125325 0.286807
-0.455442 0.078662 0.295104
-0.248457 0.0166891 0.286807
0.314604 -0.0246666 0.297158
0.00917906 -0.100983 0.286807
0.0648284 -0.0371022 0.286807
-0.311061 -0.0802396 0.275879
-0.379813 -0.0235415 0.286807
-0.121206 -0.167287 0.295974
-0.171978 -0.0697111 0.297158
0.316844 -0.107797 0.286807
-0.170159 -0.0143906 0.286807
-0.122996 -0.0774795 0.267626
-0.395511 -0.0674389 0.297158
0.434747 0.0237392 0.286807
-0.00940973 0.128709 0.297158
-0.0304453 0.0527523 0.286807
0.128774 0.0385743 0.286807
-0.202807 -0.107578 0.297158
-0.347379 -0.0813907 0.286807
-0.225972 0.0927504 0.290106
0.161781 0.0511134 0.297158
-0.0360355 0.0737494 0.272994
-0.0181842 -0.0981478 0.286807
0.249884 -0.0799556 0.276951
-0.284278 -0.0423407 0.297158
0.27059 0.0894507 0.273953
-0.274246 -0.0821113 0.276059
0.297125 -0.146171 0.297158
0.313697 -0.138327 0.297158
-0.279997 0.0399792 0.287871
-0.0172705 0.00254972 0.286807
0.290208 -0.0145682 0.297158
-0.444785 0.157622 0.297158
-0.262981 0.0654842 0.297158
0.134938 -0.165279 0.297158
0.285308 -0.0777546 0.256661
-0.261068 -0.0773312 0.297158
0.27332 0.0981082 0.257778
0.281773 -0.088989 0.287266
0.108831 -0.027662 0.297158
0.00860417 -0.121424 0.286807
0.235008 0.118255 0.296746
0.236616 0.128669 0.286807
0.279637 0.0785727 0.26683
0.211626 -0.120686 0.286807
0.311714 -0.129628 0.0915045
-0.407225 -0.119442 0.297158
0.00261325 0.0293137 0.286807
0.0139818 0.15874 0.297158
-0.154171 -0.0305386 0.286807
0.285703 0.0324206 0.254645
0.107993 0.0117401 0.286807
-0.0694484 -0.0940037 0.286807
-0.237941 0.0077027 0.286807
-0.176527 0.031659 0.297158
-0.164566 -0.0657358 0.297158
0.0308157 0.139291 0.297158
0.401657 -0.154682 0.297158
0.220405 0.162102 0.286807
-0.330241 0.136854 0.00374415
-0.382957 -0.150202 0.297158
-0.288243 0.144614 0.297158
0.0976231 0.0107821 0.286807
0.347032 0.0630157 0.286807
0.28554 0.100927 0.232884
0.128524 -0.0809784 0.267424
-0.114756 0.152041 0.297158
-0.309875 -0.151975 0.00329606
0.0610289 0.148404 0.286807
0.302764 -0.0489481 0.286807
0.142492 -0.0577359 0.286807
0.400454 0.136745 0.286807
0.165739 -0.126407 0.286807
-0.423686 -0.00109775 0.286807
-0.180788 0.122557 0.290813
-0.271242 -0.108706 0.297158
-0.400481 -0.0726232 0.286807
-0.289789 -0.168284 0.297158
0.360733 -0.121383 0.297158
0.310438 0.0786677 0.286807
-0.212238 -0.0758062 0.275623
0.115725 -0.129456 0.286807
0.311795 0.110575 0.286807
-0.0534951 0.123178 0.286807
0.428676 -0.0970691 0.286807
-0.217211 -0.174859 0.293846
0.262452 -0.184725 0.288381
0.0833241 -0.109517 0.286807
-0.125654 0.15906 0.297158
0.201587 -0.0838378 0.27002
0.322203 0.0559233 0.297158
-0.338408 0.0822304 0.286807
-0.420407 0.137885 0.297158
-0.267696 -0.0282999 0.286519
-0.334841 0.148321 0.297158
-0.232746 -0.00962393 0.286807
-0.27007 0.168207 0.297158
-0.357096 0.150689 0.297158
-0.174285 -0.0745009 0.271482
-0.325182 0.0797179 0.286807
0.162243 0.146616 0.286807
-0.0509115 0.0101679 0.286807
0.450344 -0.158452 0.293534
-0.000688225 -0.0756001 0.297158
0.379749 0.12657 0.297158
-0.109406 0.0487619 0.297158
-0.282718 0.104601 0.210745
-0.213533 0.0649532 0.286807
0.166501 0.081199 0.297158
0.359471 0.0319127 0.297158
-0.29141 0.120759 0.177746
0.266656 -0.0767474 0.286807
0.108557 0.0930114 0.286807
0.452185 0.11053 0.287859
-0.284687 -0.0908534 0.26545
-0.211942 0.0719806 0.286807
0.335915 -0.151617 0
-0.33337 -0.149649 0.00310527
-0.306183 0.129457 0.00310327
-0.366822 -0.0318431 0.286807
-0.435626 0.070161 0.286807
0.0743142 -0.0230488 0.297158
0.393955 -0.0695482 0.297158
-0.345312 -0.0851352 0.297158
-0.283494 -0.0239872 0.271654
0.275354 -0.0198354 0.286807
-0.181143 0.040882 0.297158
-0.314424 0.134832 0
-0.287605 -0.111702 0.230783
-0.405894 -0.0279793 0.297158
0.34094 -0.00959237 0.297158
0.255256 0.0745322 0.274885
0.29894 0.100239 0.286807
0.058182 0.129017 0.297158
0.0421502 -0.0752134 0.269761
-0.227255 0.143092 0.297158
-0.0761273 -0.0187498 0.286807
-0.443475 0.118429 0.297158
-0.443027 0.068799 0.297158
0.0462897 -0.0342917 0.286807
-0.419054 0.158383 0.297158
0.168292 -0.0264613 0.297158
-0.361737 -0.065652 0.286807
-0.319696 -0.154669 0.00390066
0.448918 0.0248484 0.297158
-0.446426 -0.115155 0.297158
-0.19078 0.0831888 0.286807
0.0220499 0.02763 0.297158
-0.0819 0.0616207 0.297158
-0.424737 -0.120158 0.286807
-0.24032 0.113188 0.292203
-0.278308 0.160546 0.286807
-0.430319 0.165976 0.286807
0.132824 0.0974491 0.286807
0.366038 -0.0958064 0.297158
0.455442 0.132075 0.288917
-0.271169 -0.0177246 0.27331
0.397081 0.178412 0.286807
-0.0804278 -0.00306799 0.286807
0.133425 0.0478472 0.297158
0.0690258 0.00256276 0.286807
-0.138036 -0.0620519 0.297158
-0.435961 0.14037 0.286807
0.15466 0.0285239 0.286807
0.160865 -0.0261015 0.286807
0.354703 -0.103486 0.297158
0.0725237 0.011195 0.297158
0.0076924 -0.00138889 0.286807
0.116152 0.135182 0.297158
0.0676194 0.00325159 0.297158
-0.259371 -0.0202304 0.286807
-0.306582 -0.0612847 0.297158
0.208611 -0.0025488 0.297158
0.176175 -0.18174 0.293846
-0.295839 0.125734 0.142503
0.166886 0.0341637 0.286807
0.187624 0.0821571 0.268313
0.311426 -0.140144 0.00488976
0.158621 0.0642891 0.297158
-0.295793 -0.125852 0.286807
0.131555 -0.0173348 0.286807
0.294134 -0.154073 0.297158
-0.171354 0.168484 0.286807
0.0321392 -0.0212089 0.286807
-0.245548 0.0889217 0.297158
-0.247045 0.170116 0.297158
0.0563187 -0.0485408 0.297158
-0.181426 0.0745706 0.274977
0.125843 -0.00381497 0.286807
0.0312424 -0.0274567 0.286807
0.271414 -0.100681 0.273945
-0.175205 -0.134154 0.286807
-0.338115 0.180804 0.287154
0.411671 0.170451 0.286807
-0.418966 0.144991 0.297158
0.0999988 -0.151039 0.297158
-0.362924 -0.164704 0.297158
0.423103 0.0849967 0.286807
-0.318656 -0.150463 0.00505468
0.322628 -0.104456 0.297158
0.0753489 -0.0931792 0.286807
-0.337468 -0.00742122 0.286807
0.383478 -0.0173335 0.286807
0.453227 0.0638613 0.297158
0.433891 0.068661 0.297158
0.110289 0.160921 0.286807
0.306274 -0.00974764 0.297158
-0.285654 -0.0533828 0.286807
-0.0456454 0.0141438 0.297158
0.275882 0.101878 0.243406
0.444722 0.145823 0.286807
-0.315514 -0.136344 0.286807
-0.202926 -0.0754168 0.286807
-0.411463 0.0373766 0.286807
-0.447967 0.0478904 0.297158
-0.28257 -0.0769134 0.297158
-0.323792 -0.0977927 0.286807
0.22798 0.128492 0.297158
-0.283531 0.074142 0.274767
-0.0579043 -0.0206084 0.297158
0.420045 -0.162007 0.297158
-0.347566 0.121498 0.297158
0.271382 -0.0354003 0.267228
-0.311815 -0.126136 0.100348
-0.214274 -0.0910791 0.286807
0.264031 -0.00536086 0.297158
-0.368952 0.100716 0.286807
-0.305665 0.135458 0.089464
0.33836 0.129993 0.297158
-0.166266 0.110915 0.291289
0.26101 -0.111622 0.286807
-0.255794 -0.0958316 0.286807
-0.207695 0.0927504 0.287757
0.334246 0.154037 0.297158
-0.166695 0.102213 0.294306
0.227432 0.186314 0.291828
-0.0781464 -0.0537578 0.286807
0.0963584 0.186314 0.292858
-0.258693 -0.0572884 0.286807
-0.116187 0.135106 0.297158
0.0131632 0.155706 0.286807
0.14668 0.121214 0.286807
0.15745 0.00475674 0.286807
0.151899 -0.136635 0.286807
0.216575 0.0737561 0.27301
-0.382503 0.154552 0.286807
0.27649 0.00410621 0.297158
0.279233 0.106137 0.266704
0.0242766 0.163645 0.286807
-0.0785831 -0.0941523 0.286807
-0.290779 -0.116388 0.159478
-0.270901 0.091949 0.283247
0.22895 -0.17894 0.293846
-0.147485 -0.0944797 0.286807
0.407984 -0.0454948 0.297158
0.340631 0.00668505 0.286807
0.252826 -0.035934 0.286807
-0.304604 0.0278557 0.297158
0.412697 -0.152975 0.286807
0.332371 -0.101439 0.297158
-0.266448 0.00825644 0.286807
-0.276565 -0.0763089 0.272267
0.275618 0.0740485 0.25096
-0.34423 -0.0381677 0.286807
0.275464 0.0814234 0.272269
0.372466 0.154749 0.297158
0.0803431 -0.185042 0.293846
-0.14989 0.164842 0.286807
-0.297144 0.0125076 0.297158
0.0824796 0.114119 0.297158
0.375923 -0.0357947 0.286807
0.222758 0.081588 0.297158
-0.330211 0.00386158 0.286807
0.371708 0.0836006 0.297158
-0.091571 -0.0118141 0.297158
-0.0514357 -0.131455 0.297158
-0.311039 -0.0167161 0.286807
0.436199 0.0817278 0.297158
-0.202132 0.0315536 0.297158
-0.272472 -0.00358851 0.27331
0.348829 -0.164454 0.297158
-0.299162 0.123392 0.107112
0.274718 -0.0981309 0.297158
0.152322 0.0826341 0.269453
-0.395267 -0.0100242 0.297158
0.0351079 0.0909484 0.286807
-0.0137829 -0.129449 0.297158
0.138516 -0.152652 0.286807
0.338057 0.14108 0.286807
0.336722 0.00203155 0.297158
-0.0241474 0.0406955 0.297158
0.0674568 0.0254947 0.297158
-0.337639 -0.000373464 0.297158
-0.0199815 -0.146458 0.286807
-0.170554 0.122846 0.286807
0.233127 0.0407182 0.297158
-0.429414 -0.156707 0.286807
0.282072 -0.0775756 0.285136
-0.291802 -0.101907 0.297158
0.207049 -0.095281 0.286807
0.168415 0.0604135 0.286807
0.0684746 0.165959 0.297158
-0.287423 -0.173172 0.286807
-0.261472 0.0422501 0.297158
-0.0435575 0.115232 0.297158
-0.0690847 0.0863579 0.297158
0.281698 -0.0209219 0.2878
-0.419719 0.176513 0.286807
-0.230227 0.0853502 0.297158
-0.163488 -0.0554743 0.286807
-0.0949411 -0.133369 0.297158
0.262754 0.0387587 0.297158
-0.28679 0.0249573 0.254799
-0.447693 0.143696 0.297158
0.315744 -0.0766728 0.275665
0.156701 0.083577 0.272222
0.311794 -0.0800954 0.273993
-0.276858 -0.0605811 0.286807
-0.141947 -0.0531252 0.297158
-0.411445 -0.0784328 0.286807
-0.0902662 -0.16987 0.293846
-0.2558 0.185804 0.296427
-0.00751778 0.18348 0.287991
-0.375712 0.0845516 0.286807
0.296837 0.115656 0.144912
-0.126764 -0.0438344 0.297158
0.401146 -0.0169706 0.286807
-0.28618 -0.0824326 0.257917
-0.421707 -0.0925495 0.286807
-0.305494 -0.134875 0.0728084
0.18671 -0.14484 0.286807
-0.255801 0.120307 0.286807
0.22806 0.144792 0.286807
0.282968 0.0478772 0.268606
0.0192811 0.0910541 0.297158
0.279028 0.018662 0.27331
0.103532 0.076861 0.297158
-0.239032 0.0108513 0.297158
0.454568 0.0982222 0.288605
-0.315144 -0.177851 0.286807
-0.428259 0.154695 0.297158
-0.381896 0.107466 0.297158
0.15866 -0.106805 0.286807
0.21461 -0.049482 0.286807
0.377932 0.157984 0.286807
0.343752 0.0460434 0.286807
0.355639 0.127972 0.297158
-0.02841 -0.12618 0.297158
0.298434 0.120043 0.118658
-0.21493 -0.125149 0.297158
-0.0821421 -0.0370872 0.297158
0.103069 0.104161 0.297158
0.365268 -0.0386121 0.286807
-0.12407 -0.142556 0.297158
0.212483 -0.107084 0.297158
0.144108 -0.116419 0.297158
0.23259 -0.159255 0.297158
-0.0477431 0.0602561 0.286807
0.280665 0.0580708 0.297158
0.289683 0.174704 0.297158
0.310446 -0.0704797 0.270095
-0.143059 0.0279961 0.286807
-0.413536 0.0309027 0.297158
0.00662953 -0.0132542 0.297158
-0.199263 0.0492096 0.286807
0.380593 0.0571681 0.297158
0.191119 0.0359715 0.286807
0.258702 0.0548648 0.297158
0.132552 0.0875136 0.297158
-0.404337 0.00227858 0.286807
0.0142511 -0.0390169 0.286807
0.125367 -0.153586 0.286807
-0.353912 -0.0716777 0.286807
-0.263184 -0.0333758 0.297158
0.375438 0.148222 0.286807
0.380383 0.0406585 0.297158
0.126115 -0.0073297 0.297158
-0.290383 0.116301 0.205742
-0.288492 0.112362 0.172404
-0.119 0.151634 0.286807
0.0420232 0.041824 0.286807
0.434557 -0.0650557 0.286807
-0.102177 0.111456 0.286807
0.403355 -0.105724 0.297158
0.0514434 0.0312067 0.286807
-0.145469 0.0373097 0.286807
0.275364 0.0742319 0.273362
-0.259483 0.142521 0.297158
-0.401431 0.160339 0.297158
-0.242197 0.176819 0.297158
-0.412335 -0.152308 0.286807
-0.0981507 0.0110827 0.297158
-0.322233 0.150536 0
-0.121175 0.107542 0.286807
-0.196488 0.0490088 0.286807
0.145825 0.0129345 0.286807
0.410887 0.144281 0.286807
-0.444994 0.129566 0.297158
-0.283029 0.0451213 0.278347
-0.17667 0.126681 0.297158
-0.056417 -0.0932803 0.297158
-0.112886 0.18033 0.297158
0.311824 -0.162018 0.00193696
-0.250172 0.13801 0.286807
-0.18599 -0.103215 0.297158
-0.41114 0.0345394 0.297158
-0.226184 0.127184 0.297158
-0.22 0.0821612 0.268315
0.21084 -0.0331004 0.286807
-0.218634 0.170102 0.297158
0.340943 -0.0513309 0.297158
-0.242789 -0.128607 0.297158
0.313643 -0.066206 0.297158
0.282108 0.000126593 0.27331
0.378785 0.137492 0.297158
-0.420665 0.163309 0.297158
-0.199684 -0.110845 0.297158
-0.0188577 -0.162126 0.286807
0.230084 0.0893952 0.286807
0.317084 -0.137735 0.297158
-0.146605 -0.137571 0.286807
-0.183916 0.0739637 0.273512
-0.358764 0.00263934 0.297158
0.273858 -0.075141 0.275367
-0.0947441 -0.118518 0.286807
-0.272895 -0.0958934 0.266634
0.180265 -0.0470352 0.297158
-0.416234 0.185057 0.293992
0.282584 0.101468 0.266451
0.323583 0.185584 0.296648
0.103753 -0.118431 0.297158
0.0778529 0.0515514 0.297158
-0.239857 -0.10153 0.286807
0.361349 -0.110478 0.286807
-0.318449 0.036502 0.297158
0.277813 0.160988 0.297158
0.407381 0.176454 0.297158
-0.139097 0.164971 0.286807
-0.204148 0.00416637 0.286807
-0.0434859 -0.1135 0.286807
-0.160757 0.0836139 0.272133
-0.113887 -0.108103 0.297158
-0.0126175 -0.184988 0.293846
-0.000670582 -0.0140817 0.297158
-0.374221 0.0792687 0.297158
0.066321 -0.0457203 0.286807
-0.156938 0.11057 0.297158
-0.254412 0.0209946 0.286807
-0.0565235 0.00362979 0.286807
0.0988196 0.00611728 0.297158
0.114793 0.131282 0.286807
0.172316 -0.1465 0.297158
-0.0216737 0.0752211 0.275792
0.265105 0.151113 0.297158
0.401172 -0.00563487 0.297158
-0.159884 -0.134946 0.286807
-0.175309 -0.109575 0.297158
-0.102671 -0.100804 0.286807
0.08416 -0.139131 0.286807
0.0878343 -0.0628296 0.286807
0.178154 0.0876686 0.286807
-0.423179 -0.0328987 0.286807
-0.257857 -0.128975 0.297158
0.397306 -0.134006 0.297158
0.29531 0.0760571 0.267814
0.334756 -0.057028 0.286807
-0.128849 0.140219 0.286807
-0.224277 0.122553 0.28697
-0.340194 -0.176808 0.286807
-0.195858 0.0907668 0.286807
-0.290572 0.102303 0.229905
0.36219 -0.0333114 0.286807
-0.310454 -0.111561 0.286807
0.310915 -0.0798264 0.286807
0.218772 -0.0188706 0.297158
-0.321271 0.141474 0.0105692
-0.31604 0.136415 0.068477
-0.0447446 0.1599 0.297158
0.277276 -0.107774 0.249081
-0.031812 0.0743969 0.274558
0.185296 0.143318 0.286807
0.374217 -0.137119 0.286807
0.209963 -0.0482384 0.297158
-0.0055261 0.0775917 0.267178
0.0566188 -0.0832007 0.26848
0.371947 -0.159936 0.297158
0.113726 0.00711011 0.286807
-0.0483629 0.0605335 0.286807
-0.180504 0.0564373 0.297158
-0.288444 0.0977677 0.286807
-0.216921 0.130013 0.286807
0.0682158 -0.178513 0.286807
0.0353254 -0.0977135 0.297158
-0.0657486 -0.13619 0.297158
-0.238294 0.134167 0.297158
-0.0272114 0.179943 0.297158
-0.30684 -0.129645 0.0610715
0.329013 -0.15005 0.297158
0.0164966 0.0925212 0.297158
0.116453 -0.0817137 0.297158
-0.278191 0.126359 0.297158
-0.302195 0.1303 0.0917456
-0.44357 -0.121709 0.286807
0.408415 0.123004 0.286807
-0.342594 0.0426058 0.297158
-0.294388 0.141119 0.286807
-0.362109 0.15349 0.297158
-0.122244 -0.0235973 0.297158
0.318787 -0.0123914 0.297158
-0.093777 0.0986791 0.286807
0.15745 0.184857 0.288422
0.278634 -0.0999446 0.237782
-0.0262336 0.0744831 0.274766
-0.0322049 -0.138244 0.286807
0.148111 -0.0839225 0.273727
0.179603 0.0361731 0.286807
0.417603 -0.0807747 0.297158
-0.0699531 0.159907 0.286807
0.153643 0.133197 0.286807
-0.178596 -0.174845 0.286807
-0.307401 0.0496774 0.286807
-0.2332 -0.0403694 0.286807
-0.0658981 0.014138 0.286807
-0.00231835 0.114396 0.297158
-0.440714 0.154772 0.297158
0.344253 0.0645039 0.297158
0.161598 -0.0602887 0.297158
-0.0238337 0.127665 0.286807
0.335078 -0.179017 0.286807
-0.326559 -0.0580782 0.271293
0.357012 0.0328839 0.297158
0.0642733 -0.0658158 0.286807
-0.272628 -0.122984 0.286807
0.240088 -0.113795 0.286807
0.356612 0.164656 0.286807
0.194894 -0.0832867 0.297158
0.147486 0.0581887 0.297158
-0.343369 0.145071 0.286807
-0.224154 0.0183337 0.297158
0.434869 -0.0617081 0.286807
0.168351 0.0107162 0.286807
-0.277427 0.169837 0.297158
-0.213354 0.136944 0.286807
0.415339 -0.17747 0.297158
0.274788 -0.0929308 0.249384
0.318315 -0.141369 0.286807
-0.164839 0.0342622 0.286807
-0.242901 -0.168732 0.286807
0.197451 -0.164795 0.297158
0.30836 0.126513 0.297158
-0.455442 0.0656096 0.290606
0.0798655 0.0737073 0.297158
0.213904 0.0638986 0.297158
-0.0208786 0.170421 0.286807
0.348312 -0.158845 0.297158
-0.328476 -0.0812369 0.286807
0.282062 0.0917053 0.285191
-0.0803208 0.0367217 0.286807
-0.227469 0.175132 0.297158
-0.241368 0.142083 0.297158
0.152019 -0.140971 0.286807
0.0919704 0.180008 0.297158
-0.0411645 -0.186314 0.290986
0.107749 -0.0247165 0.297158
-0.194355 0.11574 0.286807
-0.276278 0.106736 0.286807
0.110983 0.169777 0.297158
0.0237901 0.093437 0.297158
-0.13972 0.160718 0.297158
-0.401447 0.147342 0.297158
-0.184515 0.0389164 0.297158
-0.272423 0.0198786 0.271622
0.165254 0.107294 0.286807
-0.0198568 -0.143717 0.286807
0.335833 -0.140181 0.297158
0.277855 0.0298865 0.286807
0.24782 0.0801643 0.267489
0.0676836 -0.131902 0.286807
-0.280349 0.0752564 0.268145
0.0767799 0.0573793 0.297158
-0.273956 0.0812481 0.271981
-0.437403 -0.124595 0.286807
0.401527 -0.163061 0.297158
-0.108387 -0.0163582 0.286807
0.0742265 -0.0818775 0.276155
0.422896 -0.143127 0.297158
-0.30366 -0.1303 0.0812829
0.0314561 -0.127387 0.286807
-0.158662 0.165567 0.286807
0.0870374 -0.0405392 0.297158
0.44543 -0.0944647 0.286807
0.369836 0.0415052 0.297158
0.1328 -0.113639 0.286807
-0.393498 0.143489 0.297158
-0.319017 0.182025 0.287536
0.379579 -0.186314 0.294878
-0.31057 -0.0826917 0.297158
-0.336898 -0.0510948 0.297158
-0.0559102 -0.006709 0.286807
-0.157383 0.145644 0.297158
0.445312 -0.0617965 0.286807
0.436739 0.169104 0.287397
0.0686161 0.147697 0.286807
0.248541 0.0823106 0.268672
-0.173086 -0.118523 0.286807
0.0960365 0.167803 0.286807
-0.214465 0.0773208 0.286807
-0.169748 -0.178266 0.293846
0.393553 0.186314 0.294528
-0.208862 0.092742 0.291766
-0.236739 0.144522 0.297158
0.204418 -0.0568519 0.297158
-0.0639644 0.0947265 0.297158
-0.00800756 -0.174616 0.293846
-0.33292 0.00872446 0.286807
0.413031 -0.0371968 0.286807
-0.290471 -0.108707 0.185558
0.374515 -0.101136 0.297158
0.453387 -0.128349 0.288235
-0.304994 0.133956 0.0998978
-0.130717 0.131437 0.297158
-0.296626 -0.0884318 0.286807
-0.162129 -0.101866 0.286807
-0.198659 0.0272403 0.297158
-0.24753 0.0888725 0.286807
0.353636 -0.000868946 0.286807
-0.0304793 -0.0839805 0.297158
-0.267668 0.104153 0.286807
0.270407 -0.0142201 0.287871
0.284654 -0.028918 0.259999
-0.320841 0.141002 0.0132028
-0.293576 -0.0379173 0.297158
0.0726899 0.163578 0.297158
-0.268312 0.00278544 0.282145
-0.0264661 0.153164 0.286807
-0.0702835 0.130378 0.297158
-0.389508 -0.0348177 0.286807
-0.301593 -0.124701 0.0924775
-0.149404 0.00737483 0.286807
-0.123322 0.014462 0.286807
-0.217361 -0.0266317 0.297158
0.245085 0.0829583 0.270236
-0.161763 -0.0806065 0.276681
0.0248562 -0.146112 0.286807
-0.285111 -0.101379 0.258425
-0.133413 -0.0444033 0.286807
-0.360929 0.0431182 0.297158
-0.430312 -0.161982 0.286807
-0.0508549 0.000389889 0.286807
-0.390862 0.109576 0.297158
-0.416976 -0.114158 0.286807
-0.346883 -0.169062 0.286807
0.000255585 0.153257 0.286807
0.0923082 -0.105558 0.286807
0.316755 -0.181619 0.287409
0.281101 0.0783395 0.287871
0.310092 0.0501567 0.297158
-0.35052 0.154398 0.286807
0.325999 0.00721824 0.286807
-0.274911 0.0541144 0.254922
0.191788 -0.0665297 0.286807
0.0438925 -0.0796977 0.277057
-0.252968 -0.0492943 0.286807
-0.328071 -0.120428 0.286807
0.319943 0.126637 0.297158
0.348666 -0.186314 0.294075
-0.16596 0.105919 0.290164
0.278136 -0.118186 0.286807
0.210169 0.16794 0.286807
-0.388318 0.0208409 0.297158
0.0341673 -0.0859254 0.286807
-0.0421808 -0.178974 0.286807
0.394492 -0.11668 0.286807
-0.42802 0.118207 0.286807
-0.0961787 0.0828075 0.297158
-0.391015 0.0276729 0.297158
0.144566 -0.0177222 0.286807
0.190467 0.159408 0.286807
0.184864 0.166812 0.297158
-0.306567 0.0364353 0.297158
0.0603657 0.0768113 0.297158
0.297754 -0.175074 0.286807
0.189869 0.0395878 0.286807
0.424965 0.0528367 0.297158
0.283383 -0.00540324 0.275802
-0.283071 0.00633804 0.297158
-0.450536 0.095892 0.297158
0.0543945 -0.122824 0.297158
0.0725103 -0.184619 0.288348
0.185986 -0.0277118 0.286807
0.335002 0.148622 0
0.0916785 -0.00622256 0.297158
-0.384391 -0.055014 0.286807
-0.145639 -0.0894101 0.286807
-0.429082 0.0940074 0.297158
0.221473 -0.084191 0.270874
0.0303521 0.186314 0.29561
0.263725 -0.130375 0.286807
-0.273306 -0.0509724 0.263118
-0.140513 0.104319 0.297158
-0.131695 -0.153712 0.286807
0.365046 0.163614 0.286807
-0.387437 0.0313815 0.297158
0.242066 -0.081907 0.267809
0.170732 0.075825 0.297158
-0.141209 0.0745339 0.286807
0.233188 -0.0756851 0.268622
0.281574 -0.132922 0.286807
0.31934 0.148873 0.297158
0.170462 -0.114811 0.286807
0.28097 -0.0104226 0.272873
-0.0848616 0.0761247 0.267786
0.054098 -0.0871799 0.297158
0.0865645 0.0918068 0.286807
0.251921 -0.0897904 0.297158
-0.214197 0.148561 0.297158
-0.143563 -0.037374 0.286807
-0.429988 -0.0600928 0.286807
-0.371584 -0.161493 0.286807
-0.125787 0.0301657 0.297158
0.455442 -0.0288328 0.291919
0.246267 0.00721215 0.297158
-0.420612 -0.074396 0.286807
-0.45422 -0.127244 0.288496
-0.173004 0.0958709 0.297365
-0.410602 0.0322899 0.286807
-0.367242 0.0661983 0.286807
-0.0128343 -0.0526576 0.286807
0.289485 0.0769062 0.267462
0.280123 0.0741858 0.274048
0.359793 -0.141341 0.297158
0.336205 0.152558 0.297158
-0.205356 0.181214 0.287283
0.0330391 -0.0549472 0.297158
0.110602 0.0973258 0.286807
-0.198352 -0.123874 0.286807
0.356102 0.120814 0.297158
-0.0756984 0.0956152 0.297158
-0.152316 -0.164562 0.297158
-0.142374 -0.00645617 0.297158
0.104178 -0.0835799 0.274555
0.255172 0.101988 0.286807
0.223095 -0.102324 0.297158
-0.282989 0.055351 0.278629
0.128098 -0.079033 0.286807
0.279949 -0.107946 0.256352
-0.455442 -0.135128 0.290224
-0.433294 -0.121968 0.297158
0.329587 0.171545 0.297158
-0.187441 0.0552939 0.297158
-0.220796 0.128409 0.297158
-0.454145 0.142889 0.296711
-0.36709 -0.0956747 0.297158
0.10596 0.150538 0.297158
0.149842 0.119978 0.286807
-0.301519 -0.0891014 0.297158
0.272231 -0.020985 0.287871
0.182054 0.000354718 0.297158
0.0338476 -0.078815 0.267073
-0.0134538 -0.0794031 0.297158
-0.244965 -0.0203837 0.297158
-0.219573 -0.100024 0.286807
0.253837 -0.11746 0.286807
0.323899 -0.00388932 0.297158
0.0609111 -0.134443 0.297158
-0.418646 0.125502 0.286807
-0.0382874 0.0367564 0.297158
-0.272471 -0.0767734 0.297158
0.152264 0.147753 0.297158
-0.267533 0.0307353 0.287676
0.303119 -0.183834 0.288102
-0.141789 -0.0823167 0.286807
-0.194841 0.0734233 0.271746
0.0966882 -0.0485483 0.297158
0.14406 -0.123617 0.286807
0.272327 0.159157 0.297158
0.451855 0.101531 0.287756
-0.0630999 0.101969 0.297158
0.322282 0.111333 0.286807
-0.200977 0.184963 0.288455
-0.00445977 0.0577528 0.286807
0.320369 0.0764416 0.297158
0.128817 0.0625125 0.286807
-0.12374 0.0823581 0.268786
-0.099365 0.0739441 0.297158
0.225123 -0.0258954 0.297158
0.0365519 -0.0811838 0.276442
0.14484 -0.0801078 0.297158
-0.278202 -0.0397447 0.251121
-0.155066 0.0866009 0.297158
-0.350819 -0.171869 0.286807
-0.333986 0.157038 0.00310527
0.309427 0.138036 0.0767466
0.437413 -0.0037894 0.286807
0.153706 0.0856366 0.286807
0.103807 -0.0209467 0.297158
0.321531 -0.0418395 0.297158
-0.450547 0.0962727 0.28735
-0.278639 0.00517628 0.251169
-0.0601524 0.107572 0.286807
-0.0693714 -0.0252812 0.297158
-0.131629 -0.158532 0.286807
-0.338105 0.163152 0.286807
-0.331852 0.0379821 0.297158
0.447347 0.0379571 0.286807
-0.30356 0.14192 0.286807
0.222303 0.0904581 0.297158
0.226965 0.0336949 0.286807
0.255392 0.155572 0.286807
0.283754 0.0995659 0.239228
-0.289817 0.111663 0.286807
0.222749 -0.0779038 0.276502
-0.0389903 -0.0513824 0.297158
-0.160143 -0.0918114 0.286807
-0.252483 -0.10429 0.297158
-0.392201 -0.164824 0.297158
0.239266 -0.135142 0.286807
-0.1322 -0.029089 0.297158
0.435119 0.0595309 0.286807
-0.436574 -0.0632985 0.297158
-0.0932301 0.0604452 0.297158
-0.349748 -0.114574 0.297158
-0.320613 0.0416968 0.276715
-0.170078 -0.181283 0.287304
0.269072 -0.0674794 0.27672
-0.130652 0.0229821 0.286807
-0.438995 -0.0367831 0.286807
0.313745 -0.0794934 0.286807
0.146274 -0.170349 0.286807
0.162383 -0.11941 0.297158
-0.387884 0.136359 0.297158
-0.445883 -0.0216134 0.286807
-0.401782 -0.0995464 0.297158
0.407071 0.106313 0.286807
0.274046 -0.0752502 0.286807
-0.271307 -0.0905219 0.275084
-0.185442 0.160809 0.297158
0.295433 -0.108029 0.190477
0.0958385 0.0356986 0.286807
0.0360655 -0.0372187 0.297158
0.157776 -0.0476533 0.286807
-0.0895997 0.0792486 0.276842
-0.159038 0.146856 0.286807
0.214868 0.151043 0.286807
-0.284651 -0.022963 0.265738
-0.0325816 -0.077742 0.276435
-0.0735052 -0.0554102 0.286807
-0.191061 -0.13333 0.286807
0.204776 -0.0774439 0.276312
0.302428 -0.11831 0.150298
0.386269 -0.117068 0.297158
-0.045965 0.140057 0.297158
-0.428508 -0.0920202 0.286807
-0.339365 0.143671 0.286807
-0.140234 0.151669 0.286807
0.293978 0.131134 0.297158
0.382571 0.112757 0.297158
-0.323069 -0.00541772 0.297158
-0.232801 -0.0739874 0.286807
0.0193105 0.0815229 0.286807
0.285544 0.0696073 0.286807
-0.40784 0.158142 0.297158
0.168425 0.0170831 0.297158
-0.439632 -0.0703517 0.286807
0.204832 -0.120845 0.286807
0.299609 0.145001 0.0027182
-0.351895 0.0601855 0.286807
0.17968 0.0653523 0.297158
0.312523 0.097972 0.286807
0.293068 -0.10763 0.192124
-0.0938512 -0.099159 0.297158
-0.231117 -0.0715399 0.286807
0.239011 -0.0117432 0.286807
-0.325671 -0.167598 0.286807
0.440979 0.171659 0.291999
-0.283232 -0.108529 0.2056
-0.39525 -0.115764 0.297158
-0.284486 0.0899596 0.26654
-0.312342 0.139981 0.0652106
0.34543 0.0451591 0.297158
0.446651 0.0707004 0.297158
0.335059 -0.0100903 0.286807
0.295926 -0.11826 0.182763
-0.420348 0.159317 0.297158
-0.242014 0.137665 0.286807
0.283688 -0.167306 0.297158
0.329893 0.0197202 0.286807
0.282503 -0.0626814 0.270983
0.141379 0.161185 0.297158
0.455442 0.066698 0.294059
0.262529 -0.158408 0.286807
0.210145 0.177008 0.286807
-0.194846 -0.0948431 0.297158
-0.182514 0.0388784 0.286807
0.125042 -0.0958113 0.297158
-0.282729 0.0849073 0.280482
-0.0814986 0.131743 0.297158
0.272578 -0.0179999 0.27331
0.23802 0.177572 0.286807
-0.204438 -0.122073 0.286807
0.349355 -0.0296682 0.297158
-0.273883 -0.138421 0.286807
0.2622 0.157116 0.286807
0.218176 -0.123016 0.297158
0.00499305 0.153552 0.297158
0.171884 -0.178645 0.293846
-0.379287 0.180048 0.297158
-0.229902 -0.0944658 0.286807
-0.128895 0.0219251 0.297158
0.00340348 0.161541 0.286807
0.379911 0.0930093 0.297158
-0.177593 0.0656107 0.286807
0.0896355 0.0758865 0.286807
-0.315667 0.130776 0.286807
0.133485 0.139179 0.297158
0.289034 -0.121337 0.297158
0.251085 -0.0396815 0.297158
0.112658 0.13961 0.297158
-0.381903 0.138701 0.297158
-0.326763 0.0426341 0.272168
0.349178 0.094834 0.297158
0.367657 0.0986409 0.286807
0.0567017 0.00234718 0.297158
-0.268735 -0.0886803 0.27913
-0.0614976 -0.00808572 0.286807
0.258681 0.186314 0.294183
-0.253885 -0.166497 0.296947
-0.412827 0.128262 0.297158
-0.230614 -0.148819 0.286807
0.121638 -0.0992866 0.297158
0.32422 -0.152062 0.297158
-0.115929 0.141889 0.297158
0.224886 -0.028656 0.286807
0.417515 0.118082 0.297158
0.12124 -0.0316946 0.286807
0.198731 0.122557 0.295744
0.270648 0.0237928 0.27331
-0.313505 -0.133175 0.0845887
-0.212961 -0.0799205 0.266987
0.187925 0.035279 0.286807
-0.0781238 -0.177994 0.286807
0.0716106 0.0273893 0.297158
0.0821498 -0.0744044 0.286807
-0.0533332 0.0789528 0.297158
0.208496 -0.10278 0.297158
-0.384094 0.173012 0.297158
0.311758 -0.0723289 0.297158
-0.350714 0.143264 0.286807
-0.0202544 -0.121683 0.297158
-0.0280723 0.0865389 0.297158
0.303924 -0.151416 0.297158
0.126058 0.178104 0.286807
0.370572 -0.0878618 0.297158
-0.236302 -0.182164 0.293846
-0.193501 -0.00281814 0.286807
-0.0249943 0.184822 0.297158
0.386802 0.0962612 0.297158
0.330282 -0.068014 0.286807
-0.0751584 0.0335723 0.297158
0.28119 0.031461 0.287871
0.282368 -0.0230416 0.283027
0.314986 -0.0595418 0.272624
-0.278362 -0.0771902 0.287871
0.138932 -0.00262186 0.286807
-0.216691 0.16317 0.286807
-0.199157 0.0944199 0.286807
0.0585766 -0.0841012 0.273295
-0.244206 -0.0649626 0.297158
0.363233 0.0555786 0.297158
0.290175 -0.0753625 0.297158
-0.21424 0.0942387 0.286807
-0.0525686 -0.0361542 0.286807
-0.196478 0.00850991 0.297158
-0.003824 0.0809949 0.27612
-0.227341 0.0523295 0.297158
-0.24149 0.040463 0.286807
0.453203 0.0293716 0.297158
0.448274 0.0861694 0.297158
0.216004 0.0767637 0.267521
0.367207 -0.0871925 0.297158
-0.316935 -0.136299 0.0639646
-0.228233 0.165915 0.297158
0.34037 0.00701344 0.297158
-0.136146 -0.14395 0.286807
0.0992826 0.0343476 0.286807
-0.240586 -0.183814 0.293846
0.0234976 -0.0892221 0.297158
-0.0787489 -0.0843059 0.272801
-0.328584 0.160884 0.00294383
0.129145 0.0805715 0.286807
0.305469 -0.0821134 0.26834
-0.18244 0.0584816 0.286807
-0.299143 -0.123303 0.107207
-0.246151 -0.0627737 0.286807
0.445762 -0.000207096 0.297158
0.0806705 0.0682129 0.286807
-0.105775 0.0961442 0.286807
0.271252 -0.0792478 0.287871
0.0293735 0.137818 0.297158
0.187238 -0.170007 0.293846
0.442016 -0.0345148 0.286807
-0.338143 -0.00656451 0.297158
-0.265886 0.186314 0.291228
0.0833078 -0.160842 0.297158
0.298914 0.128616 0.10539
0.371422 0.044936 0.297158
0.286377 0.0956545 0.250507
0.238192 -0.0395012 0.286807
-0.237348 0.00599938 0.297158
-0.321687 0.0221557 0.266809
-0.0617059 -0.182308 0.293846
0.399871 -0.171742 0.297158
-0.335713 -0.0560413 0.286807
-0.186013 0.0403015 0.297158
-0.00838591 0.10122 0.286807
0.307486 -0.112719 0.286807
0.322779 0.142606 0.286807
-0.290302 -0.034065 0.297158
0.455101 -0.0486557 0.288771
-0.279818 -0.117854 0.286807
-0.182112 -0.0856771 0.286807
-0.174858 -0.0495297 0.286807
-0.364506 0.186314 0.294458
-0.0873805 -0.109256 0.286807
-0.142995 -0.0700948 0.297158
-0.255707 -0.177787 0.286807
0.172084 0.0316058 0.297158
0.328143 -0.00539534 0.297158
0.305598 -0.109136 0.297158
0.0721686 -0.0756574 0.268689
0.134005 0.159558 0.286807
0.292839 -0.150573 0.297158
0.0318246 0.0157236 0.286807
-0.249156 0.013584 0.297158
-0.0679829 0.133449 0.297158
-0.336303 0.0384323 0.286807
-0.00341901 0.0104672 0.286807
-0.210353 -0.109658 0.297158
0.199645 -0.103722 0.286807
-0.285677 -0.102951 0.219931
0.115108 0.0786541 0.286807
0.171445 -0.0266031 0.286807
0.0714495 -0.0610568 0.286807
0.235451 -0.0885478 0.297158
-0.239612 -0.162802 0.286807
-0.0127864 -0.129511 0.297158
0.150294 0.116917 0.286807
-0.427812 0.0122921 0.286807
-0.278717 -0.137816 0.286807
0.121491 -0.107889 0.297158
-0.156871 0.0572448 0.286807
0.317596 0.131209 0.00369741
0.278959 -0.0515079 0.272653
-0.369088 -0.0581377 0.297158
-0.217519 0.0927504 0.287594
-0.329487 -0.00117847 0.286807
-0.222436 -0.16129 0.286807
-0.163403 -0.159344 0.286807
-0.127681 -0.0233502 0.286807
-0.28534 -0.0594429 0.251903
0.268421 0.0499689 0.281348
-0.310037 0.001348 0.297158
0.166468 -0.182748 0.293846
-0.21245 0.0737417 0.270977
0.411848 0.144627 0.297158
-0.0582406 0.0647759 0.286807
0.285593 0.109954 0.239506
-0.416475 0.0554849 0.297158
0.221791 0.127096 0.297158
0.22479 0.132457 0.297158
0.0728716 -0.129829 0.297158
-0.356136 0.0225505 0.286807
0.119975 -0.0360954 0.286807
-0.297821 0.127304 0.121939
-0.272231 -0.138277 0.286807
0.209427 -0.11728 0.286807
0.352869 -0.149878 0.286807
0.275484 -0.0342903 0.27331
-0.164938 0.109679 0.286807
-0.286139 0.108474 0.245747
-0.0861113 -0.0227192 0.297158
0.302866 -0.119217 0.147125
-0.405952 0.167841 0.297158
-0.156899 0.134149 0.297158
-0.31834 -0.116262 0.286807
-0.286284 0.103515 0.21736
0.318287 -0.139995 0.0181261
-0.123694 -0.0842946 0.272828
0.188224 0.0344224 0.297158
-0.348822 0.160786 0.297158
-0.174639 0.0815993 0.286807
-0.297499 -0.136428 0.286807
-0.308754 0.132844 0.286807
-0.171008 -0.00747867 0.297158
-0.0791235 -0.0658235 0.297158
0.0702882 -0.0754604 0.269165
0.046286 -0.0778738 0.27649
0.450004 0.0135286 0.287177
-0.134841 -0.0524503 0.297158
-0.213126 -0.0442807 0.297158
0.140059 -0.141151 0.286807
-0.289492 0.031239 0.297158
-0.290921 -0.023569 0.286807
-0.243466 -0.17098 0.293846
0.227611 0.0695291 0.297158
0.393393 0.113669 0.286807
0.187864 -0.143865 0.297158
-0.018908 0.0789737 0.297158
0.435671 0.170972 0.287624
-0.240192 0.162054 0.297158
0.204427 0.0785753 0.297158
-0.1523 -0.0342947 0.286807
-0.296376 -0.115669 0.143997
-0.286657 -0.0641528 0.286807
0.389608 0.150313 0.297158
-0.315222 0.144304 0.297158
0.451268 -0.114174 0.297158
0.446067 -0.0376597 0.286807
0.28332 0.122209 0.297158
0.34253 0.02334 0.286807
-0.293359 0.121594 0.146115
0.445391 -0.166565 0.289297
-0.0235396 0.126436 0.286807
-0.29024 -0.128435 0.297158
0.244155 -0.0971902 0.297158
-0.285564 -0.0719985 0.261067
0.253307 0.122886 0.297158
-0.21685 0.177195 0.286807
-0.314679 0.145375 0.00697701
-0.285509 -0.0426783 0.26135
0.453249 0.0921271 0.297158
-0.357553 0.0864648 0.286807
-0.274801 0.0903581 0.27676
-0.402248 0.0411605 0.297158
-0.116119 0.123629 0.286807
0.313338 -0.165734 0.297158
-0.169948 0.123604 0.297158
0.360941 -0.0840226 0.286807
0.265327 0.152374 0.297158
0.332416 -0.128098 0.000791094
-0.0120245 -0.071823 0.286807
0.179273 -0.074574 0.297158
0.312956 -0.1416 0.0547008
-0.10658 -0.177703 0.286807
0.177391 0.142509 0.286807
0.352144 0.0346759 0.286807
0.39084 -0.0073216 0.286807
0.445388 0.0818441 0.297158
-0.301373 -0.143766 0.286807
-0.195364 0.160804 0.297158
-0.0456923 -0.101193 0.286807
-0.176604 0.0200295 0.297158
0.341387 -0.141705 0.297158
-0.334353 0.078717 0.286807
-0.365256 0.0343662 0.286807
-0.177304 0.151353 0.286807
0.187614 0.0617235 0.286807
0.319313 0.135004 0.047589
0.0696633 -0.144464 0.297158
-0.0715741 0.0903717 0.297158
0.3141 0.0642762 0.286807
0.0784919 -0.101624 0.297158
-0.133917 -0.00666718 0.286807
-0.429703 -0.0852875 0.297158
-0.431801 -0.0228147 0.286807
0.284386 -0.0549839 0.261371
0.272796 -0.000164099 0.260002
-0.212431 0.157535 0.286807
-0.373009 0.144962 0.286807
-0.323056 -0.000436168 0.267376
0.212367 -0.0344483 0.286807
-0.237421 -0.0448449 0.286807
-0.443105 0.120232 0.286807
-0.285883 0.0801959 0.267502
0.151755 0.181278 0.297158
0.322587 0.0491701 0.276093
-0.000233829 -0.176145 0.293846
-0.0862354 -0.0968938 0.286807
-0.0374349 0.0570527 0.297158
-0.069387 0.13144 0.286807
0.0767069 -0.0228717 0.297158
0.0916379 -0.0179925 0.297158
0.0306509 0.0537854 0.286807
-0.428427 -0.103706 0.297158
-0.261487 -0.151895 0.297158
-0.109999 -0.135375 0.286807
0.340954 -0.0724591 0.297158
0.305688 0.186314 0.293766
0.222575 -0.00920917 0.297158
0.0498783 0.184918 0.297158
-0.159939 0.16072 0.297158
-0.237392 -0.0275109 0.286807
-0.267684 0.0794617 0.267198
-0.0392 -0.139306 0.297158
0.204694 -0.0890623 0.286807
-0.289999 0.0870706 0.297158
0.294209 -0.0124515 0.297158
0.132774 -0.00256166 0.297158
-0.151948 -0.0494396 0.286807
-0.0548995 0.121537 0.286807
0.324985 -0.18469 0.28837
-0.198386 0.083821 0.286807
-0.353693 0.0819813 0.297158
0.0960797 -0.0750815 0.273872
-0.442883 -0.0290952 0.286807
0.0123316 0.0371149 0.297158
0.280213 -0.0434648 0.27279
-0.20788 -0.129808 0.297158
-0.248897 -0.123425 0.297158
-0.0599452 0.0728698 0.297158
-0.252888 -0.106845 0.286807
0.356939 0.173599 0.286807
0.267835 0.076869 0.267477
0.144956 -0.0856966 0.297158
0.22304 -0.0658842 0.297158
-0.293716 0.122688 0.144615
-0.125475 0.0733696 0.271875
0.0171743 -0.00428134 0.297158
-0.246767 -0.0146212 0.297158
-0.372561 -0.0801235 0.286807
0.0277751 -0.118303 0.297158
-0.427077 0.0173788 0.297158
-0.42668 0.0460444 0.286807
0.208406 0.037674 0.297158
0.0464931 0.100808 0.286807
-0.275343 0.0848165 0.297158
-0.170792 0.107461 0.286807
-0.279977 0.130155 0.297158
0.42697 -0.0393822 0.286807
-0.329595 -0.0585053 0.297158
0.131138 0.139775 0.286807
-0.119 0.154736 0.297158
-0.124875 0.0922165 0.286807
-0.0278027 0.0822706 0.268575
-0.188566 -0.111542 0.297158
-0.142445 -0.0158697 0.286807
0.0194795 -0.0989734 0.297158
-0.000340492 -0.0684529 0.297158
0.283851 0.114052 0.218161
0.393961 0.00786559 0.297158
0.282328 0.0332855 0.283315
-0.282454 -0.04673 0.282441
-0.360994 -0.0603584 0.286807
0.392176 -0.0344568 0.286807
0.0956052 0.0335386 0.286807
0.341531 -0.106419 0.297158
0.432406 -0.167239 0.297158
-0.454039 0.0136321 0.297158
-0.0204021 0.0730681 0.286807
0.282157 0.011199 0.272529
0.300291 0.138489 0.000109783
0.333345 -0.0524996 0.297158
-0.308088 0.125691 0.119755
-0.337455 0.0491719 0.297158
0.155343 -0.126292 0.286807
-0.118724 0.0162908 0.286807
-0.367589 -0.010638 0.297158
-0.391927 -0.164013 0.297158
-0.325352 0.131859 0.00362028
-0.273392 0.10229 0.270344
0.274719 0.0921917 0.287871
-0.392703 -0.0604235 0.297158
0.0179942 0.0827917 0.274119
-0.175325 -0.170303 0.286807
0.223687 -0.0553114 0.297158
-0.205087 0.0959896 0.288025
-0.0469449 -0.0421253 0.286807
-0.226444 -0.133342 0.297158
0.029195 -0.0860171 0.297158
-0.359806 -0.176375 0.286807
0.0178972 0.0741811 0.274037
0.186943 -0.157658 0.286807
-0.320017 0.144569 0.0136629
0.112495 -0.0539242 0.286807
0.339038 0.0354486 0.286807
0.0157581 -0.104379 0.286807
0.327277 -0.142038 0.00481791
0.176591 -0.145558 0.297158
0.338805 0.0867849 0.286807
-0.0706799 0.092384 0.286807
0.397928 -0.0509071 0.297158
0.264795 -0.084219 0.270941
-0.163305 0.150579 0.286807
0.286786 -0.0108504 0.297158
-0.0540784 -0.0496646 0.286807
-0.0563989 0.0527459 0.297158
-0.22459 0.0482203 0.286807
0.237943 0.127514 0.297158
0.315006 -0.0556431 0.286807
0.143303 0.0605165 0.286807
0.247617 -0.133479 0.297158
-0.0361902 0.0992438 0.286807
0.0197631 0.0686043 0.297158
-0.355755 -0.0136901 0.297158
0.0249549 0.020354 0.297158
0.0220262 -0.0352037 0.297158
-0.0569863 -0.060781 0.297158
0.18612 0.0703126 0.286807
-0.097535 -0.0910217 0.297158
-0.274782 -0.00954843 0.287871
0.288307 0.103128 0.286807
0.431685 -0.0863119 0.297158
-0.447739 -0.0114043 0.286807
-0.194598 0.0393993 0.286807
-0.192068 -0.144954 0.297158
-0.272318 0.0933088 0.268272
-0.0889471 -0.0493468 0.297158
-0.0392596 -0.0098199 0.286807
0.32296 0.133017 0.286807
-0.372062 0.177239 0.286807
0.298051 -0.134218 0.286807
0.0472284 0.0295114 0.297158
-0.123378 0.124426 0.297158
-0.293746 -0.0524031 0.286807
0.441978 -0.106306 0.286807
-0.352996 0.029049 0.297158
-0.455442 -0.0990707 0.294206
0.386782 0.0105702 0.297158
0.453489 0.0735069 0.288267
-0.421344 -0.178541 0.297158
-0.147033 -0.0280669 0.297158
-0.309217 -0.127738 0.0720092
0.271458 -0.0873433 0.287871
-0.342592 0.107707 0.297158
0.294496 -0.0662682 0.297158
-0.0729031 -0.0884968 0.297158
-0.41809 0.158529 0.286807
-0.0517353 -0.0418165 0.297158
0.0188703 -0.129323 0.286807
-0.145741 0.160969 0.297158
0.247705 0.0369717 0.297158
-0.393466 -0.0437856 0.286807
0.271453 0.0627782 0.266865
0.112188 -0.0233049 0.297158
-0.382072 -0.0515402 0.297158
-0.150122 0.0466229 0.297158
-0.395902 -0.161318 0.286807
0.208601 -0.102885 0.297158
-0.234663 0.0312767 0.286807
0.303896 -0.126971 0.0764862
0.00756878 0.142995 0.297158
-0.130074 0.0501497 0.297158
0.28013 -0.0655896 0.251455
0.451517 -0.141656 0.287744
0.292141 -0.0307299 0.286807
0.219888 0.183274 0.287927
0.0866992 -0.0832346 0.27539
-0.214382 0.186314 0.292449
0.217026 0.0623813 0.297158
-0.134938 0.0865844 0.297158
-0.181259 -0.0704769 0.297158
0.360036 -0.16404 0.286807
-0.138679 0.0284249 0.297158
0.395054 -0.0475665 0.286807
-0.00208044 0.0576578 0.286807
0.0117693 -0.10838 0.286807
-0.0550885 -0.00322583 0.286807
-0.319955 -0.139565 0.0244575
0.174848 0.166081 0.286807
0.0357013 0.00128599 0.297158
0.0414211 0.119348 0.297158
0.328719 0.183212 0.297158
-0.287702 0.0946927 0.249548
-0.311724 0.126558 0.286807
0.223527 -0.128141 0.297158
0.14726 -0.0339826 0.297158
-0.00856134 0.00805786 0.297158
0.0777159 -0.0624829 0.286807
0.28266 -0.140119 0.297158
0.365894 -0.101308 0.286807
0.299545 0.0861906 0.297158
0.0565318 0.00642606 0.286807
0.455442 0.0249738 0.291956
-0.420981 0.176759 0.297158
-0.289128 -0.07991 0.286807
-0.198827 0.147951 0.286807
-0.252516 0.096875 0.286807
0.312414 0.0647659 0.297158
0.11426 -0.126636 0.297158
-0.0172279 -0.0227323 0.297158
-0.406057 0.0704482 0.286807
-0.366375 -0.186314 0.295594
0.293857 -0.109091 0.183386
-0.224584 -0.181354 0.287326
0.423577 0.03873 0.286807
-0.416126 -0.148726 0.286807
0.436317 -0.169771 0.287512
-0.054783 -0.0546781 0.286807
0.309589 0.0721677 0.286807
-0.306618 0.0266275 0.286807
0.25762 0.18153 0.287381
-0.237733 0.156914 0.297158
-0.290231 0.125529 0.297158
0.321372 -0.0144848 0.297158
-0.233001 0.0830871 0.297158
-0.309959 -0.139573 0.0476942
-0.378473 -0.114234 0.297158
-0.248233 0.0103016 0.286807
-0.414696 -0.057951 0.286807
0.0506797 0.122706 0.297158
-0.0913238 -0.109086 0.286807
-0.282011 0.108495 0.214145
0.0367809 0.0462121 0.286807
0.418293 -0.0929694 0.297158
0.398387 -0.0435302 0.297158
0.121648 0.0338123 0.286807
-0.27467 0.0386395 0.256151
0.271877 0.0725716 0.287871
0.227371 -0.0205568 0.297158
-0.381306 -0.0251989 0.297158
0.402605 -0.0818828 0.297158
0.277711 0.0968681 0.286807
0.426548 -0.0319178 0.297158
-0.332205 0.156653 0
-0.385554 -0.0969204 0.286807
-0.285384 -0.000229828 0.261987
-0.387987 0.0354057 0.286807
-0.191309 0.144141 0.297158
0.315181 0.118242 0.286807
-0.273753 -0.0497745 0.260834
0.261091 0.0836149 0.271822
0.087646 0.0907839 0.297158
0.269274 0.0299052 0.275288
-0.318949 -0.0653133 0.286807
0.43461 -0.0784426 0.297158
0.244698 0.0116322 0.286807
-0.163949 0.106477 0.286807
-0.191914 0.0251253 0.286807
0.238715 0.147038 0.286807
-0.0652436 -0.117468 0.286807
-0.147455 0.176187 0.286807
0.274015 -0.102745 0.257436
-0.267326 -0.00677121 0.286807
0.122844 -0.0713067 0.286807
-0.418737 0.0790388 0.297158
0.411148 -0.0432235 0.286807
-0.359036 0.00127131 0.297158
-0.255189 0.0347903 0.286807
0.270752 -0.0952293 0.273183
-0.356326 0.0275768 0.286807
-0.0807423 0.039377 0.297158
0.203506 -0.0748079 0.297158
0.162761 0.175816 0.297158
-0.422363 0.00416104 0.286807
0.310462 -0.131371 0.050298
0.393149 -0.101784 0.297158
0.225917 -0.0560246 0.286807
-0.23524 0.164287 0.297158
-0.123307 -0.156578 0.286807
-0.0376139 0.106076 0.297158
0.318698 -0.0690822 0.297158
0.0780959 0.125164 0.286807
0.28398 -0.0830809 0.275657
0.38095 -0.069719 0.286807
-0.249762 -0.0746652 0.271085
0.0990377 -0.000317112 0.297158
0.300965 0.0845628 0.286807
-0.450122 0.106673 0.297158
-0.0430198 0.0677581 0.286807
-0.304883 -0.0228456 0.286807
0.373828 0.186314 0.289288
0.399734 -0.163798 0.286807
-0.106428 0.0338389 0.286807
-0.408105 -0.090126 0.286807
-0.190399 -0.174658 0.293846
-0.136677 0.0115845 0.297158
-0.0720271 -0.0674023 0.297158
-0.00243595 0.00988748 0.286807
0.0847811 0.0771806 0.297158
0.127317 -0.0688799 0.297158
0.32878 0.133133 0.286807
0.334843 0.161981 0.297158
0.450263 0.0699872 0.287258
-0.237538 0.119567 0.297365
0.0380294 -0.10316 0.286807
-0.37578 0.108634 0.286807
-0.183323 0.122553 0.288166
-0.403002 0.120107 0.297158
