0.00296095 0.104602 0.530776
0.228969 0.190073 0.513263
0.145238 0.0964859 0.530776
0.262244 -0.223397 0.00749249
-0.0977138 0.0279854 0.489408
-0.288962 0.211186 0.530776
-0.178508 0.190787 0.530776
0.0236099 -0.00734989 0.499889
0.139812 0.192209 0.530776
-0.237527 -0.0685644 0.530776
0.25941 0.0883248 0.513263
-0.192779 0.284229 0.530776
0.0110784 0.093953 0.513263
-0.17445 -0.217091 0.513263
-0.240104 0.150803 0.513263
0.162075 -0.0529892 0.513263
0.279787 -0.0233653 0.484093
-0.275252 0.051889 0.368193
0.252641 -0.22154 0.513263
0.188281 -0.174641 0.530776
0.270801 -0.219774 0.00978688
-0.279787 0.140988 0.502012
0.180518 -0.279394 0.530776
-0.275491 -0.11029 0.270335
0.10224 -0.00731011 0.4999
-0.271143 0.180226 0.530776
0.24537 0.256275 0.530776
0.0987214 0.0397029 0.495906
-0.201945 0.0299456 0.513263
-0.211147 -0.0412571 0.530776
-0.0306121 0.223026 0.530776
-0.193205 0.240782 0.513263
0.220943 -0.230627 0.513263
0.0509941 -0.17696 0.530776
-0.275069 -0.247052 0.513263
-0.0558283 0.0899133 0.530776
0.197274 -0.236483 0.513263
-2.3514e-05 -0.0214831 0.530776
-0.201523 -0.10248 0.513263
-0.0987214 0.0207372 0.496739
-0.0897308 -0.0131543 0.461853
-0.0313238 0.254064 0.513263
-0.00621581 -0.12464 0.513263
-0.297141 -0.183692 0.513263
-0.204416 -0.115759 0.530776
-0.0689513 0.244537 0.530776
0.000979632 0.173186 0.530776
0.264986 0.151184 0.513263
-0.159032 -0.171398 0.513263
0.25829 0.0766585 0.331883
0.226038 0.0151216 0.530776
-0.257178 -0.0312497 0.397085
-0.280794 0.18734 0.488916
-0.2899 0.0655499 0.530776
-0.0172659 0.190933 0.513263
-0.275905 -0.196448 0.0880228
0.0693598 0.0942696 0.513263
-0.09198 0.0255814 0.511378
0.275141 -0.046509 0.42482
-0.303364 0.00820878 0.527664
-0.0607015 -0.170699 0.513263
0.251343 0.0361562 0.530776
-0.134337 -0.280109 0.513263
0.190523 -0.295871 0.519211
0.256314 0.0183798 0.513263
-0.180121 0.149464 0.530776
-0.196292 0.0202686 0.487637
-0.218351 -0.0454631 0.513263
0.116142 0.270261 0.513263
0.263444 0.066929 0.365366
-0.290859 0.149583 0.530776
-0.279787 0.00583537 0.455451
-0.237788 0.0815577 0.530776
0.273232 -0.0762825 0.513263
0.280794 -0.0643426 0.498805
0.0953861 0.242807 0.513263
-0.081151 -0.00480667 0.530776
0.273623 -0.0460365 0.530776
-0.264565 -0.0196795 0.404286
-0.0977138 -0.162587 0.508001
0.0964866 0.109602 0.510992
0.149706 0.153177 0.530776
-0.136867 -0.0961024 0.530776
-0.26674 0.237619 0.530776
-0.26521 -0.254431 0.530776
0.161374 0.102311 0.530776
0.0987214 -0.137826 0.498494
-0.209657 -0.00955237 0.499297
0.263456 0.189728 0.0905019
-0.0425734 0.185533 0.530776
-0.251364 -0.0938326 0.513263
-0.196065 -0.13066 0.530776
0.270366 -0.072885 0.36774
0.201672 0.0700921 0.530776
-0.0694955 -0.156589 0.530776
0.153878 0.083736 0.513263
0.269158 -0.113858 0.530776
0.120464 0.0479984 0.513263
0.177146 0.257023 0.513263
0.269027 0.100576 0.240855
-0.0698957 0.273866 0.513263
0.0339445 0.174172 0.513263
0.3028 0.0543066 0.530776
-0.104624 -0.162391 0.530776
-0.1345 0.168638 0.513263
-0.0164286 -0.0962753 0.513263
-0.00637409 -0.0222642 0.478627
0.125327 -0.0976796 0.513263
0.280794 -0.0435985 0.48163
0.24042 0.216572 0.530776
0.0454265 0.149948 0.530776
0.234949 -0.258243 0.513263
-0.157262 -0.129296 0.513263
0.270589 0.145103 0.206587
-0.0181791 -0.208866 0.513263
0.280794 -0.22678 0.498021
0.114556 -0.0197598 0.469295
-0.12916 0.158624 0.513263
0.0465147 0.0169588 0.513263
-0.275066 -0.0195572 0.451558
-0.23313 0.0319198 0.530776
-0.258492 0.251716 0.530776
-0.266783 -0.0687383 0.306147
-0.275026 0.0107969 0.457032
-0.193411 -0.0195206 0.468406
0.289914 0.148294 0.530776
-0.00736338 -0.217906 0.530776
0.126186 -0.19241 0.513263
-0.0451537 0.174559 0.530776
-0.180689 -0.0818056 0.513263
0.127348 -0.247604 0.530776
-0.131411 -0.247038 0.513263
-0.26614 0.242048 0.513263
0.260965 -0.0628885 0.329044
0.275353 -0.0678886 0.321874
-0.291584 0.291245 0.530776
-0.242075 0.179015 0.513263
-0.154002 -0.0965898 0.530776
-0.0987214 -0.025873 0.501666
-0.279787 0.157993 0.496649
0.29336 0.0514115 0.513263
-0.267342 -0.26466 0.513263
0.303364 0.017608 0.518023
0.0406598 -0.191567 0.530776
-0.205149 0.234444 0.530776
-0.106363 0.0585892 0.513263
0.0698972 0.260948 0.530776
0.14971 0.0208555 0.513263
-0.27565 -0.131703 0.195794
0.146136 0.266662 0.513263
-0.157588 0.145721 0.513263
0.191882 0.221106 0.513263
0.223146 0.268324 0.513263
0.245646 -0.112341 0.513263
0.280794 -0.0147442 0.448503
0.238819 0.000615269 0.530776
0.204241 0.0170655 0.493013
0.0258586 0.292894 0.530776
-0.0494926 -0.211511 0.530776
0.273747 0.0993583 0.237172
-0.219559 0.295871 0.518741
-0.261039 0.255424 0.513263
0.280794 0.0093272 0.449485
0.196434 0.165329 0.513263
0.0638558 -0.21341 0.530776
-0.0987214 0.129448 0.509401
0.293713 -0.249563 0.530776
0.255633 -0.0816536 0.304046
0.289296 0.193645 0.513263
-0.263024 -0.0346899 0.530776
-0.275557 0.109443 0.233824
-0.0471487 0.261283 0.530776
0.196727 0.280451 0.513263
-0.299497 -0.263892 0.530776
-0.203692 -0.0223376 0.478878
-0.0648631 0.236103 0.530776
0.162208 0.0176767 0.530776
0.0667578 0.0676336 0.513263
0.030553 -0.0974646 0.513263
0.271144 0.0221815 0.480491
0.275644 0.135341 0.2007
0.0977138 0.115031 0.495075
-0.280794 0.0732398 0.458381
0.242536 -0.0375389 0.513263
0.0787846 -0.205092 0.513263
-0.0410253 -0.210657 0.513263
-0.0727232 0.16266 0.530776
0.0390702 -0.212787 0.530776
-0.0089806 -0.140833 0.513263
-0.0219155 -0.0546297 0.530776
0.143127 -0.201092 0.513263
0.0276803 0.0203914 0.513263
-0.178872 -0.0511866 0.513263
0.20222 0.00416518 0.458043
0.031676 -0.229614 0.513263
0.195165 0.185823 0.530776
-0.254484 0.144891 0.530776
0.0977138 -0.00263772 0.48223
-0.190362 -0.280496 0.513263
0.280794 -0.0283172 0.447982
-0.214429 -0.155839 0.530776
0.268359 -0.11824 0.208456
-0.204771 -0.120455 0.513263
-0.000822484 -0.0232659 0.513263
0.0620576 -0.200034 0.530776
0.225322 -0.105185 0.530776
0.181653 -0.24095 0.513263
-0.260541 0.0123204 0.460994
-0.278359 -0.192347 0.513098
0.0987214 0.085388 0.50898
0.269401 0.0897664 0.513263
0.273171 0.221428 0.530776
-0.158826 0.211305 0.530776
0.0828732 -0.173965 0.513263
-0.0193456 -0.147467 0.530776
0.254815 -0.236641 0.513263
-0.1144 -0.275767 0.513263
0.039669 0.0772694 0.513263
0.205313 -0.148835 0.530776
-0.0594505 0.0335706 0.530776
0.172672 -0.0808608 0.513263
-0.0929601 -0.182284 0.513263
0.202842 0.233256 0.513263
0.250389 -0.156675 0.513263
0.179352 0.0203784 0.487189
0.275212 -0.0514528 0.389551
0.0798521 -0.0434069 0.513263
0.221212 0.212174 0.513263
0.11093 -0.156304 0.530776
0.276617 0.0831345 0.513098
-0.289174 -0.240357 0.513263
0.0118786 0.0152737 0.463963
0.258147 -0.0743683 0.336675
-0.273165 -0.213332 0.0185611
-0.280794 0.0988771 0.472739
-0.261134 -0.00785169 0.433784
-0.0473161 -0.113017 0.513263
-0.00234756 -0.268492 0.530776
-0.0664802 0.0149979 0.513263
0.0987214 0.0253941 0.504493
0.00565797 0.273978 0.530776
-0.0488236 0.0191363 0.49095
0.149345 -0.033195 0.513263
-0.0636061 0.273019 0.513263
-0.0975863 0.106039 0.510992
-0.123533 -0.277422 0.513263
-0.215808 -0.111719 0.530776
0.262835 0.075244 0.530776
0.119033 0.122551 0.513263
0.210016 0.0706986 0.513263
-0.0708246 0.0140426 0.530776
-0.264618 -0.0403914 0.427432
0.173698 0.112105 0.513263
0.275308 0.0745081 0.349981
-0.275252 -0.0630351 0.374135
-0.187051 0.197311 0.513263
-0.280794 -0.178903 0.492548
0.303364 0.294671 0.515413
-0.105694 0.0340749 0.530776
-0.279551 -0.224743 0.530776
0.0977138 -0.0351856 0.485725
0.302034 -0.0266835 0.530776
-0.229169 0.0956737 0.530776
-0.300894 0.237632 0.513263
-0.0410469 -0.262491 0.530776
0.279787 -0.059373 0.487873
0.0327004 0.23692 0.530776
-0.280794 0.163191 0.498083
0.279251 -0.0714226 0.513098
-0.0648484 -0.0814186 0.530776
-0.122238 -0.00909436 0.49942
0.00784633 -0.246857 0.513263
0.195166 0.115038 0.530776
-0.146728 0.0869194 0.513263
0.24805 -0.115663 0.513263
-0.218224 -0.103503 0.513263
-0.267896 -0.0726559 0.362645
-0.141582 0.0440857 0.513263
0.151935 0.0205049 0.513263
0.0836365 0.285329 0.513263
-1.24872e-05 -0.0180121 0.513263
-0.223904 -0.209427 0.530776
-0.191757 -0.295871 0.524122
-0.25082 -0.0264648 0.513263
0.256458 0.141637 0.513263
0.222736 -0.220817 0.530776
0.09198 -0.00801267 0.512945
0.0225098 0.115339 0.530776
-0.0938277 0.109277 0.513263
-0.0610164 0.144269 0.530776
-0.275674 -0.170825 0.148057
-0.155407 0.25056 0.530776
-0.0690958 -0.175125 0.530776
-0.0783153 -0.116189 0.513263
-0.161308 -0.28911 0.513263
0.164271 -0.0804663 0.513263
-0.0118498 0.181326 0.513263
0.165989 0.0206602 0.472626
0.259957 -0.0615412 0.333647
-0.0619335 -0.200297 0.513263
-0.122458 -0.0251694 0.530776
-0.266231 0.0895061 0.321152
0.073624 -0.032203 0.513263
-0.0929835 0.0867828 0.530776
0.0304955 0.00799332 0.499719
0.0510389 -0.0746655 0.513263
0.26505 -0.197804 0.530776
-0.280794 0.112473 0.49055
0.280794 0.114658 0.491627
0.022421 0.142204 0.513263
0.299982 0.0753697 0.513263
-0.143361 -0.195599 0.530776
-0.292413 0.245299 0.513263
-0.211648 0.0066893 0.500073
0.279813 0.243993 0.513263
0.242387 -0.201819 0.530776
0.253569 -0.0202522 0.425357
0.233286 -0.140968 0.530776
-0.0272705 -0.149948 0.513263
0.152949 -0.0102749 0.530776
-0.159992 0.137927 0.513263
0.0782203 0.184374 0.513263
0.055118 0.188831 0.530776
0.148272 -0.251375 0.513263
0.0117622 0.104638 0.513263
0.303364 0.017913 0.515008
-0.175988 0.11159 0.513263
0.188244 -0.0308544 0.530776
-0.269664 0.140397 0.163546
0.265564 -0.0140219 0.413076
-0.076349 -0.141952 0.530776
-0.279787 -0.174379 0.504634
-0.0312649 -0.110239 0.513263
0.141175 0.272893 0.530776
0.303364 0.0859695 0.522306
-0.0215385 0.120203 0.513263
-0.134197 -0.0695044 0.530776
-0.0641119 0.18606 0.530776
-0.175071 0.158911 0.530776
-0.189066 0.0189572 0.513263
0.263193 0.186998 0.0879637
-0.167951 0.211812 0.530776
-0.178759 0.164398 0.513263
-0.152795 -0.134071 0.513263
0.282011 -0.181908 0.530776
0.0645032 0.126833 0.530776
-0.141416 -0.121952 0.530776
0.223194 -0.0920334 0.513263
0.221427 -0.157863 0.513263
0.281072 0.223855 0.530776
-0.0673654 0.0432106 0.530776
0.0792986 0.0188095 0.467509
0.11214 0.193217 0.530776
0.255242 0.0513637 0.362592
0.268895 0.196832 0.513263
0.275507 -0.0958128 0.253491
-0.193319 0.161179 0.513263
0.102838 -0.000164419 0.530776
0.00567341 0.0130486 0.497036
-0.280794 0.205924 0.509984
-0.275111 -0.0216101 0.42824
0.280794 -0.115669 0.505565
-0.00690147 -0.183275 0.530776
-0.0774677 0.0113367 0.513263
-0.303364 -0.117351 0.530448
-0.279299 0.147334 0.513098
-0.277333 0.172292 0.530776
0.0428696 0.226188 0.513263
0.181885 -0.0175388 0.530776
0.0302238 0.0134441 0.530776
0.29076 0.073311 0.530776
-0.274053 0.136581 0.51213
-0.275104 -0.0347841 0.439086
0.254747 0.068662 0.34174
-0.0886596 0.0607349 0.513263
-0.121072 0.06052 0.530776
0.025083 -0.146248 0.530776
0.0927551 0.255496 0.513263
0.261269 -0.0994078 0.287706
-0.300677 -0.185308 0.513263
0.303364 -0.0778153 0.520218
-0.0539345 -0.212083 0.530776
0.0991352 -0.295871 0.526672
-0.0697598 -0.149428 0.513263
-0.0103478 0.236371 0.530776
-0.257487 0.186262 0.530776
-0.0987214 -0.0780054 0.502198
0.0888299 0.135821 0.513263
-0.0432523 0.10339 0.530776
-0.297247 -0.230587 0.513263
0.279787 -0.0799169 0.47154
-0.276653 -0.134417 0.510845
-0.182085 0.248627 0.513263
0.0456197 0.00656497 0.500104
-0.247697 0.124558 0.530776
-0.279787 0.0498427 0.486236
-0.0933434 -0.162948 0.510992
0.14391 0.251535 0.513263
-0.154987 -0.160164 0.513263
0.267716 -0.0235802 0.472102
-0.142114 -0.011436 0.530776
-0.27522 0.0360568 0.377204
0.280794 0.0668197 0.48303
0.0987214 0.0360765 0.504379
-0.270778 -0.0616763 0.393769
0.0919152 -0.0618792 0.530776
0.284211 -0.125296 0.530776
-0.0849537 -0.203525 0.530776
-0.0659824 0.025681 0.530776
-0.0093399 -0.240668 0.513263
-0.216655 -0.019822 0.489249
0.27437 -0.145984 0.510845
0.0429691 0.0331007 0.513263
-0.275096 0.20609 0.0723728
0.275603 -0.129766 0.219909
-0.279787 0.0525313 0.495527
-0.225059 -0.0320293 0.530776
-0.237244 0.0841645 0.530776
0.29796 0.23219 0.513263
-0.039391 0.106885 0.530776
0.188467 0.0220021 0.513263
0.291305 -0.282695 0.513263
-0.287342 -0.0903195 0.530776
0.209667 -0.104892 0.530776
0.294718 0.169652 0.513263
0.268471 -0.0652123 0.309479
0.264866 0.216572 0.0316764
0.0437533 0.173207 0.530776
0.231685 0.217964 0.530776
0.0626502 -0.0538068 0.513263
-0.140701 0.0190192 0.467712
-0.0987142 0.104237 0.513263
-0.275233 -0.0357124 0.369556
0.208843 -0.0946843 0.530776
0.210701 0.16276 0.530776
0.205879 -0.268452 0.530776
-0.138937 0.0197064 0.469046
-0.20631 0.0224021 0.479671
0.263452 0.103641 0.283201
-0.0221561 0.0198907 0.469745
-0.0930788 -0.0991759 0.513263
-0.0987214 -0.075767 0.505029
0.0987214 0.0631786 0.501278
-0.251867 -0.180121 0.530776
-0.0722556 0.110114 0.530776
-0.0657656 0.125522 0.513263
0.00290075 0.115659 0.513263
0.285697 0.0965783 0.513263
0.258073 0.0459017 0.400242
-0.175476 -0.242311 0.530776
-0.291872 -0.0935925 0.513263
0.0873951 0.187778 0.513263
-0.293071 -0.131588 0.513263
-0.23822 0.285123 0.530776
0.263003 0.24603 0.513263
-0.0977138 -0.0828379 0.486595
-0.275093 -0.00484119 0.428784
-0.208509 0.0501839 0.530776
0.275115 -0.0312637 0.430999
0.277543 0.215896 0.00346223
-0.0587963 0.0599651 0.530776
0.279787 0.0379583 0.491955
0.259893 -0.152231 0.513263
-0.279787 0.123327 0.483251
-0.275149 0.0350459 0.415048
0.0959885 -0.0841633 0.513263
-0.0715897 0.158919 0.513263
0.179908 0.036253 0.513263
-0.180742 0.0250209 0.530776
0.150935 -0.0153505 0.464057
-0.275195 -0.0278775 0.386107
-0.0977138 -0.155366 0.506706
-0.280948 0.226008 0.530776
-0.0493995 -0.188523 0.530776
0.275032 -0.0465911 0.340941
-0.216724 -0.138024 0.530776
-0.280794 -0.0306885 0.506968
-0.0977926 0.105359 0.513263
-0.280794 -0.175254 0.494567
0.301141 -3.8147e-06 0.530776
-0.261437 0.16979 0.130551
0.274643 -0.214678 0.0164984
0.275151 0.0220673 0.406528
-0.303364 -0.022978 0.525168
-0.27568 0.142318 0.185074
-0.226559 -0.0940774 0.513263
-0.259591 0.104491 0.513263
0.173283 0.0514832 0.513263
-0.303364 -0.00969002 0.521675
0.266817 -0.166107 0.513263
0.279787 -0.0189925 0.485376
-0.0590269 0.119931 0.513263
0.189834 -0.0289899 0.513263
0.0609637 0.189707 0.513263
-0.18947 -0.123631 0.513263
-0.275943 0.196276 0.0710017
-0.275536 0.123657 0.250472
0.000904948 0.0754519 0.513263
-0.264417 0.21268 0.041306
-0.164362 0.295871 0.518562
0.273716 0.217481 0.0486613
0.279787 0.24681 0.506551
-0.279787 -0.18547 0.491501
-0.0195316 -0.0219991 0.481137
-0.218571 -0.00506695 0.458274
0.0100015 0.247015 0.530776
0.120081 0.0746767 0.530776
0.303364 -0.153946 0.516117
-0.268386 0.190022 0.101033
0.0977138 0.0260246 0.499642
-0.225114 -0.295871 0.529196
-0.18978 -0.197621 0.513263
-0.280794 -0.0488408 0.492567
-0.268516 0.000266037 0.434405
-0.282982 -0.200245 0.530776
0.012272 0.00827174 0.499645
-0.152944 -0.158222 0.530776
0.00315109 -0.275193 0.513263
-0.140886 -0.242861 0.530776
0.0977138 -0.106827 0.499856
-0.0566562 0.0208193 0.473194
-0.270439 0.147165 0.201632
-0.0923803 -0.0647791 0.513263
0.275154 -0.0282896 0.408729
-0.16232 0.273496 0.530776
-0.279787 0.0714632 0.484274
0.201154 0.149948 0.513263
-0.296241 -0.125225 0.530776
-0.181347 0.19338 0.513263
0.249301 0.2852 0.513263
0.103674 -0.0596867 0.513263
-0.275376 0.0895354 0.321051
0.275066 -0.0288648 0.456218
0.303364 0.226475 0.515
-0.254596 -0.053924 0.358996
0.284951 0.0028643 0.530776
0.229104 0.0363866 0.530776
-0.0346604 -0.0804987 0.513263
-0.100473 -0.186935 0.513263
-0.279787 0.0897204 0.478446
-0.0786134 -0.226245 0.513263
-0.246514 -0.181818 0.530776
-0.0430515 -0.268175 0.513263
0.0634314 0.0132664 0.461959
-0.234695 -0.28442 0.513263
-0.303364 -0.211561 0.521313
0.116037 0.185226 0.513263
0.279787 -0.0304213 0.473487
0.0253257 0.0380567 0.513263
-0.207825 0.229635 0.530776
0.204051 -0.130445 0.530776
0.0351819 0.237463 0.513263
-0.0775834 -0.0950942 0.530776
0.00440323 0.228567 0.530776
0.260321 -0.0866837 0.284909
-0.0360358 -0.0192106 0.513263
0.177035 0.0220602 0.477831
-0.0987214 -0.0643281 0.50103
0.0295334 -0.126279 0.530776
-0.275025 0.18372 0.510845
0.270835 -0.0258151 0.474181
0.135784 -0.108799 0.513263
0.0224846 -0.069571 0.513263
-0.0960551 -0.185033 0.530776
-0.0945044 -0.232026 0.530776
-0.10688 -0.0533677 0.513263
0.059944 0.121649 0.513263
0.0295794 0.104423 0.530776
0.303364 0.162343 0.523322
-0.146405 -0.120184 0.530776
-0.204068 0.0208112 0.48561
-0.254329 0.0322956 0.422199
-0.302496 0.0346936 0.530776
-0.289384 -0.231329 0.530776
0.258134 -0.0986676 0.282245
-0.0490092 0.0963511 0.530776
0.124726 0.103678 0.530776
0.268872 -0.0448498 0.347547
0.0203801 0.148498 0.530776
0.259506 -0.122735 0.513263
-0.263681 0.295871 0.517616
-0.0942758 -0.0138576 0.513263
0.0601244 -0.0778569 0.530776
-0.275272 0.0631433 0.363452
-0.190941 -0.192778 0.530776
0.279787 -0.0380987 0.477001
0.0987214 -0.0701584 0.490347
-0.228059 0.111651 0.513263
0.0144522 -0.207926 0.530776
-0.113608 0.261571 0.530776
0.118276 0.0210883 0.530776
-0.243651 -0.261672 0.513263
-0.280794 -0.0563551 0.500177
-0.218969 0.195996 0.530776
-0.280794 0.143424 0.489201
-0.247503 -0.00771049 0.513263
-0.120064 0.0609258 0.513263
-0.17524 -0.012126 0.46082
-0.286256 0.215678 0.530776
0.260074 -0.0387991 0.376833
-0.280794 -0.118303 0.488405
-0.0232256 -0.101234 0.530776
0.186559 -0.00770898 0.499793
-0.0950253 0.0848628 0.530776
0.255004 -0.0917233 0.289802
0.264561 -0.034874 0.530776
-0.122118 0.225953 0.513263
0.221131 0.115115 0.513263
-0.280794 -0.00694136 0.498876
0.233595 0.25033 0.513263
0.229189 -0.275315 0.513263
0.0977138 0.00880425 0.507155
-0.185873 0.00620217 0.500203
-0.275117 0.175275 0.140814
0.0411676 0.086876 0.513263
-0.02339 -0.0383225 0.530776
-0.280794 -0.0876908 0.494197
0.24533 -0.0856306 0.513263
-0.138048 0.0650398 0.530776
-0.228331 -0.289181 0.513263
0.00524545 0.108361 0.513263
0.0169642 -0.083482 0.513263
0.210478 0.223781 0.530776
-0.251341 -0.041028 0.39586
0.275622 0.133727 0.211992
-0.164569 0.0205235 0.486681
-0.148942 -0.29349 0.530776
-0.260222 -0.221762 0.00323076
-0.163105 -0.226158 0.513263
0.0972833 0.0796089 0.510992
-0.115819 -0.0741853 0.513263
-0.191387 0.103905 0.513263
-0.0338723 0.0037624 0.500859
-0.08252 -0.232257 0.530776
0.216746 0.282652 0.530776
-0.175856 0.216767 0.513263
-0.303364 -0.102086 0.525211
0.0223432 -0.015219 0.530776
0.280794 -0.233309 0.510463
0.262719 0.149599 0.178658
0.0374282 -0.190047 0.530776
0.303364 0.167783 0.518257
0.251016 -0.262432 0.513263
0.275573 -0.110956 0.226017
0.108123 0.295871 0.518834
-0.107677 -0.0140802 0.530776
-0.0988961 -0.201358 0.513263
-0.279787 -0.155423 0.494225
0.279787 0.00758696 0.444678
-0.223577 -0.283636 0.513263
0.275485 0.0946072 0.264981
-0.280794 0.0648953 0.46014
-0.0987214 0.107223 0.506802
-0.122034 0.0220193 0.481093
-0.249662 -0.26176 0.513263
0.281937 -0.183801 0.513263
-0.252077 0.00113502 0.513263
-0.0426106 0.162719 0.513263
-0.06646 0.108998 0.513263
-0.0927522 0.00301964 0.457725
-0.297092 0.0818929 0.513263
0.122844 -0.295871 0.5305
-0.154773 -0.250005 0.530776
0.172727 -0.153399 0.513263
-0.182556 0.177654 0.530776
-0.276039 0.215557 0.0285939
0.270166 0.186268 0.530776
-0.0849935 -0.194753 0.530776
0.275188 0.0493084 0.401617
0.0290705 -0.164973 0.513263
-0.0452034 -0.108647 0.530776
-0.0730793 -0.0497888 0.530776
-0.244118 0.158762 0.513263
0.25653 -0.0878007 0.530776
-0.27693 -0.134918 0.530776
0.122113 -0.0643871 0.513263
-0.262331 0.178151 0.106582
0.138577 0.20961 0.530776
0.0693471 -0.0966951 0.513263
-0.275153 -0.0278717 0.409087
-0.259704 0.184949 0.530776
0.118761 -0.281222 0.513263
-0.093198 0.168733 0.513263
-0.303364 -0.246881 0.524925
0.0169072 -0.0132835 0.530776
-0.275324 -0.0733928 0.340605
-0.275165 0.0764503 0.510845
-0.0803557 -0.214127 0.530776
-0.116786 -0.104882 0.530776
-0.170804 -0.281769 0.513263
0.177045 -0.0237797 0.513263
0.235219 0.229119 0.513263
-0.279836 0.0153393 0.513263
0.049042 0.255821 0.513263
-0.130388 0.00923115 0.530776
-0.275582 0.120809 0.226417
-0.130251 0.0183903 0.530776
-0.269665 0.272289 0.513263
-0.197084 0.278432 0.530776
-0.0201982 0.00164276 0.501429
0.233562 -0.0120471 0.460754
0.2173 -0.115108 0.513263
0.287517 0.213991 0.513263
-0.02909 0.0760217 0.530776
-0.0977138 -0.0648107 0.500781
0.263084 -0.0361502 0.375825
0.15821 0.171166 0.513263
0.19666 -0.197529 0.530776
-0.271715 -0.256383 0.530776
-0.10803 -0.0301441 0.513263
0.11122 0.0223872 0.479726
0.0453767 0.162973 0.530776
0.0229946 -0.247939 0.513263
-0.279787 0.022606 0.450914
0.122208 0.0772795 0.513263
0.0178041 -0.127318 0.513263
-0.0236538 0.0120894 0.460776
-0.182566 -0.270775 0.530776
-0.0624852 0.13331 0.530776
0.0799104 -0.110074 0.513263
-0.121018 0.223617 0.513263
0.104269 -0.006513 0.530776
-0.0414739 0.121699 0.530776
-0.09198 -0.0783239 0.512366
0.203273 0.0391555 0.513263
0.260409 0.123437 0.214652
0.0459391 -0.181097 0.530776
-0.279787 0.106643 0.489918
0.184723 -0.0811584 0.530776
0.289596 0.0853778 0.513263
0.217273 -0.182517 0.530776
0.054658 -0.145496 0.513263
0.0374814 -0.0934283 0.513263
0.259866 -0.01226 0.513263
-0.189988 -0.0174265 0.492649
-0.217918 -0.0677907 0.513263
-0.0530578 -0.141265 0.530776
-0.275419 0.0805418 0.293384
-0.084106 -0.28136 0.513263
-0.294679 0.0956222 0.530776
-0.246335 0.217959 0.530776
0.204266 0.125774 0.530776
0.245975 -0.142986 0.530776
-0.282276 -0.00667006 0.513263
-0.0541555 0.0375864 0.530776
0.0185394 -0.0205031 0.472056
-0.162164 -0.00578913 0.530776
-0.18449 -0.234488 0.530776
0.255529 0.0136729 0.43397
0.0977138 -0.00684774 0.49103
-0.127925 -0.199395 0.513263
-0.0916402 -0.144152 0.530776
0.0889766 0.000795533 0.501657
-0.275047 -0.0252394 0.464849
0.280794 -0.165252 0.512219
-0.00280464 0.283919 0.513263
0.242525 -0.161629 0.513263
-0.0727969 0.0742733 0.513263
-0.279787 -0.00540081 0.472116
0.269953 0.00541824 0.530776
-0.0278785 -0.285001 0.530776
0.253335 0.0145639 0.530776
0.1323 -0.0584107 0.530776
-0.130278 -0.0207247 0.530776
0.0281247 0.234752 0.530776
0.107289 -0.117013 0.530776
-0.00465599 -0.0624856 0.513263
0.142318 -0.00261748 0.501163
-0.240471 -0.244177 0.530776
0.166712 -0.119007 0.513263
-0.102361 0.142379 0.530776
-0.288809 0.244585 0.530776
0.0281427 -0.140847 0.513263
0.269428 -0.0605236 0.513263
0.161759 0.130684 0.513263
0.0147479 -0.00390722 0.457969
0.212712 -0.0170935 0.4658
0.0685852 0.182917 0.513263
0.234383 -0.0354733 0.530776
0.190932 -0.0384877 0.530776
0.275987 0.203429 0.0516154
-0.303364 0.228332 0.52732
-0.0931564 -0.252553 0.530776
-0.147075 0.238043 0.513263
-0.123235 -0.0756563 0.513263
0.170662 0.142261 0.530776
0.182255 -0.14937 0.513263
-0.151139 -0.15842 0.530776
-0.26754 -0.0824288 0.339958
0.00643212 0.0571601 0.530776
-0.280794 -0.0694509 0.512979
-0.154397 0.163211 0.513263
0.279787 0.0643887 0.468337
-0.261696 0.0755412 0.530776
0.146259 -0.195203 0.530776
0.279787 -0.0117927 0.48184
0.26471 -0.103027 0.530776
-0.202724 0.286179 0.513263
-0.231783 0.173526 0.530776
0.182752 -0.110321 0.530776
-0.115405 0.051787 0.513263
-0.0435458 0.0856603 0.530776
0.0977138 0.0219324 0.504294
-0.141446 0.284719 0.513263
0.181409 -0.0593519 0.530776
-0.14719 -0.13429 0.513263
0.133237 -0.196277 0.530776
-0.244092 -0.00707768 0.499962
-0.0112894 0.00918621 0.530776
0.200294 0.12407 0.513263
0.272424 0.00958521 0.44561
0.280794 0.0101476 0.461072
-0.0892577 0.197969 0.513263
-0.0390371 0.165477 0.530776
-0.0178497 -0.27562 0.530776
0.280794 -0.0830743 0.466687
-0.275322 0.056308 0.332479
-0.124542 0.00751054 0.458925
0.270496 -0.140383 0.161873
0.105533 -0.124266 0.513263
-0.174452 0.0997566 0.513263
0.290625 -0.141601 0.513263
-0.256556 0.244879 0.530776
0.146089 0.230224 0.513263
-0.262594 0.183634 0.0984782
-0.118386 -0.206555 0.530776
-0.225681 0.214444 0.513263
0.0666762 -0.0419244 0.513263
0.278313 -0.106214 0.510845
0.275257 -0.0426797 0.360544
0.00100496 -0.10505 0.513263
-0.279787 0.167111 0.507935
0.296821 -0.196077 0.513263
-0.27548 0.10842 0.275217
-0.244546 -0.0613771 0.530776
0.280794 -0.177978 0.487537
0.160153 0.189546 0.530776
0.264456 -0.116377 0.256955
-0.161098 0.00667254 0.458699
0.245752 0.0949447 0.530776
0.047272 -0.10984 0.513263
-0.127794 0.139027 0.513263
0.0189255 -0.239737 0.530776
0.253845 0.0656129 0.513263
-0.298209 0.121593 0.513263
-0.265338 0.0145126 0.513263
0.100879 -0.206834 0.513263
0.05391 -0.186804 0.513263
-0.176563 0.228533 0.513263
-0.281535 0.230549 0.530776
0.255161 -0.0908475 0.293003
0.263102 0.196892 0.0729379
-0.0497077 0.133371 0.513263
-0.256018 -0.0701399 0.530776
0.0943001 -0.0273738 0.513263
-0.303364 -0.161466 0.526513
-0.262036 0.147456 0.530776
0.231205 -0.168339 0.513263
0.27602 -0.218596 0.0372047
0.0428309 0.148114 0.513263
-0.275694 -0.139119 0.175693
-0.0782351 0.216005 0.530776
-0.183061 -0.295871 0.528247
0.0349069 -0.0649498 0.513263
0.266452 -0.139199 0.172284
-0.0987214 -0.00144268 0.489116
-0.216628 0.198059 0.530776
0.0271541 0.0125749 0.513263
-0.154406 -0.0353253 0.530776
0.228793 0.209387 0.513263
-0.164299 -0.174217 0.513263
0.120119 0.221519 0.530776
-0.279787 -0.0125552 0.485007
0.0479939 -0.150039 0.513263
0.0978115 -0.276405 0.513263
-0.078927 0.0218158 0.530776
-0.236359 -0.0713929 0.530776
-0.269097 -0.0573231 0.323278
0.242139 -0.259773 0.530776
-0.0442401 -0.257435 0.530776
-0.0397828 0.219656 0.513263
-0.214738 -0.2447 0.530776
0.14861 -0.217533 0.513263
0.278341 -0.154464 0.510845
-0.0174907 -0.0132414 0.461943
0.118017 -0.00924574 0.499379
-0.25154 -0.0339305 0.513263
0.198657 -0.0393456 0.513263
-0.267991 0.225079 0.0216608
-0.0150213 -0.0317889 0.513263
-0.280794 -0.0751148 0.490439
-0.0987214 0.14611 0.512092
0.275302 -0.0641136 0.347547
-0.238326 -0.180384 0.513263
0.280794 -0.000662728 0.458142
-0.216197 -0.0129505 0.497125
0.272779 -0.253192 0.530776
0.134416 -0.0741648 0.513263
0.0935784 0.0638791 0.513263
-0.131248 0.16901 0.513263
-0.279787 -0.0225763 0.498797
0.280794 0.113518 0.504214
0.296088 0.0387581 0.530776
-0.279787 -0.0162821 0.462196
0.275503 0.113682 0.264959
-0.275548 -0.111364 0.239843
-0.268063 -0.152378 0.184546
0.179559 -0.0633037 0.530776
-0.0772512 0.0804761 0.513263
-0.10919 -0.027969 0.530776
0.050633 -0.156718 0.530776
-0.104915 -0.0540583 0.513263
0.102176 0.163642 0.513263
0.215316 0.0179897 0.492088
0.280794 0.211416 0.498943
0.262869 0.173003 0.513263
0.280794 0.0246101 0.507551
0.262281 0.157025 0.161042
-0.273183 -0.00945666 0.459445
0.275818 -0.179667 0.126199
0.271378 -0.0443686 0.433879
0.0537628 -0.184613 0.530776
-0.262866 0.0838256 0.513263
0.0632063 -0.0536014 0.513263
-0.180683 -0.23476 0.513263
-0.138144 0.0162289 0.493861
0.134885 -0.178515 0.513263
-0.0566192 -0.209465 0.530776
-0.267654 -0.152087 0.145254
-0.251258 0.0448764 0.513263
-0.085338 0.147515 0.513263
0.255707 -0.0941847 0.283277
-0.0928796 -0.054254 0.513263
-0.108686 -0.22456 0.530776
0.303049 -0.217516 0.530776
-0.0709064 -0.193586 0.530776
0.168536 -0.249435 0.530776
0.0491155 0.0138369 0.530776
0.0219891 -0.175642 0.513263
0.262466 0.120126 0.216754
-0.280794 0.0522685 0.508577
-0.254373 0.0786556 0.315687
-0.0987214 0.0543731 0.509864
-0.280794 -0.231145 0.508087
-0.237138 -0.0264077 0.530776
0.212249 -0.128213 0.530776
0.186642 -0.147503 0.513263
0.0798277 0.229126 0.530776
0.279787 -0.0678194 0.464518
-0.261021 -0.0454618 0.362204
0.0160866 -0.0191031 0.513263
0.274053 0.148209 0.512852
-0.280794 -0.0716558 0.463026
0.0399759 0.0932917 0.513263
-0.0103228 0.10385 0.513263
0.279787 0.0665793 0.496228
-0.222498 0.0967377 0.530776
-0.263037 0.156873 0.163096
-0.0972458 -0.0474974 0.513245
-0.0977138 -0.138073 0.510045
-0.25394 0.234592 0.513263
-0.0308768 0.201974 0.513263
0.266219 0.141544 0.513263
-0.263654 0.0810495 0.288962
-0.261677 -0.0809135 0.513263
0.175584 -0.243874 0.530776
0.00389811 0.119488 0.513263
0.117861 -0.088214 0.513263
0.186948 0.293856 0.513263
-0.174521 0.0176919 0.530776
-0.275287 0.074736 0.360338
0.0977138 -0.111459 0.509774
0.210357 -0.111615 0.513263
0.0210072 0.149897 0.530776
-0.00292686 0.2322 0.530776
0.275894 0.192848 0.0925445
-0.279787 -0.0330845 0.452481
0.0160819 -0.101507 0.513263
0.0162325 0.227089 0.530776
-0.26868 -0.0597411 0.319502
0.242843 -0.022311 0.479946
-0.110419 0.176844 0.513263
0.173261 -0.0667918 0.530776
-0.280568 0.198397 0.513263
0.263561 -0.104752 0.24388
0.262669 0.182582 0.104711
0.130894 0.0334071 0.513263
-0.272923 -0.114977 0.20705
-0.219348 -0.00943607 0.45944
-0.303364 -0.208699 0.515877
0.230526 0.212844 0.513263
-0.257214 -0.102304 0.261481
0.187275 -0.14868 0.530776
-0.0236992 0.262162 0.513263
-0.158951 0.142774 0.530776
0.26527 0.045202 0.354145
-0.195728 -0.142359 0.513263
0.246184 0.0816536 0.513263
-0.290694 -0.169593 0.513263
0.119656 -0.0739261 0.513263
0.167171 0.277357 0.530776
0.280794 0.215231 0.510561
0.00284794 -0.0623855 0.530776
0.0721577 -0.011338 0.498738
0.161779 0.279329 0.513263
0.0966369 -0.154934 0.510992
-0.258664 0.216151 0.530776
-0.203621 -0.274434 0.530776
-0.177841 -0.15267 0.530776
-0.0547772 0.0483788 0.530776
-0.150475 0.137161 0.513263
-0.112993 -0.20063 0.513263
-0.276456 -0.0609114 0.530776
-0.10219 0.0113386 0.513263
0.269564 0.0750231 0.361141
-0.241988 0.00426573 0.530776
-0.0165657 -0.0869794 0.530776
0.102022 -0.0937246 0.513263
0.267255 -0.222674 0.0253445
-0.266958 -0.0055985 0.500359
-0.2172 -0.14225 0.530776
-0.303364 -0.201845 0.513795
-0.217578 0.072621 0.513263
0.080311 0.174799 0.530776
-0.162993 0.108155 0.530776
-0.0617109 -0.226058 0.513263
-0.205337 -0.156802 0.513263
0.0543638 -0.0260312 0.530776
-0.297227 0.0591911 0.513263
-0.138253 -0.0192678 0.490808
0.0956646 0.130118 0.510992
0.10905 0.201538 0.530776
0.275467 0.143488 0.209518
-0.147934 -0.263775 0.530776
0.195884 -0.109526 0.530776
-0.206785 0.0794836 0.513263
0.0646006 -0.250438 0.513263
-0.283327 -0.282408 0.530776
-0.280794 0.0204267 0.47849
-0.100434 0.222212 0.530776
0.117313 -0.147565 0.513263
0.0612882 -0.280754 0.530776
0.0987214 0.0236024 0.48588
0.192256 0.133554 0.530776
-0.0430787 0.0703469 0.513263
0.26124 -0.0579349 0.380488
-0.280794 0.050676 0.49268
0.19842 -0.01768 0.513263
-0.00279739 0.229086 0.513263
-0.0476348 -0.225717 0.530776
0.0256381 -0.133179 0.530776
-0.205661 -0.0921874 0.530776
-0.057602 -0.219145 0.513263
0.25615 -0.0893804 0.530776
0.202804 0.257384 0.530776
-0.275418 -0.0929591 0.300322
-0.301333 -0.0759139 0.513263
-0.211298 -0.00601569 0.458527
0.268533 0.0337633 0.369406
-0.198018 -0.0672943 0.513263
0.244102 0.278458 0.530776
0.280794 0.016333 0.468786
0.00344542 -0.199626 0.513263
0.157381 -0.0786144 0.513263
0.260373 -0.0808302 0.530776
-0.137257 0.0276525 0.513263
-0.279787 0.120211 0.501522
0.0987214 0.044899 0.498311
-0.221423 0.204121 0.530776
-0.0108367 -0.00120281 0.457246
0.0214079 0.0424675 0.530776
-0.271039 0.164364 0.115017
-0.0543978 -0.211083 0.530776
-0.0291968 -0.121006 0.513263
-0.284304 0.0265175 0.530776
-0.283104 0.183373 0.513263
-0.270095 -0.168561 0.10888
0.165204 0.100184 0.530776
-0.280794 -0.136328 0.490808
-0.275451 -0.0864779 0.279268
0.0715044 0.0917654 0.513263
0.08833 0.188528 0.513263
0.303364 -0.170839 0.524921
-0.279787 0.102609 0.494343
0.0351129 -0.108839 0.513263
0.259569 0.03127 0.513263
-0.0195266 0.256277 0.530776
0.0145683 0.293384 0.530776
-0.148675 -0.247516 0.513263
-0.135333 -0.265081 0.530776
-0.30046 0.096823 0.513263
-0.147856 0.00591579 0.513263
0.271587 -0.124002 0.513263
-0.263759 -0.275816 0.513263
0.280794 0.17985 0.510907
0.199547 0.289282 0.513263
0.169721 0.0199364 0.469938
-0.288177 -0.146208 0.530776
0.28816 -0.160922 0.530776
-0.0987214 -0.0470403 0.498341
-0.20678 -0.0293386 0.530776
0.0977138 -0.138674 0.493979
0.142037 -0.295871 0.529723
0.302731 0.293134 0.513263
0.0731317 0.194419 0.513263
0.0664152 0.280544 0.530776
-0.219755 -0.280071 0.513263
0.131422 -0.125169 0.530776
-0.0824618 -0.0220839 0.477944
0.146424 0.284003 0.530776
0.131945 0.0172076 0.492873
0.255356 0.0946736 0.530776
-0.265321 0.0660181 0.3143
0.238055 -0.144018 0.530776
0.10572 0.232069 0.530776
0.236857 0.0973122 0.513263
0.215663 0.214622 0.530776
0.0394587 -0.0111327 0.459902
-0.00382784 0.081447 0.513263
-0.253731 -0.0303512 0.425191
-0.204881 -0.0810466 0.530776
0.027779 -0.122868 0.513263
0.127801 -0.24124 0.530776
-0.218752 -0.211362 0.513263
-0.119469 0.0737295 0.513263
-0.00281149 -0.256851 0.530776
0.153685 -0.218945 0.530776
0.260066 -0.264064 0.513263
-0.160534 0.0136926 0.530776
0.0835173 -0.154129 0.530776
0.0536572 -0.215456 0.513263
0.279787 0.0334385 0.490419
0.119276 0.247764 0.530776
-0.298844 -0.199647 0.513263
-0.0964516 -0.0553765 0.513263
0.0129236 0.0205073 0.47204
-0.0515292 0.00195527 0.457442
0.26961 -0.181363 0.513263
-0.222145 0.12204 0.513263
-0.069609 -0.192792 0.513263
-0.128271 0.0124241 0.513263
-0.152631 -0.159063 0.513263
0.0121374 -0.09759 0.513263
-0.221867 0.190375 0.513263
-0.0544364 -0.213349 0.530776
-0.112152 -0.00557256 0.513263
-0.140678 0.156882 0.530776
0.178141 -0.124397 0.513263
0.113216 -0.0424233 0.530776
0.0151653 -0.16706 0.513263
-0.129715 0.149948 0.530776
0.269954 0.135273 0.172744
0.192453 -0.160418 0.513263
-0.303364 -0.227356 0.518313
0.272665 -0.228444 0.00749249
0.280794 0.165881 0.483132
-0.241622 -0.243565 0.530776
0.154815 -0.252554 0.513263
0.297977 0.175592 0.530776
0.0126247 -0.0765872 0.530776
0.275232 -0.0533768 0.379815
-0.266397 0.124147 0.201155
0.280881 0.223656 0.530776
0.249087 -0.265454 0.530776
-0.280794 0.115275 0.499362
-0.279787 0.116294 0.473499
-0.0180394 -0.00264307 0.501155
-0.211711 -0.092625 0.513263
-0.230065 -0.0959167 0.530776
0.286208 -0.175733 0.530776
0.275268 0.126161 0.530776
0.272751 -0.0214754 0.386147
0.0315818 0.249678 0.530776
-0.139559 0.0807313 0.513263
-0.11346 0.0783333 0.530776
-0.0677211 0.10421 0.530776
0.214075 -0.0348458 0.530776
-0.279787 -0.023996 0.487196
-0.265975 -0.0238955 0.393395
-0.247797 -0.0077354 0.513263
0.16273 0.271469 0.530776
-0.0778835 0.139712 0.513263
-0.113352 0.0137861 0.462467
0.0888669 -0.0578369 0.530776
-0.131121 0.295871 0.530526
0.299634 -0.295573 0.513263
0.274683 -0.0162612 0.398571
-0.279787 0.222843 0.502669
-0.280794 -0.0516492 0.463455
-0.276545 0.0216782 0.530776
-0.29635 -0.256238 0.530776
0.179552 0.212219 0.513263
-0.0866295 0.0327386 0.530776
-0.0171789 0.00520718 0.50047
-0.0987214 0.158638 0.509209
0.292916 0.0428186 0.513263
-0.0975005 0.124366 0.530776
0.280532 0.284278 0.530776
-0.00370765 0.248378 0.513263
-0.0592736 0.12127 0.513263
0.118053 0.195543 0.530776
0.124116 0.0547932 0.513263
0.0987214 -0.0447342 0.506904
-0.27584 -0.180795 0.116696
0.0732655 -0.135044 0.530776
-0.260066 -0.151749 0.530776
-0.159924 0.113406 0.530776
-0.1426 0.260708 0.513263
-0.280794 0.031471 0.50285
0.177593 -0.191571 0.513263
-0.143985 -0.0297055 0.513263
-0.24413 0.022191 0.480457
-0.229004 0.0201669 0.470755
0.166366 0.108037 0.530776
0.245308 -0.0905247 0.530776
0.0243993 0.111241 0.513263
-0.0444854 0.12283 0.513263
0.14476 -0.125748 0.513263
0.0612556 0.0678654 0.530776
0.0366621 0.110419 0.530776
0.0312997 0.181424 0.530776
-0.011262 0.103667 0.530776
-0.23081 0.243312 0.513263
0.0779066 0.0777438 0.530776
0.222869 -0.0888977 0.530776
0.0648113 -0.0705178 0.530776
0.267897 0.215246 0.0244602
0.238279 0.211469 0.530776
0.175516 0.0262594 0.530776
-0.222787 -0.232989 0.513263
0.135348 -0.048487 0.530776
0.0376815 0.266367 0.530776
-0.145152 0.294224 0.530776
-0.0927964 0.204304 0.513263
0.270763 0.2047 0.0385669
-0.260222 -0.227687 0.00171096
0.259232 0.209545 0.530776
-0.230494 0.0213779 0.483495
-0.195543 0.295871 0.521524
-0.0185131 0.248757 0.530776
-0.275593 -0.15716 0.510845
0.0575092 0.287161 0.530776
-0.0808664 0.0121101 0.497977
0.275463 0.107927 0.282761
-0.0176312 -0.277984 0.530776
-0.106235 0.0337538 0.513263
-0.091889 0.0154824 0.464168
0.258001 -0.00174299 0.451764
0.0977138 0.0107822 0.498451
-0.0511817 -0.26126 0.530776
0.0804113 -0.268163 0.513263
0.291886 0.0688251 0.513263
-0.284312 0.00568146 0.530776
0.181535 -0.173615 0.530776
-0.104917 0.254602 0.530776
0.275166 -0.0264176 0.401118
0.039752 -0.252681 0.530776
0.229805 0.0579037 0.513263
0.275193 0.041793 0.394443
-0.081838 -0.244408 0.530776
-0.222819 0.2463 0.513263
0.277184 -0.239241 0.00349014
0.105408 -0.00271899 0.457654
0.238331 -0.268848 0.530776
0.113081 -0.0110831 0.530776
-0.171635 0.266441 0.530776
-0.234228 -0.0521421 0.513263
-0.233882 0.206985 0.513263
-0.191571 0.269529 0.530776
-0.271854 -0.0469536 0.530776
0.128469 0.0468455 0.513263
0.161097 0.231749 0.530776
0.253405 -0.28559 0.530776
-0.273995 -0.0114299 0.450311
-0.280794 -0.123774 0.501923
-0.119391 -0.0389656 0.530776
-0.208222 -0.187007 0.530776
0.00900033 0.274551 0.530776
-0.302631 -0.0487628 0.530776
-0.12553 -0.251073 0.530776
-0.139141 -0.0611801 0.513263
0.0520489 0.295871 0.529417
-0.303364 0.0301912 0.517057
0.287896 0.167482 0.530776
0.279787 -0.158334 0.492624
0.279787 0.00231861 0.475203
0.169663 0.183349 0.513263
-0.214151 0.1113 0.513263
-0.00137573 0.0689395 0.530776
0.280794 -0.141141 0.504632
0.0870432 -0.146928 0.530776
0.2784 -0.216446 0.00569748
-0.26197 0.134148 0.211547
0.147046 0.160564 0.513263
0.275355 -0.0733488 0.323879
-0.299787 -0.103923 0.513263
-0.303364 0.152408 0.516924
-0.298078 0.233679 0.530776
-0.143112 0.0821969 0.513263
0.281587 0.114342 0.530776
0.119553 0.0545574 0.530776
0.171511 -0.0892207 0.513263
0.254235 0.075083 0.322659
0.135283 0.171013 0.513263
0.0730466 0.274573 0.530776
0.271602 -0.053398 0.414174
-0.184843 -0.0032741 0.500984
-0.263622 0.0928171 0.307819
-0.250938 0.147274 0.530776
-0.205755 0.0130442 0.461721
0.218469 -0.0166821 0.465389
0.0920659 0.0313615 0.530776
-0.112282 -0.0372788 0.513263
-0.0281582 0.0858728 0.530776
0.27656 0.0427565 0.530776
0.22812 0.00671977 0.50006
0.0467394 0.133131 0.530776
-0.189133 0.0112017 0.498858
0.229075 -0.217933 0.513263
0.303364 -0.276862 0.517219
0.175295 -0.207156 0.513263
-0.183804 -0.145237 0.513263
-0.279787 -0.126324 0.504161
-0.303364 -0.149548 0.530456
0.0379039 -0.0182459 0.513263
0.270868 -0.15501 0.513263
0.279787 0.0254094 0.46863
0.138953 -0.0221018 0.478038
0.303364 0.254692 0.529907
0.268073 -0.183394 0.530776
0.0879677 0.157661 0.530776
-0.274053 -0.0424601 0.510971
-0.134896 -0.0758569 0.513263
-0.0987214 -0.0646109 0.488583
0.219826 -0.071588 0.530776
0.261872 -0.122912 0.530776
0.0739342 0.232892 0.530776
-0.262131 0.0981075 0.292591
0.265654 -0.186903 0.101784
0.0696262 -0.0210224 0.513263
0.1953 -0.080162 0.513263
-0.27207 -0.00475468 0.458189
0.130415 -0.0155981 0.494478
-0.267196 -0.0946025 0.530776
-0.132954 0.290489 0.513263
0.267259 0.106793 0.232549
-0.235707 0.247109 0.513263
0.0733157 -0.0707307 0.530776
-0.221903 -0.110511 0.530776
-0.143471 0.123144 0.513263
-0.0436524 -0.139944 0.530776
0.0110323 -0.165334 0.530776
0.155035 -0.108576 0.513263
0.299664 -0.123841 0.530776
0.182674 0.295871 0.526594
0.259885 0.0316948 0.436158
-0.189915 0.162873 0.513263
-0.209761 0.00686427 0.458748
-0.115653 0.149948 0.530776
-0.0500514 -0.183525 0.530776
-0.183323 -0.185976 0.530776
-0.151376 -0.248854 0.513263
0.260424 0.0566747 0.342007
0.300033 0.00708398 0.513263
-0.0326928 -0.25935 0.530776
0.0987214 0.0071722 0.496372
-0.26115 -0.00820562 0.433076
0.267775 0.0304482 0.456862
-0.297835 0.0682345 0.530776
-0.0670574 -0.0298462 0.513263
0.303364 -0.0185755 0.520515
0.0089637 0.23985 0.530776
0.103971 -0.127681 0.530776
-0.0421842 0.0040686 0.500777
-0.015646 0.222135 0.513263
0.213137 0.291044 0.530776
0.271604 -0.242242 0.530776
0.280794 0.0294554 0.500422
-0.0136678 0.00762482 0.45896
0.227148 0.14075 0.513263
0.203084 -0.245486 0.513263
-0.169742 -0.196322 0.530776
-0.0754497 -0.00973842 0.459526
-0.267118 -0.00815103 0.459096
0.280843 -0.024513 0.513263
-0.178602 0.149437 0.513263
0.0837118 -0.0742057 0.513263
-0.136252 -0.182209 0.513263
-0.268854 -0.0571166 0.399606
-0.106751 0.0213708 0.475255
-0.275141 -0.028413 0.415809
0.0977138 -0.109767 0.499876
-0.119967 0.0232829 0.530776
0.216033 0.211378 0.513263
0.275385 -0.0874952 0.315016
0.275206 0.0469427 0.390542
-0.10513 -0.0115647 0.498511
0.269663 0.202803 0.0444589
0.131505 -0.240022 0.513263
0.186698 0.0642248 0.530776
0.0429875 0.26365 0.513263
0.275849 0.175521 0.111264
0.21862 0.145217 0.530776
-0.223742 -0.280986 0.513263
-0.262175 0.120588 0.242368
0.271653 -0.0903215 0.331634
0.148677 -0.0247248 0.513263
0.218058 0.128324 0.513263
-0.264306 -0.263081 0.530776
0.11536 -0.132362 0.530776
-0.225457 -0.101004 0.530776
0.0126728 -0.197513 0.513263
-0.222112 0.0419842 0.513263
-0.179794 0.201669 0.530776
-0.149119 -0.151934 0.513263
-0.252095 0.0489981 0.376067
0.205442 0.264091 0.530776
0.0250071 0.24809 0.530776
-0.0987214 0.120765 0.505632
0.267135 -0.0167967 0.465504
0.206708 -0.00465974 0.513263
-0.0843427 0.257609 0.513263
-0.180489 -0.0107481 0.530776
0.0959517 -0.0219508 0.513263
-0.267424 0.015807 0.405923
-0.28378 -0.224526 0.000856024
0.210093 -0.242439 0.513263
0.261277 0.166111 0.134902
-0.13066 0.171825 0.530776
-0.199954 0.0409372 0.530776
-0.0319126 0.273069 0.513263
0.244443 -0.281586 0.513263
-0.205759 -0.0717185 0.530776
0.0977138 0.0278554 0.500226
-0.124713 0.201005 0.513263
0.144485 -0.0114914 0.498584
-0.194139 -0.230056 0.513263
-0.303364 -0.0296577 0.522115
0.125643 -0.14446 0.513263
-0.280794 0.0678423 0.483713
0.0422182 -0.17903 0.530776
0.219439 0.21539 0.530776
-0.264457 0.0279528 0.454914
-0.272103 -0.245394 0.530776
-0.246673 -0.0256252 0.530776
-0.0161252 -0.0249689 0.513263
0.303364 -0.100849 0.513538
0.303364 -0.226936 0.517269
0.117967 0.119405 0.513263
-0.17088 0.209693 0.513263
-0.0803436 0.116061 0.530776
0.115522 -0.20467 0.513263
-0.290883 -0.0386098 0.530776
-0.1831 0.0411934 0.513263
0.0496232 0.267232 0.513263
-0.0977138 0.104443 0.502294
0.262014 -0.159427 0.155031
-0.270895 -0.156755 0.181193
0.0500504 -0.0529986 0.513263
0.018744 0.283679 0.530776
-0.117814 0.00708505 0.499965
0.088071 -0.0222229 0.478485
-0.109647 -0.234945 0.530776
0.295496 0.0450844 0.530776
-0.198451 -0.0335602 0.530776
-0.198143 -0.00166964 0.457367
-0.279787 0.0227887 0.495577
0.10173 0.0237556 0.513263
0.275524 0.112889 0.25343
-0.220906 0.2519 0.530776
-0.0986836 0.193333 0.513263
-0.251118 -0.0356924 0.404108
0.104716 -0.146881 0.513263
0.201659 0.0208556 0.485417
0.280794 -0.048238 0.512685
0.275994 0.112718 0.530776
0.256666 0.0366416 0.387828
-0.21685 -0.193407 0.513263
0.261816 0.0906979 0.274247
0.283359 0.143691 0.513263
-0.275171 0.0312209 0.401129
-0.276038 0.222565 0.0291215
0.0987214 -0.110932 0.492534
0.273084 -0.173476 0.530776
0.267737 -0.0181147 0.513263
-0.0420844 -0.00417671 0.530776
-0.275442 0.128531 0.184586
0.1212 -0.258945 0.513263
-0.229604 0.271565 0.530776
0.171243 0.0193029 0.513263
0.213596 0.0774351 0.530776
0.280794 0.0957844 0.503143
0.0506013 0.286991 0.530776
0.275133 -0.0370193 0.424292
0.115519 0.188875 0.530776
-0.0876116 0.295871 0.521862
0.252483 0.273085 0.513263
-0.269612 0.00657086 0.419146
-0.28793 0.101607 0.513263
-0.280794 0.0330903 0.462681
-0.298644 0.220086 0.513263
-0.0685298 -0.0323261 0.530776
0.248517 -0.00191014 0.457442
-0.285523 -0.202755 0.513263
0.171041 -0.182262 0.530776
0.0977138 -0.0211119 0.502415
-0.273362 0.0899797 0.254975
0.279694 0.168999 0.510845
-0.0762014 0.244967 0.513263
0.246762 -0.186866 0.513263
-0.156008 0.114279 0.530776
-0.262365 0.0116083 0.498485
-0.0507371 -0.191544 0.530776
0.160849 -0.292315 0.513263
-0.0170404 0.154924 0.530776
-0.16336 0.149397 0.513263
0.192792 0.151688 0.530776
-0.0337105 -0.110362 0.513263
-0.280794 -0.12719 0.481065
0.222018 -0.293998 0.513263
-0.09198 0.0672537 0.513114
0.227321 -0.185797 0.513263
-0.136841 0.0215778 0.482736
0.0549627 -0.00607779 0.458551
0.0253699 0.125279 0.513263
0.280794 -0.196897 0.507691
0.195159 0.249691 0.513263
0.280794 0.0611089 0.512845
-0.143371 0.0560628 0.530776
-0.299729 -0.190187 0.530776
-0.212128 -0.00845376 0.530776
0.0987214 0.12453 0.508196
0.0561778 0.141415 0.530776
0.0898097 -0.24378 0.513263
0.303364 0.123104 0.513735
0.267384 0.12776 0.238138
0.239141 0.0825645 0.530776
0.036486 0.268343 0.530776
-0.194504 -0.12883 0.513263
0.178206 0.221927 0.513263
0.0232883 0.00828392 0.459137
0.282165 0.222524 0.00749249
-0.26909 0.159471 0.530776
0.264715 -0.0865886 0.530776
0.275287 0.0689328 0.35851
0.194528 0.259329 0.513263
-0.0932446 0.204022 0.530776
0.243602 0.278968 0.530776
0.0411879 -0.261903 0.530776
-0.275263 -0.0676509 0.370659
0.280794 -0.0107327 0.480767
0.0377301 -0.071436 0.530776
0.232355 0.0193042 0.513263
-0.0439525 0.0646103 0.530776
0.27571 -0.145957 0.170876
-0.251479 -0.00293059 0.457702
-0.123322 -0.103154 0.530776
0.00698063 0.222875 0.513263
-0.0968395 0.0357381 0.510992
0.265281 -0.0206452 0.401001
0.276082 -0.223633 0.00968775
-0.104823 -0.0277228 0.530776
0.0972263 -0.152745 0.530776
-0.0239708 0.205916 0.513263
-0.275258 -0.0589607 0.368927
-0.261357 -0.0755159 0.304143
0.209266 0.149948 0.530776
0.109769 -0.0213441 0.483559
-0.269421 0.163183 0.120534
-0.282351 -0.185201 0.513263
0.275529 0.0997122 0.243759
-0.25364 0.114598 0.530776
0.0772858 -0.188976 0.530776
-0.175384 -0.0171982 0.492878
-0.0799038 -0.00852617 0.459201
0.0266548 -0.273085 0.513263
0.184127 -0.0464408 0.530776
-0.255775 0.127971 0.513263
-0.280794 0.0684721 0.490029
-0.266556 -0.266676 0.530776
-0.279787 -0.0680896 0.50974
0.168954 -0.163063 0.513263
0.128666 -0.0983748 0.513263
0.291386 -0.268428 0.513263
-0.0601272 0.0301731 0.530776
-0.158432 -0.0213443 0.513263
-0.263017 0.0450724 0.413322
0.0790039 0.260149 0.530776
-0.256175 -0.0913193 0.284535
-0.0907627 0.000949233 0.457171
0.279787 0.122143 0.495547
-0.266026 -0.222262 0.0234719
0.0987214 0.147072 0.499326
-0.0103067 0.28222 0.513263
-0.141778 0.0899747 0.530776
-0.26917 -0.00627515 0.458595
-0.191489 0.0801612 0.530776
0.274823 -0.180052 0.0832662
-0.270702 -0.0275027 0.470101
0.254534 0.295871 0.530576
-0.208384 0.0439535 0.513263
0.245071 -0.217838 0.530776
-0.168259 0.00621986 0.458578
-0.217052 -0.0612263 0.513263
0.236717 0.230058 0.513263
-0.12857 0.0888193 0.530776
-0.0280091 0.192669 0.530776
-0.292375 0.0800614 0.530776
0.2028 0.149984 0.513263
-0.174857 -0.154732 0.513263
0.269208 0.194671 0.0608736
-0.154142 -0.0134044 0.513263
0.014486 0.20275 0.513263
0.0236922 -0.215813 0.530776
-0.280794 -0.00910199 0.492811
-0.102649 0.247808 0.513263
0.267219 -0.101702 0.242331
-0.0977138 -0.0285508 0.494816
-0.044352 -0.263069 0.530776
0.0196654 0.292637 0.530776
-0.280794 -0.138602 0.504009
-0.263678 0.193635 0.07433
-0.124661 -0.239211 0.513263
0.303364 0.24346 0.52661
-0.0758379 0.135524 0.513263
-0.140052 -0.137015 0.530776
0.270805 -0.106897 0.225185
0.0987214 0.0225008 0.512712
0.280794 -0.0607093 0.475395
0.0529369 0.204332 0.513263
0.303364 0.0875964 0.519549
0.275655 -0.134956 0.194773
0.274883 0.210097 0.0639125
-0.272883 -0.175977 0.0903228
-0.0987214 -0.0542241 0.496319
0.104937 0.086043 0.513263
0.21278 -0.156797 0.513263
0.130184 0.0201109 0.470581
-0.0977138 -0.0991208 0.49227
-0.272116 0.152619 0.135443
0.0987214 0.139033 0.502596
0.16448 -0.0222837 0.480057
0.280794 -0.202457 0.506147
0.270799 -0.0265273 0.472505
0.093001 -0.179509 0.530776
-0.16429 -0.0076572 0.530776
0.0281445 0.044753 0.513263
-0.0560089 -0.279797 0.513263
-0.117859 0.0296236 0.530776
-0.151595 0.121921 0.513263
-0.0446553 -0.0292316 0.530776
0.26459 0.114738 0.530776
0.220709 -0.063023 0.530776
-0.135978 -0.0153605 0.464063
0.274568 -0.157038 0.510845
-0.275157 0.0425058 0.414586
-0.303364 0.00920805 0.520067
0.198209 0.0381571 0.513263
0.0702465 -0.144938 0.530776
-0.0976218 0.0348303 0.513263
-0.214337 -0.263321 0.513263
-0.06473 0.28873 0.530776
-0.280794 0.00944136 0.461448
0.25649 0.151867 0.513263
0.279787 0.205868 0.503674
-0.238653 -0.250238 0.530776
0.08529 0.179051 0.530776
0.101163 -0.230495 0.513263
0.169122 -0.114015 0.513263
0.0798772 -0.280478 0.530776
-0.239554 -0.040893 0.530776
0.0680465 0.248944 0.513263
-0.125037 -0.172632 0.513263
-0.274955 -0.143596 0.510845
-0.19474 -0.170771 0.530776
-0.275558 -0.121101 0.239913
0.12776 -0.130502 0.530776
-0.27037 -0.213754 0.513263
