-0.0394639 -0.0104925 0.499044
-0.137289 0.261231 0.513263
0.157805 0.295871 0.527687
0.208699 0.146124 0.530776
0.212945 -0.0337414 0.513263
-0.0987214 0.163251 0.500497
0.0384349 0.132059 0.530776
0.154608 0.258348 0.530776
0.0140342 -0.02924 0.513263
-0.130913 0.0516157 0.513263
-0.0224361 0.185355 0.530776
0.225582 -0.0214448 0.483183
-0.261673 -0.129269 0.200913
0.280794 -0.121211 0.480705
0.279787 -0.19886 0.491676
0.0174222 -0.201441 0.513263
0.280794 -0.0076146 0.444627
0.130363 -0.295871 0.526313
-0.242958 0.0213681 0.475245
0.275241 0.0374064 0.366357
-0.155487 0.231436 0.513263
0.191944 0.0840755 0.530776
0.235138 -0.292023 0.513263
-0.21762 -0.0827106 0.513263
-0.0654775 -0.236161 0.513263
0.0883808 0.139656 0.530776
-0.239464 -0.256599 0.530776
0.0942038 0.108029 0.530776
-0.29165 0.229523 0.530776
-0.279787 -0.00495294 0.471609
0.130682 -0.000404018 0.457036
-0.0980234 -0.284091 0.530776
-0.193001 -0.00703779 0.530776
-0.275174 -0.0217832 0.394202
-0.277967 -0.105924 0.530776
0.0495567 0.0217148 0.476541
0.0535066 0.286893 0.530776
0.104082 -0.0912726 0.530776
0.169832 -0.00315726 0.501018
-0.0576865 0.196983 0.513263
0.0863665 -0.0207837 0.485654
-0.279787 -0.185534 0.48651
0.0230626 -0.149452 0.530776
-0.109367 0.137508 0.530776
-0.241676 -0.207501 0.513263
0.275235 -0.0406528 0.355263
0.00876817 0.197678 0.513263
-0.0528904 -0.133792 0.513263
-0.173344 0.00971013 0.513263
0.0283449 0.0510863 0.530776
0.200693 0.00887404 0.459303
0.163493 -0.0368788 0.530776
0.121703 0.0107751 0.49897
0.196574 -0.17146 0.530776
-0.0109715 0.0422096 0.513263
-0.12308 0.0241545 0.530776
-0.203898 0.0106089 0.45975
-0.27541 0.0895222 0.302791
-0.275109 0.0131312 0.424804
0.298893 -0.103269 0.513263
0.0228946 -0.0639441 0.530776
0.287887 -0.256782 0.513263
-0.273752 0.00191844 0.530776
0.113329 -0.198583 0.513263
-0.127468 -0.0728487 0.513263
-0.125585 0.0220256 0.48107
-0.154562 0.096868 0.530776
-0.241747 -0.162698 0.530776
0.036059 0.22125 0.530776
0.0765416 -0.250412 0.530776
-0.0416778 0.0185915 0.467286
0.133111 0.196977 0.513263
0.259073 0.0224452 0.47927
0.110298 -0.0445635 0.530776
-0.0880792 -0.0572135 0.530776
-0.0179286 -0.256673 0.530776
0.0213229 -0.0174129 0.530776
0.232259 -0.1165 0.530776
0.131891 0.0327257 0.513263
-0.192889 0.168219 0.530776
-0.262415 0.125425 0.232083
-0.0987214 -0.00395214 0.483007
-0.0987214 -0.144659 0.495072
-0.274755 0.0310292 0.37035
0.215643 -0.00367096 0.530776
-0.279787 0.0432565 0.485479
0.132782 -0.116616 0.530776
-0.00349697 0.156579 0.530776
-0.108116 -0.246882 0.530776
-0.0199726 0.275821 0.530776
0.179039 -0.0945353 0.530776
-0.106004 -0.19752 0.530776
0.280794 0.153015 0.505199
0.252448 0.155902 0.530776
0.107591 0.260408 0.513263
0.285458 -0.191295 0.530776
-0.279787 -0.0605005 0.457215
-0.279787 0.089963 0.467451
-0.280794 -0.238591 0.501504
0.239612 -0.270634 0.513263
-0.0239382 0.111447 0.530776
-0.210769 -0.0154249 0.494651
-0.0851542 0.260848 0.530776
0.240333 -0.0191767 0.530776
-0.258118 -0.295198 0.513263
-0.0505366 -0.178669 0.530776
0.216807 0.126365 0.530776
-0.125682 -0.120345 0.513263
0.241083 -0.206807 0.513263
-0.000399113 0.288672 0.530776
0.295153 0.235278 0.530776
0.275153 -0.0273915 0.408453
-0.077433 -0.0922731 0.530776
-0.00163028 -0.017159 0.492917
0.280794 -0.0330066 0.492853
0.268772 0.20805 0.0363285
-0.00724354 0.247339 0.513263
0.275818 0.177958 0.126086
0.048934 -0.203564 0.530776
0.074884 0.0291623 0.513263
-0.250976 -0.0813015 0.530776
-0.197156 0.207669 0.513263
-0.101704 -0.025125 0.530776
-0.202282 -0.173009 0.513263
0.0674776 -0.0468174 0.513263
-0.280794 0.197258 0.490145
-0.148959 0.187647 0.530776
0.25719 0.0927102 0.530776
0.0128112 -0.215241 0.530776
-0.0660004 0.249425 0.513263
0.13745 0.137864 0.513263
-0.169315 0.13267 0.513263
0.252297 0.0517887 0.367791
-0.00269678 0.0220904 0.480829
0.275202 -0.145274 0.207135
-0.0316979 -0.0414817 0.530776
0.164037 0.0790958 0.530776
0.0942004 0.257543 0.530776
-0.0341981 0.0865929 0.513263
0.267927 0.0793164 0.28366
0.203553 0.243035 0.530776
0.256557 0.291751 0.513263
0.0676775 0.245121 0.513263
-0.239776 -0.0210694 0.47416
0.0987214 0.0567619 0.487236
-0.137143 -0.220131 0.513263
0.258838 0.126984 0.211166
0.204113 0.0485587 0.513263
0.188497 -0.250543 0.530776
-0.22727 0.153837 0.513263
0.264549 0.006717 0.530776
0.179929 0.18504 0.530776
-0.00653812 -0.162629 0.513263
-0.228929 0.00910726 0.530776
-0.190737 0.262714 0.513263
-0.256216 -0.0921154 0.282934
-0.20463 0.0722073 0.513263
-0.303364 0.132196 0.513595
-0.0446948 -0.0183126 0.46702
-0.274387 0.0632527 0.391324
-0.166593 -0.22346 0.513263
-0.0310039 0.187018 0.513263
0.267695 0.200309 0.513263
-0.262201 0.26244 0.513263
0.280794 0.0788888 0.505052
-0.164717 -0.183496 0.513263
-0.0697742 -0.029943 0.513263
0.302205 0.0773805 0.530776
-0.254706 0.147861 0.513263
-0.259894 0.0779875 0.530776
-0.163792 0.0210167 0.473931
-0.144858 -0.0530118 0.530776
-0.0705273 0.165507 0.530776
0.117908 0.21285 0.530776
0.179916 -0.00865957 0.459245
-0.27839 -0.184547 0.530776
-0.0977138 -0.0884794 0.48701
0.147682 -0.264731 0.513263
0.244618 0.0554229 0.513263
0.159704 0.212199 0.513263
0.0478578 -0.287503 0.530776
0.270165 -0.113728 0.530776
-0.274015 -0.0577179 0.404386
-0.273884 0.132757 0.530776
-0.0517093 0.0330902 0.530776
-0.303364 0.159851 0.517255
0.164301 -0.143612 0.530776
-0.197077 0.0369524 0.513263
-0.275337 -0.0609735 0.326766
-0.204687 0.0815336 0.530776
-0.153969 -0.0383446 0.513263
-0.274782 0.19891 0.530776
-0.248047 -0.209389 0.530776
-0.0582314 -0.276101 0.513263
-0.269179 -0.089288 0.328322
0.296445 -0.0736385 0.530776
0.0670857 0.167652 0.513263
0.0731886 0.185707 0.513263
0.27576 -0.15495 0.148445
0.20219 0.244199 0.513263
0.256935 -0.0137478 0.462454
0.181255 -0.199095 0.513263
0.269818 0.263922 0.530776
0.264531 0.026753 0.513263
0.186877 -0.0449238 0.530776
0.0519557 0.0809095 0.530776
0.130127 -0.22653 0.513263
-0.0777433 0.0496781 0.513263
0.0780564 -0.104965 0.513263
0.185482 0.152101 0.513263
-0.256393 -0.0446002 0.530776
-0.250611 -0.138241 0.530776
-0.259434 0.10394 0.27341
-0.0743403 0.0186874 0.4914
-0.0330316 -0.216087 0.530776
-0.125699 -0.286403 0.513263
0.0905098 -0.161733 0.530776
0.0101536 -0.235486 0.513263
0.0508099 -0.0125391 0.461241
0.0559903 0.00821021 0.530776
-0.106551 0.239259 0.513263
0.275086 0.0308418 0.446713
0.261373 -0.0707785 0.513263
0.173094 0.0217562 0.482071
0.275352 -0.0617807 0.319299
-0.297015 -0.0154797 0.513263
-0.11038 -0.154164 0.530776
0.0996155 -0.230042 0.530776
-0.152088 0.282858 0.530776
-0.0740025 0.217277 0.530776
0.138825 0.0929817 0.513263
0.225678 -0.142454 0.513263
-0.209141 -0.0700454 0.530776
0.256434 0.106147 0.259171
0.302851 0.148371 0.530776
0.00132939 0.131309 0.513263
0.222452 0.0819255 0.513263
0.0331179 0.2653 0.530776
0.143198 0.0102832 0.530776
-0.279787 -0.0890487 0.501562
0.298769 -0.214611 0.513263
0.204058 -0.0783891 0.513263
-0.07641 -0.177238 0.513263
-0.176987 -0.295871 0.529862
-0.303364 -0.0829697 0.526056
-0.228888 -0.231001 0.513263
0.269169 0.055702 0.32624
0.280794 0.181559 0.492134
-0.0140459 -0.106821 0.513263
0.226951 0.160125 0.513263
0.264416 -0.287645 0.530776
0.303364 0.0193063 0.5195
0.0688224 -0.00198548 0.501333
0.179007 0.231648 0.530776
-0.168482 -0.019761 0.489477
0.142654 0.236181 0.513263
0.133102 -0.161551 0.513263
-0.154234 0.0261273 0.530776
-0.00062874 0.218447 0.530776
-0.275885 -0.159401 0.530776
-0.269156 0.172059 0.104123
-0.0567559 -0.0796825 0.530776
-0.255388 0.00394405 0.500812
0.234369 0.254144 0.530776
-0.279472 -0.132217 0.510845
-0.279787 0.118008 0.492636
0.234344 -0.248509 0.513263
-0.235326 0.0643499 0.513263
-0.252615 0.0133719 0.440418
0.135913 0.295871 0.528221
-0.124095 0.196289 0.513263
-0.0987214 -0.0460172 0.486082
-0.0807005 -0.0220293 0.481032
0.0977138 -0.0880783 0.495187
0.0764123 0.295871 0.529634
-0.275661 0.21813 0.0439022
0.275901 -0.181138 0.0863077
-0.171103 0.214271 0.513263
0.0321838 -0.11568 0.513263
-0.218075 0.242462 0.530776
0.235113 0.22861 0.513263
-0.0534998 0.106244 0.530776
-0.10104 0.0496709 0.530776
-0.290285 -0.270966 0.513263
0.274791 0.00854152 0.413779
0.280794 -0.0840495 0.489305
0.053073 0.148001 0.530776
-0.290239 0.0672807 0.513263
0.257848 -0.10258 0.272837
-0.0977138 0.129018 0.494557
0.153094 -0.0313396 0.513263
-0.243064 0.274745 0.530776
0.274424 0.115525 0.510845
-0.277355 -0.246492 0.530776
-0.280794 -0.0358105 0.482569
-0.0987214 0.107609 0.490281
-0.238553 0.130671 0.530776
-0.152119 -0.143729 0.513263
0.253559 0.0215603 0.444481
0.0321657 -0.0173833 0.492693
0.0669976 0.124935 0.513263
-0.120595 -0.0091681 0.459372
0.0987214 0.0206179 0.5058
0.169133 0.0428537 0.513263
-0.133815 0.101844 0.513263
-0.13262 0.173276 0.513263
0.205336 0.00147433 0.501473
-0.271688 -0.209738 0.0270497
0.265408 -0.0203486 0.513263
0.167451 8.55923e-05 0.530776
0.269966 -0.0787841 0.280551
-0.129896 0.00812063 0.513263
-0.156715 0.066721 0.513263
0.126924 -0.0649284 0.513263
0.253775 -0.200893 0.530776
-0.209909 -0.270713 0.530776
-0.264782 -0.176181 0.513263
-0.144055 -0.10148 0.530776
-0.0747995 0.295871 0.527574
0.275595 -0.117628 0.217572
0.185855 0.109369 0.513263
-0.251661 0.185788 0.513263
-0.275127 -0.1122 0.280455
0.188878 0.288777 0.530776
-0.273319 -0.0754665 0.365486
-0.190753 -0.0634816 0.513263
0.280794 0.0782484 0.465529
-0.275628 0.126668 0.204716
0.293116 -0.175459 0.513263
0.0322127 -0.100064 0.530776
0.0425061 -0.229039 0.513263
0.235001 0.0234161 0.513263
-0.0744875 0.165437 0.513263
0.240793 -0.0616204 0.530776
-0.137913 0.232844 0.530776
0.09308 0.191578 0.530776
0.234411 0.0904094 0.530776
0.25807 0.216554 0.530776
0.0913527 -0.185575 0.513263
0.126593 -0.0220096 0.477692
-0.215802 -0.163501 0.530776
-0.25128 0.0387232 0.398064
0.0470855 -0.152301 0.513263
-0.268728 -0.13896 0.168153
0.221522 0.185808 0.530776
0.101991 -0.25161 0.513263
-0.299731 -0.233626 0.513263
-0.204252 -0.136744 0.513263
-0.279787 -0.143356 0.477454
0.0429223 0.270903 0.513263
0.275188 0.0386914 0.395642
0.0148624 0.103502 0.530776
0.160661 0.165674 0.513263
0.211825 -0.246599 0.513263
-0.0977138 0.0344222 0.495605
0.253798 -0.10017 0.513263
-0.274007 0.16313 0.169647
0.0269965 0.0222261 0.530776
0.279787 -0.149503 0.486274
-0.173797 0.251053 0.530776
-0.00747392 0.00835894 0.499621
0.00312552 -0.0774392 0.513263
0.280794 0.227942 0.498706
-0.183521 -0.262037 0.513263
0.269849 -0.0407765 0.438448
-0.22205 -0.206915 0.530776
0.0370342 0.106264 0.513263
0.0210746 0.0530118 0.513263
-0.0542438 -0.0148379 0.530776
0.143354 -0.0892529 0.530776
-0.1245 0.0765753 0.530776
-0.211311 -0.0530118 0.513263
0.109206 -0.275423 0.513263
0.296248 0.00210163 0.530776
-0.082095 -0.266135 0.530776
-0.298079 0.295871 0.519264
-0.269514 0.0258882 0.513263
0.213655 -0.286376 0.530776
-0.169454 -0.074802 0.530776
-0.0709206 -0.0651832 0.513263
-0.0391721 0.0182041 0.513263
0.0875311 -0.072784 0.513263
-0.249123 -0.115674 0.513263
-0.0294446 0.131916 0.513263
-0.139946 0.12321 0.530776
0.107203 0.0107303 0.530776
-0.254318 0.08101 0.313123
-0.0207661 -0.272056 0.513263
0.260637 0.18166 0.530776
0.117611 0.0673034 0.513263
0.0849706 -0.0313738 0.513263
0.219837 -0.133097 0.530776
-0.197383 -0.104332 0.530776
0.233991 -0.174978 0.513263
-0.2937 0.0797871 0.530776
0.110718 -0.139969 0.530776
-0.0194536 -0.0527457 0.513263
-0.268072 0.295871 0.528551
-0.0508942 -0.102934 0.513263
0.270958 0.0776052 0.358524
-0.0569566 -0.201646 0.513263
0.0449861 -0.0459347 0.530776
0.266894 -0.134284 0.513263
-0.27105 -0.0921944 0.252763
-0.275055 0.0235796 0.459386
-0.275579 -0.129469 0.231585
-0.112865 0.258988 0.530776
-0.0853142 0.0749213 0.513263
0.263609 0.0976844 0.296892
-0.0347179 -0.23373 0.513263
0.163937 -0.226519 0.513263
-0.169202 0.181396 0.513263
0.114387 0.168077 0.513263
0.0757594 -0.16833 0.513263
-0.280794 0.241737 0.504018
0.279787 -0.228393 0.49879
-0.0923541 0.123203 0.530776
0.0651187 -0.0848089 0.513263
-0.146802 -0.0131105 0.513263
0.110677 0.158355 0.530776
-0.264037 0.0921559 0.513263
0.0957983 -0.269939 0.530776
-0.150516 -0.163972 0.530776
-0.266917 -0.0220867 0.513263
0.172029 -0.289982 0.530776
0.261262 -0.229599 0.00724399
-0.278334 -0.0626149 0.530776
0.220409 -0.000630016 0.457099
0.260883 0.126832 0.530776
0.26992 -0.084191 0.341416
0.0418773 0.201057 0.513263
-0.0687742 0.130968 0.530776
0.067929 0.206061 0.530776
0.112964 0.114165 0.513263
-0.303364 0.198402 0.520432
0.28 0.134705 0.530776
-0.00389355 0.0223014 0.530776
-0.154793 -0.209858 0.530776
-0.275286 0.0747139 0.360944
-0.207571 0.286463 0.530776
0.0133793 -0.271396 0.530776
0.135969 0.278427 0.513263
-0.269479 -0.0342832 0.452145
-0.0977138 -0.111785 0.489815
-0.215232 0.106986 0.530776
0.128102 -0.175783 0.530776
-0.00766513 -0.0741376 0.530776
0.149628 0.216707 0.530776
0.13719 -0.0496092 0.530776
-0.114203 -0.00839484 0.513263
-0.275089 -0.0164492 0.437393
-0.0190683 -0.295871 0.528396
-0.180748 -0.164943 0.513263
0.00448394 -0.161464 0.530776
-0.298325 -0.187549 0.513263
0.144029 0.0628759 0.513263
-0.281771 -0.0298441 0.530776
0.280794 -0.00181162 0.48239
-0.038406 -0.121022 0.530776
-0.0498041 -0.26082 0.530776
0.151863 -0.210668 0.530776
0.198882 0.0293938 0.530776
-0.203323 0.188927 0.530776
-0.275213 -0.0423221 0.384192
-0.25139 0.16995 0.530776
-0.271686 0.243813 0.530776
0.281361 -0.27191 0.530776
-0.183728 0.0955791 0.513263
0.273534 -0.0234382 0.530776
0.140885 -0.132611 0.513263
0.215488 -0.190123 0.513263
-0.107325 -0.0723499 0.530776
-0.081457 -0.00811705 0.513263
0.0178037 0.183845 0.530776
-0.20853 -0.20596 0.513263
0.303364 -0.135903 0.514091
0.174806 0.158275 0.530776
-0.0230284 -0.000647687 0.457098
-0.267295 -0.181698 0.117164
-0.0887562 0.19629 0.513263
0.100478 0.03259 0.530776
0.14272 0.0213486 0.47518
0.0975295 -0.0162345 0.464941
0.192452 -0.0196781 0.489787
-0.280794 0.0490006 0.453339
0.0178463 0.0802678 0.530776
0.0547425 0.0574299 0.513263
-0.303364 -0.119674 0.521486
-0.00745928 -0.0253063 0.530776
0.218552 0.269855 0.513263
0.0278168 0.0212212 0.484058
-0.116624 -0.0991375 0.513263
0.065551 0.257946 0.530776
0.169761 -0.253827 0.513263
0.0483899 -0.26562 0.530776
-0.251281 -0.0336878 0.404327
-0.0722312 -0.120663 0.530776
0.0595682 0.0491121 0.530776
-0.279787 0.0703687 0.488463
-0.150785 0.000526715 0.457055
-0.178141 -0.282363 0.513263
0.258911 -0.139985 0.530776
0.111608 -0.00892222 0.499466
-0.101165 0.166363 0.530776
-0.233455 0.00840734 0.49961
0.179181 -0.0350514 0.513263
0.261033 -0.00501277 0.500519
0.279245 0.275827 0.513263
0.0977138 0.0964448 0.497704
0.267532 0.0655697 0.530776
-0.204938 0.14124 0.530776
0.0799721 -0.0854375 0.530776
0.117939 -0.106049 0.513263
-0.0460777 -0.161831 0.513263
0.0404892 -0.126885 0.530776
-0.0773127 -0.293919 0.513263
-0.274619 0.0577101 0.318592
0.024473 0.168284 0.513263
0.253478 -0.0481319 0.372308
-0.150064 -0.0760672 0.513263
-0.121204 0.145267 0.513263
0.0339637 0.142826 0.513263
0.282034 0.292043 0.530776
-0.262585 -0.2677 0.513263
-0.136266 -0.19067 0.530776
0.126634 0.253281 0.530776
0.165936 -0.166678 0.530776
-0.0453226 0.206993 0.530776
0.228294 -0.0596554 0.513263
-0.134705 0.150483 0.530776
0.126358 0.0533821 0.530776
0.13941 -0.0013369 0.513263
0.066152 0.00634444 0.45862
-0.120433 -0.245671 0.513263
0.0537558 -0.184898 0.513263
-0.123003 -0.266602 0.530776
0.142701 -0.192728 0.513263
-0.0903145 -0.120061 0.513263
-0.0714261 0.0187753 0.513263
0.00798151 -0.191964 0.530776
0.279787 -0.0304067 0.463471
0.25375 -0.0438624 0.513263
-0.270459 0.0777333 0.281579
0.251155 0.141764 0.513263
-0.279787 -0.0131343 0.499323
0.21154 0.0967216 0.530776
-0.144093 0.134645 0.513263
0.158716 0.189357 0.530776
-0.0259221 -0.161312 0.530776
-0.213277 -0.256871 0.513263
0.0237606 0.217756 0.513263
0.140917 0.117317 0.513263
-0.187152 0.0075692 0.499835
-0.0216476 0.0791087 0.530776
-0.280794 -0.0854355 0.485472
-0.182504 0.27119 0.530776
0.076798 -0.128101 0.530776
0.229565 -0.00873598 0.513263
-0.240407 -0.295871 0.5241
-0.267747 0.10437 0.236191
-0.22883 0.2175 0.513263
-0.00467989 0.0530118 0.530776
-0.255416 0.217309 0.513263
0.260532 0.160104 0.148082
0.256549 0.0486307 0.390672
-0.0536962 0.261928 0.530776
0.275311 0.105722 0.227898
-0.266171 0.0230639 0.530776
-0.0219057 -0.135292 0.513263
-0.293749 -0.0071891 0.530776
-0.0285918 0.254836 0.530776
-0.225621 0.00865215 0.459226
0.293636 0.210756 0.513263
0.0723446 -0.21868 0.513263
0.203391 -0.153813 0.513263
-0.064945 0.00689728 0.458763
-0.274053 0.180932 0.512805
-0.167943 -0.119152 0.530776
-0.2748 0.181784 0.127012
0.261625 -0.168102 0.127161
-0.0739112 0.0667249 0.530776
-0.290844 0.101383 0.530776
-0.224464 -0.241292 0.530776
-0.275128 -0.0371961 0.427202
0.259966 -0.0577293 0.340908
0.192638 -0.0216882 0.530776
-0.0584527 -0.215774 0.530776
-0.259902 -0.227467 0.513263
-0.251081 -0.0902886 0.513263
-0.181836 -0.195383 0.513263
0.201535 -0.111137 0.530776
0.168177 -0.0530118 0.513263
0.231168 0.0205924 0.472382
0.267636 -0.218781 0.513263
0.268778 -0.0948969 0.252182
-0.164208 0.0777091 0.530776
0.28137 0.158788 0.530776
-0.102635 -0.166257 0.513263
0.292183 -0.0230644 0.513263
0.0431952 0.294238 0.513263
-0.0206497 0.213652 0.513263
0.111828 -0.0656587 0.530776
-0.0977138 0.0129081 0.507217
0.218798 -0.221025 0.513263
-0.278111 -0.21626 0.00402984
-0.164928 -0.275462 0.530776
-0.0414602 0.0659406 0.530776
0.126591 -0.0280929 0.513263
-0.0181382 0.291064 0.513263
-0.0903259 -0.240955 0.513263
0.270658 0.209488 0.0626116
0.260571 -0.281373 0.513263
-0.267143 0.0054756 0.458374
0.0235479 0.239319 0.530776
0.105597 -0.295871 0.524709
-0.141676 0.0237447 0.513263
-0.20035 0.0198111 0.530776
0.27268 -0.0244033 0.380493
-0.109191 0.0349791 0.513263
-0.280794 -0.210181 0.500595
-0.177634 0.149364 0.530776
-0.197782 0.150612 0.513263
-0.279787 0.0134159 0.484079
-0.299106 -0.261438 0.530776
-0.228547 0.174977 0.513263
-0.275417 -0.0923456 0.300499
0.0512818 0.178091 0.513263
-0.024559 -0.176483 0.513263
0.150654 0.0430674 0.530776
-0.22884 0.261737 0.513263
-0.202297 0.0579971 0.530776
0.250393 -0.257803 0.530776
0.258676 -0.111825 0.240329
-0.030659 0.14986 0.530776
0.0580137 -0.0193364 0.530776
-0.0463896 0.163614 0.513263
-0.201736 0.231685 0.513263
0.0304789 -0.226399 0.530776
-0.165158 0.275285 0.513263
-0.175407 0.238825 0.513263
-0.166673 0.167924 0.530776
0.228724 -0.224537 0.530776
-0.191266 -0.0211273 0.474375
-0.106858 -0.125112 0.530776
0.0290041 -0.0854952 0.513263
-0.275176 0.0312923 0.398425
0.0811826 -0.0566553 0.530776
-0.271515 0.196405 0.0528864
-0.238606 -0.187647 0.530776
0.275382 0.075542 0.310438
-0.26456 0.118357 0.252775
0.275658 0.135428 0.193448
-0.0650207 0.218718 0.513263
-0.110372 -0.2247 0.530776
-0.214878 0.277053 0.513263
0.149366 -0.289644 0.513263
0.264585 -0.00298826 0.436115
0.287925 -0.0631868 0.513263
-0.0413996 0.114251 0.513263
0.0618617 -0.240752 0.513263
-0.0747876 0.194507 0.530776
0.247548 0.171091 0.513263
-0.280794 0.15379 0.504915
0.0602713 -0.162717 0.530776
0.279392 0.212515 0.530776
0.08435 -0.221399 0.513263
0.00281951 -0.136029 0.513263
-0.0450322 -0.141343 0.530776
-0.114775 0.119515 0.513263
0.280794 -0.0600544 0.475277
-0.232443 -0.0182645 0.491811
-0.0885276 -0.0838203 0.513263
0.202768 0.210742 0.530776
0.110104 0.222718 0.513263
0.279787 0.0956961 0.488865
0.0622559 0.180502 0.530776
-0.0675051 -0.194452 0.530776
-0.0977138 0.0550484 0.506264
0.0612372 0.103981 0.530776
-0.041264 0.0445034 0.513263
-0.0331237 0.0158748 0.494211
-0.299074 0.216977 0.513263
-0.147438 0.255489 0.530776
-0.30184 -0.0446769 0.530776
0.271451 -0.158855 0.513263
-0.240906 -0.104991 0.530776
0.196615 -0.200565 0.530776
0.269835 0.172678 0.101572
-0.190216 -0.0148751 0.513263
-0.274951 -0.0661757 0.510845
0.158589 0.0175056 0.513263
-0.0747063 -0.140669 0.513263
0.263513 -0.0213023 0.483715
-0.275349 0.0811137 0.331125
0.137264 -0.144834 0.530776
0.299156 0.172247 0.513263
0.142302 -0.103351 0.513263
-0.0270396 -0.190367 0.530776
0.0438639 0.232569 0.513263
0.280029 0.159625 0.479842
-0.107561 -0.267948 0.513263
-0.134795 0.076772 0.513263
-0.207007 -0.123978 0.530776
0.0987214 0.0301037 0.485089
0.249204 0.0817513 0.513263
0.300901 0.259669 0.513263
0.0736454 0.231847 0.530776
-0.177869 0.109954 0.530776
-0.0305825 0.0603974 0.513263
-0.115681 -0.210515 0.513263
-0.109599 -0.142515 0.513263
-0.0207394 -0.00979269 0.513263
0.218791 -0.119582 0.513263
0.199217 0.0208886 0.485294
0.114959 0.237606 0.530776
0.145672 -0.0181012 0.530776
0.269126 0.131437 0.233861
-0.224287 -0.0157795 0.530776
-0.051266 0.185429 0.530776
-0.275667 -0.139654 0.190836
-0.0496376 0.240215 0.530776
0.302515 -0.277707 0.513263
0.190464 -0.146031 0.530776
0.0987214 0.0762842 0.509474
-0.27029 0.146232 0.203381
-0.0256375 0.23037 0.530776
-0.27528 -0.0489055 0.351543
0.279787 0.00667626 0.50728
-0.27222 0.180576 0.0817837
0.240269 0.274384 0.513263
0.267317 -0.192055 0.0697551
0.0621568 -0.108601 0.530776
0.294802 0.128095 0.513263
-0.232457 -0.0480645 0.530776
0.273418 0.0484527 0.513263
0.188324 -0.000227064 0.513263
0.085577 0.099202 0.513263
-0.166165 0.0303332 0.513263
0.0863613 0.00729139 0.499908
-0.11071 0.00532074 0.50044
0.0132292 0.135016 0.530776
0.202686 -0.0169181 0.465625
0.257633 0.0277112 0.530776
0.212073 0.260725 0.530776
0.268982 -0.0535747 0.407828
0.154894 -0.166226 0.513263
0.0965795 0.0483041 0.510992
0.0781964 0.278739 0.513263
0.133564 0.153309 0.530776
0.165969 -0.238 0.530776
0.0977138 -0.16034 0.498709
0.158524 0.00543998 0.458382
-0.0430582 -0.0245679 0.513263
0.280794 -0.123206 0.506216
-0.104136 0.0194271 0.468122
-0.136912 0.215538 0.513263
-0.147024 0.0500712 0.530776
-0.227422 0.0708238 0.530776
0.166149 -0.266326 0.530776
0.282144 -0.220493 0.530776
0.241935 0.23246 0.530776
-0.232976 -0.2771 0.513263
0.275037 0.00966656 0.461773
-0.137002 -0.00750208 0.530776
0.11932 0.107671 0.530776
0.0487245 0.240671 0.530776
0.279787 0.132523 0.487856
0.269736 -0.189772 0.513263
0.223706 -0.257796 0.530776
0.19924 0.289071 0.513263
0.279572 -0.0423837 0.513263
0.303364 0.0575625 0.516306
0.259242 -0.243864 0.513263
-0.255962 0.0529489 0.379673
0.26182 -0.0677821 0.35976
0.0326666 0.013857 0.462548
0.0818727 0.0861566 0.530776
-0.190347 -0.167756 0.530776
-0.0809412 -0.0331317 0.530776
-0.0640321 0.0841183 0.530776
-0.284899 0.27571 0.513263
0.276072 0.221365 0.0142658
-0.0650008 0.011646 0.530776
-0.275462 -0.0896299 0.274925
-0.229175 0.0272278 0.513263
-0.143582 0.295871 0.51422
-0.219628 0.081224 0.513263
-0.0977138 -0.068158 0.499035
-0.117298 -0.038836 0.530776
0.197366 0.181447 0.513263
0.275694 -0.152124 0.180682
-0.127951 0.275933 0.530776
0.270698 0.157434 0.128935
-0.26476 -0.0203899 0.472534
0.301682 -0.257245 0.530776
0.0563287 -0.274663 0.513263
0.0294908 -0.0191452 0.467852
0.248743 0.277529 0.530776
0.00235114 0.16309 0.513263
0.249866 0.0071137 0.457906
-0.279787 -0.060719 0.483837
0.190216 0.0211129 0.513263
-0.243295 -0.0522068 0.513263
0.218599 -0.0577057 0.530776
-0.250133 0.0285526 0.421052
-0.27471 0.0515075 0.513098
0.0147462 -0.157317 0.513263
0.252738 -0.0132512 0.440398
-0.27077 -0.291472 0.530776
0.297569 -0.0423947 0.513263
-0.253033 -0.273766 0.530776
0.0274332 0.29243 0.530776
-0.213213 0.214089 0.530776
0.058466 -0.223303 0.530776
-0.0779453 -0.242116 0.530776
0.0919944 0.117852 0.513263
-0.15177 -0.0278777 0.530776
-0.132264 -0.048549 0.513263
-0.0977138 -0.0194643 0.501097
-0.265626 -0.149895 0.513263
0.156783 -0.121516 0.530776
0.280794 -0.175 0.496739
-0.0930654 0.225162 0.513263
-0.275281 0.0490242 0.350861
0.27524 0.0584896 0.378292
-0.259165 -0.0726901 0.313957
0.0987214 -0.113002 0.505847
0.297214 0.0985694 0.513263
-0.00416404 -0.215993 0.513263
-0.217428 0.0481783 0.513263
-0.178265 0.0232353 0.530776
-0.0875966 -0.180247 0.530776
0.0359997 -0.0536373 0.513263
-0.288451 0.196667 0.513263
-0.275341 0.192512 0.102039
0.205222 -0.275689 0.513263
0.27514 0.0432438 0.424256
0.174994 0.292564 0.513263
-0.0265059 -0.0213779 0.483446
0.105212 -0.194398 0.530776
-0.0108041 0.130181 0.530776
0.0977138 -0.00199696 0.4871
0.110155 -0.251188 0.530776
0.0306891 -0.295871 0.521039
0.277418 0.0936667 0.530776
0.00293678 -0.244994 0.530776
-0.0967413 0.142476 0.513263
0.0513109 0.0308894 0.530776
-0.1485 -0.02121 0.474682
-0.228392 -0.15361 0.513263
-0.00674739 0.0648208 0.513263
0.0101188 -0.107691 0.513263
-0.0480252 0.295169 0.513263
-0.0117058 -0.209115 0.530776
-0.275713 0.14153 0.166893
-0.199421 -0.27907 0.513263
0.267615 0.154361 0.513263
-0.259727 -0.109852 0.260825
-0.0670563 -0.0122199 0.460917
-0.150281 -0.107613 0.513263
-0.279787 0.172411 0.494546
-0.281815 -0.0850245 0.530776
0.11591 0.277621 0.530776
-0.267765 -0.205698 0.513263
0.255125 0.0660084 0.348538
0.100076 -0.0533375 0.513263
-0.0775944 0.0190747 0.467769
0.262261 0.0263236 0.39625
-0.20208 -0.293021 0.530776
-0.103481 0.266227 0.513263
0.276061 -0.0894699 0.510845
0.0641342 -0.0192223 0.490854
-0.240098 0.0922984 0.530776
-0.252127 0.00141782 0.530776
0.241103 -0.123643 0.513263
0.216157 -0.0978003 0.513263
-0.115183 -0.185019 0.513263
-0.274623 -0.12786 0.530776
-0.195798 0.243793 0.530776
0.191757 -0.235521 0.513263
0.140578 0.259467 0.513263
0.280794 0.0704966 0.486025
0.202818 -0.0530118 0.513263
0.269389 0.177227 0.513263
0.28788 0.0270324 0.530776
-0.0549963 0.00609813 0.50023
0.0810722 0.148705 0.513263
0.17971 0.0614077 0.513263
0.289113 -0.129161 0.530776
-0.254229 -0.0624689 0.343454
0.0634874 0.0168943 0.493189
-0.104423 -0.0200969 0.470547
0.0987214 -0.0675304 0.497108
0.0026328 -0.0562643 0.530776
0.0823304 0.0116717 0.530776
0.105811 0.134954 0.513263
-0.248482 0.053146 0.530776
-0.280794 -0.11741 0.49005
0.179257 -0.117544 0.530776
0.280794 0.0195724 0.491133
0.083476 -0.264324 0.513263
-0.0854729 0.0923054 0.530776
-0.181705 0.0727163 0.513263
0.253688 -0.0329086 0.400951
0.300924 -0.172053 0.530776
0.0969522 0.224045 0.530776
-0.273178 0.172395 0.149478
0.117449 -0.271839 0.530776
-0.175298 -0.0438308 0.513263
0.280794 0.246027 0.512262
0.255068 -0.0879004 0.295652
0.284697 -0.293946 0.513263
-0.275465 0.102776 0.280408
0.223657 0.291256 0.513263
-0.287173 0.282259 0.530776
0.17791 -0.213303 0.530776
-0.0931039 -0.0377372 0.513245
-0.0127174 -0.236884 0.513263
0.0682026 -0.295382 0.530776
0.0980375 -0.143781 0.513245
-0.278545 -0.27074 0.530776
-0.279787 0.130427 0.477547
0.265834 -0.00935835 0.421434
0.0915472 0.282354 0.530776
0.122303 -0.257131 0.513263
0.200142 -0.0676341 0.530776
-0.0977138 0.0908151 0.508544
-0.168179 -0.0153138 0.464015
-0.270636 -0.204702 0.530776
0.249631 -0.0179827 0.513263
0.00824821 0.0135028 0.462192
0.183301 -0.0702036 0.513263
0.147066 0.131708 0.530776
-0.204556 -0.012951 0.461646
-0.278719 0.114037 0.513098
-0.272907 -0.170508 0.100804
0.00570318 0.229319 0.513263
-0.282063 0.261679 0.530776
0.082826 -0.241624 0.513263
0.279787 -0.10507 0.466565
0.231673 0.0687765 0.530776
-0.261785 0.127017 0.513263
-0.275062 0.000620971 0.442828
0.275331 0.0763584 0.338352
-0.267383 0.221908 0.0273792
0.303364 0.234172 0.513458
-0.253626 -0.0478481 0.385781
-0.280794 0.212502 0.505654
0.0382882 -0.197047 0.513263
0.0753215 -0.0358196 0.530776
0.0686318 -0.273556 0.530776
0.0344439 0.0927012 0.530776
0.180657 0.217188 0.513263
0.1461 0.103837 0.530776
-0.244786 -0.150338 0.513263
-0.300995 0.238125 0.513263
-0.00118375 -0.267253 0.513263
0.0548941 -0.0658747 0.513263
0.112213 0.0477672 0.513263
-0.301865 0.17669 0.530776
0.289399 0.27106 0.530776
0.0934984 0.172621 0.513263
-0.272094 -0.229059 0.0220577
-0.29168 -0.0748804 0.513263
-0.260354 -0.154126 0.156386
0.089458 -0.207844 0.530776
0.18115 0.0100513 0.499164
0.244529 0.109682 0.530776
-0.232322 -0.0711965 0.530776
-0.0671944 0.237425 0.530776
-0.248472 -0.00770881 0.463209
0.206615 0.132577 0.513263
-0.00464168 0.186797 0.513263
-0.0493133 -0.0532472 0.530776
0.280794 -0.10606 0.494722
-0.297912 0.140724 0.530776
-0.275314 -0.0708743 0.344988
0.302128 -0.204186 0.530776
-0.144301 0.00286569 0.501101
-0.207595 0.011876 0.498216
0.107324 -0.174515 0.530776
0.177005 0.249338 0.530776
0.210486 0.0254058 0.513263
-0.14334 -0.243418 0.530776
-0.2554 -0.0698313 0.513263
0.258494 -0.133408 0.203082
-0.19404 -0.220835 0.513263
0.23609 0.134353 0.530776
-0.245056 0.0222337 0.530776
-0.27513 -0.0191803 0.416797
0.238022 0.0977937 0.513263
0.280794 0.00909949 0.44352
-0.105924 0.190258 0.530776
-0.274802 -0.220616 0.0406957
-0.280794 0.0168738 0.503123
0.168214 -0.27979 0.513263
-0.162149 0.208151 0.530776
0.098218 0.00219727 0.513263
-0.275551 -0.109641 0.237074
-0.275054 -0.0160012 0.455789
-0.0714587 -0.101232 0.513263
0.113511 0.189292 0.530776
-0.255174 -0.228668 0.530776
0.187947 0.00142288 0.530776
-0.227924 0.290334 0.530776
0.0290441 -0.202743 0.530776
-0.143814 0.0196135 0.49008
-0.236276 0.249923 0.530776
0.110815 -0.000295739 0.457007
0.0987214 -0.026917 0.501817
0.279787 -0.0671686 0.500884
0.303364 -0.0597295 0.517602
0.0524683 -0.143428 0.530776
0.223638 0.0428385 0.513263
-0.0401188 -0.0474433 0.513263
-0.229698 -0.275239 0.530776
0.213602 -0.160493 0.530776
0.0814503 0.0485412 0.513263
-0.147877 0.113637 0.513263
0.0463061 -0.00511531 0.50049
-0.12868 0.187161 0.530776
0.0217516 0.0309683 0.513263
0.249787 -0.14445 0.513263
-0.0856572 -0.201736 0.513263
0.0217348 -0.00508884 0.513263
0.20549 0.0690516 0.530776
-0.0963393 0.113956 0.513245
-0.275191 -0.2264 0.530776
-0.0752588 -0.00573754 0.530776
0.246154 -0.0164562 0.49362
-0.15713 0.0868984 0.513263
-0.144061 -0.263567 0.530776
-0.188027 -0.0167542 0.493322
0.258939 0.0969729 0.513263
-0.0589704 -0.0142951 0.495781
-0.29836 -0.139227 0.530776
-0.0743565 0.275393 0.513263
-0.114958 0.0926635 0.513263
-0.280794 -0.0399016 0.458076
-0.278176 -0.254689 0.513263
-0.0844888 0.0322516 0.530776
-0.133168 -0.283813 0.530776
0.275491 -0.111769 0.270206
-0.00227374 0.0795374 0.530776
0.227102 0.0127653 0.530776
0.0977138 0.0815083 0.486652
0.188576 0.267201 0.530776
0.222404 0.0328144 0.530776
-0.175763 -0.055818 0.530776
-0.285493 -0.160419 0.513263
0.258739 0.115831 0.232587
0.236807 0.213153 0.530776
0.279787 0.20096 0.502618
0.272619 0.113688 0.209827
-0.301538 0.0138359 0.513263
0.293734 0.14374 0.513263
-0.105666 0.0700862 0.530776
-0.185193 -0.145187 0.513263
0.0056724 0.10564 0.513263
-0.109238 -0.177706 0.530776
0.241382 -0.185012 0.530776
-0.151471 -0.289974 0.530776
0.29483 -0.234072 0.513263
0.146096 -0.0523857 0.513263
-0.0142078 -0.0164723 0.465179
-0.00330263 0.111405 0.530776
0.275248 0.15421 0.187192
-0.112837 0.172657 0.513263
0.164285 0.141533 0.530776
-0.0015431 -0.287232 0.530776
0.279787 -0.0172815 0.503556
0.224027 0.0126887 0.497389
0.258831 -0.26158 0.513263
-0.0334039 -0.0861296 0.530776
-0.268453 -0.111761 0.513263
-0.241966 0.0835226 0.513263
-0.268325 0.0353966 0.447033
-0.0121407 0.27152 0.513263
0.265678 -0.130036 0.229148
-0.258794 -0.0189954 0.49108
0.201749 -0.0137979 0.513263
-0.219246 -0.182859 0.513263
0.0833479 -0.00303506 0.457738
-0.0415033 -0.213811 0.513263
-0.122935 -0.105216 0.530776
-0.165733 -0.00402733 0.500782
-0.161883 -0.0934371 0.530776
0.0826706 0.0687472 0.513263
-0.19041 0.176539 0.513263
0.234881 -0.0379449 0.530776
0.122599 0.245634 0.513263
-0.279787 0.0747041 0.471742
-0.158494 0.145018 0.530776
-0.271919 0.139413 0.222341
0.252641 -0.180723 0.513263
-0.0689301 -0.29584 0.530776
0.0176204 -0.0871252 0.530776
-0.129838 -0.229357 0.530776
-0.171745 -0.17861 0.530776
-0.111669 0.228833 0.530776
0.218188 0.102004 0.513263
0.132074 -0.259008 0.530776
0.245425 -0.101414 0.530776
-0.00599948 0.19389 0.530776
0.180593 0.0530118 0.530776
-0.220478 0.00368071 0.513263
0.268064 0.0534376 0.406056
0.257956 -0.0523033 0.530776
-0.274844 -0.034271 0.36428
-0.0360916 -0.192087 0.513263
0.251678 0.120992 0.513263
0.0360797 0.195203 0.530776
-0.09198 -0.10094 0.511968
-0.275229 -0.0627168 0.38574
-0.0928103 -0.0650717 0.513245
-0.166697 0.0501682 0.513263
0.269775 0.0290264 0.464586
0.153985 0.235533 0.530776
-0.267199 -0.152893 0.181434
0.124295 -0.143827 0.513263
0.0535531 0.139907 0.513263
0.107207 0.151038 0.513263
0.0422027 0.16107 0.513263
0.299081 0.0390088 0.513263
0.240553 -0.14835 0.530776
-0.0210491 -0.110738 0.530776
-0.220711 0.173407 0.530776
0.0859046 -0.106393 0.530776
-0.224864 0.144168 0.530776
0.133412 0.170323 0.513263
0.17246 -0.135814 0.513263
-0.273737 -0.200543 0.0429845
0.134009 -0.0827671 0.513263
-0.18062 0.0883688 0.530776
0.275027 -0.0115803 0.468482
0.17205 0.243262 0.513263
-0.280794 -0.194647 0.507933
0.0423604 0.0878485 0.513263
-0.223624 0.193491 0.513263
-0.265198 0.156925 0.530776
0.156056 -0.0149301 0.495146
0.26609 0.245156 0.530776
0.259657 -0.0821831 0.322608
0.115857 0.295871 0.525058
0.022644 -0.120018 0.530776
0.113621 -0.121072 0.530776
-0.257485 -0.0241579 0.44758
0.0669622 -0.0195561 0.468538
-0.122543 -0.0785252 0.530776
0.13986 0.0690756 0.530776
-0.184333 -0.243018 0.513263
-0.172262 -0.125201 0.513263
-0.298876 -0.065099 0.530776
0.0495239 -0.0956961 0.513263
0.285343 0.2525 0.530776
-0.279787 0.0552773 0.470464
0.275107 0.0215053 0.430517
0.279787 0.0964661 0.464797
0.0954127 0.0114067 0.460101
0.272746 0.134335 0.513263
-0.015613 -0.0848157 0.513263
-0.262797 -0.0479939 0.513263
-0.000829756 0.175307 0.530776
0.103975 0.0869623 0.513263
0.0995927 0.194359 0.513263
0.247134 -0.280409 0.530776
0.108898 -0.23405 0.513263
-0.00654528 0.240372 0.530776
0.103189 0.124603 0.530776
0.228911 -0.079173 0.513263
0.0492061 0.253137 0.513263
0.211571 0.226044 0.530776
0.182081 -0.218824 0.513263
-0.121048 0.0096425 0.459495
-0.226537 -0.125416 0.513263
0.0278771 0.000215262 0.530776
-0.250652 -0.253189 0.513263
0.185626 -0.272772 0.513263
-0.196801 0.103417 0.530776
-0.22739 -0.0665949 0.513263
0.289769 -0.110406 0.530776
-0.25649 0.254795 0.530776
-0.202171 -0.252924 0.530776
0.167106 0.109612 0.513263
0.118574 -0.177396 0.513263
0.05882 0.0968051 0.513263
-0.0550229 0.0530118 0.530776
0.275672 -0.169977 0.105586
-0.0278439 0.166082 0.513263
0.265461 -0.1604 0.530776
0.231089 -0.242846 0.530776
-0.109936 0.214095 0.513263
0.238777 0.168604 0.530776
-0.303364 -0.101593 0.524884
0.15969 0.146031 0.513263
-0.209904 0.174314 0.513263
0.21471 0.163778 0.530776
0.189909 0.104419 0.530776
-0.140047 -0.195822 0.513263
0.0540211 -0.207422 0.513263
0.196443 -0.294152 0.530776
0.209041 -0.171554 0.513263
-0.213609 -0.0136227 0.513263
0.233769 -0.10379 0.513263
-0.258943 -0.249149 0.530776
0.152558 0.190349 0.513263
0.245482 0.0100499 0.530776
0.195923 -0.0857251 0.530776
0.174427 0.187871 0.513263
0.276064 -0.223848 0.0178534
0.275473 0.0926356 0.255521
-0.255566 -0.0840435 0.299638
0.257662 0.0785206 0.305867
-0.0164482 0.118697 0.513263
-0.271818 -0.192737 0.102741
-0.0271561 0.203259 0.530776
0.271246 0.139798 0.161501
0.275619 0.196814 0.0528261
-0.279787 0.0797921 0.507043
0.207359 0.289069 0.530776
0.133247 0.215458 0.513263
-0.259853 0.0168385 0.469342
0.270682 0.217955 0.513263
-0.0489328 -0.294745 0.513263
-0.124309 0.0971054 0.530776
-0.0131244 0.0958243 0.530776
-0.298098 -0.207995 0.513263
0.25243 0.0280894 0.427303
0.154673 0.0246765 0.530776
-0.0713451 -0.0497868 0.530776
0.203195 0.18706 0.530776
0.156576 0.169379 0.530776
0.257708 0.0952476 0.273883
-0.301771 -0.134938 0.513263
-0.213689 0.24573 0.513263
0.27698 0.116618 0.530776
-0.275618 -0.136321 0.214577
0.131074 -0.00513325 0.500486
-0.259472 0.0189605 0.491133
0.210574 -0.187899 0.530776
-0.0286348 0.0214302 0.530776
0.131733 -0.273684 0.513263
-0.0207516 -0.130147 0.530776
0.194139 -0.267932 0.530776
-0.263849 0.167554 0.123587
-0.156803 0.236503 0.530776
-0.116907 -0.0128262 0.530776
0.276234 -0.27272 0.513263
0.275458 0.095586 0.280221
0.275069 -0.020881 0.450372
-0.174549 -0.204981 0.530776
-0.0244214 -0.153359 0.513263
0.0380844 0.111241 0.530776
0.235003 0.24911 0.513263
0.207312 0.150995 0.513263
0.0738726 -0.174853 0.530776
0.299964 0.16726 0.530776
0.0599999 -0.0301962 0.513263
0.12416 0.00405577 0.530776
-0.0565117 0.0201837 0.487938
-0.257686 0.192637 0.530776
-0.10843 -0.0727613 0.513263
-0.303273 -0.290156 0.513263
-0.280794 0.00230032 0.454977
-0.275318 0.0608015 0.337029
0.131286 -0.0291633 0.530776
0.275557 -0.108512 0.233466
-0.161729 0.118214 0.530776
-0.126379 0.0526896 0.530776
-0.202769 -0.0870303 0.530776
0.0967396 -0.0885967 0.513263
-0.0529278 -0.182603 0.513263
0.211999 0.0476341 0.530776
-0.274125 -0.00265086 0.513263
-0.0232209 -0.219763 0.513263
0.0637454 0.263885 0.513263
-0.265731 0.227431 0.00920605
-0.192816 -0.295871 0.513764
-0.275257 -0.0572981 0.368535
0.141544 -0.282449 0.530776
0.02509 0.273482 0.513263
-0.284751 0.257972 0.513263
-0.0655245 0.280769 0.530776
0.0388737 -0.0214412 0.530776
-0.179687 0.00507614 0.530776
0.20056 0.270357 0.513263
-0.0054034 -0.0217079 0.513263
0.135597 0.0308817 0.530776
-0.260222 -0.229771 0.00157766
-0.280794 -0.0476885 0.499654
-0.211186 -0.141453 0.530776
-0.130115 0.232161 0.513263
-0.253784 0.121157 0.530776
0.290101 -0.0147614 0.530776
-0.0319091 -0.0949351 0.513263
-0.0282349 -0.233349 0.530776
0.0269558 -0.24396 0.530776
0.303364 0.045627 0.529657
-0.0215698 0.0992841 0.513263
0.275201 0.0268737 0.3822
-0.280794 0.0355704 0.508497
-0.0344003 0.125953 0.530776
0.153587 -0.207519 0.513263
0.226555 0.142257 0.513263
0.0225267 -0.0674713 0.513263
0.155998 0.126887 0.513263
-0.132746 -0.162213 0.530776
0.120195 -0.011214 0.513263
-0.064449 -0.16399 0.513263
0.0482326 -0.131169 0.513263
0.0703891 0.203322 0.513263
0.278622 0.0983923 0.513098
-0.271083 0.287234 0.513263
0.249002 0.0124168 0.513263
-0.0736488 0.113856 0.530776
-0.16056 -0.166205 0.513263
0.223539 0.177567 0.513263
-0.222351 -0.29142 0.530776
0.0917028 -0.0721035 0.530776
-0.216887 0.13943 0.513263
-0.272514 0.155148 0.187599
0.228261 -0.173068 0.530776
-0.167038 -0.0709295 0.513263
0.19961 0.122044 0.530776
0.151531 -0.155913 0.530776
0.0232222 0.236612 0.513263
0.282054 -0.293524 0.530776
-0.111058 -0.295871 0.516263
-0.0941059 0.230822 0.530776
0.0682029 0.122875 0.530776
-0.220623 0.274238 0.530776
0.17538 0.0105601 0.459753
0.253995 -0.0303738 0.530776
0.0395509 -0.269151 0.513263
-0.183018 -0.264196 0.530776
0.144075 -0.0214067 0.47544
-0.273348 0.0991909 0.530776
0.279787 0.169549 0.505004
-0.274545 -0.162558 0.116451
0.151509 0.28795 0.513263
-0.26934 0.127774 0.188297
0.284296 0.0598978 0.513263
-0.280794 -0.174159 0.505435
0.0755821 0.0418076 0.530776
0.303364 -0.161174 0.514095
-0.04533 0.168861 0.530776
-0.0843987 0.00706473 0.49997
-0.236892 0.131064 0.513263
0.0537947 0.00435677 0.513263
-0.24435 0.27534 0.513263
-0.0578918 0.0501754 0.513263
-0.0557885 0.223769 0.530776
-0.222637 0.0904715 0.530776
0.0709664 0.0654707 0.530776
-0.279059 0.226822 0.513098
-0.257049 0.234154 0.530776
-0.011908 0.152883 0.513263
-0.270161 -0.0167133 0.530776
0.280794 -0.0522614 0.493128
-0.189321 -0.0669095 0.530776
-0.303364 -0.0315587 0.519275
0.0435553 -0.16791 0.530776
-0.137141 0.279635 0.513263
-0.0172816 0.0787746 0.513263
0.275189 -0.0388332 0.395234
0.110009 -0.215739 0.513263
-0.266561 0.147332 0.156561
-0.261538 -0.0427419 0.415177
0.173888 -0.115157 0.513263
-0.26784 0.115203 0.215323
0.275143 -0.0418937 0.421862
-0.063816 -0.0298267 0.530776
0.0851576 0.20865 0.530776
-0.0299334 -0.286847 0.513263
0.275152 0.0277942 0.409207
0.159303 0.0581327 0.530776
-0.0875209 -0.223816 0.513263
-0.0609579 -0.245675 0.530776
-0.180884 0.19423 0.513263
0.256407 -0.0494733 0.388457
-0.249204 0.00847025 0.456651
-0.0625674 -0.13497 0.530776
0.292998 0.18837 0.513263
-0.280794 0.11329 0.47579
0.121269 -0.197265 0.530776
-0.0687798 0.139719 0.513263
-0.153249 -0.295871 0.514725
0.0972717 0.295871 0.518793
-0.165197 0.012784 0.497306
0.146006 0.156719 0.513263
-0.106066 0.0209421 0.485109
-0.202552 -0.195885 0.530776
0.272261 -0.171568 0.150757
-0.259809 -0.119253 0.530776
0.279787 0.0439718 0.454354
0.100956 0.0505767 0.530776
-0.275071 0.0146984 0.446027
-0.0699185 -0.263613 0.513263
-0.274322 0.139393 0.510845
0.113306 0.0218236 0.48182
0.250668 0.19553 0.530776
-0.262197 0.0462533 0.408819
0.131868 0.235305 0.530776
-0.303364 -0.249116 0.519389
0.181588 -0.0765037 0.530776
-0.208673 -0.21743 0.530776
-0.274642 -0.279698 0.513263
-0.116237 -0.282269 0.530776
0.275262 -0.0607854 0.367449
0.00630981 -0.0443752 0.513263
-0.194292 0.128001 0.530776
-0.224574 -0.198964 0.513263
-0.261786 0.0782083 0.298152
0.0383368 0.0617408 0.513263
-0.0928759 0.0396102 0.513263
-0.0578349 0.295871 0.530194
-0.275144 0.0186055 0.408763
-0.119375 0.203102 0.530776
-0.103821 -0.0491018 0.530776
-0.142911 0.15153 0.513263
0.205097 0.227524 0.513263
-0.262602 -0.0688592 0.530776
0.251249 -0.0834375 0.513263
0.161883 -0.149021 0.513263
0.192334 -0.174118 0.513263
0.279787 0.0264165 0.505998
0.280794 -0.0412792 0.451292
-0.258744 0.0964843 0.288534
0.0324571 -0.00549018 0.458393
-0.0448967 0.0917288 0.530776
0.0110723 0.178526 0.513263
0.0977138 0.112821 0.493927
-0.114686 0.28635 0.530776
-0.00813013 -0.150278 0.530776
0.0115784 -0.00709029 0.499958
0.0326996 -0.161017 0.513263
-0.213251 0.12662 0.530776
0.0911912 -0.281952 0.513263
-0.149371 0.0174036 0.466092
-0.241006 -0.133925 0.513263
-0.284332 0.0562307 0.530776
-0.270217 0.0935665 0.321112
-0.086165 0.158835 0.530776
-0.280794 0.140864 0.490633
-0.216751 -0.0539241 0.530776
-0.0912675 -0.0136971 0.462397
0.194798 0.226112 0.530776
-0.215296 -0.273775 0.513263
-0.238117 0.201855 0.513263
0.186044 0.210733 0.530776
-0.0393234 0.0472636 0.530776
-0.0374404 -0.14146 0.513263
-0.259917 -0.123985 0.229615
-0.0293595 0.00379202 0.513263
0.275124 0.0960087 0.316168
-0.275247 0.0476262 0.368678
0.267081 0.193787 0.0669743
-0.252229 -0.0142956 0.513263
0.0222106 -0.283795 0.513263
0.18713 0.0374879 0.513263
-0.275381 0.071026 0.308628
0.0364229 0.0129276 0.497156
0.260399 -0.142484 0.189297
-0.000175118 -0.228677 0.530776
0.179396 0.0940708 0.513263
-0.265637 0.194753 0.513263
-0.0557429 -0.118709 0.530776
0.274899 -0.00698516 0.510845
0.184725 0.168678 0.513263
-0.279787 -0.0318685 0.509542
-0.303364 -0.185984 0.528982
0.268298 -0.195779 0.0879245
-0.165293 0.190479 0.530776
0.254348 -0.160377 0.513263
0.22841 0.00778964 0.513263
-0.0522619 -0.278725 0.530776
0.0571894 -0.178982 0.530776
-0.303179 -0.278171 0.530776
-0.124175 -0.00445761 0.500666
-0.193577 0.295282 0.530776
-0.147112 0.2191 0.530776
0.280794 0.0581376 0.475404
0.196331 0.157102 0.530776
0.0754186 0.278727 0.530776
0.0584504 0.225358 0.530776
-0.0104338 0.018096 0.466791
-0.280794 0.055706 0.49628
0.279787 -0.137758 0.501427
-0.14775 0.0765536 0.530776
-0.202103 0.0885112 0.513263
-0.0363472 0.210448 0.513263
-0.180248 0.235908 0.530776
-0.0987214 -0.00201164 0.51258
-0.133731 -0.0190584 0.467765
-0.278098 0.0745874 0.530776
-0.232811 -0.110223 0.513263
0.13231 0.0746598 0.513263
-0.158669 -0.22583 0.530776
-0.286659 -0.28714 0.530776
0.0219609 -0.1834 0.530776
0.273221 0.202508 0.0822345
0.0619377 -0.0842574 0.530776
0.123039 0.0744288 0.530776
0.155388 0.0339467 0.513263
-0.0944433 -0.136305 0.513263
0.275271 0.0511147 0.357411
0.153802 -0.239369 0.513263
-0.239134 0.00142223 0.513263
0.0277498 -0.263593 0.530776
0.0501401 0.263406 0.530776
-0.0920862 -0.295871 0.519979
-0.033742 -0.252565 0.530776
0.127821 0.292568 0.513263
-0.275519 -0.10876 0.254022
0.279787 -0.0175501 0.486563
0.275108 -0.0203546 0.429112
-0.156534 -0.25299 0.530776
0.00622708 -0.0341592 0.530776
-0.280794 -0.021309 0.469609
0.0946752 -0.168535 0.512457
0.287816 -0.239649 0.530776
-0.0934732 0.141074 0.530776
-0.187116 0.190536 0.530776
0.0317359 -0.0379498 0.513263
-0.274444 0.188026 0.0675264
0.0918882 0.15551 0.530776
0.1751 -0.021446 0.475591
-0.0621659 -0.0631492 0.530776
0.165759 0.22231 0.530776
0.236484 0.0694413 0.513263
0.119245 0.174134 0.530776
0.20898 -0.0135272 0.496549
-0.148412 -0.117082 0.530776
0.279787 -0.242946 0.505894
-0.237135 0.162267 0.530776
0.21518 0.0147608 0.463463
-0.157832 0.0143116 0.513263
-0.195655 0.000362158 0.513263
0.28902 0.181879 0.530776
-0.184718 -0.0824133 0.530776
-0.0821269 0.213251 0.513263
0.162507 -0.0530118 0.530776
0.162008 -0.0102127 0.513263
0.025238 -0.165455 0.530776
-0.280794 -0.0500445 0.47035
0.275458 -0.0938785 0.279028
0.0717653 0.167476 0.530776
-0.279787 0.0851215 0.494952
0.280794 0.0162898 0.474409
-0.0662224 0.041448 0.530776
-0.0269772 -0.0381494 0.513263
0.0930004 0.241522 0.530776
-0.275384 -0.0815108 0.312353
-0.0663196 -0.0142635 0.513263
0.0849799 -0.0588124 0.513263
-0.276425 0.224501 0.530776
-0.0414983 0.148351 0.513263
-0.127462 -0.136264 0.513263
-0.279787 0.102007 0.492642
-0.0230303 0.259782 0.513263
0.303364 0.113347 0.513354
0.140075 0.00807071 0.499698
0.0696051 -0.235999 0.530776
0.00767389 -0.253942 0.513263
0.195868 -0.210737 0.513263
0.00934109 0.042169 0.513263
0.275809 -0.174895 0.129934
-0.0993223 -0.183152 0.513263
0.0821931 0.0194823 0.490542
-0.0887789 0.128644 0.513263
0.136989 -0.216447 0.530776
0.184134 -0.0530118 0.513263
-0.0481971 -0.0217109 0.482211
-0.0987214 -0.12673 0.495297
-0.280794 0.0331444 0.455031
0.0509083 0.201063 0.530776
-0.302094 0.241558 0.530776
-0.0431068 -0.00345299 0.530776
-0.254692 0.14496 0.530776
0.119975 -0.15291 0.530776
-0.284256 -0.110026 0.513263
0.259497 0.0751773 0.33794
0.115457 0.194747 0.513263
-0.118704 0.124684 0.530776
0.19405 -0.0295474 0.513263
-0.0977138 -0.100744 0.501192
0.0546324 0.112093 0.513263
-0.228719 -0.253308 0.513263
-0.279787 0.0293682 0.477851
0.0977138 0.0144128 0.483146
0.303364 -0.272949 0.529617
-0.0840016 0.245056 0.530776
0.0105026 0.0288726 0.530776
-0.201999 0.0421772 0.530776
0.196593 -0.138451 0.513263
-0.286446 -0.0482817 0.530776
0.174351 0.0121467 0.513263
-0.190927 0.0737844 0.530776
0.211723 0.0163297 0.530776
0.275296 -0.065768 0.351787
0.158504 0.0214202 0.475448
-0.129226 -0.250462 0.530776
-0.178756 0.0184786 0.491612
0.280794 0.117542 0.491402
-0.207903 0.194621 0.513263
0.0159265 0.119498 0.530776
-0.0880501 0.263175 0.513263
-0.279787 -0.0733885 0.466196
0.0138747 0.168642 0.530776
-0.252493 0.0545706 0.364453
-0.195311 0.262128 0.530776
0.0262568 0.129162 0.513263
0.155881 0.244623 0.513263
-0.26498 -0.0355777 0.43903
0.265322 0.0672757 0.368854
0.302425 -0.0115986 0.513263
0.255578 0.0756782 0.530776
-0.0293938 0.165463 0.530776
0.249409 -0.295871 0.529976
-0.256908 0.113036 0.243417
-0.0977138 -0.0523307 0.501622
0.148796 -0.248991 0.530776
0.29282 0.0963923 0.530776
0.272121 0.124199 0.256472
0.094893 -0.0169579 0.513245
0.145477 -0.223567 0.513263
0.202493 -0.0458369 0.530776
0.303364 -0.187421 0.529464
-0.232198 -0.0412156 0.513263
0.303364 0.20476 0.52378
-0.01026 -0.0220688 0.480877
0.266812 -0.0246337 0.467692
0.205877 -0.0217217 0.482148
-0.0735093 0.193144 0.513263
-0.0987214 -0.019669 0.485993
-0.25084 0.115955 0.513263
0.2668 0.295209 0.530776
-0.262203 -0.12161 0.21443
-0.270455 -0.203608 0.0753029
0.0509518 0.0142801 0.462972
0.272058 0.290808 0.513263
0.239233 -0.156825 0.513263
0.239317 -0.0381639 0.513263
-0.303364 0.110089 0.52799
-0.12357 0.0660841 0.513263
0.131148 -0.0126938 0.530776
-0.275055 0.20506 0.0356457
0.287423 -0.0814476 0.513263
0.274598 0.235457 0.00805932
-0.0215565 -0.0189514 0.530776
0.279787 0.0386917 0.471933
0.27538 0.260858 0.513263
-0.261855 0.0659594 0.321398
0.279787 0.0641968 0.500366
-0.0107727 -0.255136 0.513263
0.122394 -0.293665 0.513263
0.230575 -0.193433 0.513263
-0.0816432 0.053354 0.530776
-0.211112 -0.178202 0.530776
-0.263533 0.160509 0.513263
-0.00442842 0.205656 0.513263
0.263711 0.172339 0.114771
0.0130377 0.0527973 0.530776
0.199571 0.118881 0.513263
-0.259902 0.0340886 0.386181
-0.303364 0.00476804 0.529591
-0.0235744 -0.201032 0.513263
-0.26254 0.208218 0.530776
-0.0798306 -0.0701926 0.530776
0.196573 0.0199988 0.470173
-0.0940915 -0.0801362 0.530776
-0.25846 0.135363 0.196015
-0.127134 -0.231751 0.513263
-0.293081 0.170505 0.513263
-0.153903 0.181922 0.513263
0.0285742 -0.185229 0.513263
0.111528 -0.209045 0.530776
-0.280794 -0.103098 0.495398
-0.279787 -0.0967623 0.470665
-0.0575319 0.0680748 0.530776
-0.0608745 0.153676 0.530776
