0.300399 0.0732736 0.366008
-0.223381 -0.227138 0.366008
0.226493 0.198855 0.35321
0.226421 -0.147257 0.35321
-0.144478 0.209918 0.366008
-0.020028 0.191751 0.35321
0.332753 -0.0873996 0.314173
0.063427 -0.0814306 0.312771
0.0945106 -0.0718965 0.35321
0.14546 -0.0363348 0.366008
0.323369 0.0773261 0.366008
-0.114232 -0.0831985 0.366008
0.0618843 -0.210953 0.366008
-0.207057 -0.217639 0.366008
-0.277244 -0.196276 0.366008
-0.132724 -0.0718444 0.308247
-0.0436061 -0.0455853 0.299462
0.0365929 -0.214364 0.366008
0.373387 0.00696179 0.35321
0.0811827 0.0629036 0.35321
0.0719347 -0.212756 0.35321
0.155597 0.0136447 0.35321
-0.095098 -0.139966 0.366008
0.229071 0.0120111 0.35321
0.246641 -0.0739544 0.366008
-0.249204 -0.249516 0.366008
-0.0981085 0.0456188 0.35321
-0.267534 -0.045163 0.35321
0.132237 -0.0792477 0.311741
-0.141517 -0.0592278 0.35321
-0.330098 -0.25595 0.362535
0.200604 -0.000786096 0.35321
0.295173 0.226019 0.366008
0.16679 0.0792484 0.310326
0.332476 0.217818 0.366008
0.203212 0.0200554 0.299462
0.0195045 0.0618465 0.35321
-0.118575 -0.233016 0.366008
0.222102 -0.095039 0.317778
0.030706 -0.13055 0.334946
-0.269688 -0.0482181 0.35321
-0.21423 0.0880635 0.314486
-0.341508 0.243851 0.366008
0.151103 9.54419e-06 0.299462
-0.352633 -0.0811679 0.366008
0.313781 -0.0244998 0.366008
0.218946 -0.0863994 0.315117
-0.294676 0.128466 0.0784842
0.0340552 -0.0237706 0.366008
0.263699 0.139077 0.352934
-0.179437 0.109331 0.32594
-0.199321 -0.0913387 0.317448
-0.252334 -0.209376 0.35321
0.205402 -0.00767736 0.300741
-0.178083 -0.0252525 0.366008
0.212417 0.0236453 0.35321
-0.139743 0.0470291 0.299462
0.0349686 0.0384322 0.300741
0.265966 -0.121244 0.35321
0.290281 0.129898 0.158975
0.161691 -0.13055 0.339113
0.0321954 -0.000872958 0.300741
-0.291444 -0.131591 0.067477
-0.0979659 0.122856 0.332323
0.244385 -0.253612 0.366008
0.158342 -0.101217 0.35321
-0.265116 -0.113787 0.326626
-0.0865222 0.161623 0.35321
-0.257066 0.114914 0.328574
0.334807 0.0190643 0.299462
-0.16417 -0.192204 0.366008
-0.224425 -0.25595 0.36439
0.298647 0.011782 0.300741
-0.00706169 0.0336263 0.366008
-0.128597 0.205774 0.366008
0.125142 0.0650794 0.35321
-0.345838 0.0605337 0.366008
-0.355766 0.01136 0.35321
0.363376 0.202787 0.35321
0.353815 -0.13964 0.366008
0.202896 0.0313947 0.366008
-0.095611 0.127345 0.35321
0.109788 -0.0712814 0.306567
0.0744686 0.18801 0.366008
0.220196 0.134129 0.352934
-0.0131822 0.0816097 0.312856
0.124737 -0.127204 0.334375
0.393139 -0.244529 0.35543
-0.310261 0.102378 0.297573
0.161491 0.0659789 0.35321
-0.274717 -0.151422 0.366008
-0.318779 0.105139 0.323961
0.0658866 0.179325 0.366008
-0.0174615 -0.1201 0.329605
0.374752 -0.0112386 0.35321
0.119041 0.10761 0.366008
0.371338 -0.127688 0.366008
-0.0854201 0.166801 0.366008
0.252667 -0.0189048 0.299462
0.0572847 0.0379054 0.300741
-0.115271 -0.130158 0.334352
0.194746 -0.127163 0.332939
-0.125338 0.197025 0.366008
-0.23997 -0.0958094 0.319558
-0.309513 0.100877 0.286747
0.194082 0.0970169 0.318712
0.0494562 0.140388 0.351654
-0.232762 -0.00302562 0.35321
-0.318702 0.0788552 0.311556
0.00997201 0.0351174 0.366008
0.097582 -0.0907593 0.366008
0.255925 0.0612635 0.35321
-0.0583344 0.0189969 0.366008
0.084297 0.0116304 0.300741
-0.253147 -0.100035 0.321552
0.144656 0.13066 0.35321
0.313783 0.114451 0.326939
-0.0397511 -0.0661192 0.30413
0.236941 -0.130837 0.351654
0.30112 0.230807 0.35321
0.157639 0.0939846 0.35321
-0.318204 -0.169953 0.35321
-0.259891 0.101755 0.366008
-0.253366 0.246669 0.35321
0.205557 -0.212946 0.35321
-0.0365275 0.025029 0.299462
0.331044 -0.15962 0.35321
-0.304024 -0.216417 0.35321
-0.227274 0.158512 0.35321
-0.166364 -0.0669251 0.35321
-0.250243 0.0146954 0.299462
0.131281 -0.243578 0.366008
-0.172392 0.171384 0.35321
-0.260217 -0.13055 0.343001
0.122083 -0.0811111 0.366008
-0.300553 -0.116197 0.257013
-0.148104 -0.12927 0.344794
0.291901 -0.136793 0.0361825
0.343444 -0.0539588 0.300741
0.185998 0.0083618 0.300741
-0.0271617 0.0801452 0.366008
-0.13823 0.100325 0.320273
-0.162195 0.0907452 0.366008
0.13207 -0.0937481 0.318585
-0.239294 0.10867 0.324211
-0.115598 0.155526 0.366008
-0.0289539 0.0204541 0.299462
0.303461 0.208174 0.366008
0.362632 -0.245066 0.35321
0.293227 0.25595 0.362705
0.126603 0.224916 0.366008
-0.129404 0.0439481 0.300741
-0.0468668 -0.0254881 0.300741
0.0615676 -0.0587737 0.366008
-0.201251 0.177252 0.35321
-0.237981 -0.131164 0.35321
0.150479 0.143375 0.366008
-0.0794845 -0.227866 0.366008
-0.367117 -0.0308449 0.35321
0.0351799 -0.0982543 0.319296
-0.251758 -0.0316764 0.35321
0.154145 0.0860525 0.313537
0.108113 0.167936 0.35321
-0.24328 0.0162295 0.300741
0.337223 -0.209727 0.366008
0.14293 0.00777205 0.299462
-0.290793 -0.133461 0.143882
0.0610982 0.0269594 0.300741
-0.206209 0.0626537 0.35321
-0.384902 0.241191 0.35321
0.307425 0.0561956 0.299462
0.227739 0.18042 0.366008
0.181598 -0.0557885 0.366008
0.192655 0.187317 0.366008
0.00649369 0.0616785 0.366008
0.22401 -0.00841958 0.299462
-0.260333 -0.0483448 0.300741
0.0936307 -0.0695799 0.366008
0.114386 -0.0909944 0.317285
0.115618 0.0619569 0.303581
0.340541 0.0351849 0.366008
-0.0303867 -0.0357312 0.35321
-0.190659 -0.105859 0.35321
-0.0703653 0.0523505 0.300741
0.129541 -0.246459 0.366008
0.128519 0.170561 0.366008
0.18128 0.167858 0.35321
-0.0788647 -0.195448 0.366008
0.123396 -0.144681 0.366008
0.234522 0.0940017 0.317289
0.308403 0.14513 0.35321
0.105741 0.0747029 0.308181
-0.109756 -0.121276 0.331577
0.389255 -0.0549806 0.366008
0.159517 -0.0650555 0.366008
0.254828 -0.0410396 0.300741
0.14475 -0.0959756 0.319636
0.173831 -0.146704 0.366008
0.134271 -0.125879 0.366008
0.0618861 -0.0277707 0.366008
-0.197915 0.0832606 0.313635
-0.0799609 -0.12927 0.350923
-0.147821 -0.218218 0.35321
0.325675 0.0709073 0.366008
0.30877 0.112455 0.234473
0.157351 0.0621973 0.35321
0.00373074 -0.015142 0.300741
0.0679866 0.25155 0.366008
0.15221 -0.164555 0.366008
0.364058 -0.0784933 0.366008
0.179446 0.144047 0.366008
0.0360091 -0.11643 0.327873
0.115768 -0.138875 0.351654
-0.152997 0.0260139 0.366008
-0.291906 -0.151205 0.0389984
0.255884 0.119302 0.366008
-0.13363 -0.0317822 0.366008
0.263123 -0.126261 0.366008
0.275283 -0.00675734 0.300741
-0.105655 0.117921 0.328577
0.300287 0.121173 0.227152
0.046106 0.0238195 0.300741
-0.125952 -0.0923925 0.316529
-0.278819 -0.0564221 0.35321
0.356531 0.0612561 0.366008
-0.295797 0.17106 0.366008
0.0843856 0.0403659 0.299462
-0.337312 0.24972 0.35321
0.143744 -0.243951 0.35321
0.0175714 -0.0260306 0.35321
0.290571 -0.130852 0.133285
-0.0216685 -0.00279875 0.299462
-0.288636 0.0969572 0.263562
0.223443 -0.0390366 0.299462
0.329968 -0.101153 0.320664
0.0257035 0.0191325 0.35321
0.204 -0.0612186 0.303232
0.0623329 -0.100462 0.320338
0.222875 -0.0972397 0.318817
-0.0743752 0.0835236 0.366008
-0.0612097 0.212557 0.35321
0.223845 0.161356 0.366008
0.0185753 -0.229878 0.366008
-0.101152 -0.101634 0.320891
0.0164517 0.0898254 0.35321
-0.144912 -0.0473743 0.366008
0.180359 -0.12734 0.333022
0.159522 -0.021128 0.366008
0.00705057 0.0808259 0.366008
-0.0438463 0.0812589 0.31269
-0.314781 0.17674 0.366008
-0.0499581 0.12927 0.340733
-0.121346 0.119136 0.35321
-0.341382 -0.13055 0.34216
-0.302079 0.10019 0.224446
-0.0876107 0.230597 0.35321
-0.0177616 -0.0872364 0.35321
-0.14268 0.12927 0.344815
0.340505 0.0322011 0.35321
-0.335434 -0.0549267 0.299462
-0.00517905 -0.0425997 0.366008
0.333611 0.10246 0.366008
-0.0955043 0.0812289 0.311261
0.304307 0.143465 0.0933785
-0.393139 -0.20449 0.359902
0.172572 -0.0728086 0.366008
0.117837 -0.0954517 0.317973
-0.0461463 0.151758 0.366008
0.133077 0.13055 0.340402
0.390146 0.212816 0.35321
0.305975 0.143674 0.0898946
-0.157643 -0.117478 0.329785
0.333183 0.0173914 0.366008
0.212991 0.128037 0.35321
-0.312944 -0.106369 0.366008
0.319107 -0.0294884 0.299462
0.255353 0.12927 0.34133
0.183868 -0.0263787 0.300741
-0.317972 0.0436759 0.300741
0.18778 -0.0762244 0.308899
-0.289919 -0.124031 0.183945
-0.384425 -0.0272433 0.366008
0.018328 -0.0519437 0.300741
0.300721 0.0187835 0.299462
-0.361743 -0.128587 0.366008
0.362064 -0.213966 0.366008
-0.306995 -0.128592 0.178518
-0.308013 -0.204612 0.35321
0.11479 -0.122604 0.332204
0.295465 0.11831 0.244331
0.0374347 -0.0881494 0.314527
0.13063 -0.0244466 0.300741
0.0230388 0.0349681 0.35321
-0.078364 -0.0266654 0.35321
-0.331545 -0.10591 0.35321
0.251268 -0.152031 0.35321
0.328414 0.0737621 0.307737
-0.183997 -0.13055 0.349668
-0.201685 0.235021 0.366008
0.0519286 -0.212059 0.366008
-0.196232 -0.0803818 0.366008
0.0441858 -0.193184 0.366008
0.338162 -0.181596 0.366008
0.0458959 -0.0526071 0.300741
-0.328925 -0.0997128 0.319984
0.163914 -0.0180184 0.366008
-0.293603 -0.11489 0.366008
0.0625766 0.0302502 0.35321
0.292709 0.118781 0.326541
0.099167 0.0856782 0.314776
0.242118 0.238185 0.35321
-0.270115 0.12927 0.346332
-0.115912 0.0951219 0.366008
-0.287824 -0.0963652 0.293085
-0.261944 0.0902427 0.35321
-0.240748 -0.00891079 0.35321
-0.218904 0.105288 0.324032
0.256462 -0.00336316 0.366008
0.302635 -0.233484 0.366008
0.0762513 -0.12927 0.352121
-0.0743271 -0.0104467 0.300741
-0.0674805 0.213516 0.35321
-0.239825 -0.147358 0.366008
0.357979 -0.0504116 0.366008
-0.308091 0.208384 0.366008
0.114509 0.0393065 0.366008
-0.101721 -0.25595 0.357723
-0.0145563 -0.0367953 0.35321
-0.368521 -0.0801636 0.35321
-0.218895 -0.148019 0.366008
-0.0587998 0.133145 0.366008
-0.0685577 0.121754 0.330386
0.311016 0.0210974 0.366008
0.30572 0.128965 0.0759084
0.206123 0.103274 0.321665
-0.0513463 -0.150837 0.35321
-0.119795 -0.0975712 0.318973
0.284875 -0.13055 0.337991
0.0813425 -0.0753875 0.366008
0.301557 0.146375 0.0759173
-0.100223 -0.000609681 0.299462
0.184394 -0.0235904 0.300741
0.365935 -0.0211992 0.366008
-0.0441735 -0.0302629 0.299462
-0.197993 0.0138922 0.366008
-0.08855 -0.111648 0.327033
-0.0677108 0.0579955 0.366008
0.116082 0.105306 0.322624
0.266182 0.0534619 0.300741
-0.304078 0.0402551 0.35321
0.0117639 0.135625 0.35321
-0.239467 0.17561 0.35321
0.180023 -0.0137673 0.299462
-0.0350787 -0.253558 0.366008
0.304005 0.231125 0.366008
0.256273 0.0698607 0.366008
-0.328727 0.156546 0.35321
0.167489 -0.18831 0.366008
0.21637 0.0511138 0.299462
0.120166 -0.0485634 0.300741
0.153014 0.0817111 0.312904
0.324305 -0.255069 0.35321
0.309352 -0.095545 0.263665
0.140763 -0.0433351 0.366008
0.258903 0.139059 0.351654
-0.263835 -0.13055 0.342585
0.301081 -0.141059 0.107818
-0.294982 0.134835 0.145169
0.319772 0.138061 0.366008
0.119942 -0.128233 0.35321
-0.184313 -0.0667547 0.366008
-0.0652229 0.105724 0.324237
0.331533 -0.132328 0.351654
-0.259223 0.167932 0.366008
-0.118458 -0.10736 0.35321
0.252677 0.193826 0.366008
-0.390266 -0.110001 0.366008
-0.180673 0.0650537 0.305042
0.292536 -0.0288967 0.300741
0.0959469 0.00107032 0.300741
-0.0873365 -0.153631 0.366008
-0.0950349 0.097267 0.320246
-0.300229 0.21684 0.366008
0.332601 -0.0891315 0.316406
-0.372438 0.107854 0.35321
-0.203452 0.0874743 0.35321
-0.00384161 0.0492873 0.300741
-0.243043 -0.0838591 0.35321
-0.242691 0.107099 0.32347
-0.392722 -0.0636135 0.35321
0.218415 0.0842584 0.312691
0.0719917 -0.225377 0.366008
0.147659 -0.0999385 0.366008
-0.214687 -0.129761 0.352934
0.19667 -0.141187 0.352066
0.222079 -0.133189 0.351654
0.101814 0.115522 0.366008
0.0493742 0.221836 0.35321
-0.152987 0.133352 0.352934
0.0160614 0.248263 0.366008
-0.219821 0.208732 0.366008
0.101414 -0.0422266 0.299462
0.135983 -0.205044 0.35321
0.308359 0.111356 0.194465
0.0150404 0.0667398 0.305838
-0.360772 0.173126 0.366008
0.293732 0.187551 0.35321
-0.157029 -0.136226 0.366008
0.119739 -0.0794806 0.310436
0.104642 0.226328 0.35321
-0.0166516 -0.234602 0.35321
-0.231396 0.166054 0.366008
-0.291025 -0.0970265 0.35321
0.274854 -0.139693 0.351654
0.350187 0.0339602 0.366008
-0.387925 -0.00667311 0.366008
-0.304549 0.0325199 0.366008
-0.24058 0.129711 0.352934
-0.0268008 -0.0718675 0.306843
-0.393095 0.00454538 0.366008
-0.283643 0.200847 0.35321
0.343925 -0.0597684 0.301133
-0.0938412 0.229834 0.366008
0.0117552 0.0730757 0.308828
-0.18327 -0.123968 0.332848
-0.293956 0.219762 0.366008
0.393139 0.132055 0.354788
0.256468 -0.0108614 0.35321
0.0795573 0.0608365 0.366008
0.249051 0.0972957 0.318843
-0.302575 0.122977 0.216327
0.292624 0.109476 0.324592
-0.0111533 0.204011 0.366008
-0.124208 -0.236969 0.366008
-0.360331 -0.0169733 0.366008
0.0890256 -0.19384 0.35321
0.342432 -0.132204 0.352934
-0.125636 0.0565406 0.35321
-0.246452 -0.192264 0.366008
-0.249886 0.13055 0.349637
0.259677 -0.156322 0.366008
0.226937 0.202954 0.35321
0.0230871 0.0561874 0.299462
-0.151899 0.142301 0.366008
0.025894 -0.25595 0.355403
-0.0304518 0.206113 0.35321
-0.282119 0.25595 0.362123
0.122562 0.0751004 0.308369
0.0846168 -0.190932 0.366008
0.269346 0.1771 0.35321
-0.393139 0.162626 0.365414
-0.0619445 0.0643953 0.304731
0.0700189 0.141266 0.366008
0.305595 0.0430365 0.366008
0.128163 -0.13055 0.349893
0.254703 -0.0256794 0.366008
0.309298 -0.0611169 0.303184
0.259221 -0.00808436 0.35321
0.00131002 -0.127193 0.332953
-0.0534636 -0.0642928 0.366008
0.115182 -0.178266 0.366008
0.151625 0.107801 0.323801
-0.20985 -0.122199 0.366008
0.0440656 0.201101 0.35321
0.222973 -0.106229 0.366008
0.204729 -0.114297 0.326867
0.235446 -0.0818188 0.366008
-0.141414 -0.0116758 0.35321
-0.160606 0.0901682 0.316895
-0.197716 0.191451 0.35321
-0.0604319 -0.169504 0.35321
-0.0876515 0.0126493 0.366008
0.00990781 -0.115357 0.327367
0.311727 0.113453 0.366008
-0.113968 -0.182966 0.366008
-0.103253 0.0082995 0.299462
0.19283 0.0922545 0.35321
-0.0311853 0.170642 0.366008
-0.0052247 0.210532 0.366008
-0.225 0.0684448 0.305228
-0.11173 -0.015713 0.300741
-0.196874 -0.185123 0.35321
0.00268793 -0.038046 0.366008
-0.315534 0.0240911 0.366008
0.101481 0.25595 0.365047
0.155537 0.0362271 0.299462
0.0715463 0.0877039 0.35321
0.24622 0.0465606 0.35321
-0.193557 0.136722 0.35321
0.320197 0.0544771 0.366008
-0.111807 0.0117881 0.299462
0.325801 0.105143 0.323963
-0.00492036 -0.11619 0.366008
0.340207 0.151529 0.35321
0.23859 0.210289 0.35321
0.0696775 0.247633 0.366008
-0.143831 0.057031 0.301256
0.276923 -0.173678 0.366008
-0.149582 0.119254 0.330623
0.309179 -0.104655 0.26101
-0.0742553 0.0459192 0.366008
0.289301 -0.215437 0.35321
0.0335598 0.187411 0.35321
0.231842 -0.0118493 0.366008
0.178146 -0.120062 0.35321
-0.090839 0.200643 0.366008
0.370947 0.0277992 0.35321
0.325196 0.0766871 0.309118
-0.0865021 -0.111463 0.366008
-0.3681 -0.138635 0.366008
0.289454 -0.111341 0.20863
-0.185053 -0.193648 0.35321
-0.295962 0.156365 0.0159675
-0.38802 -0.174544 0.366008
0.19494 -0.0708947 0.35321
0.00244424 0.0559329 0.299462
0.00474069 -0.0784738 0.309961
0.105573 0.139672 0.366008
0.0824147 0.0334921 0.299462
0.301822 -0.127528 0.333111
-0.133434 -0.0647826 0.3035
-0.104484 0.255424 0.366008
-0.0901044 0.101285 0.322142
0.258686 0.234843 0.366008
-0.271669 0.244159 0.35321
-0.12978 0.186065 0.35321
0.137234 -0.149078 0.366008
0.0162995 0.224829 0.366008
0.287794 -0.204107 0.35321
-0.295261 -0.118033 0.245994
-0.213955 -0.185336 0.366008
-0.2789 0.0987388 0.319524
0.321208 -0.00988802 0.366008
-0.106061 0.0167126 0.299462
0.0859745 0.138146 0.35321
0.0735145 -0.220729 0.366008
-0.385353 0.251495 0.366008
-0.315721 -0.199997 0.35321
0.145413 -0.122693 0.330829
0.214425 -0.254252 0.366008
-0.0987948 -0.0243945 0.300741
0.313332 -0.110382 0.31138
0.0141411 0.0517949 0.300741
-0.231846 -0.243278 0.366008
-0.299781 -0.135417 0.0426014
0.0422967 0.0884668 0.314677
-0.129379 0.0880087 0.315876
0.0441998 0.185003 0.366008
0.166292 0.218872 0.366008
-0.241338 0.0111778 0.35321
0.182689 0.13055 0.345747
0.344921 0.0179589 0.299462
0.109881 -0.0602515 0.35321
0.304008 -0.109998 0.298767
-0.249342 0.0373356 0.35321
0.32098 0.253003 0.366008
0.1876 -0.0778013 0.35321
0.114739 -0.016932 0.366008
-0.0218481 -0.207615 0.366008
-0.0882612 -0.136564 0.352934
-0.188635 -0.0246252 0.35321
0.0983225 -0.0358939 0.299462
0.267796 0.161224 0.35321
-0.0947007 0.056381 0.300949
-0.334369 -0.140279 0.366008
0.159415 -0.152923 0.366008
0.344987 0.0916663 0.35321
-0.0320629 -0.0386251 0.299462
-0.138664 0.0888363 0.35321
-0.248784 0.0756879 0.310061
0.199465 -0.0652049 0.35321
-0.232107 0.0223128 0.366008
0.318619 -0.0583736 0.301889
-0.0125766 -0.196138 0.35321
0.0149432 0.100393 0.320305
-0.281289 0.0510545 0.299462
0.320617 0.0661699 0.304154
0.23327 -0.0289144 0.35321
0.224182 0.08071 0.312431
0.133621 -0.0291636 0.366008
0.235866 0.201752 0.35321
0.185998 0.13055 0.347704
-0.129411 -0.107476 0.325064
0.306449 -0.139795 0.0626987
-0.301616 0.142466 0.0993734
-0.069702 -0.00733855 0.299462
-0.22089 -0.0486887 0.35321
-0.175466 0.185831 0.366008
0.172746 -0.173595 0.366008
0.0162219 0.0837096 0.313847
-0.303101 0.154186 0.35321
-0.0445968 0.235221 0.35321
0.288887 -0.098156 0.242704
0.226326 0.0402381 0.366008
-0.292532 0.0384217 0.299462
-0.101907 -0.00919599 0.300741
-0.114102 0.18512 0.366008
-0.0685948 0.147235 0.35321
0.0644126 0.135205 0.352934
0.0538996 0.103661 0.323264
-0.38556 0.183808 0.35321
-0.0412136 -0.0252919 0.366008
-0.0182179 0.0365944 0.366008
-0.260638 -0.0242332 0.299462
0.295236 0.0832881 0.299856
-0.163545 -0.173986 0.366008
0.176872 0.13055 0.347185
-0.328711 -0.0831992 0.35321
-0.032307 -0.25595 0.359559
-0.200259 0.0643104 0.35321
-0.302397 0.135604 0.0416349
-0.166238 -0.12927 0.340511
0.0477164 0.0383947 0.299462
0.331679 0.0705155 0.306205
-0.297302 -0.0481149 0.366008
0.045831 -0.19468 0.35321
-0.109606 0.0903388 0.316976
0.0132152 0.0664246 0.366008
0.190993 -0.0325519 0.366008
-0.155488 0.0185743 0.366008
0.312628 -0.0123076 0.366008
0.077092 0.0600543 0.366008
-0.32629 -0.0889942 0.366008
-0.249853 0.0445835 0.299462
-0.191951 -0.142495 0.35321
-0.254894 -0.227138 0.366008
0.0226946 0.113891 0.326675
-0.174422 -0.10286 0.35321
-0.207443 -0.254419 0.35321
0.121518 -0.149621 0.366008
-0.330673 0.063673 0.366008
0.240679 -0.0169403 0.35321
-0.128029 0.034389 0.300741
0.288537 0.102727 0.281557
0.0600343 0.0368818 0.300741
-0.143165 -0.220104 0.366008
0.218201 0.234688 0.35321
-0.274718 -0.13809 0.351654
0.261 -0.104377 0.35321
0.189089 -0.0531867 0.35321
0.00639671 -0.163569 0.35321
-0.213332 -0.0494579 0.300741
-0.218523 0.193242 0.35321
0.32283 0.10945 0.32458
-0.0124796 0.0712225 0.307954
0.317746 -0.133515 0.352934
0.0993442 -0.248034 0.35321
-0.0401585 -0.0340573 0.300741
0.13656 0.157548 0.35321
-0.153687 -0.00315468 0.300741
-0.178142 -0.109717 0.35321
0.288339 -0.134801 0.35321
-0.123433 -0.102929 0.366008
-0.204782 -0.0503599 0.300741
-0.307464 0.00498012 0.35321
0.143136 -0.147386 0.35321
0.0663892 0.0483399 0.366008
0.320906 0.151919 0.35321
0.269548 0.187681 0.35321
0.103926 -0.0309201 0.35321
-0.257903 0.0612169 0.303231
0.361087 -0.218076 0.366008
0.393139 -0.0968743 0.359982
-0.298335 -0.140176 0.351654
0.254686 -0.00317171 0.35321
0.325756 0.104343 0.323585
-0.0710633 0.0846571 0.314294
-0.215731 -0.118201 0.328709
-0.231198 -0.061184 0.303216
0.136647 0.10365 0.35321
0.199332 0.0147101 0.299462
0.24949 -0.198945 0.35321
-0.113317 -0.0367682 0.366008
-0.361001 0.210269 0.35321
0.147048 -0.13055 0.342265
0.0275464 0.0168394 0.300741
-0.0508519 -0.1046 0.35321
-0.333849 -0.113525 0.326503
-0.309504 0.0935459 0.275047
0.0055539 -0.255729 0.35321
0.296494 -0.0900782 0.35321
-0.135788 -0.201897 0.35321
0.0667755 0.209104 0.366008
0.204334 0.0263231 0.35321
-0.221291 0.25203 0.35321
0.203083 -0.100098 0.320166
-0.156097 -0.129292 0.366008
-0.110697 0.251788 0.366008
-0.356886 -0.11592 0.366008
0.302904 -0.0382033 0.300741
-0.289257 0.245979 0.35321
0.00659412 -0.0679948 0.305016
-0.201012 -0.12927 0.347315
-0.389139 -0.233652 0.35321
-0.0911602 0.12927 0.337831
-0.161827 -0.0117772 0.366008
0.184496 -0.0872006 0.35321
-0.136591 0.144301 0.366008
-0.258134 0.174731 0.366008
-0.126235 -0.111503 0.326965
-0.312468 0.188302 0.366008
0.281032 0.12232 0.330653
0.31886 0.13055 0.340427
0.283999 0.124416 0.35321
0.218473 -0.0625867 0.366008
0.335196 -0.0885666 0.35321
0.383272 0.237813 0.366008
-0.253232 -0.168507 0.366008
0.133901 0.00976366 0.35321
0.21351 -0.0983021 0.366008
0.313995 0.139465 0.351654
-0.0639256 0.038642 0.366008
-0.33299 0.220192 0.35321
0.246661 -0.242714 0.366008
-0.151297 -0.239977 0.366008
0.335643 -0.0787095 0.35321
0.111393 -0.251056 0.35321
-0.120832 -0.0424106 0.366008
0.172888 -0.252262 0.35321
-0.299328 -0.254844 0.35321
0.197732 -0.04393 0.300741
-0.0248247 0.251956 0.35321
0.228944 0.0427918 0.300741
0.299292 -0.166595 0.35321
-0.0987451 -0.063497 0.302893
0.261733 0.236907 0.366008
0.00825775 0.25595 0.365277
0.137111 0.241049 0.35321
-0.0326246 0.123427 0.332592
-0.107514 -0.160147 0.366008
0.273993 0.213259 0.35321
-0.0404502 -0.119426 0.329287
0.180559 0.0536068 0.300741
-0.173941 -0.110262 0.35321
0.307449 0.0074161 0.35321
-0.0151803 -0.0887753 0.366008
0.199199 0.00274433 0.300741
0.0675027 -0.222051 0.366008
-0.0246914 -0.219682 0.366008
-0.34058 -0.196195 0.366008
0.192274 -0.0799432 0.35321
-0.162569 -0.11445 0.328355
-0.142427 -0.188458 0.35321
-0.340063 -0.0552803 0.35321
-0.178108 -0.0331526 0.300741
0.305712 0.145414 0.0121778
-0.117832 0.0401097 0.300741
-0.00653407 -0.0155765 0.366008
0.294513 -0.0700669 0.307408
0.0346635 -0.0726529 0.307214
0.0559291 -0.0904316 0.366008
-0.0453203 0.0823842 0.35321
-0.190435 0.101479 0.320817
-0.217739 -0.118539 0.35321
0.00931826 -0.0889904 0.314924
-0.266831 -0.126523 0.332637
0.244087 0.000837117 0.366008
0.283718 0.0237488 0.299462
-0.0840747 -0.0877686 0.366008
0.305292 -0.124645 0.366008
-0.221591 0.12927 0.335441
-0.27191 0.0969498 0.320096
-0.307444 0.129121 0.135514
0.211844 -0.0202072 0.300741
-0.110827 0.0310458 0.299462
0.181181 -0.235081 0.366008
0.175961 -0.206095 0.35321
0.0688665 0.0186907 0.299462
0.26198 -0.234684 0.366008
-0.194603 -0.189758 0.35321
0.304123 -0.115918 0.258686
0.160782 -0.255754 0.366008
0.0551861 -0.147954 0.35321
0.28903 0.0663251 0.305642
-0.348111 -0.126882 0.35321
-0.343338 0.128398 0.366008
0.0321056 -0.152949 0.35321
0.105507 0.0879068 0.315828
0.184298 0.0849825 0.366008
0.305224 -0.119757 0.123439
-0.286948 -0.111732 0.308289
-0.318828 0.0876388 0.315702
0.294122 -0.118512 0.243118
0.325038 -0.0665149 0.305732
0.144538 0.0478328 0.35321
0.327368 -0.0427992 0.300741
0.109882 0.150279 0.366008
-0.00259402 -0.0272742 0.299462
-0.235921 -0.00966392 0.366008
0.375524 0.233625 0.35321
0.33523 0.0284476 0.299462
0.331104 -0.0697295 0.307249
0.291353 0.108527 0.181408
0.225387 -0.252404 0.366008
-0.108379 0.113337 0.35321
0.308223 0.1053 0.322621
-0.225025 0.00729964 0.299462
-0.158283 0.0295334 0.366008
-0.186525 -0.0297457 0.35321
-0.362589 -0.0338574 0.35321
-0.375857 0.0874752 0.35321
0.13953 -0.172185 0.366008
0.393139 0.100023 0.359751
-0.0141864 0.236313 0.366008
-0.0382959 0.084986 0.313034
-0.237118 -0.131477 0.35321
0.268937 0.0858461 0.366008
0.178244 -0.193145 0.366008
0.266535 -0.128404 0.35321
0.0463024 -0.0233756 0.366008
0.202171 -0.0835963 0.366008
-0.291109 -0.140256 0.0969266
-0.0930566 0.120058 0.35321
0.273564 0.214127 0.366008
0.217376 -0.112706 0.327532
-0.174481 0.12927 0.335807
-0.109466 0.110266 0.326381
0.392018 0.189769 0.35321
0.393139 -0.116769 0.356029
-0.288401 0.129021 0.35321
0.156389 0.0996606 0.321375
-0.106237 0.025531 0.300741
0.28452 0.122045 0.33194
0.303903 -0.12927 0.352392
-0.305866 -0.212435 0.366008
-0.384608 0.107528 0.366008
0.263017 0.186757 0.35321
0.227122 -0.035078 0.35321
-0.361231 0.231162 0.366008
-0.0738072 0.0287276 0.299462
-0.0587536 0.184552 0.35321
-0.316874 0.0364642 0.35321
-0.300456 -0.0960452 0.35321
-0.299389 -0.227138 0.366008
0.299832 0.108999 0.325783
0.331736 0.252933 0.366008
-0.0318215 0.02911 0.35321
-0.066689 0.248252 0.35321
0.316615 0.121718 0.35321
-0.0656931 -0.208634 0.366008
-0.173572 0.165623 0.366008
0.345228 0.15871 0.35321
0.118738 0.128816 0.366008
-0.297182 0.0291169 0.35321
0.26755 0.196485 0.35321
0.178517 -0.139455 0.366008
0.214894 0.0534482 0.35321
-0.18284 0.197814 0.35321
-0.114319 0.25349 0.366008
-0.00119746 0.169187 0.35321
-0.235632 -0.216434 0.35321
-0.260246 -0.0179908 0.299462
-0.0572958 -0.0731294 0.308854
0.239834 0.224409 0.35321
-0.345005 0.0133025 0.35321
-0.307618 -0.126741 0.183288
0.179452 -0.141607 0.35321
0.00161287 0.218473 0.35321
0.136229 0.0968755 0.318645
-0.296809 -0.150977 0.35321
-0.266754 -0.0117999 0.35321
0.0452958 0.159714 0.35321
0.122719 -0.108994 0.32578
0.304356 0.155775 0.0195078
-0.0592865 0.0885648 0.316139
0.254883 -0.158898 0.366008
-0.162646 0.0162286 0.300741
-0.185218 -0.0688385 0.35321
0.0247807 -0.0602422 0.302771
-0.195103 0.130148 0.35321
0.288441 0.105554 0.294783
0.209092 -0.250437 0.366008
0.299964 -0.110536 0.300847
0.0849941 -0.192191 0.366008
0.0227359 0.00736719 0.35321
-0.291851 -0.0939636 0.256587
-0.174935 0.0874635 0.366008
0.306314 -0.14615 0.0552108
0.208466 0.106115 0.323005
0.146865 -0.0225502 0.300741
-0.0591636 0.0628715 0.302598
0.312633 0.0919244 0.35321
0.0769693 -0.0957017 0.318091
0.0728244 0.0227391 0.299462
0.0372721 0.242869 0.366008
-0.224998 -0.140044 0.35321
0.182081 0.119915 0.329518
0.106437 0.0354388 0.299462
0.0410136 0.0886855 0.35321
-0.352528 0.188026 0.366008
-0.25658 -0.174024 0.366008
-0.299212 -0.125124 0.203439
-0.291537 0.134266 0.147246
-0.137094 0.028896 0.366008
0.179819 -0.107403 0.323613
0.308064 0.120578 0.180561
0.240587 0.00847394 0.300741
0.229343 -0.176742 0.366008
0.34955 -0.0379046 0.366008
-0.0310112 0.098765 0.35321
-0.235763 0.182638 0.366008
0.191159 0.208983 0.366008
0.0431457 0.224509 0.35321
-0.150296 -0.100482 0.321763
0.306564 -0.111097 0.303015
0.176588 0.190801 0.35321
0.382896 0.075431 0.35321
-0.328465 -0.246157 0.366008
0.306376 0.0817767 0.31152
-0.370093 -0.193979 0.366008
-0.318643 0.160804 0.35321
0.13285 -0.0871471 0.35321
-0.392639 -0.247723 0.361542
0.137575 -0.213299 0.366008
-0.331379 0.172688 0.366008
-0.130281 0.0398379 0.299462
0.0802136 0.0529574 0.35321
-0.200466 0.199632 0.366008
0.256098 0.0317199 0.366008
-0.290222 -0.0807241 0.312438
-0.260131 0.157419 0.35321
-0.332203 -0.104608 0.322294
0.271109 0.100192 0.366008
-0.00292701 0.193548 0.35321
-0.385148 -0.176154 0.35321
0.201134 -0.13055 0.349613
-0.323859 -0.25595 0.361269
0.298224 0.0735351 0.30763
0.253949 0.134979 0.351654
-0.28396 0.0419684 0.35321
0.180269 0.24121 0.366008
0.232054 0.242611 0.366008
-0.308251 -0.0563684 0.299529
0.351787 0.237333 0.35321
0.35184 -0.0487483 0.35321
-0.290433 -0.113612 0.312735
-0.0587046 0.14788 0.366008
0.251603 -0.0533303 0.300741
0.117053 -0.24317 0.35321
0.112344 -0.154212 0.366008
0.102941 -0.0710936 0.307893
-0.307158 -0.124903 0.331872
0.306189 0.22069 0.35321
0.393139 -0.129213 0.362367
-0.0800774 0.142813 0.35321
-0.29274 0.0990045 0.230566
0.388234 0.0659706 0.366008
-0.368939 0.130354 0.35321
0.124417 -0.108564 0.35321
-0.0962317 0.171562 0.35321
-0.295267 0.11211 0.162914
0.0668937 -0.25595 0.356491
-0.341978 0.122669 0.366008
0.263045 -0.124175 0.35321
0.130801 -0.245332 0.35321
0.112649 0.150149 0.366008
-0.239286 0.141805 0.366008
0.294501 -0.131432 0.165587
0.135711 0.134797 0.35321
-0.182792 0.251173 0.366008
0.0381291 -0.16294 0.35321
-0.296067 0.217654 0.366008
-0.136278 -0.25595 0.361476
0.29688 0.127961 0.0810886
0.344852 -0.233204 0.366008
-0.257366 0.0253011 0.299462
-0.292079 -0.152787 0.0249308
-0.157471 -0.169911 0.35321
0.172887 0.123069 0.331007
0.259395 0.124189 0.35321
-0.0850234 0.0952548 0.31788
0.10151 0.233081 0.35321
0.230874 -0.0855558 0.313303
-0.296231 0.147792 0.0674123
0.137245 -0.0347148 0.300741
-0.370706 -0.206379 0.366008
-0.189716 -0.25595 0.358628
0.279251 -0.218928 0.366008
-0.392186 -0.225037 0.366008
0.344439 0.12927 0.349075
-0.389059 -0.000203252 0.35321
-0.0856239 -0.0610958 0.366008
-0.149232 0.00631913 0.299462
-0.295714 -0.174066 0.366008
0.242394 -0.244629 0.366008
-0.197158 0.0634268 0.304274
-0.267035 0.00395007 0.366008
0.111124 0.0827887 0.35321
0.266332 -0.0471491 0.299462
0.291722 -0.14682 0.0494058
0.190986 -0.170296 0.35321
-0.382454 0.133591 0.366008
-0.216183 -0.104485 0.322236
-0.107479 -0.078457 0.309953
-0.290214 0.191885 0.35321
-0.0671994 0.118325 0.328768
0.327964 -0.12927 0.343282
0.0357418 -0.0930996 0.366008
0.30731 -0.0696547 0.366008
0.101941 0.0370967 0.35321
0.0124321 -0.0453466 0.35321
0.00264797 0.122279 0.330634
-0.390215 -0.021411 0.366008
0.323588 0.174261 0.366008
0.0312548 -0.0207474 0.300741
0.393139 -0.108472 0.364612
-0.0276622 0.0733521 0.307544
-0.259703 -0.0356186 0.35321
-0.129451 0.120401 0.366008
-0.275762 0.0293754 0.299462
-0.200302 -0.00349597 0.299462
-0.07671 -0.15989 0.366008
0.189455 -0.162815 0.366008
0.123911 -0.188286 0.35321
-0.28918 -0.104257 0.223571
0.146005 0.154907 0.366008
0.293982 -0.0406551 0.35321
-0.157667 -0.0262224 0.300741
0.305872 0.0960191 0.245977
-0.384375 -0.0193741 0.35321
0.123979 -0.25595 0.361301
-0.125605 0.0427254 0.299462
-0.335631 -0.14005 0.366008
-0.210718 -0.230518 0.366008
-0.118501 0.0825394 0.313295
-0.291712 0.125166 0.366008
-0.3498 0.0942931 0.35321
-0.0729469 -0.0433976 0.300741
-0.305622 -0.0117253 0.366008
0.000851005 0.0176269 0.300741
0.227963 -0.0399926 0.299462
-0.294735 -0.0858573 0.292164
-0.158951 -0.0629921 0.35321
-0.342258 0.04218 0.366008
0.0185972 -0.0660934 0.304118
0.370238 -0.0768751 0.35321
0.36036 -0.255722 0.35321
-0.296915 0.10067 0.320436
0.00416473 0.0503675 0.366008
0.302706 -0.243496 0.35321
0.146525 -0.0256558 0.366008
0.06104 -0.0589759 0.300759
0.0971837 0.125492 0.366008
0.267102 -0.0523716 0.366008
0.00604615 0.125391 0.35321
-0.364718 -0.0890465 0.366008
0.175841 0.248426 0.366008
0.156523 -0.0857754 0.35321
-0.191836 -0.0759504 0.366008
-0.174521 0.0568756 0.301182
-0.0325884 -0.228798 0.366008
0.134465 -0.155226 0.366008
0.152 0.0132827 0.299462
-0.058962 -0.0360752 0.300741
-0.183337 0.138952 0.352934
0.2172 -0.0705359 0.306215
-0.0461786 0.0486694 0.35321
0.0253913 0.152499 0.366008
-0.299091 0.0890875 0.316385
0.129305 0.0936373 0.318533
-0.230309 -0.12927 0.339699
0.21959 0.0941017 0.35321
-0.252591 0.0623241 0.303754
-0.184587 0.0255294 0.366008
0.146614 0.0754357 0.366008
-0.0928452 -0.0773894 0.310864
0.00141379 0.141187 0.352759
0.177858 0.215057 0.35321
0.192056 0.0630671 0.30269
0.145994 -0.137704 0.351654
-0.0955132 0.21095 0.366008
0.00948375 -0.112913 0.326214
-0.0507317 0.157264 0.35321
-0.125271 0.0724213 0.366008
-0.0663349 -0.0867639 0.35321
0.134175 -0.000980556 0.35321
-0.393106 -0.0195474 0.366008
0.292282 0.149192 0.0100449
0.160318 0.033872 0.300741
0.241207 0.250808 0.366008
-0.37013 -0.228929 0.35321
0.170783 0.047003 0.300741
-0.258249 -0.13055 0.339177
-0.0619155 -0.147902 0.366008
-0.306807 0.124915 0.204697
0.11587 0.233851 0.366008
-0.331443 -0.236873 0.366008
0.238466 0.0458296 0.366008
-0.195635 -0.00942452 0.299462
0.172151 0.0810901 0.312611
0.209828 -0.194543 0.35321
0.179697 -0.141905 0.366008
0.315341 -0.113133 0.318431
-0.264004 -0.00930052 0.300741
0.24451 0.0191177 0.35321
0.34355 0.0895631 0.31661
0.291721 0.0829753 0.312085
0.0625148 0.0300618 0.366008
0.142025 -0.13055 0.349644
-0.298505 0.121836 0.22317
-0.153227 -0.109587 0.366008
0.141799 0.0955723 0.31803
-0.393139 -0.0873142 0.354945
-0.187171 -0.0474195 0.300741
0.271311 -0.124693 0.331773
0.340741 0.175247 0.366008
0.391812 -0.154282 0.35321
-0.071743 -0.139389 0.352934
0.034042 0.110238 0.35321
0.228863 -0.0402061 0.300741
0.00622103 -0.124191 0.366008
0.26184 0.214068 0.366008
0.0515861 -0.0485172 0.35321
-0.0620181 -0.254905 0.366008
-0.32901 0.0533813 0.35321
-0.288199 -0.131167 0.351654
-0.2853 0.192136 0.366008
0.0227816 -0.0841349 0.35321
-0.177329 -0.233793 0.35321
0.203692 0.0360901 0.35321
-0.117073 0.12927 0.339084
-0.30819 -0.0557018 0.300741
-0.0697533 -0.151987 0.366008
0.303976 -0.103295 0.208418
0.242911 0.0593414 0.366008
-0.0931444 0.0945289 0.35321
-0.175302 0.0699072 0.35321
0.267438 -0.138274 0.351654
-0.160484 0.0763427 0.35321
-0.29115 0.139507 0.092004
0.308045 0.103957 0.205001
0.0483531 -0.223415 0.366008
-0.288552 -0.103534 0.28127
0.0938402 -0.0709135 0.306393
0.231892 0.0079366 0.366008
0.300569 0.153885 0.0308506
0.292223 0.150329 0.0484428
0.127109 0.233433 0.366008
0.0514421 -0.00336799 0.299462
-0.228357 -0.0137386 0.35321
0.260466 0.234667 0.35321
0.176756 0.0498365 0.300741
-0.0827064 -0.110432 0.366008
0.0575436 -0.108985 0.32436
0.234098 0.228723 0.35321
0.241732 0.134696 0.351654
0.276374 -0.0897332 0.31669
0.393139 0.0919057 0.354568
0.0711724 -0.0631561 0.35321
-0.143979 0.0657392 0.35321
-0.306007 0.14792 0.032405
0.298544 0.0717551 0.35321
-0.290033 -0.119055 0.165933
0.173338 0.0997456 0.321416
0.311541 0.128425 0.366008
-0.122125 0.058846 0.302112
0.283496 0.0508296 0.366008
-0.300877 -0.0708205 0.307764
-0.0837567 -0.144578 0.366008
-0.25114 -0.00640776 0.300741
0.0691378 -0.0293009 0.35321
-0.221229 -0.194003 0.366008
0.11857 -0.171684 0.35321
-0.189737 0.00941166 0.299462
-0.24962 -0.248675 0.35321
-0.125467 0.165149 0.366008
-0.227472 0.102621 0.366008
0.10591 0.16341 0.35321
-0.24597 0.251093 0.35321
-0.375756 -0.141076 0.35321
-0.377231 0.199309 0.35321
0.0167462 0.25595 0.359509
0.322248 0.0974 0.366008
0.144717 -0.107934 0.366008
0.341495 -0.163668 0.35321
0.150213 -0.247611 0.366008
0.0260064 -0.240942 0.366008
0.282179 0.133049 0.366008
-0.312799 0.070305 0.35321
0.209793 -0.117452 0.35321
0.212482 0.0110765 0.299462
-0.0730593 0.065274 0.35321
0.0496997 -0.252109 0.366008
-0.0149245 -0.0945393 0.317543
0.308415 -0.102343 0.213334
-0.385082 -0.158282 0.35321
-0.294973 -0.114608 0.266547
-0.174655 0.00173527 0.299462
-0.16427 -0.183689 0.35321
0.249113 -0.0591746 0.366008
-0.0394796 -0.249375 0.366008
-0.166544 -0.0470078 0.299462
0.270443 0.0470785 0.35321
0.0701049 -0.0423869 0.300741
-0.107308 -0.0593949 0.302371
0.254063 -0.00961161 0.366008
-0.127642 0.0245029 0.299462
-0.221353 -0.241279 0.366008
-0.0430418 0.0911901 0.35321
0.0194733 0.233499 0.366008
0.0666857 -0.0331476 0.299462
-0.122823 -0.00694758 0.300741
0.0976343 0.0816301 0.31145
0.21643 -0.231963 0.35321
-0.287456 0.0557876 0.35321
0.0684744 0.208129 0.366008
0.125863 0.0261236 0.366008
-0.0712027 0.249653 0.35321
-0.151873 -0.10906 0.366008
-0.178168 -0.136115 0.352934
-0.148217 0.0174714 0.35321
-0.343051 0.11804 0.328633
-0.175719 -0.00122176 0.366008
0.035265 0.199207 0.366008
-0.110524 0.154582 0.35321
0.0682895 -0.0309183 0.35321
-0.245649 -0.0387967 0.300741
-0.133022 0.110606 0.366008
0.156437 0.105783 0.366008
0.117082 -0.243645 0.35321
0.322268 -0.182791 0.35321
0.260192 -0.133319 0.35321
-0.297195 0.210015 0.366008
-0.239548 0.143666 0.366008
0.137772 0.0283959 0.300741
-0.117023 0.238437 0.366008
-0.184227 0.169004 0.366008
0.0781631 -0.170112 0.35321
0.0346584 -0.0620395 0.30362
0.0648666 -0.131988 0.352934
0.159578 -0.0381505 0.299462
-0.318249 -0.0369814 0.35321
0.272326 -0.0899285 0.316782
-0.158371 0.0709294 0.366008
0.216702 -0.12927 0.352626
-0.0354151 -0.13055 0.348357
-0.374652 -0.00192419 0.366008
0.329874 -0.0932667 0.366008
-0.308962 -0.11334 0.253786
-0.106532 0.0724194 0.35321
-0.12903 -0.0136153 0.35321
-0.319627 -0.103596 0.323233
0.322695 0.0981487 0.35321
-0.0610921 -0.0576295 0.300124
-0.320541 -0.143523 0.366008
0.000413477 0.117636 0.35321
-0.300322 -0.183243 0.366008
-0.227434 0.126025 0.366008
0.0206707 -0.0100125 0.366008
0.364058 -0.194989 0.366008
-0.159564 -0.214057 0.35321
-0.378616 0.171509 0.366008
0.326365 -0.00917038 0.35321
0.353448 0.219649 0.35321
0.109901 0.197315 0.35321
-0.0474114 0.13055 0.335101
-0.176076 -0.0278182 0.299462
0.0902101 -0.0278192 0.366008
-0.301023 0.13055 0.347167
-0.377137 -0.142261 0.366008
0.370592 -0.0739616 0.35321
0.274315 -0.198273 0.35321
-0.288405 0.0979868 0.286718
-0.219755 0.101508 0.366008
0.263049 0.106504 0.323189
-0.363825 0.0659617 0.35321
0.178697 0.182681 0.366008
-0.331053 -0.0506484 0.299462
-0.220503 0.126586 0.35321
-0.23761 -0.175364 0.366008
0.0853414 0.0638022 0.304451
0.0259428 0.191361 0.35321
0.0236695 0.0572847 0.366008
0.212935 -0.0333147 0.300741
-0.105396 -0.183817 0.35321
-0.00319436 0.0788841 0.366008
0.212193 -0.0486975 0.366008
0.294913 0.0960311 0.318247
-0.273185 -0.140693 0.366008
0.0530077 0.200721 0.366008
0.155468 0.108095 0.35321
0.0711434 0.117466 0.328362
-0.308547 -0.076347 0.366008
0.33527 0.12702 0.332871
0.300616 -0.112634 0.278389
0.223616 -0.0917168 0.316211
-0.316101 0.0961541 0.318305
0.202261 0.182333 0.35321
0.249054 -0.0953239 0.317913
0.183437 -0.184238 0.35321
0.0522214 -0.13055 0.342574
0.0650674 0.246809 0.366008
-0.338783 0.0609091 0.303086
-0.307117 0.136134 0.115332
0.307238 0.0571645 0.35321
-0.154841 0.253147 0.366008
-0.393139 -0.100681 0.35589
0.20986 0.0380897 0.366008
-0.338982 -0.0821722 0.313121
0.19358 -0.0264392 0.366008
-0.278938 0.13055 0.337053
0.117171 0.139987 0.35321
-0.246653 -0.00306444 0.299462
0.256493 0.0295099 0.366008
0.203172 -0.130764 0.35321
0.0103548 -0.022142 0.366008
-0.338156 0.191918 0.366008
0.0406094 -0.0128223 0.366008
-0.129365 0.195717 0.366008
-0.00154948 -0.223456 0.35321
0.216924 -0.25595 0.358621
-0.149937 -0.0932837 0.31695
-0.117431 0.0569803 0.301232
-0.146222 -0.206132 0.35321
-0.340241 -0.147484 0.35321
0.312506 -0.131277 0.366008
0.23291 -0.0733766 0.366008
0.159017 -0.0246714 0.35321
0.117885 -0.0608152 0.303042
-0.0753607 -0.0325564 0.35321
-0.235583 0.075897 0.35321
-0.0636192 0.0608623 0.30165
-0.21795 0.12927 0.33541
0.127476 0.131355 0.352934
0.193216 -0.0319225 0.299462
0.00506675 -0.217572 0.366008
0.0155291 0.0240501 0.35321
-0.313277 -0.206287 0.366008
-0.0238658 0.0329581 0.35321
0.215459 0.216434 0.35321
0.0702753 -0.23467 0.366008
-0.3069 -0.220727 0.35321
-0.291412 0.132068 0.0697022
0.260064 0.0572864 0.366008
0.339127 -0.0328071 0.366008
0.238684 -0.0620011 0.303601
-0.305757 -0.148471 0.0605192
-0.298788 0.148295 0.0643937
-0.293438 -0.1382 0.124974
-0.0886393 0.234539 0.366008
-0.118222 -0.0725174 0.308565
-0.0953125 -0.25595 0.361857
-0.116287 -0.208401 0.35321
-0.161243 0.0664158 0.30427
-0.0240593 0.233671 0.366008
0.0770353 -0.00609306 0.366008
-0.227976 -0.13055 0.34867
0.292184 0.153026 0.0302297
0.292392 -0.146028 0.00253273
0.275449 -0.105667 0.322794
-0.0259264 0.044159 0.300741
-0.0268716 0.0293483 0.35321
0.132775 -0.138005 0.352934
0.180849 -0.225035 0.35321
0.329053 -0.0470155 0.299462
-0.300864 0.129171 0.179156
0.0337936 -0.0192354 0.366008
-0.311879 0.0152072 0.366008
-0.249904 -0.12927 0.338696
0.340261 -0.0533879 0.300741
0.362478 0.0207195 0.35321
0.196269 0.217962 0.35321
0.371056 -0.0365149 0.366008
0.0604829 -0.102031 0.322494
0.305902 0.151966 0.0254107
0.335604 0.065686 0.303926
0.371493 -0.0854481 0.35321
0.337978 0.13418 0.35321
0.101215 -0.154336 0.366008
-0.146445 0.00137746 0.299462
-0.126028 0.00519833 0.300741
0.0920512 -0.0352235 0.299462
0.343508 -0.132681 0.35321
0.344935 -0.130537 0.35321
-0.196872 0.0216092 0.35321
-0.331929 0.0970544 0.366008
-0.273123 0.126704 0.35321
0.377593 -0.00636791 0.366008
0.297886 0.053059 0.299462
-0.126302 0.0218853 0.300741
0.142922 0.0495845 0.366008
-0.3062 0.143971 0.0456452
-0.193554 -0.0908735 0.315813
-0.34091 0.0775108 0.35321
0.258885 -0.04993 0.35321
0.0246373 0.00161803 0.300741
0.306645 0.131082 0.0760769
-0.0157609 0.12345 0.332603
-0.146362 -0.23458 0.366008
0.355935 0.0233243 0.35321
0.204464 0.0370167 0.366008
-0.164416 0.119181 0.35321
0.0092693 -0.0756791 0.308642
0.0319442 -0.0417733 0.366008
0.297454 0.0635695 0.35321
-0.363619 -0.181992 0.35321
0.372306 0.102775 0.366008
-0.00452286 -0.0486518 0.299462
0.225294 0.201706 0.35321
-0.0427501 0.171937 0.366008
0.337464 -0.0152635 0.300741
0.252748 -0.170989 0.35321
-0.305482 0.0462323 0.366008
-0.201647 -0.23733 0.35321
-0.00170293 0.124265 0.332988
-0.310438 -0.0957031 0.35321
0.385636 -0.169031 0.35321
-0.140821 -0.0711192 0.30649
-0.224263 0.0553391 0.300741
-0.353794 0.111313 0.35321
-0.201253 -0.12927 0.339649
0.137413 0.106332 0.324524
0.393139 0.0122822 0.359155
-0.393139 -0.226383 0.362152
0.39304 -0.0921789 0.35321
0.297891 -0.131014 0.366008
0.281436 0.0153071 0.366008
-0.345634 0.106807 0.35321
-0.116365 0.195729 0.35321
-0.218497 0.0249234 0.35321
-0.140981 0.19745 0.35321
0.289204 -0.101333 0.22104
0.0298952 -0.171041 0.366008
-0.302741 -0.0684753 0.35321
-0.227142 0.199933 0.366008
0.013628 0.142443 0.366008
0.251286 -0.109478 0.366008
0.0278077 0.131881 0.366008
-0.00423291 0.0459448 0.366008
-0.306979 -0.166119 0.35321
-0.0912719 0.0958966 0.35321
-0.201943 -0.0503598 0.366008
-0.232665 -0.133118 0.351654
0.0037486 -0.0215212 0.366008
0.260165 0.0188319 0.300741
0.054359 0.220839 0.366008
0.352832 0.160779 0.366008
-0.00291663 -0.164438 0.366008
-0.178078 -0.135656 0.366008
0.0364183 0.0977286 0.35321
-0.218586 -0.0618666 0.35321
0.393139 0.243334 0.359594
0.150025 -0.141187 0.352015
0.13211 0.0342458 0.35321
-0.00417435 -0.0907842 0.366008
0.0339753 -0.103477 0.321761
-0.0391267 0.0174235 0.35321
-0.282395 0.12927 0.343388
0.309273 0.109186 0.276608
-0.346949 -0.206864 0.35321
-0.0966581 -0.146057 0.366008
0.375995 -0.157837 0.35321
-0.0940269 0.0924266 0.35321
0.105704 0.0618033 0.302094
-0.380419 -0.0829636 0.35321
-0.0907032 0.0444138 0.366008
0.119189 0.0743479 0.35321
0.364058 0.0212819 0.366008
0.256227 0.244787 0.366008
-0.189386 0.142315 0.35321
0.255808 0.0223376 0.300741
0.245155 0.13464 0.35321
-0.108054 -0.0622637 0.35321
0.0130643 -0.00870772 0.366008
-0.0469297 -0.00740373 0.35321
-0.00193241 0.0123478 0.300741
-0.295994 0.00475922 0.366008
0.11707 -0.0238092 0.299462
0.29963 0.00235999 0.299462
0.0648661 0.0575301 0.35321
-0.300557 -0.0794363 0.303863
-0.250764 -0.0872126 0.35321
0.088837 -0.20131 0.366008
-0.17789 -0.249839 0.35321
-0.297712 -0.109993 0.294238
0.149214 0.0611039 0.35321
0.309846 0.0194154 0.366008
-0.0130317 -0.116458 0.366008
0.253049 -0.0322087 0.366008
0.0959604 0.0574679 0.301462
0.0299284 0.13055 0.350716
0.329788 -0.144611 0.35321
-0.217769 -0.25075 0.366008
-0.178863 -0.0669037 0.305915
0.295725 0.137748 0.366008
0.0193061 0.119185 0.35321
-0.153392 0.116133 0.327733
0.160851 -0.0445782 0.300741
0.314264 0.110613 0.325128
0.267226 0.0457225 0.366008
-0.337513 0.170187 0.35321
0.0429323 -0.0947527 0.319059
0.17303 0.11483 0.366008
0.280048 -0.141119 0.366008
-0.0299047 0.247267 0.366008
-0.139165 -0.0433475 0.35321
0.301642 -0.142662 0.0981956
0.380219 -0.0190684 0.35321
0.292538 -0.249091 0.35321
-0.0348126 0.0606548 0.366008
-0.148835 -0.0183531 0.300741
-0.0974142 0.0189338 0.35321
0.304282 0.11817 0.245171
0.231051 0.0448629 0.366008
-0.229882 -0.00179822 0.299462
-0.162978 0.0755595 0.310001
0.292962 -0.13763 0.128397
0.36543 -0.255082 0.366008
0.310078 0.0731538 0.30745
0.269904 0.062652 0.303909
-0.131775 -0.0491987 0.35321
0.153516 0.152541 0.35321
-0.1666 -0.234459 0.366008
0.133528 0.0968888 0.318651
0.25039 -0.12927 0.335942
0.0212572 -0.2064 0.35321
0.265138 0.0854102 0.366008
-0.0108226 -0.154106 0.35321
0.0994601 0.238869 0.35321
0.136084 0.133379 0.35321
-0.0493065 -0.193469 0.366008
0.133418 -0.100348 0.320284
-0.216055 -0.233467 0.366008
-0.283196 0.152325 0.366008
-0.0243186 -0.0971287 0.35321
0.0697263 0.0973314 0.366008
-0.292265 0.12662 0.194464
-0.0680281 -0.13055 0.343847
-0.17332 0.0118913 0.35321
0.14909 0.00353445 0.299462
0.102686 0.130123 0.35321
-0.107531 -0.0317468 0.299462
-0.203945 -0.0028077 0.300741
-0.0602903 -0.0462414 0.366008
-0.338483 0.0636873 0.304397
0.229102 -0.0548372 0.299462
-0.19833 0.12927 0.34837
0.276094 -0.00876852 0.300741
0.277393 -0.0596655 0.302499
0.286655 -0.086723 0.295567
0.30607 0.0473942 0.299462
0.0610915 0.00522458 0.299462
0.282774 0.0272061 0.366008
-0.232322 0.0767644 0.310569
0.269025 0.130282 0.334411
0.139014 0.0146392 0.366008
0.0924617 0.0368902 0.366008
-0.131491 0.0625153 0.35321
-0.0728636 -0.0765197 0.310454
-0.226928 0.0379903 0.35321
0.320564 0.0628261 0.366008
-0.224473 0.104402 0.323613
-0.161364 0.0555595 0.366008
0.30023 0.0479263 0.300741
-0.334153 0.151845 0.35321
0.21011 0.0164264 0.366008
-0.160051 0.0789208 0.35321
-0.364651 0.073536 0.366008
0.0899517 0.143338 0.35321
-0.254801 0.0956392 0.319477
-0.221411 0.25595 0.354643
-0.21432 -0.0287985 0.300741
-0.0208404 0.112926 0.32622
0.0537043 0.0557432 0.35321
-0.2089 0.0602673 0.35321
-0.112325 -0.0012574 0.366008
0.350749 -0.0823791 0.366008
0.211907 -0.178928 0.366008
0.270919 0.12927 0.342602
-0.262708 0.171065 0.35321
0.354214 0.145324 0.35321
-0.304278 -0.153028 0.0359913
0.145923 -0.189516 0.35321
-0.098345 -0.189284 0.366008
0.198926 0.150559 0.35321
-0.252469 -0.13055 0.335224
-0.105987 -0.0478967 0.35321
-0.14366 0.0482416 0.300741
0.128053 0.0508895 0.300741
0.0792045 -0.0336236 0.299462
-0.274235 0.0934561 0.318447
0.155308 -0.0995925 0.319927
0.249457 0.0784951 0.309971
-0.17838 -0.0409592 0.35321
0.0981049 0.203532 0.366008
0.283738 -0.0863705 0.313688
-0.307449 0.128117 0.134478
0.272619 -0.15757 0.35321
-0.03065 -0.0703153 0.35321
0.377419 0.0856589 0.366008
-0.289126 0.108479 0.234966
0.229566 0.0285487 0.300741
0.354562 -0.104331 0.366008
0.0164172 0.0368177 0.366008
-0.281004 0.160623 0.35321
-0.367054 -0.113238 0.366008
-0.190512 0.129325 0.366008
0.274419 0.190128 0.366008
-0.28974 0.0234632 0.300741
-0.355947 -0.221617 0.366008
-0.0691194 -0.0768423 0.35321
0.322763 0.00683284 0.366008
-0.131786 0.17704 0.35321
0.338475 0.0371708 0.366008
0.327907 -0.149001 0.35321
-0.0161237 0.0793297 0.35321
-0.168192 -0.122255 0.332039
0.234711 -0.255641 0.35321
0.00401491 -0.102962 0.322934
0.333403 0.0249338 0.366008
0.374051 0.196055 0.366008
-0.110055 0.0330774 0.366008
-0.0212958 -0.0133923 0.300741
0.273108 0.0864397 0.366008
0.272735 0.110656 0.35321
-0.372986 0.0976502 0.366008
-0.325959 0.0155123 0.300741
-0.297354 -0.0875919 0.286971
0.318787 0.180962 0.366008
-0.337823 0.0245682 0.299462
0.288597 -0.0959505 0.26579
0.136852 0.103823 0.35321
0.0975856 0.0710799 0.306471
0.325343 0.100071 0.320153
0.130982 -0.254975 0.366008
-0.09034 0.241435 0.366008
0.352446 -0.133314 0.35321
0.305561 0.125227 0.202821
-0.22364 0.0740474 0.307872
0.122648 0.25595 0.364858
-0.393139 0.00294936 0.362972
-0.390782 0.0810667 0.366008
0.00868833 0.192894 0.35321
-0.0083119 -0.236383 0.366008
0.183137 -0.12927 0.342357
0.0482312 0.252611 0.366008
0.297158 0.0479295 0.35321
0.0372193 -0.0588933 0.30072
-0.388792 -0.164325 0.366008
-0.0701871 -0.0489366 0.35321
-0.3448 -0.225452 0.366008
-0.290032 -0.11958 0.330776
0.148344 0.0773933 0.310866
-0.0836221 -0.214942 0.366008
-0.134266 -0.206119 0.366008
0.305906 -0.22949 0.35321
-0.183231 -0.216819 0.35321
-0.0378703 -0.179196 0.366008
0.325622 -0.0140008 0.366008
-0.199404 -0.00441274 0.366008
-0.0840025 -0.13055 0.350721
0.311472 -0.139818 0.35321
0.10801 0.076885 0.366008
0.0737427 0.0228155 0.300741
-0.112239 -0.175009 0.35321
-0.305252 0.0778434 0.304704
-0.137755 -0.127562 0.334544
0.356607 -0.220778 0.366008
0.222728 0.100347 0.366008
-0.152175 -0.121831 0.330422
-0.104811 0.0498305 0.299462
-0.292806 -0.12432 0.0998832
0.24235 0.122809 0.366008
0.121979 -0.0156727 0.366008
-0.229604 0.113102 0.327719
-0.0974207 0.0586525 0.302021
0.250167 0.25595 0.361411
0.00831679 -0.13055 0.340694
0.0210394 0.184671 0.366008
-0.0864608 -0.159807 0.35321
0.292879 0.187177 0.366008
0.169011 -0.13512 0.35321
0.0602502 0.0384407 0.299462
-0.137265 0.190997 0.366008
0.224399 -0.106408 0.366008
0.0887913 0.104818 0.32381
0.379605 0.0750082 0.366008
0.254499 0.0327899 0.35321
0.294869 -0.121337 0.331606
-0.290009 -0.12927 0.34099
0.0844002 -0.0062267 0.366008
0.0307133 -0.127948 0.333309
0.290058 0.120174 0.223607
-0.210453 0.25595 0.355074
0.3746 -0.241486 0.366008
0.305293 0.0570399 0.35321
-0.337591 -0.205797 0.366008
0.291651 0.136676 0.053311
0.10639 0.0711079 0.366008
-0.0366993 0.234731 0.35321
-0.221633 0.0157315 0.300741
-0.248318 0.231813 0.366008
-0.309541 -0.0953059 0.281136
0.0826158 -0.132556 0.366008
0.141208 -0.0320019 0.366008
0.101055 0.132809 0.366008
-0.115089 -0.201962 0.35321
-0.0782684 0.172177 0.366008
0.0374047 -0.13531 0.35321
-0.0819283 -0.112509 0.327439
0.0210306 0.137674 0.352934
