0.320407 0.175221 0.366008
0.19804 0.0789907 0.366008
-0.290484 -0.123303 0.20793
0.22506 0.184256 0.35321
-0.269804 0.0271789 0.300741
0.281306 -0.0358265 0.300741
-0.0441897 -0.246517 0.35321
-0.218469 -0.196713 0.366008
-0.245284 -0.117242 0.328257
-0.316603 0.18036 0.35321
0.0311102 -0.181516 0.35321
0.319514 0.0872721 0.35321
0.376638 0.25595 0.36441
-0.252248 0.077428 0.35321
-0.0548146 0.255461 0.35321
0.250657 -0.176352 0.366008
0.103867 0.12927 0.340066
0.142184 -0.093879 0.318647
0.0146261 -0.108381 0.35321
-0.202558 -0.22928 0.35321
-0.159168 0.00367212 0.366008
-0.0118685 0.0407167 0.300741
0.220762 0.105774 0.322844
-0.211622 0.165121 0.366008
-0.298347 0.129872 0.0712242
-0.345435 -0.0646889 0.366008
0.0618006 -0.178554 0.366008
0.336706 -0.108538 0.366008
0.133551 -0.0665952 0.35321
0.262617 0.217103 0.35321
0.015404 0.105071 0.35321
0.287384 -0.0922081 0.293634
0.162229 0.217567 0.35321
-0.302853 -0.128836 0.0765735
-0.0262312 0.108512 0.324137
-0.393139 -0.0618035 0.356279
-0.336863 0.0371309 0.35321
-0.0306399 0.0854798 0.35321
0.173363 0.120011 0.33098
0.290049 -0.114012 0.16307
-0.119057 0.114634 0.366008
0.294923 0.110374 0.291953
-0.164643 0.115458 0.328831
0.186417 -0.0343614 0.35321
0.0609974 0.215701 0.366008
-0.121323 0.0987327 0.319522
-0.258018 0.0124648 0.35321
0.291424 0.131302 0.165602
0.161148 -0.248611 0.35321
0.0342157 0.251553 0.366008
0.358155 -0.173884 0.366008
-0.257695 -0.0463592 0.366008
0.213593 -0.125455 0.33355
-0.28246 0.113524 0.319047
-0.202815 0.101279 0.366008
0.203326 -0.0633503 0.302824
-0.161973 0.209891 0.366008
0.15655 -0.0255712 0.300741
0.301471 -0.0560409 0.366008
0.156574 0.102025 0.366008
-0.156823 -0.0812247 0.366008
0.0268877 -0.0616779 0.303449
0.321098 0.0356449 0.35321
-0.392981 -0.178158 0.35321
0.36067 -0.00476804 0.366008
0.0943172 0.0457154 0.299462
-0.0642217 -0.130722 0.366008
0.291689 0.146579 0.0521214
-0.318078 0.130428 0.33448
-0.245631 -0.0192675 0.299462
0.363514 0.116005 0.366008
0.0264701 -0.00301242 0.366008
-0.174911 0.0832914 0.35321
0.0504026 0.113442 0.366008
0.349019 0.198283 0.35321
-0.283619 0.0584394 0.366008
-0.342019 0.216035 0.35321
0.184805 0.0279966 0.366008
-0.305275 -0.137304 0.351654
0.0786509 -0.0103395 0.366008
0.30633 -0.146653 0.0660562
-0.300045 -0.0569346 0.299796
-0.2897 0.121957 0.366008
-0.225771 -0.100103 0.366008
-0.106941 -0.25595 0.354984
-0.0850128 0.0161517 0.299462
-0.102979 0.0278765 0.366008
0.122177 -0.150466 0.366008
-0.0574613 -0.0558842 0.299462
-0.21549 0.0338327 0.300741
0.338071 0.0541689 0.299462
0.136813 0.25595 0.353988
-0.274961 0.200296 0.366008
-0.288819 0.0995323 0.250322
-0.0231305 0.19612 0.35321
-0.164376 -0.166903 0.35321
-0.0345475 0.224974 0.366008
-0.342233 0.0999552 0.320099
-0.14373 -0.0872223 0.314089
0.0624994 -0.0964021 0.35321
0.393139 0.221285 0.361597
0.233408 0.109992 0.35321
-0.345214 0.0429929 0.299462
0.0805466 -0.0898978 0.316768
-0.286519 -0.0982082 0.301377
-0.190022 0.21087 0.366008
-0.241879 0.245397 0.35321
-0.343933 -0.238266 0.366008
-0.0614981 0.0589926 0.35321
0.211177 0.0481182 0.300741
0.183428 -0.214811 0.366008
-0.154072 0.0648227 0.303519
0.359618 -0.250067 0.366008
-0.0341543 -0.113631 0.326552
-0.0159588 -0.200472 0.35321
-0.289788 0.121683 0.19276
0.239172 -0.0549001 0.366008
-0.0192875 0.134255 0.366008
-0.192486 -0.102722 0.32282
-0.204824 -0.146422 0.366008
-0.108098 -0.0737942 0.35321
0.102278 0.103453 0.366008
-0.0391853 -0.118252 0.35321
-0.0683974 -0.0486107 0.366008
0.387383 -0.0968462 0.35321
-0.127307 -0.120563 0.35321
0.126475 -0.0946524 0.366008
-0.209354 0.0028026 0.366008
0.278305 0.0491469 0.35321
-0.0929885 -0.133911 0.366008
-0.359034 0.119727 0.366008
-0.171225 -0.0387384 0.366008
0.284564 0.0132698 0.300741
0.137607 -0.0448195 0.366008
0.22355 0.207894 0.35321
0.106074 0.0318263 0.366008
-0.298375 -0.212099 0.35321
0.0289724 0.12927 0.335436
-0.22042 0.125871 0.332329
0.109767 0.216134 0.35321
-0.0149851 -0.0189242 0.366008
-0.135727 0.25595 0.360431
-0.304087 -0.165649 0.35321
0.0203559 -0.0139847 0.299462
0.159665 -0.106862 0.366008
0.314383 0.126572 0.35321
0.272848 -0.118443 0.328823
0.393139 -0.0237821 0.360444
-0.0204036 0.0312935 0.35321
0.278997 -0.220932 0.366008
-0.345695 -0.0079596 0.366008
-0.102242 0.170807 0.366008
0.0826966 0.162897 0.366008
-0.075703 0.114274 0.328272
0.331396 -0.0721034 0.308369
-0.166136 -0.212577 0.366008
-0.308185 -0.0491849 0.35321
0.355507 0.0648899 0.366008
-0.289062 -0.114135 0.249319
0.284303 0.151917 0.366008
0.0580617 0.0306011 0.35321
0.0894856 -0.205118 0.366008
-0.242866 -0.25005 0.35321
0.284458 0.115643 0.35321
-0.0370185 -0.0978121 0.366008
-0.129786 0.00602606 0.299462
0.282151 -0.0700992 0.307423
-0.0752515 -0.177345 0.35321
0.330267 -0.0449176 0.35321
0.0730956 -0.117754 0.329915
0.127035 0.083119 0.313568
0.197416 0.12342 0.366008
0.315601 -0.209992 0.366008
0.0586617 0.172665 0.366008
0.0755496 0.00328856 0.299462
-0.0847923 0.238723 0.366008
-0.30807 -0.123464 0.185543
-0.148679 -0.122523 0.330749
-0.127703 0.0248432 0.366008
-0.0862814 0.0886194 0.35321
-0.234061 0.227245 0.366008
0.137052 -0.0483201 0.300741
-0.187944 -0.0306645 0.300741
-0.310496 -0.110815 0.305561
0.171165 0.0626772 0.35321
-0.0419003 0.166228 0.35321
-0.393139 -0.148805 0.36106
0.223275 -0.1407 0.366008
0.0875514 -0.0605216 0.366008
0.279747 -0.133084 0.366008
0.128948 0.12927 0.336037
-0.0303066 0.0108052 0.299462
0.170841 -0.180876 0.35321
-0.252945 0.115831 0.35321
-0.307068 0.127734 0.105139
-0.255732 0.0497496 0.35321
-0.0392948 0.0724466 0.307116
-0.136271 -0.218135 0.366008
0.0122165 -0.149507 0.366008
-0.336044 -0.110823 0.366008
0.393139 0.096996 0.354455
0.256717 0.253978 0.366008
-0.235692 -0.123478 0.366008
-0.343786 0.25569 0.366008
0.0298598 0.2224 0.366008
0.00114948 -0.0742195 0.307953
-0.0743697 -0.00973397 0.35321
-0.308545 -0.116568 0.366008
-0.0788164 -0.0735547 0.307639
-0.260766 0.0685653 0.306699
0.393139 -0.177811 0.361184
0.0615717 -0.142311 0.366008
0.213956 -0.113828 0.366008
0.15756 -0.0548896 0.366008
0.309155 -0.110263 0.267176
0.0255833 0.0700075 0.366008
0.14266 0.015381 0.299462
-0.292779 -0.0106534 0.299462
0.353597 -0.0758289 0.366008
-0.00892195 -0.255889 0.35321
0.222961 -0.0287248 0.299462
-0.176213 0.171002 0.366008
0.294778 0.084906 0.314412
-0.125278 0.12523 0.333443
0.165532 0.0129558 0.366008
0.22683 0.0478752 0.366008
0.176064 0.188401 0.35321
0.309403 -0.12927 0.33616
0.0414349 -0.223734 0.366008
0.144186 0.142257 0.366008
-0.177738 0.0371446 0.366008
-0.383155 0.202129 0.35321
0.102189 -0.0275285 0.366008
-0.31594 0.138036 0.366008
0.0318047 -0.0726849 0.366008
0.261716 0.0849742 0.366008
0.0659598 0.248011 0.35321
0.0569147 0.144554 0.35321
0.264249 -0.00287934 0.366008
0.354759 0.0340886 0.366008
-0.345634 -0.0508683 0.299664
0.297633 0.215417 0.35321
-0.270222 -0.210807 0.35321
0.0131429 0.0716119 0.306723
-0.356347 0.163691 0.35321
0.308962 -0.09894 0.23479
0.26621 -0.183498 0.35321
-0.393139 0.118465 0.35967
0.357982 -0.205351 0.366008
0.251219 0.000825208 0.299462
0.310616 0.11069 0.35321
0.0796468 -0.239759 0.35321
-0.268639 -0.110329 0.366008
-0.355327 0.0765047 0.366008
0.162112 -0.169221 0.366008
0.189463 -0.100273 0.320248
-0.293769 0.0235887 0.366008
-0.389976 0.0294161 0.366008
0.275075 -0.25595 0.360796
-0.361441 -0.151363 0.366008
-0.0124539 0.254531 0.366008
-0.30471 0.048503 0.300741
0.343733 0.225987 0.366008
-0.118337 0.152419 0.35321
-0.177768 0.0577906 0.3002
0.195014 -0.169984 0.366008
-0.0356176 -0.0450675 0.35321
0.308158 -0.121532 0.190813
-0.0809087 -0.230812 0.366008
0.338352 0.0331371 0.299462
-0.180687 -0.25595 0.35373
0.0967106 0.0848414 0.312966
-0.0748689 0.129652 0.366008
-0.155327 0.117211 0.35321
0.328058 -0.169569 0.366008
-0.0668665 -0.216726 0.366008
0.143169 -0.12927 0.337545
-0.252089 -0.00577159 0.366008
0.255471 0.0885832 0.316147
0.0445777 -0.096844 0.320046
0.243321 -0.123779 0.331342
-0.112232 0.0574494 0.301453
0.342779 0.143375 0.366008
-0.00625485 -0.0831894 0.35321
-0.186173 -0.102325 0.35321
0.159521 -0.21445 0.366008
-0.0661682 -0.148595 0.366008
0.334652 -0.00309366 0.35321
0.340864 -0.12927 0.342514
-0.291879 0.146009 0.0376907
-0.00306991 -0.227105 0.366008
-0.128332 -0.00867432 0.35321
0.263389 -0.0379505 0.366008
-0.292486 -0.134873 0.0454107
-0.220872 0.0750602 0.366008
-0.271691 -0.139267 0.351654
0.0991676 0.067469 0.35321
-0.0268312 -0.0779106 0.309695
0.0427211 -0.139881 0.366008
-0.287413 0.106804 0.299646
-0.139756 -0.0500411 0.299462
-0.314829 0.220071 0.35321
-0.254444 0.0992935 0.321202
0.0112092 0.11552 0.328861
0.0474175 0.0647194 0.366008
-0.263992 -0.250608 0.366008
-0.226649 -0.038045 0.366008
0.289588 0.116292 0.203509
0.0595256 -0.00966171 0.300741
0.117052 -0.0147597 0.300741
0.389544 0.136125 0.35321
-0.190998 0.136416 0.35321
-0.23109 -0.0999718 0.320106
0.124814 0.117927 0.366008
0.28886 0.10382 0.252972
-0.365395 0.0490699 0.366008
0.30064 -0.0913402 0.35321
-0.127397 -0.148434 0.366008
0.298027 0.0279143 0.366008
0.224644 -0.0423805 0.35321
0.183492 0.0854453 0.313251
0.199112 -0.23872 0.35321
-0.0776886 -0.023332 0.299462
0.270441 0.179944 0.35321
0.29328 0.127042 0.0858334
-0.0476321 -0.199587 0.366008
-0.134347 0.18649 0.366008
0.195274 0.222023 0.366008
-0.367753 -0.0907784 0.35321
-0.250197 -0.0811944 0.35321
-0.328303 0.0134265 0.366008
-0.00927877 0.072238 0.366008
0.0607689 -0.0722038 0.366008
-0.171671 0.0931022 0.316864
-0.290974 -0.137239 0.105057
0.393139 0.0142046 0.362324
0.378612 -0.25595 0.355724
0.0987615 0.192083 0.35321
-0.0630985 0.15211 0.35321
-0.0208689 0.110863 0.35321
0.315068 0.194796 0.35321
-0.276379 -0.0485937 0.299462
0.302185 -0.120703 0.366008
0.0656623 0.0631347 0.304136
0.174362 0.251398 0.35321
-0.37184 -0.0255547 0.35321
0.0339319 -0.049731 0.366008
0.095181 -0.166786 0.35321
-0.13281 -0.179394 0.35321
-0.0968775 -0.0423218 0.366008
-0.228689 -0.0533417 0.300741
0.106284 -0.0715391 0.308103
0.356503 -0.145955 0.366008
0.198001 0.00920454 0.366008
0.264274 0.12294 0.330946
0.206013 0.129436 0.334011
-0.303495 0.0572507 0.35321
-0.337872 0.124052 0.366008
-0.215919 -0.00381993 0.299462
-0.0777149 0.0185215 0.35321
-0.281491 0.161142 0.35321
-0.183171 -0.0742236 0.35321
0.107287 0.0131878 0.300741
0.216731 0.161204 0.366008
-0.290274 -0.112888 0.1589
-0.323973 -0.0768698 0.310619
0.243593 -0.13774 0.366008
-0.237928 0.161658 0.35321
0.348441 -0.038441 0.366008
0.23942 0.231986 0.35321
-0.323418 -0.227426 0.366008
-0.371088 0.0903057 0.366008
-0.393139 -0.0978929 0.363526
-0.0597708 -0.0786185 0.35321
-0.327023 0.0658538 0.30542
-0.308806 0.109878 0.234135
0.172397 0.129681 0.35321
0.284167 0.118196 0.324263
-0.120036 0.0935468 0.35321
0.169086 -0.0687868 0.306804
0.13348 0.0855134 0.35321
0.337492 0.111744 0.35321
-0.308154 0.112438 0.179569
0.30704 -0.0960629 0.318262
-0.00726691 -0.117931 0.366008
0.153359 -0.146407 0.35321
0.0674033 0.116684 0.327993
0.360109 0.158534 0.35321
0.311912 0.113548 0.313385
-0.265911 0.237798 0.366008
0.290496 0.0858632 0.366008
-0.235677 0.0496808 0.299462
-0.33736 -0.14113 0.351654
0.0621955 -0.0613737 0.303305
0.247208 -0.244913 0.35321
-0.273514 -0.1832 0.366008
-0.278984 0.12927 0.335377
-0.00840947 0.234616 0.35321
0.128023 0.0463752 0.300741
-0.18532 -0.193841 0.35321
-0.277194 -0.0218494 0.35321
0.0524918 -0.00296164 0.35321
-0.0500969 0.13055 0.335081
0.00708169 0.205711 0.35321
-0.158396 -0.11331 0.35321
-0.170163 -0.0648794 0.303545
-0.0572085 0.0949392 0.366008
0.00673035 -0.000407577 0.35321
0.0821916 0.228027 0.366008
0.0961626 -0.0831222 0.366008
0.137396 -0.23712 0.366008
0.30677 -0.117854 0.133266
0.00835899 0.129423 0.35321
0.289613 -0.0279199 0.366008
-0.308674 -0.105835 0.215738
0.164521 -0.0249916 0.35321
0.330726 0.0795944 0.311905
-0.340029 0.18293 0.366008
-0.0987351 0.062574 0.366008
0.111644 -0.108658 0.324206
-0.276296 -0.115331 0.328771
-0.0184886 -0.140744 0.352934
-0.290202 0.123194 0.156275
-0.305084 0.119934 0.122526
-0.00996661 0.0886025 0.314741
-0.138649 0.0319449 0.300741
-0.33443 0.146088 0.35321
0.135637 0.22682 0.366008
-0.190045 -0.162391 0.366008
-0.175668 0.122183 0.366008
0.0768023 0.12608 0.366008
-0.0321943 -0.0102056 0.35321
-0.36541 -0.232989 0.35321
-0.358986 -0.196923 0.366008
-0.297393 0.194407 0.366008
0.309152 0.110248 0.266847
0.216102 -0.216069 0.366008
-0.272712 0.0305562 0.35321
-0.328383 -0.0331464 0.366008
0.300645 0.138517 0.0266003
-0.367671 0.221881 0.366008
0.103301 0.00933433 0.366008
0.238931 0.0254854 0.299462
-0.30499 0.11378 0.271517
0.00982913 -0.0253831 0.35321
-0.226435 0.0961843 0.35321
-0.00369522 0.156392 0.35321
-0.137275 -0.0581099 0.35321
0.305972 -0.143667 0.0300217
0.292493 -0.125745 0.0925289
-0.0728036 -0.12865 0.333641
0.36707 -0.226187 0.35321
-0.387891 -0.20958 0.366008
-0.0587264 -0.0931325 0.316879
-0.00307134 -0.177687 0.366008
0.0326404 0.194493 0.35321
-0.346135 0.0564437 0.366008
-0.320815 0.00719279 0.299462
0.299795 -0.195337 0.366008
-0.112227 -0.0930339 0.316832
-0.311071 0.0936559 0.318541
-0.328151 -0.153321 0.366008
0.305742 0.110063 0.17348
-0.122236 -0.0914587 0.366008
0.0988396 -0.138509 0.366008
-0.0601302 0.22238 0.35321
0.302541 0.0357764 0.300741
0.027606 0.141769 0.366008
-0.323326 -0.0821148 0.35321
0.166052 0.0457202 0.366008
-0.0601016 -0.11012 0.35321
-0.0977555 0.255012 0.35321
0.292238 0.118604 0.129394
0.341378 0.0890229 0.35321
-0.272408 -0.0706885 0.366008
-0.288069 0.0971133 0.35321
0.240577 0.0643707 0.30472
0.0736355 0.0984523 0.35321
-0.242039 -0.220923 0.366008
0.195528 -0.1353 0.35321
0.0761095 0.0312351 0.300741
-0.246062 0.00455882 0.299462
0.0789184 -0.0337658 0.35321
0.290813 0.084929 0.294943
0.325993 -0.0843763 0.35321
-0.0421748 0.132691 0.366008
0.0189231 0.0168883 0.299462
0.373252 -0.118704 0.366008
-0.270219 -0.0774402 0.309473
-0.355439 -0.119269 0.366008
-0.0760699 0.0353091 0.366008
-0.171724 -0.100205 0.320216
-0.225182 -0.0637469 0.366008
0.375053 0.189761 0.366008
0.255539 -0.096506 0.318471
-0.182806 -0.00938223 0.35321
-0.0955997 0.0885406 0.314712
-0.215177 0.211265 0.35321
0.289463 -0.105033 0.203247
0.21165 -0.0603612 0.35321
-0.161331 -0.0260157 0.300741
0.250847 0.0601519 0.35321
-0.0650426 0.0328046 0.300741
0.228482 0.0821632 0.366008
0.151786 0.181339 0.366008
0.322449 -0.138352 0.366008
0.0698048 -0.222184 0.35321
0.174284 -0.125387 0.333518
-0.358897 -0.0410683 0.366008
-0.235633 0.120011 0.366008
0.393139 -0.124984 0.353278
-0.278148 0.2233 0.35321
8.32081e-05 -0.0472418 0.300741
0.339915 -0.25595 0.355006
-0.323853 0.0690237 0.366008
-0.303412 -0.0968168 0.318617
-0.235196 0.036165 0.366008
-0.201501 -0.12927 0.33762
-0.207192 -0.166696 0.35321
0.352685 0.244351 0.35321
-0.309492 -0.0878902 0.286078
-0.271024 -0.160478 0.35321
0.0155566 -0.211187 0.35321
0.147639 0.0324641 0.35321
0.237867 0.133877 0.35321
-0.20299 0.244025 0.366008
0.199481 0.189687 0.366008
0.195177 0.0490074 0.35321
0.229358 0.0252142 0.35321
-0.200563 0.0990063 0.321067
-0.29069 0.0753317 0.308478
0.216012 0.0809 0.311106
0.0701789 0.0472115 0.35321
-0.288559 0.00814715 0.35321
-0.145656 0.093319 0.35321
0.345794 0.180746 0.366008
-0.187934 0.13055 0.339449
-9.44734e-05 0.0941237 0.366008
-0.109414 0.00156422 0.366008
0.15062 0.0714559 0.366008
0.315406 0.00636986 0.299462
0.263094 -0.16103 0.35321
-0.0547361 0.0984967 0.320826
0.285248 0.237543 0.366008
-0.100899 -0.128998 0.335222
-0.147496 0.135069 0.366008
0.0326871 -0.0269717 0.366008
-0.218149 0.0156448 0.35321
0.0493473 0.095109 0.35321
-0.285409 -0.143631 0.366008
0.217448 0.00330147 0.35321
-0.0811652 -0.0706404 0.35321
-0.176277 0.228585 0.35321
-0.157361 -0.1864 0.366008
0.27992 -0.0646208 0.35321
0.310081 -0.0392447 0.35321
-0.290564 -0.119599 0.127779
-0.0946816 0.0334555 0.300741
-0.354638 0.0168177 0.366008
-0.0944771 0.125186 0.35321
0.206481 -0.0228999 0.366008
-0.303916 -0.148656 0.062228
0.291725 -0.135159 0.0482758
0.214821 -0.16194 0.35321
-0.154568 -0.244934 0.35321
-0.193782 0.0557926 0.35321
-0.252516 0.177311 0.366008
-0.329251 -0.13055 0.340047
-0.0418859 -0.0116971 0.300741
-0.311765 -0.0265478 0.299462
0.259588 -0.0349264 0.300741
-0.227815 -0.0107089 0.35321
-0.156612 -0.149114 0.366008
0.155831 0.0899952 0.315398
0.3065 0.141067 0.0661993
-0.0353999 -0.07734 0.35321
-0.000989348 0.183011 0.366008
0.329823 0.0501262 0.366008
0.188995 0.10777 0.325203
0.241658 0.159193 0.35321
-0.14899 -0.0385956 0.35321
0.116503 -0.13055 0.335497
-0.247624 0.209668 0.35321
0.198478 -0.190852 0.35321
0.178449 0.0391417 0.300741
0.185604 -0.104422 0.35321
0.307593 0.126411 0.145262
-0.027863 0.0551234 0.366008
-0.322092 0.162962 0.366008
0.140704 -0.127088 0.366008
-0.200316 0.0276731 0.366008
0.312885 0.145594 0.366008
0.144119 -0.179894 0.35321
0.120709 -0.0487345 0.35321
-0.157756 0.240732 0.35321
0.0733576 -0.123296 0.35321
-0.109438 -0.0719085 0.308277
-0.194094 0.0700182 0.366008
0.0327805 -0.101767 0.366008
0.251525 0.196618 0.35321
-0.00816971 -0.00721088 0.300741
-0.144904 -0.10509 0.366008
-0.312307 -0.189635 0.35321
-0.210556 -0.0817296 0.35321
-0.114547 -0.230051 0.35321
-0.246702 0.124137 0.331511
-0.220122 0.24939 0.35321
-0.302905 0.149176 0.0591077
-0.146977 0.191817 0.35321
-0.0469477 -0.0255986 0.35321
0.165173 -0.0938392 0.317212
-0.114598 -0.109334 0.366008
-0.0506523 0.0412475 0.366008
-0.234149 0.0645764 0.35321
0.133008 0.104397 0.322195
0.234773 0.12927 0.335385
-0.284343 -0.0372647 0.366008
-0.0467121 -0.145808 0.35321
0.00356412 -0.12927 0.344972
0.317678 0.226354 0.35321
0.304135 -0.0522927 0.300741
0.0347215 -0.13055 0.338728
0.178376 -0.0600803 0.35321
-0.0970383 0.12927 0.336726
0.0266822 -0.228541 0.35321
0.330983 -0.0211438 0.366008
0.281881 0.255844 0.35321
0.199441 -0.0242575 0.299462
0.179975 -0.254838 0.366008
-0.214582 0.187038 0.366008
-0.370928 0.0198307 0.35321
-0.275023 0.0798136 0.35321
0.122311 0.240872 0.35321
-0.226749 0.101066 0.320623
0.29356 0.184238 0.366008
-0.044245 -0.181272 0.35321
0.122578 0.1935 0.366008
0.195081 0.101458 0.35321
-0.00974372 -0.103614 0.321825
-0.251686 -0.138899 0.35321
0.364771 -0.0967531 0.35321
-0.283235 -0.230202 0.366008
-0.0426629 0.0357936 0.300741
0.311838 0.00239599 0.366008
0.219067 -0.00549181 0.299462
0.101823 0.170203 0.366008
-0.222261 0.140014 0.35321
0.328859 -0.0438307 0.299462
-0.18767 0.149398 0.366008
0.334592 0.13055 0.338422
-0.111241 -0.0128447 0.300741
0.312799 0.0681608 0.366008
-0.0991894 0.143619 0.366008
0.24839 -0.0207112 0.35321
0.0228813 -0.091132 0.315935
-0.326289 -0.00298816 0.35321
-0.289557 0.0896962 0.278616
0.0874051 0.051614 0.366008
-0.0777344 0.16596 0.366008
-0.244706 -0.0300689 0.35321
0.160298 0.154519 0.35321
0.380908 -0.073552 0.366008
0.357103 -0.0211382 0.35321
0.108541 0.102414 0.322675
0.29859 -0.222186 0.35321
-0.341214 0.010788 0.300741
0.0387738 0.0214344 0.366008
0.33673 -0.189717 0.366008
-0.132398 0.229869 0.366008
0.167061 0.0847684 0.35321
-0.189731 0.0341474 0.299462
-0.18811 -0.0511472 0.366008
-0.287505 0.0449193 0.299462
-0.0612718 -0.111848 0.325711
0.0795703 -0.183681 0.35321
0.259434 -0.205258 0.366008
-0.0349677 0.246327 0.366008
-0.163513 0.030826 0.35321
-0.3174 0.0424157 0.366008
-0.317061 0.0342039 0.299462
-0.0382565 -0.223984 0.366008
-0.146344 0.0964339 0.318437
0.236694 -0.155123 0.366008
0.385165 -0.20041 0.35321
-0.272269 0.25595 0.354758
0.0317608 -0.0359243 0.300741
0.0842493 0.201783 0.366008
0.134727 -0.251649 0.35321
0.108803 -0.012523 0.35321
-0.0450271 0.204196 0.366008
-0.0213928 0.13055 0.344835
0.289145 0.110119 0.235688
0.205567 0.147213 0.35321
0.280032 0.214834 0.366008
0.247683 -0.081252 0.35321
-0.0144743 0.00467184 0.35321
-0.136382 -0.104555 0.323685
0.0177757 -0.244804 0.366008
0.130186 -0.217203 0.35321
0.320641 -0.119132 0.35321
0.295395 -0.10945 0.325996
0.377794 0.0340837 0.35321
0.0455954 -0.121801 0.35321
0.341481 -0.234675 0.366008
-0.104912 -0.161945 0.366008
0.189606 0.0626778 0.303921
0.230147 -0.101815 0.322392
-0.333465 -0.0506844 0.35321
-0.370907 -0.00824554 0.366008
0.0950103 -0.124481 0.331673
0.0940606 0.150955 0.35321
-0.319015 -0.118321 0.330183
0.311986 0.0652214 0.305121
0.330577 0.203876 0.366008
0.268535 0.1058 0.366008
-0.265612 0.100261 0.366008
0.372816 0.102887 0.35321
0.261815 -0.12927 0.348225
0.0152029 -0.193347 0.366008
-0.0869348 0.00376262 0.366008
-0.107722 0.188707 0.35321
0.168787 -0.0877432 0.35321
0.159369 0.252741 0.366008
0.0609009 -0.20418 0.366008
0.0819889 -0.155839 0.366008
-0.18375 -0.213034 0.35321
0.0919472 -0.0195781 0.299462
-0.161943 0.0369397 0.300741
-0.203154 -0.0198129 0.35321
-0.0231145 -0.247255 0.366008
0.0198512 0.0478939 0.366008
-0.240889 0.138341 0.352934
-0.211852 -0.246299 0.366008
-0.024042 0.177655 0.366008
-0.0896562 -0.216834 0.35321
-0.290678 0.013099 0.300741
0.296785 -0.0915569 0.269011
-0.231868 -0.160142 0.35321
0.262634 0.150317 0.366008
-0.320496 0.118387 0.35321
-0.0214281 -0.108086 0.35321
0.104303 -0.193009 0.35321
-0.0209244 -0.17941 0.35321
-0.0558605 -0.166994 0.366008
-0.131541 -0.0193657 0.300741
-0.0429334 -0.0614764 0.366008
-0.362229 -0.25595 0.365317
0.303996 -0.0764983 0.305414
0.211157 0.0729252 0.35321
0.0851327 0.250016 0.35321
-0.184547 0.189402 0.35321
-0.10116 0.047408 0.35321
-0.371151 -0.173345 0.35321
0.306883 -0.0273767 0.300741
-0.367575 0.144252 0.366008
0.0418302 0.0655977 0.303884
-0.296331 0.144695 0.0860012
-0.0728854 -0.195441 0.366008
0.018783 -0.0823549 0.35321
0.180548 -0.232478 0.35321
-0.0608879 0.00898032 0.300741
-0.341654 0.0809484 0.35321
0.308413 0.110696 0.198451
0.153336 0.111039 0.325329
0.219269 0.127889 0.366008
-0.289641 -0.107203 0.191086
-0.294438 -0.111984 0.282292
0.155883 -0.00105235 0.300741
-0.143182 -0.138945 0.352934
-0.385894 -0.0397597 0.366008
0.15709 -0.00861225 0.366008
0.290776 -0.112272 0.307557
-0.0217709 -0.128217 0.334853
0.329508 0.153243 0.35321
0.386533 0.153359 0.366008
-0.265645 0.135278 0.352934
-0.293288 0.143233 0.366008
-0.38812 0.237202 0.366008
-0.00346822 0.0626171 0.303892
-0.287998 -0.198502 0.366008
-0.124678 -0.123826 0.332781
0.0908839 -0.223144 0.35321
-0.20565 -0.0449716 0.300741
0.211227 0.0356776 0.366008
0.273701 -0.087208 0.314083
0.368628 0.0178288 0.35321
0.254996 0.0983416 0.35321
0.279626 0.014017 0.35321
-0.301874 -0.0618886 0.366008
0.0556239 -0.244688 0.35321
-0.177121 -0.13055 0.343657
0.189502 0.246212 0.366008
0.272169 -0.0013372 0.299462
-0.0681342 -0.251649 0.35321
-0.221365 -0.0324165 0.299462
-0.295299 0.141028 0.0136382
0.194003 -0.0109386 0.35321
-0.257069 0.0406795 0.299462
-0.310195 0.0272776 0.35321
-0.374835 0.178238 0.366008
0.0423176 0.12927 0.352036
0.114314 -0.231058 0.366008
-0.227699 -0.228819 0.35321
0.242034 0.172989 0.366008
-0.353522 0.195307 0.35321
0.36908 -0.033925 0.366008
0.367038 0.220416 0.366008
-0.313556 0.25595 0.35609
-0.344271 -0.215394 0.366008
0.272758 0.131925 0.352934
-0.333012 -0.171597 0.35321
0.336058 0.0713381 0.366008
-0.0614074 0.236787 0.366008
0.050598 0.111074 0.325346
0.0556845 -0.158641 0.35321
-0.0214756 -0.0472077 0.366008
0.149987 0.12927 0.344786
-0.0826439 -0.0311697 0.35321
0.148784 -0.114365 0.326899
-0.321849 -0.0463523 0.300741
-0.225599 -0.138709 0.352934
0.0134612 -0.168312 0.35321
0.104429 -0.0490617 0.300741
-0.296452 -0.125077 0.333371
-0.242604 -0.100812 0.35321
0.268967 0.0625013 0.366008
-0.272202 0.117293 0.35321
-0.138554 0.151581 0.35321
0.0309787 0.0925684 0.366008
0.0721227 0.0124746 0.366008
-0.127664 -0.0680443 0.366008
0.316159 -0.154061 0.35321
0.184238 -0.072258 0.366008
0.291386 0.144236 0.0791824
0.393139 0.0718945 0.358476
-0.301433 0.113624 0.327965
0.0743904 0.178369 0.35321
0.157737 -0.0497865 0.300741
-0.125056 -0.202176 0.35321
0.296874 -0.00845812 0.300741
-0.0429443 0.187911 0.35321
0.288477 0.0954638 0.276273
-0.258227 0.217827 0.366008
-0.279072 0.0896257 0.315224
0.269743 0.0266839 0.300741
0.390988 -0.0467213 0.366008
0.0668935 -0.0420307 0.299462
-0.238747 0.0136561 0.366008
0.184263 0.138855 0.366008
0.0424342 0.014979 0.299462
0.0532315 0.237858 0.366008
-0.212752 -0.112778 0.32615
-0.0859682 -0.0910427 0.315892
0.129398 -0.0748599 0.308255
-0.112419 0.0179588 0.299462
-0.0778919 0.13055 0.34493
-0.20948 0.141881 0.366008
0.311747 -0.112742 0.311661
-0.146433 0.0188706 0.35321
-0.297931 0.181302 0.35321
0.296291 0.125401 0.366008
0.0245425 0.0849261 0.313006
-0.201411 -0.10093 0.366008
-0.136765 0.0496803 0.300741
0.303702 0.0489532 0.366008
-0.0703044 0.0829944 0.31351
0.262012 0.233111 0.366008
0.287844 -0.12927 0.342404
-0.135747 0.11843 0.35321
-0.393139 0.191498 0.363396
0.303426 0.123377 0.331152
0.0910419 0.104525 0.323671
0.174357 0.10621 0.35321
0.262873 -0.0632365 0.304184
0.00991794 0.0431795 0.300741
0.0202554 0.239433 0.35321
-0.3007 -0.120691 0.230043
0.30859 -0.10962 0.213428
0.144869 -0.088815 0.35321
-0.196042 -0.00750535 0.299462
-0.292731 0.0798696 0.366008
0.393139 0.117811 0.36446
-0.116686 -0.133662 0.366008
0.286041 -0.00566143 0.366008
-0.151663 -0.198491 0.35321
0.069829 0.0961131 0.318285
0.21191 -0.0947638 0.35321
0.217904 0.231506 0.35321
-0.0969075 0.110222 0.32636
0.207857 -0.0826151 0.313331
-0.277828 0.0601543 0.301315
-0.391854 0.0467588 0.35321
0.240315 0.255101 0.35321
-0.292377 -0.145204 0.00358615
-0.0376875 -0.0620274 0.302199
-0.330691 -0.200652 0.35321
0.358429 0.0964555 0.366008
0.355918 0.130391 0.35321
0.291036 0.0647629 0.35321
0.362075 -0.0460952 0.35321
0.131778 0.0225019 0.35321
-0.298883 -0.0977872 0.23685
0.232144 -0.0494893 0.299462
-0.368088 0.0652896 0.35321
0.327171 -0.115489 0.327429
-0.301893 -0.131665 0.164189
0.173757 0.0154181 0.299462
0.133258 0.156841 0.35321
-0.117073 0.038505 0.300741
-0.130105 -0.0697632 0.307265
0.307609 -0.128668 0.17054
-0.30717 -0.135793 0.119793
-0.00230211 0.0513583 0.366008
0.120625 -0.0247953 0.35321
-0.104556 0.0893395 0.366008
-0.298011 0.13055 0.347195
-0.129563 0.173228 0.35321
-0.221752 -0.0809076 0.311109
0.143353 0.0720899 0.306948
-0.17115 -0.0997394 0.366008
0.189708 0.13055 0.345356
-0.294914 0.138581 0.122685
-0.222834 0.0171785 0.299462
-0.0512442 -0.13055 0.339929
-0.142398 -0.159718 0.35321
-0.17028 0.12927 0.346108
-0.335112 0.236032 0.35321
0.0522781 0.202852 0.35321
0.239895 0.0802132 0.35321
-0.097065 -0.211058 0.366008
-0.20039 0.0664824 0.305716
-0.266822 -0.0202829 0.299462
0.290119 -0.112242 0.277296
-0.38502 0.0942294 0.35321
0.283429 -0.108208 0.366008
0.238153 0.0644809 0.366008
0.121989 0.0303867 0.299462
0.177893 -0.194722 0.366008
-0.0653414 -0.0364748 0.300741
-0.284355 -0.123454 0.35321
-0.00414589 0.0205404 0.299462
-0.0707032 0.0790035 0.366008
0.174144 -0.13506 0.352934
0.296272 0.127669 0.188167
0.0905709 0.0667801 0.304442
0.145854 -0.1133 0.35321
0.112368 0.134961 0.366008
-0.231918 0.0707892 0.307749
0.0558102 -0.0785297 0.311402
-0.178367 -0.233038 0.35321
0.121457 -0.0360767 0.300741
0.0753734 -0.0793041 0.35321
0.343812 -0.0558012 0.366008
0.117682 -0.12845 0.366008
-0.0905791 0.056957 0.301221
0.0394644 0.181672 0.366008
0.0169443 0.0210973 0.35321
0.308408 0.240325 0.366008
0.228025 0.0510733 0.299462
-0.0902805 -0.0428612 0.299462
0.288974 -0.104931 0.243902
-0.16003 -0.133951 0.352934
-0.363374 0.101173 0.35321
0.175419 -0.0348028 0.299462
0.126753 0.00167173 0.300741
-0.0371217 -0.0936267 0.317112
-0.174774 0.00915113 0.35321
-0.167814 -0.121636 0.33033
-0.00942999 0.119546 0.329344
0.275084 0.081354 0.31132
-0.348761 0.101344 0.366008
0.152688 -0.0728588 0.307311
0.158287 0.0335277 0.299462
-0.30333 -0.0780997 0.309784
0.306772 0.140398 0.0893959
0.178892 0.00348547 0.35321
0.0164198 -0.124643 0.366008
0.24992 0.110279 0.326387
-0.145385 -0.0887651 0.35321
-0.173977 0.104007 0.35321
0.0531412 -0.209862 0.35321
-0.338638 -0.0235861 0.35321
-0.238055 0.197398 0.366008
0.360458 0.0809628 0.35321
-0.273339 -0.0882689 0.35321
0.143943 0.0509156 0.35321
-0.28556 -0.0845588 0.314248
0.341593 -0.128574 0.366008
-0.259457 -0.0625987 0.35321
0.315629 0.0936676 0.310192
-0.159931 -0.0828038 0.312004
0.229313 -0.174008 0.366008
0.135786 -0.161088 0.35321
-0.191674 0.114923 0.328579
0.222863 -0.236337 0.35321
0.376752 -0.00435096 0.35321
-0.365822 0.237836 0.35321
0.301256 0.170159 0.35321
-0.251158 -0.0961246 0.318291
0.188544 -0.153671 0.35321
-0.052335 -0.0750124 0.309742
0.260104 -0.0711133 0.366008
-0.158872 0.181907 0.366008
0.294779 -0.124161 0.209218
-0.306546 0.0985112 0.35321
0.165955 0.0289188 0.35321
0.25545 -0.231265 0.366008
-0.151143 0.000172585 0.299462
-0.197696 -0.192803 0.366008
-0.264243 0.0647932 0.366008
-0.33096 -0.0298786 0.299462
0.362085 -0.129953 0.35321
-0.112201 -0.0553283 0.299462
0.306616 -0.12245 0.109541
-0.170096 0.147027 0.366008
0.294405 0.141187 0.352093
-0.274597 -0.00272783 0.300741
0.084399 -0.122792 0.366008
0.0776431 -0.141082 0.352934
0.347341 -0.220201 0.35321
-0.293502 0.213972 0.366008
0.307856 0.0900186 0.276952
0.0448368 0.226585 0.35321
-0.0306204 0.0888465 0.314856
0.162219 0.198286 0.366008
-0.129808 -0.0260902 0.366008
-0.317488 0.194475 0.366008
0.0404356 -0.0154521 0.299462
-0.199135 0.175615 0.35321
-0.283588 -0.163184 0.366008
-0.191115 -0.244007 0.366008
0.242586 -0.0248351 0.300741
0.250806 0.0484333 0.299462
-0.0315733 -0.209752 0.35321
-0.290457 0.122775 0.13517
0.0764872 0.13055 0.338508
-0.307067 -0.125363 0.105065
-0.136197 0.0757279 0.35321
0.308252 -0.181956 0.35321
0.226961 0.246748 0.366008
-0.270844 0.00102225 0.366008
0.321648 -0.224017 0.35321
0.054028 0.25595 0.364952
-0.272248 0.185314 0.35321
-0.259022 -0.187864 0.35321
0.276624 0.0921283 0.35321
-0.256695 -0.12927 0.339204
0.298377 -0.247411 0.35321
0.331208 0.0185511 0.35321
0.069019 -0.0534137 0.366008
0.224502 -0.13055 0.34928
0.0786871 0.0809994 0.311153
-0.372626 0.126277 0.35321
-0.387116 0.143056 0.35321
-0.283694 -0.0303174 0.300741
-0.205701 0.13055 0.337892
-0.0765744 -0.1209 0.35321
0.104437 -0.050408 0.366008
0.0873986 -0.0709232 0.307812
-0.0932525 -0.0629556 0.302637
-0.0139632 -0.15538 0.366008
-0.142757 0.13055 0.343406
-0.196339 0.0468333 0.366008
-0.230853 -0.12927 0.340338
-0.103157 -0.24025 0.366008
-0.302491 -0.233595 0.366008
0.117047 0.103301 0.35321
-0.120867 0.0810708 0.311186
0.116072 -0.0872195 0.314088
0.0290258 0.0570801 0.301279
0.2399 -0.0310495 0.366008
-0.100198 0.23569 0.35321
-0.157611 -0.0465824 0.299462
0.171195 0.0730702 0.307411
0.264 -0.144451 0.366008
0.0307325 -0.167674 0.366008
-0.0354362 0.111333 0.366008
0.127028 0.13528 0.35321
0.20885 0.0213528 0.35321
-0.131815 0.202641 0.35321
-0.252375 0.25595 0.365575
0.242365 -0.0761749 0.308876
-0.259288 -0.231852 0.366008
-0.169235 0.0242447 0.299462
-0.295905 -0.116093 0.319808
-0.0869225 -0.25595 0.354408
0.325133 -0.0879239 0.314421
-0.347693 -0.10236 0.35321
-0.0690937 0.11139 0.35321
-0.297479 0.228423 0.35321
0.0628719 0.191438 0.366008
-0.257885 -0.0933236 0.366008
-0.377144 0.0109347 0.366008
-0.285768 -0.0654837 0.35321
-0.0277317 -0.130121 0.366008
0.327206 0.244253 0.366008
-0.0595465 -0.240218 0.366008
0.353331 -0.191836 0.35321
0.372813 0.073162 0.366008
0.289822 -0.119098 0.185765
-0.236358 -0.0846274 0.366008
0.0222249 -0.139714 0.352934
-0.244308 0.0343907 0.35321
0.322799 -0.0705071 0.366008
0.0405418 0.15584 0.366008
0.152087 0.240589 0.35321
-0.0131406 -0.0608161 0.303042
0.2052 -0.0424035 0.35321
-0.146426 -0.00263071 0.35321
-0.0864262 -0.0170938 0.366008
-0.104934 -0.0220296 0.366008
0.198966 -0.0542055 0.366008
-0.309153 0.113054 0.310578
-0.354078 0.132912 0.35321
0.070812 0.148044 0.366008
-0.34398 -0.121899 0.331871
-0.335193 0.112409 0.35321
0.0366802 -0.0135503 0.35321
0.0943441 -0.000607461 0.299462
-0.0413216 0.0588732 0.35321
0.3224 0.0451081 0.299462
0.280572 -0.239502 0.35321
-0.0181385 -0.0904813 0.366008
-0.103732 -0.100621 0.35321
-0.382644 -0.25595 0.361023
0.105892 0.118571 0.35321
0.378971 -0.168153 0.35321
0.307822 -0.114862 0.156721
0.355775 0.0479389 0.35321
-0.245186 0.098397 0.35321
0.0521879 -0.105656 0.366008
-0.118582 0.252853 0.35321
0.0621526 -0.234688 0.366008
0.153802 -0.201846 0.35321
0.309552 -0.0955187 0.282293
-0.115752 -0.216278 0.366008
-0.0907471 -0.234206 0.35321
0.34084 0.16787 0.35321
0.106268 0.0500428 0.35321
-0.355109 -0.0808242 0.366008
-0.0657522 -0.00860114 0.300741
-0.34514 -0.161332 0.366008
-0.255157 0.0259041 0.366008
0.213159 -0.202665 0.35321
-0.0411771 0.147479 0.35321
-0.305064 0.0759456 0.35321
0.113808 -0.164614 0.35321
0.10216 0.0847054 0.366008
-0.194594 0.0821764 0.313123
0.307054 0.125538 0.104088
0.331597 0.186077 0.35321
-0.152418 -0.0690408 0.35321
-0.12255 -0.0432888 0.366008
-0.0234769 0.163222 0.35321
0.377716 -0.240406 0.366008
-0.221322 -0.0281926 0.35321
0.184811 -0.0775355 0.310933
0.308682 0.116575 0.238203
-0.20448 0.225452 0.366008
-0.0454768 -0.0128342 0.366008
-0.308825 0.00347936 0.35321
-0.0688391 -0.230096 0.35321
0.0653445 0.118922 0.35321
0.124787 0.072305 0.366008
0.255447 0.0676455 0.306265
0.166744 -0.118345 0.35321
0.362348 -0.0572633 0.366008
0.253248 0.13055 0.343837
0.0467934 -0.046865 0.300741
0.0524536 -0.0579907 0.35321
0.165085 0.230672 0.366008
-0.0807523 -0.108164 0.323972
0.207218 -0.104971 0.322466
-0.170023 -0.199684 0.35321
0.156004 -0.232575 0.366008
0.10333 -0.13055 0.34841
-0.116116 0.0581796 0.35321
0.045793 -0.0846773 0.366008
-0.115777 0.0131187 0.35321
-0.11188 0.125692 0.35321
-0.353559 -0.0235918 0.366008
-0.116343 0.205037 0.366008
0.334303 0.216802 0.35321
-0.290432 0.121705 0.217962
0.134979 0.0360498 0.366008
0.335758 -0.00519687 0.299462
0.34194 0.094266 0.317414
0.136593 -0.138969 0.352934
-0.274073 -0.0454639 0.35321
0.0379823 -0.0778233 0.309654
-0.32581 -0.0933605 0.318402
0.269678 0.19909 0.35321
0.294354 0.142341 0.00686135
-0.0149096 0.212478 0.35321
-0.312631 0.0765658 0.30906
0.291694 -0.145134 0.0769354
0.351128 -0.15788 0.35321
0.0145134 0.063051 0.35321
0.0803384 -0.0541936 0.299462
-0.000712186 -0.151195 0.35321
-0.0232556 0.06454 0.303385
0.353697 -0.111277 0.35321
-0.165796 -0.238324 0.366008
0.277546 0.101683 0.320914
-0.125553 0.135863 0.35321
0.1969 -0.0979733 0.366008
-0.0936498 0.000156581 0.300741
0.288552 0.10398 0.366008
0.310045 0.0152327 0.35321
0.00917885 0.15493 0.366008
-0.05765 0.116425 0.329288
0.147487 0.0153944 0.366008
-0.377203 -0.152792 0.35321
-0.0541847 0.170245 0.366008
0.0566279 0.0745322 0.308101
0.0847819 0.000974953 0.35321
-0.231978 0.150254 0.366008
0.321501 0.117523 0.366008
0.0163182 0.0995442 0.319905
0.258992 -0.0145552 0.300741
0.295144 0.12243 0.219607
-0.167407 -0.123034 0.366008
0.111437 -0.0734975 0.366008
0.290209 -0.0906673 0.317131
0.0610676 0.0139749 0.300741
-0.0152331 0.0564303 0.35321
-0.383082 0.0615547 0.366008
0.0996543 0.238657 0.366008
0.102812 -0.236623 0.35321
0.366529 0.238404 0.366008
-0.218506 0.110065 0.366008
-0.363208 -0.129198 0.35321
0.221846 0.0199484 0.299462
0.0595737 0.0119054 0.35321
-0.393139 -0.0801927 0.360745
-0.134758 0.0994948 0.366008
-0.0767849 0.0462987 0.300741
-0.114037 -0.170479 0.35321
-0.0818572 0.0463641 0.35321
0.216665 0.0634316 0.304277
-0.334214 0.0850153 0.314463
0.202792 0.201707 0.35321
0.0293726 -0.21056 0.366008
0.298235 0.113869 0.153833
-0.29099 0.133267 0.0986173
0.190703 0.210476 0.35321
-0.204579 -0.022686 0.299462
0.329763 -0.241415 0.35321
-0.0751459 -0.14048 0.352934
-0.207243 0.0897226 0.35321
0.2 0.0962688 0.319775
-0.290017 0.124251 0.175162
0.242612 -0.12927 0.348239
0.328501 0.0169077 0.299462
-0.29085 0.117154 0.251269
0.32999 0.10192 0.366008
-0.0488988 0.0858493 0.35321
0.335231 -0.139083 0.35321
-0.305777 0.154717 0.017789
0.0888728 0.0275269 0.366008
-0.243273 0.0868422 0.315326
-0.293444 0.133882 0.0505268
0.186932 0.234266 0.35321
0.294576 0.11289 0.309945
0.134365 -0.0247901 0.300741
-0.251461 -0.0359139 0.300741
-0.308382 0.111741 0.197236
-0.383029 0.219791 0.35321
0.253761 -0.216036 0.35321
0.305526 -0.0801868 0.366008
-0.334443 0.0290767 0.300741
0.292161 -0.154261 0.0194888
-0.152681 -0.0648485 0.304945
0.0309901 0.173058 0.35321
0.323713 0.113392 0.32644
0.375059 -0.193796 0.366008
0.204674 -0.254983 0.366008
0.241312 0.0266994 0.366008
-0.307766 0.12298 0.156474
0.19705 0.162452 0.366008
0.161289 -0.134486 0.366008
0.245419 0.110403 0.366008
0.362876 0.176694 0.366008
-0.180329 0.0729358 0.308762
0.30125 0.0188722 0.299462
0.321495 0.0587345 0.35321
-0.12699 -0.168935 0.366008
0.146871 -0.156576 0.366008
-0.115443 -0.14795 0.35321
0.191284 0.0998121 0.366008
0.159257 0.13055 0.334711
-0.0645037 -0.0677039 0.366008
-0.359578 0.0059976 0.35321
-0.0903268 0.0734771 0.307603
0.338199 0.0416915 0.35321
0.0915773 -0.148817 0.35321
0.142292 -0.195078 0.366008
-0.309422 -0.00603757 0.299462
-0.0643794 0.210807 0.366008
0.23605 0.189384 0.366008
-0.00554436 -0.100622 0.35321
0.0923219 -0.178292 0.366008
-0.206743 -0.0359396 0.366008
-0.264409 0.0416812 0.366008
-0.20875 -0.20349 0.35321
0.306072 0.150069 0.0384722
-0.173737 -0.0112944 0.300741
-0.346006 -0.126367 0.35321
-0.335369 0.172088 0.35321
0.0709982 -0.249676 0.366008
-0.0012643 -0.246933 0.366008
-0.155487 -0.217586 0.35321
-0.285869 0.0468956 0.35321
0.303448 0.094442 0.254118
-0.132269 0.035679 0.35321
-0.265399 0.167696 0.35321
0.056774 0.0717702 0.35321
0.0313003 0.0808658 0.35321
0.0915497 0.210915 0.35321
-0.00406164 0.143764 0.366008
-0.286554 0.201551 0.35321
-0.0208941 -0.214435 0.366008
-0.124138 0.162534 0.366008
0.27174 -0.211827 0.35321
-0.020988 -0.0200277 0.300741
0.0478783 0.00672773 0.366008
-0.212926 -0.09374 0.318581
-0.293869 -0.125657 0.366008
-0.19328 -0.147296 0.35321
-0.288725 0.108025 0.271704
0.215657 0.0610189 0.366008
-0.169232 -0.0273446 0.35321
-0.335426 -0.0787105 0.366008
0.0353786 0.121988 0.366008
-0.393139 -0.123475 0.364378
0.00838953 -0.0984471 0.320803
-0.00306058 -0.0494989 0.366008
0.378365 0.126474 0.366008
-0.304408 0.203492 0.35321
-0.140129 0.118046 0.328636
0.154519 -0.0745985 0.35321
-0.0824049 -0.0585465 0.366008
0.288085 -0.0392689 0.35321
0.00670388 0.00491621 0.300741
0.0493952 -0.111731 0.327072
-0.0719429 0.25595 0.353698
0.368055 -0.18136 0.35321
0.143752 -0.0288379 0.366008
-0.158119 0.252095 0.366008
-0.286438 -0.112512 0.310768
-0.307634 -0.119011 0.143896
0.0244021 0.0314246 0.366008
-0.291519 -0.136626 0.0623757
0.388556 -0.237203 0.35321
0.0990775 -0.0873696 0.315574
0.302903 -0.0172429 0.366008
-0.20867 0.153099 0.35321
-0.114083 -0.13055 0.349254
0.227032 0.0941957 0.35321
-0.166892 -0.0491119 0.35321
-0.0360329 0.121572 0.331717
0.208054 -0.124922 0.35321
-0.291571 0.16603 0.366008
-0.117091 0.182617 0.366008
0.290779 0.127293 0.113089
0.327627 -0.18071 0.35321
0.115823 -0.0979407 0.35321
0.204863 -0.22878 0.366008
0.0897561 0.119818 0.330889
-0.0282825 0.234171 0.35321
0.259091 0.204777 0.366008
0.239408 -0.0039002 0.35321
-0.303731 -0.094699 0.252791
-0.259734 -0.051485 0.300741
-0.330971 0.215842 0.366008
-0.206785 0.202038 0.366008
-0.245963 0.0873947 0.366008
-0.290235 -0.138389 0.351654
0.290756 -0.125132 0.11467
0.0156645 0.188162 0.366008
0.235018 -0.0110138 0.299462
-0.0676523 -0.0862884 0.366008
0.294354 -0.0733519 0.35321
-0.182518 0.0272537 0.35321
0.0732325 0.242611 0.366008
-0.318756 -0.0721363 0.366008
0.281388 0.13055 0.339534
0.228791 0.0918767 0.317702
-0.0110685 0.178716 0.35321
0.087805 0.0893636 0.35321
-0.334026 -0.219219 0.35321
0.0707168 0.210719 0.35321
-0.157007 0.10642 0.366008
-0.248786 -0.15926 0.35321
-0.0898593 -0.169018 0.35321
-0.206973 -0.137672 0.351654
-0.331246 -0.126932 0.366008
-0.0163181 0.100964 0.366008
0.244651 0.0370616 0.35321
0.0748411 0.0298868 0.35321
-0.236442 0.0329181 0.299462
-0.197918 -0.0094429 0.366008
0.0013274 -0.0320601 0.366008
0.0606932 -0.189305 0.35321
-0.121932 0.227211 0.35321
0.296187 -0.20562 0.35321
-0.356689 0.185055 0.366008
-0.328306 -0.236951 0.35321
0.0901887 0.140992 0.366008
-0.389772 0.178733 0.35321
0.255193 -0.25595 0.362818
-0.178395 -0.0779623 0.309719
0.102582 0.021769 0.35321
-0.257621 -0.0671239 0.306019
-0.344475 0.16661 0.366008
0.30831 -0.13406 0.351654
0.292815 0.0371577 0.35321
0.171473 -0.04162 0.35321
-0.0307612 0.0749094 0.366008
-0.353676 0.212976 0.366008
-0.0759342 -0.105064 0.35321
0.198385 0.0624156 0.366008
-0.381357 -0.00689045 0.35321
-0.0261886 0.022503 0.366008
-0.149554 0.0165265 0.299462
-0.249907 -0.0707474 0.366008
0.00508863 0.170384 0.35321
0.309365 0.0896754 0.366008
-0.111147 -0.00871891 0.35321
0.186259 0.175421 0.35321
0.353294 0.106983 0.35321
0.0474581 0.0812127 0.366008
0.30103 -0.0952978 0.2497
-0.0132383 0.199256 0.366008
0.287169 0.0298587 0.300741
0.121403 0.0609109 0.303087
0.0295061 0.151943 0.35321
0.319448 -0.0923877 0.366008
0.191214 -0.205613 0.35321
0.00926185 -0.0150708 0.366008
0.042263 0.205292 0.366008
-0.00436568 0.00666684 0.366008
0.0113051 0.0891608 0.35321
-0.0441591 -0.0393102 0.366008
-0.265023 -0.152119 0.366008
0.00365168 0.244994 0.366008
-0.145535 0.0622223 0.35321
0.12085 -0.141187 0.352502
0.194958 0.0300616 0.35321
0.212121 0.12927 0.349223
0.244629 -0.0651477 0.35321
-0.104238 0.0711809 0.35321
0.353887 -0.241615 0.35321
0.054392 0.0401303 0.366008
0.0584431 0.13055 0.343987
0.153189 -0.222782 0.35321
0.289226 -0.103139 0.219494
0.177804 -0.0289306 0.366008
0.285267 0.20403 0.35321
0.0349455 -0.0848292 0.35321
-0.163778 -0.0886515 0.35321
-0.121971 -0.102325 0.35321
0.316547 0.164422 0.35321
-0.210598 -0.0564025 0.366008
0.254358 0.0168437 0.299462
0.064825 -0.12927 0.337995
-0.137038 -0.188579 0.366008
0.283602 -0.197263 0.366008
-0.311728 0.0131496 0.366008
0.334807 -0.0980674 0.35321
-0.292313 -0.0455827 0.35321
-0.388638 0.0110936 0.35321
0.0510826 -0.226539 0.35321
-0.0936748 0.180506 0.35321
-0.352211 0.0265473 0.35321
0.0756024 -0.063052 0.35321
-0.316368 -0.00427403 0.366008
-0.00372541 -0.187668 0.35321
0.240957 -0.173923 0.35321
0.159515 0.187669 0.35321
-0.349802 -0.181499 0.366008
0.0125759 0.114634 0.366008
-0.179998 0.155742 0.35321
-0.135504 -0.251649 0.35321
-0.279473 -0.13055 0.340421
-0.168825 -0.254246 0.366008
0.1987 -0.0479621 0.300741
0.246191 0.14277 0.366008
-0.280378 -0.0952498 0.366008
0.185447 0.0526903 0.366008
0.0856002 0.129726 0.352934
-0.374211 -0.228475 0.366008
0.2719 0.233087 0.35321
-0.16888 0.185391 0.35321
-0.242678 -0.204078 0.366008
-0.196064 0.185011 0.366008
-0.0218816 0.249018 0.35321
0.26997 -0.103078 0.321572
-0.297475 -0.116478 0.35321
0.0246359 0.207136 0.366008
0.0357892 -0.122249 0.366008
-0.343824 0.00167286 0.35321
0.141646 0.246367 0.366008
-0.0532693 0.0318164 0.35321
0.365207 0.0636705 0.35321
-0.268443 -0.0261987 0.366008
-0.305546 -0.156412 0.000830765
-0.0543576 0.12927 0.351502
-0.0926062 0.0785888 0.366008
-0.341131 -0.0446983 0.366008
-0.207779 0.0615963 0.366008
-0.333233 0.13055 0.349304
-0.227346 0.0850401 0.314475
0.289303 0.10767 0.217233
-0.0487157 0.0506586 0.300741
0.0421447 -0.029048 0.35321
-0.248344 -0.115798 0.35321
-0.045459 0.228855 0.35321
0.0486414 0.246456 0.35321
0.296078 0.066945 0.305935
0.152113 0.093476 0.35321
-0.27175 -0.132167 0.366008
0.0249067 -0.196274 0.35321
0.0957391 -0.106995 0.324837
-0.112458 0.225683 0.366008
-0.324115 -0.0641866 0.35321
0.185992 -0.115554 0.328876
-0.293313 0.0998548 0.226177
-0.00249228 0.100759 0.321894
0.29316 -0.17624 0.366008
-0.319431 -0.161359 0.35321
0.143174 0.051112 0.299462
0.127437 -0.11049 0.32507
-0.366126 -0.0749394 0.35321
0.0128668 -0.0749575 0.366008
0.145296 -0.0392953 0.35321
0.0719443 0.0630193 0.35321
-0.0488789 0.064532 0.366008
-0.231078 0.0467191 0.35321
-0.0258386 0.0493574 0.299462
0.00558609 -0.0197013 0.300741
-0.207129 -0.187693 0.35321
-0.379988 -0.176475 0.366008
0.20949 -0.084786 0.366008
-0.176939 -0.176579 0.35321
0.228574 -0.0194092 0.35321
0.271773 -0.0927147 0.35321
-0.355481 -0.220652 0.35321
0.253896 -0.156645 0.366008
0.15428 -0.184732 0.366008
0.327627 -0.153743 0.366008
-0.278468 -0.0635162 0.304316
0.294278 -0.150631 0.0503789
-0.327668 0.191665 0.35321
0.250019 0.177721 0.35321
0.0917813 -0.232379 0.366008
0.0107267 0.145786 0.35321
-0.30759 0.117442 0.140901
0.373573 0.244387 0.35321
-0.374195 0.029113 0.366008
0.290026 -0.25595 0.365849
-0.153409 0.1497 0.366008
0.375989 -0.107848 0.35321
0.181293 0.147592 0.35321
-0.356829 -0.135827 0.366008
-0.304869 0.126721 0.193856
0.239505 -0.25595 0.361428
0.245071 -0.213104 0.366008
0.112421 0.12079 0.329931
-0.173089 -0.185948 0.366008
-0.130476 -0.0387259 0.35321
0.333831 0.135829 0.35321
-0.262532 -0.240386 0.35321
-0.305913 -0.123886 0.210871
-0.24862 -0.0472755 0.35321
0.27326 -0.022389 0.299462
-0.0701561 0.239349 0.35321
0.314059 -0.0638762 0.304486
-0.343189 0.0305856 0.366008
-0.102444 -0.0916099 0.366008
0.260083 0.141583 0.35321
-0.178616 0.0598603 0.35321
0.289746 0.113785 0.184903
-0.309359 -0.107187 0.281685
0.235339 0.0510047 0.35321
0.117783 -0.0670346 0.35321
0.177548 0.22088 0.35321
0.253708 0.071506 0.366008
0.0011543 -0.205016 0.35321
0.102595 -0.0894681 0.35321
-0.177297 -0.0624765 0.366008
0.169258 -0.1973 0.35321
-0.287072 0.0293269 0.300741
-0.383136 -0.238474 0.35321
0.167343 0.182896 0.366008
-0.363764 0.04025 0.35321
0.362959 0.25595 0.355222
0.161511 0.118489 0.35321
0.300556 -0.140629 0.0156992
0.0523073 -0.0750737 0.35321
-0.29419 -0.0177887 0.366008
-0.206724 0.113974 0.328131
0.292696 -0.151497 0.35321
-0.37555 0.205066 0.366008
0.226823 -0.148876 0.35321
0.0844868 0.0160694 0.299462
0.358898 0.186227 0.35321
-0.0354473 0.13055 0.351569
0.299522 0.133225 0.0539156
-0.0329731 -0.133174 0.351654
-0.221761 0.0515957 0.366008
0.290332 0.123195 0.144176
-0.257722 0.0174402 0.299462
-0.277872 -0.0957079 0.318094
0.0592979 -0.00862917 0.366008
-0.250826 -0.222 0.35321
0.146251 0.0868512 0.366008
-0.325787 0.0480546 0.35321
0.287064 0.0503596 0.366008
-0.00885531 0.134335 0.35321
-0.153624 0.140824 0.352934
0.0516753 -0.252961 0.366008
0.263468 -0.0792409 0.35321
0.204285 0.110474 0.325063
-0.172089 -0.0371356 0.299462
0.393139 -0.0612121 0.360872
0.386262 0.0317578 0.366008
0.195308 0.0486002 0.300741
-0.357719 0.234513 0.366008
-0.312917 -0.0894538 0.305364
-0.359458 0.0841937 0.35321
-0.2057 -0.0636189 0.35321
-0.318246 -0.196006 0.366008
-0.0213998 -0.0904198 0.317014
-0.159956 0.218351 0.35321
0.371594 0.148177 0.35321
-0.0619954 0.0190559 0.35321
0.00528732 0.0861325 0.314991
-0.0350676 -0.14372 0.366008
-0.35028 -0.0402994 0.35321
-0.0177439 -0.0648253 0.35321
-0.239391 0.105038 0.366008
0.190032 -0.145175 0.366008
0.344897 0.00844067 0.35321
-0.0800201 0.0924189 0.317958
-0.102917 0.11228 0.35321
-0.309249 0.143414 0.35321
-0.29294 -0.13816 0.125214
0.113068 0.208211 0.366008
-0.0579616 -0.158679 0.35321
0.324937 0.0104936 0.366008
-0.0858481 -0.245888 0.366008
0.141739 -0.00775094 0.366008
0.297164 0.116708 0.253944
0.120005 0.0323684 0.35321
-0.187788 0.241838 0.366008
-0.00902143 -0.00968376 0.35321
-0.0491659 -0.0557364 0.35321
0.318872 0.0302264 0.300741
0.0903102 -0.106458 0.366008
0.293389 0.0208509 0.35321
-0.202138 -0.17346 0.366008
-0.0234374 -0.196641 0.366008
-0.15049 -0.25595 0.363029
-0.18726 -0.116219 0.327774
0.137893 -0.0737409 0.366008
-0.337152 -0.0955773 0.366008
0.100386 0.031695 0.299462
-0.294307 0.102653 0.366008
-0.236002 -0.0501199 0.366008
-0.342243 0.0665069 0.304313
0.174058 -0.237687 0.366008
-0.0452696 0.212513 0.35321
0.307254 -0.131766 0.121608
0.393021 -0.102948 0.366008
-0.229322 0.00166756 0.366008
0.376407 0.0511858 0.35321
-0.144179 -0.0684526 0.366008
-0.183436 0.0431212 0.35321
0.0252701 0.000429012 0.299462
-0.23417 -0.0414259 0.35321
0.237072 0.010375 0.299462
-0.0709799 -0.203453 0.35321
-0.092022 -0.0875827 0.35321
0.174804 0.0700452 0.366008
-0.26458 0.0855591 0.31472
0.0216925 0.223076 0.35321
-0.0518689 -0.0946392 0.366008
-0.249668 0.0555847 0.299462
0.224529 -0.0589214 0.366008
0.181282 -0.0208645 0.300741
0.176927 -0.088215 0.366008
0.305313 0.129062 0.0754052
-0.304092 0.102818 0.210878
0.289349 -0.101457 0.35321
0.112438 0.0635284 0.366008
0.0400994 0.0612358 0.35321
0.193269 -0.244331 0.366008
0.359591 -0.0704042 0.35321
0.236016 0.116112 0.327723
-0.127635 -0.139123 0.351654
0.321032 -0.00867534 0.299462
0.118537 0.25595 0.365949
