0.0306797 -0.0282109 0.323738
0.249252 -0.259003 0
-0.15291 0.0481974 0.402256
0.0315183 0.129737 0.437149
0.0218827 0.0284403 0.324776
-0.169235 0.136661 0.402256
-0.291072 -0.0864961 0.216239
-0.0476198 0.0497266 0.3634
-0.0164565 -0.20983 0.423642
-0.292984 0.0320359 0.262324
-0.197069 0.0404738 0.423642
-0.0297513 -0.291451 0.437149
0.00216082 0.00477745 0.401613
0.1423 0.277747 0.437149
0.0729571 -0.0916682 0.423642
0.268043 -0.0944566 0.205896
0.239799 -0.0421766 0.402256
0.244396 -0.127779 0.201096
-0.317982 0.250795 0.423749
0.0977601 0.0160045 0.423642
0.143042 0.00493452 0.402256
0.187882 -0.20184 0.423642
-0.256036 0.223392 0.169445
0.286379 -0.0686497 0.437149
0.224459 0.0803739 0.423642
0.111985 0.121928 0.402256
0.241197 0.0132378 0.423642
0.272975 -0.0472901 0.387503
0.0371714 -0.0308034 0.328325
0.269948 -0.016091 0.303966
-0.245468 -0.0324934 0.331316
-0.289029 0.113697 0.213949
-0.0700595 0.0937949 0.437149
-0.186699 0.190057 0.423642
-0.249965 -0.181009 0.423642
0.203757 -0.0381544 0.402256
-0.253962 -0.0239961 0.40095
0.24668 0.0953963 0.423642
-0.0215163 0.0776641 0.402256
-0.155702 -0.058064 0.38141
-0.112064 0.0274534 0.324043
0.231709 -0.305052 0.011256
-0.0721698 -0.0774058 0.423642
0.0214148 0.305439 0.423642
0.125935 0.0129716 0.30031
0.12696 -0.135592 0.423642
-0.135206 -0.145121 0.437149
0.0915251 -0.0796804 0.423642
-0.114973 -0.0223122 0.402256
0.193454 0.0165184 0.302071
0.0805288 -0.0555587 0.423642
0.25423 -0.104292 0.437149
0.0654688 0.0872139 0.423642
0.27942 0.121128 0.204522
0.0130422 -0.0218619 0.423642
0.116557 -0.230398 0.437149
0.214357 -0.296823 0.437149
-0.186022 0.000452667 0.423642
-0.0181915 0.189186 0.437149
-0.0541978 -0.112338 0.437149
-0.243411 -0.0516396 0.410171
-0.254392 0.0859688 0.232586
-0.017043 -0.0487692 0.360115
0.245237 -0.250619 0.154921
-0.000326782 0.16209 0.423642
0.270289 0.29946 0.0795986
-0.0651587 -0.204904 0.437149
0.247522 -0.203978 0.181862
-0.166494 -0.31573 0.437149
-0.280476 -0.0133477 0.40095
0.0475286 0.0273308 0.437149
-0.162727 0.192598 0.423642
-0.246208 0.171009 0.423642
0.128537 -0.102968 0.423642
0.222958 -0.200705 0.423642
0.077907 0.271417 0.437149
-0.0571403 0.192757 0.402256
0.243845 0.158073 0.165498
-0.167111 -0.140294 0.437149
0.126969 0.298558 0.423642
-0.258358 0.28802 0.0883654
0.142825 0.0165093 0.423642
0.280037 -0.213589 0.184466
-0.0181092 -0.16652 0.437149
-0.202386 0.205422 0.413296
-0.0799166 -0.306106 0.423642
0.227508 -0.269787 0.011256
0.213385 0.0274108 0.323968
0.21921 -0.0806103 0.423642
0.24262 -0.165096 0.246439
0.0304059 0.0198844 0.310669
0.295637 -0.181204 0.423642
0.276128 -0.088311 0.337143
-0.0318898 0.102029 0.437149
0.262577 -0.0123314 0.300255
0.225707 0.166965 0.423642
0.204851 0.030978 0.402256
-0.25147 -0.109572 0.325718
0.26884 0.151293 0.249233
-0.26222 -0.171516 0.423642
-0.144809 0.0355901 0.40095
0.209752 -0.0433456 0.352124
-0.28319 0.230465 0.186549
0.226347 -0.0368122 0.402256
0.0321907 -0.0980572 0.437149
-0.192679 0.161287 0.423642
0.282909 0.176081 0.437149
0.249666 0.121818 0.182432
0.030961 -0.108468 0.437149
-0.290853 -0.205858 0.208484
-0.295374 0.0570704 0.372352
-0.287758 0.0554875 0.239313
0.0928863 0.0813948 0.423642
-0.00561973 -0.053268 0.389127
0.0759792 -0.226812 0.437149
0.265946 0.301563 0.0543472
0.251186 -0.0613889 0.437149
0.0465198 -0.0497007 0.394867
0.133864 -0.156914 0.423642
-0.271021 0.262842 0.0937996
-0.0767528 0.0841068 0.423642
-0.17268 -0.0280307 0.401613
0.226249 0.0116841 0.402256
0.253209 -0.24565 0.00145953
-0.284197 -0.00614353 0.342435
0.102786 -0.251234 0.423642
0.0841641 0.0437783 0.351603
-0.251894 -0.131007 0.309937
-0.281947 -0.124581 0.286079
-0.0646707 0.0544233 0.371698
-0.151599 0.0192145 0.402256
0.266834 0.0361687 0.338294
0.242479 -0.280373 0
0.283218 0.18669 0.423642
0.11942 -0.159797 0.423642
-0.118433 0.00598732 0.423642
0.215058 -0.0497635 0.394766
-0.208825 0.124748 0.423642
0.16813 0.089076 0.437149
0.100152 0.127999 0.437149
0.128506 0.0546257 0.370577
-0.252656 -0.155692 0.273492
0.274789 0.0715474 0.437149
-0.0564032 -0.0369805 0.339255
-0.188988 -0.113288 0.423642
0.244331 0.0998514 0.35374
-0.254454 0.0832208 0.22785
0.0850184 0.146913 0.437149
-0.2475 -0.304975 0
0.242793 0.191148 0.207313
0.179882 -0.256683 0.437149
-0.0226606 -0.0490451 0.402256
0.115733 -0.0348519 0.423642
0.0790529 0.00321549 0.401613
-0.120563 0.160595 0.437149
-0.261131 0.051511 0.363739
-0.277717 -0.0530135 0.366343
0.249504 0.129005 0.423642
-0.0480187 -0.0154443 0.300354
0.259344 0.0716691 0.225437
-0.266991 0.0331313 0.437149
-0.126273 -0.187902 0.402256
-0.281238 0.231863 0.185601
0.144316 -0.0122123 0.401613
-0.114788 0.138101 0.402256
-0.291684 0.193759 0.202122
-0.250665 -0.0836728 0.364333
-0.0653557 -0.036695 0.337723
-0.207328 -0.187953 0.423642
0.280277 -0.206676 0.195116
-0.190621 0.055643 0.371204
0.0917315 0.273283 0.423642
-0.0701428 0.0448326 0.423642
-0.160893 -0.0319599 0.329356
0.242339 0.188404 0.423642
-0.0495075 -0.17057 0.402256
0.276643 0.193885 0.120632
0.194063 -0.155759 0.437149
0.0983707 -0.0296011 0.402256
0.183625 -0.0478283 0.357395
-0.274088 0.234682 0.0856462
-0.253712 -0.179469 0.222315
-0.12243 0.0419899 0.349729
0.218124 0.0327824 0.402256
0.076934 -0.165984 0.402256
0.269347 0.275466 0.011256
0.000612229 0.0541103 0.387211
0.0796361 0.162231 0.402256
0.110523 -0.205422 0.417216
-0.154425 0.0307819 0.401613
-0.258695 0.28013 0.0789668
0.145521 -0.183588 0.423642
-0.170104 0.301745 0.423642
0.0270255 0.309113 0.437149
0.169546 0.0270258 0.40095
0.1838 -0.0149165 0.301891
0.128555 0.0437104 0.352769
0.19625 0.0498077 0.363543
-0.293198 -0.12923 0.289981
0.00634477 0.0221339 0.40095
-0.280663 -0.295816 0.437149
-0.268838 -0.06958 0.423642
0.241107 0.112762 0.336689
-0.00315002 -0.284971 0.423642
0.103839 0.277862 0.423642
0.172509 0.310511 0.437149
0.265978 0.0191444 0.27048
-0.0380848 0.127309 0.437149
0.120533 -0.0437527 0.350194
-0.160062 0.289795 0.437149
0.0516278 -0.218843 0.437149
0.247425 0.299491 0.011256
0.276041 -0.144637 0.423642
0.280396 -0.0554422 0.326352
0.26118 -0.114161 0.437149
0.0440543 -0.0227077 0.40095
-0.127515 0.041397 0.40095
-0.272721 -0.0176572 0.271755
-0.126762 -0.086397 0.423642
-0.260645 -0.198013 0.142684
0.243411 -0.0931834 0.420948
0.0320771 0.213692 0.423642
-0.07207 0.11301 0.423642
-0.25271 -0.0297768 0.269426
-0.16855 -0.107891 0.402256
0.214763 -0.200715 0.402256
0.246421 0.0639429 0.437149
-0.278594 -0.289262 0.423642
0.0823139 -0.0242268 0.40095
-0.0197127 -0.11054 0.423642
0.0679548 -0.0253168 0.320268
0.053341 -0.0134457 0.437149
-0.033011 -0.198941 0.423642
0.14052 0.00348793 0.423642
0.11708 0.24448 0.437149
-0.00367275 -0.279963 0.423642
-0.093827 0.0290679 0.401613
0.0468179 -0.304774 0.437149
0.0965781 -0.11579 0.423642
0.173172 -0.0566225 0.402256
-0.0753486 -0.183555 0.437149
-0.265161 -0.263887 0.011256
-0.0874304 -0.0298883 0.402256
-0.0362531 0.227322 0.437149
0.193465 0.170888 0.423642
-0.0165596 0.207126 0.437149
-0.299969 -0.213322 0.423642
-0.317982 0.114901 0.425873
0.0151683 0.154214 0.423642
-0.209405 -0.0201368 0.423642
0.256313 -0.134796 0.198707
0.11327 0.193075 0.402256
-0.256783 -0.288567 0.0875172
0.178151 0.0684082 0.423642
-0.0804812 -0.190222 0.423642
-0.272808 -0.164767 0.22845
0.123426 -0.00900209 0.437149
0.205104 0.0343719 0.437149
-0.0962912 0.177833 0.423642
-0.0790145 -0.0400374 0.402256
-0.317982 0.265527 0.42598
0.173595 -0.120023 0.437149
0.191548 -0.171058 0.423642
-0.291004 -0.0987744 0.213778
-0.155977 -0.0337153 0.423642
-0.0973647 -0.036435 0.402256
-0.148901 0.114933 0.402256
0.0448666 0.0351713 0.337681
-0.234204 0.0500143 0.363908
0.150754 -0.0339077 0.333818
0.0124316 0.0210793 0.31013
-0.147703 -0.144662 0.423642
0.254727 -0.235729 0.139105
0.295646 0.193735 0.423642
0.195261 -0.205422 0.420182
-0.0584535 -0.0453918 0.35574
0.246698 -0.20101 0.114522
0.114477 0.0871992 0.402256
-0.175491 0.283942 0.423642
-0.267186 0.100681 0.200565
0.252487 0.0417194 0.40095
0.207005 -0.00919428 0.437149
0.260811 0.283493 0.437149
-0.0822409 -0.0456336 0.423642
-0.284414 -0.277039 0.0484789
0.0413691 -0.168475 0.423642
0.114717 0.0736225 0.437149
-0.165848 -0.0251702 0.40095
0.0564069 0.258486 0.437149
0.0900534 0.0282884 0.402256
-0.113259 -0.251437 0.423642
-0.181853 0.040376 0.423642
-0.228555 -0.0129582 0.437149
0.15141 -0.196505 0.437149
-0.234967 -0.180084 0.423642
0.122828 0.0325076 0.33189
0.232824 0.104918 0.437149
-0.253213 -0.0381759 0.437149
-0.13785 -0.00448123 0.40095
0.243411 -0.0801794 0.418566
-0.317887 0.0431942 0.423642
-0.214759 -0.107347 0.437149
-0.272027 1.56467e-06 0.28165
-0.2683 0.233586 0.0866021
0.313172 -0.212057 0.423642
0.207472 -0.120613 0.423642
0.214895 0.202232 0.402256
-0.148839 -0.0365255 0.337423
0.0876699 0.0728891 0.402256
-0.00302063 -0.0226812 0.423642
-0.267966 0.0190631 0.307505
0.224503 0.00874889 0.423642
-0.274687 0.0506548 0.36504
0.243411 -0.183859 0.415474
0.220094 -0.301414 0.437149
0.239335 0.0679302 0.361576
0.175796 0.0691937 0.423642
0.241254 0.0304967 0.328373
-0.260602 -0.263017 0.0613475
0.201105 -0.128986 0.402256
0.11647 0.0291305 0.324356
-0.106546 0.0429373 0.348753
0.0523577 0.0903658 0.402256
0.249581 -0.240152 0.135814
0.270233 -0.0354878 0.402256
-0.0625361 0.295452 0.437149
-0.25795 -0.00223908 0.401613
0.00404134 -0.0250926 0.423642
-0.0810056 0.0154729 0.302874
0.0547328 0.152385 0.402256
-0.254721 0.0542185 0.368687
0.135752 -0.144947 0.423642
0.243411 0.139172 0.417808
0.239319 -0.0705058 0.365654
-0.254571 -0.132903 0.190051
-0.157345 -0.0413626 0.347009
-0.151711 0.0214805 0.313489
-0.158237 0.0404358 0.401613
-0.138253 -0.150244 0.437149
0.116113 0.015026 0.423642
-0.275038 0.144333 0.163124
-0.278115 0.008289 0.300221
-0.284815 -0.303852 0.437149
-0.17015 0.205422 0.422165
0.129161 0.108594 0.423642
0.262838 -0.162381 0.147648
-0.317773 -0.0268347 0.437149
-0.0512258 -0.0176495 0.30505
-0.0403071 -0.0373431 0.339897
0.0433377 0.137183 0.402256
-0.141864 -0.219088 0.437149
-0.17544 -0.0483913 0.437149
-0.125393 0.055359 0.423642
0.280044 -0.224638 0.186905
-0.27534 -0.214976 0.102562
0.181856 0.117444 0.402256
-0.0344532 -0.0604845 0.423642
-0.261274 0.212643 0.206117
-0.28944 0.271783 0.102363
0.12104 -0.14524 0.423642
0.222862 -0.00691602 0.437149
-0.175 0.114652 0.423642
0.250879 -0.0399671 0.291865
0.12218 0.205422 0.419631
-0.274068 0.257519 0.437149
-0.118443 -0.206567 0.437149
0.26794 0.0504023 0.363189
0.0595995 0.0964947 0.423642
-0.251933 0.0296571 0.319656
-0.0548801 -0.0591664 0.37743
-0.282833 -0.242728 0.167621
-0.100356 -0.0256051 0.320777
-0.183614 -0.00211345 0.30031
0.132698 0.0557187 0.38479
0.151334 -0.253304 0.423642
0.00364047 0.0390165 0.402256
0.133943 -0.0499889 0.437149
0.256309 -0.0284197 0.324108
0.0838777 0.104069 0.402256
-0.256657 0.249224 0.147367
-0.162928 0.0111575 0.402256
0.16663 -0.276535 0.423642
-0.199773 0.227928 0.437149
0.278946 -0.0413086 0.423642
-0.0112649 -0.0789197 0.423642
0.28131 -0.0512886 0.24339
-0.197978 -0.174161 0.423642
0.28201 0.134049 0.2952
0.243411 -0.201588 0.406444
0.285994 0.27152 0.437149
-0.256447 -0.14482 0.18706
0.0580868 0.0267345 0.320122
-0.0809828 0.0255085 0.402256
0.138132 0.176142 0.423642
0.120615 0.0581652 0.37831
0.123573 0.125084 0.423642
-0.317982 -0.238368 0.426899
0.0191153 0.104413 0.423642
0.16086 -0.205422 0.405705
-0.0729858 0.121405 0.423642
0.0755454 0.0288162 0.40095
-0.151247 0.112323 0.423642
0.245529 -0.190729 0.200227
0.24138 0.1017 0.437149
-0.254998 -0.0580002 0.376448
0.162392 -0.0167865 0.402256
0.279383 -0.160731 0.274886
-0.0187929 -0.0429777 0.349867
0.243158 0.111992 0.192735
0.0996149 0.0366338 0.340265
0.185887 0.129549 0.437149
0.160216 -0.0476763 0.398124
0.191201 -0.020342 0.401613
-0.227053 -0.172509 0.437149
-0.222942 -0.136793 0.402256
-0.259474 -0.0313745 0.330972
-0.264963 0.258362 0.0929249
-0.286598 0.298641 0.0674565
0.221877 0.272371 0.007688
-0.0556125 0.0215717 0.402256
-0.13568 0.200765 0.402256
-0.125127 0.265343 0.423642
0.172395 -0.0401866 0.402256
0.0745284 -0.0414304 0.423642
-0.304712 0.314406 0.423642
0.264484 0.21931 0.127072
0.17954 0.0260611 0.40095
0.304106 0.247679 0.423642
-0.187385 -0.0798941 0.423642
0.13431 0.317982 0.435399
-0.174005 -0.160627 0.402256
-0.221933 0.00386676 0.423642
-0.0115676 -0.0834567 0.437149
0.265237 -0.235786 0.423642
-0.161504 -0.102914 0.423642
-0.311346 0.209848 0.437149
0.157545 -0.0392944 0.402256
-0.296122 0.101685 0.437149
-0.0758162 0.0234126 0.402256
0.206533 0.209371 0.423642
0.191188 -0.278388 0.423642
-0.248083 -0.294088 0.437149
-0.0799139 0.160532 0.423642
0.151389 0.0344539 0.333763
0.0484402 0.0141622 0.401613
0.11816 -0.0332206 0.437149
-0.292109 -0.0185611 0.306635
-0.133788 0.157201 0.437149
0.0596763 -0.0109968 0.30031
0.00438175 0.047424 0.423642
-0.281104 -0.0526217 0.365664
0.309326 0.0781416 0.437149
-0.293409 0.308635 0.011256
0.00970328 -0.155159 0.437149
0.238105 0.0354231 0.338126
0.198722 0.0602481 0.437149
-0.147063 -0.0401953 0.40095
-0.125311 -0.0521808 0.365086
-0.317982 -0.0715392 0.430852
0.0522107 0.0807744 0.402256
-0.199548 -0.0168674 0.303666
0.263688 0.242509 0.423642
0.242473 -0.187224 0.402256
-0.273389 -0.0890707 0.239155
0.163539 -0.203502 0.423642
0.206599 0.156992 0.402256
-0.195597 -0.00240406 0.437149
0.218501 0.0866613 0.402256
-0.0576691 -0.043475 0.352353
0.0785636 -0.317982 0.434066
0.310484 -0.0440469 0.437149
-0.253102 0.217069 0.423642
-0.0262602 0.0662523 0.423642
0.277159 0.135081 0.17106
0.123201 0.0953592 0.423642
-0.094101 -0.00010775 0.423642
-0.203468 0.0681207 0.423642
0.264648 0.231266 0.423642
0.148508 -0.109131 0.402256
-0.159921 0.283359 0.423642
-0.115427 -0.0303329 0.402256
0.0172062 0.0541734 0.368607
0.128619 -0.0662192 0.423642
-0.0791722 -0.0184111 0.402256
-0.258268 0.0765149 0.423642
0.176072 0.27426 0.437149
-0.292453 -0.0270415 0.26589
0.0397372 -0.0690738 0.402256
0.218182 0.0016757 0.437149
0.149418 0.043092 0.423642
0.25471 -0.211738 0.132017
-0.00616096 -0.140603 0.423642
0.106466 0.223556 0.423642
0.190543 0.0508859 0.402256
0.142797 -0.038216 0.40095
0.183151 0.0137306 0.402256
0.220401 0.0346817 0.334165
-0.112072 -0.205422 0.403039
0.0494673 0.042781 0.423642
-0.211632 0.116287 0.437149
0.244801 -0.148325 0.170291
-0.277603 0.300238 0.0973132
-0.290621 -0.205592 0.198155
0.293517 -0.308407 0.011256
-0.00676641 0.00989243 0.402256
-0.314292 -0.305388 0.437149
-0.0302285 -0.0293218 0.423642
-0.0369573 0.166861 0.423642
0.268466 -0.279417 0.423642
0.206904 -0.0272282 0.321999
0.0819303 -0.0738282 0.437149
-0.21538 -0.0637467 0.437149
-0.0785705 0.0164849 0.304662
-0.285465 0.0724716 0.371199
-0.220354 0.0319443 0.40095
0.263359 0.267801 0.423642
0.0688277 -0.0285679 0.401613
-0.077737 -0.148914 0.423642
-0.174534 0.0687734 0.423642
-0.244873 -0.238915 0.437149
0.137873 0.10978 0.437149
0.127939 0.107655 0.423642
-0.274095 0.0304602 0.327257
0.00432873 -0.0942674 0.423642
0.164011 -0.210507 0.423642
-0.0153709 -0.0315726 0.423642
-0.0930178 0.0258949 0.402256
0.108471 -0.0898513 0.437149
0.187371 -0.0526076 0.423642
-0.255997 0.214317 0.171373
0.26331 0.302914 0.0517949
-0.0517223 0.0882567 0.437149
0.122469 -0.301665 0.423642
0.278373 -0.211373 0.116881
-0.267851 0.214904 0.437149
-0.0287373 0.0178026 0.437149
0.238254 -0.0456386 0.423642
-0.112223 0.312219 0.437149
0.239816 0.0429569 0.344897
0.255247 -0.31381 0
0.240531 0.00105441 0.40095
0.248046 -0.273235 0.0650817
0.192443 0.112735 0.423642
-0.0709043 -0.137598 0.402256
-0.0685811 -0.150991 0.423642
-0.0375558 -0.167172 0.423642
0.189591 -0.0132363 0.423642
-0.169346 -0.138463 0.423642
0.250606 0.0525237 0.3669
-0.123259 0.158482 0.423642
0.265184 0.0931126 0.234875
-0.232237 -0.179275 0.423642
0.244712 -0.233834 0.173171
-0.293473 0.142922 0.284647
0.0398258 -0.0118899 0.40095
-0.267891 0.287543 0.011256
-0.30285 0.218627 0.437149
0.0683771 -0.000913844 0.423642
0.127133 -0.317982 0.426226
-0.203315 0.188321 0.402256
-0.0568227 0.202006 0.423642
0.242795 -0.157711 0.245152
-0.283481 -0.0184177 0.401613
-0.190023 0.16142 0.423642
0.106125 -0.138957 0.423642
-0.174798 0.00372359 0.437149
-0.1839 0.0203103 0.437149
0.00489469 -0.130649 0.402256
0.0996353 -0.138669 0.402256
0.27972 0.0556488 0.326478
0.0822794 0.18735 0.423642
0.272941 -0.260967 0.145967
0.243411 0.0475695 0.415625
0.054688 0.0450522 0.437149
-0.103265 0.167286 0.423642
0.195277 0.307573 0.437149
0.100165 0.0771573 0.402256
0.0850092 -0.0503672 0.362942
-0.000419885 0.288084 0.423642
0.221097 -0.0498152 0.363556
0.279471 0.19322 0.201877
0.0652401 0.249807 0.423642
-0.235027 -0.158013 0.437149
0.281556 0.0908683 0.364738
0.01319 0.223304 0.423642
-0.228801 -0.0218501 0.312483
-0.279672 -0.223556 0.193501
-0.254558 0.190417 0.223008
-0.28263 0.0385477 0.437149
-0.114327 -0.198666 0.437149
-0.231145 -0.0252346 0.40095
0.143206 -0.144462 0.402256
0.168163 -0.0436754 0.350057
-0.0828161 0.171336 0.423642
0.265312 0.300909 0.0828795
-0.209022 -0.0827394 0.402256
-0.119801 -0.039631 0.342911
0.0785196 -0.220376 0.423642
-0.191453 -0.135298 0.423642
0.28032 -0.122673 0.202306
0.0986703 -0.0262724 0.40095
0.16317 0.28848 0.423642
0.0681033 -0.166712 0.423642
-0.261803 0.190341 0.148971
0.267733 0.289445 0.02814
0.016385 -0.0300586 0.423642
-0.204141 0.0944121 0.437149
0.188416 -0.205422 0.419589
-0.121299 -0.0813379 0.402256
0.126499 0.0773791 0.402256
-0.0768402 -0.164868 0.423642
-0.20648 -0.300865 0.423642
0.0487584 -0.035528 0.423642
0.164556 -0.0415393 0.402256
0.199851 -0.277363 0.437149
-0.252594 0.135312 0.29577
0.00294533 0.0262393 0.319248
0.0564408 -0.03662 0.423642
0.0658966 0.0390062 0.423642
0.0555319 -0.103699 0.437149
0.0533168 0.0218586 0.40095
-0.156748 0.0569037 0.376081
-0.317982 0.0733437 0.431381
-0.031877 -0.0655535 0.437149
-0.142707 0.229935 0.423642
-0.0400292 -0.047907 0.360184
-0.0327371 0.0263184 0.319387
0.0517336 0.273788 0.437149
0.0794292 0.241383 0.437149
0.269244 -0.22269 0.197643
0.016719 -0.0195221 0.308364
0.0417664 0.0152828 0.40095
-0.125501 0.00220494 0.402256
-0.304372 -0.156768 0.437149
0.151209 0.143847 0.423642
0.011163 0.167222 0.437149
-0.119268 0.037748 0.342234
0.069284 0.277964 0.437149
0.0805055 0.14364 0.423642
0.244823 0.179969 0.249975
-0.287159 -0.249132 0.0789165
-0.15456 0.0796368 0.437149
0.188562 -0.0260551 0.401613
-0.255858 0.223509 0.175821
0.16737 -0.0308999 0.423642
-0.130189 -0.0793796 0.437149
-0.251035 -0.0503038 0.343204
0.111995 -0.0238012 0.402256
-0.223667 -0.0545809 0.402256
0.11297 0.0802013 0.402256
-0.181584 -0.0512699 0.437149
-0.163476 -0.0249599 0.437149
-0.224972 -0.0660148 0.402256
0.133468 0.026931 0.437149
0.0638225 -0.0157581 0.401613
0.251806 -0.264833 0.104132
-0.0962653 -0.0434755 0.350748
-0.141106 -0.0900973 0.423642
0.199607 0.0336034 0.333806
-0.129809 0.0514453 0.366436
0.0612939 0.0230305 0.313577
-0.163439 -0.271442 0.423642
0.272975 0.0231838 0.343515
-0.0894143 -0.0567521 0.373164
-0.293413 0.0567465 0.328552
-0.0998507 -0.0420343 0.347157
0.239198 0.0842532 0.437149
0.0294974 -0.266558 0.437149
0.259852 0.0541897 0.317507
-0.289089 0.247997 0.0937126
0.0768266 0.20432 0.402256
0.230716 -0.290585 0
-0.012747 0.115269 0.437149
0.27099 -0.300465 0.0614828
0.0774535 -0.00301911 0.423642
0.160679 0.205422 0.40837
-0.181864 -0.238772 0.437149
0.148293 -0.0153173 0.302599
-0.276202 0.0638315 0.423642
-0.278472 0.143926 0.297733
0.099808 -0.0508847 0.363858
-0.25727 0.258237 0.125469
0.0113374 -0.234285 0.423642
-0.0652581 0.0867081 0.402256
-0.284197 0.0295401 0.360067
-0.0629717 0.295004 0.423642
-0.245337 -0.290112 0.011256
0.103829 -0.299169 0.437149
-0.179212 0.0214633 0.40095
0.248527 0.257524 0.149643
-0.230038 0.171894 0.402256
0.191186 -0.178456 0.423642
-0.267399 0.235317 0.17906
-0.137965 0.055751 0.423642
-0.239104 0.316825 0.00250639
0.23451 -0.131912 0.423642
-0.279407 -0.0505901 0.362275
0.160494 0.014118 0.402256
0.18801 -0.040878 0.423642
-0.290561 0.174773 0.157792
-0.0142373 -0.0441232 0.40095
-0.00245637 -0.0189516 0.40095
0.288493 -0.0876686 0.437149
0.109282 -0.252978 0.423642
-0.290879 0.141434 0.167661
-0.117467 0.00581562 0.401613
0.272975 -0.0368571 0.375926
0.279247 0.203523 0.193901
-0.270035 -0.146817 0.294059
-0.274838 0.0586682 0.376142
-0.144515 0.178448 0.423642
-0.0340045 0.0272621 0.323705
0.0325697 0.11876 0.437149
0.282295 -0.0300121 0.28762
0.0815059 -0.0204207 0.401613
0.161091 -0.249944 0.437149
0.110176 0.0503318 0.402256
-0.283035 0.111721 0.437149
-0.0457581 0.11215 0.423642
0.195652 -0.0104204 0.401613
0.296432 0.260798 0.000716608
-0.0552629 -0.0367639 0.402256
-0.215438 0.228135 0.423642
-0.271075 0.064033 0.259488
0.0983879 -0.165051 0.402256
0.107235 0.0230391 0.315328
-0.0682586 0.134784 0.437149
-0.255775 0.230549 0.181338
-0.0456744 0.0988955 0.423642
0.0819107 0.0724237 0.402256
-0.0103524 0.137105 0.423642
-0.0289043 -0.08731 0.423642
-0.125562 0.0473055 0.437149
0.268683 -0.15098 0.423642
-0.0638003 0.201822 0.437149
0.153622 -0.114058 0.423642
-0.243411 0.0872757 0.403722
-0.293633 0.124423 0.289016
-0.277307 0.0311549 0.330584
0.161806 0.266437 0.423642
0.277557 0.129463 0.175878
-0.266881 -0.0460668 0.272883
0.000268817 -0.122256 0.423642
-0.0410327 -0.104919 0.423642
0.150797 -0.0148881 0.300668
-0.24055 0.0508331 0.363943
-0.0723239 0.0796897 0.423642
0.0590125 -0.183752 0.423642
0.189366 0.105933 0.423642
0.119241 0.0321973 0.423642
-0.00965476 0.263972 0.437149
-0.257398 -0.270138 0.0711734
0.250378 0.176421 0.135608
0.137107 -0.0256674 0.401613
-0.109175 -0.0467501 0.35814
-0.163595 0.205422 0.415384
0.0306923 0.0506268 0.402256
0.276031 -0.0609059 0.258653
0.0491735 0.0237036 0.317417
0.279465 -0.233856 0.159043
0.155821 0.0578301 0.375069
-0.0640775 0.0381425 0.402256
0.110153 0.231166 0.423642
0.246612 0.0728122 0.224456
-0.19689 -0.0412851 0.348484
-0.19849 0.112484 0.423642
0.105369 -0.0382705 0.401613
-0.207717 0.0267339 0.402256
-0.0355639 0.30567 0.437149
-0.189309 -0.205422 0.419566
-0.280303 0.129626 0.278404
0.317982 -0.0363784 0.435081
-0.258286 -0.00700343 0.423642
0.196899 -0.313611 0.437149
0.147756 -0.0242768 0.31578
0.151146 -0.0929336 0.423642
-0.243411 -0.141571 0.405898
-0.288062 -0.214913 0.111843
-0.18055 -0.296643 0.423642
0.281183 0.221491 0.437149
-0.276806 0.270857 0.423642
0.237676 -0.0473796 0.357656
-0.00451027 -0.133002 0.423642
0.231229 -0.0279375 0.423642
0.270218 -0.0197188 0.307726
0.302918 0.22938 0.437149
-0.128228 0.0738922 0.437149
0.247965 -0.276654 0.0668773
-0.207303 -0.0580957 0.381359
0.199065 0.305799 0.423642
-0.224877 0.0265146 0.401613
0.260943 -7.91725e-06 0.293775
-0.262728 0.18725 0.20241
0.233934 -0.320516 0
0.155173 0.109102 0.402256
0.179824 -0.262296 0.423642
-0.0881695 -0.0564759 0.372676
-0.0669931 -0.0706708 0.423642
0.113551 -0.0502727 0.402256
-0.15 0.0575054 0.382102
-0.183924 -0.0396064 0.437149
0.183854 0.250886 0.437149
0.201767 -0.120167 0.423642
-0.262046 -0.253205 0.156354
-0.180334 0.0505411 0.364839
0.283277 0.242124 0.437149
0.00722189 0.0315906 0.402256
-0.160562 -0.036142 0.401613
0.243331 -0.0399168 0.344451
-0.284197 0.0114157 0.394093
-0.00559908 -0.282382 0.423642
-0.0430845 -0.205422 0.404009
-0.259388 0.23086 0.0889253
-0.166735 -0.174254 0.437149
-0.057892 -0.108956 0.437149
-0.158996 0.156699 0.437149
0.0186616 0.0845313 0.423642
-0.221757 0.174503 0.437149
-0.292692 -0.0246072 0.274448
0.192828 -0.267254 0.437149
0.241739 0.119371 0.297196
0.0677069 0.159351 0.423642
-0.266489 -0.0203019 0.309744
0.0926127 -0.0340837 0.335759
0.0744116 0.226902 0.437149
0.253199 0.25248 0.011256
0.144521 -0.00655961 0.30031
0.244286 -0.121926 0.188732
0.260681 -0.26382 0.0951512
0.172509 0.0641984 0.437149
0.26561 -0.27748 0.423642
-0.0999629 0.257557 0.423642
0.276837 -0.0354248 0.423642
0.0637765 -0.0140559 0.40095
-0.0791466 0.107722 0.423642
0.125489 0.16282 0.423642
0.251337 -0.157049 0.423642
-0.186267 -0.0031946 0.401613
-0.296338 0.16979 0.423642
0.135222 0.0557616 0.384726
0.0517484 0.106786 0.402256
-0.266242 0.0953897 0.325674
0.276811 -0.271376 0.0541796
0.189808 0.00892414 0.401613
0.208106 0.0537057 0.423642
-0.255061 -0.0169216 0.302783
0.260779 0.0157558 0.302589
0.168 0.202288 0.423642
-0.0700795 -0.141846 0.423642
0.280514 -0.288497 0.423642
-0.017658 -0.144487 0.423642
0.0755555 0.287327 0.423642
-0.0887412 0.252469 0.423642
0.0186713 0.0358534 0.337742
0.306531 0.264499 0.423642
-0.280133 -0.159868 0.149815
-0.0525385 0.0812875 0.437149
-0.182212 -0.00943753 0.402256
-0.277797 -0.0729828 0.423642
0.170095 -0.0429801 0.351479
-0.0746303 0.0903018 0.423642
-0.288894 0.25334 0.153855
0.241339 -0.00040294 0.296226
0.271011 -0.306982 0.011256
0.133914 -0.125589 0.437149
-0.110427 0.0219609 0.437149
-0.191048 -0.163026 0.402256
-0.288438 -0.277385 0.121182
0.291394 0.0175395 0.423642
-0.0460512 -0.0395806 0.402256
-0.116186 -0.2047 0.423642
-0.164035 -0.103066 0.402256
0.254911 -0.0561464 0.374743
0.0129399 -0.0548444 0.372443
0.214492 0.182049 0.437149
0.124762 0.221856 0.437149
0.240966 0.0243776 0.291791
-0.0567057 0.0248972 0.423642
0.272975 -0.0171682 0.324061
-0.102714 0.277441 0.437149
0.102144 0.16728 0.402256
-0.257694 0.0580442 0.375061
-0.0268297 -0.183661 0.423642
-0.0477256 0.0259024 0.401613
0.258616 0.321244 0
0.163374 0.0946258 0.423642
0.191122 -0.0226901 0.423642
-0.0882017 0.0252348 0.320123
-0.211706 -0.0078683 0.402256
0.0193294 -0.166349 0.423642
-0.126022 -0.191531 0.437149
0.193682 0.26278 0.437149
0.1392 -0.0208262 0.310671
0.296866 -0.309619 0.437149
-0.127587 0.159007 0.423642
0.242974 -0.0761772 0.235983
-0.186426 -0.0376906 0.342132
0.113746 0.015256 0.302491
-0.161863 -0.0291923 0.401613
0.173075 -0.0198384 0.423642
-0.277223 -0.330621 0.011256
-0.276507 -0.209098 0.437149
0.139868 -0.181733 0.437149
-0.00433764 -0.317982 0.42611
-0.16267 -0.124292 0.423642
-0.0916869 0.050251 0.393018
0.310341 0.0291629 0.423642
0.138001 0.179366 0.437149
-0.228303 -0.0326244 0.33318
-0.0331611 -0.092831 0.423642
0.237229 -0.020958 0.402256
-0.196982 -0.10785 0.402256
-0.292263 0.0486614 0.314725
-0.0598559 0.257899 0.423642
-0.071346 0.0958237 0.402256
-0.242345 0.0515489 0.423642
-0.0836875 -0.0451371 0.40095
0.258326 0.277923 0.0330617
0.278773 0.14656 0.437149
-0.162036 -0.114811 0.423642
-0.127461 0.0575667 0.377253
0.0780898 0.0923267 0.437149
0.140153 -0.037901 0.402256
0.00119472 -0.168269 0.402256
-0.294693 0.0610717 0.339618
-0.177361 -0.0328876 0.402256
-0.262594 -0.0199551 0.308143
0.0310199 -0.00128299 0.402256
0.0721314 0.0445203 0.352901
0.302751 0.120135 0.437149
0.271765 -0.0834155 0.423642
-0.0875716 -0.053206 0.389227
-0.0788025 -0.0313839 0.423642
-0.279582 -0.326376 0.011256
-0.192569 -0.307209 0.437149
-0.2008 0.317982 0.431996
-0.223696 0.187706 0.423642
-0.284197 0.0178458 0.306788
0.144675 -0.0132088 0.30031
0.276017 0.262552 0.0829891
0.0525274 -0.294236 0.423642
0.271845 -0.301625 0
-0.262548 -0.162617 0.273981
-0.209161 -0.205422 0.423386
0.136776 -0.0731849 0.423642
-0.295265 -0.073167 0.366794
-0.206181 -0.0236861 0.402256
-0.252953 -0.0608064 0.437149
-0.0725279 0.0314566 0.328467
0.107983 -0.245681 0.437149
0.251389 0.255981 0.114902
0.295236 -0.297121 0
0.281999 0.0665152 0.423642
0.25412 -0.226736 0.118937
-0.296008 0.288947 0.011256
-0.271424 -0.264832 0.437149
-0.268547 0.20905 0.437149
0.24939 0.164937 0.232919
-0.244293 0.0324327 0.423642
-0.0590358 -0.0481344 0.397387
0.0982819 -0.0571423 0.423642
-0.256513 -0.280914 0.0977893
-0.0795503 -0.0476131 0.359665
-0.237302 -0.230391 0.423642
-0.0142186 -0.0361833 0.337845
-0.287191 -0.00043688 0.300156
0.241162 -0.159822 0.437149
0.102807 -0.296716 0.437149
-0.122415 -0.250825 0.437149
0.209095 0.0657714 0.437149
0.172606 0.0612915 0.423642
-0.221614 0.217409 0.423642
0.0201598 0.0151733 0.30157
-0.104551 0.0112007 0.30031
-0.208911 -0.0210701 0.312764
-0.294534 -0.0608994 0.340858
-0.200108 -0.209006 0.437149
-0.0119869 -0.289662 0.423642
-0.0769399 0.262724 0.423642
0.0209383 0.0643311 0.437149
-0.278482 -0.0175119 0.27188
-0.250316 0.284727 0.423642
-0.109888 0.240978 0.423642
-0.203239 -0.0263221 0.40095
-0.282806 0.165007 0.171934
0.142495 -0.0422376 0.401613
-0.0691592 0.128616 0.423642
0.245341 0.193953 0.437149
-0.272354 -0.00213178 0.30031
0.248522 0.0301289 0.327729
0.117267 -0.0336586 0.332357
0.254257 -0.279441 0.121947
-0.317982 0.218016 0.426586
0.0135877 0.278294 0.437149
-0.166037 -0.177856 0.402256
0.106455 -0.0388745 0.344224
-0.276691 0.150123 0.249554
0.0912122 0.105664 0.437149
-0.190428 0.130337 0.423642
-0.233395 0.166281 0.423642
0.179452 -0.25761 0.437149
0.181224 0.317982 0.427971
-0.243411 -0.190687 0.408631
0.0847868 0.106602 0.423642
0.129721 0.0500677 0.361352
0.301765 -0.303637 0.0104842
-0.29737 -0.0625396 0.437149
-0.215595 -0.00488847 0.402256
0.30181 0.167031 0.423642
0.24456 -0.131929 0.178838
-0.0188827 -0.0515886 0.423642
0.0196955 -0.0532161 0.389211
-0.104793 0.0365188 0.423642
0.157148 -0.0907608 0.402256
0.0923189 -0.0614669 0.423642
-0.0273823 0.052833 0.366239
0.273286 -0.118941 0.184899
0.0710771 0.0380939 0.401613
-0.0383755 -0.149526 0.423642
-0.135422 -0.258134 0.437149
0.0591759 0.0175125 0.303827
-0.184515 -0.161744 0.423642
-0.278467 0.0505374 0.243558
0.0638611 -0.0412346 0.402256
-0.0829377 0.0200236 0.423642
0.147684 0.227876 0.423642
0.0596114 -0.133804 0.402256
-0.293817 -0.0409578 0.31565
0.0598328 0.162018 0.402256
0.273143 -0.10718 0.423642
0.0699386 -0.14388 0.423642
-0.311784 0.0699577 0.437149
0.0930563 -0.305292 0.437149
-0.257676 0.0977782 0.423642
-0.110791 -0.0932582 0.423642
0.280812 -0.313645 0.437149
-0.104704 -0.0145022 0.423642
0.132054 0.0722761 0.402256
-0.317982 0.265848 0.432339
-0.291175 -0.000860035 0.423642
0.221267 -0.305498 0.423642
-0.252984 0.0370256 0.339792
-0.266315 -0.157659 0.179205
0.104939 0.0365712 0.40095
-0.25168 -0.127752 0.437149
-0.142317 0.184025 0.402256
0.054608 0.0540709 0.368426
0.162982 0.170617 0.423642
-0.266045 0.060076 0.261316
-0.0769177 -0.0334686 0.334672
-0.293017 0.11372 0.305086
0.142754 -0.0912776 0.423642
0.186259 0.105863 0.423642
-0.248546 0.0243535 0.402256
-0.278868 0.049591 0.36177
0.217936 -0.204391 0.402256
0.279261 -0.24829 0.149947
0.0709953 -0.0449589 0.437149
-0.233106 0.150045 0.437149
-0.150112 -0.029831 0.402256
-0.1657 -0.0322454 0.332511
0.275944 0.266142 0.0921672
-0.0887569 -0.0185461 0.308304
0.218221 0.15593 0.423642
-0.273697 0.170135 0.221452
0.273982 0.219926 0.437149
-0.270256 -0.0272574 0.323697
0.15764 0.00350997 0.402256
0.159414 -0.164035 0.437149
0.19251 0.107321 0.423642
-0.120985 -0.251511 0.437149
-0.118673 -0.144508 0.423642
-0.146345 0.315018 0.437149
-0.160167 -0.122465 0.402256
-0.237203 0.0126609 0.402256
-0.243086 -0.283373 0.011256
-0.247296 0.0530597 0.437149
-0.253008 0.0531473 0.38866
0.0371481 0.00178735 0.402256
-0.269246 -0.0431838 0.349188
0.0481851 0.206384 0.437149
0.275248 0.13362 0.172316
0.0731947 -0.0532978 0.423642
-0.10679 0.0185866 0.423642
-0.287861 0.0662375 0.366243
0.240027 -0.216265 0.437149
-0.255968 -0.192718 0.122908
0.0814803 -0.219122 0.437149
0.0376126 0.0233991 0.314229
-0.268299 -0.225205 0.194447
0.153048 0.106039 0.437149
-0.0758057 0.0159157 0.40095
0.108835 -0.201472 0.423642
0.269744 0.151455 0.423642
0.142787 0.00248292 0.437149
0.159999 -0.0494446 0.36131
-0.228419 0.0756265 0.402256
-0.138527 -0.273911 0.437149
-0.279405 0.224469 0.12197
0.0521396 -0.041134 0.348217
0.294073 -0.292244 0
0.193479 -0.112833 0.437149
-0.208134 0.0515724 0.423642
-0.179465 -0.183912 0.437149
-0.205265 -0.126938 0.402256
-0.188311 0.07016 0.402256
-0.205369 0.00206745 0.402256
-0.0160287 -0.17542 0.423642
0.277172 -0.192529 0.121794
-0.155567 0.0375364 0.34186
0.0596642 -0.259764 0.423642
-0.290428 -0.116255 0.193111
-0.191242 -0.0655198 0.437149
0.254597 -0.0588904 0.380081
0.20116 -0.00438008 0.423642
-0.129773 -0.0439702 0.351623
-0.249768 -0.0690138 0.437149
0.15363 -0.0331446 0.40095
0.0344246 -0.0515173 0.364977
-0.257567 0.0404616 0.344378
0.185824 0.0175086 0.423642
-0.0299748 0.0237452 0.31484
-0.023862 0.153639 0.402256
0.054616 0.161095 0.402256
0.117674 0.00759819 0.437149
-0.148206 -0.0420832 0.401613
-0.241417 0.0215307 0.31269
0.297388 0.269847 0.437149
-0.0822589 -0.22751 0.423642
0.247929 0.0515035 0.266457
-0.0325987 0.0857067 0.423642
-0.226407 0.0465025 0.357703
0.0390857 -0.0684119 0.402256
-0.267781 0.201879 0.423642
-0.0703661 -0.0411921 0.346707
0.229957 -0.0309574 0.330235
-0.148407 0.103286 0.402256
0.110691 -0.199775 0.423642
-0.0787923 0.00843021 0.40095
-0.0449977 -0.0393925 0.342489
0.285403 0.162788 0.423642
0.0835319 -0.0252289 0.402256
-0.272154 0.227159 0.147435
-0.126152 -0.0391604 0.344729
0.147563 -0.0800281 0.402256
-0.250986 -0.178415 0.423642
0.250868 0.052792 0.368816
-0.266705 -0.108932 0.306924
0.118626 0.0627056 0.437149
0.0925178 0.178122 0.437149
-0.262775 -0.105825 0.196146
-0.273439 0.141029 0.301414
-0.207237 0.24157 0.437149
0.25168 -0.276624 0.011256
-0.222294 -0.185422 0.423642
-0.123652 0.0612475 0.402256
0.173837 0.317982 0.428222
-0.013985 -0.038009 0.423642
-0.126528 -0.136376 0.402256
0.254111 -0.06438 0.333978
-0.153317 0.0403808 0.423642
-0.243411 0.0789587 0.413836
-0.235467 -0.0511766 0.423642
-0.14491 0.311885 0.423642
-0.253385 -0.167978 0.236859
0.0705544 -0.133455 0.402256
-0.287566 -0.281947 0.0901372
-0.269516 0.09969 0.437149
0.0560093 0.30233 0.423642
0.272975 0.00538899 0.345489
-0.252998 0.105715 0.345399
-0.233887 -0.0784827 0.402256
0.257407 -0.139751 0.301471
-0.0861493 -0.025696 0.320938
-0.032133 -0.257075 0.423642
-0.0786389 0.0487483 0.359021
-0.0819469 -0.159622 0.423642
0.194665 0.0966914 0.423642
0.205446 0.00644175 0.30031
0.109573 -0.304853 0.423642
-0.121528 0.0292884 0.326259
0.109458 -0.0209377 0.31253
0.113138 -0.183464 0.402256
-0.09883 -0.032212 0.402256
0.25514 -0.0910542 0.235668
0.293045 0.189874 0.423642
0.263105 -0.193879 0.234255
0.144395 0.157287 0.437149
-0.0826145 -0.0346289 0.335094
0.24617 -0.0191258 0.306678
-0.0955233 0.242081 0.423642
-0.084175 -0.159708 0.423642
-0.308706 0.310973 0.423642
-0.0535218 0.221222 0.437149
0.139564 -0.26861 0.437149
0.217344 0.290616 0.00122573
-0.230313 -0.0401684 0.344896
0.247192 0.0332291 0.334249
0.22974 -0.0291629 0.401613
-0.124697 -0.00672404 0.402256
0.181703 -0.0924121 0.423642
0.000451624 -0.0676934 0.437149
-0.307862 -0.209477 0.437149
0.25458 0.216523 0.20548
-0.095043 0.0158804 0.302807
-0.204374 -0.174298 0.423642
-0.139039 -0.0499068 0.361068
-0.276073 0.0692681 0.338666
0.0260922 -0.205422 0.418517
0.183082 0.199125 0.437149
0.192984 0.0288548 0.325501
0.239739 -0.144898 0.402256
-0.0357598 -0.109251 0.423642
0.204541 0.205422 0.404701
0.256891 -0.19436 0.12024
-0.288766 0.252404 0.0767978
-0.31445 0.0477543 0.423642
0.158903 -0.0598237 0.423642
-0.0733279 -0.0278185 0.437149
0.0755357 -0.0372949 0.338783
0.106968 -0.0194879 0.309968
-0.277375 0.110166 0.423642
-0.125216 0.205422 0.408277
-0.287886 -0.125854 0.437149
0.275247 -0.265758 0.0589972
0.058599 0.0222123 0.402256
-0.302107 -0.254341 0.437149
-0.00795704 -0.277736 0.423642
0.281113 0.163217 0.264249
0.029606 0.0579889 0.375349
-0.132328 -0.046137 0.400601
-0.224372 -0.155706 0.437149
-0.284197 -0.01357 0.310027
0.0886605 0.0591419 0.378476
-0.164788 0.205422 0.419916
0.0369982 -0.107954 0.437149
-0.25787 0.218652 0.115725
-0.219612 0.0157372 0.402256
0.083786 0.0069809 0.437149
0.0346955 -0.115215 0.423642
0.256248 0.112721 0.437149
-0.28298 0.263227 0.143548
-0.136458 0.248974 0.423642
0.245589 -0.179186 0.145865
0.265496 -0.0515316 0.365003
0.201179 -0.317982 0.434059
0.0425347 -0.0759976 0.423642
-0.27118 -0.0724489 0.371153
0.243411 0.188151 0.406017
-0.147313 0.0632854 0.423642
0.101947 -0.0368187 0.423642
0.282905 0.0549919 0.327314
-0.264108 0.256957 0.113465
-0.23195 0.0303819 0.329218
-0.111726 0.0980845 0.423642
-0.290402 0.24095 0.145134
-0.0176836 -0.301337 0.437149
0.114166 -0.10721 0.423642
0.260896 0.00909951 0.401613
-0.0888065 -0.156682 0.402256
-0.0759808 0.226497 0.423642
-0.0931593 0.108864 0.402256
0.0391735 0.0340464 0.401613
0.244909 0.208305 0.11575
0.102293 -0.0192997 0.309636
-0.0324348 -0.0978158 0.437149
-0.255883 -0.25047 0.12584
-0.210019 0.0558862 0.423642
-0.290974 0.307263 0.423642
0.263368 0.255342 0.423642
-0.23999 0.0498773 0.437149
0.230866 -0.0916346 0.437149
-0.164933 0.166081 0.423642
0.177398 -0.105107 0.402256
0.263111 -0.203888 0.176655
-0.288472 -0.0411724 0.251591
-0.0369087 -0.122362 0.437149
-0.0910907 -0.114991 0.402256
0.208669 0.194531 0.423642
-0.264565 0.250777 0.0718537
0.245498 -0.0353821 0.335403
-0.29902 -0.295676 0.437149
0.30114 -0.0049172 0.423642
0.220315 -0.00132387 0.30031
0.171685 -0.267365 0.423642
0.217627 -0.150383 0.423642
0.174391 0.08008 0.423642
-0.148501 0.179331 0.437149
0.227108 0.155868 0.423642
0.290669 0.241452 0.423642
0.10406 0.0543789 0.37162
0.247336 -0.258862 0.0848817
0.228204 0.226676 0.437149
-0.253329 0.0353336 0.335703
0.247905 -0.00531515 0.437149
0.311819 0.265549 0.423642
0.230671 0.0293103 0.401613
-0.119056 0.224134 0.437149
-0.0706099 0.093041 0.402256
0.250897 0.0437939 0.437149
-0.284096 0.263552 0.011256
0.266158 -0.284518 0.437149
0.0898914 0.0213615 0.310628
0.13319 0.0283649 0.323003
-0.052177 -0.189403 0.423642
0.25421 0.118985 0.423642
0.140358 0.184876 0.423642
-0.234168 -0.0289499 0.324037
-0.168918 -0.176252 0.402256
-0.062396 -0.0582244 0.376845
-0.317042 -0.21404 0.423642
-0.201447 -0.0532975 0.369709
-0.0818969 0.205695 0.423642
-0.108376 0.0250253 0.319753
-0.117765 0.0540377 0.423642
0.105983 -0.306026 0.437149
-0.0732087 0.0322495 0.437149
-0.178913 -0.288111 0.437149
-0.0744875 0.109457 0.402256
-0.291205 -0.145802 0.260708
0.148803 -0.0266359 0.423642
-0.109419 -0.17952 0.437149
0.0176194 -0.0244759 0.423642
0.0880356 0.0201233 0.40095
-0.216845 -0.102448 0.402256
0.171381 0.126318 0.423642
0.179149 0.1811 0.402256
-0.237755 0.317982 0.424633
-0.252626 -0.145438 0.270571
-0.317982 -0.0800797 0.424766
0.0592158 -0.290817 0.423642
0.0392294 -0.0627245 0.423642
-0.138402 -0.205422 0.410808
-0.120177 -0.0926553 0.423642
-0.0817844 -0.19106 0.423642
0.281014 0.22668 0.423642
-0.307742 -0.236158 0.423642
-0.0977147 0.0459458 0.399497
0.314561 -0.19707 0.437149
-0.253434 -0.185298 0.238842
0.253964 0.29057 0.108652
-0.107717 -0.0393801 0.402256
0.254661 0.147208 0.293561
-0.057733 0.016835 0.305281
-0.109466 -0.108448 0.437149
-0.195495 0.0556071 0.423642
0.166046 -0.058852 0.377956
-0.14916 0.0136673 0.402256
-0.289316 -0.291858 0
-0.260299 0.121876 0.324348
-0.26633 0.00447611 0.401613
-0.0185638 0.0467841 0.423642
-0.0604473 0.305972 0.423642
-0.221547 -0.0438191 0.402256
-0.175329 0.0186943 0.307729
-0.209957 0.306811 0.423642
0.243244 -0.0898667 0.228216
-0.145958 0.0220777 0.402256
-0.229877 0.0242668 0.401613
-0.0238338 -0.145103 0.423642
0.0132993 0.00787222 0.437149
0.204908 0.0515988 0.402256
0.137747 -0.255683 0.437149
0.0997212 0.00202484 0.40095
-0.107928 -0.0430202 0.402256
0.243411 -0.167838 0.408408
0.145983 0.138438 0.402256
0.271504 -0.247011 0.164983
0.0336188 0.0166337 0.304125
-0.0942528 -0.147645 0.423642
-0.155249 -0.18466 0.423642
-0.249705 0.0610512 0.437149
-0.10597 0.0726206 0.423642
-0.0165664 -0.115109 0.423642
0.262668 0.188046 0.197736
-0.177277 -0.15031 0.402256
-0.0341347 -0.029851 0.402256
0.196207 0.0390517 0.423642
0.24484 -0.15068 0.172479
-0.117133 -0.161724 0.437149
0.242926 -0.18308 0.238771
0.158301 0.0411797 0.345647
0.190888 -0.143506 0.437149
0.222784 -0.0568611 0.373356
-0.16168 -0.0168138 0.402256
-0.0794009 0.0144767 0.402256
-0.255366 0.124947 0.19952
-0.230524 0.0294106 0.437149
0.205602 0.0512137 0.423642
0.229476 -0.0412454 0.423642
-0.0353467 -0.178533 0.423642
0.19776 0.0393827 0.402256
0.250973 -0.0364869 0.437149
-0.316304 0.199527 0.437149
0.295437 -0.295795 0.437149
-0.0778093 -0.0730205 0.402256
-0.262858 -0.205826 0.110392
-0.102844 -0.0560675 0.373029
0.24404 -0.119238 0.197663
-0.140543 -0.199646 0.437149
-0.284651 -0.191897 0.196871
0.254387 -0.0905799 0.235834
-0.0543708 -0.110417 0.437149
-0.287279 -0.264063 0.082315
0.226457 -0.0136345 0.437149
-0.0412649 -0.0549901 0.371122
-0.0776181 0.108428 0.402256
-0.182277 -0.121218 0.423642
-0.256684 -0.322795 0.011256
-0.044195 -0.0128274 0.401613
-0.132928 -0.0278788 0.423642
-0.173709 0.205422 0.41259
-0.243411 -0.0247605 0.423551
0.220154 -0.0902941 0.437149
0.135118 -0.0411541 0.34664
0.164638 -0.155066 0.437149
0.003416 0.00845905 0.423642
-0.203048 0.104005 0.423642
0.15359 0.054249 0.368741
-0.206293 -0.0202428 0.309639
-0.0922612 0.296745 0.423642
0.259102 0.0564206 0.383734
-0.037154 0.0468555 0.437149
0.22483 0.038254 0.343128
0.130213 0.196162 0.423642
-0.285539 -0.118612 0.423642
-0.111879 0.0728825 0.402256
0.240686 -0.0340654 0.318973
0.23356 0.0320705 0.40095
-0.25206 0.0345503 0.31537
-0.0242321 -0.304101 0.437149
0.138029 0.310534 0.437149
0.152098 -0.169045 0.423642
0.270984 -0.260415 0.011256
-0.140559 -0.0533131 0.423642
0.243459 -9.98925e-06 0.296799
0.0668263 -0.123839 0.437149
-0.0238797 0.00608598 0.402256
-0.0481796 0.0819386 0.423642
-0.211919 -0.185712 0.423642
0.0520403 0.083586 0.437149
0.00389636 0.0404009 0.437149
0.0893542 0.214562 0.423642
0.112594 -0.184802 0.423642
0.230074 -0.0203191 0.423642
-0.0629394 -0.0658931 0.423642
-0.316248 0.233472 0.423642
-0.292677 -0.126111 0.287947
-0.215571 0.00146087 0.402256
-0.264437 0.168496 0.423642
0.227359 0.250857 0.423642
-0.0347922 0.286254 0.437149
-0.0218488 0.032321 0.402256
0.132054 -0.00612842 0.423642
0.214615 -0.303317 0.423642
0.132334 -0.0583745 0.37868
0.104044 -0.0494845 0.36138
0.155787 -0.0364685 0.423642
-0.28005 -0.0947198 0.437149
0.148145 -0.207016 0.423642
-0.090919 0.175263 0.437149
-0.0716207 0.165476 0.423642
-0.287343 0.118481 0.330066
-0.0987741 -0.17597 0.423642
0.0657212 0.0561356 0.423642
0.21557 -0.202577 0.423642
0.0170813 0.279631 0.423642
0.227259 0.143668 0.437149
0.259128 -0.167936 0.423642
0.270267 -0.117889 0.295272
0.240584 0.104169 0.347755
-0.266884 -0.077375 0.381017
-0.200179 -0.0492741 0.3626
0.116524 0.129076 0.437149
-0.145535 -0.103263 0.402256
0.212355 0.0147664 0.402256
0.114058 -0.0395615 0.342788
-0.273585 -0.250484 0.437149
-0.289033 -0.247721 0.141558
0.276977 0.222597 0.437149
0.272855 0.0448846 0.352194
0.120406 0.00710569 0.423642
0.260031 -0.133728 0.437149
0.201241 -0.142466 0.423642
-0.296347 0.312416 0.423642
0.0998056 -0.0231388 0.313769
0.0447045 -0.190471 0.402256
-0.171744 0.286666 0.437149
0.281843 0.137258 0.288174
0.0791063 0.185653 0.437149
-0.132459 0.263239 0.437149
0.1253 0.112882 0.437149
0.309317 0.190503 0.423642
-0.156419 0.0290684 0.324246
0.234992 -0.0231735 0.40095
0.258154 -0.064599 0.369105
-0.271654 0.0161998 0.402256
0.16113 0.243797 0.423642
-0.200502 0.0530977 0.369356
-0.298718 -0.22426 0.423642
0.00245991 0.0209806 0.311728
-0.295197 0.206158 0.423642
-0.0051434 -0.0147318 0.300756
-0.0336328 -0.170696 0.423642
0.184769 -0.22905 0.437149
-0.285731 -0.0981194 0.202761
-0.211684 -0.297089 0.437149
-0.23845 0.0593112 0.378989
0.282887 -0.0726313 0.371519
0.0268058 0.218791 0.437149
0.0908258 -0.0512527 0.437149
0.0936987 0.0743492 0.423642
-0.271489 0.0146077 0.300826
-0.249646 0.306332 0
0.0329311 0.0348714 0.437149
0.139717 0.0144347 0.40095
0.208717 0.216862 0.423642
0.24064 -0.0398245 0.320999
0.243055 0.252449 0.437149
-0.261415 0.160321 0.27427
-0.0500505 -0.00625623 0.40095
-0.287088 -0.128523 0.423642
0.245848 0.253516 0.0807393
0.259167 -0.104604 0.34708
0.264681 -0.262413 0.0937996
0.0714907 0.17535 0.437149
-0.123008 0.0174308 0.437149
-0.189341 -0.302526 0.423642
-0.15938 -0.0150234 0.300404
0.205748 0.0263878 0.32216
0.263014 0.170193 0.169733
-0.226678 0.0246476 0.319085
-0.267033 0.012022 0.423642
-0.036264 0.0252172 0.319138
0.276285 -0.032566 0.423642
0.0259224 0.0217785 0.402256
-0.0656201 -0.144415 0.402256
0.26098 0.277127 0.0310177
-0.0290449 -0.0160763 0.402256
-0.0895197 0.0276339 0.40095
-0.232575 0.235246 0.437149
-0.0418321 -0.0452995 0.355577
0.267547 0.281833 0.423642
-0.00840867 0.0754813 0.437149
0.0274992 -0.0444486 0.354073
-0.00604427 0.0145759 0.301289
0.066053 -0.286251 0.423642
-0.00231647 0.173252 0.437149
0.0585394 0.0443751 0.423642
0.232854 0.0408766 0.40095
-0.0182143 -0.146719 0.402256
0.0570895 -0.104593 0.402256
-0.020304 0.202531 0.423642
-0.260494 0.218235 0.198833
-0.293269 0.016949 0.275149
-0.27103 -0.252346 0.0995853
-0.158063 -0.0220501 0.40095
0.197394 -0.226907 0.423642
-0.0491233 -0.0612528 0.423642
-0.00778309 0.135852 0.437149
0.0155651 -0.198293 0.437149
-0.0380767 0.193725 0.423642
-0.221051 -0.205422 0.409734
-0.280112 -0.254173 0.437149
0.264345 0.00143649 0.402256
-0.260156 0.0396292 0.252914
0.268305 0.0263895 0.319513
0.0977612 0.317982 0.434537
-0.191751 -0.156535 0.423642
-0.12269 0.317982 0.429019
0.128 0.053117 0.388706
0.0779272 0.181486 0.423642
-0.0773935 0.0167402 0.302463
0.0634094 -0.317982 0.433502
0.0662877 0.0563279 0.437149
-0.317982 -0.086016 0.433351
0.119732 0.0867921 0.402256
0.257751 0.125808 0.282467
-0.0834962 0.0875711 0.402256
-0.0402927 -0.0425508 0.402256
0.0494681 0.132907 0.423642
0.306308 -0.0235611 0.437149
0.0492726 -0.258543 0.437149
0.249472 -0.0509252 0.243229
-0.250094 0.286135 0.437149
-0.152954 -0.0762533 0.402256
0.165771 -0.0655686 0.423642
0.0981022 0.0456741 0.423642
0.14656 -0.0575361 0.402256
-0.193908 -0.152333 0.423642
0.152175 0.021444 0.312539
-0.314516 -0.134521 0.437149
-0.237327 0.00850637 0.402256
-0.272082 -0.331286 0.00388717
-0.294296 0.104608 0.318235
0.0493772 -0.0380063 0.34269
-0.118605 -0.0563193 0.373474
0.00667748 -0.0803325 0.423642
-0.283802 -0.243977 0.437149
-0.26188 0.0131775 0.402256
-0.141924 0.202875 0.423642
0.0462353 0.0886002 0.423642
-0.284197 0.0115953 0.37225
0.260732 0.173852 0.137811
0.126991 -0.162566 0.402256
-0.198256 0.0659657 0.437149
0.173349 -0.0310246 0.330353
0.0383735 0.0357315 0.337529
0.187237 -0.0472684 0.39878
0.276044 -0.317675 0.011256
0.154651 -0.0229337 0.402256
-0.243411 -0.124796 0.419404
-0.251491 -0.325825 0.000988113
0.230227 0.136366 0.402256
-0.082595 -0.177041 0.423642
-0.217836 0.017094 0.402256
0.121668 -0.0516555 0.423642
-0.284467 -0.18412 0.437149
0.188168 -0.0395242 0.437149
0.223116 0.106173 0.423642
-0.270293 0.255118 0.437149
-0.189898 -0.0740626 0.437149
-0.253941 0.168283 0.244105
0.31593 0.18527 0.423642
0.265233 0.19694 0.423642
-0.307655 0.215496 0.423642
0.251083 0.0399574 0.287253
0.0634344 -0.302781 0.437149
-0.048345 0.0626222 0.423642
-0.0716675 0.0415589 0.346317
-0.261068 -0.198818 0.142144
-0.262924 -0.277578 0
0.25342 1.1256e-05 0.292752
-0.115274 0.205422 0.417742
0.317982 -0.125245 0.429284
0.155098 -0.0827668 0.423642
-0.00533301 -0.0367759 0.338893
-0.178512 -0.142547 0.423642
-0.284965 -0.0166099 0.303254
0.192273 0.0499067 0.402256
0.186072 -0.0378547 0.423642
-0.256373 0.0441523 0.423642
0.100803 0.253617 0.423642
-0.294563 0.0927135 0.330365
-0.08138 -0.107947 0.437149
0.0425853 -0.182286 0.423642
-0.197239 -0.1448 0.423642
0.259524 -0.0649642 0.332926
-0.051533 0.067472 0.402256
-0.28175 -0.248701 0.011256
-0.274955 0.208277 0.137287
-0.137072 -0.143651 0.423642
-0.133708 -0.259288 0.437149
0.0430841 -0.0366893 0.33874
0.166797 -0.217674 0.437149
0.111068 0.0339662 0.334441
0.203439 -0.0378672 0.437149
0.190923 0.183145 0.423642
0.217928 -0.0562642 0.373377
0.227144 0.0711399 0.423642
0.132434 -0.0681482 0.437149
-0.126137 -0.172509 0.437149
0.185605 -0.104851 0.423642
-0.104216 0.285406 0.423642
-0.259883 -0.0672598 0.437149
-0.0103913 0.227157 0.423642
0.184574 0.19175 0.402256
0.305364 0.29256 0.00189723
0.178697 0.23146 0.437149
0.085304 0.311155 0.423642
-0.146701 -0.0178585 0.423642
-0.100738 -0.214406 0.423642
-0.277538 -0.0141767 0.437149
-0.0541661 0.0560586 0.373083
0.198089 -0.0263238 0.320399
0.146876 0.254265 0.423642
-0.307222 -0.220309 0.423642
0.280106 -0.0613781 0.423642
-0.257976 0.20678 0.133599
0.11816 0.123199 0.423642
0.0458089 -0.0115253 0.40095
-0.0623192 -0.205422 0.405351
0.0177049 -0.288333 0.437149
