0.189018 0.135606 0.402256
0.0434111 -0.0596125 0.378819
-0.224165 0.148875 0.402256
0.126841 0.313744 0.437149
0.242475 0.195894 0.224954
0.124449 0.0845714 0.402256
-0.288409 0.093178 0.206992
-0.0533434 -0.0941501 0.402256
-0.123132 -0.311271 0.423642
0.317982 -0.252227 0.430384
-0.290997 0.129138 0.176154
0.317882 0.0257176 0.423642
0.268057 -0.0824914 0.339911
-0.256241 -0.208322 0.110629
0.14346 0.00673606 0.30031
-0.141533 0.0166055 0.437149
-0.317982 0.0311108 0.43283
0.241972 -0.0573226 0.329102
-0.266564 0.294396 0.103359
0.267266 0.236766 0.0838734
-0.0822491 -0.00371357 0.30031
-0.294393 -0.0919645 0.332528
-0.158636 0.317982 0.425186
0.0954492 -0.309767 0.437149
0.275927 -0.0503752 0.315681
-0.130536 -0.184971 0.402256
0.317982 -0.0972501 0.435211
-0.263844 0.120133 0.292252
-0.0958005 0.166201 0.437149
0.250871 0.0464747 0.271266
-0.317982 -0.178025 0.427352
0.0992562 -0.126144 0.437149
0.30895 0.192919 0.423642
0.0537987 0.054263 0.386981
0.107502 0.196196 0.402256
-0.284197 0.0263668 0.366128
0.185381 -0.158462 0.402256
0.217679 -0.28529 0.00933589
0.159369 -0.0113547 0.423642
-0.146036 0.0717588 0.402256
0.201549 0.236706 0.437149
0.132279 0.140294 0.402256
-0.27943 0.0483329 0.308452
-0.180085 -0.0562533 0.372282
0.246539 -0.213684 0.107725
0.0245365 0.248502 0.423642
-0.317224 0.159543 0.437149
-0.288752 -0.267013 0.131912
0.277396 -0.246968 0.00583345
0.229433 0.0699135 0.402256
0.0569432 0.164439 0.402256
0.0647522 0.0336279 0.437149
0.029105 -0.00211039 0.30031
-0.261524 0.261505 0.423642
-0.273453 -0.132455 0.173321
-0.230594 -0.246594 0.437149
0.242477 -0.219505 0.437149
0.152887 -0.0536062 0.388583
0.0873924 -0.178268 0.402256
0.278947 -0.26225 0.135982
0.0122122 -0.117925 0.402256
-0.0289431 -0.0060572 0.437149
-0.0810295 0.0949371 0.402256
-0.00425091 -0.317982 0.436293
-0.13872 -0.0755758 0.437149
-0.216364 0.0762044 0.402256
-0.273861 0.20329 0.112566
0.253123 -0.0248195 0.402256
-0.294431 0.251163 0.00933677
0.25734 0.317982 0.425941
0.139662 -0.100592 0.402256
-0.293515 0.0357285 0.286221
0.269924 -0.154261 0.181618
0.187911 0.054126 0.371173
0.277291 0.197249 0.134342
-0.317982 -0.102367 0.429689
-0.0149853 -0.0214987 0.437149
-0.198901 0.20437 0.402256
-0.0713654 -0.242206 0.423642
-0.0239077 -0.0636522 0.402256
0.281888 0.142932 0.293715
0.278174 0.0979285 0.437149
-0.255613 0.0898261 0.366096
0.263569 -0.331286 0.00624051
0.317982 -0.155389 0.432212
-0.257214 -0.0482463 0.397207
-0.114711 -0.0184237 0.401613
0.0801972 -0.130436 0.402256
-0.195197 -0.155805 0.437149
0.245113 0.247572 0.0104731
-0.233739 -0.0050883 0.423642
-0.254694 -0.229242 0.180395
-0.075689 0.236494 0.423642
-0.123047 0.0465323 0.357755
0.0816176 0.010639 0.437149
-0.0713765 -0.112773 0.402256
0.149018 0.256098 0.437149
-0.25387 0.15773 0.246598
0.0645635 -0.066898 0.437149
0.244908 0.275779 0.123978
-0.280779 -0.148633 0.289495
0.244522 -0.141549 0.265925
0.241281 0.0834406 0.374594
-0.0678216 0.184678 0.437149
-0.284197 0.000575326 0.356521
-0.259176 -0.24565 0.00586679
0.224755 0.00228274 0.437149
-0.274123 -0.0568731 0.32231
-0.221192 -0.317933 0.423642
0.0620711 0.0988325 0.437149
0.157558 -0.227322 0.437149
-0.16619 -0.0184033 0.306384
0.252923 -0.24275 0.0787365
-0.235195 0.196983 0.402256
0.251733 0.299903 0.09142
-0.15148 -0.0966406 0.402256
0.196628 -0.0252267 0.317458
0.257202 -0.0671346 0.256125
0.172818 0.0522035 0.437149
0.0658854 -0.242726 0.437149
0.243411 -0.143683 0.402649
-0.0893959 -0.0503849 0.361913
-0.272649 0.0936597 0.437149
0.27368 0.0865448 0.212686
0.0524427 0.317982 0.424811
-0.198357 -0.162627 0.402256
-0.152436 0.158226 0.437149
0.0925865 -0.0360612 0.339253
-0.0200309 0.0347584 0.336951
0.247897 -0.244192 0.131535
0.235557 0.201413 0.402256
-0.0597304 -0.170818 0.437149
-0.255596 -0.102629 0.198887
0.13193 0.0261497 0.40095
0.272975 0.0242876 0.363714
-0.016225 -0.00196123 0.402256
-0.253806 0.0634978 0.251214
-0.207195 0.257246 0.437149
-0.17367 -0.0367794 0.437149
0.259531 0.23504 0.437149
-0.281576 -0.299313 0.0587101
-0.227313 0.0314151 0.402256
-0.127294 0.145873 0.402256
-0.256455 0.226779 0.155073
0.161831 -0.27523 0.423642
0.279299 -0.167273 0.15604
-0.0526111 0.240808 0.437149
-0.0933754 0.068472 0.402256
-0.167332 -0.258942 0.423642
-0.0861546 -0.0323659 0.423642
0.210301 -0.060241 0.437149
-0.00714785 0.0387164 0.437149
0.0329924 -0.0832209 0.402256
0.305708 0.291175 0
-0.316425 0.23554 0.423642
-0.256628 -0.195315 0.437149
-0.233119 0.31493 0.437149
0.24107 0.00719323 0.287593
0.27206 0.0107227 0.276596
-0.101677 0.317982 0.436494
0.112924 0.0445151 0.354191
0.157377 -0.157695 0.402256
-0.143199 0.219982 0.423642
0.0490586 -0.02355 0.402256
0.240085 0.0945174 0.329564
-0.314041 -0.300495 0.00860776
0.0841308 0.261129 0.437149
0.277347 -0.137213 0.271043
-0.192536 0.101043 0.437149
-0.0806186 -0.176973 0.402256
0.17108 0.171793 0.423642
-0.317982 -0.247795 0.433772
0.183195 0.305733 0.437149
-0.137104 -0.237782 0.437149
-0.17584 -0.118478 0.437149
-0.0639647 0.0408947 0.437149
0.309874 -0.315479 0.423642
-0.11213 -0.0795939 0.437149
-0.265042 -0.010484 0.276639
-0.0265208 -0.0368969 0.338079
0.232624 -0.272083 0.423642
-0.176585 -0.208268 0.437149
-0.222283 0.0540274 0.36953
-0.24823 0.0252512 0.437149
-0.310592 -0.0353699 0.437149
-0.254903 -0.0789215 0.345803
-0.0264526 0.151987 0.402256
-0.0228191 -0.136427 0.402256
0.258511 -0.0823959 0.437149
0.238502 0.147268 0.437149
0.0440694 -0.164167 0.437149
-0.271846 0.274949 0.0450262
0.272975 -0.00998479 0.340665
0.0974553 0.00637698 0.30031
0.219353 0.02322 0.316563
-0.114801 -0.134208 0.437149
0.247088 0.288723 0.0379141
-0.260239 0.177617 0.159476
-0.0170197 0.291095 0.423642
-0.284459 -0.224943 0.0940026
0.215598 0.0328084 0.40095
-0.306091 0.311236 0
0.241536 0.142642 0.265005
0.204132 -0.0592812 0.379452
0.30583 -0.0311246 0.437149
0.276506 0.056105 0.32599
-0.0189742 0.190439 0.437149
-0.28728 -0.190415 0.147913
-0.187168 0.0388102 0.437149
-0.231596 -0.0346847 0.334171
0.243908 0.228794 0.157661
-0.0554607 0.0304389 0.40095
0.122887 -0.0476636 0.423642
0.265599 0.0324717 0.437149
0.271321 -0.213778 0.423642
-0.0906851 0.186582 0.402256
-0.129457 0.111999 0.437149
-0.151318 -0.0598619 0.402256
0.158631 0.167867 0.402256
-0.204798 -0.107487 0.423642
-0.317982 0.0840546 0.433017
0.0119427 -0.245173 0.437149
0.0977487 0.154097 0.437149
0.0233102 0.116628 0.402256
0.19372 -0.205422 0.405251
-0.256916 -0.268594 0.0823063
0.248343 -0.224086 0.191212
0.123404 -0.203957 0.402256
-0.243411 0.0695572 0.402752
-0.0490251 0.110961 0.437149
-0.235133 -0.301253 0
0.115799 -0.0289712 0.402256
-0.0524137 0.0562987 0.383918
-0.174259 -0.00101669 0.401613
0.176269 0.117064 0.437149
-0.26505 0.136046 0.437149
0.0349292 0.217652 0.423642
0.0557305 0.0339444 0.332862
-0.278177 -0.0159793 0.303769
-0.266525 0.191151 0.437149
0.27399 -0.126967 0.319283
0.181603 -0.00418253 0.40095
-0.10133 -0.1957 0.402256
0.0133621 0.205422 0.412672
-0.180259 0.0292313 0.327185
-0.272047 -0.264326 0.423642
0.182252 -0.0734039 0.402256
0.0144161 -0.14387 0.402256
0.276608 0.196176 0.192507
-0.188227 -0.317982 0.428654
-0.29054 -0.216471 0.197915
-0.0484364 -0.285589 0.423642
-0.269208 -0.136449 0.423642
0.0484381 -0.0231146 0.423642
0.115005 0.0691239 0.437149
0.0450923 -0.286669 0.423642
0.230703 0.0977092 0.437149
0.00645268 0.0528819 0.389059
-0.175444 -0.142771 0.402256
0.0832622 0.133599 0.437149
0.0287174 -0.0405961 0.345653
0.22747 -0.1783 0.437149
-0.294757 0.0862425 0.338923
-0.117687 0.023835 0.316721
0.308999 0.0713917 0.437149
0.248696 -0.29355 0.0377008
-0.0430672 -0.19548 0.402256
0.267686 -0.0223095 0.437149
0.244973 0.144627 0.162872
0.237559 -0.11733 0.437149
0.0750375 -0.200558 0.437149
0.140223 -0.102085 0.437149
0.278645 -0.288152 0.437149
-0.217298 0.0999447 0.437149
-0.17974 0.121394 0.402256
-0.139099 -0.0439583 0.437149
0.254828 -0.0676682 0.363744
0.126847 0.209563 0.437149
-0.0444795 -0.134412 0.437149
-0.293247 0.152964 0.275391
-0.270191 -0.108055 0.306863
-0.072266 -0.316653 0.437149
0.0358798 0.160467 0.437149
-0.00514832 -0.180624 0.437149
0.0804304 -0.0191523 0.306725
-0.241217 0.0977165 0.402256
0.309246 0.256445 0.437149
0.27742 0.142844 0.437149
0.268577 -0.140161 0.437149
0.0925733 0.09981 0.402256
0.256022 -0.111971 0.190885
0.0837747 0.205422 0.411003
0.121931 -0.183194 0.437149
-0.252897 0.0195134 0.2841
-0.287402 -0.121819 0.207104
-0.141928 0.263835 0.437149
0.235219 0.1132 0.402256
0.116172 -0.266604 0.423642
-0.234819 -0.0535093 0.437149
-0.254041 -0.173829 0.25712
-0.00842556 -0.0895444 0.437149
-0.0707521 0.0879315 0.437149
0.317982 0.134 0.430311
-0.00595352 0.0234214 0.315997
0.122796 -0.0520877 0.402256
-0.123109 -0.0269414 0.321492
0.273633 0.193455 0.437149
-0.270366 0.0911783 0.329823
-0.284232 -0.0754267 0.377116
-0.220068 -0.205422 0.409927
0.0529809 -0.109252 0.437149
0.0318357 -0.214151 0.437149
-0.243411 -0.127402 0.409341
0.185324 0.202745 0.402256
0.157858 -0.0420075 0.34976
-0.255399 -0.240486 0.147311
-0.286625 0.264863 0.139732
-0.161568 -0.224102 0.423642
0.16205 0.0348384 0.334442
0.0920901 -0.0526006 0.402256
0.134556 0.0251121 0.423642
-0.289603 0.264517 0.109606
-0.0582211 -0.0190721 0.401613
-0.286992 -0.298175 0.0937411
-0.0946144 0.0131963 0.437149
0.27749 0.246014 0.131428
0.199742 0.0804397 0.437149
-0.258953 0.0402989 0.346741
0.259658 0.267837 0.0572142
0.276329 0.330744 0.00807888
0.239852 0.0506918 0.340236
0.274314 -0.209842 0.132342
0.175058 -0.184487 0.437149
-0.0549678 0.0159264 0.302888
-0.230294 0.28109 0.00845039
-0.176858 0.0582657 0.380957
0.0706694 0.124488 0.402256
0.170589 -0.317982 0.427829
0.192585 -0.25752 0.423642
0.0211002 0.0712442 0.423642
-0.265789 -0.065648 0.2306
-0.203597 0.297987 0.423642
-0.0957903 -0.0638074 0.402256
0.130239 -0.146409 0.402256
0.30634 -0.287379 0.00585424
0.283621 -0.0541175 0.345316
-0.275546 0.124697 0.322168
0.0864542 0.0197276 0.402256
-0.0917142 -0.166106 0.437149
0.1416 -0.317982 0.431055
-0.253917 -0.193848 0.213171
-0.266034 -0.311478 0.437149
-0.288146 0.179673 0.251104
-0.0860002 0.151281 0.402256
-0.0305092 -0.243494 0.437149
0.0191406 -0.0606773 0.437149
-0.213386 -0.0295439 0.401613
0.0910181 -0.0881111 0.402256
-0.279704 -0.01128 0.40095
-0.0765464 0.0375095 0.339162
-0.229007 -0.0579119 0.377863
0.272879 -0.0977733 0.203051
-0.140359 0.0250644 0.40095
-0.212624 -0.267753 0.423642
-0.293173 0.00296515 0.437149
-0.0494379 -0.0378664 0.437149
0.153847 0.0920956 0.423642
-0.19557 0.217248 0.437149
0.196983 0.0205148 0.437149
0.317982 -0.202318 0.428886
0.282665 0.108264 0.315509
-0.148606 -0.173375 0.423642
-0.116517 0.114337 0.402256
0.278191 0.0458437 0.247586
-0.284197 0.00247084 0.325615
-0.286246 0.298526 0.0536896
0.137511 -0.0290395 0.324195
0.087261 -0.0984811 0.437149
0.21214 -0.0738546 0.402256
-0.0055131 0.12137 0.437149
0.160903 0.0649315 0.402256
0.0112592 0.228151 0.437149
-0.262488 -0.180553 0.158427
0.228272 0.157247 0.402256
0.240343 -0.103919 0.330444
-0.0227749 -0.00749762 0.30031
-0.237818 0.0501501 0.437149
0.281031 -0.0595975 0.377753
-0.131267 -0.275035 0.423642
0.141389 0.169811 0.437149
0.235906 0.28568 0
-0.268769 -0.0412021 0.283671
0.245354 -0.192051 0.232939
-0.106122 0.26653 0.437149
-0.268646 -0.219793 0.423642
-0.134866 -0.0532083 0.366902
0.0163794 0.000442415 0.423642
0.219577 0.216726 0.437149
0.155866 -0.205422 0.406368
-0.0795695 -0.0344886 0.333824
-0.0804761 -0.215612 0.437149
0.276383 0.273559 0.437149
-0.0430049 0.205422 0.404019
-0.292873 0.0500968 0.257332
-0.11661 0.077444 0.423642
0.237781 0.271035 0.437149
-0.276799 0.243219 0.437149
0.0335054 0.0201199 0.40095
-0.196368 0.178902 0.423642
0.196889 -0.0247439 0.423642
-0.0748464 -0.092703 0.437149
0.243068 0.0952067 0.228853
0.280344 0.179039 0.232855
0.0721726 0.18924 0.437149
0.020869 0.0801801 0.402256
-0.164779 0.124635 0.437149
0.264209 0.0225055 0.40095
0.258286 -0.282142 0.120336
-0.0451377 0.158917 0.437149
-0.0501637 -0.0548471 0.369797
-0.216207 0.146445 0.437149
-0.263611 -0.0995855 0.437149
-0.0170439 -0.263035 0.423642
0.278387 -0.0632991 0.232614
-0.267576 0.291153 0.423642
0.292359 -0.0600399 0.437149
-0.296245 -0.264145 0.011256
-0.271863 0.0435011 0.40095
-0.254656 0.192174 0.218811
0.256957 -0.287126 0
0.264159 -0.217584 0.159871
0.0883694 0.299088 0.423642
-0.0951718 -0.273865 0.437149
-0.13814 0.187335 0.437149
0.198553 -0.151602 0.437149
-0.214464 0.036435 0.338759
0.013664 0.140302 0.437149
0.107664 -0.0223076 0.423642
0.0304245 0.0334187 0.423642
-0.0522203 0.0624207 0.437149
0.244973 0.211641 0.116125
-0.171888 0.201043 0.402256
0.00668997 -0.0496786 0.394902
-0.290914 0.236159 0.168312
0.266214 0.0240474 0.317092
0.0992036 -0.225141 0.423642
-0.258554 0.253055 0.0885217
-0.14879 0.0457008 0.423642
0.243411 -0.058746 0.407351
-0.275841 -0.0521642 0.423642
-0.194432 -4.71175e-05 0.423642
0.28961 -0.179811 0.437149
-0.171115 0.164716 0.402256
-0.270947 -0.115759 0.333525
0.255033 -0.136043 0.305894
0.261825 -0.317982 0.436505
-0.288389 -0.191583 0.233549
0.273846 -0.264251 0.0602893
0.202586 0.267666 0.423642
0.173111 0.262498 0.423642
0.116855 0.112419 0.423642
-0.131697 -0.142324 0.402256
0.24547 -0.17453 0.148591
0.235398 -0.203231 0.402256
-0.187946 -0.0345882 0.334
-0.0903461 0.124185 0.423642
-0.117637 -0.1041 0.437149
0.187383 0.0157867 0.300778
0.103316 0.037312 0.423642
-0.119823 -0.00905079 0.437149
-0.118338 -0.198193 0.437149
-0.0990179 0.0212147 0.401613
0.285165 0.257269 0.011256
-0.254689 0.0584263 0.33001
0.269649 -0.0276085 0.263221
-0.0187155 0.25639 0.423642
0.0216626 -0.184878 0.402256
-0.286578 0.0583837 0.423642
-0.278833 -0.238537 0.174782
-0.179017 -0.0790442 0.423642
-0.257008 0.179161 0.136163
-0.253106 -0.128092 0.285068
0.168337 -0.112115 0.402256
-0.0535713 0.120072 0.402256
-0.295433 0.278169 0.437149
0.261077 -0.0200261 0.308269
-0.246311 0.255906 0
0.194405 0.10284 0.402256
-0.269413 -0.0470629 0.35603
0.111662 0.0604788 0.402256
-0.290199 0.181317 0.137113
0.250568 0.117084 0.331842
0.278547 0.223578 0.168976
0.261789 -0.248259 0.437149
-0.296623 0.194308 0.437149
-0.0606824 0.00454849 0.423642
0.113736 0.242407 0.423642
-0.10295 0.208065 0.437149
-0.256931 0.218559 0.423642
-0.268292 0.229545 0.186825
0.0749962 0.225386 0.437149
0.260882 0.0765478 0.423642
-0.228606 0.238645 0.437149
-0.0177378 0.0398547 0.402256
-0.211204 -0.0179717 0.30562
0.224963 0.310407 0.437149
0.272975 -0.0150431 0.381438
-0.232259 -0.282703 0.423642
0.246122 0.176928 0.135172
-0.194851 -0.136674 0.437149
0.170221 -0.0621676 0.437149
-0.274345 0.316668 0.011256
-0.255119 0.112417 0.214198
0.221494 0.0512933 0.437149
0.0646363 0.247946 0.423642
0.275199 -0.173417 0.260108
-0.0496363 0.0711709 0.402256
0.207374 -0.232492 0.437149
0.0571113 -0.0295067 0.327671
0.229358 -0.143833 0.437149
0.135594 -0.155088 0.437149
0.216042 -0.022882 0.40095
0.24698 0.0105509 0.437149
-0.189704 -0.0641815 0.402256
0.0760896 0.0527646 0.367321
-0.22923 -0.173119 0.423642
0.0212671 0.0444546 0.351434
-0.275352 -0.281182 0.02814
0.219423 0.0591972 0.378573
-0.00362483 -0.128006 0.437149
-0.239996 0.2866 0.437149
0.212748 -0.0387506 0.342387
-0.14984 0.016078 0.303943
0.173352 0.214065 0.437149
0.138046 0.282365 0.437149
-0.254765 -0.156222 0.176575
-0.294612 0.0430819 0.335106
0.199028 -0.0944904 0.423642
-0.197876 -0.23902 0.437149
-0.240549 0.16068 0.437149
0.0435172 0.276207 0.437149
0.147003 -0.00643336 0.40095
-0.160959 0.0837555 0.437149
-0.167941 -0.176245 0.402256
0.252677 0.222656 0.197405
0.140327 -0.0655415 0.437149
0.278137 0.164303 0.155939
0.200908 0.184375 0.437149
-0.094367 -0.0928494 0.402256
-0.0289189 0.126731 0.423642
-0.317982 -0.143412 0.435673
0.265242 0.110331 0.22038
-0.283674 -0.253453 0.0695542
0.200194 0.144279 0.437149
-0.292513 -0.0748537 0.423642
-0.284197 0.054806 0.371815
-0.0325226 -0.0963803 0.423642
-0.177052 0.292734 0.437149
0.276187 -0.2966 0.0422593
0.241289 -0.0365066 0.296783
-0.277217 0.235377 0.113355
0.262926 -0.0461011 0.423642
0.279268 -0.240714 0.169724
-0.253656 0.153164 0.283594
-0.161562 -0.15126 0.437149
0.287029 0.00325745 0.423642
-0.262315 -0.0233361 0.423642
0.173511 -0.0596564 0.378295
-0.0587099 -0.0739814 0.437149
0.299801 0.230334 0.423642
0.232959 0.189757 0.437149
-0.215601 -0.129763 0.402256
-0.0996997 0.0553171 0.437149
0.170734 0.0216659 0.437149
0.157106 0.300496 0.437149
0.278072 -0.289218 0.0970916
0.306419 0.102508 0.437149
0.0592137 0.0790378 0.402256
0.00668022 -0.156639 0.437149
-0.00680277 -0.0519345 0.364651
-0.177158 0.239809 0.423642
0.0799837 -0.0409205 0.437149
0.052994 0.131068 0.423642
0.281124 0.159228 0.262532
0.0323633 -0.0405886 0.437149
-0.221685 0.0137721 0.437149
0.277955 -0.231631 0.102504
0.27309 -0.160084 0.239073
0.150087 0.0543485 0.370092
0.163765 -0.0201147 0.309412
0.01734 0.295071 0.423642
-0.197233 0.0215196 0.402256
0.276569 0.280841 0.0985608
-0.219086 -0.0710308 0.437149
0.103254 0.0953599 0.437149
0.122855 0.0257565 0.321045
0.263996 0.054908 0.369905
0.149823 0.12487 0.423642
-0.141538 -0.104954 0.423642
0.0767154 -0.058693 0.376593
0.0492551 -0.150787 0.402256
-0.000362396 -0.280552 0.437149
-0.0818647 0.288361 0.437149
-0.31601 0.12039 0.423642
-0.0580602 0.173437 0.402256
-0.0248896 -0.208249 0.437149
-0.288737 0.253904 0.0768994
0.0596506 -0.183678 0.423642
0.243096 0.120033 0.437149
-0.0661496 0.146676 0.423642
-0.171457 0.205973 0.437149
-0.264556 -0.101185 0.226924
-0.15579 -0.0384352 0.341829
0.101052 0.135897 0.402256
0.299952 -0.118235 0.423642
0.0187342 0.102605 0.437149
-0.116388 0.0340573 0.423642
0.0354965 -0.13544 0.423642
-0.183112 -0.292051 0.423642
0.24881 0.134524 0.30968
0.0488217 0.19493 0.402256
-0.0739783 -0.14859 0.437149
-0.0214725 0.0526978 0.367204
-0.216039 0.0756631 0.437149
0.241697 -0.0297827 0.437149
0.15412 0.205405 0.402256
0.250613 0.162766 0.235373
-0.0202854 0.187962 0.402256
-0.293346 0.00403322 0.278609
0.0919584 0.0308101 0.329974
-0.143744 0.190035 0.402256
0.0830662 -0.0136421 0.401613
-0.109823 -0.0422436 0.423642
-0.00130361 -0.0255508 0.319031
0.123945 -0.213209 0.437149
-0.207872 -0.0367427 0.437149
0.110231 0.258878 0.437149
0.110967 -0.0799882 0.437149
0.0565622 -0.317982 0.432438
-0.0331185 0.0109822 0.402256
-0.285319 0.123438 0.423642
0.175218 0.0254592 0.401613
-0.125069 -0.164787 0.423642
-0.0767039 -0.043731 0.352805
-0.284383 -0.0830686 0.215667
-0.149346 -0.0277523 0.402256
-0.042245 0.316585 0.437149
-0.135392 0.296753 0.437149
0.0120166 0.022519 0.40095
-0.253041 -0.0432836 0.254557
-0.0844381 0.054519 0.369218
-0.0354404 0.0258539 0.423642
-0.0869166 -0.187365 0.423642
0.145506 -0.183871 0.437149
0.242752 -0.167366 0.241711
-0.0175354 -0.09826 0.402256
0.243792 -0.0949017 0.206401
0.270616 0.0782061 0.24559
0.0735458 -0.276237 0.437149
-0.285952 0.164264 0.17154
0.230337 -0.318629 0.00236637
0.275766 0.29842 0.011256
-0.298561 0.287125 0
0.194423 -0.29209 0.423642
-0.044755 0.28696 0.423642
-0.102639 0.229259 0.437149
0.252982 -0.291184 0.437149
-0.276772 -0.125466 0.282955
-0.1877 -0.199741 0.402256
0.203329 0.181054 0.402256
0.181646 -0.0456255 0.401424
0.12647 -0.00929126 0.437149
0.275186 0.292937 0.060011
0.0473953 -0.114554 0.402256
0.21985 -0.00608733 0.30031
0.0897886 -0.153308 0.423642
-0.251677 -0.0358212 0.317007
0.113988 -0.0548447 0.370865
-0.299212 -0.214585 0.437149
-0.203378 0.101956 0.402256
-0.0146872 0.159131 0.423642
-0.297942 -0.286756 0.423642
-0.055146 -0.22432 0.423642
0.209491 0.0392878 0.343749
0.118216 -0.0156982 0.303272
-0.209073 -0.181202 0.423642
-0.112659 0.290013 0.423642
0.302964 0.279541 0.423642
-0.288383 -0.215391 0.123319
0.236371 -0.0643689 0.437149
-0.116213 0.196809 0.402256
0.226962 -0.172995 0.402256
-0.155809 -0.317982 0.427465
-0.15575 0.0963232 0.402256
0.227422 -0.0892366 0.423642
-0.022992 -0.0549313 0.437149
-0.0408804 -0.158367 0.437149
-0.0749332 -0.205422 0.416286
0.236603 -0.0316727 0.331499
-0.259182 0.139329 0.16742
-0.112081 -0.226627 0.423642
0.272975 -0.0321954 0.361284
-0.144419 -0.0158419 0.423642
-0.275442 -0.207023 0.173433
-0.232849 0.202675 0.437149
-0.27366 0.276794 0
0.108261 0.176239 0.423642
-0.25706 0.265941 0.133356
-0.268548 -0.246405 0.103806
-0.16021 0.0427826 0.35113
0.313593 -0.287396 0.437149
-0.185871 -0.173884 0.437149
-0.105442 -0.0415975 0.346385
-0.0298143 0.0834085 0.437149
0.243411 0.0493377 0.413729
-0.110796 0.126354 0.423642
-0.149507 -0.0581301 0.376678
0.286868 -0.246334 0.437149
-0.26264 0.0530826 0.423642
0.23128 0.237474 0.423642
0.136137 -0.253959 0.423642
-0.0547785 -0.156065 0.402256
-0.264658 -0.0888744 0.367689
0.280639 -0.00884293 0.300226
-0.0254441 0.0590832 0.423642
-0.28896 0.0876563 0.369237
-0.128215 0.0504747 0.392682
0.247143 -0.259453 0.011256
0.145811 -0.0732231 0.402256
0.0189622 -0.0920621 0.423642
-0.267232 1.04651e-05 0.298642
-0.315901 -0.0051868 0.423642
0.0668701 0.0169702 0.30552
0.262604 0.0988974 0.354917
-0.261315 0.0244197 0.318683
0.279046 -0.127403 0.201765
-0.0975783 -0.0100684 0.423642
-0.0223882 0.119708 0.402256
-0.255838 -0.271176 0.128555
-0.284555 -0.150767 0.157614
-0.249228 -0.156193 0.437149
0.246796 -0.2446 0.16449
-0.226851 -0.10105 0.437149
-0.0877692 -0.00600561 0.402256
-0.285268 -0.0187126 0.423642
0.0435994 -0.235066 0.423642
-0.279457 0.0267279 0.423642
-0.119324 0.162942 0.423642
0.269654 -0.118533 0.423642
-0.273281 0.159036 0.437149
0.257481 0.0433241 0.297995
0.254156 -0.195597 0.190235
-0.0909774 -0.109134 0.423642
-0.261455 -0.00239804 0.437149
-0.286072 -0.105897 0.423642
-0.207151 -0.293001 0.437149
-0.169994 0.0360809 0.402256
0.245706 0.264214 0.0817162
-0.156493 -0.27954 0.437149
-0.218719 -0.205755 0.437149
-0.0936978 -0.135769 0.402256
-0.243411 -0.204167 0.418532
-0.29489 -0.0604727 0.351391
0.272975 0.0460486 0.387721
0.267843 -0.171724 0.423642
-0.073439 0.215383 0.437149
0.162501 -0.0433526 0.423642
0.0386798 0.0606205 0.437149
-0.0467125 0.0462896 0.354676
0.277846 -0.303053 0
-0.217947 0.176879 0.437149
-0.293908 0.114405 0.303181
0.259279 0.261129 0.148797
-0.268939 -0.14532 0.256072
-0.280076 0.0912605 0.235558
0.191273 0.0621099 0.402256
-0.00156617 0.275757 0.437149
0.246776 -0.274987 0.0984858
-0.291284 -0.163556 0.237187
0.106909 0.00694434 0.423642
0.274537 0.171203 0.423642
-0.00455546 -0.162632 0.402256
-0.107247 -0.0165304 0.302092
0.287288 0.308937 0.423642
0.054829 0.00243819 0.423642
-0.0361199 -0.317982 0.435117
-0.0531294 -0.0483927 0.396971
0.202505 -0.180804 0.402256
0.219435 0.120433 0.423642
-0.159522 -0.20388 0.402256
-0.212821 -0.096023 0.402256
-0.242303 0.132157 0.423642
0.229228 0.0316456 0.437149
-0.257639 -0.291301 0.10423
0.0597916 -0.0433977 0.349566
0.118094 -0.297568 0.437149
-0.140068 0.136548 0.423642
-0.265407 -0.285881 0
0.129078 0.153443 0.423642
-0.271363 0.254236 0.15674
-0.188502 -0.0272231 0.40095
-0.121473 -0.0465169 0.39999
-0.0557799 0.0309362 0.330197
-0.0116005 -0.224668 0.423642
0.0933178 -0.190157 0.423642
0.0782208 -0.205422 0.406822
0.136744 -0.180561 0.402256
0.242603 0.0683465 0.251098
0.270395 0.0396419 0.343169
-0.274922 0.317982 0.432397
0.269245 0.117696 0.295106
0.127702 0.172829 0.402256
-0.28073 0.227334 0.0919478
0.212707 -0.0318271 0.437149
0.166462 0.152594 0.437149
0.0149612 -0.0211744 0.402256
-0.11253 -0.157316 0.402256
-0.176015 0.153522 0.437149
-0.0604216 -0.0213238 0.311552
0.0247718 -0.0255827 0.318087
0.241921 -0.0199242 0.27366
-0.288093 -0.0309279 0.328067
0.214431 0.158166 0.423642
-0.192321 0.015684 0.302464
0.117751 0.292762 0.423642
-0.171096 0.101395 0.423642
0.206094 0.310955 0.423642
0.13255 0.0346559 0.33412
-0.0548709 -0.111876 0.423642
0.0513602 0.0477266 0.357216
-0.242353 -0.215484 0.437149
0.0810322 -0.253771 0.423642
0.101406 -0.0647846 0.423642
-0.284197 -0.0450003 0.376008
-0.297533 0.218801 0.437149
0.141571 0.219086 0.423642
-0.289123 0.278429 0.0889884
0.294452 0.02648 0.437149
-0.283017 0.285994 0.0260111
0.282625 0.0323263 0.317922
0.175294 -0.0329521 0.437149
0.240791 0.0513149 0.320375
-0.252263 0.0370791 0.307299
-0.18345 0.0684136 0.437149
0.163396 0.0448632 0.354806
0.246368 0.168342 0.265976
0.286702 0.0654477 0.423642
0.102005 0.213275 0.437149
0.122925 -0.0406237 0.345702
-0.276745 -0.224706 0.151726
0.089223 0.0758403 0.423642
-0.256796 -0.184234 0.128907
-0.185867 0.317557 0.437149
-0.195432 0.0477312 0.357224
0.0182182 -0.302302 0.423642
0.25083 0.172274 0.437149
0.290872 0.213675 0.437149
0.252306 0.288627 0.423642
0.0499606 -0.0874693 0.423642
-0.250758 -0.0168679 0.40095
0.114515 -0.15126 0.437149
-0.269273 0.20514 0.138907
0.20525 0.013164 0.40095
0.137922 -0.124452 0.423642
0.24404 0.0234775 0.316095
0.0285981 0.183479 0.423642
-0.0678687 0.205422 0.415526
-0.278718 -0.184361 0.423642
-0.237283 -0.0462635 0.355681
-0.281792 0.14419 0.297396
-0.164295 0.0150127 0.423642
0.255195 -0.14092 0.166062
-0.200055 0.0518367 0.402256
0.317982 -0.0525702 0.426222
0.251601 -0.196559 0.143926
-0.293157 -0.0310201 0.29112
0.0616194 0.205422 0.421843
0.244014 0.125999 0.202871
0.0302755 -0.0436208 0.402256
0.15126 0.0484356 0.423642
0.243411 0.176456 0.409389
-0.222014 -0.154676 0.402256
-0.137436 -0.212184 0.423642
-0.259255 -0.0553987 0.370476
0.0532961 -0.0139912 0.30031
0.268709 -0.101424 0.317621
0.215012 -0.194978 0.423642
-0.201239 0.0533324 0.423642
0.263498 -0.0417559 0.285871
-0.140555 0.0341661 0.335904
0.245035 -0.0465012 0.247022
-0.284197 0.00691262 0.387046
0.24211 -0.0550111 0.386322
-0.27595 -0.240818 0.131161
-0.15149 -0.133087 0.423642
-0.192643 0.148196 0.402256
-0.00246453 0.0881423 0.423642
-0.0900578 0.0242008 0.318296
-0.256346 0.11355 0.423642
0.0148274 0.0184912 0.437149
-0.164184 -0.0888464 0.437149
-0.0731598 0.0265321 0.401613
-0.0536748 -0.204933 0.437149
-0.212557 -0.0146833 0.437149
0.106258 0.0567903 0.375881
-0.140259 0.0898549 0.437149
0.277021 -0.262733 0.108593
-0.234903 -0.0452491 0.401038
0.106306 -0.00259155 0.402256
0.140234 0.0816291 0.437149
-0.251845 -0.128305 0.316004
0.275941 0.267635 0.0798745
0.229927 0.0694403 0.437149
-0.317982 0.204147 0.427487
-0.248814 -0.268506 0.437149
0.225614 -0.0521689 0.36613
0.214665 -0.11455 0.437149
0.0794856 0.112725 0.423642
0.202477 0.0418044 0.423642
0.0232444 -0.0198788 0.437149
0.235562 0.0124392 0.401613
-0.091628 -0.0794246 0.423642
0.011648 0.0171287 0.303149
0.298448 -0.272486 0.437149
-0.0819784 0.12004 0.402256
-0.276289 0.0275662 0.263257
0.268904 0.204143 0.218028
0.241014 0.126837 0.286609
-0.268233 0.240701 0.131969
-0.0533478 0.147804 0.402256
0.0716009 -0.130047 0.437149
0.0590064 0.0290145 0.401613
0.259528 0.179452 0.20949
0.0367311 0.0258595 0.321227
0.207029 -0.277935 0.437149
-0.0400792 -0.0214926 0.423642
0.272952 0.274864 0.126027
0.14596 -0.0505885 0.364922
-0.281642 0.0168576 0.303683
-0.103168 0.0393184 0.345008
-0.0925911 0.0803808 0.423642
-0.056044 -0.258161 0.423642
-0.0296438 -0.163555 0.402256
0.141427 0.194197 0.423642
0.271001 -0.28146 0.0197623
-0.197821 0.128218 0.437149
-0.158473 0.191617 0.423642
0.185601 0.0334265 0.334598
0.248206 -0.279233 0.0583195
0.150834 0.03871 0.402256
0.17869 0.0956921 0.423642
0.251915 0.0986845 0.20227
0.307394 0.155493 0.423642
-0.252396 -0.0990809 0.325452
0.0372095 0.129355 0.437149
-0.0157547 0.234581 0.437149
0.246668 -0.189592 0.423642
-0.188049 -0.00588504 0.30031
-0.243411 0.174671 0.416495
-0.171523 -0.0433705 0.402256
-0.254115 0.182369 0.241909
0.049078 -0.0523798 0.423642
-0.233266 -0.273723 0
-0.122901 0.0863213 0.402256
0.0179946 0.0522338 0.437149
-0.252133 -0.0186799 0.296599
-0.251177 -0.0532064 0.337816
0.305735 -0.228655 0.423642
0.0814339 0.05372 0.423642
-0.26458 -0.0316584 0.329838
0.191236 -0.0540684 0.423642
-0.0727019 -0.0493265 0.437149
-0.294646 0.166858 0.423642
-0.212432 -0.225028 0.423642
-0.142845 0.119915 0.402256
-0.253231 0.0414958 0.271775
0.283163 0.106221 0.340419
-0.154292 -0.127678 0.402256
-0.249325 0.0549381 0.369958
0.231683 -0.248623 0.437149
0.0537029 0.290981 0.423642
-0.0451313 0.192246 0.423642
-0.146333 -0.019566 0.310106
0.0610434 0.150617 0.437149
0.188491 -0.0436573 0.352675
-0.0506691 -0.0405291 0.347148
-0.216472 0.177628 0.402256
0.251292 0.291012 0.0134572
-0.26193 0.290373 0.0161954
-0.279139 0.0419583 0.437149
0.248354 0.19715 0.190249
-0.202096 -0.0497086 0.361777
0.0400105 -0.263926 0.423642
0.172147 -0.181403 0.402256
-0.276236 -0.156931 0.437149
0.125454 0.0513821 0.423642
-0.228645 0.122532 0.402256
-0.259703 0.295754 0.0523618
-0.248954 0.0813364 0.437149
-0.282657 -0.0452491 0.401244
-0.198368 -0.00294742 0.402256
0.0714136 -0.032513 0.40095
0.0678239 0.0731694 0.437149
0.0805093 0.0392202 0.344835
0.126139 0.0337146 0.437149
0.239434 0.0629635 0.357711
0.209594 0.205422 0.406293
-0.0616626 0.261808 0.423642
-0.138636 -0.00140148 0.402256
-0.280868 -0.254274 0.153793
-0.247652 -0.323036 0.0084618
0.202068 -0.131904 0.423642
-0.0806798 -0.0425578 0.40095
-0.256401 0.0221594 0.401613
-0.280286 0.0593854 0.235971
0.281673 -0.0499061 0.259642
0.0813573 0.0433656 0.40095
0.294545 0.312454 0.011256
0.2524 0.102937 0.423642
-0.090529 -0.303193 0.423642
-0.219396 -0.147107 0.437149
0.00035587 0.0640905 0.437149
-0.206172 0.0263948 0.322173
-0.20837 0.230569 0.423642
-0.243411 -0.0694268 0.419339
-0.300154 0.139585 0.437149
0.181372 0.230481 0.423642
-0.26689 -0.0627922 0.259446
0.019771 -0.175127 0.423642
0.0964389 0.189892 0.437149
0.285237 -0.312184 0.423642
0.18203 -0.233605 0.423642
0.268147 -0.0345686 0.334988
0.139529 -0.0356625 0.437149
0.266822 0.273852 0.011256
-0.281288 -0.0837391 0.241178
-0.0150375 0.0115565 0.423642
-0.262015 -0.297992 0.0416035
-0.256678 -0.230563 0.0909899
-0.0892744 -0.2499 0.437149
-0.273061 0.149599 0.187935
-0.293397 -0.285152 0.011256
0.26447 0.125003 0.423642
-0.233382 0.0282462 0.324436
0.0124671 -0.0531997 0.367954
0.296153 -0.263358 0
-0.289908 0.216486 0.124383
-0.154184 -0.207314 0.437149
0.113351 -0.0298746 0.326682
0.170874 -0.137461 0.402256
-0.259099 0.264495 0.0635625
0.249674 -0.159077 0.437149
0.0660306 0.00490944 0.402256
-0.161594 -0.105361 0.423642
0.195977 -0.317982 0.434245
-0.0270065 -0.289441 0.437149
-0.239754 0.0358516 0.336232
0.219489 -0.0470801 0.399083
-0.10529 0.0458366 0.402256
-0.285532 0.233643 0.143844
0.167995 0.135846 0.423642
-0.277017 0.207526 0.216912
-0.295095 0.0571196 0.356306
0.265043 -0.151554 0.28804
-0.0290455 -0.0242013 0.316643
0.279444 -0.102903 0.349862
0.243411 -0.113505 0.417037
0.0451337 -0.0023195 0.402256
-0.295216 -0.128717 0.423642
0.143045 -0.0249626 0.40095
-0.251781 0.10656 0.322485
0.23674 -0.011256 0.423642
0.0166089 0.200626 0.437149
0.19128 -0.00889894 0.30031
-0.0250599 -0.0540906 0.371111
0.0361915 0.11427 0.423642
0.0451545 0.128894 0.402256
-0.289178 0.110202 0.340587
-0.147321 0.108263 0.423642
0.021394 -0.205422 0.414175
0.0206792 -0.279294 0.423642
0.174216 0.287506 0.423642
0.27364 0.237123 0.108386
0.0249658 0.0567528 0.402256
-0.258036 0.219967 0.0992241
0.0687667 0.171348 0.423642
-0.0574243 -0.0535868 0.423642
-0.175627 -0.0957277 0.402256
-0.181555 0.0899812 0.402256
0.25769 -0.000425037 0.40095
0.176356 0.18786 0.437149
-0.184838 -0.0228735 0.423642
0.104386 -0.277632 0.437149
0.25285 0.0540641 0.38728
-0.00682637 -0.0264497 0.402256
-0.268377 0.193853 0.191336
0.317561 -0.127896 0.437149
-0.12617 0.0120889 0.30031
-0.0467325 -0.13101 0.402256
0.244064 0.16873 0.158743
0.300625 -0.170285 0.423642
-0.270019 0.0778371 0.381713
0.268033 -0.0989737 0.229366
-0.236367 0.262488 0.437149
-0.317982 0.282787 0.429214
-0.313964 -0.276204 0.0100463
-0.0206819 -0.117647 0.423642
-0.284197 -0.016252 0.378518
0.0679994 -0.0958082 0.402256
0.163333 -0.167501 0.423642
0.12082 -0.234363 0.423642
0.159841 -0.0975178 0.423642
0.0124297 0.0279094 0.324849
-0.105751 -0.0580629 0.376559
0.262824 0.236143 0.179995
0.257571 -0.138879 0.195568
-0.101883 0.185604 0.423642
-0.00242412 -0.111041 0.423642
-0.0186131 0.0534754 0.388166
-0.157135 0.291208 0.423642
-0.00632113 -0.0364383 0.338296
0.270915 0.251392 0.423642
0.166166 0.0213531 0.310613
-0.304135 0.104453 0.437149
-0.0878719 0.257202 0.423642
0.171409 -0.292639 0.437149
0.0904574 -0.00740129 0.423642
0.176796 -0.159856 0.437149
0.277875 -0.186808 0.1267
0.14967 0.0301571 0.437149
-0.0294718 0.0210914 0.312802
-0.127088 -0.0658036 0.423642
-0.259088 0.0565672 0.383513
0.00430986 -0.0178323 0.423642
-0.274723 -0.244729 0.437149
0.0510909 0.0612282 0.423642
0.195542 0.285329 0.437149
-0.09258 -0.146248 0.423642
-0.224751 -0.0743534 0.402256
-0.12136 0.0260311 0.40095
0.0284061 0.0545033 0.370363
-0.0983355 0.146599 0.423642
0.254088 -0.0429531 0.351431
0.27761 -0.247773 0.0850506
0.282418 0.0634359 0.371136
0.0676572 -0.161785 0.437149
-0.254536 -0.123301 0.187324
0.237748 -0.303331 0.423642
-0.259425 -0.293204 0.423642
-0.0995453 -0.0522972 0.437149
0.264035 0.229327 0.145339
0.174782 0.0725865 0.423642
-0.272875 -0.135635 0.308269
-0.0655986 0.123634 0.423642
-0.257707 0.264966 0.109899
-0.0863542 0.10302 0.423642
0.261346 0.215929 0.423642
0.227408 0.0337305 0.335135
0.0451421 0.2339 0.437149
0.214021 0.256555 0.437149
0.145899 0.316028 0.423642
-0.113388 -0.294847 0.437149
-0.294987 -0.0839911 0.358199
0.113487 -0.162715 0.402256
0.261606 0.312874 0.011256
0.000266299 -0.070908 0.402256
0.192097 0.196235 0.423642
-0.160944 -0.0299854 0.325867
-0.216417 0.032074 0.423642
0.278743 0.132626 0.177513
0.272305 -0.268975 0
-0.28735 -0.271476 0.0839009
0.176267 -0.0294699 0.327606
-0.0785861 -0.0597909 0.378719
0.286216 0.115123 0.423642
-0.186412 0.182852 0.402256
0.13833 -0.203855 0.423642
-0.15805 0.0529613 0.369115
0.0208177 -0.114897 0.423642
0.141974 -0.016558 0.302141
-0.287198 -0.145628 0.186609
-0.166944 0.172641 0.423642
0.035054 -0.0712369 0.423642
-0.0452109 0.0425678 0.423642
0.206197 0.0041059 0.423642
-0.146452 0.242914 0.423642
0.268697 0.26021 0.108625
0.128175 0.266419 0.423642
-0.0442508 0.078066 0.423642
-0.206784 -0.184136 0.402256
-0.180255 -0.15126 0.423642
-0.121808 -0.205422 0.406317
-0.28574 0.259577 0.423642
-0.136012 -0.18633 0.437149
0.0658747 -0.0125535 0.437149
0.182647 0.15217 0.423642
0.204542 -0.177883 0.437149
0.263206 -0.0510966 0.392621
0.0782191 -0.31653 0.423642
0.0796847 0.167227 0.402256
-0.160305 0.0333946 0.331891
-0.119305 -0.260936 0.437149
-0.25947 0.303399 0
-0.0302792 0.209595 0.423642
-0.167156 0.00338719 0.30031
-0.118265 0.0133886 0.437149
-0.0660531 -0.0176365 0.423642
-0.101151 -0.036783 0.402256
0.316225 0.292295 0.437149
0.263382 -0.11378 0.33604
0.230689 -0.0468951 0.423642
0.0334077 0.0915872 0.423642
-0.0225262 -0.075927 0.423642
-0.193555 0.0169601 0.437149
-0.102803 -0.317982 0.435804
-0.19782 0.156217 0.423642
0.0597334 0.10463 0.402256
0.26749 0.287601 0.02814
-0.132623 -0.0364262 0.338275
0.133987 0.0479454 0.357602
-0.0745001 -0.287281 0.423642
-0.062454 -0.132913 0.423642
-0.105414 -0.11653 0.402256
-0.253445 -0.181761 0.236054
0.206999 0.0628195 0.423642
-0.176454 -0.0147208 0.437149
-0.271571 -0.213322 0.209547
0.166306 -0.0331017 0.402256
-0.303285 0.0648793 0.437149
-0.0566201 0.0924929 0.402256
-0.00360134 0.135553 0.423642
-0.220719 -0.123272 0.423642
0.252172 0.221209 0.0971998
-0.0802624 -0.0224044 0.312471
-0.0672027 0.0652401 0.423642
-0.0058462 0.104741 0.402256
0.125276 0.0908314 0.423642
0.283992 -0.0393743 0.437149
-0.303648 -0.160425 0.437149
0.0772163 -0.22879 0.423642
0.1997 0.2178 0.423642
-0.299522 0.240861 0.437149
0.243605 0.306118 0
-0.126744 0.213456 0.437149
0.0394236 0.0270716 0.437149
0.108427 -0.205422 0.419001
0.0929166 -0.0512843 0.363502
0.15126 0.154901 0.423642
-0.151498 -0.00890747 0.437149
-0.219607 -0.00838019 0.40095
-0.00216004 -0.0171417 0.303172
0.28402 -0.0788513 0.367115
0.00736704 -0.228177 0.423642
0.266945 0.00861121 0.300224
0.256403 0.0579723 0.237183
-0.290598 -0.117895 0.298537
-0.282721 -0.176971 0.252583
0.243615 -0.189873 0.210981
-0.0036284 0.0431749 0.349173
0.0736333 -0.298366 0.437149
0.262303 0.186837 0.243018
-0.281419 0.194131 0.233934
-0.039059 0.0522234 0.366375
-0.259149 0.160785 0.173675
-0.282408 0.159179 0.150394
-0.0874347 -0.057355 0.423642
-0.153859 -0.118889 0.437149
-0.272821 0.161048 0.275898
0.121431 -0.111042 0.423642
0.251115 -0.169844 0.261867
0.263773 -0.0757136 0.221969
-0.0568485 0.168735 0.423642
0.292179 -0.0977335 0.423642
-0.00266153 -0.0468242 0.437149
-0.263372 -0.158963 0.239899
0.281054 -0.0729964 0.423642
-0.125178 -0.0886578 0.423642
0.317982 0.177753 0.436499
0.317982 0.218727 0.426732
0.261087 -0.0956312 0.359073
-0.243411 -0.100817 0.420772
-0.273032 -0.0924543 0.327281
-0.192141 -0.215227 0.423642
0.269035 -0.23008 0.188252
0.197537 0.121567 0.437149
0.217866 -0.027067 0.321714
-0.207537 0.315872 0.437149
-0.0308935 -0.172141 0.423642
-0.301337 -0.238234 0.423642
0.16038 -0.0919371 0.402256
-0.199073 0.0749763 0.423642
0.122187 0.133712 0.423642
0.192254 -0.0194311 0.401613
-0.0141909 0.11105 0.423642
-0.109329 0.00240011 0.40095
-0.242596 -0.294242 0.437149
0.197701 0.0250282 0.318808
0.0420987 0.043529 0.401613
0.245775 -0.265415 0.134892
0.187348 -0.173116 0.423642
-0.252101 -0.246306 0.437149
0.191903 -0.0793651 0.437149
-0.22155 0.126579 0.423642
-0.232254 0.0796956 0.423642
0.0608158 -0.181983 0.402256
-0.272169 -0.0340311 0.257714
-0.315628 0.293704 0.011256
0.270067 0.12498 0.320305
-0.273519 -0.100947 0.352308
0.261811 -0.196602 0.437149
-0.167176 0.138793 0.402256
-0.287219 -0.0430367 0.272868
-0.132755 -0.143611 0.423642
0.264553 -0.225872 0.121981
-0.0541973 0.135103 0.437149
-0.0644348 -0.188253 0.423642
0.08748 0.277353 0.423642
0.0998769 0.311003 0.437149
-0.276174 -0.298701 0.013286
0.141497 0.0974538 0.402256
-0.261405 -0.0440736 0.437149
-0.00404018 -0.240893 0.423642
0.215744 0.102345 0.402256
0.149315 0.142217 0.437149
-0.25434 -0.213556 0.194856
-0.272761 0.303019 0.0696029
-0.277778 0.203181 0.423642
0.0355747 0.295963 0.437149
0.282125 -0.0233726 0.279942
0.250256 0.112807 0.303351
0.242634 -0.0130928 0.300261
0.0780703 0.144425 0.402256
-0.160977 -0.190632 0.423642
-0.207198 -0.0913302 0.437149
0.308125 0.0445328 0.423642
0.110265 -0.0691449 0.402256
0.102122 -0.252172 0.423642
0.262 0.05118 0.423642
0.281278 0.0448814 0.268483
0.108738 0.113429 0.402256
0.219361 -0.221519 0.423642
-0.188494 0.267077 0.437149
-0.0503303 -0.00105123 0.402256
0.0349336 0.00949147 0.423642
-0.0342607 -0.189392 0.437149
-0.286876 -0.170122 0.165559
0.137412 -0.0862026 0.423642
-0.308177 -0.266087 0.437149
-0.0895411 -0.231685 0.423642
-0.0948109 0.0545054 0.386616
0.272151 0.173576 0.138056
0.272538 -0.230208 0.437149
0.195967 -0.0574907 0.402256
-0.187277 0.203243 0.423642
0.265034 -0.0510785 0.365788
-0.153137 0.0474443 0.397242
0.182922 0.176378 0.402256
-0.284197 -0.0203231 0.355361
0.0789552 -0.0848303 0.423642
0.29935 -0.294618 0.423642
0.140035 -0.0197175 0.423642
-0.247977 -0.174086 0.423642
-0.183197 -0.24535 0.423642
0.278866 0.0906254 0.365055
0.247782 -0.0438876 0.272303
-0.122709 0.234961 0.437149
0.0473665 0.174386 0.423642
0.0216235 -0.15126 0.423642
-0.189675 -0.0225474 0.312724
0.14111 -0.277392 0.423642
0.265417 -0.12714 0.177869
0.14415 0.0229226 0.313387
-0.126583 -0.217137 0.437149
0.277495 -0.277149 0.0762157
0.235675 0.291673 0.437149
0.137133 -0.299134 0.423642
0.016234 0.166837 0.423642
-0.279646 0.0280989 0.324179
0.170426 0.247034 0.437149
-0.0712622 0.0223019 0.423642
-0.174545 0.0197831 0.31049
0.262926 -0.120448 0.212651
-0.252608 -0.0992442 0.354512
0.0442814 0.25452 0.437149
0.25301 0.141657 0.192275
-0.263112 -0.252211 0.0706141
0.216762 -0.0161076 0.423642
-0.104635 -0.122437 0.423642
0.213455 -0.198251 0.402256
0.0660655 -0.0337628 0.423642
-0.284197 0.0275653 0.386684
-0.200566 -0.115741 0.402256
-0.217635 0.000808463 0.30031
0.134055 -0.170456 0.423642
-0.161975 -0.015245 0.423642
-0.249703 -0.278578 0.011256
-0.292629 0.0711664 0.24734
-0.285094 -0.185092 0.20608
0.119838 0.195869 0.423642
0.100405 -0.0422263 0.437149
-0.126831 0.260941 0.423642
-0.24511 -0.136153 0.437149
0.0467547 0.0154863 0.302898
-0.0869712 0.039128 0.402256
-0.281975 0.180101 0.159274
0.243411 -0.0753704 0.421454
0.258307 0.0308352 0.260454
0.107438 -0.143224 0.402256
0.15126 -0.084871 0.437149
0.180925 -0.0960694 0.402256
0.247062 -0.252325 0.423642
0.229942 0.258594 0.00249687
0.223321 0.201939 0.423642
0.290404 0.0506687 0.437149
0.245229 -0.155147 0.154753
0.257527 0.259809 0
0.241908 0.0481503 0.248853
0.279085 0.219752 0.188921
-0.283501 -0.10734 0.220806
-0.157069 -0.0488554 0.360267
0.209981 -0.163729 0.423642
0.182978 0.15498 0.402256
-0.146052 0.153547 0.402256
-0.106969 0.0537096 0.367787
-0.279151 -0.29782 0.423642
0.243411 0.0309875 0.405196
-0.0357107 0.00561389 0.423642
0.0767222 -0.0657241 0.402256
0.250813 0.191849 0.122378
-0.260645 -0.163341 0.273061
-0.0112923 0.205422 0.406853
0.194476 0.0307097 0.402256
0.267852 0.248496 0.161961
0.154223 0.184669 0.437149
0.10219 0.136218 0.423642
-0.197009 0.0584397 0.380696
0.127168 -0.0048663 0.402256
0.148309 0.0690801 0.423642
-0.213663 0.286993 0.437149
-0.250988 0.0770261 0.351286
-0.114499 0.191619 0.437149
-0.129072 0.00260352 0.423642
-0.24885 0.0407688 0.40095
0.0745948 0.0258307 0.321176
-0.0238373 -0.0461205 0.355428
-0.263517 0.223082 0.121378
-0.0890609 0.0449624 0.423642
0.263121 -0.176487 0.135551
0.141508 0.00396338 0.437149
0.0716633 -0.0362902 0.339658
-0.258375 -0.0488237 0.312899
0.219315 0.0462475 0.357252
-0.0688498 0.0453138 0.400448
-0.282485 -0.173804 0.137862
-0.0522844 0.024669 0.437149
0.0583762 -0.136553 0.423642
0.317982 0.238135 0.431513
0.27962 0.118307 0.209066
-0.0646884 0.286997 0.423642
0.170083 0.205422 0.41481
0.290167 0.135647 0.423642
-0.223975 0.191038 0.423642
-0.270719 -0.260779 0
-0.01635 -0.0360618 0.423642
0.00357878 0.299999 0.437149
-0.0882559 0.205422 0.408172
-0.133817 -0.121991 0.423642
-0.139163 -0.160726 0.402256
-0.00202292 0.0536244 0.370287
-0.0571894 -0.238723 0.437149
-0.173884 -0.234176 0.437149
0.109636 -0.0950818 0.423642
0.0562236 -0.0798339 0.402256
0.253872 0.0632319 0.437149
-0.277538 -0.267781 0.0572775
0.24708 0.0337565 0.332969
-0.293376 -0.137015 0.303013
-0.137812 0.0622035 0.423642
-0.255165 0.269598 0.011256
0.250215 -0.152291 0.181722
-0.00727415 0.0048239 0.30031
0.118023 0.0132035 0.401613
-0.234205 0.217088 0.423642
0.249457 -0.124484 0.320951
0.277005 -0.186401 0.151591
0.208732 0.0498415 0.393635
0.179633 0.0526768 0.389368
-0.283753 0.219157 0.161237
-0.288209 -0.26672 0.112173
0.244562 0.110442 0.216429
-0.141671 -0.256957 0.437149
0.15126 0.208503 0.437149
0.0660022 -0.115265 0.423642
0.309623 0.00783533 0.423642
0.161161 0.00677554 0.40095
-0.239767 0.102923 0.423642
0.241952 0.177673 0.249212
-0.216126 -0.0273488 0.322213
-0.255802 -0.251512 0.12941
-0.284958 0.231471 0.423642
0.243411 0.136235 0.42162
-0.253508 0.165699 0.264578
-0.267209 -0.264903 0.143322
0.290991 0.241578 0.437149
0.104743 -0.209026 0.437149
0.145741 0.187636 0.402256
-0.241997 -0.260204 0.011256
-0.192983 0.281471 0.423642
0.281902 0.0172028 0.292272
-0.138131 0.0238224 0.317627
0.0358524 0.317982 0.435255
0.155915 0.280495 0.423642
0.00805321 -0.194632 0.423642
-0.0494954 -0.0847828 0.423642
0.0996653 -0.0205525 0.310187
-0.157542 0.25177 0.437149
-0.0148366 0.0179054 0.40095
0.139276 0.00943221 0.401613
0.297886 0.267014 0
-0.17698 -0.0618057 0.423642
0.0292879 -0.293456 0.437149
-0.157536 0.00746391 0.401613
0.0434893 -0.306371 0.423642
-0.289707 -0.0550315 0.437149
-0.201365 -0.0438828 0.40095
0.317982 -0.077704 0.434444
0.0556479 -0.041898 0.402256
0.208222 -0.100358 0.402256
0.259364 0.0764413 0.221345
-0.0745091 0.110688 0.437149
0.25885 -0.276936 0.0392457
0.0106529 -0.131571 0.423642
0.214178 0.294137 0.437149
0.0430248 -0.021899 0.314229
0.189635 0.175929 0.423642
-0.271403 0.0639716 0.259638
-0.292921 -0.136594 0.28009
0.242106 -0.00592899 0.402256
0.00640707 0.0349421 0.423642
0.243411 0.0880473 0.414842
0.277148 -0.0881047 0.437149
-0.249439 0.181785 0.437149
-0.000490755 -0.0779787 0.423642
0.263124 0.302316 0.0720664
-0.0339006 0.150547 0.423642
0.230839 0.0177341 0.423642
-0.0031606 -0.183311 0.402256
0.039223 0.0383624 0.34213
0.00271681 0.00234838 0.402256
0.266649 -0.198831 0.11639
-0.256253 -0.268666 0.109338
-0.102802 0.160934 0.402256
0.242713 -0.0512232 0.363394
-0.0725906 0.00720298 0.402256
0.271772 0.0598036 0.260613
-0.0167782 -0.136612 0.423642
0.0219366 -0.317982 0.434374
0.129373 -0.142709 0.423642
0.111407 0.0355191 0.337157
-0.174342 -0.0401873 0.346544
-0.172357 -0.171006 0.423642
-0.297258 -0.202446 0.423642
-0.255814 0.218258 0.177352
0.0827417 -0.181302 0.437149
0.287742 0.260815 0.423642
0.0308181 0.266734 0.423642
0.00942633 0.260451 0.423642
0.268182 -0.000713319 0.423642
0.272975 0.000685576 0.324636
-0.224107 0.0500032 0.423642
-0.0303959 0.288117 0.437149
0.280069 -0.112268 0.306514
-0.310469 0.265994 0.423642
-0.0791321 -0.0733941 0.402256
0.256135 -0.174379 0.164579
0.105479 0.0204015 0.310715
0.126101 -0.0869825 0.402256
-0.294467 -0.0474216 0.337302
-0.105741 -0.0974017 0.423642
-0.291045 -0.200586 0.21566
0.123066 -0.0668111 0.423642
0.231119 -0.298793 0.011256
0.0244294 -0.239917 0.423642
-0.226048 0.251917 0.423642
-0.266951 0.0215423 0.437149
-0.0796433 0.307289 0.437149
-0.22108 -0.0342263 0.423642
0.111905 -0.317982 0.432182
0.0593937 -0.0536565 0.370344
0.283718 0.0490224 0.358769
-0.0337338 0.271469 0.423642
0.2496 0.0469112 0.357083
0.088063 -0.0638275 0.437149
-0.061422 -0.0317123 0.328918
-0.0625502 0.0534659 0.368548
-0.14915 -0.0839275 0.423642
-0.280948 0.044603 0.354346
-0.270284 -0.189921 0.239284
0.241957 -0.157694 0.275581
0.246442 0.155156 0.178595
-0.306122 0.181971 0.423642
0.151577 -0.121017 0.402256
-0.107573 -0.176527 0.437149
-0.260196 -0.0215289 0.310924
0.257633 0.0434557 0.402256
0.0465698 0.147798 0.402256
0.00704461 0.116986 0.423642
0.126945 0.240932 0.437149
-0.291241 0.228253 0.185524
-0.295364 -0.0612011 0.371409
-0.232169 0.301694 0.423642
0.238764 0.248429 0.437149
-0.288767 0.251051 0.0956082
-0.162008 0.0705546 0.423642
-0.253899 -0.0900469 0.215964
-0.120324 -0.0341861 0.437149
0.0320553 -0.137091 0.402256
0.155833 0.0851509 0.402256
-0.260284 0.156741 0.423642
-0.299291 -0.147984 0.423642
-0.259546 0.0164113 0.30291
0.221109 -0.0777076 0.437149
-0.189753 -0.274413 0.423642
-0.28871 0.102773 0.22339
-0.261275 0.0904606 0.234611
0.184965 0.0357945 0.423642
-0.0301945 0.110543 0.437149
-0.214849 -0.0428914 0.349714
0.101694 -0.0364236 0.402256
0.27604 0.155697 0.280294
-0.0703976 0.134855 0.402256
-0.126635 -0.0644414 0.402256
-0.232268 -0.0221884 0.402256
0.189154 0.0570829 0.423642
-0.250892 0.301875 0.437149
0.209399 -0.0444182 0.423642
-0.314136 0.276734 0.00113754
0.196289 -0.196098 0.423642
-0.170934 0.0325474 0.423642
0.278248 -0.163941 0.437149
0.149099 -0.0258519 0.319564
-0.0698048 -0.162629 0.423642
-0.229864 -0.0176092 0.303998
0.260655 0.158626 0.423642
0.25263 0.0326278 0.423642
0.0825933 0.242648 0.423642
-0.107599 -0.0624326 0.423642
-0.104407 -0.0270495 0.321683
0.105918 -0.17634 0.423642
-0.143454 0.0477016 0.357171
0.0660558 -0.11476 0.402256
-0.270813 -0.110827 0.191858
-0.260552 0.0392534 0.437149
-0.28008 -0.201449 0.114158
-0.0291407 0.0438757 0.350411
-0.139872 -0.0446383 0.402256
-0.275021 0.18289 0.204853
-0.183255 0.0848143 0.423642
-0.257919 0.0244382 0.26594
-0.112788 0.303055 0.437149
0.113681 0.227875 0.437149
-0.000287175 0.192821 0.437149
0.0390051 -0.203542 0.423642
-0.253313 -0.312837 0.423642
0.237044 0.306205 0.423642
-0.287984 -0.217793 0.164939
-0.180661 0.0559928 0.423642
-0.142082 0.20028 0.423642
0.281681 -0.149174 0.257564
-0.042763 -0.0284608 0.325823
-0.13789 0.101192 0.402256
0.270113 0.278334 0.0461175
0.14805 0.103317 0.437149
0.208145 -0.0496161 0.363204
-0.293209 0.0234194 0.272433
-0.162653 0.114342 0.402256
-0.197168 -0.0822885 0.423642
0.26067 0.197474 0.423642
0.0776609 0.0356433 0.423642
0.263433 -0.305491 0.011256
0.0619541 -0.27139 0.423642
0.0949371 -0.0588306 0.380177
-0.0385742 0.0341902 0.335947
-0.118795 -0.0464588 0.357625
-0.196223 0.0371405 0.34116
0.0735397 0.150772 0.423642
-0.0929338 0.215535 0.423642
