0.0903523 0.0382807 0.54705
0.290358 0.160608 0.563703
-0.208065 0.278317 0.54705
-0.0499267 -0.285381 0.570468
-0.0332746 -0.230532 0.54705
0.115145 -0.257333 0.570468
-0.137232 0.0320837 0.54705
-0.0274371 0.040231 0.529124
0.0451991 0.164132 0.570468
-0.290405 -0.0850571 0.570374
0.169057 -0.290358 0.55648
0.247084 -0.230602 0.390107
-0.290358 0.0687793 0.567827
0.000574172 -0.0524203 0.570468
-0.080722 -0.102338 0.570468
0.0647838 0.2254 0.54705
-0.205252 0.00622663 0.570468
0.0366721 0.00964406 0.570468
-0.0993506 -0.290358 0.560199
0.0559412 -0.144895 0.570468
-0.213667 -0.0639084 0.54705
0.273362 -0.126311 0.54705
0.12197 0.290358 0.570243
0.145189 -0.0598934 0.54705
-0.231383 0.229877 0.0224291
0.13553 0.0764095 0.54705
-0.123294 0.153202 0.570468
-0.225552 0.221157 0.519058
-0.216498 0.137803 0.54705
-0.135847 -0.0243371 0.54705
0.0798424 -0.138148 0.54705
0.082527 0.0766826 0.525469
-0.232969 -0.228959 0.488677
-0.217672 0.0150036 0.54705
0.0525877 -0.266253 0.570468
-0.246864 -0.230359 0.407308
-0.105891 -0.177941 0.54705
0.221377 0.237922 0.525543
0.241176 -0.203806 0.570468
-0.257397 0.0574921 0.570468
-0.170307 -0.263875 0.54705
0.0552812 -0.014888 0.54705
-0.160367 -0.224824 0.570468
-0.0304126 0.131232 0.54705
-0.0267781 0.0845224 0.54705
0.170619 0.0300443 0.54705
-0.27561 0.292409 0.55424
0.231274 0.22994 0.279075
0.250012 0.239396 0.04792
0.151838 -0.251969 0.570468
0.223863 0.0797872 0.570468
0.186369 -0.187721 0.553483
-0.138489 0.101347 0.54705
0.112395 -0.201919 0.570468
-0.209447 -0.142436 0.54705
-0.163614 -0.196786 0.54705
0.157897 0.157723 0.524395
0.257247 0.284418 0.54705
-0.24838 -0.244567 0.0398635
-0.233097 0.248524 0.119248
0.195356 0.203757 0.553483
0.048519 -0.224013 0.570468
-0.247041 0.0076791 0.54705
-0.23698 -0.227393 0.216246
0.221425 -0.27689 0.570468
-0.108016 0.142795 0.54705
0.0220439 -0.244857 0.54705
-0.195501 -0.291645 0.567871
-0.229254 -0.244949 0.289036
0.0106607 -0.147882 0.570468
0.0702175 0.0512492 0.570468
0.0617953 -0.145418 0.54705
0.0693018 0.145966 0.570468
0.0309176 -0.0753918 0.54705
-0.157169 -0.0664849 0.570468
0.127061 -0.164789 0.54705
-0.0494735 0.164843 0.570468
-0.19631 0.0822756 0.54705
0.20912 -0.224273 0.530971
-0.29015 0.18077 0.54705
-0.0610476 0.08169 0.570468
-0.0949276 -0.154781 0.570468
-0.275059 -0.171174 0.54705
0.259505 -0.0382603 0.54705
0.121687 -0.0573001 0.570468
-0.252852 -0.0607281 0.570468
-0.246804 0.247088 0.284031
0.266487 0.0509911 0.570468
0.0882379 -0.0950176 0.525646
0.182485 -0.0218834 0.54705
-0.0692205 -0.0755097 0.525555
0.240826 -0.227393 0.18668
0.177989 -0.0580162 0.570468
-0.101739 0.102839 0.570468
-0.0962891 -0.22212 0.570468
0.00530183 0.120657 0.570468
0.235643 0.227411 0.43013
-0.167468 0.267046 0.570468
-0.10215 -0.0270641 0.570468
-0.00643846 -0.208924 0.570468
-0.113086 -0.12751 0.541695
0.258464 -0.076019 0.570468
-0.0210533 0.214954 0.570468
-0.233693 0.22854 0.197607
-0.196416 0.0491398 0.570468
-0.165172 0.0689103 0.54705
0.290358 -0.227396 0.549155
-0.278542 -0.245411 0.54705
0.120362 -0.0104614 0.54705
0.262365 0.228799 0.570468
0.195055 0.163135 0.541775
-0.199684 0.225047 0.54705
0.123104 0.154781 0.570468
-0.137344 -0.197883 0.54705
-0.0869726 0.0519465 0.54705
-0.205072 -0.0980945 0.54705
-0.106976 -0.0634691 0.54705
-0.236064 -0.227393 0.130413
-0.2274 0.236993 0.42753
-0.00870103 0.291232 0.568703
0.0632313 -0.284396 0.54705
-0.0895403 0.224395 0.54705
-0.154343 0.179708 0.54705
0.062073 -0.101357 0.570468
0.163309 0.258783 0.570468
0.11855 -0.106522 0.54705
0.0822097 0.195783 0.54705
-0.285687 -0.0237839 0.54705
0.0417803 -0.0404983 0.524605
-0.0209927 0.0113286 0.570468
0.241154 -0.102334 0.570468
0.197582 0.0188805 0.570468
0.0124936 -0.167103 0.54705
-0.0802768 0.289586 0.54705
-0.23971 0.154912 0.570468
0.210365 0.187795 0.570468
-0.0013901 -0.121995 0.54705
0.231119 -0.23003 0.285359
-0.172272 -0.159874 0.528843
-0.00343585 -0.102431 0.570468
-0.00442538 0.225293 0.54705
0.195371 -0.266743 0.54705
0.124808 -0.274792 0.54705
-0.21752 0.212149 0.570468
-0.0870688 -0.23739 0.54705
0.242709 -0.172021 0.570468
0.278163 0.0123835 0.54705
0.176296 -0.187249 0.570468
0.132974 -0.125247 0.570468
0.272155 0.190724 0.570468
-0.243848 -0.281085 0.570468
-0.10799 0.178637 0.54705
-0.275035 0.0563342 0.54705
-0.0266639 -0.00286793 0.537026
-0.0404916 0.113526 0.54705
0.246988 -0.230435 0.479629
-0.250497 0.290358 0.547233
0.0679807 0.108058 0.54705
-0.0725454 0.0610795 0.528183
-0.166001 0.175236 0.570468
0.241787 0.24998 0.374469
-0.235622 -0.249982 0.374583
0.00342956 0.0266317 0.53917
-0.122372 0.201489 0.570468
-0.0370543 -0.0456091 0.52613
0.142032 -0.178423 0.54705
-0.246874 0.174772 0.54705
0.0645517 0.224301 0.570468
-0.106133 0.274127 0.54705
-0.234447 -0.169183 0.54705
0.0816527 0.268387 0.54705
0.248116 -0.23239 0.0400908
-0.0492501 0.209638 0.54705
0.00809157 0.205788 0.570468
-0.275442 -0.129663 0.570468
0.0486132 0.156386 0.54705
0.0500289 -0.224933 0.54705
-0.19268 -0.191484 0.503295
0.232021 -0.247903 0.103412
-0.273987 0.094837 0.570468
-0.115093 -0.268659 0.570468
0.140702 0.139103 0.547474
0.101502 0.0415301 0.570468
0.197298 0.2507 0.54705
-0.0152567 -0.290358 0.56686
0.265754 -0.290012 0.570468
-0.246123 0.247481 0.0515836
-0.245021 -0.238748 0.520136
0.224083 -0.149328 0.54705
-0.0441796 -0.0738833 0.570468
0.195045 -0.0996544 0.570468
0.166736 -0.151438 0.570468
0.267031 -0.0779231 0.54705
0.21458 0.076824 0.54705
0.235063 0.227747 0.385525
0.18929 0.218323 0.570468
0.166534 -0.138187 0.54705
0.129234 0.122788 0.570468
0.291953 0.119059 0.551169
-0.22611 -0.0376986 0.570468
-0.21416 0.08767 0.54705
-0.17438 0.131342 0.570468
0.0748387 -0.0422395 0.570468
0.246161 -0.121862 0.570468
0.177349 0.290385 0.547104
-0.157321 0.259035 0.54705
-0.0484202 -0.193241 0.54705
0.120057 0.184275 0.54705
-0.236164 0.250012 0.347743
-0.290358 0.0196317 0.547686
0.261861 0.155139 0.54705
-0.250012 -0.238636 0.443961
0.110384 0.273233 0.570468
-0.153529 -0.109774 0.570468
-0.170888 0.139856 0.54705
0.273298 -0.257573 0.54705
-0.06438 -0.049259 0.570468
-0.0661038 -0.0504856 0.538556
-0.0874172 0.141521 0.570468
0.0671976 0.106151 0.570468
-0.273097 0.238762 0.570468
-0.0818514 0.117687 0.54705
-0.0760525 0.00417149 0.570468
0.0196531 -0.194698 0.54705
-0.268046 0.143308 0.54705
-0.117469 0.106864 0.527575
0.280652 0.0687072 0.54705
-0.109583 -0.15149 0.54705
-0.0710481 0.244486 0.570468
0.0391576 -0.0177733 0.570468
0.113212 0.188793 0.570468
-0.250012 -0.236897 0.287181
-0.0984086 0.235349 0.570468
-0.197114 -0.245493 0.570468
0.0317908 0.0483094 0.536167
0.28652 -0.147701 0.54705
-0.216364 -0.221841 0.570468
0.232508 0.248184 0.132544
-0.0061188 -0.051999 0.54705
0.250089 0.268517 0.54705
0.278521 0.291771 0.567579
0.0109529 0.0967926 0.54705
0.238895 0.227393 0.0354131
0.23382 0.228466 0.203621
-0.137415 0.292569 0.555315
0.21861 -0.0118374 0.570468
-0.223268 0.239574 0.523607
-0.244274 -0.0273759 0.570468
-0.131904 0.180106 0.54705
0.290358 0.235259 0.547408
-0.266321 0.15719 0.570468
0.125889 0.265209 0.54705
-0.230691 0.247135 0.16151
0.197864 -0.0609618 0.54705
-0.0177658 0.273742 0.54705
0.132999 -0.292128 0.565173
0.220518 0.290358 0.567895
-0.283654 -0.0446866 0.570468
0.228122 -0.243 0.357047
-0.0586596 0.29259 0.558589
0.0817868 -0.0924032 0.544557
0.205326 0.0512732 0.54705
-0.229789 -0.231538 0.0207337
-0.141827 0.076192 0.570468
-0.237798 0.250012 0.234698
0.234584 0.228024 0.243677
-0.241796 0.218482 0.54705
0.290358 -0.193375 0.549045
-0.270933 0.218935 0.54705
0.0232073 -0.00679928 0.54705
0.104467 0.0956541 0.54583
0.168018 0.204558 0.541775
-0.0386696 -0.116044 0.570468
0.185336 -0.178702 0.52562
-0.0349401 -0.189434 0.570468
-0.249672 -0.242328 0.0703836
0.0133283 0.147879 0.54705
-0.204866 0.280092 0.570468
0.0313245 0.199785 0.54705
0.158905 0.086632 0.570468
0.0635718 0.0643219 0.547635
0.0106079 -0.100431 0.54705
-0.229354 -0.245123 0.251533
-0.0278358 -0.239256 0.570468
0.231853 -0.229605 0.241085
0.247125 0.231059 0.504402
0.147943 -0.0971948 0.54705
-0.172633 0.160102 0.528937
0.0617312 -0.263345 0.54705
-0.0473647 0.185156 0.570468
-0.142012 -0.279647 0.54705
-0.0828923 -0.205777 0.54705
0.265079 0.119983 0.570468
0.161583 0.1068 0.54705
-0.181864 -0.00284058 0.54705
-0.0269901 0.104643 0.570468
0.18812 0.102149 0.570468
0.228134 0.234392 0.0676822
0.245166 0.229378 0.34539
-0.0980354 0.0669405 0.570468
-0.146268 -0.00600162 0.570468
-0.133579 -0.227409 0.570468
-0.274692 -0.0954182 0.54705
0.101226 -0.0243202 0.570468
-0.263513 -0.0287507 0.54705
-0.251981 -0.225997 0.54705
-0.12287 -0.19085 0.570468
-0.04602 -0.273304 0.54705
-0.242209 -0.203727 0.570468
0.225078 0.189858 0.54705
0.197588 -0.175976 0.570468
-0.0912429 -0.0136016 0.54705
0.249753 -0.242187 0.441764
0.150832 0.228257 0.54705
-0.18502 -0.226838 0.54705
0.219719 0.0595314 0.570468
0.275789 -0.271198 0.570468
0.247164 0.230741 0.149812
-0.122189 -0.108151 0.530003
0.291609 -0.0241035 0.549575
-0.240019 -0.250012 0.320517
-0.171036 -0.11706 0.54705
0.245182 0.248023 0.288369
-0.233059 0.0288476 0.570468
-0.154148 -0.0866372 0.54705
0.02889 0.29259 0.557724
0.0146826 0.0311743 0.570468
-0.147192 -0.149765 0.54705
0.110738 -0.0504389 0.54705
0.260454 -0.154781 0.54705
-0.0913805 -0.273832 0.54705
0.0132938 -0.251687 0.570468
0.239914 -0.250012 0.184642
-0.284909 0.207645 0.570468
0.227392 -0.236227 0.325698
0.171969 0.187058 0.539941
0.209526 -0.185832 0.530593
-0.0437984 0.0587305 0.531784
-0.235898 0.250012 0.441481
0.181095 -0.0130162 0.570468
0.174639 -0.118586 0.54705
-0.256723 -0.243679 0.570468
-0.0484431 0.0387844 0.54705
0.142402 0.290358 0.557147
-0.184031 0.0439791 0.54705
-0.175679 0.190724 0.532084
-0.0137842 0.152725 0.570468
-0.0754309 0.179645 0.54705
0.246928 -0.040168 0.570468
0.280984 0.18605 0.54705
0.0999651 -0.1894 0.54705
0.292167 -0.11144 0.564913
-0.00931737 0.250494 0.570468
-0.0795795 -0.0958634 0.536783
0.222242 -0.239136 0.570468
-0.23663 -0.227393 0.184979
-0.141942 0.225856 0.570468
0.229848 0.108227 0.570468
0.229433 -0.245264 0.0291968
0.237666 -0.114387 0.54705
0.208353 0.223587 0.531356
-0.0721752 -0.112639 0.54705
-0.227866 0.234867 0.0623804
-0.193967 0.202703 0.503895
-0.228225 0.123134 0.570468
-0.185077 -0.18756 0.553483
-0.0536177 -0.148914 0.570468
0.0479642 -0.0603004 0.54334
0.185306 -0.21155 0.531063
0.0497802 -0.108168 0.54705
-0.20704 0.247348 0.570468
-0.164514 -0.261844 0.570468
0.192591 0.27032 0.570468
-0.151416 0.208355 0.54705
0.229455 -0.245301 0.409963
-0.289024 -0.0643408 0.54705
0.117762 0.0110341 0.570468
0.190799 0.0848565 0.54705
0.0628429 -0.0663795 0.525032
0.227275 0.0310165 0.54705
-0.216709 -0.154781 0.570468
0.0872891 -0.231811 0.570468
-0.112627 0.0716671 0.54705
0.140051 0.031571 0.54705
-0.191897 -0.0590524 0.570468
-0.00571576 -0.0113772 0.554856
-0.249234 -0.234326 0.148388
0.23573 -0.239398 0.54705
0.267738 -0.197546 0.570468
0.138249 0.137517 0.524501
0.0981061 -0.291876 0.566872
-0.249227 0.234362 0.498128
0.212188 0.140368 0.570468
0.0965664 -0.162697 0.570468
0.250279 0.277821 0.570468
-0.267132 0.272048 0.570468
-0.0718315 -0.1716 0.54705
0.29213 0.0346996 0.565159
0.0921979 0.152536 0.570468
-0.244781 -0.0873971 0.54705
-0.245641 0.229652 0.402097
0.168395 -0.214557 0.54705
-0.233889 -0.248981 0.33815
-0.225743 -0.0133013 0.54705
0.104074 0.076349 0.54705
-0.0626969 -0.290358 0.551908
0.0366598 0.0489027 0.570468
-0.23998 0.0948831 0.570468
-0.219355 0.252839 0.54705
0.280825 -0.054257 0.570468
-0.229262 0.232449 0.299059
0.179155 0.163071 0.570468
0.105478 0.065776 0.570468
0.0697147 0.0795652 0.570468
0.0809424 0.29259 0.557794
-0.130875 -0.0445272 0.570468
-0.195089 -0.0325134 0.54705
-0.229842 0.231446 0.131589
0.0898906 0.2467 0.570468
-0.193541 0.112841 0.54705
-0.0302651 0.0488141 0.570468
0.0391118 0.23383 0.54705
0.0295777 -0.112207 0.570468
0.00703833 -0.0062305 0.570468
0.052379 0.248849 0.54705
0.0548486 0.2819 0.54705
-0.0835547 0.163027 0.570468
-0.0210592 -0.154122 0.570468
-0.238172 -0.250012 0.120844
-0.269686 -0.090344 0.570468
0.0318714 0.136638 0.570468
0.00100815 0.261526 0.54705
-0.290358 -0.155929 0.5624
0.0854231 -0.00691402 0.54705
-0.28349 0.0870547 0.54705
-0.225251 -0.221491 0.518907
-0.140512 0.146793 0.546586
0.176463 -0.258101 0.570468
0.212898 0.168943 0.543304
-0.141389 0.00248569 0.54705
-0.0210045 -0.177158 0.54705
-0.250012 0.240127 0.0986307
-0.283836 -0.212422 0.54705
-0.224856 0.0665517 0.570468
-0.130439 -0.28228 0.570468
0.155047 0.217296 0.570468
-0.0656287 0.275238 0.570468
0.00902563 -0.281581 0.570468
-0.276862 -0.190639 0.570468
-0.0325484 -0.0300688 0.547307
0.146322 -0.0280365 0.54705
0.254049 0.256377 0.570468
-0.208173 0.147681 0.570468
-0.252677 0.260435 0.54705
-0.24908 -0.271697 0.54705
-0.131412 0.171454 0.570468
0.230755 0.209945 0.570468
-0.290358 -0.270504 0.563464
0.149353 -0.219044 0.570468
-0.0368046 0.179158 0.54705
0.241052 0.24992 0.498534
-0.174424 -0.282179 0.54705
0.249806 -0.242096 0.198539
0.162643 -0.253206 0.54705
-0.227447 0.235592 0.267835
0.0392404 -0.29225 0.564349
0.0926595 0.103045 0.527419
0.188885 0.21002 0.527618
-0.247176 0.246652 0.135969
-0.137075 0.254161 0.570468
-0.214536 0.178027 0.551746
-0.157511 -0.172185 0.531102
-0.159076 -0.0463299 0.54705
0.23462 0.228003 0.101519
0.202646 -0.208093 0.570468
-0.210936 -0.0847568 0.570468
-0.0127029 0.15083 0.54705
-0.251536 -0.160055 0.54705
-0.195003 0.194344 0.553483
0.227477 -0.241887 0.491481
-0.104879 0.0223147 0.570468
0.228236 -0.0457387 0.54705
-0.235148 -0.109196 0.54705
0.231801 -0.247776 0.075251
-0.29259 0.154352 0.559418
0.229603 0.21427 0.528909
0.210212 -0.123446 0.54705
-0.131675 -0.0807848 0.570468
-0.29259 -0.00334996 0.55684
0.247474 -0.231278 0.0928028
0.258429 0.085949 0.54705
0.234164 -0.24914 0.473226
0.127083 0.0904866 0.570468
0.22796 -0.0723305 0.570468
-0.217986 -0.290358 0.547073
-0.249274 0.243017 0.313771
-0.0823971 0.046593 0.570468
0.258765 -0.00099647 0.54705
0.250012 0.237632 0.129139
0.138291 -0.1646 0.570468
-0.0147262 -0.148184 0.54705
-0.227994 0.291931 0.566502
0.235812 -0.250012 0.300949
0.089692 0.207392 0.570468
-0.0280141 0.219184 0.54705
-0.088531 -0.0381236 0.54705
0.0176281 0.167848 0.570468
0.228786 0.233267 0.298614
0.100083 -0.244266 0.54705
-0.0402991 -0.0374911 0.570468
-0.068196 0.0901549 0.54705
-0.242471 0.132683 0.54705
-0.229681 -0.231724 0.379289
-0.188944 0.21148 0.53122
0.16059 0.0555814 0.570468
0.260321 -0.222729 0.54705
0.0444255 -0.195889 0.570468
-0.158501 -0.194875 0.570468
0.0393845 0.107007 0.570468
0.0773126 -0.167103 0.54705
0.254361 0.0800379 0.570468
0.168813 -0.0753101 0.54705
-0.235566 -0.130908 0.54705
0.170886 0.0146048 0.570468
-0.248395 0.24454 0.181902
-0.245302 -0.247955 0.199918
0.0200509 -0.0828348 0.570468
0.228951 -0.214187 0.538191
0.169821 0.163719 0.54662
-0.227514 -0.241936 0.418759
0.167582 -0.168912 0.547525
-0.216578 0.17591 0.570468
0.118578 -0.226882 0.570468
0.196502 0.019975 0.54705
0.194801 -0.157416 0.549344
-0.0248999 -0.102892 0.54705
0.246492 0.247268 0.252058
0.126088 -0.142617 0.536142
0.106331 0.01773 0.54705
-0.182117 0.249572 0.54705
-0.23281 -0.175901 0.570468
0.232123 0.247962 0.0160615
-0.262427 -0.203314 0.54705
0.105524 -0.121635 0.534895
-0.0352814 0.143925 0.570468
0.123059 -0.154034 0.570468
-0.0229211 0.0723139 0.570468
0.233231 0.27201 0.570468
-0.0160988 0.192453 0.570468
0.00574136 0.225235 0.570468
0.238995 0.287617 0.54705
-0.134171 0.0640746 0.54705
0.0518991 0.0245369 0.570468
-0.144592 -0.222108 0.54705
-0.26366 -0.291866 0.550579
0.171249 0.265312 0.54705
0.0376786 0.210792 0.570468
0.281216 -0.0544946 0.54705
0.12313 0.119029 0.54705
0.0217827 -0.0306453 0.536032
-0.0222326 -0.0169089 0.570468
-0.241817 0.0680312 0.54705
-0.290358 -0.115363 0.554154
-0.246097 -0.125043 0.570468
0.18485 -0.0408564 0.570468
-0.231282 -0.00320122 0.570468
0.104836 -0.0815062 0.570468
-0.163191 0.291077 0.569016
-0.195508 0.164043 0.541775
-0.248763 0.243902 0.257268
0.232384 -0.229297 0.125246
0.0356762 0.066061 0.54705
0.142169 -0.036161 0.570468
0.203522 -0.292204 0.552857
-0.0478988 0.226821 0.570468
0.0655252 0.0529478 0.52897
-0.012503 0.109837 0.54705
0.229878 0.246032 0.443142
0.264986 -0.103605 0.570468
0.151786 0.184546 0.54705
0.0904161 0.121229 0.570468
0.245903 0.247607 0.432343
-0.104223 0.102372 0.547426
-0.2274 -0.239697 0.0476451
-0.096216 -0.249819 0.570468
-0.222141 0.208121 0.541146
0.179669 0.226564 0.54705
-0.0465906 -0.0936415 0.570468
0.068637 -0.285982 0.570468
0.271803 -0.132107 0.570468
-0.084098 0.0238197 0.54705
-0.187457 -0.222175 0.570468
0.0830167 0.179468 0.570468
-0.111115 -0.206198 0.54705
0.0713233 -0.206823 0.570468
-0.0472054 -0.214904 0.570468
-0.248272 0.244754 0.0249967
0.279692 0.0396047 0.54705
0.290358 0.00582641 0.56665
0.232181 0.229415 0.479385
-0.199298 -0.212533 0.529437
0.24375 -0.0646866 0.54705
-0.0569113 0.053924 0.570468
0.20897 -0.0293845 0.54705
-0.0204235 0.0509485 0.54705
0.0313294 0.174113 0.54705
-0.197562 -0.198115 0.547672
0.17166 -0.0503839 0.54705
-0.168382 0.0535459 0.570468
-0.0326059 -0.265306 0.570468
-0.229318 0.232353 0.395016
0.250012 -0.238657 0.415432
0.249052 0.234011 0.0774141
0.0490395 0.012711 0.54705
0.0224907 -0.17386 0.570468
0.27732 0.145539 0.570468
0.071474 -0.0238397 0.54705
0.22171 -0.26809 0.54705
0.0876789 -0.0696836 0.570468
0.150417 0.15279 0.570468
-0.104538 -0.131538 0.570468
-0.247907 0.232028 0.454069
0.212848 -0.248796 0.54705
0.244205 0.179343 0.54705
-0.249356 0.242876 0.210762
-0.248926 -0.243619 0.469815
0.229094 0.232735 0.41141
-0.0837498 -0.145374 0.54705
-0.0178415 0.0203394 0.545738
0.192795 -0.0737754 0.570468
0.123108 0.0526499 0.54705
0.160762 -0.126259 0.570468
0.244123 -0.228775 0.431168
-0.051776 -0.249251 0.54705
0.241384 0.137382 0.570468
0.223085 -0.176865 0.54705
-0.245002 -0.151221 0.570468
-0.118304 0.126177 0.570468
0.290358 -0.252299 0.564085
0.244538 -0.229015 0.0143468
0.0874762 0.227162 0.54705
-0.0378469 -0.056175 0.54705
0.236946 -0.250012 0.390673
-0.18267 -0.193425 0.527684
0.128601 0.202173 0.570468
-0.0591642 -0.0924693 0.54705
-0.27158 -0.022903 0.570468
-0.256796 0.032541 0.570468
-0.206077 -0.11448 0.570468
-0.132051 -0.172589 0.54705
-0.194963 -0.122466 0.54705
0.0229959 0.00550182 0.531441
-0.0976438 0.290358 0.557115
0.00478593 0.0725317 0.54705
-0.164527 -0.166116 0.553483
-0.19242 0.0248822 0.54705
-0.144667 0.0207994 0.570468
-0.193555 0.202945 0.570468
-0.291233 0.270247 0.568703
0.276329 -0.284606 0.54705
-0.240201 -0.250012 0.0126798
-0.0579492 -0.221803 0.54705
0.236723 0.228654 0.570468
0.000417322 0.0459587 0.54705
0.184273 0.172827 0.528172
0.282403 0.285212 0.54705
-0.26437 -0.268079 0.570468
0.226518 0.0164472 0.570468
-0.218686 -0.19021 0.54705
-0.0801775 0.107796 0.570468
-0.237418 0.250012 0.407438
0.248197 0.231841 0.54705
0.133376 -0.082154 0.570468
0.290358 0.0654417 0.565819
0.261392 0.0303651 0.54705
0.161952 -0.00659975 0.54705
0.247675 -0.244994 0.501716
0.288855 -0.184248 0.570468
-0.178464 0.164985 0.553483
-0.249352 -0.242883 0.0969087
-0.227964 0.269988 0.54705
-0.220779 -0.276835 0.570468
0.0246352 -0.214755 0.570468
0.235221 -0.223181 0.514885
0.173146 -0.210857 0.570468
0.217611 -0.188 0.570468
-0.227205 0.110799 0.54705
-0.102531 -0.10002 0.54705
0.162233 0.145081 0.54705
-0.0610436 0.138307 0.570468
0.247411 -0.130322 0.54705
0.223628 0.240279 0.54705
-0.132638 -0.0622054 0.54705
-0.245513 0.229577 0.116965
-0.168626 -0.0244097 0.54705
-0.283825 -0.141865 0.54705
0.290995 -0.209889 0.569182
-0.15358 -0.0310175 0.570468
0.249305 0.234449 0.185639
-0.0290814 0.290358 0.566469
0.245122 -0.248057 0.0544498
0.0537797 -0.0359056 0.54705
-0.024919 0.241131 0.54705
-0.233943 -0.248895 0.501528
-0.292465 0.0398387 0.562899
-0.0592504 -0.12875 0.570468
0.00263157 0.0110887 0.54705
-0.184035 -0.148038 0.54705
0.1604 -0.280504 0.570468
0.168593 0.290358 0.570045
-0.106722 0.122525 0.534085
-0.159561 0.0452216 0.54705
0.19044 0.24153 0.570468
0.00389981 0.202325 0.54705
0.0942226 -0.271996 0.570468
0.236766 -0.227393 0.216312
-0.122777 0.090213 0.570468
-0.1524 0.202686 0.570468
0.196165 0.187528 0.541775
0.215377 -0.10363 0.570468
-0.245897 -0.0886121 0.570468
-0.150977 0.154781 0.570468
-0.0446543 -0.11209 0.54705
-0.269894 0.177501 0.54705
-0.0135612 -0.0374156 0.570468
-0.120258 0.0925875 0.54705
-0.289898 0.177388 0.570468
0.103312 -0.210039 0.54705
0.0891479 0.173724 0.54705
-0.0724853 -0.0249173 0.570468
0.0113884 0.246751 0.54705
0.132588 0.0664537 0.570468
-0.228726 0.244045 0.497241
0.247881 -0.231982 0.309504
0.213225 0.201239 0.528554
0.207656 -0.20681 0.547617
-0.24553 0.229588 0.359802
0.15114 -0.281791 0.54705
0.261523 -0.154781 0.570468
-0.0733825 -0.0694116 0.54705
0.249036 -0.233983 0.346212
0.289533 -0.0925881 0.570468
0.17638 -0.16109 0.532729
0.00237185 -0.283927 0.54705
0.26854 0.130808 0.54705
0.210928 0.213071 0.570468
-0.192725 -0.270316 0.570468
0.0967797 0.290685 0.569807
0.0999249 0.120182 0.54705
0.056822 0.128913 0.54705
0.248121 -0.023969 0.54705
-0.243738 -0.22855 0.268621
-0.133307 0.262906 0.54705
-0.133524 0.130443 0.547193
0.0217785 0.0306495 0.529799
-0.00386244 -0.26896 0.570468
-0.243921 -0.228656 0.106547
0.290358 0.20783 0.568369
0.0744919 0.0893128 0.54705
0.121675 0.290358 0.550884
-0.29259 0.103524 0.55593
0.0655049 -0.246412 0.570468
-0.0780518 0.238588 0.54705
0.290358 0.0898857 0.55544
-0.110604 -0.0253163 0.54705
-0.284902 0.0204692 0.570468
-0.190131 -0.165993 0.541775
0.290136 0.276003 0.570468
0.248384 0.19763 0.570468
0.250012 -0.240192 0.285318
-0.107837 0.202987 0.54705
-0.0533376 -0.170321 0.54705
-0.0667785 0.214654 0.54705
-0.0763058 0.265036 0.54705
-0.237167 -0.0303412 0.54705
0.169733 -0.195946 0.54705
0.132133 0.156382 0.54705
0.00932935 0.266035 0.570468
-0.172183 0.185728 0.553483
-0.270599 0.0001252 0.54705
-0.176456 0.242525 0.570468
-0.291776 -0.0437018 0.549973
0.221205 0.147549 0.54705
-0.0728435 -0.241391 0.570468
0.275039 0.216716 0.54705
0.216238 0.212864 0.54705
-0.247017 -0.246926 0.265603
0.282476 0.152574 0.54705
-0.0361929 0.157626 0.54705
-0.113401 -0.240804 0.570468
0.0282163 -0.0494994 0.54705
-0.0723368 0.183421 0.570468
-0.234505 -0.197923 0.54705
0.0462226 -0.167793 0.570468
-0.0239395 -0.0327968 0.526343
-0.138779 -0.122968 0.53409
-0.167066 -0.226676 0.54705
0.148437 -0.15589 0.546365
-0.173958 0.226705 0.54705
0.189878 -0.291338 0.56849
0.187285 0.188047 0.570468
0.0808215 0.276199 0.570468
-0.119678 -0.287425 0.54705
-0.154013 0.0880468 0.54705
-0.209197 -0.16606 0.541775
-0.251799 0.290358 0.567634
0.192141 -0.154405 0.570468
-0.125328 -0.113456 0.54705
0.151115 0.16455 0.542563
0.0553752 0.19964 0.54705
0.277162 0.251761 0.54705
0.12532 -0.0131464 0.570468
0.00627107 -0.000381279 0.531441
-0.0215787 -0.0866439 0.570468
0.14026 0.250896 0.570468
-0.0374647 0.28701 0.54705
0.234384 0.249267 0.0488212
-0.290358 0.22653 0.557812
-0.0731424 -0.25966 0.54705
-0.214329 -0.0397203 0.54705
-0.141274 -0.249983 0.570468
0.0126644 -0.217414 0.54705
0.209814 0.0378469 0.570468
0.123521 -0.18572 0.54705
-0.278433 -0.277773 0.54705
-0.0511017 -0.0644572 0.529521
-0.248517 -0.244328 0.357674
0.0877864 -0.0727532 0.540088
-0.0987613 -0.198539 0.570468
0.221276 -0.161924 0.570468
-0.155461 0.123943 0.570468
-0.146998 0.237718 0.54705
-0.0334817 0.0196311 0.52987
0.14938 -0.132866 0.535961
-0.290905 -0.085844 0.548154
-0.165601 -0.140561 0.570468
-0.234855 0.189903 0.570468
0.17545 -0.0896758 0.570468
0.243982 0.235489 0.523885
-0.0716867 -0.151312 0.570468
-0.271022 0.12452 0.570468
0.290358 -0.105644 0.547346
0.0717356 0.146751 0.54705
0.290358 0.184098 0.563067
0.11737 -0.277414 0.570468
0.0479308 0.0799926 0.570468
0.228975 0.244472 0.150311
-0.225763 -0.240047 0.529132
-0.292055 -0.247904 0.565667
-0.0520518 0.128992 0.54705
0.158701 -0.174454 0.53395
-0.248948 0.0514506 0.54705
-0.0829898 0.022355 0.570468
-0.086147 -0.128611 0.570468
0.0940789 -0.0288488 0.54705
-0.248162 -0.232469 0.0539934
-0.00524822 -0.228989 0.54705
-0.0862807 -0.0439505 0.570468
-0.26927 0.034606 0.54705
-0.187186 -0.249179 0.54705
-0.292589 -0.178739 0.562067
0.138269 0.181239 0.570468
0.204693 0.123196 0.570468
0.0795477 0.12736 0.54705
0.110186 0.136724 0.570468
0.163743 -0.0754622 0.570468
-0.244373 0.248492 9.04833e-05
-0.0603 0.0579309 0.547328
0.187727 -0.196605 0.518859
-0.126387 -0.158246 0.570468
-0.00627321 0.0833397 0.570468
0.113967 -0.105321 0.526191
0.23061 0.247088 0.196757
0.130395 -0.130178 0.54705
-0.2274 0.239726 0.21618
-0.229917 -0.231316 0.306586
0.0261436 -0.270499 0.570468
-0.176948 -0.0868054 0.54705
0.10151 0.289416 0.54705
-0.242195 -0.227657 0.364335
-0.249986 0.235629 0.331695
0.016997 -0.0389488 0.570468
0.184209 -0.134365 0.570468
-0.17378 0.154262 0.570468
-0.174991 -0.0805236 0.570468
0.106505 -0.161008 0.54705
0.240493 -0.227393 0.454817
-0.200014 0.0714776 0.570468
-0.130167 -0.139429 0.54705
0.23568 -0.288486 0.54705
-0.11542 0.0409202 0.54705
0.147219 0.0101256 0.54705
-0.229707 0.231679 0.177995
-0.233268 -0.248623 0.222816
0.0134703 0.290358 0.558822
-0.0856017 0.144694 0.54705
0.27529 0.0983633 0.54705
0.0523881 -0.0349711 0.570468
-0.212807 -0.183417 0.570468
-0.114573 0.290358 0.555676
0.194454 0.292086 0.565457
-0.256503 0.242874 0.54705
-0.116236 0.254345 0.54705
0.155565 -0.221434 0.54705
0.236983 0.227393 0.225799
0.0700057 0.00922474 0.54705
-0.156177 0.147962 0.525919
-0.290358 0.279244 0.548619
-0.126064 0.287665 0.570468
0.0407575 -0.091035 0.570468
0.146925 -0.0576951 0.570468
-0.0881383 0.258825 0.570468
-0.0548945 0.272023 0.54705
-0.229606 0.245559 0.314157
-0.19631 -0.0409923 0.570468
-0.206402 0.198268 0.535389
0.0632004 -0.0773056 0.542089
0.00983015 0.103287 0.570468
-0.0424575 -0.0259898 0.535817
-0.0107989 -0.0287088 0.54705
-0.237971 -0.290358 0.551266
0.0474617 -0.125211 0.570468
0.213512 0.0989071 0.54705
0.241433 0.154781 0.54705
0.278733 -0.231443 0.570468
-0.214927 -0.256818 0.570468
0.240564 0.0523024 0.570468
0.233596 -0.248812 0.135398
-0.277367 -0.235206 0.570468
-0.230972 -0.0628742 0.570468
-0.257207 0.0785462 0.54705
-0.197442 -0.2831 0.54705
0.238364 -0.290358 0.566707
0.0422031 0.0384503 0.54705
0.15225 0.0913819 0.54705
-0.238027 0.250012 0.0800501
-0.226822 0.229353 0.540327
0.196275 0.148698 0.570468
-0.245343 0.229479 0.040384
0.160125 -0.169227 0.570468
-0.286196 0.121398 0.54705
0.239916 -0.250012 0.0106565
-0.0857012 0.0734197 0.54705
0.262022 -0.180066 0.54705
-0.238758 -0.227393 0.429094
0.0863775 0.0258763 0.570468
-0.188793 0.260447 0.570468
0.290358 0.226816 0.566984
0.133679 -0.2062 0.570468
-0.024481 -0.276003 0.54705
0.0803158 0.0574782 0.54705
-0.211624 0.0313387 0.570468
0.166472 0.102966 0.570468
0.229953 -0.246161 0.206173
0.100884 -0.0944578 0.54705
0.188077 -0.137457 0.54705
-0.160965 -0.138073 0.54705
-0.0416815 0.206005 0.570468
0.117726 0.252548 0.570468
0.248276 -0.244745 0.462698
-0.127367 -0.100362 0.570468
-0.0173538 -0.177777 0.570468
-0.0464036 -0.250157 0.570468
0.132326 -0.0430954 0.54705
-0.0855813 0.198595 0.54705
0.267189 -0.202357 0.54705
0.167227 -0.273781 0.54705
0.0863277 -0.261841 0.54705
0.290358 -0.128603 0.548774
-0.0141275 0.271393 0.570468
-0.0195002 0.124737 0.570468
-0.125326 -0.0104705 0.570468
0.00745872 -0.0685556 0.54705
0.227392 0.23763 0.461767
-0.271577 0.183455 0.570468
-0.248678 -0.233364 0.323671
-0.109111 -0.174501 0.570468
0.27575 -0.0098905 0.54705
0.273956 -0.0359011 0.570468
-0.251456 -0.250477 0.54705
0.080738 -0.105821 0.570468
-0.070252 -0.192127 0.54705
-0.053765 0.238405 0.54705
0.227392 0.239802 0.350708
-0.0991301 0.124775 0.570468
-0.137493 -0.206499 0.570468
-0.25948 0.201138 0.54705
-0.122045 -0.131021 0.526427
0.0396971 -0.204094 0.54705
0.263689 0.290358 0.561607
-0.10617 0.146313 0.570468
-0.152248 -0.178649 0.54705
-0.056123 -0.196533 0.570468
0.253328 -0.273853 0.570468
-0.290358 -0.227172 0.554915
0.0728162 -0.0211986 0.570468
0.138468 0.230377 0.570468
0.115611 -0.292208 0.552883
-0.0826511 0.284037 0.570468
0.173739 0.205282 0.570468
-0.188727 -0.139495 0.570468
-0.144458 -0.248117 0.54705
0.0426622 -0.272206 0.54705
-0.0415934 -0.0836328 0.54705
-0.0103023 -0.248949 0.570468
0.12118 0.032428 0.54705
-0.0504801 -0.042582 0.546281
-0.268157 0.216271 0.570468
-0.00791365 -0.195576 0.54705
0.0230647 -0.132039 0.570468
0.223997 0.268072 0.54705
0.168792 0.185825 0.553483
-0.263121 0.277421 0.54705
0.236014 0.227393 0.0147901
0.208937 0.101704 0.570468
0.111965 0.111169 0.570468
0.227038 0.231735 0.507249
-0.0231433 -0.123342 0.54705
0.290358 0.133682 0.557662
0.0783088 -0.152991 0.570468
0.255721 -0.104952 0.54705
0.232303 0.0661027 0.54705
-0.292114 0.210617 0.552251
0.114109 0.202934 0.54705
-0.280429 -0.168835 0.570468
0.0114025 0.148136 0.570468
-0.0847268 0.0933719 0.545946
0.115505 -0.228577 0.54705
0.175701 -0.176771 0.54705
-0.185533 -0.212082 0.553483
0.0018416 0.12463 0.54705
0.0976792 0.167667 0.570468
0.00552145 0.184511 0.570468
0.231685 -0.0520903 0.570468
-0.222042 -0.12462 0.570468
-0.158465 0.155996 0.547309
0.19735 0.185561 0.524597
-0.230119 -0.246447 0.149163
0.23417 -0.228264 0.0530832
0.290358 -0.132265 0.564997
-0.230025 -0.246285 0.068107
0.0118627 0.179883 0.54705
-0.05045 -0.00329998 0.54705
0.152356 0.0475542 0.54705
0.255437 0.101971 0.570468
-0.205054 -0.230552 0.54705
0.14628 0.111543 0.570468
0.165727 -0.231385 0.570468
0.253926 0.154414 0.570468
0.0496713 -0.083248 0.54705
0.221285 -0.210528 0.570468
-0.157587 0.125322 0.54705
-0.220958 0.262124 0.570468
-0.0644399 0.215084 0.570468
-0.0024254 -0.228774 0.570468
0.114593 0.245874 0.54705
0.0864659 -0.109959 0.54705
0.245386 0.0179808 0.54705
0.0435679 0.228413 0.570468
-0.100174 0.0841864 0.534554
-0.147997 -0.290358 0.562949
-0.262907 0.12381 0.54705
0.0201121 -0.193876 0.570468
-0.262447 -0.0776913 0.54705
0.250012 -0.240482 0.110528
0.0578881 -0.243408 0.54705
-0.186068 0.171464 0.530911
0.131445 0.120621 0.527732
-0.0947068 -0.269782 0.570468
-0.24241 0.155321 0.54705
-0.0352298 0.242258 0.570468
-0.03293 -0.257909 0.54705
0.22869 -0.233432 0.172918
0.255517 -0.241404 0.54705
-0.243329 -0.249094 0.237937
0.244013 0.248697 0.308292
-0.173408 0.210206 0.541775
-0.174267 0.018582 0.54705
0.250096 -0.0867378 0.54705
-0.17692 -0.100483 0.570468
0.194556 0.0833464 0.570468
-0.219767 -0.202556 0.570468
-0.189202 0.278826 0.570468
-0.214465 0.19377 0.553235
0.055406 0.0895515 0.54705
0.184277 0.177011 0.54705
0.193475 -0.209987 0.553483
0.0301057 -0.222547 0.54705
-0.191603 0.126202 0.570468
-0.0352353 0.0121132 0.54705
-0.0151833 0.0685748 0.54705
-0.234831 -0.249526 0.437728
0.023257 0.127873 0.54705
-0.278941 0.159688 0.54705
0.0686529 0.166145 0.54705
0.106569 -0.0695986 0.54705
0.0894534 -0.211136 0.570468
-0.0573018 0.0725465 0.53261
-0.234657 0.227981 0.160798
-0.0412073 0.0727743 0.570468
-0.29179 -0.16331 0.550068
-0.244665 0.228913 0.515756
0.0300598 0.0172545 0.54705
0.265431 -0.25466 0.570468
-0.0670036 -0.138489 0.54705
0.0998861 -0.140022 0.570468
-0.227455 -0.23558 0.397687
0.289195 -0.166026 0.54705
0.198569 0.217329 0.54705
0.0605865 0.0283521 0.54705
-0.229635 -0.24561 0.482879
-0.00690594 0.290358 0.550956
-0.287036 -0.109532 0.570468
0.111283 0.159938 0.54705
0.201566 -0.201968 0.524438
-0.0780887 0.0885228 0.570468
-0.226673 -0.0904791 0.54705
-0.125447 0.065837 0.570468
-0.184206 0.180675 0.547108
-0.238173 -0.227393 0.470234
-0.291813 0.0659958 0.550223
-0.194666 0.131907 0.54705
-0.000446022 -0.071636 0.570468
0.154833 -0.193357 0.544447
0.227392 0.238378 0.256975
0.143337 -0.258692 0.54705
-0.250012 -0.240657 0.173122
0.216922 -0.2576 0.570468
-0.178865 -0.242572 0.570468
0.242027 0.227564 0.326497
-0.148571 0.163181 0.541204
0.189746 -0.0436115 0.54705
0.186769 0.0342992 0.570468
-0.200765 0.0533865 0.54705
-0.244664 0.229086 0.290277
-0.0308054 0.162562 0.570468
-0.238601 -0.22598 0.506768
-0.0212091 -0.122873 0.570468
-0.0769651 -0.222745 0.570468
0.0937209 -0.0452472 0.570468
-0.230049 0.246326 0.0123579
0.0317582 0.0847612 0.54705
0.227392 0.237777 0.369695
0.0278375 0.218732 0.54705
-0.249817 -0.179045 0.54705
-0.0816872 -0.290358 0.55327
0.290358 -0.040517 0.553941
0.264805 0.179723 0.54705
0.179464 0.112118 0.54705
-0.0629995 -0.0742265 0.570468
0.145665 -0.139276 0.570468
-0.159653 -0.0083366 0.54705
0.0970913 -0.118554 0.570468
-0.207131 -0.0108535 0.54705
0.127244 -0.0653492 0.54705
0.290358 0.105929 0.56394
0.174725 0.0763885 0.570468
-0.256676 0.140979 0.570468
-0.249481 0.0154011 0.570468
-0.256152 -0.111357 0.54705
-0.227603 -0.242091 0.103269
0.0715031 0.19416 0.570468
0.228491 -0.233776 0.0915087
-0.237113 0.227393 0.379567
-0.094629 -0.254524 0.54705
-0.247539 0.112017 0.570468
-0.141499 -0.0421659 0.54705
-0.29247 0.290554 0.562872
-0.15519 0.249523 0.570468
-0.0618358 0.107745 0.54705
-0.223909 0.239339 0.570468
-0.00567563 0.0266317 0.554396
0.227517 0.241954 0.237577
0.204904 -0.000512481 0.54705
0.0292006 -0.232631 0.570468
0.16649 0.240474 0.570468
0.245989 0.247557 0.341729
-0.250012 -0.241521 0.488206
-0.0865045 -0.183207 0.54705
0.227392 -0.235861 0.257434
0.140653 0.105813 0.54705
-0.228639 -0.233529 0.237129
-0.247563 0.231432 0.472542
-0.10287 0.0491169 0.570468
0.0880563 0.0168356 0.54705
0.290358 -0.0741908 0.569785
-0.231692 -0.229698 0.167374
0.198348 -0.176786 0.541775
-0.221843 -0.0189275 0.570468
-0.107148 -0.00764889 0.570468
-0.114898 -0.0535877 0.570468
-0.0634083 -0.10844 0.570468
0.204659 -0.187959 0.553483
-0.0247374 -0.210158 0.570468
-0.266497 -0.113656 0.570468
-0.211086 0.116622 0.570468
-0.0821363 -0.0561805 0.54705
-0.242849 0.249371 0.42458
-0.105454 0.218512 0.570468
0.0279532 -0.106091 0.54705
0.186368 0.150488 0.54705
0.206458 0.00172588 0.570468
0.259 -0.0581903 0.570468
-0.0972153 -0.12344 0.54705
-0.169383 0.172079 0.541775
-0.230027 -0.292177 0.56484
0.207334 -0.290477 0.570228
-0.227873 0.234855 0.447228
0.124923 0.13217 0.54705
0.228998 0.244512 0.388477
0.170298 0.0909734 0.54705
-0.161237 0.280739 0.54705
-0.153799 0.0427519 0.570468
-0.264682 -0.152648 0.570468
-0.13785 0.150537 0.529049
0.0593849 -0.127606 0.54705
0.235391 0.227557 0.17666
0.0235143 0.287772 0.570468
-0.132863 -0.264257 0.54705
0.268923 -0.216511 0.570468
0.115892 0.100919 0.540247
0.250012 0.240988 0.389271
-0.283337 -0.0625293 0.570468
-0.165384 -0.29259 0.558328
-0.122178 -0.0961976 0.54705
-0.0828652 -0.0672815 0.533492
-0.250012 -0.240176 0.129777
-0.116675 -0.29215 0.565026
0.23196 0.083879 0.54705
-0.144532 0.289366 0.570468
-0.192651 0.150094 0.54705
-0.244779 0.239897 0.570468
0.215378 -0.0582736 0.54705
0.0407971 -0.248078 0.54705
0.27791 0.260465 0.570468
-0.00915849 0.086245 0.54705
-0.292159 -0.202815 0.564963
-0.0555343 -0.0622682 0.5465
-0.2274 -0.236549 0.360552
-0.290358 -0.133119 0.556475
-0.165574 -0.160792 0.570468
-0.17851 -0.204678 0.541775
-0.0546002 0.022231 0.54705
0.248894 -0.233738 0.24319
-0.238035 -0.227393 0.0675385
0.0858832 0.0738676 0.543565
-0.29001 0.0469929 0.54705
0.238541 -0.250012 0.167045
-0.218508 -0.115065 0.54705
0.234026 0.24906 0.0731141
-0.202152 0.249011 0.54705
-0.236781 -0.222144 0.5322
0.147325 0.278831 0.54705
0.159508 -0.0392091 0.570468
0.0236148 0.121103 0.570468
-0.259247 0.162273 0.54705
-0.235608 0.249974 0.0377367
0.190902 0.0412597 0.54705
-0.113235 -0.217565 0.570468
0.068695 -0.0604435 0.54705
0.00691676 0.0154563 0.570468
-0.241641 0.0865843 0.54705
0.0716171 0.166169 0.570468
-0.194557 -0.206213 0.570468
-0.0480661 0.0336773 0.530348
-0.201384 -0.185494 0.537838
-0.0231667 0.0286489 0.570468
-0.126854 0.234634 0.570468
-0.00341302 -0.174292 0.54705
-0.238171 0.227393 0.313736
0.117753 -0.133763 0.570468
-0.106529 -0.0992234 0.525747
0.0774009 -0.267471 0.570468
0.0492188 0.135068 0.570468
0.228575 0.171757 0.54705
0.195338 -0.114476 0.54705
0.292257 -0.280043 0.553212
-0.114248 0.00109273 0.54705
0.181848 0.0599419 0.54705
0.101904 0.0512013 0.54705
0.123383 0.172369 0.570468
-0.197068 0.292422 0.56319
0.238954 -0.250012 0.3644
0.0926879 -0.290358 0.550503
-0.0454061 -0.29258 0.555392
-0.290358 0.253481 0.567047
0.101567 -0.0132583 0.54705
-0.272868 0.237313 0.54705
-0.0505934 0.16879 0.54705
-0.0490864 -0.179578 0.570468
0.228915 -0.244369 0.341143
-0.135758 0.163311 0.54705
-0.0311035 -0.0626684 0.570468
0.143886 -0.235373 0.570468
0.0150668 0.0223018 0.55097
0.228625 -0.233544 0.398223
-0.146799 0.179128 0.570468
0.237972 0.227393 0.11837
-0.227883 -0.234837 0.270762
0.243405 0.0196418 0.570468
0.0443453 -0.182405 0.54705
-0.246654 -0.230238 0.381326
-0.290358 0.19527 0.559195
-0.237584 0.252328 0.54705
0.0368913 0.285055 0.54705
-0.024968 0.034533 0.545296
0.0484946 -0.292004 0.551512
-0.272648 -0.0432286 0.54705
0.229927 0.246116 0.089701
0.0047076 -0.0229958 0.570468
-0.199119 -0.214428 0.54705
0.235755 0.0921899 0.570468
0.250012 0.238315 0.236156
0.288715 -0.250239 0.54705
0.0681156 0.242228 0.54705
0.0550484 0.0663842 0.528091
0.0521165 0.0417254 0.570468
0.237226 -0.227393 0.144396
-0.0781702 -0.199504 0.570468
0.234042 0.0365658 0.570468
0.232311 -0.0919027 0.54705
0.0808015 0.229396 0.570468
-0.135493 0.214391 0.54705
-0.245602 0.229629 0.14154
0.218922 0.291896 0.550784
-0.00183797 0.136093 0.570468
-0.230517 0.247035 0.139356
-0.224911 0.0697768 0.54705
-0.118078 -0.189787 0.54705
0.227392 0.239572 0.111647
0.247218 -0.211923 0.54705
-0.149771 -0.0702392 0.54705
0.00098443 0.161522 0.570468
-0.149318 -0.120048 0.54705
0.0710144 -0.0866446 0.533626
-0.0190526 -0.291772 0.549948
-0.137413 0.0987013 0.570468
0.030485 0.248906 0.54705
0.236143 0.227393 0.447034
0.227184 0.128197 0.570468
0.181481 0.165343 0.553483
0.246876 -0.138751 0.570468
0.0159837 -0.0218599 0.549636
-0.2677 -0.186385 0.54705
0.246148 0.247466 0.151912
-0.237999 0.250012 0.330962
-0.109949 0.17479 0.570468
0.139644 0.15467 0.532031
0.235727 -0.227393 0.491242
0.290358 0.023719 0.549727
0.206329 -0.233589 0.570468
0.173437 -0.18857 0.532313
0.0775905 -0.0744962 0.524949
0.0405291 0.290358 0.566964
0.231491 -0.0214205 0.54705
0.242763 -0.0238787 0.570468
0.239086 0.290358 0.570448
0.19156 -0.194249 0.570468
-0.253853 -0.292272 0.564199
-0.259848 -0.135864 0.570468
0.0146615 0.276329 0.54705
-0.196413 0.26625 0.54705
-0.140286 0.0580454 0.570468
0.154045 0.129094 0.54705
-0.198395 -0.202649 0.514369
0.150528 -0.113717 0.54705
-0.267752 -0.0395198 0.570468
0.0897624 0.101444 0.543804
-0.0686282 0.0658242 0.570468
0.291424 -0.265777 0.568317
-0.0344874 -0.144217 0.570468
-0.223141 0.156851 0.570468
-0.0515294 0.193124 0.54705
-0.0400385 0.126705 0.570468
-0.200054 -0.154781 0.570468
0.268163 0.265775 0.54705
-0.191414 0.210139 0.553483
-0.0427742 0.0652878 0.54705
-0.176708 -0.0389616 0.54705
0.0672868 0.26405 0.570468
0.130152 0.230905 0.54705
-0.247425 -0.00717214 0.570468
0.0331025 -0.0193256 0.540497
-0.0847068 0.161286 0.54705
-0.247009 -0.0089356 0.54705
0.249944 -0.235557 0.218209
0.227392 0.238423 0.217914
0.0517501 0.118076 0.570468
0.0482898 0.184644 0.54705
0.139865 -0.0761031 0.54705
-0.164774 0.0927479 0.570468
0.206561 0.1345 0.54705
0.0930294 -0.148183 0.54705
-0.2274 -0.241452 0.131774
-0.234706 -0.147454 0.54705
-0.0553453 0.0485786 0.525644
-0.00359595 -0.156288 0.570468
-0.00959116 0.0995279 0.570468
0.290358 0.0554766 0.548992
-0.19531 0.00674403 0.54705
0.235976 0.250012 0.0319818
0.242676 0.0436581 0.54705
0.23536 -0.227575 0.0308358
-0.27328 0.0186324 0.54705
0.0845495 0.105841 0.570468
-0.02899 -0.0432498 0.541979
0.0116842 -0.116925 0.570468
0.0678217 0.291739 0.567681
-0.100744 -0.21896 0.54705
0.248441 0.24446 0.0647363
0.269092 0.113589 0.54705
-0.12526 0.110766 0.541514
-0.23694 0.250012 0.0976187
0.181309 0.197345 0.534695
-0.0685513 -0.154781 0.54705
0.233441 -0.228685 0.381329
-0.0531487 -0.0482378 0.525293
-0.0315562 -0.189616 0.54705
-0.0911978 -0.107018 0.534131
-0.238112 0.227393 0.419839
-0.158619 0.13994 0.570468
-0.232653 -0.238997 0.00140495
-0.118328 -0.0714791 0.570468
0.0307223 -0.260833 0.54705
-0.213758 -0.0482601 0.570468
-0.29259 0.137294 0.558751
-0.0818544 0.126256 0.570468
0.166312 -0.154 0.543357
0.29196 -0.009473 0.551214
0.0944322 -0.109001 0.530823
0.205406 0.196073 0.541775
0.163301 0.166415 0.570468
0.179576 0.279964 0.570468
-0.153387 0.275039 0.570468
-0.231991 0.247886 0.295028
0.0537745 0.0971081 0.570468
0.290358 -0.0281712 0.564372
0.174257 0.224248 0.570468
-0.235668 -0.250008 0.407392
-0.0415518 -0.159305 0.54705
-0.214201 -0.290358 0.563673
0.177564 -0.27418 0.570468
0.177125 -0.00117147 0.54705
0.105545 0.025935 0.570468
-0.236123 -0.250012 0.302696
0.0839287 0.072004 0.570468
-0.106737 -0.278643 0.54705
-0.0135489 0.00459932 0.531441
-0.0414798 0.227988 0.54705
0.131911 0.0436671 0.570468
-0.272389 0.073253 0.54705
-0.0841917 -0.291018 0.569136
0.227392 -0.240008 0.0141416
-0.214276 -0.208274 0.525459
0.227392 0.239359 0.0033379
0.290358 0.217257 0.554065
-0.0651314 -0.240319 0.54705
-0.15287 0.29259 0.556825
0.241822 0.227445 0.290902
0.275193 -0.0917283 0.54705
-0.240768 0.068514 0.570468
-0.135134 -0.156861 0.54705
-0.185466 0.202778 0.517474
0.237641 -0.255299 0.54705
0.155395 0.139784 0.533578
0.137207 0.124185 0.542854
0.173536 -0.228417 0.54705
0.0364268 -0.0342273 0.570468
-0.146417 0.193189 0.54705
-0.212376 0.0489824 0.570468
0.290358 0.168525 0.549852
0.0203979 -0.290358 0.563554
0.159513 0.0257769 0.570468
0.135791 -0.144164 0.54705
-0.119902 -0.143687 0.570468
0.119878 0.00546101 0.54705
-0.108327 -0.115051 0.525637
-0.189671 -0.10745 0.54705
0.191254 -0.263969 0.570468
-0.0125631 0.00298639 0.554856
-0.254395 0.167721 0.570468
0.248562 -0.244251 0.0776721
-0.130491 -0.264716 0.570468
-0.0044052 -0.0952576 0.54705
0.0468763 0.0548052 0.54705
0.125707 0.141279 0.533473
-0.153413 0.110012 0.54705
-0.23087 -0.230174 0.322375
-0.250012 -0.236023 0.209228
0.137155 -0.277778 0.570468
0.168409 0.237706 0.54705
-0.220347 0.292171 0.552638
-0.0348479 0.203063 0.54705
-0.135517 -0.171171 0.570468
0.0202431 -0.0100694 0.531441
0.290358 0.269526 0.550453
-0.0136832 0.127555 0.54705
0.0225203 -0.00936791 0.570468
-0.0346031 -0.224316 0.570468
-0.245152 0.229368 0.0881554
-0.282714 0.199055 0.54705
0.24825 -0.244791 0.380976
0.109327 -0.0107883 0.570468
-0.187022 0.0611214 0.54705
0.231975 0.247876 0.279756
-0.262074 -0.0765445 0.570468
-0.250287 -0.258054 0.570468
0.225739 0.224364 0.543056
0.0805985 -0.290358 0.560594
0.141177 -0.140021 0.524581
-0.174704 -0.163304 0.544001
0.0556823 0.03954 0.53716
0.234945 -0.227815 0.078492
-0.127607 0.149902 0.54705
0.0894391 0.26238 0.570468
-0.0684145 0.167126 0.570468
-0.0665658 -0.166135 0.570468
0.230038 -0.246308 0.0505324
0.0503304 0.0573031 0.570468
-0.0558817 -0.0360063 0.570468
-0.132188 -0.0601251 0.570468
-0.173415 0.20272 0.570468
-0.119777 0.192874 0.54705
-0.230307 -0.089877 0.570468
-0.280262 -0.151263 0.570468
0.0970515 0.214802 0.54705
-0.0974528 -0.0510776 0.54705
0.137112 -0.182395 0.570468
0.0649209 0.0806299 0.538305
0.0466806 0.212587 0.54705
0.124363 -0.0419403 0.570468
0.160822 0.017921 0.54705
-0.22802 -0.242813 0.0313422
-0.236726 0.250012 0.46588
0.243391 0.228353 0.256509
0.0614061 0.00989988 0.570468
0.050126 0.0749246 0.54705
-0.228712 0.147966 0.54705
0.246129 0.114416 0.570468
-0.180723 -0.290358 0.558663
0.290358 0.101956 0.54892
-0.140719 0.119043 0.570468
-0.2274 0.2399 0.240253
0.204014 0.159396 0.551528
-0.210783 0.235879 0.54705
-0.116879 0.110736 0.570468
-0.164176 -0.180445 0.570468
-0.178869 0.290358 0.569698
0.22234 -0.136284 0.570468
-0.263945 -0.227514 0.570468
0.210711 0.26271 0.570468
0.0709538 -0.222276 0.570468
0.227392 -0.240451 0.462396
-0.110872 0.290358 0.569839
-0.243982 0.248173 0.502605
0.0882374 -0.179363 0.54705
0.0759856 -0.123202 0.54705
-0.249058 0.234022 0.058545
0.221072 -0.212019 0.525127
0.118911 -0.0752344 0.570468
0.168551 -0.104443 0.54705
0.224801 -0.228558 0.54705
-0.234781 0.201633 0.54705
-0.171287 0.177513 0.525543
-0.178824 0.274673 0.54705
0.0452794 -0.239016 0.570468
0.230329 -0.246082 0.510219
-0.12368 -0.0746652 0.54705
0.19714 0.202933 0.516819
0.0539818 -0.286499 0.570468
0.173857 -0.0301982 0.570468
0.175341 -0.244658 0.54705
0.260486 0.221424 0.54705
0.242531 -0.249551 0.275817
0.153419 0.0653963 0.54705
0.20581 -0.034229 0.570468
-0.212121 0.109325 0.54705
-0.108044 0.0863504 0.570468
0.227392 0.239167 0.49006
0.274439 -0.228423 0.54705
0.282457 0.0182649 0.570468
0.249653 -0.24236 0.1758
0.259619 0.0645663 0.570468
-0.150298 0.071972 0.54705
0.275608 0.166271 0.54705
-0.170022 -0.178014 0.54705
0.115775 0.046698 0.570468
0.280305 0.0572717 0.570468
-0.193019 0.15806 0.570468
-0.181796 -0.0454282 0.570468
0.152151 -0.155627 0.570468
0.00255972 -0.0395956 0.54705
0.078465 0.09191 0.570468
-0.233349 -0.24867 0.273496
0.0315259 -0.072989 0.570468
0.146457 -0.209366 0.54705
0.100709 -0.252852 0.570468
-0.203726 0.177295 0.541775
-0.121179 0.272805 0.54705
-0.0182431 0.0579117 0.570468
0.0130616 0.221711 0.54705
0.182852 0.242014 0.54705
0.00979009 0.164958 0.54705
0.161209 0.172037 0.527732
-0.250012 0.235702 0.169822
0.214615 -0.281365 0.54705
-0.24848 -0.110187 0.570468
0.249153 -0.24259 0.00140495
-0.153552 -0.20907 0.570468
0.250012 0.237889 0.278387
0.179889 -0.2657 0.54705
0.250012 0.237683 0.298126
0.0415801 -0.00876561 0.54705
-0.274686 -0.224314 0.54705
-0.165466 -0.150177 0.53942
0.115752 -0.132946 0.54705
-0.111794 0.0554642 0.54705
-0.152786 -0.151153 0.524672
0.236438 0.227393 0.312598
-0.109045 0.00792563 0.570468
-0.277483 -0.112523 0.54705
0.0103689 -0.23701 0.570468
0.141456 -0.2922 0.55283
-0.23861 -0.0737703 0.54705
-0.282282 0.282666 0.570468
0.186523 0.212148 0.54705
0.142499 0.140112 0.570468
-0.250012 -0.236945 0.302128
0.227581 -0.0950025 0.570468
0.24374 -0.228342 0.503744
-0.228247 0.243206 0.25501
-0.24735 0.246351 0.115359
-0.238814 -0.227393 0.295256
-0.198138 0.21713 0.570468
0.27453 -0.180185 0.570468
-0.140016 0.276197 0.54705
0.0578935 0.267329 0.54705
-0.138281 0.147017 0.570468
0.109975 -0.0481187 0.570468
-0.217033 0.206637 0.527249
0.0898056 0.0877731 0.54705
0.166668 0.279444 0.54705
0.15951 -0.034069 0.54705
-0.214632 -0.230913 0.532733
-0.0453065 0.0277472 0.570468
0.2329 -0.248411 0.431148
-0.0972877 0.0170297 0.54705
-0.282504 -0.012875 0.570468
-0.235671 -0.227395 0.0473917
-0.182748 -0.170364 0.528833
-0.177656 0.12669 0.54705
0.102145 -0.0665528 0.570468
-0.140153 -0.0929072 0.570468
-0.0680965 0.123126 0.54705
0.178326 -0.0902273 0.54705
-0.22237 0.136709 0.570468
0.239013 -0.227393 0.354846
0.179272 0.195229 0.553483
0.237871 -0.227393 0.299654
-0.233964 -0.191471 0.570468
-0.17306 -0.182264 0.526589
0.0686241 -0.0383202 0.54705
0.0719024 -0.0564263 0.53322
-0.0681117 0.281246 0.54705
0.217283 0.154209 0.570468
0.267704 -0.022242 0.54705
0.250012 -0.238023 0.263894
-0.250012 0.23662 0.389867
-0.181988 0.0787991 0.54705
0.290358 0.28775 0.559193
0.0128173 0.238161 0.570468
-0.163582 0.245697 0.54705
0.0705798 0.290588 0.547514
-0.197748 -0.127853 0.570468
0.230109 -0.246431 0.268562
0.242661 -0.227931 0.403882
-0.234167 0.228265 0.0498716
-0.285204 0.0333941 0.54705
0.256891 0.100572 0.54705
-0.290358 -0.0316837 0.568998
-0.249033 -0.233978 0.344809
0.212535 -0.148811 0.570468
0.23783 0.249477 0.00140495
-0.183995 -0.13217 0.54705
0.0163395 0.194619 0.54705
0.243875 -0.14452 0.54705
-0.0711234 -0.0838664 0.54705
-0.280885 -0.127165 0.54705
0.0790246 0.135037 0.570468
0.0722689 0.0297034 0.570468
0.00063774 0.0352066 0.570468
0.0075976 -0.267316 0.54705
-0.278241 -0.291973 0.551299
-0.129712 0.248738 0.54705
-0.250012 0.240902 0.225205
0.24432 -0.228889 0.203917
-0.0348892 -0.279712 0.570468
-0.290358 -0.101011 0.556607
-0.0236099 0.260431 0.54705
0.235334 0.22759 0.36303
0.229714 0.24575 0.404976
-0.0344402 0.092173 0.570468
-0.248921 -0.179604 0.570468
-0.201325 0.190691 0.570468
0.290358 -0.0930702 0.554581
-0.249201 -0.23427 0.194854
0.0692711 0.203761 0.54705
0.228891 -0.244327 0.286166
0.0821854 0.043089 0.570468
-0.228619 0.233563 0.148883
0.070362 0.259327 0.54705
0.0631015 0.130985 0.570468
