-0.0737303 -0.0632083 0.544623
0.0110125 0.290358 0.565054
0.0821169 -0.0086064 0.570468
0.23554 0.22747 0.279096
-0.230201 0.230823 0.218523
0.274156 -0.247715 0.570468
0.0702216 -0.285602 0.570468
0.248643 0.244111 0.429257
0.0775855 -0.28052 0.570468
-0.273987 0.115359 0.54705
-0.142006 0.20731 0.54705
0.0460372 -0.16866 0.570468
0.240304 0.250012 0.112052
-0.0646893 -0.0592828 0.570468
-0.171063 -0.0174088 0.570468
-0.02553 -0.00783073 0.542545
-0.114545 -0.0219546 0.54705
0.220037 -0.133215 0.54705
-0.246092 0.247499 0.295074
0.177909 0.15238 0.54705
-0.169134 -0.118563 0.54705
0.24443 0.107042 0.570468
-0.135798 0.259587 0.54705
0.0128186 -0.00236109 0.570468
0.229971 0.23122 0.420596
0.0604483 0.0694452 0.570468
-0.110469 0.145378 0.54705
0.24663 -0.247188 0.19572
0.227392 -0.237022 0.0966947
-0.23231 0.24807 0.255356
0.180575 -0.0641781 0.570468
0.240827 -0.0805505 0.54705
0.291872 0.0348064 0.550622
0.0339601 0.0781786 0.54705
-0.288031 0.0555514 0.54705
-0.0208584 0.24367 0.570468
0.237508 0.104021 0.570468
-0.207302 -0.210397 0.524949
0.290358 0.216218 0.557697
-0.210827 -0.223678 0.54705
0.229802 0.231512 0.464119
0.292494 -0.188266 0.562708
-0.0597525 0.0696457 0.54705
0.0843537 -0.290358 0.556282
-0.232161 -0.229426 0.25868
-0.0183344 -0.0206549 0.54705
-0.29148 0.199988 0.549316
-0.18239 -0.173994 0.553483
0.164495 0.221982 0.570468
-0.249005 0.0551592 0.54705
-0.251103 0.155553 0.570468
-0.0138489 0.0709022 0.54705
0.0855731 -0.0940798 0.546049
-0.284382 0.23854 0.570468
-0.0203917 -0.0485808 0.570468
0.197899 0.200265 0.54705
-0.141494 -0.0706351 0.570468
0.0896334 0.00125375 0.54705
0.186043 -0.289669 0.570468
0.154548 0.246386 0.54705
0.291309 0.0983275 0.568549
-0.0893705 -0.259271 0.570468
0.263133 -0.0746769 0.54705
-0.20704 0.204632 0.553483
0.0979551 -0.290358 0.547811
-0.240867 0.243245 0.521585
0.167181 -0.249505 0.54705
-0.0322953 0.0454311 0.542773
0.29259 0.0113067 0.558083
-0.279329 -0.274372 0.570468
0.23164 -0.249354 0.570468
0.130883 -0.0932129 0.54705
0.148891 -0.0482871 0.570468
0.0433559 -0.292532 0.562451
-0.191274 0.201373 0.541775
-0.196026 -0.181286 0.54705
-0.130941 -0.240634 0.54705
-0.193173 -0.0407111 0.570468
-0.290358 -0.208838 0.568672
-0.0324224 0.252225 0.54705
0.0301002 -0.282237 0.570468
-0.292541 0.289264 0.555128
0.114846 0.127994 0.529374
-0.153714 0.280118 0.54705
-0.166818 -0.0198896 0.54705
0.273703 0.167394 0.54705
-0.292095 0.0554597 0.552121
-0.219527 0.236583 0.54705
0.245355 0.247923 0.150581
-0.290358 0.261901 0.550341
-0.290358 0.0450519 0.555206
-0.0908686 -0.256681 0.54705
-0.236627 0.272847 0.570468
0.104168 -0.0965986 0.570468
-0.10082 -0.0381737 0.54705
-0.237544 0.227393 0.430552
0.210705 -0.18657 0.531611
-0.264235 0.117359 0.570468
-0.235846 0.256005 0.570468
0.12951 0.173381 0.54705
-0.228121 -0.234426 0.277713
-0.236083 -0.250012 0.463281
-0.0138998 -0.214345 0.570468
-0.151093 -0.275605 0.570468
-0.205722 0.0160357 0.54705
-0.125801 -0.261301 0.570468
0.0966533 -0.182142 0.570468
0.242971 0.249297 0.425797
-0.125998 -0.202729 0.54705
0.087408 -0.264219 0.570468
0.0681102 0.191478 0.570468
0.0874881 0.15952 0.54705
-0.178868 0.0601499 0.570468
0.161966 -0.245932 0.54705
-0.103859 -0.091627 0.54705
0.218287 0.284917 0.54705
-0.137099 -0.0901935 0.54705
-0.228573 0.178201 0.54705
-0.0408745 0.0658275 0.570468
-0.261365 0.254642 0.570468
-0.0355531 -0.0648802 0.54705
-0.192406 0.0492424 0.54705
0.0487858 0.0635311 0.53129
0.21128 -0.244717 0.54705
-0.231279 -0.244874 0.00140495
0.04397 -0.177059 0.54705
0.116941 0.290358 0.554966
0.165018 -0.0906793 0.570468
-0.165723 0.00429705 0.570468
0.272982 -0.105035 0.54705
-0.114256 0.214735 0.570468
0.157567 -0.207706 0.54705
-0.191523 0.195356 0.502765
0.0278662 -0.0300665 0.570468
-0.265475 0.223718 0.54705
0.220561 -0.128976 0.54705
0.0426775 -0.101095 0.54705
0.114063 -0.274999 0.570468
-0.0929998 0.0685836 0.54705
-0.290928 -0.0409296 0.548201
0.183152 -0.165876 0.553483
-0.287655 0.196436 0.54705
0.248755 -0.243916 0.0407204
0.192405 0.205267 0.542968
-0.071337 -0.0808812 0.54705
-0.0840191 -0.151028 0.54705
0.212887 0.171417 0.54705
-0.0610518 -0.207053 0.570468
-0.149979 0.260376 0.570468
-0.112688 0.118748 0.525511
-0.198712 -0.264493 0.570468
0.136622 0.119732 0.54705
0.245322 -0.247942 0.269437
-0.152893 -0.176345 0.54705
-0.201095 -0.269875 0.54705
0.290358 0.0650032 0.563607
-0.152059 -0.0668544 0.54705
0.266717 -0.1871 0.54705
0.113126 0.185744 0.570468
0.0707003 -0.164352 0.54705
0.127587 -0.128768 0.524586
-0.202169 0.0937757 0.570468
0.138858 0.236286 0.54705
0.197459 0.235482 0.54705
-0.243232 -0.24915 0.260463
0.289982 -0.0652794 0.570468
-0.199189 -0.281894 0.54705
0.107919 -0.111407 0.525023
0.206099 -0.17734 0.570468
-0.25207 -0.0633714 0.54705
0.202255 0.20347 0.538072
0.205689 -0.199619 0.537979
0.196486 0.209779 0.54705
0.120607 0.0784897 0.570468
-0.0503889 -0.215054 0.54705
0.264053 -0.0580391 0.570468
0.0728815 -0.0583609 0.541442
-0.2274 -0.239138 0.389207
0.238389 -0.227393 0.420409
-0.110355 -0.127638 0.570468
-0.29259 0.00177845 0.560635
-0.0903952 -0.103287 0.570468
-0.094572 -0.0977425 0.570468
0.0265893 -0.10318 0.570468
-0.227631 -0.242139 0.0513031
-0.0763699 0.163024 0.570468
0.193256 0.0446819 0.54705
0.0265642 -0.210603 0.570468
0.179119 0.134075 0.570468
-0.245339 -0.247934 0.447252
-0.191918 -0.265614 0.54705
-0.133205 0.0213459 0.570468
-0.103176 0.261582 0.54705
0.287833 0.168476 0.570468
0.0555943 -0.0400018 0.533527
-0.126862 0.285402 0.570468
0.0698958 -0.200346 0.54705
0.191314 -0.16206 0.541775
0.26271 -0.205791 0.570468
-0.226129 0.240622 0.507223
-0.110133 0.0992995 0.54705
0.0607282 -0.0499553 0.54705
0.191912 -0.145297 0.54705
-0.249981 -0.23562 0.475316
0.290358 -0.250686 0.555678
-0.0564452 0.0548158 0.547468
0.291153 -0.0531028 0.548654
0.262538 0.100966 0.54705
-0.0547862 -0.039873 0.540411
0.0128361 -0.241548 0.54705
-0.0879852 -0.212316 0.54705
0.165963 -0.183614 0.54705
0.292294 0.0895483 0.553465
0.0962722 0.152553 0.54705
-0.160368 -0.128121 0.570468
0.201441 0.21031 0.545793
0.291804 -0.191026 0.567357
-0.192156 0.11597 0.570468
0.232691 0.24829 0.287319
-0.186697 -0.0109451 0.570468
-0.0744877 0.165471 0.570468
0.249074 -0.0207256 0.570468
0.292392 -0.224975 0.554127
0.227392 0.236024 0.200089
-0.257941 -0.0868931 0.54705
-0.197735 -0.291994 0.551444
0.290358 -0.16532 0.562375
0.250012 0.24006 0.457449
-0.24703 -0.230509 0.348065
0.194292 -0.196141 0.541775
0.228851 0.0798396 0.570468
-0.250012 0.237576 0.0886893
0.236577 0.115732 0.54705
-0.220344 0.223034 0.570468
0.244582 -0.248369 0.369718
0.28544 0.101735 0.570468
-0.233223 -0.248597 0.271458
0.29012 0.278937 0.54705
0.0481446 0.203453 0.54705
-0.270811 -0.0233043 0.54705
0.0934673 0.287929 0.570468
0.0542615 0.0457096 0.546016
-0.175419 -0.0808014 0.54705
-0.244679 0.229095 0.0320625
0.0085268 -0.0722324 0.570468
0.245462 0.291517 0.549389
-0.179276 0.186579 0.54705
-0.275018 -0.253244 0.54705
-0.292237 -0.0825477 0.564437
0.0933424 0.121514 0.54705
0.0801353 0.191881 0.54705
0.135776 0.0878611 0.570468
0.0868088 -0.071577 0.539563
-0.247064 -0.29259 0.559598
-0.23703 -0.0379072 0.54705
-0.283222 0.156869 0.570468
-0.194898 0.189592 0.507591
0.123302 0.280239 0.54705
0.133147 0.152655 0.570468
0.0857572 -0.0545022 0.54705
-0.166764 -0.18308 0.553483
0.0605085 0.17534 0.54705
-0.00839132 0.172952 0.570468
0.0041371 0.0961627 0.54705
-0.209038 0.257934 0.54705
0.260217 0.0141952 0.570468
-0.225305 0.240497 0.514382
-0.187793 -0.215564 0.549308
-0.120392 0.0325721 0.54705
0.249896 0.24194 0.22106
-0.274496 -0.107126 0.54705
-0.149542 -0.151362 0.54705
-0.0464054 0.237269 0.54705
-0.00867864 0.26331 0.54705
-0.0544274 0.199975 0.570468
0.0534661 -0.0409719 0.528911
0.167054 0.0354107 0.54705
-0.249039 0.0325995 0.54705
-0.189205 0.221302 0.570468
-0.0878739 -0.209243 0.570468
-0.161688 0.204672 0.553483
-0.0331318 -0.0192983 0.538048
0.161113 -0.167506 0.546566
0.228542 0.196578 0.570468
-0.108049 0.0822961 0.54705
0.280777 0.0916829 0.54705
0.0199751 -0.141964 0.54705
0.137422 0.14715 0.570468
-0.250608 0.159527 0.54705
-0.0866398 0.246232 0.570468
0.220939 0.275844 0.54705
-0.208116 0.218917 0.527117
0.202342 0.21555 0.54705
-0.100632 0.288157 0.54705
0.227392 -0.241669 0.312432
-0.171406 0.142023 0.570468
0.063119 0.185685 0.570468
-0.240822 0.227393 0.446415
0.166541 -0.160523 0.570468
0.0764533 -0.130503 0.570468
0.14869 -0.0622174 0.54705
-0.152656 -0.0329075 0.54705
-0.215883 -0.0826891 0.570468
-0.0690824 -0.283026 0.570468
0.166621 -0.281114 0.54705
-0.290358 0.170125 0.558974
0.188728 0.000134528 0.570468
-0.228591 -0.197769 0.570468
-0.16315 -0.206732 0.54705
-0.125451 0.0774696 0.54705
0.0621443 0.214703 0.570468
0.202905 -0.288218 0.570468
0.29259 0.0384046 0.559836
-0.0268885 -0.28391 0.570468
0.259329 -0.0657621 0.570468
-0.0776902 -0.266249 0.54705
-0.274819 -0.247211 0.570468
-0.102122 -0.0284924 0.54705
-0.128799 0.114277 0.570468
0.180132 0.154675 0.547143
-0.0829015 -0.0683334 0.541319
-0.196915 0.180732 0.537067
0.175068 0.177149 0.570468
0.0932112 0.0302669 0.54705
-0.219804 -0.291602 0.549562
-0.238489 0.259397 0.570468
-0.127157 -0.180605 0.570468
-0.0488365 -0.2074 0.570468
0.0888587 0.0860374 0.54705
0.291177 -0.000376433 0.568815
0.264478 0.111522 0.570468
-0.249308 0.234454 0.379499
-0.176939 -0.203057 0.553483
-0.177265 0.166012 0.544105
0.162617 0.0422066 0.570468
-0.168751 -0.205228 0.570468
0.119324 -0.194073 0.570468
-0.0544662 0.0473323 0.570468
-0.25767 0.110851 0.570468
0.0711374 0.0622538 0.545781
0.104412 0.0680122 0.54705
-0.236263 -0.27423 0.570468
0.0503577 0.258234 0.54705
0.0619247 0.251683 0.54705
-0.234293 0.249215 0.179181
-0.23012 0.230964 0.028081
0.2301 -0.246416 0.387557
0.254589 0.13166 0.570468
0.0201612 0.19465 0.54705
-0.140514 -0.198101 0.54705
-0.156989 0.141484 0.533286
0.000338107 -0.220216 0.54705
0.181658 0.0808812 0.570468
-0.143193 -0.272695 0.570468
-0.192843 0.1922 0.547655
-0.0659477 0.0194353 0.54705
-0.223044 -0.117029 0.570468
0.243749 -0.154633 0.54705
0.0741389 -0.0619334 0.54705
0.23157 -0.229768 0.29659
0.249176 -0.234226 0.439247
0.235074 0.22774 0.158133
0.199862 -0.18416 0.538319
0.0268324 0.0180151 0.54705
-0.232322 -0.0236433 0.54705
0.243664 0.248898 0.253191
0.0328772 -0.105551 0.54705
-0.170892 -0.280479 0.570468
-0.0565285 0.274525 0.570468
0.218688 0.0144352 0.54705
-0.234139 0.245056 0
0.25382 -0.233996 0.54705
-0.08131 -0.175553 0.54705
0.240417 -0.227393 0.289347
-0.250012 -0.236979 0.148121
0.227392 0.236054 0.246816
-0.0397615 0.271524 0.570468
0.0282794 0.25976 0.570468
-0.238238 -0.278551 0.570468
0.185359 -0.126412 0.54705
-0.287409 -0.278623 0.570468
-0.133125 0.291375 0.549102
-0.0439084 0.0403512 0.54705
-0.2087 -0.150443 0.570468
0.158854 0.252218 0.54705
0.228397 -0.243476 0.463709
0.237957 0.227393 0.406036
0.244056 -0.248672 0.0770178
-0.0846493 -0.14291 0.54705
0.0574021 -0.254952 0.54705
-0.121963 -0.280054 0.570468
-0.177782 0.0711043 0.54705
-0.00616726 -0.205191 0.570468
0.0478003 -0.0259271 0.54705
-0.234954 -0.181249 0.54705
0.248959 -0.243562 0.0936015
0.227392 0.240244 0.230499
0.242355 -0.249652 0.143715
0.0683959 0.0730174 0.570468
-0.209853 -0.195363 0.541528
-0.103579 -0.111855 0.546206
0.0630461 -0.00542518 0.54705
-0.0348398 0.290358 0.568998
-0.160427 0.175492 0.540002
-0.173678 -0.282588 0.54705
0.263682 0.114385 0.54705
-0.0752426 0.0757653 0.54705
-0.290358 -0.00746655 0.562334
0.0372895 0.197349 0.570468
-0.0361779 0.235718 0.54705
-0.00276357 -0.125508 0.54705
-0.279486 -0.290358 0.56158
-0.116774 -0.132705 0.534422
-0.266314 -0.0517542 0.570468
-0.24051 -0.241512 0
-0.238629 -0.237842 0
0.09777 -0.243976 0.54705
0.228803 -0.244176 0.464886
0.117374 0.234413 0.54705
-0.192675 -0.110654 0.570468
0.270707 0.061359 0.570468
0.229682 0.245694 0.474241
-0.216941 0.226353 0.542779
0.0860949 -0.236726 0.570468
0.0869704 0.161954 0.54705
-0.18871 0.0749302 0.54705
0.214912 0.168843 0.570468
0.0686011 0.199469 0.570468
-0.267537 0.0903732 0.570468
-0.021273 0.0311609 0.542736
-0.0794142 0.0330996 0.54705
0.216228 -0.0951111 0.570468
0.0420841 -0.0270806 0.54705
0.227392 0.238715 0.185589
-0.261533 -0.00884157 0.570468
0.0389371 -0.187106 0.570468
-0.233571 -0.248798 0.156529
0.217608 0.178941 0.570468
-0.258949 -0.0878633 0.54705
-0.0678464 0.290358 0.568418
-0.0990232 -0.20717 0.570468
0.13086 0.0799625 0.570468
0.0927004 -0.0772039 0.533274
0.240104 0.227393 0.032109
-0.150406 -0.158245 0.54705
0.235301 -0.255164 0.54705
0.168038 0.123624 0.570468
-0.248283 -0.232679 0.435436
-0.0999889 -0.127244 0.54705
0.129921 0.185629 0.54705
0.250012 0.240929 0.477874
-0.082973 0.220828 0.54705
0.080674 0.0870802 0.570468
-0.125039 -0.186157 0.570468
-0.208759 0.205434 0.546288
0.0332768 -0.14446 0.54705
0.19529 -0.01214 0.570468
-0.222481 0.142007 0.54705
0.197294 -0.146754 0.570468
-0.2274 -0.239674 0.0993164
-0.131973 -0.114358 0.570468
-0.0877824 -0.0717223 0.534746
0.290358 -0.11519 0.562908
-0.0768774 0.290358 0.56686
-0.123434 0.256368 0.54705
-0.0982822 0.029434 0.570468
0.120679 -0.253174 0.54705
0.133032 -0.134553 0.547489
-0.234683 -0.227967 0.051308
0.247914 -0.23204 0.0673798
0.158798 -0.14593 0.542964
-0.0731459 -0.259524 0.54705
-0.272206 -0.107826 0.54705
0.220801 -0.230597 0.518359
0.0345967 0.0676472 0.570468
-0.147462 0.218266 0.570468
-0.0990529 0.0702799 0.570468
-0.0569202 0.233962 0.570468
0.227627 0.235268 0.313109
-0.203655 -0.16384 0.54705
0.253755 0.279284 0.570468
0.17481 0.143562 0.570468
0.207925 0.0398391 0.54705
-0.259641 -0.278078 0.570468
0.0756649 0.0755588 0.524382
-0.0336146 0.213519 0.570468
-0.2274 0.24085 0.161691
-0.238014 0.227393 0.311411
-0.201795 -0.226255 0.570468
-0.248954 -0.233841 0.0263459
-0.023416 0.130746 0.570468
0.22924 0.00645551 0.570468
-0.00699617 0.0261904 0.545767
-0.162391 0.254767 0.54705
-0.0264094 0.0318177 0.546751
0.240262 0.227393 0.0758352
-0.16967 -0.154105 0.533444
-0.203269 -0.0534876 0.570468
0.218284 -0.275678 0.570468
-0.229168 0.2448 0.190838
-0.259763 0.00150692 0.54705
0.173951 0.181355 0.570468
0.0121938 0.049731 0.570468
0.0912843 0.0912444 0.570468
0.0975868 -0.0924663 0.54705
0.212008 -0.0524403 0.54705
0.233938 -0.228398 0.285079
-0.27593 -0.00010702 0.570468
-0.246468 0.23013 0.106068
0.0678798 -0.045101 0.570468
0.234056 0.22833 0.466841
0.260526 -0.0859445 0.54705
-0.144511 0.159086 0.530844
0.0747226 -0.156665 0.54705
-0.128583 -0.055686 0.570468
0.013939 -0.179954 0.54705
0.286014 0.17025 0.570468
0.197583 -0.192449 0.54705
-0.250012 -0.237904 0.455881
-0.272379 -0.153001 0.570468
-0.058253 0.273803 0.54705
-0.132772 0.232992 0.570468
0.132792 -0.139419 0.570468
0.0714031 -0.121534 0.54705
-0.123296 -0.0596561 0.570468
-0.234548 0.228045 0.348821
-0.29259 0.0358121 0.560271
-0.236997 -0.227393 0.0707723
-0.239026 0.291963 0.566288
-0.204585 0.15387 0.570468
0.0730006 -0.158492 0.570468
-0.253124 0.146292 0.54705
-0.249846 0.242026 0.126981
0.167738 -0.103337 0.54705
0.067327 0.290358 0.562203
0.0974126 0.115636 0.54705
0.261673 0.234672 0.54705
0.128489 -0.0855336 0.54705
-0.142002 0.290358 0.568412
-0.126282 -0.15328 0.570468
0.255821 -0.0328048 0.54705
0.274038 0.218296 0.570468
0.273908 0.289139 0.54705
-0.291817 -0.0202529 0.56727
0.290358 -0.0190984 0.558962
-0.232478 -0.24595 0.518848
-0.207096 0.290358 0.561583
-0.170341 -0.0676357 0.54705
-0.246473 0.247279 0.434558
-0.215317 0.0790355 0.54705
0.11031 0.0470186 0.570468
-0.228741 0.264917 0.570468
0.215955 0.175815 0.549184
-0.118685 0.24798 0.54705
-0.214851 -0.173323 0.548854
-0.117569 0.140855 0.54705
-0.239304 0.245578 0.00140495
0.136371 0.16527 0.54705
-0.249885 0.177898 0.570468
0.00820154 -0.146253 0.54705
0.245089 0.248076 0.0554573
0.120286 0.0114825 0.54705
0.0596875 -0.252985 0.54705
-0.0235737 0.243962 0.54705
-0.18098 0.217379 0.54705
-0.0985628 0.160502 0.54705
-0.193918 -0.1793 0.541189
0.290358 -0.104545 0.562642
-0.217341 0.129169 0.570468
-0.244723 0.24829 0.109195
0.248427 -0.244484 0.0537137
0.246655 0.0509667 0.570468
0.199727 -0.198845 0.570468
0.264594 0.276656 0.54705
0.184752 -0.249862 0.570468
-0.2322 0.229404 0.484745
-0.243033 0.249265 0.406851
-0.245724 0.247711 0.401446
-0.120553 -0.222885 0.54705
0.233208 0.22882 0.383671
-0.285689 0.164206 0.54705
0.150025 0.134487 0.538755
0.134815 0.239887 0.570468
-0.238211 -0.227393 0.46748
0.192913 -0.0517482 0.570468
0.0931043 0.0378932 0.570468
0.185647 -0.208511 0.52553
0.223543 -0.155671 0.570468
-0.00620112 0.0970103 0.570468
-0.00997299 -0.287382 0.570468
0.226637 0.241326 0.506362
0.204518 -0.00951469 0.570468
0.162445 0.180729 0.541775
-0.103721 -0.118747 0.532032
-0.181647 0.157759 0.570468
-0.24747 0.231271 0.112977
-0.182654 -0.186182 0.553483
0.126538 -0.206133 0.570468
-0.15528 0.181232 0.541775
-0.233552 -0.187851 0.54705
-0.151467 -0.29259 0.55587
-0.191342 0.191559 0.541775
0.14783 -0.033485 0.54705
-0.0442656 -0.00578812 0.54705
0.0264614 -0.258101 0.54705
-0.229463 0.232102 0.296266
0.174349 0.161646 0.543079
0.0572075 0.225499 0.570468
0.290358 0.190645 0.552518
-0.251973 0.105206 0.570468
0.181477 0.193808 0.54705
0.247972 0.23214 0.45425
-0.0996641 -0.285684 0.570468
0.154929 -0.19365 0.543944
-0.134866 0.120114 0.540834
0.201208 0.244363 0.54705
0.170325 0.180728 0.527431
0.0702898 0.135752 0.570468
0.199549 0.18626 0.515594
0.0496002 -0.113575 0.570468
0.0193779 -0.00720781 0.54705
-0.0216356 0.215032 0.570468
-0.0741773 -0.000698537 0.54705
0.00440758 0.0266317 0.533862
0.222867 -0.0295695 0.54705
0.123478 0.134095 0.527583
-0.0557257 -0.147337 0.54705
0.288551 0.200925 0.54705
0.208417 -0.246279 0.570468
0.276744 0.0927656 0.570468
-0.0278757 -0.25283 0.570468
-0.176158 -0.173302 0.570468
-0.180158 0.195048 0.553483
0.258948 0.283885 0.570468
0.227392 0.240465 0.493731
0.227392 0.235718 0.444968
0.110587 0.200026 0.570468
0.239768 0.227393 0.283919
-0.247934 0.245338 0.4329
-0.292292 -0.156606 0.553451
0.17186 0.177912 0.525509
-0.0667836 0.0835406 0.570468
-0.241994 -0.234662 0.00140495
-0.179486 -0.138216 0.570468
0.178242 -0.182733 0.54705
0.159574 -0.291118 0.568934
0.2044 0.177448 0.570468
0.202636 -0.292382 0.563459
0.0950493 0.133263 0.54705
-0.227613 -0.235305 0.438756
-0.0967352 0.214882 0.570468
-0.243948 0.228672 0.283599
-0.0649401 -0.0546831 0.527328
0.290358 -0.060522 0.554454
-0.199379 -0.268293 0.570468
-0.103538 0.178603 0.570468
0.133747 -0.124583 0.54705
-0.215108 -0.195533 0.546204
0.177818 -0.102228 0.570468
0.281738 -0.183463 0.54705
0.196537 -0.280818 0.570468
0.107983 -0.272159 0.54705
0.183218 0.125148 0.54705
0.227671 -0.235193 0.0793932
0.0551075 -0.205942 0.570468
0.241965 -0.249877 0.203003
-0.272773 -0.0356773 0.54705
-0.171957 -0.114862 0.54705
0.0312576 0.277747 0.570468
0.277335 0.030481 0.570468
-0.249652 0.235051 0.399526
0.239496 -0.235091 0.00140495
0.129768 0.0716771 0.54705
-0.150035 -0.160953 0.54705
0.0777991 -0.281876 0.54705
0.112749 -0.11571 0.54705
-0.287468 -0.181397 0.54705
-0.0640234 0.0572011 0.546484
0.242381 -0.227768 0.354622
0.0751473 0.0647669 0.54705
-0.115634 -0.236429 0.54705
0.291796 0.0648302 0.567412
0.0637438 0.181179 0.54705
-0.199696 -0.191621 0.570468
-0.17108 0.0236887 0.54705
0.202995 0.200152 0.519817
0.015839 0.0494306 0.570468
-0.215188 -0.0410604 0.54705
0.163113 -0.172947 0.54511
0.285594 -0.0734836 0.54705
0.119515 0.270995 0.54705
0.129116 -0.122511 0.54705
0.0769347 -0.0677816 0.54705
0.208323 0.17728 0.54705
0.239796 0.226758 0.503783
0.235474 -0.238276 0.00140495
-0.287735 0.0192132 0.54705
0.208964 -0.266757 0.570468
-0.236868 -0.227393 0.211707
0.273091 0.00658947 0.54705
-0.08325 0.290358 0.566219
-0.0467067 -0.117794 0.54705
-0.208023 -0.140343 0.570468
0.240798 0.227393 0.179919
-0.0294778 -0.0892728 0.54705
-0.292187 -0.243337 0.552745
-0.290358 -0.142305 0.555452
0.24041 0.227393 0.244622
0.208916 -0.169291 0.541775
-0.231667 -0.247699 0.00361026
0.163312 -0.20822 0.54705
-0.0253114 0.25806 0.54705
0.105059 -0.0664581 0.54705
-0.221895 0.204598 0.570468
0.23449 -0.239154 0.00140495
0.0654467 -0.275544 0.54705
0.154101 -0.128027 0.54705
-0.0440879 0.00316486 0.54705
-0.249885 0.235454 0.259509
-0.115935 0.177367 0.54705
0.181143 0.211584 0.541539
0.0883003 0.0807931 0.525785
-0.14664 -0.132092 0.541375
-0.174018 -0.196239 0.570468
0.246245 -0.230002 0.455819
-0.177867 0.206009 0.54705
-0.126289 0.059828 0.54705
-0.233857 0.248963 0.36649
0.126072 0.290358 0.565035
0.228159 -0.23435 0.342573
-0.0737594 0.206858 0.570468
-0.167996 -0.0924895 0.570468
0.0107085 -0.00460407 0.54705
-0.0300415 -0.143652 0.570468
-0.146052 0.269447 0.570468
-0.113043 -0.290358 0.550651
-0.227678 0.242221 0.196278
-0.0729888 0.0973515 0.54705
-0.0764859 0.136599 0.570468
0.0319129 0.0304694 0.524635
0.0898119 0.276367 0.570468
0.234607 0.262083 0.570468
-0.0248384 0.247623 0.54705
-0.198741 0.1475 0.570468
-0.208301 0.0974229 0.570468
0.0580374 0.218326 0.570468
0.0794393 -0.124442 0.54705
0.0108253 0.117398 0.570468
-0.0752905 -0.0728748 0.54705
-0.270664 -0.249109 0.570468
-0.161439 -0.237094 0.54705
0.167573 0.0873888 0.570468
0.209545 -0.0922876 0.570468
-0.242491 0.0937992 0.54705
-0.0944097 0.102044 0.54705
-0.290358 0.154936 0.561549
-0.199825 0.206396 0.541576
-0.177951 0.172589 0.570468
0.226895 0.23498 0.536801
0.0484974 -0.0570176 0.5261
0.253922 0.100004 0.570468
-0.214775 -0.0576384 0.570468
0.042461 -0.152721 0.54705
-0.225367 0.0417777 0.570468
-0.060749 -0.242274 0.570468
0.250012 -0.236547 0.429294
0.160212 -0.163161 0.54705
-0.265314 0.200723 0.570468
-0.014475 -0.0808812 0.54705
-0.238963 -0.227393 0.195139
-0.11335 -0.146647 0.570468
0.0546421 0.274748 0.54705
-0.246523 -0.24725 0.290087
0.0462013 0.225136 0.54705
-0.180349 -0.154652 0.54849
-0.200868 0.151518 0.54705
0.0933108 -0.28053 0.54705
0.0921868 0.229812 0.54705
-0.204117 -0.0216496 0.54705
-0.0391023 0.0154884 0.54705
0.179593 -0.0439473 0.570468
-0.266915 0.147653 0.54705
0.0819128 -0.24473 0.54705
0.174135 -0.15752 0.548756
-0.0491519 -0.0511094 0.524733
-0.0576724 0.147871 0.570468
-0.214765 0.21801 0.545846
-0.290358 -0.0193584 0.54936
-0.219953 -0.237296 0.54705
-0.174321 -0.126637 0.570468
0.229204 0.218808 0.570468
0.0879472 -0.184101 0.570468
-0.143462 -0.191955 0.570468
0.177229 0.203156 0.553483
-0.251782 -0.144912 0.54705
-0.291643 -0.16699 0.549643
0.189165 0.201208 0.541775
-0.0189535 -0.0525045 0.570468
0.139437 -0.178004 0.570468
0.0527853 -0.0476494 0.525335
-0.184108 0.199218 0.539883
-0.199349 -0.287853 0.570468
-0.0788679 0.055378 0.570468
-0.155294 0.189406 0.570468
0.154614 -0.227118 0.54705
-0.134768 0.15756 0.54705
0.0106921 0.238257 0.54705
-0.124709 0.29259 0.561108
-0.0964667 0.290358 0.563472
-0.106221 -0.201706 0.570468
-0.191254 -0.158405 0.54705
0.241601 0.250012 0.327521
-0.157972 -0.292518 0.562545
0.237168 -0.0857381 0.570468
-0.0349975 0.0468067 0.570468
-0.2274 -0.238018 0.0180105
0.0885476 0.224552 0.54705
0.120101 0.29259 0.555605
0.153256 -0.204142 0.570468
-0.110344 -0.170003 0.570468
-0.00258228 0.203711 0.54705
-0.126348 -0.241169 0.54705
0.0312879 -0.247354 0.570468
-0.228254 0.243217 0.343003
-0.109017 0.290358 0.550834
0.28336 0.173273 0.54705
-0.215407 -0.118406 0.570468
0.197244 0.158391 0.570468
0.212442 0.138654 0.54705
-0.250012 0.239641 0.366222
-0.128819 0.191448 0.570468
0.240475 0.231432 0.54705
0.246963 -0.230417 0.476459
0.290358 0.0202381 0.558729
0.0942662 -0.0869655 0.54705
-0.250374 0.0410884 0.570468
0.0233914 -0.203359 0.54705
-0.215131 0.290358 0.550762
-0.0335846 -0.102443 0.570468
0.244167 0.206412 0.570468
-0.290358 0.120117 0.570139
0.272501 0.0903418 0.570468
-0.238992 0.227393 0.0801558
-0.1519 -0.0081003 0.570468
-0.229316 0.245057 0.405273
0.207819 0.130595 0.570468
0.0117057 -0.00713465 0.554856
0.116744 0.289894 0.570468
0.0109426 0.196358 0.54705
0.290358 0.21627 0.569245
0.231141 -0.230017 0.0981842
-0.00996417 -0.0612382 0.570468
0.196125 0.115544 0.570468
0.290358 -0.201395 0.55638
-0.0457718 0.257596 0.54705
-0.0282793 -0.0497739 0.54705
0.217243 -0.18378 0.54705
0.116739 -0.118538 0.524703
0.227392 0.240358 0.444231
0.243531 -0.127075 0.54705
-0.159769 0.20216 0.541775
0.0811945 0.238794 0.54705
-0.266935 0.290358 0.550805
-0.0588627 -0.103157 0.570468
-0.249954 -0.235574 0.35755
-0.0705149 -0.176044 0.54705
-0.118893 0.0144348 0.570468
-0.277348 0.0578946 0.54705
-0.182219 -0.0758832 0.54705
0.26025 0.10896 0.570468
-0.130938 -0.0220287 0.54705
-0.188176 -0.17173 0.536375
0.0571687 -0.0150608 0.570468
0.205674 0.271195 0.570468
0.185656 0.117538 0.54705
0.125167 0.246219 0.570468
-0.0996253 0.290358 0.564859
0.190431 0.186266 0.54705
0.232291 0.229351 0.462623
-0.132221 -0.252913 0.570468
-0.227938 0.148636 0.54705
-0.15796 -0.271839 0.54705
-0.0390764 0.271491 0.570468
0.0511323 0.265365 0.54705
0.0835722 0.0988602 0.532722
-0.230855 -0.230182 0.0645727
0.177944 0.115658 0.570468
-0.249958 0.241833 0.485016
0.192149 0.268556 0.54705
-0.00251353 0.139553 0.570468
-0.170743 -0.0818647 0.54705
0.23519 0.249733 0.15501
-0.0783724 0.0875408 0.526563
-0.148841 0.225309 0.54705
-0.156133 -0.191614 0.570468
0.230137 -0.230932 0.0351182
-0.239669 0.227393 0.443803
-0.0688532 -0.237584 0.54705
0.23768 0.227393 0.0137741
0.22997 -0.189863 0.54705
0.0423864 -0.0612131 0.54705
0.111318 -0.173978 0.570468
-0.114385 -0.0498578 0.54705
0.229628 0.231812 0.301031
-0.29259 0.0612395 0.557225
0.281469 -0.0846487 0.570468
0.0632094 0.219138 0.54705
0.252486 -0.0995306 0.54705
0.240248 0.250012 0.227506
-0.232166 0.229424 0.425343
-0.222858 0.154079 0.54705
0.201478 0.157472 0.545578
0.0772943 -0.267148 0.54705
0.149046 0.193654 0.54705
0.233342 0.248666 0.210861
-0.195034 -0.180999 0.570468
0.248198 -0.232532 0.284405
-0.216539 0.213609 0.523929
0.0948502 0.0845902 0.527332
0.184197 0.206424 0.527434
0.279364 0.138973 0.54705
-0.202597 0.223182 0.570468
-0.166844 0.183018 0.553483
-0.137252 -0.131465 0.54705
-0.165907 0.164131 0.54744
-0.041812 0.291937 0.551055
0.188158 0.0553552 0.54705
0.147244 0.146051 0.524588
0.0657702 0.0822677 0.536223
0.292492 -0.129383 0.562722
-0.0203996 -0.0306549 0.570468
-0.260688 -0.252657 0.54705
0.152036 -0.021563 0.570468
-0.225673 -0.0587916 0.54705
-0.290358 -0.0192466 0.550265
0.0361556 -0.186115 0.570468
-0.0935373 0.125852 0.570468
-0.265599 -0.151957 0.54705
0.00578856 0.0597838 0.54705
-0.164219 0.15028 0.54705
-0.221313 0.172226 0.570468
0.0720658 -0.0734889 0.524632
-0.243524 -0.228427 0.0883226
0.0828839 0.109673 0.570468
-0.198578 -0.208279 0.541775
0.249251 0.234355 0.427228
-0.184065 0.225064 0.54705
-0.054648 0.0693326 0.570468
0.188212 -0.169273 0.553483
-0.259464 -0.171942 0.54705
-0.037182 0.108235 0.54705
0.245689 -0.22968 0.0862418
-0.0979255 -0.0999171 0.54705
0.168763 0.201585 0.553483
0.0963655 -0.0497358 0.570468
-0.237882 -0.27138 0.54705
-0.0675531 0.0283632 0.570468
-0.160569 0.0550801 0.570468
0.250012 0.241425 0.24909
0.0596584 -0.0132129 0.570468
0.290358 0.069226 0.569304
-0.222653 0.176156 0.570468
-0.200216 -0.116817 0.570468
-0.238733 0.140455 0.54705
-0.0716718 0.133921 0.570468
0.0571485 -0.290358 0.557043
0.292445 0.0139697 0.554478
-0.138307 -0.291787 0.567468
-0.248295 0.232701 0.268148
-0.285065 -0.28802 0.54705
-0.167984 0.203419 0.570468
0.247827 -0.245524 0.444943
-0.113597 -0.120373 0.525647
0.177674 -0.228729 0.54705
-0.0173355 -0.166762 0.570468
-0.175966 -0.0824731 0.570468
-0.00337404 -0.0808812 0.570468
-0.0857122 0.176943 0.570468
0.284543 0.14389 0.54705
0.167819 -0.197969 0.570468
0.150761 0.0398144 0.570468
0.231536 -0.0589589 0.54705
-0.190805 0.250388 0.570468
-0.290358 -0.0474115 0.566727
-0.247901 -0.245396 0.459576
0.250012 0.238454 0.0576125
0.226934 0.21596 0.523624
-0.227608 -0.242099 0.0577366
-0.212548 0.173616 0.549724
0.263165 0.0424667 0.54705
-0.17532 0.261223 0.570468
-0.232143 0.229437 0.444418
0.0808105 -0.0140629 0.54705
0.0476607 -0.155199 0.54705
0.292433 0.268877 0.563117
-0.19935 -0.290514 0.547364
0.237086 0.0185924 0.54705
0.243574 -0.248949 0.382471
-0.231464 0.247582 0.258217
-0.218807 0.145057 0.570468
0.290885 -0.0306824 0.548115
-0.0535073 -0.201867 0.570468
0.24819 -0.244894 0.469178
-0.0839895 0.0567869 0.570468
0.0841264 -0.098568 0.530488
-0.173011 -0.149472 0.570468
-0.123595 0.0615726 0.54705
-0.164851 0.0165843 0.54705
-0.25179 -0.100256 0.570468
-0.250012 0.23947 0.463617
0.193692 -0.184926 0.54705
0.00635457 -0.189054 0.570468
0.0243897 -0.13311 0.570468
-0.212599 0.196415 0.570468
-0.0416918 0.0902476 0.54705
-0.134734 -0.00369096 0.570468
0.281831 0.136061 0.570468
0.0347393 0.039041 0.54705
0.119207 -0.273417 0.54705
0.228323 -0.184077 0.54705
-0.045887 0.0352742 0.544559
0.284994 0.155271 0.570468
0.223812 -0.10087 0.570468
0.0751516 0.034271 0.54705
0.22973 -0.245777 0.0562527
-0.28322 -0.230022 0.570468
-0.23088 -0.230168 0.482987
0.0388561 0.0500991 0.528026
-0.207104 0.264112 0.570468
0.220804 -0.00802386 0.54705
0.240771 -0.227393 0.32274
0.00910082 -0.191089 0.570468
-0.27214 0.161068 0.570468
0.239411 -0.248683 0.570468
0.160743 0.0944868 0.54705
-0.230569 -0.231845 0.53805
0.180589 -0.173015 0.541775
-0.119568 0.162784 0.570468
0.0243832 -0.0334198 0.54705
-0.238468 0.233422 0.00140495
-0.0308515 0.0410531 0.54705
0.120031 0.260291 0.54705
0.129587 -0.225795 0.570468
0.177391 0.237395 0.570468
0.258062 -0.207764 0.570468
-0.129089 0.123647 0.546745
-0.281021 0.281022 0.570468
0.250012 -0.240556 0.429275
-0.130386 0.16185 0.54705
-0.290358 0.208115 0.559582
0.0421549 0.0321788 0.52713
-0.287859 0.28058 0.54705
-0.272892 0.207126 0.54705
0.252002 0.00538501 0.54705
0.285186 0.00889978 0.570468
0.212157 0.233457 0.54705
-0.0216109 -0.00557752 0.531441
-0.00787499 0.0106766 0.531441
-0.00202745 0.187363 0.570468
-0.243311 0.228303 0.193888
-0.0316817 -0.0124309 0.54705
0.160132 0.103489 0.54705
-0.290358 -0.0974957 0.567563
-0.167319 0.125362 0.570468
0.0946628 -0.223765 0.54705
0.187818 0.202179 0.553483
0.125126 -0.201671 0.54705
-0.288225 -0.0831769 0.54705
-0.11282 0.260124 0.570468
0.0534116 -0.111147 0.570468
0.177253 -0.114946 0.570468
-0.238679 -0.227393 0.145571
-0.236023 0.227393 0.134503
0.0232658 -0.0291646 0.527749
0.0125125 0.117914 0.54705
-0.198918 0.00890687 0.570468
0.277979 0.145538 0.54705
0.274947 0.202814 0.570468
0.0990447 0.23036 0.54705
0.174166 -0.29215 0.565028
-0.157794 0.05713 0.54705
-0.29259 -0.033951 0.56121
0.0736937 0.00735822 0.570468
-0.127014 -0.107129 0.54705
-0.0100534 0.264929 0.570468
0.238226 0.241546 0.570468
-0.0859412 -0.0939953 0.570468
0.0713466 0.0922378 0.54705
0.266707 -0.0850186 0.54705
-0.291903 0.109511 0.56669
0.237141 0.280559 0.54705
-0.0600631 -0.0708971 0.54705
-0.126121 -0.0778338 0.54705
-0.0692372 -0.183309 0.54705
-0.146378 -0.290358 0.547526
-0.163763 -0.0689862 0.570468
0.234598 0.228016 0.0828443
-0.167162 -0.105487 0.570468
0.2474 -0.246264 0.301938
-0.25005 0.111469 0.54705
0.290358 -0.233702 0.559315
-0.247418 -0.246233 0.226943
0.161924 0.170019 0.546244
0.228748 0.233332 0.164604
-0.0291811 0.00522986 0.54705
0.0529337 0.122882 0.570468
-0.261692 0.264203 0.54705
0.214065 0.279785 0.54705
0.0979743 -0.0419073 0.54705
-0.274884 -0.0328774 0.54705
0.093318 -0.181928 0.54705
-0.290358 0.255383 0.552691
0.0914307 -0.251806 0.54705
0.286317 0.0731238 0.54705
-0.240402 0.250012 0.291233
0.249988 0.235633 0.482377
-0.26104 -0.215227 0.570468
0.0208981 0.250319 0.570468
-0.206441 -0.204794 0.547465
0.15482 -0.178753 0.548657
0.0639091 -0.122001 0.570468
-0.170632 0.154845 0.534026
0.195197 0.0969702 0.54705
-0.0372626 0.284417 0.570468
-0.234945 -0.227815 0.042914
-0.233813 0.228399 0.54705
0.0680319 -0.154855 0.54705
0.0946147 -0.27617 0.570468
-0.236453 0.227393 0.414572
-0.246269 0.089476 0.570468
0.17669 0.0326015 0.570468
0.123294 0.19033 0.570468
-0.0838605 0.0654815 0.54705
0.184483 -0.116528 0.570468
0.184727 -0.155274 0.551346
0.192869 0.166115 0.570468
-0.0324297 -0.255494 0.54705
-0.158158 0.175507 0.553483
0.139939 -0.16695 0.570468
-0.194893 0.15914 0.541775
0.244955 -0.245647 0.509893
0.0296702 0.0862024 0.54705
-0.246731 -0.230283 0.383759
0.250012 -0.237308 0.0130636
-0.214697 -0.208264 0.546465
-0.2274 -0.239259 0.483157
0.255768 -0.28333 0.54705
0.0340797 -0.23177 0.54705
-0.173134 0.200156 0.54705
0.147439 -0.256442 0.54705
-0.229831 -0.22156 0.570468
-0.239028 -0.250012 0.282902
0.290358 0.086048 0.564236
-0.244743 0.229132 0.328263
0.232965 0.248448 0.148365
0.114362 0.120772 0.525576
-0.124346 -0.0962925 0.54705
0.199879 -0.279715 0.570468
0.120924 -0.0755256 0.54705
-0.0565332 -0.1746 0.54705
0.290358 -0.175375 0.563459
0.249233 -0.243088 0.166011
0.160066 -0.240007 0.570468
-0.227806 0.230147 0.507555
-0.0632555 0.0689647 0.570468
-0.234837 0.249529 0.0443953
0.289712 -0.0774637 0.570468
-0.2274 0.237341 0.480542
0.292187 0.236774 0.564773
0.164863 -0.164914 0.541775
-0.0883587 -0.0865868 0.570468
0.120159 -0.198129 0.54705
0.0101071 -0.00528452 0.54705
0.239993 -0.250012 0.314772
-0.140008 0.0909385 0.54705
-0.238295 -0.227393 0.179508
-0.0642914 -0.071902 0.570468
-0.186725 0.162918 0.541775
0.0877234 0.0394087 0.54705
0.191587 -0.117122 0.570468
0.101089 0.117324 0.54705
-0.0934412 0.149238 0.570468
-0.0236734 0.216175 0.570468
-0.243441 -0.228378 0.480597
-0.0226268 -0.0808812 0.570468
0.227392 0.236501 0.35006
0.243041 -0.158888 0.54705
-0.248436 0.24447 0.257752
-0.249845 -0.242029 0.209846
0.17916 0.185019 0.546667
0.0666695 -0.197967 0.570468
-0.0578011 -0.0649615 0.570468
-0.29259 -0.00412714 0.561601
-0.0970348 0.270235 0.570468
-0.0188693 -0.236199 0.570468
-0.123872 0.180975 0.570468
0.29257 -0.271637 0.562196
-0.133191 0.235896 0.54705
-0.290358 -0.220195 0.56559
0.286062 -0.0711957 0.570468
-0.143454 -0.292524 0.562502
0.254516 0.22089 0.570468
-0.149699 -0.00611281 0.54705
0.29228 0.226682 0.55337
0.235784 0.227393 0.196449
0.0295998 -0.0251346 0.54705
0.203715 0.122699 0.570468
-0.149231 0.252787 0.54705
-0.138467 -0.271558 0.54705
0.290358 0.282964 0.565253
0.0976631 -0.23969 0.570468
0.265008 -0.216255 0.54705
0.240516 0.250012 0.337709
-0.256942 0.0166408 0.54705
-0.160806 -0.161497 0.547646
0.278897 -0.276814 0.54705
-0.220934 0.212603 0.570468
0.159937 0.279468 0.570468
-0.0122099 -0.288679 0.570468
0.247603 0.231501 0.341678
0.195656 0.0664103 0.570468
0.261138 -0.244985 0.54705
-0.24455 -0.290358 0.564808
-0.227672 -0.24221 0.0675228
0.248574 0.233183 0.0437891
-0.203905 0.187577 0.54705
-0.292103 -0.130732 0.565338
0.165107 -0.0552688 0.54705
0.0831071 0.215815 0.54705
0.242673 -0.227937 0.356687
-0.174754 0.189173 0.541707
-0.276954 0.105663 0.54705
-0.205095 -0.197044 0.517698
-0.23111 -0.227529 0.539094
-0.0666453 0.141262 0.54705
0.0871494 -0.103654 0.536204
-0.170162 0.219271 0.54705
0.0620717 0.261411 0.54705
-0.290358 0.218005 0.553994
0.16347 -0.174878 0.54705
-0.109589 -0.119009 0.570468
-0.250012 0.239624 0.0921806
-0.0308704 -0.185675 0.54705
0.290358 0.0624435 0.548566
0.0771261 -0.0506062 0.570468
-0.0587597 -0.0428006 0.537659
0.0910555 -0.279457 0.570468
0.24142 0.234916 0
0.238361 -0.250012 0.236536
0.284358 0.0697216 0.570468
0.174461 -0.28473 0.54705
-0.130635 -0.116424 0.530124
-0.0598944 -0.0968406 0.570468
0.22858 -0.233623 0.112882
-0.187147 -0.279835 0.570468
0.247352 -0.238641 0.513816
-0.125514 0.0270003 0.570468
-0.238482 0.244821 0.521006
-0.153355 -0.0205634 0.570468
0.29194 0.0379969 0.551077
-0.278766 0.0854788 0.54705
0.0880854 0.104248 0.537107
-0.284461 0.150658 0.570468
-0.204917 0.189956 0.531855
0.229672 -0.231736 0.220097
-0.287093 0.217179 0.54705
0.273607 0.285413 0.54705
0.126082 0.149758 0.54705
0.155995 0.181313 0.553328
-0.250012 -0.237703 0.213979
0.0815656 -0.129973 0.570468
0.207489 0.0107513 0.54705
-0.0809072 -0.21234 0.570468
-0.113353 0.111562 0.570468
-0.24363 -0.172689 0.570468
-0.234861 0.219965 0.533092
0.175652 0.194023 0.553483
0.0967108 0.190099 0.570468
-0.0393952 -0.101273 0.54705
-0.114568 0.0632032 0.54705
0.0490297 0.181456 0.570468
0.245311 0.229462 0.181173
-0.0965915 -0.246203 0.570468
0.229669 -0.245671 0.0156284
0.042813 0.190382 0.570468
0.290358 -0.250797 0.551941
-0.161539 -0.0916528 0.54705
0.154105 0.261588 0.54705
0.247132 0.246727 0.0924392
-0.194218 0.0541608 0.570468
0.279128 -0.153161 0.570468
0.243418 -0.228368 0.345278
-0.244556 0.229024 0.481019
-0.144147 0.00372392 0.570468
-0.292306 -0.164324 0.563971
-0.156226 0.170763 0.530745
-0.233385 -0.248691 0.196577
-0.249492 0.24264 0.373532
-0.0705397 -0.0576616 0.542957
0.0326334 -0.0480479 0.539082
-0.284594 -0.289261 0.54705
-0.291926 -0.089574 0.550983
-0.126699 -0.111267 0.533095
-0.236873 -0.227393 0.0971392
-0.166515 0.137022 0.570468
-0.180192 -0.0957099 0.54705
-0.031811 -0.209497 0.570468
-0.23048 -0.29023 0.570468
0.181086 0.19655 0.533186
-0.162882 -0.0225674 0.54705
0.103782 -0.239727 0.54705
-0.227243 -0.2502 0.54705
0.048867 -0.0528423 0.54705
0.181552 -0.18481 0.570468
-0.203741 0.191979 0.543744
-0.00253972 -0.149518 0.570468
0.13207 -0.137628 0.54705
0.290358 -0.272104 0.566294
-0.240328 0.250012 0.168331
-0.0237189 -0.156644 0.54705
-0.136704 0.120165 0.54705
-0.24397 0.248724 0.212706
-0.232544 -0.229205 0.228012
-0.0453337 -0.0088397 0.54705
0.213513 0.0129701 0.54705
0.113726 -0.219222 0.570468
-0.290358 -0.228751 0.565883
-0.236134 0.250012 0.143316
0.178233 -0.0265249 0.54705
-0.090001 0.0842964 0.546696
-0.230847 -0.230187 0.0283027
0.123772 -0.213319 0.570468
0.16049 0.188475 0.54705
0.209058 0.102635 0.570468
0.191994 -0.156819 0.550479
-0.208293 -0.0691685 0.570468
0.0483213 -0.258781 0.54705
-0.185095 -0.186799 0.524685
-0.233135 0.168204 0.54705
-0.2274 -0.241472 0.221055
0.273154 -0.0481297 0.54705
0.00324005 0.0849324 0.570468
0.0235656 0.220094 0.54705
0.284961 -0.192868 0.54705
-0.250012 0.238059 0.297705
-0.221498 -0.260557 0.570468
-0.235822 0.284195 0.54705
-0.0609217 0.052222 0.526227
0.251366 0.0899988 0.54705
0.227392 -0.238619 0.358419
0.290358 -0.161197 0.562318
0.229177 -0.240535 0.570468
-0.180312 0.0845288 0.570468
0.291313 -0.262225 0.548978
-0.173377 0.291832 0.567164
0.0108837 -0.0339955 0.54705
0.0110968 -0.27924 0.570468
-0.26625 0.188855 0.54705
-0.245247 0.247987 0.136028
-0.0740114 0.242156 0.570468
0.0647226 -0.180249 0.54705
0.113072 -0.199442 0.570468
0.245391 0.277676 0.570468
0.0577219 -0.290358 0.567524
-0.168294 0.271461 0.570468
-0.155348 0.159997 0.546895
0.207502 -0.121376 0.54705
0.290358 -0.192002 0.56649
-0.242686 -0.227941 0.206072
-0.138787 -0.215063 0.570468
0.0467668 0.0296849 0.570468
-0.158351 -0.0983235 0.54705
-0.234299 -0.228189 0.00306062
-0.0475622 0.0426854 0.525286
-0.213711 -0.197761 0.534457
0.170616 0.189406 0.570468
-0.0379613 -0.231769 0.54705
0.0747515 -0.0503108 0.570468
0.180201 -0.272546 0.570468
0.242768 -0.227992 0.0479148
-0.133529 -0.176458 0.54705
-0.249775 0.242149 0.403065
0.185414 -0.196178 0.529937
-0.0879446 -0.034323 0.570468
0.046538 0.0855006 0.570468
-0.286489 -0.290358 0.553073
-0.128627 -0.210084 0.54705
-0.134164 -0.138889 0.570468
0.00680337 0.00773369 0.554856
0.246314 0.0535492 0.54705
0.0204947 -0.0694606 0.54705
0.227405 0.241762 0.414798
-0.224885 -0.0808812 0.54705
-0.0694585 -0.102864 0.570468
-0.132799 0.0230902 0.54705
-0.248875 -0.243709 0.168592
-0.290358 -0.242641 0.564556
-0.166446 -0.150436 0.570468
0.231348 -0.104623 0.570468
-0.0556839 0.205944 0.570468
-0.0862221 -0.0512114 0.570468
0.217027 0.183602 0.551655
0.205529 -0.196234 0.545487
-0.0771148 -0.290358 0.55367
0.152484 0.0275604 0.54705
-0.19535 0.199757 0.502765
-0.291895 -0.0113167 0.566745
0.207575 -0.212704 0.54705
0.249774 0.0242445 0.570468
-0.232638 0.22915 0.386543
0.0221455 0.0201159 0.54705
-0.0243002 -0.0281359 0.532082
0.0104216 -0.292272 0.553317
0.0732476 -0.0583233 0.531763
-0.111999 0.290358 0.548585
0.177319 0.126173 0.54705
0.291555 0.136131 0.549465
0.237151 -0.162214 0.570468
0.284554 0.128629 0.570468
0.196356 -0.186527 0.541775
0.220138 -0.277886 0.54705
0.0782619 -0.251611 0.570468
-0.00479704 0.279116 0.570468
0.228569 -0.233642 0.358897
-0.239012 0.250012 0.299835
-0.277827 -0.22956 0.54705
-0.205786 -0.00793332 0.54705
-0.29259 0.00638503 0.557139
-0.263098 0.143752 0.54705
-0.255287 -0.218195 0.570468
-0.0631107 -0.229707 0.570468
-0.290358 0.253769 0.558585
0.153965 0.184126 0.54705
-0.229366 0.230711 0.502887
-0.23859 0.167088 0.570468
0.238062 -0.000354946 0.570468
0.219196 0.16744 0.570468
-0.138027 0.216765 0.54705
-0.114328 -0.130415 0.537304
-0.232822 -0.229044 0.323282
0.09699 0.175565 0.54705
0.243459 -0.228392 0.275732
-0.224451 0.140799 0.570468
0.0180234 0.0201116 0.532502
0.290358 -0.26404 0.55876
0.241004 0.168184 0.54705
-0.147746 0.134143 0.529695
0.0584037 -0.0573049 0.547569
-0.290358 -0.134036 0.563171
0.0090163 -0.00819054 0.554856
-0.249499 0.242627 0.179035
-0.179966 0.174047 0.570468
0.0128591 -0.0494979 0.54705
0.224547 0.209915 0.54705
-0.29259 -0.0930664 0.558435
-0.2274 -0.236091 0.411126
0.291833 -0.0694853 0.567157
0.180747 -0.0716945 0.570468
-0.0071657 -0.258453 0.54705
-0.170803 -0.188737 0.553483
0.182297 0.183883 0.524663
-0.229843 -0.231444 0.300303
-0.0368834 0.138797 0.54705
-0.0108476 0.0143278 0.554856
0.154645 0.134229 0.54705
-0.0219823 -0.0371691 0.570468
0.127841 -0.151843 0.570468
0.230698 -0.11138 0.570468
0.164242 -0.164171 0.54705
-0.289074 -0.290358 0.567503
-0.0425871 0.159133 0.570468
0.179927 0.07381 0.54705
0.250012 0.23922 0.0605108
0.15076 0.213352 0.570468
0.0664251 0.18954 0.54705
-0.114364 0.246191 0.54705
-0.0395205 -0.277553 0.570468
-0.166495 -0.168157 0.541775
-0.288431 -0.0896161 0.570468
-0.182678 0.0715452 0.54705
0.224997 0.288952 0.570468
0.175257 0.153206 0.570468
-0.22778 0.235016 0.0625959
-0.0863279 -0.290358 0.565711
-0.12761 -0.290358 0.567866
0.292408 0.0625501 0.563283
-0.0599729 -0.0355377 0.570468
-0.0852218 0.117547 0.570468
0.237348 0.250012 0.187927
-0.188333 -0.208087 0.52411
-0.138809 -0.234542 0.570468
0.233329 0.290358 0.566094
-0.108218 -0.159726 0.570468
0.073012 -0.268589 0.570468
0.0867996 0.236155 0.570468
0.150179 0.179248 0.570468
0.224951 0.147307 0.54705
-0.0585714 0.183807 0.570468
-0.223261 0.102971 0.570468
0.278439 -0.237031 0.570468
0.0747202 -0.104805 0.570468
0.264041 0.047007 0.570468
0.165001 -0.168077 0.547194
0.00196931 0.0080263 0.570468
-0.247921 -0.232053 0.196704
-0.120134 0.189799 0.54705
-0.238921 0.260146 0.570468
-0.229329 0.232333 0.109262
-0.120536 0.0519595 0.54705
0.228274 0.243261 0.450952
-0.0554062 -0.156525 0.54705
-0.210632 0.186586 0.570468
0.247681 0.231637 0.494403
-0.143068 0.276491 0.54705
0.182694 0.211847 0.54705
0.245935 -0.142436 0.570468
-0.235501 -0.249912 0.0892976
0.233561 0.228616 0.299064
-0.00422791 0.250143 0.570468
0.197202 -0.166658 0.541775
0.0599956 -0.246597 0.570468
-0.0203041 0.122514 0.54705
-0.248206 -0.244868 0.361775
0.226851 -0.0658474 0.570468
0.227392 0.236329 0.180457
-0.166953 0.200437 0.54705
-0.0199325 -0.274951 0.54705
0.0793062 0.122997 0.54705
0.0295295 0.0228994 0.527433
-0.0943395 -0.179554 0.570468
0.131107 0.224562 0.54705
0.0407056 0.289981 0.54705
-0.292095 0.0140396 0.552126
-0.19933 -0.198616 0.54705
-0.0188905 -0.240202 0.54705
-0.222357 0.218008 0.54705
0.239873 -0.113571 0.570468
-0.0258396 0.033834 0.525878
-0.0255633 0.24115 0.54705
0.176546 0.155194 0.545485
0.166708 0.199013 0.54705
0.155983 -0.17991 0.541775
-0.146023 0.182666 0.54705
0.082159 -0.0407963 0.570468
-0.0159907 0.00868215 0.531441
0.291341 0.186544 0.549035
-0.290358 0.00426927 0.564799
-0.16316 -0.0308724 0.570468
0.0460409 0.29259 0.559025
-0.131728 -0.124333 0.525764
0.103213 -0.290358 0.564629
-0.0636883 0.149134 0.54705
0.292394 0.249332 0.56338
-0.28218 -0.258086 0.570468
0.0681344 0.262677 0.570468
-0.243147 0.249199 0.306877
0.249318 0.242673 0.498616
-0.117821 -0.119663 0.570468
0.242596 0.249513 0.148396
-0.26471 -0.116894 0.54705
-0.0561084 0.152815 0.570468
0.0925521 0.0133438 0.570468
-0.152405 0.133592 0.54705
-0.078618 -0.00335672 0.54705
0.0442334 -0.196027 0.54705
0.0637071 0.290358 0.559539
-0.216601 0.0611614 0.54705
-0.0686771 -0.0524278 0.535243
0.0916259 0.0848671 0.546496
0.252021 -0.233563 0.54705
0.115853 0.0334805 0.54705
0.0254654 -0.256145 0.570468
-0.284206 0.0626809 0.570468
0.25554 -0.156674 0.570468
-0.00843507 0.0254971 0.537881
-0.241485 -0.227393 0.489344
-0.247329 -0.246386 0.106362
-0.150531 -0.0840293 0.54705
-0.247918 0.232047 0.23005
-0.246206 -0.229979 0.164394
0.247715 0.231695 0.15298
0.0888098 -0.134102 0.570468
-0.0346281 0.11176 0.570468
0.217085 -0.24736 0.570468
0.0306308 0.195488 0.54705
0.239729 -0.282822 0.570468
-0.0611261 0.0533633 0.546306
0.185359 -0.163976 0.54705
0.246793 -0.230319 0.272614
-0.26672 0.15163 0.570468
-0.251591 -0.0893322 0.570468
-0.0974926 -0.10898 0.543938
-0.279738 -0.225723 0.570468
0.16527 0.208943 0.54705
0.230598 -0.247081 0.129983
-0.27649 -0.255422 0.570468
-0.0328268 0.284975 0.54705
-0.213699 -0.177542 0.553483
-0.00606993 0.232019 0.54705
-0.0833165 -0.121128 0.54705
-0.290027 -0.0808812 0.570468
0.194069 0.134382 0.54705
-0.102883 0.0184716 0.570468
0.150523 -0.148792 0.54705
-0.217097 -0.208857 0.52546
0.126062 0.124808 0.547539
-0.0651536 -0.265239 0.570468
0.0663434 0.161345 0.54705
0.0258021 -0.189241 0.570468
0.242681 -0.249464 0.158146
0.156612 -0.147791 0.54705
-0.15199 -0.116469 0.570468
-0.187067 -0.105812 0.54705
0.112143 -0.0712427 0.570468
0.203296 0.193898 0.570468
-0.246633 0.247186 0.21183
0.0317172 -0.0888401 0.570468
0.129653 0.220882 0.54705
0.292521 0.0317906 0.562525
-0.0935351 -0.00661922 0.54705
-0.0576162 0.0681558 0.54705
-0.0524673 -0.29259 0.557031
-0.0875473 0.0444584 0.54705
0.133874 -0.119454 0.530431
0.0582367 0.150456 0.54705
0.138622 -0.151718 0.542803
-0.0874981 -0.103199 0.570468
-0.247932 0.23207 0.39489
0.237731 -0.292352 0.563662
-0.166415 -0.257734 0.54705
-0.0775982 -0.0678839 0.54705
0.274285 0.206975 0.570468
0.00652385 0.0769829 0.54705
0.143441 -0.0590983 0.54705
0.228668 -0.29259 0.56139
0.229179 -0.244826 0.259314
-0.2274 -0.23703 0.127507
-0.15075 -0.0911507 0.570468
0.16219 -0.203804 0.54705
0.228187 -0.243111 0.405274
0.243295 -0.249111 0.32172
-0.0593862 -0.290358 0.555975
0.0430133 0.181524 0.54705
-0.110018 -0.176688 0.570468
0.250012 -0.240428 0.491052
-0.0474745 -0.18252 0.570468
-0.137064 0.226693 0.570468
-0.259395 0.29259 0.556283
-0.154546 0.163587 0.545666
-0.254386 -0.290358 0.563759
0.102399 -0.0513998 0.570468
-0.249503 -0.234792 0.441202
-0.15768 0.169369 0.570468
-0.241874 -0.227471 0.283863
-0.146538 0.00575995 0.570468
0.167728 0.166327 0.553483
-0.230559 0.290358 0.557804
0.195146 0.205825 0.544512
0.190045 -0.282808 0.54705
0.0590903 0.252574 0.570468
0.071803 -0.0471726 0.54705
-0.104365 0.100288 0.525135
-0.0152131 -0.0528522 0.54705
0.163569 0.158345 0.570468
-0.228741 0.177102 0.570468
-0.0393584 -0.0285026 0.54705
0.178362 -0.171601 0.546495
0.28543 -0.151396 0.54705
-0.291918 0.212019 0.566586
0.100943 -0.120577 0.570468
0.232358 -0.229312 0.0426603
-0.278237 0.290358 0.559865
-0.2621 -0.290358 0.549603
0.206484 -0.212701 0.570468
-0.251386 -0.290358 0.564143
0.205588 0.047062 0.570468
-0.0259031 0.273407 0.570468
0.0498133 -0.0451726 0.525241
-0.0156549 0.0220184 0.552765
-0.213994 -0.224411 0.542677
-0.247345 0.231053 0.0474666
0.282647 0.290358 0.567066
-0.176195 0.171653 0.525223
-0.0372425 -0.109019 0.570468
-0.228959 0.232975 0.0671213
-0.181755 -0.0866035 0.54705
-0.0316281 -0.209468 0.570468
0.290358 -0.181994 0.563736
-0.0135733 0.00581324 0.570468
0.250012 -0.238059 0.203207
0.227491 -0.233039 0.570468
-0.290358 0.244766 0.563455
-0.13088 -0.260167 0.54705
-0.182919 -0.217694 0.54705
-0.201575 -0.18224 0.541775
0.228619 -0.287058 0.54705
-0.273528 -0.182288 0.54705
0.251069 0.208042 0.54705
-0.121604 0.264538 0.570468
0.218952 -0.187925 0.570468
-0.115062 -0.0206956 0.54705
0.256409 0.137614 0.570468
0.264244 0.194315 0.570468
0.0553769 -0.140591 0.54705
-0.23857 0.229083 0
0.256847 -0.03578 0.570468
0.0436962 -0.0590792 0.532973
-0.197167 -0.1841 0.531262
0.265764 -0.203137 0.570468
-0.131138 -0.134231 0.54719
-0.0582013 0.230581 0.54705
