-0.189394 0.108369 0.313701
-0.366939 0.236279 0.188536
-0.0458886 0.160309 0.313701
0.410192 0.0690807 0.321231
0.378773 -0.0117169 0.318576
-0.407861 0.140199 0.321231
-0.284193 -0.158255 0.318721
0.156508 -0.258512 0.321231
-0.188206 -0.0673122 0.318721
0.0638987 -0.0639457 0.313701
-0.370925 0.141994 0.192656
-0.386986 0.219108 0
0.148289 -0.040786 0.318721
0.25149 -0.0429337 0.313701
-0.124086 -0.157696 0.313701
-0.199653 0.227725 0.191845
-0.385286 0.0918767 0.205721
-0.378773 -0.107514 0.321168
-0.0200422 -0.036507 0.318721
0.0849812 0.216453 0.318721
0.364942 -0.234282 0.0679297
-0.0989651 0.0758575 0.313701
0.1372 0.0935396 0.313701
0.257475 -0.175982 0.318721
0.389788 -0.249786 0.311192
-0.111723 0.0717001 0.313701
-0.361046 0.219855 0.188704
0.22804 0.216771 0.313701
0.0790654 -0.03454 0.318721
0.36532 -0.23466 0.173158
0.100409 -0.219141 0.313701
0.0259131 0.174935 0.318721
-0.249861 -0.226015 0.321231
-0.244843 0.110959 0.318721
-0.0156144 0.238471 0.311192
-0.344546 -0.208823 0.318721
0.153064 0.0910485 0.313701
0.307171 0.254244 0.311192
-0.236773 -0.0476107 0.318721
0.0602376 0.204345 0.313701
0.0914861 0.0581978 0.313701
-0.317342 -0.115672 0.313701
0.306868 0.12141 0.318721
-0.230343 -0.0481231 0.318721
-0.200281 0.173135 0.318721
0.260091 0.132551 0.318721
0.0761736 -0.0922351 0.313701
0.311177 -0.0263294 0.318721
-0.0857957 -0.161689 0.318721
-0.418927 0.195246 0.319635
-0.267479 0.0412496 0.313701
-0.118032 0.211269 0.196208
0.0517482 -0.0855092 0.318721
-0.0649909 -0.227894 0.192014
-0.104893 -0.220687 0.315607
0.0294802 -0.193829 0.318721
0.279081 0.125171 0.313701
0.220549 0.0515424 0.313701
0.393328 0.208099 0.250961
-0.37034 0.224295 0.311192
-0.268081 0.000761226 0.313701
-0.0644359 -0.140977 0.318721
-0.377853 0.206866 0.250961
0.31137 -0.0906093 0.318721
-0.124237 -0.039016 0.318721
0.0579316 -0.0014517 0.318721
-0.125293 -0.21172 0.202517
-0.0394143 0.0414438 0.318721
0.0439408 0.202239 0.318721
-0.241879 -0.0463086 0.313701
-0.168519 -0.105871 0.318721
0.311174 0.0767967 0.318721
-0.0848291 0.160903 0.318721
-0.120219 0.217513 0.207708
0.354219 -0.145272 0.318721
-0.171683 -0.0211437 0.313701
-0.0144899 0.0964791 0.313701
0.0161805 0.198162 0.318721
0.0331355 0.20571 0.318721
-0.259562 -0.226372 0.321231
-0.340827 -0.154071 0.318721
0.3761 -0.0178617 0.189198
0.334975 -0.0776583 0.318721
0.375663 0.239931 0.0465137
-0.0472963 0.00657283 0.318721
-0.389023 0.223625 0.261293
-0.376989 0.145828 0.18896
0.365959 0.235299 0.0893174
-0.267839 0.00841549 0.318721
0.10323 0.178634 0.318721
-0.320531 -0.144662 0.313701
0.25728 -0.247144 0.311192
-0.386647 0.0201362 0.321231
0.381809 0.027366 0.321231
0.389867 0.23702 0.209441
-0.0991318 0.0839791 0.313701
0.0906764 0.15818 0.313701
-0.321103 0.215871 0.207268
-0.364636 -0.233976 0.0963656
0.105684 -0.103773 0.313701
0.374682 -0.211616 0.207463
-0.377489 -0.0100338 0.313701
-0.337129 0.112468 0.313701
0.204604 -0.105245 0.318721
-0.346557 0.0665242 0.318721
0.38017 0.119431 0.208185
-0.0278066 -0.108781 0.318721
-0.368914 -0.0467798 0.199192
0.415932 0.166012 0.321231
-0.232293 -0.220687 0.317457
0.176155 -0.210739 0.198851
0.365243 0.234583 0.115425
0.2012 -0.211323 0.313701
-0.382726 -0.239705 0.220544
-0.217233 -0.0571197 0.318721
-0.290458 0.145457 0.313701
-0.165126 0.248202 0.311192
0.170315 -0.103106 0.313701
0.0989644 0.23045 0.197489
-0.16961 0.238799 0.321231
0.233226 0.254511 0.321231
-0.078031 -0.236375 0.321231
-0.384145 0.0740018 0.206862
0.398616 0.221559 0.0360401
-0.30925 -0.256524 0.311192
0.0436177 0.2163 0.318721
-0.248477 -0.117147 0.318721
0.194751 0.102525 0.313701
0.408824 -0.14643 0.321231
-0.206973 -0.220687 0.31816
-0.0846289 0.186345 0.318721
-0.221829 0.228841 0.321231
0.398173 -0.0336903 0.311192
-0.370444 -0.0464983 0.193137
0.371487 0.17765 0.318721
0.0143037 -0.2366 0.311192
-0.251285 0.00322267 0.313701
-0.115093 0.127117 0.318721
0.0944872 0.229626 0.194417
0.210095 -0.24875 0.321231
-0.384443 -0.184847 0.321231
0.286848 0.250402 0.311192
-0.192733 -0.209559 0.313701
-0.17378 -0.260842 0.314883
0.375124 -0.239787 0.0440787
-0.40407 -0.221503 0.311192
0.378773 0.0584927 0.316379
0.0100138 0.166998 0.313701
-0.317588 -0.202198 0.318721
-0.263128 0.122429 0.313701
-0.305822 -0.141813 0.313701
0.199018 0.210491 0.318721
0.17824 0.041637 0.318721
0.368532 0.203503 0.165848
0.307126 -0.105327 0.318721
0.205408 0.21242 0.318721
-0.134783 -0.052328 0.313701
0.0590336 0.0280268 0.318721
0.221799 -0.094361 0.313701
-0.00074935 -0.0467863 0.318721
-0.358923 0.221531 0.0825242
-0.182577 0.106796 0.318721
0.147382 -0.2296 0.202722
0.0171646 0.151652 0.313701
-0.180962 0.256928 0.321231
0.202482 -0.222727 0.321231
0.181401 -0.230335 0.199981
0.3938 -0.208664 0.251274
0.133071 -0.0785382 0.318721
-0.0641073 0.216538 0.189595
-0.143787 0.24464 0.311192
0.0169782 0.105619 0.318721
0.196879 -0.048713 0.313701
-0.190802 0.181509 0.313701
0.397267 -0.214779 0.176359
-0.0662553 0.249619 0.321231
-0.357881 -0.225194 0.311192
0.0553807 -0.120516 0.318721
-0.397618 0.225283 0.213552
0.173102 -0.196834 0.318721
0.358736 0.0444578 0.318721
0.0101772 -0.178406 0.318721
0.0177742 -0.013172 0.313701
0.0299549 0.170448 0.318721
0.0234551 -0.172315 0.318721
-0.1968 -0.213291 0.313701
-0.30077 -0.218498 0.313701
0.176513 0.165047 0.313701
0.284815 0.22935 0.321231
0.294812 -0.0944016 0.313701
-0.266646 0.162496 0.313701
0.0840502 0.100472 0.318721
0.0648084 0.112412 0.313701
-0.0704536 -0.163441 0.318721
-0.359432 0.223429 0.0456727
0.213385 0.0269969 0.313701
-0.332953 -0.0427599 0.318721
0.218581 -0.113052 0.318721
0.366402 -0.235742 0.135653
-0.380558 0.248759 0.311192
-0.38384 0.0601758 0.321231
-0.267791 -0.132754 0.318721
0.215408 0.232511 0.321231
0.201469 0.0892857 0.318721
-0.00104132 -0.220687 0.315825
0.177264 0.131798 0.313701
0.360405 0.214314 0.164294
0.294027 -0.132872 0.313701
-0.14676 0.20964 0.313701
0.0957646 -0.0583452 0.318721
0.176247 0.140867 0.318721
0.382692 0.103539 0.189532
0.0313631 0.226976 0.321231
0.358716 -0.220756 0.113544
0.375001 0.160938 0.207548
0.371171 0.238728 0.0997661
0.135175 -0.207582 0.313701
0.361559 0.230898 0.0459485
0.0114838 0.137138 0.313701
-0.247073 -0.212595 0.204141
0.380541 -0.0490258 0.321231
0.392649 -0.194537 0.311192
0.382611 0.231785 0
0.108992 -0.230725 0.198525
-0.126806 0.148745 0.318721
0.366615 -0.00348571 0.313701
0.252609 0.138352 0.313701
0.164203 0.145582 0.313701
-0.334685 0.212482 0.318721
0.382849 0.212374 0.207467
0.118579 0.178332 0.313701
-0.384683 -0.0247159 0.206324
0.352543 -0.0133945 0.318721
-0.403236 -0.0253735 0.311192
0.0731893 -0.137716 0.318721
-0.362174 0.206703 0.318721
-0.319987 -0.0990415 0.318721
-0.0790434 -0.213576 0.19192
-0.378388 -0.200714 0.215304
-0.241864 0.168093 0.318721
0.389181 -0.0409224 0.321231
0.0384771 -0.108281 0.313701
0.373442 -0.0189692 0.19014
-0.346419 0.198008 0.313701
0.383684 0.152467 0.189799
0.0572548 0.214902 0.318721
0.395513 -0.210003 0.21091
0.300762 0.0532599 0.318721
0.200088 0.0962961 0.313701
0.169057 -0.185695 0.318721
-0.228993 -0.14603 0.313701
-0.304674 -0.216506 0.318721
-0.386089 0.186451 0.204918
0.368995 0.0334912 0.199492
-0.393975 -0.232912 0.113345
-0.278322 -0.0986942 0.313701
0.381329 -0.240079 0.182715
0.0199721 -0.220435 0.208492
-0.363113 -0.213133 0.204679
-0.218338 0.219057 0.313701
-0.375169 -0.201577 0.134888
-0.247778 0.0520695 0.313701
-0.321759 0.209968 0.313701
0.171814 -0.0872701 0.318721
-0.143103 -0.205243 0.313701
-0.396601 0.232967 0.321231
0.37465 -0.201716 0.0295477
0.173023 0.0131349 0.318721
0.108283 -0.0612452 0.313701
-0.260506 -0.176255 0.313701
0.232368 0.247974 0.311192
-0.226281 0.114923 0.313701
-0.0918623 0.199652 0.313701
-0.371831 -0.202471 0.018424
-0.165615 -0.240413 0.311192
0.235232 0.171046 0.318721
-0.121563 0.229368 0.321231
-0.127863 0.157679 0.318721
-0.285223 -0.20297 0.318721
0.207661 0.220687 0.313811
-0.312823 -0.0208697 0.313701
-0.254525 -0.183711 0.318721
-0.149631 0.138051 0.313701
-0.379684 -0.132943 0.188726
-0.386371 -0.21317 0.192405
-0.357335 -0.186665 0.313701
0.196621 -0.0141192 0.318721
-0.21933 0.0490035 0.318721
-0.0842137 -0.243167 0.321231
-0.375698 -0.180175 0.313701
0.375703 0.217463 0.272273
-0.0708401 0.180379 0.313701
-0.381834 -0.229268 0.321231
0.293238 -0.255873 0.321231
-0.0487111 0.121929 0.318721
0.217323 0.0275315 0.313701
0.021641 0.0657854 0.318721
-0.0559797 0.196138 0.313701
0.264685 -0.0937057 0.313701
-0.351281 0.0166287 0.313701
-0.377139 0.240326 0.121859
-0.197449 -0.0727807 0.313701
-0.144458 0.223976 0.189364
0.207253 -0.0779822 0.313701
-0.358199 0.039535 0.313701
0.000230253 -0.184887 0.313701
0.38158 0.240012 0.031815
0.376316 0.073805 0.18914
0.0830305 -0.181673 0.318721
-0.190894 -0.144874 0.318721
-0.155667 -0.214146 0.318721
-0.216413 -0.153937 0.313701
-0.0871777 0.0780084 0.313701
-0.374821 -0.20167 0.181348
-0.189813 0.113912 0.318721
-0.259934 -0.234493 0.321231
-0.0648896 0.0107777 0.318721
-0.359058 -0.222036 0.0566249
-0.0225203 -0.0241093 0.318721
0.227708 -0.0660897 0.318721
-0.212724 -0.135856 0.318721
0.0627975 0.168171 0.313701
0.369369 0.154847 0.200889
0.380128 0.132984 0.321231
-0.372555 0.224083 0.311192
0.224448 -0.0280693 0.313701
0.366317 0.223949 0.189356
0.0372781 -0.110367 0.313701
-0.157574 -0.201456 0.318721
-0.358774 0.220399 0.13694
0.170155 -0.17125 0.313701
0.0454499 -0.0408555 0.318721
-0.0858456 0.260842 0.319881
-0.205682 0.145384 0.313701
0.240689 0.211395 0.201303
-0.165147 0.193627 0.313701
-0.373075 0.239238 0.0419719
-0.0826541 0.193524 0.318721
-0.227232 -0.221852 0.311192
-0.363211 -0.127166 0.318721
-0.393452 0.207942 0.242853
-0.253058 0.0230028 0.313701
0.333064 -0.219818 0.188714
-0.289297 0.206725 0.318721
0.355199 0.195322 0.318721
-0.231559 0.0201586 0.313701
-0.113773 0.220687 0.31814
-0.135575 0.0387711 0.313701
-0.142046 0.132965 0.313701
0.0178013 -0.0934632 0.318721
0.0400254 0.208812 0.318721
-0.3148 -0.222476 0.20808
-0.143148 -0.173577 0.313701
-0.28271 -0.232937 0.321231
0.228539 0.12345 0.313701
-0.298344 -0.143108 0.318721
0.0488988 0.151221 0.318721
0.126132 -0.164548 0.318721
-0.0321001 0.230572 0.197943
-0.398647 0.21993 0.190689
0.352589 -0.100663 0.313701
0.150478 -0.0677954 0.318721
-0.21188 0.0628406 0.318721
-0.204002 0.25776 0.311192
-0.0335407 0.0375865 0.318721
-0.192453 -0.188395 0.313701
0.255021 -0.233977 0.321231
-0.198303 0.162749 0.313701
-0.378265 -0.0232027 0.188617
0.0200867 -0.157154 0.318721
-0.320844 0.180419 0.318721
0.0357214 -0.252365 0.321231
-0.0654431 -0.220687 0.319371
0.213465 -0.258399 0.311192
-0.367666 -0.211576 0.27849
0.351823 -0.102811 0.313701
-0.126357 -0.252623 0.311192
0.1114 -0.227208 0.311192
0.347705 0.205691 0.318721
-0.386032 -0.0879133 0.204975
-0.384119 -0.235061 0.321231
-0.123752 0.0896241 0.313701
-0.1916 -0.217479 0.207699
0.330235 0.15463 0.313701
-0.174363 0.0325444 0.313701
0.231783 0.220687 0.314842
0.370024 0.0476379 0.20333
-0.00346243 0.115806 0.313701
0.155497 -0.0961967 0.313701
-0.0525064 0.125681 0.318721
-0.112239 -0.21683 0.207526
-0.387883 -0.0300863 0.201989
0.251021 0.110581 0.318721
0.27218 0.132348 0.318721
-0.372328 -0.130217 0.191253
-0.265382 0.00661634 0.313701
0.295826 -0.245091 0.321231
-0.0690857 -0.204157 0.313701
-0.0760634 -0.102739 0.313701
-0.408222 -0.213939 0.311192
0.109746 0.254646 0.311192
0.406556 0.233058 0.317023
0.391053 0.205542 0.183457
0.191228 -0.237134 0.311192
0.102499 -0.126227 0.313701
0.00588587 0.226053 0.311192
-0.394209 0.147858 0.321231
0.0115766 0.196967 0.318721
-0.273191 -0.212918 0.318721
-0.378792 0.22435 0.250961
0.0827455 -0.119846 0.318721
0.417419 -0.212608 0.311192
-0.20377 0.260842 0.31343
-0.0474818 0.0636397 0.318721
0.193119 0.13689 0.318721
-0.105232 -0.0269374 0.313701
0.397362 -0.215133 0.194647
0.360878 -0.212548 0.226609
-0.185395 -0.139224 0.318721
-0.37924 0.257522 0.321231
0.0524226 0.229597 0.321231
-0.37213 -0.0370106 0.191452
-0.369938 -0.106677 0.194029
0.220526 -0.17889 0.313701
0.0379169 0.0373364 0.318721
-0.225797 0.231757 0.311192
-0.0589892 0.0323109 0.313701
0.314857 -0.0636505 0.318721
-0.241584 -0.197701 0.318721
0.288734 -0.109348 0.318721
0.14385 -0.189578 0.318721
-0.224784 -0.187907 0.318721
0.0664438 0.0138625 0.318721
0.385153 0.0201823 0.191187
-0.188065 0.0308084 0.318721
0.389297 -0.203786 0.155445
0.322358 -0.115494 0.318721
0.0517504 -0.242426 0.321231
-0.321899 0.197005 0.313701
-0.378773 0.0532667 0.320116
-0.169127 -0.230135 0.200725
-0.351867 -0.124651 0.313701
0.375197 -0.13322 0.189441
0.371335 -0.171314 0.204795
-0.104745 0.111751 0.318721
-0.371126 -0.0382071 0.313701
-0.360809 0.20449 0.313701
-0.388684 0.0696585 0.198041
0.251526 0.141703 0.313701
0.0655348 0.190295 0.318721
-0.116414 -0.0232516 0.313701
-0.116109 -0.0121945 0.318721
0.0396295 -0.24521 0.321231
0.0222865 -0.185969 0.318721
-0.354776 -0.237115 0.311192
0.369436 -0.238263 0.195877
-0.369008 0.155856 0.318721
-0.384573 0.219394 0.311192
0.380302 -0.214732 0.208149
0.0283756 0.00658262 0.318721
0.351678 -0.106695 0.313701
0.353596 0.220284 0.313701
0.238777 0.0887826 0.313701
-0.130443 0.132501 0.313701
0.0489042 0.0775177 0.313701
0.263917 -0.060127 0.318721
-0.396658 -0.228866 0.109601
-0.314263 0.246582 0.321231
-0.126892 -0.0552232 0.313701
0.0919716 -0.0362461 0.318721
-0.209998 -0.172373 0.313701
0.24479 0.0339127 0.318721
-0.177739 0.0811917 0.318721
-0.376677 0.240203 0.169088
-0.00578892 -0.181844 0.313701
0.00730145 0.00537132 0.318721
-0.357655 -0.112589 0.318721
0.0015879 -0.00112568 0.318721
0.351534 0.130961 0.318721
-0.299476 0.0246879 0.318721
0.0508827 0.174018 0.318721
0.370315 -0.236239 0.253544
0.0107109 0.0147635 0.313701
0.087402 0.100093 0.313701
0.244256 0.226938 0.311192
0.0816161 0.0387449 0.318721
0.374115 -0.170032 0.318721
0.360022 0.225631 0.0770111
-0.258182 -0.0625524 0.313701
-0.397097 0.142748 0.311192
-0.396039 0.230699 0.250961
-0.169675 0.142818 0.318721
0.402855 -0.0522019 0.321231
0.378129 0.0452756 0.188654
-0.370072 -0.238433 0.247329
0.383592 0.102521 0.189774
0.282976 -0.00759177 0.313701
0.0720714 -0.24038 0.321231
0.418927 -0.159424 0.313702
0.294091 0.113137 0.318721
0.377551 -0.240437 0.0986559
-0.00377849 -0.114337 0.313701
0.019722 -0.228105 0.204816
0.371009 0.00766996 0.204469
-0.122114 0.141015 0.318721
0.0216411 0.0597115 0.318721
0.119985 0.0944105 0.313701
-0.388659 0.227678 0.321231
0.124827 0.0544349 0.313701
-0.0900918 -0.0328064 0.313701
-0.0257176 -0.00826837 0.313701
-0.158461 0.196304 0.313701
0.315864 -0.0288766 0.313701
0.248271 0.0572759 0.313701
-0.0223953 0.221042 0.188576
0.415587 0.176511 0.311192
0.216724 0.259089 0.311192
0.398305 0.222722 0.0774642
-0.410699 0.0537848 0.321231
0.387744 -0.175818 0.202506
0.281046 0.00768363 0.318721
-0.227433 -0.086523 0.318721
-0.114237 0.103271 0.318721
-0.150343 0.0429408 0.318721
0.369939 -0.123364 0.318721
0.321428 0.235655 0.321231
0.37845 -0.240678 0.197735
-0.418927 0.208032 0.32073
-0.0216299 -0.0825505 0.313701
-0.191424 0.230309 0.200075
-0.175964 0.213332 0.204878
-0.36522 0.215174 0.20672
-0.235444 0.130474 0.313701
-0.371356 -0.199565 0.192225
0.181058 -0.0997349 0.313701
0.377852 0.115594 0.313701
0.355256 -0.226062 0.206859
-0.14439 -0.185103 0.318721
0.39652 -0.211992 0.20358
-0.155736 0.260842 0.320364
0.386058 -0.220687 0.196587
0.18602 -0.134746 0.313701
0.41095 0.193992 0.311192
0.19436 -0.229585 0.202777
-0.342818 0.142043 0.318721
0.388147 0.203123 0.23664
-0.39642 0.232645 0.311192
-0.0814721 0.165317 0.318721
0.233961 0.224436 0.321231
-0.343461 0.0578082 0.318721
-0.353289 -0.249545 0.311192
0.0135613 -0.171828 0.313701
0.362651 0.231991 0.00589197
0.157081 0.187333 0.313701
-0.361326 -0.230498 0.152049
0.409106 0.203037 0.321231
0.315868 -0.0183242 0.318721
-0.371792 -0.21448 0.262872
0.097515 0.0163545 0.318721
-0.285755 -0.217897 0.18923
0.391288 0.205777 0.122316
-0.153598 0.0738341 0.313701
0.31927 -0.0513674 0.318721
-0.359119 0.219114 0.082241
0.317726 -0.133133 0.318721
0.0176976 0.105876 0.318721
0.174496 -0.00539497 0.318721
-0.255106 0.153852 0.313701
0.296568 0.0867808 0.313701
-0.214748 -0.211159 0.196618
-0.204866 -0.0215388 0.318721
-0.107325 -0.141654 0.313701
0.195488 -0.200724 0.313701
-0.106808 -0.0512667 0.313701
-0.376713 -0.087043 0.189034
0.071414 -0.0528639 0.318721
-0.399242 0.240373 0.313761
0.373383 0.202055 0.0424878
-0.384375 -0.240703 0.321231
0.145933 0.205639 0.313701
-0.0659893 0.144216 0.318721
0.0925733 -0.181832 0.318721
0.0639531 0.210928 0.19956
0.158451 0.0754658 0.318721
-0.367184 -0.195194 0.313701
0.307998 -0.0325857 0.313701
0.313758 0.196675 0.318721
0.398125 0.217984 0.0794922
-0.372382 -0.239052 0.189717
-0.113123 0.0662247 0.313701
-0.0223472 -0.222991 0.207942
-0.414244 0.0739612 0.321231
-0.0183949 -0.0187165 0.313701
0.0550801 -0.0103603 0.313701
-0.148802 -0.0552604 0.318721
0.257175 -0.0651585 0.318721
0.383214 0.0790359 0.207369
-0.380273 0.0460085 0.188883
0.366767 0.236107 0.110493
-0.120245 0.217066 0.313701
0.184837 0.237041 0.321231
-0.20002 0.167935 0.313701
0.156186 -0.0448615 0.318721
-0.383828 -0.161236 0.321231
-0.0909349 -0.213001 0.313701
-0.340032 0.245959 0.321231
0.39571 0.218695 0.30084
0.365533 -0.234873 0.0396081
-0.0189859 0.260842 0.321206
-0.136178 0.213475 0.313701
-0.0797171 -0.219422 0.318721
-0.30206 0.0693644 0.313701
-0.0325204 -0.211001 0.318721
-0.0931522 0.15997 0.318721
-0.365991 0.141705 0.318721
0.0545067 0.0541409 0.318721
-0.343175 0.220687 0.313977
0.318819 0.0421448 0.313701
-0.321595 -0.22764 0.311192
-0.378069 -0.240575 0.106409
-0.302217 0.172252 0.313701
-0.0767647 -0.181834 0.313701
0.386731 0.238633 0.0898746
-0.15592 0.0383382 0.318721
0.199276 0.167145 0.318721
-0.126618 -0.0924585 0.313701
0.0658959 -0.0866655 0.313701
-0.121575 0.103325 0.318721
-0.174369 0.115466 0.313701
-0.152735 -0.0643352 0.313701
0.213033 -0.216126 0.318721
0.370673 -0.238594 0.129617
-0.372814 0.202208 0.210222
0.121683 -0.257798 0.321231
0.397918 -0.224166 0.175954
0.208039 -0.168475 0.318721
-0.362333 -0.231672 0.0416508
0.0297296 0.0942805 0.313701
0.418927 0.186278 0.318557
0.1083 0.0530414 0.318721
0.249006 -0.106694 0.318721
0.305358 -0.208695 0.313701
0.374845 -0.226064 0.190185
0.397925 0.22414 0.236562
0.378206 0.240612 0.0884553
-0.388329 -0.0669872 0.200322
-0.41002 -0.116307 0.311192
0.189057 0.132718 0.318721
0.396727 -0.22861 0.228692
-0.149731 -0.224482 0.321231
0.0439529 -0.109811 0.318721
0.183456 0.0802906 0.313701
0.277579 0.211114 0.200255
0.036906 0.23065 0.198238
0.378449 0.240677 0.138695
-0.0909804 0.226403 0.206518
-0.107206 -0.220687 0.315287
-0.206123 -0.169982 0.313701
0.397837 0.224466 0.0172456
0.39155 -0.235336 0.0265625
-0.298914 -0.181326 0.313701
0.3716 -0.202533 0.105459
-0.402607 0.0727749 0.321231
0.353762 0.245863 0.311192
0.0067704 -0.24411 0.321231
0.371396 -0.190536 0.204856
0.165732 0.164289 0.313701
-0.246824 -0.149948 0.318721
-0.168884 -0.214498 0.318721
-0.160069 -0.155672 0.313701
-0.317182 -0.175643 0.318721
-0.296864 -0.226822 0.321231
-0.104102 0.238444 0.321231
-0.376734 0.08602 0.208013
-0.258244 0.166737 0.313701
-0.376682 0.226699 0.311192
-0.292838 -0.200489 0.313701
0.355799 -0.0907948 0.318721
-0.039226 0.179027 0.313701
-0.0224826 0.104761 0.313701
0.149658 -0.10249 0.318721
0.289678 -0.172211 0.313701
-0.0987574 0.220687 0.318578
0.337537 0.115047 0.318721
0.297253 -0.00705546 0.318721
0.119774 -0.091737 0.318721
-0.180507 0.0686938 0.313701
-0.109055 -0.151644 0.313701
0.382879 0.0409563 0.189583
-0.0157471 0.150397 0.313701
-0.144078 -0.0564266 0.318721
0.104696 -0.0733362 0.318721
-0.051559 -0.196854 0.313701
-0.314412 0.223501 0.207805
0.289088 -0.172687 0.313701
-0.101373 -0.0680174 0.318721
-0.200751 0.0307274 0.313701
-0.0803063 0.124888 0.313701
0.0835696 0.10326 0.318721
-0.255159 0.0574997 0.313701
0.264137 -0.211936 0.313701
0.377063 0.07081 0.18894
-0.259669 0.172714 0.313701
0.0337676 0.175868 0.318721
-0.012109 0.206763 0.313701
-0.0216743 0.0522192 0.318721
-0.0993131 -0.0766433 0.313701
0.23189 0.211134 0.196712
-0.381317 0.0597468 0.321231
0.183059 -0.0295935 0.313701
0.0383748 0.128236 0.313701
-0.339922 0.0876107 0.318721
-0.0179807 0.0820826 0.318721
0.324445 -0.229925 0.19553
0.165927 0.227765 0.191886
0.360438 -0.214193 0.244788
0.412302 0.0904719 0.321231
-0.00391999 -0.134668 0.318721
0.104342 -0.204811 0.318721
0.335424 -0.21992 0.313701
0.362925 0.187485 0.318721
0.0396932 0.071135 0.318721
0.388452 0.0733754 0.311192
0.176964 -0.0668121 0.313701
-0.164452 0.035357 0.318721
-0.16496 0.246135 0.311192
-0.201461 -0.253677 0.321231
0.109231 0.161985 0.313701
-0.320621 0.135017 0.318721
-0.216728 0.210823 0.197875
-0.369569 0.233232 0.311192
0.366854 -0.205182 0.119287
0.305796 -0.0477609 0.318721
-0.0133282 0.138914 0.318721
0.312174 -0.162597 0.313701
-0.397488 -0.215606 0.114025
-0.394993 0.147918 0.321231
-0.362835 0.209201 0.23257
-0.325367 -0.220687 0.31755
0.220886 -0.124467 0.313701
-0.199866 0.260842 0.31441
-0.268432 -0.134049 0.313701
-0.199909 -0.202403 0.318721
-0.100244 -0.106841 0.313701
0.220693 -0.124846 0.318721
-0.118185 0.00334021 0.313701
-0.220156 0.0539317 0.313701
-0.258286 0.108599 0.318721
0.133534 0.123809 0.313701
-0.154664 0.0859739 0.318721
-0.370106 -0.0887943 0.313701
-0.396315 -0.209893 0.311192
-0.235215 -0.155972 0.318721
-0.123643 -0.204614 0.313701
0.392645 0.207135 0.167743
-0.384608 -0.104389 0.206399
0.385053 0.220687 0.197412
-0.105033 -0.211603 0.20208
0.0241173 0.196744 0.318721
-0.352391 0.042921 0.313701
-0.381425 0.186862 0.311192
-0.362196 -0.231535 0.167677
0.299269 0.248365 0.311192
-0.360153 0.215256 0.142764
0.049628 -0.0113642 0.313701
-0.0725936 -0.169549 0.318721
-0.277069 -0.0991637 0.318721
-0.388181 0.203132 0.109149
0.237891 0.0444472 0.318721
0.373031 -0.0506145 0.206491
0.122592 0.260842 0.313783
0.136275 -0.052404 0.318721
-0.322182 -0.217447 0.189351
0.37202 0.238955 0.109806
0.355623 -0.249032 0.321231
-0.0487688 0.0595582 0.318721
-0.226781 0.253331 0.311192
-0.33215 0.227428 0.205493
-0.377044 -0.202017 0.287596
-0.257602 0.0262791 0.318721
0.192358 -0.220687 0.31725
-0.369445 0.0312258 0.313701
-0.37863 0.200649 0.104704
0.261148 0.133509 0.318721
0.373673 0.219649 0.267759
-0.170232 -0.0474364 0.318721
0.366174 0.225376 0.258071
0.396461 -0.229604 0.189866
-0.346315 -0.0576329 0.318721
0.36674 0.250492 0.321231
0.396449 -0.211729 0.115813
0.17873 0.220718 0.188489
0.254083 0.0298853 0.313701
-0.119118 -0.157259 0.318721
-0.207026 -0.0283602 0.318721
0.388112 0.153908 0.311192
-0.328421 -0.0192706 0.318721
0.114299 -0.210784 0.199021
0.154392 0.182813 0.313701
0.393519 0.213083 0.321231
-0.313553 0.229862 0.195296
-0.0984128 0.254215 0.311192
-0.218854 -0.197637 0.313701
0.0647626 0.0369077 0.313701
0.248889 0.0457344 0.313701
0.369629 -0.16121 0.201859
-0.264825 0.202037 0.318721
-0.393693 -0.245922 0.31996
0.39798 -0.223934 0.15237
-0.0613603 -0.034236 0.318721
-0.370553 0.207602 0
0.356288 0.219654 0.188758
0.188216 -0.0740921 0.318721
-0.371187 -0.238732 0.223341
-0.293158 0.0302439 0.313701
-0.136555 -0.11411 0.318721
0.136127 -0.137095 0.313701
-0.418927 0.0722349 0.313375
-0.171762 -0.0793135 0.313701
0.368993 0.203232 0.0925205
0.246982 0.220687 0.316923
0.278864 0.260842 0.315182
0.219104 0.11529 0.313701
0.396714 0.22866 0.050801
0.385537 -0.0613427 0.311192
-0.359764 0.224669 0.0532445
-0.291801 -0.194473 0.313701
-0.0412793 -0.249802 0.311192
0.323621 -0.213797 0.205343
-0.30387 -0.230343 0.199948
-0.144594 -0.145001 0.318721
0.395755 -0.210245 0.21324
-0.302362 0.0534398 0.318721
-0.179042 0.0877036 0.313701
-0.0687024 -0.0756606 0.318721
-0.389588 -0.237299 0.207506
-0.065417 -0.130422 0.313701
-0.0285352 0.0606948 0.318721
-0.299061 0.0545996 0.318721
-0.235684 0.229941 0.195592
0.274827 0.0512238 0.318721
-0.377429 -0.085773 0.318721
-0.0516933 0.160031 0.318721
0.186868 -0.105069 0.318721
-0.396752 -0.228515 0.108424
-0.191095 0.0860596 0.313701
0.360028 0.219219 0.287616
0.18002 0.00184557 0.313701
-0.21185 -0.0155566 0.313701
0.272041 -0.211535 0.195215
0.195969 0.230703 0.198606
-0.22209 0.260842 0.311674
0.399772 0.154114 0.321231
-0.289105 0.0138374 0.318721
0.284565 0.0970296 0.313701
0.380796 0.204098 0.321231
-0.202944 0.230111 0.311192
-0.30647 0.0593146 0.313701
-0.101485 -0.0229813 0.313701
0.413529 -0.0482784 0.321231
-0.219387 0.00350314 0.318721
-0.373394 -0.202052 0.219994
-0.11894 -0.159549 0.318721
0.14493 0.243829 0.311192
-0.386991 -0.202813 0.175561
-0.101235 -0.0750207 0.318721
0.0289464 -0.0995716 0.318721
-0.398412 0.219055 0.233377
-0.175409 0.115364 0.313701
0.0384543 0.071191 0.313701
-0.176499 0.158231 0.318721
-0.389276 0.213514 0.305601
-0.414587 -0.133777 0.321231
-0.242104 -0.0778554 0.313701
-0.127097 -0.241683 0.321231
-0.36199 -0.211419 0.294134
0.203154 0.21178 0.194299
-0.0292718 -0.113146 0.318721
-0.249273 -0.205188 0.318721
-0.388337 0.129965 0.311192
-0.378773 -0.0982927 0.315246
0.311741 -0.206053 0.313701
-0.392543 0.240875 0.311192
-0.166578 0.155834 0.318721
-0.406771 0.171673 0.321231
-0.299483 0.225037 0.311192
0.371824 0.120039 0.191757
0.390562 0.205051 0.103968
0.370158 -0.0486144 0.193423
-0.12589 0.113008 0.313701
0.387638 0.176447 0.202904
0.397731 0.206628 0.311192
-0.393647 -0.233239 0.205156
0.0671001 -0.21226 0.313701
-0.0360951 -0.242992 0.311192
0.116606 0.0116872 0.313701
-0.38341 -0.201854 0.0189705
0.0270884 0.247117 0.321231
0.412139 0.0339228 0.311192
-0.259964 -0.0579149 0.318721
0.0421429 0.216606 0.318721
-0.300081 -0.0713782 0.313701
-0.385855 -0.0278452 0.19189
-0.18911 -0.0359289 0.318721
0.0224627 0.203457 0.318721
0.251483 -0.0539837 0.318721
0.308886 0.253439 0.321231
0.406383 -0.225712 0.321231
0.200731 -0.112207 0.313701
0.332209 -0.0979655 0.318721
0.231231 -0.0539427 0.313701
-0.0733366 -0.0477066 0.318721
0.287799 -0.124667 0.318721
0.371637 -0.189261 0.318721
0.39589 -0.222641 0.300207
0.328007 0.01332 0.318721
-0.137909 0.229908 0.201573
0.384105 0.239336 0.0784454
0.364804 0.215468 0.250961
-0.369464 0.124103 0.201241
-0.235527 -0.0255711 0.313701
0.306852 0.114079 0.318721
-0.224035 0.0906084 0.313701
-0.397488 -0.225771 0.160125
-0.0300275 0.0699466 0.313701
-0.25209 0.253832 0.321231
0.249413 0.0902033 0.313701
-0.385455 -0.156507 0.205552
0.40694 -0.0150965 0.311192
0.119455 0.22811 0.192231
-0.0696915 -0.201552 0.318721
-0.369415 -0.203118 0.180673
-0.329877 0.113446 0.318721
-0.411578 0.186191 0.321231
0.291772 -0.163369 0.313701
-0.132527 0.0326426 0.318721
0.0983766 0.133836 0.313701
-0.118144 -0.206746 0.318721
-0.277357 -0.162519 0.318721
0.418927 -0.19933 0.320866
0.355676 0.0603158 0.313701
-0.307564 0.0343441 0.313701
-0.392534 -0.207023 0.20485
-0.0109926 0.0710913 0.313701
0.0370831 -0.0942118 0.318721
-0.384341 0.202103 0.0178095
-0.272441 0.102704 0.318721
-0.314143 -0.0388891 0.313701
-0.349294 -0.0123887 0.313701
-0.205654 -0.187641 0.313701
-0.0581115 -0.106535 0.318721
-0.123453 -0.240493 0.321231
-0.32678 0.0672055 0.313701
0.385158 -0.0309872 0.191193
-0.158581 0.158369 0.313701
-0.356765 0.0405107 0.318721
-0.134259 -0.214313 0.191183
-0.376254 -0.234974 0.27865
0.246591 -0.25947 0.321231
-0.371722 -0.0959044 0.313701
0.194803 0.158513 0.313701
-0.246871 -0.227385 0.321231
-0.374726 -0.00214255 0.207475
0.348105 0.134936 0.313701
-0.393354 -0.228906 0.311192
0.21855 0.00285843 0.313701
-0.35911 0.222229 0.197596
0.137755 0.220687 0.314934
0.163015 -0.11175 0.318721
0.378773 -0.108246 0.31634
-0.0830059 0.168951 0.313701
0.204292 0.177845 0.313701
0.377436 0.0804547 0.208201
-0.106068 0.155964 0.313701
-0.365597 0.213392 0.192104
-0.345761 0.118715 0.318721
0.343912 -0.0712742 0.313701
0.369885 0.238383 0.160732
-0.284838 -0.135762 0.313701
-0.135793 -0.156508 0.313701
-0.24698 0.228308 0.204613
0.258137 0.00511147 0.318721
-0.38479 0.19211 0.206217
-0.282891 -0.230367 0.19718
0.0768678 -0.227207 0.205714
0.364046 -0.233386 0.207466
-0.207363 0.141795 0.318721
-0.235366 -0.246381 0.321231
-0.309076 -0.157143 0.318721
-0.348104 0.102623 0.318721
-0.0187588 -0.229611 0.20268
0.213067 -0.1549 0.318721
-0.0604989 -0.211992 0.193508
0.215202 -0.138778 0.318721
0.12235 -0.0154125 0.318721
-0.0905424 -0.181547 0.318721
0.365268 0.234608 0.138737
-0.0390375 -0.113677 0.313701
0.0840574 -0.0350347 0.318721
-0.348922 0.236787 0.311192
-0.186555 0.104413 0.318721
0.391802 -0.1366 0.311192
-0.362035 -0.231342 0.291202
0.0635621 0.0736153 0.313701
-0.338052 0.25275 0.311192
-0.0332579 0.04131 0.313701
0.211837 -0.213217 0.204763
-0.155319 -0.0114424 0.318721
-0.369102 -0.146574 0.199891
0.14148 0.0414042 0.318721
0.365109 -0.12365 0.318721
-0.365293 0.206743 0.0191164
0.406855 -0.163778 0.311192
0.286653 0.209101 0.318721
-0.201199 0.260842 0.31384
-0.178789 0.0599539 0.318721
-0.0915481 0.15963 0.313701
0.0859504 0.137091 0.313701
-0.353826 0.195769 0.313701
-0.369998 0.104147 0.318721
0.049025 -0.220687 0.315291
-0.14947 -0.111992 0.313701
0.28614 0.201897 0.318721
0.188122 -0.175469 0.313701
-0.119299 -0.168471 0.313701
-0.35899 -0.219593 0.194767
-0.365311 0.207661 0.250961
-0.204736 0.170765 0.318721
-0.229232 -0.172151 0.313701
-0.307498 -0.185055 0.313701
0.350361 0.163874 0.318721
-0.378773 0.166761 0.315642
-0.343098 -0.165281 0.313701
-0.373769 0.0844309 0.318721
-0.367782 0.234665 0.284401
-0.0292688 0.0792283 0.318721
0.208087 0.228915 0.204006
0.391248 0.221565 0.311192
-0.0771038 -0.218439 0.207957
0.222584 -0.257354 0.311192
-0.0327948 -0.146817 0.313701
0.361842 0.150581 0.318721
0.222262 0.206856 0.313701
0.149487 0.137015 0.318721
-0.0521979 0.0406931 0.318721
0.375851 0.171319 0.318721
-0.359922 -0.225259 0.106445
0.375618 -0.20277 0.318721
0.191371 0.0525146 0.313701
0.386866 0.137911 0.311192
-0.346605 -0.0345467 0.313701
-0.0959799 -0.206381 0.313701
0.209389 -0.148996 0.313701
0.382302 -0.111727 0.321231
0.222196 -0.224326 0.321231
0.14847 0.200576 0.313701
0.111981 -0.144732 0.313701
-0.371434 0.238798 0.250634
-0.108711 0.0851345 0.318721
-0.109699 0.206615 0.318721
-0.19694 0.215056 0.318721
0.273795 -0.258617 0.321231
-0.0461166 0.0709035 0.313701
0.223905 0.0534114 0.318721
0.290372 0.258243 0.311192
-0.377864 -0.236963 0.302021
-0.167013 0.228947 0.203974
-0.214809 0.0978342 0.318721
-0.392768 0.158234 0.321231
-0.106253 0.256078 0.321231
0.36894 -0.229651 0.202531
0.118543 0.236168 0.311192
0.402622 -0.214571 0.311192
0.370321 -0.0718336 0.313701
0.0901356 -0.221561 0.208325
0.0442956 -0.00921813 0.313701
0.231103 -0.222829 0.207985
0.401188 -0.180651 0.321231
-0.376572 0.157465 0.189072
0.0369654 -0.0243791 0.318721
-0.0469291 -0.0635904 0.313701
-0.194077 0.0748346 0.313701
0.402693 0.146038 0.321231
0.0744199 0.0209434 0.318721
0.0351609 0.00127149 0.313701
-0.0393248 0.186995 0.318721
-0.274052 -0.0134291 0.318721
-0.164332 0.11586 0.313701
-0.23884 0.232794 0.321231
0.332728 -0.149084 0.313701
-0.0646796 0.197785 0.318721
0.303105 0.226297 0.206624
-0.273915 0.0520546 0.318721
-0.237902 0.0534137 0.313701
-0.380019 0.082791 0.208225
0.351453 -0.230691 0.198389
0.165767 -0.256276 0.321231
-0.334801 0.0312984 0.318721
-0.308048 0.198654 0.318721
-0.272297 -0.111394 0.318721
-0.378773 -0.210312 0.319371
-0.365655 0.234996 0.0617505
-0.398401 -0.21901 0.0434488
-0.374615 0.228035 0.321231
-0.0555736 -0.144768 0.313701
-0.0426897 0.00825335 0.313701
-0.139076 0.0827082 0.313701
-0.0826644 -0.216068 0.313701
0.298474 0.21823 0.18914
-0.10577 0.260842 0.320536
0.395739 0.220062 0.311192
0.149579 0.18847 0.318721
-0.0785594 -0.252791 0.311192
0.311088 -0.135392 0.318721
-0.374919 -0.1447 0.313701
-0.00704685 -0.131261 0.313701
0.387884 0.0399185 0.311192
0.299326 0.195876 0.313701
0.332056 -0.257812 0.321231
-0.113857 -0.127527 0.313701
-0.266229 -0.200984 0.318721
-0.317163 0.202101 0.313701
-0.378315 0.147445 0.208436
-0.0965244 0.131434 0.313701
0.197257 0.223628 0.311192
0.102818 -0.170128 0.313701
-0.405317 -0.135409 0.311192
-0.174179 -0.217153 0.18943
-0.371859 -0.238912 0.0982969
-0.313978 -0.220687 0.316757
-0.127539 0.222629 0.189002
-0.0638025 0.0589961 0.318721
0.097837 0.20096 0.313701
-0.417004 0.124421 0.311192
0.00274894 -0.188936 0.313701
0.333819 -0.0907416 0.318721
0.0262479 0.0066992 0.313701
-0.018733 -0.232301 0.311192
0.044656 -0.136163 0.318721
-0.193559 -0.0971377 0.318721
-0.342558 0.180488 0.313701
0.1847 -0.244779 0.311192
0.358714 -0.220751 0.0307567
-0.283587 -0.215491 0.318721
-0.105521 -0.0701625 0.313701
-0.326871 0.222929 0.189083
0.371496 -0.230705 0.198598
0.0491008 -0.245445 0.311192
-0.00913116 0.166753 0.318721
-0.246586 0.212391 0.193104
-0.276134 -0.0491339 0.313701
-0.264794 -0.227045 0.205876
-0.0217561 0.132578 0.318721
0.211686 -0.0144745 0.313701
0.257127 0.113166 0.313701
-0.0810682 -0.0666552 0.313701
-0.0308375 0.0139973 0.313701
0.134611 0.215861 0.207266
-0.236521 0.152906 0.318721
-0.15964 -0.113445 0.313701
0.00756204 -0.192916 0.318721
-0.160985 0.219508 0.208243
0.0722707 0.109838 0.313701
0.408296 -0.203592 0.311192
-0.368122 0.103348 0.318721
0.190934 0.213953 0.205499
-0.343749 0.218234 0.313701
0.084974 -0.236335 0.321231
-0.39665 -0.213633 0.292272
-0.418578 0.0451657 0.321231
-0.412779 -0.202276 0.321231
0.387072 0.168203 0.193106
-0.185975 -0.0748751 0.313701
0.221792 0.142245 0.313701
0.0793607 0.220687 0.311268
0.1017 0.0902722 0.318721
0.382663 -0.157868 0.207517
0.315528 0.112178 0.313701
-0.110179 -0.230528 0.199259
0.397701 -0.224975 0.157193
-0.311546 -0.211719 0.202514
-0.373616 -0.201993 0.0680915
0.273082 -0.0526659 0.313701
0.219058 0.187819 0.318721
0.334306 0.126938 0.318721
-0.38315 0.239592 0.167344
-0.193558 -0.184622 0.313701
0.183004 -0.211679 0.194678
-0.144798 0.260842 0.316407
-0.402694 -0.231364 0.311192
-0.00431406 -0.186656 0.313701
0.371692 0.0260416 0.19189
-0.0301527 0.109058 0.318721
0.164215 -0.229872 0.195332
0.313538 -0.0385806 0.313701
0.398311 0.218676 0.164617
-0.385091 -0.195199 0.321231
-0.382008 -0.219748 0.271973
0.292948 -0.0192526 0.318721
0.0450788 0.115605 0.318721
-0.0455853 0.21891 0.313701
-0.140404 -0.0961898 0.318721
0.232628 -0.00620012 0.318721
0.385769 0.23889 0.221328
-0.162351 0.110405 0.318721
0.221967 0.0137296 0.318721
0.0465623 -0.211497 0.195356
0.179063 0.142657 0.313701
0.161824 -0.207623 0.313701
0.389539 0.202121 0.321231
-0.257313 0.0577817 0.313701
-0.204952 -0.230921 0.321231
0.318604 -0.228688 0.192808
0.381062 -0.228895 0.308828
-0.371135 -0.0125538 0.318721
-0.111301 0.259949 0.311192
0.270898 -0.220687 0.314062
-0.124747 -0.22512 0.321231
-0.0386671 -0.110675 0.313701
0.173593 0.200683 0.313701
0.275148 0.234427 0.311192
-0.0187398 -0.120731 0.318721
0.184871 -0.106652 0.318721
0.0796236 0.0727276 0.313701
-0.386532 0.130115 0.204475
-0.360828 0.212735 0.226593
-0.0498662 -0.160288 0.313701
-0.0350691 -0.252156 0.311192
-0.31626 0.226745 0.321231
-0.388116 -0.0248329 0.195923
0.33895 0.106681 0.318721
-0.221373 0.0463391 0.313701
0.378773 0.211259 0.311667
-0.0598021 -0.125154 0.318721
-0.230201 -0.25412 0.321231
0.0158165 0.142107 0.313701
-0.112743 0.126651 0.318721
0.266224 -0.253823 0.311192
0.0504092 -0.165227 0.318721
0.153643 -0.22984 0.195214
-0.417975 0.11382 0.311192
-0.151367 0.21144 0.195569
0.372172 -0.20238 0.125321
0.0642183 0.13499 0.318721
0.345905 0.220687 0.318509
0.35881 -0.220264 0.223088
-0.384835 -0.202235 0.0476587
0.110802 -0.0454445 0.313701
-0.127163 0.228197 0.192317
0.340598 0.260842 0.32059
0.097207 0.221938 0.188817
-0.175921 0.143478 0.313701
0.122807 -0.120458 0.313701
0.21005 -0.126606 0.318721
0.109845 -0.0225831 0.318721
0.398287 -0.218586 0.127208
-0.357016 0.259146 0.311192
-0.0600072 0.0696003 0.313701
0.376066 0.198188 0.313701
-0.354705 -0.129865 0.313701
-0.321392 0.189844 0.313701
-0.349094 0.260842 0.312341
-0.0185936 0.260842 0.311512
0.288214 0.241436 0.311192
0.00144991 -0.240544 0.321231
-0.359762 -0.216714 0.149654
0.079291 -0.119948 0.318721
0.294154 0.0706002 0.318721
0.1901 0.127625 0.318721
-0.380534 -0.209623 0.260723
0.0742496 0.117632 0.318721
0.398019 0.223789 0.0938777
-0.332353 -0.0203389 0.313701
-0.099917 0.188354 0.318721
-0.378773 -0.0240466 0.312467
0.38989 -0.204379 0.199552
-0.407133 0.0106754 0.321231
-0.370659 0.214483 0.318721
-0.291449 -0.171896 0.318721
0.00744969 0.225174 0.207357
-0.332632 0.18115 0.318721
-0.396789 0.116505 0.311192
0.137836 0.161976 0.313701
0.220451 0.260452 0.311192
-0.0159049 0.119846 0.318721
-0.0740759 -0.220687 0.316663
0.211551 0.0337467 0.318721
0.388408 0.238183 0.249538
-0.387975 -0.063172 0.195398
0.0597816 -0.125468 0.313701
0.0531833 -0.244884 0.321231
-0.232704 0.166083 0.313701
0.378773 0.0702929 0.32099
-0.230527 0.221665 0.311192
-0.242112 -0.109906 0.318721
0.101647 -0.12938 0.318721
-0.326047 -0.234941 0.321231
-0.369724 -0.101692 0.202213
0.215474 -0.0980497 0.318721
-0.0670517 -0.0171033 0.318721
0.165226 0.159056 0.313701
-0.170161 0.220687 0.320691
0.335745 -0.214575 0.190921
-0.388338 0.21781 0.308205
0.418927 0.21139 0.314372
-0.10221 0.052015 0.318721
0.237224 0.249265 0.311192
0.378773 -0.199371 0.316068
0.13185 0.259207 0.321231
-0.408734 0.00981289 0.311192
0.242279 0.0179733 0.318721
-0.00636002 -0.114882 0.318721
-0.376516 -0.240159 0.0619967
-0.152682 -0.228468 0.192588
-0.12789 0.181679 0.318721
-0.0736959 0.214513 0.206059
0.346596 0.211072 0.196943
-0.371032 0.229074 0.193194
0.353731 0.188993 0.313701
-0.101355 0.0638771 0.318721
-0.336502 0.0488117 0.313701
-0.326331 -0.230263 0.196793
0.191105 0.244729 0.321231
-0.360392 -0.214363 0.203832
0.0699914 0.00367516 0.313701
0.346964 -0.245093 0.311192
-0.365989 0.220687 0.315032
-0.35231 0.211481 0.201625
0.200911 0.252214 0.321231
-0.098471 -0.00456332 0.313701
-0.12206 -0.23723 0.321231
-0.221749 0.256818 0.321231
-0.388084 0.192104 0.321231
-0.135456 -0.051448 0.313701
-0.142293 0.222488 0.188964
-0.170498 0.0210199 0.318721
0.386198 0.2026 0.0341412
0.166086 0.247347 0.311192
0.230391 0.0782292 0.313701
-0.234055 0.0450588 0.318721
-0.389393 0.206167 0.28487
-0.0646989 0.00391296 0.318721
-0.225399 -0.179633 0.313701
0.0353134 -0.227271 0.20565
-0.0780365 0.25227 0.311192
0.0336668 -0.135537 0.313701
-0.00597268 0.0755901 0.313701
0.000288516 0.119477 0.318721
-0.381216 0.0506063 0.207904
0.369218 -0.223191 0.273915
0.402307 0.148243 0.311192
-0.149835 0.0138848 0.313701
0.339869 0.144735 0.318721
0.065435 -0.229226 0.193346
-0.387912 0.22675 0.307413
0.393695 0.208184 0.0439262
-0.0568175 0.13968 0.313701
-0.0742245 -0.215396 0.206942
-0.155441 0.254668 0.321231
-0.356678 -0.00857167 0.313701
-0.119814 -0.0886339 0.318721
0.352397 0.0323196 0.313701
-0.224328 -0.244426 0.321231
0.18608 0.000879243 0.318721
0.00464928 0.12252 0.313701
-0.213001 0.223265 0.207868
-0.387081 -0.15864 0.311192
0.0169576 0.0785623 0.313701
-0.312995 -0.0396364 0.318721
-0.370452 -0.205661 0.280945
-0.0286488 0.0909326 0.313701
0.395515 0.231371 0.020029
-0.108603 -0.220687 0.315274
-0.405585 0.072617 0.321231
0.174652 -0.231766 0.321231
0.366167 0.0954592 0.313701
-0.297795 -0.170444 0.313701
-0.197211 0.0937944 0.318721
0.18089 0.207365 0.313701
-0.0682321 -0.253898 0.321231
0.159486 -0.21076 0.19811
0.378773 0.165771 0.318349
0.360481 -0.227345 0.211876
-0.0855662 0.128469 0.313701
0.3775 -0.240423 0.0193928
0.359751 -0.216756 0.203456
0.259803 0.116287 0.318721
0.391628 -0.206462 0.250961
-0.297325 0.235963 0.321231
-0.0881624 -0.095944 0.313701
-0.36154 0.230879 0.219451
-0.361081 0.229586 0.248723
-0.378773 -0.13628 0.318418
0.0230847 0.222753 0.311192
0.36809 -0.0361969 0.318721
0.389349 -0.203838 0.0583933
-0.0210289 0.237359 0.321231
-0.17252 0.124457 0.313701
0.345612 0.22326 0.321231
-0.103319 -0.0367745 0.313701
0.171913 -0.0635033 0.313701
0.0659189 0.121508 0.318721
0.359419 -0.223381 0.219249
0.0184481 0.254497 0.321231
-0.203206 0.222375 0.321231
-0.051655 -0.000988573 0.313701
0.297976 -0.161966 0.318721
-0.227491 -0.172932 0.318721
0.241792 0.218505 0.189067
-0.147952 -0.20484 0.313701
0.112268 -0.225104 0.207376
-0.249838 -0.203508 0.318721
-0.0650754 -0.0559365 0.313701
0.323363 0.152877 0.318721
-0.0806971 -0.0296983 0.318721
0.276306 -0.0710366 0.318721
-0.281521 -0.0398716 0.313701
0.394118 -0.195164 0.321231
0.273458 0.230185 0.196501
0.380313 -0.00759454 0.311192
0.359585 -0.217375 0.138118
0.372163 -0.0292866 0.191418
0.234136 -0.210814 0.313701
-0.299912 0.0237979 0.313701
-0.34701 0.186415 0.313701
-0.38013 0.0624213 0.188845
0.158475 -0.223993 0.189368
0.322993 -0.251472 0.321231
-0.0518574 0.127554 0.313701
0.38602 0.122509 0.321231
-0.130547 -0.0164087 0.313701
-0.31288 -0.149773 0.318721
-0.403628 0.235987 0.31267
-0.0528674 0.0158356 0.313701
-0.402342 -0.012955 0.311192
0.328151 -0.0957448 0.318721
-0.0822675 0.129605 0.318721
0.131194 0.0716845 0.313701
0.227574 0.236054 0.311192
0.00314042 -0.235012 0.321231
-0.212297 0.11069 0.313701
0.26546 -0.0826572 0.318721
-0.372692 -0.215973 0.313701
-0.225449 0.158697 0.318721
-0.251969 0.0861455 0.318721
0.0567043 -0.020706 0.318721
0.196508 -0.149002 0.318721
-0.346446 0.201736 0.318721
0.157163 -0.013464 0.318721
0.396735 0.212797 0.248096
-0.334124 -0.215046 0.206592
-0.21931 0.069503 0.313701
0.0890469 -0.00301388 0.313701
0.194432 0.231519 0.311192
-0.36933 0.00141045 0.200742
-0.365379 -0.0228814 0.318721
0.22971 -0.111786 0.318721
0.392699 0.210828 0.281168
-0.348494 0.105426 0.313701
-0.331243 0.118827 0.313701
-0.296526 0.0341745 0.313701
-0.37928 -0.240628 0.194759
-0.0421601 0.0729386 0.313701
-0.0244137 0.0643351 0.313701
0.0331377 0.0372667 0.313701
-0.0544731 0.107866 0.313701
0.219972 0.0276835 0.313701
0.225521 0.0492461 0.313701
-0.106861 -0.211827 0.194124
0.280216 0.0167772 0.318721
0.0636344 0.123408 0.318721
0.378055 0.240572 0.0925138
-0.114054 0.191102 0.318721
-0.356599 -0.228839 0.192959
-0.263352 -0.232647 0.321231
-0.0727722 0.12567 0.318721
-0.358298 0.0334917 0.313701
0.173841 0.196801 0.318721
-0.171041 0.142329 0.313701
0.304214 -0.22077 0.321231
-0.264258 0.000448689 0.318721
-0.231015 -0.016035 0.318721
-0.108126 -0.076273 0.318721
0.369289 -0.193454 0.200592
0.384498 0.209171 0
0.360951 -0.216804 0.286587
0.335097 0.116565 0.313701
0.317519 -0.230524 0.197766
0.286804 -0.0112692 0.313701
-0.127022 -0.105285 0.318721
0.0376506 -0.219208 0.313701
0.0406919 0.180692 0.318721
0.151489 -0.217574 0.207725
-0.378624 0.109714 0.188521
-0.289259 0.213793 0.313701
-0.397064 -0.214022 0.238651
-0.388585 -0.238136 0.156456
-0.00499412 -0.221771 0.321231
-0.186033 0.163976 0.313701
-0.406705 0.0667633 0.321231
0.0706465 -0.180591 0.313701
0.058471 0.104422 0.313701
-0.379726 -0.205585 0.250961
-0.0638144 0.115351 0.318721
0.0247145 -0.19762 0.313701
-0.128788 -0.220687 0.311381
-0.0667493 0.127479 0.318721
-0.224248 0.200172 0.313701
0.218083 -0.260842 0.313684
-0.169013 -0.218277 0.207913
0.0108702 -0.220687 0.316936
0.0347589 -0.210736 0.1982
-0.155807 -0.0269994 0.318721
0.352271 0.234246 0.311192
-0.386423 -0.238715 0.0471858
0.370068 -0.238432 0.113803
0.308922 0.220687 0.313141
0.387579 0.0177352 0.311192
0.0284595 0.197628 0.318721
0.381934 0.239917 0.220588
0.207824 0.0810831 0.318721
0.158011 0.0974227 0.318721
0.266245 -0.142842 0.318721
0.139906 0.221815 0.311192
-0.0618588 -0.0686363 0.318721
0.161088 0.230509 0.321231
-0.372587 -0.107064 0.318721
0.230743 0.00517304 0.318721
0.135248 -0.224498 0.321231
0.0300183 0.177828 0.313701
0.370849 -0.202734 0.153381
-0.173198 -0.0300807 0.313701
-0.101851 0.214672 0.206218
0.00578719 0.0521608 0.318721
0.359695 -0.224412 0.0983546
-0.391489 -0.235397 0.02611
-0.0969641 0.258036 0.321231
-0.193142 -0.175587 0.318721
0.387925 -0.0167266 0.19521
0.389463 -0.0347652 0.311192
-0.0239351 0.210798 0.318721
0.364035 0.233375 0.154389
-0.021583 0.218072 0.207858
0.266022 0.210751 0.198143
0.340917 -0.187669 0.313701
0.387948 -0.113 0.195297
0.361126 -0.211625 0.15226
-0.171704 -0.112983 0.313701
0.398851 -0.200096 0.311192
-0.256511 -0.176161 0.313701
0.0313209 -0.0929747 0.313701
0.0125174 -0.00105882 0.313701
-0.321257 -0.134925 0.313701
0.274323 -0.156088 0.318721
-0.361327 0.230502 0.163871
0.30082 -0.0889216 0.313701
0.382718 -0.22904 0.311192
0.381519 -0.23915 0.294395
-0.388143 0.238254 0.0159715
-0.064349 -0.229915 0.311192
0.346662 0.230437 0.199598
-0.121917 0.256489 0.311192
0.241962 -0.0161339 0.313701
-0.0965038 0.0226245 0.313701
-0.263089 0.247907 0.311192
0.398825 0.220595 0.0410612
0.0981563 0.0899628 0.318721
-0.165355 -0.153178 0.318721
0.400203 -0.0533776 0.321231
0.271383 -0.224782 0.207462
0.385406 -0.202388 0.0437236
-0.0745201 -0.0496641 0.318721
-0.410441 -0.055988 0.311192
-0.388535 -0.0919379 0.197487
0.18582 0.171443 0.318721
-0.382839 -0.0132526 0.321231
-0.225379 0.0342707 0.313701
0.328433 -0.154177 0.318721
-0.0579381 -0.260842 0.316003
0.0584082 -0.0638171 0.313701
0.210329 0.0820853 0.318721
0.39163 0.206119 0.085069
-0.0900704 0.0686553 0.318721
0.263258 0.0621109 0.318721
0.211778 -0.232924 0.311192
-0.362518 -0.203711 0.318721
0.0728381 -0.222311 0.208124
-0.135766 0.221426 0.208361
0.196506 -0.177537 0.313701
-0.217208 -0.223274 0.189175
0.397587 0.11638 0.311192
-0.206004 -0.0476863 0.313701
-0.269303 0.00726326 0.313701
0.378773 -0.136354 0.312552
0.38423 -0.148905 0.311192
0.344365 -0.208657 0.313701
0.384289 -0.239287 0.123976
0.389956 -0.236931 0.0424384
0.0146954 -0.200785 0.313701
-0.168693 -0.216751 0.189537
-0.159513 -0.234571 0.311192
-0.387958 -0.133733 0.195334
0.380616 0.148937 0.208065
-0.00483483 0.196271 0.313701
0.264964 -0.228727 0.321231
-0.0223378 0.229827 0.195164
0.0855908 -0.255114 0.321231
-0.0541118 0.141037 0.318721
0.209297 0.207131 0.318721
-0.275847 -0.217719 0.318721
-0.308274 -0.106456 0.318721
-0.370366 -0.105958 0.193215
0.0162343 0.242166 0.311192
-0.0695684 -0.240198 0.311192
-0.0206638 0.154675 0.318721
-0.391541 0.20603 0.128584
0.388275 -0.155077 0.321231
0.0862994 -0.213907 0.318721
0.375928 -0.162124 0.313701
-0.155113 0.00693631 0.318721
-0.110059 -0.0221234 0.313701
-0.391973 0.0227501 0.321231
0.281829 -0.204593 0.313701
-0.30869 -0.191208 0.313701
-0.141012 0.17384 0.313701
-0.387997 -0.135754 0.201563
0.0376354 -0.0850107 0.318721
0.370832 -0.186436 0.318721
-0.340054 -0.225513 0.189776
-0.0704583 -0.229131 0.321231
0.245461 -0.226841 0.20608
0.335602 -0.0863685 0.313701
0.320855 0.167869 0.313701
0.398188 -0.218216 0.0388523
-0.17724 0.0941824 0.313701
-0.0353267 0.0674182 0.318721
0.349702 -0.148536 0.313701
0.0626886 0.0941332 0.313701
0.30756 -0.189722 0.318721
-0.0914055 0.138529 0.318721
-0.387497 0.22052 0.203427
0.201817 0.197997 0.318721
0.177509 -0.25047 0.311192
0.392406 -0.233824 0
-0.0595167 0.0989931 0.313701
-0.133718 -0.173908 0.313701
-0.0850391 0.245904 0.321231
-0.236312 -0.074498 0.313701
-0.0763927 0.015378 0.313701
0.271868 0.101222 0.318721
0.0179528 0.0132264 0.313701
-0.00531292 -0.247075 0.311192
0.380312 0.212362 0.188894
0.13056 0.0296774 0.318721
-0.396947 0.213586 0.234276
-0.186684 0.215027 0.206573
-0.314487 -0.224611 0.207508
-0.372687 0.202242 0.224604
-0.0028387 0.211344 0.19593
-0.0669621 -0.127653 0.313701
-0.0382904 -0.26029 0.321231
-0.335498 0.100648 0.318721
-0.000355005 0.0385799 0.313701
-0.213987 -0.210979 0.19729
-0.282936 0.210747 0.198882
-0.379676 -0.200853 0.245885
-0.147216 -0.221409 0.321231
0.394301 0.176193 0.321231
0.389572 0.237315 0.193333
0.0472114 -0.00816546 0.313701
-0.354655 0.215748 0.189806
0.177795 -0.0309105 0.318721
-0.336709 -0.106709 0.313701
-0.387826 0.0647194 0.311192
0.00708982 0.212514 0.313701
0.396408 -0.229802 0.0356344
0.38607 -0.0545867 0.311192
0.394223 0.232663 0.23311
-0.0886225 -0.0136111 0.313701
0.0719346 -0.144669 0.318721
0.386428 -0.0130636 0.321231
-0.371015 0.00708744 0.313701
-0.0982478 -0.211388 0.318721
0.373596 0.239377 0.196857
-0.0417758 -0.0102949 0.313701
0.225256 -0.0732969 0.313701
0.130964 0.0489108 0.313701
-0.063121 0.247769 0.311192
-0.254883 0.227055 0.321231
0.360393 -0.214361 0.0808008
0.175201 -0.167936 0.313701
-0.372473 0.145927 0.205933
0.352974 0.193395 0.318721
0.360573 0.118787 0.318721
