-0.293528 0.187904 0.260748
0.189511 0.216303 0.238524
-0.219886 0.236839 0.160237
-0.131056 -0.100186 0.266674
0.222877 -0.0920528 0.231117
0.268707 -0.34075 0.265844
0.0285847 0.173892 0.266674
-0.162702 0.336475 0.260748
-0.200554 -0.338257 0.260748
0.00217947 -0.151217 0.260748
0.338813 0.21959 0.266674
0.333806 -0.0262194 0.266674
0.130298 0.0245181 0.260748
0.000618309 -0.188816 0.260748
-0.0540636 -0.340307 0.260748
-0.339701 -0.100031 0.266674
0.2234 0.324545 0.266674
-0.224781 -0.00773104 0.231117
-0.036959 0.322795 0.266674
0.120374 -0.219265 0.23527
-0.281359 -0.216781 0.266674
-0.228155 0.0803179 0.232014
-0.228155 0.137441 0.243154
-0.218071 0.256293 0.260748
0.131745 0.126154 0.266674
-0.130727 -0.34075 0.261663
-0.233476 -0.231853 0.0947211
0.236925 0.220877 0.159347
0.05152 -0.0662908 0.260748
0.173534 -0.279976 0.266674
-0.227559 -0.164494 0.231117
0.215257 -0.235261 0.0833762
0.214716 -0.196339 0.266674
0.130308 0.261255 0.260748
-0.0553726 0.112952 0.266674
0.225191 0.00719212 0.241262
-0.33072 0.106082 0.260748
0.34075 0.119236 0.262401
-0.0302532 0.236102 0.266674
0.268728 0.193631 0.260748
-0.339534 0.251603 0.260748
0.34075 -0.294781 0.264193
-0.0459574 -0.0387902 0.266674
0.0523598 0.079636 0.266674
-0.194424 -0.243904 0.266674
-0.0476228 -0.162929 0.260748
0.020769 -0.279867 0.260748
-0.14369 -0.0232773 0.266674
0.288882 -0.107141 0.260748
-0.208509 0.216728 0.0713068
0.126367 -0.0655833 0.260748
-0.111178 0.283094 0.266674
0.062907 0.216483 0.231117
-0.139193 -0.169928 0.266674
-0.0500326 -0.255395 0.260748
-0.270408 -0.0566489 0.260748
-0.144928 0.157336 0.266674
0.225191 0.139093 0.231565
-0.224523 -0.236842 0.207737
-0.228178 0.23574 0.193771
-0.208402 -0.130176 0.266674
-0.281438 0.297311 0.260748
0.262834 -0.244415 0.266674
0.34075 0.284306 0.265219
-0.260496 -0.297533 0.266674
-0.261505 0.0406065 0.260748
0.267108 0.326426 0.260748
0.327304 -0.100054 0.260748
0.325942 0.0701075 0.260748
0.099272 0.170675 0.260748
0.0433383 0.270393 0.260748
0.0730728 -0.196214 0.266674
0.179392 -0.0683671 0.260748
-0.0456639 -0.228154 0.231771
-0.209249 -0.0625259 0.260748
-0.0824365 0.0157394 0.260748
0.234624 -0.230256 0.0526601
0.270089 -0.00318441 0.266674
0.187028 0.0590199 0.260748
0.066474 -0.147597 0.260748
0.165663 0.196519 0.260748
0.102207 -0.270343 0.266674
-0.34075 -0.163912 0.265716
0.240886 0.252725 0.260748
-0.334082 -0.048513 0.266674
-0.198098 0.0314778 0.266674
0.218165 0.222573 0
0.186164 -0.326138 0.260748
0.0040029 -0.257425 0.266674
0.151231 0.309323 0.266674
0.0734015 0.00682536 0.266674
-0.272673 0.14856 0.266674
-0.206619 0.311106 0.260748
-0.140399 -0.268372 0.260748
-0.0735733 0.17549 0.260748
-0.308066 0.206179 0.266674
-0.319703 -0.27482 0.266674
0.2318 0.210928 0.233158
-0.207698 0.219436 0.205499
0.0248684 0.337748 0.260748
-0.0993091 0.34075 0.260936
-0.279351 -0.132744 0.260748
0.198118 -0.00384253 0.260748
0.207605 0.22443 0.199969
0.0141705 -0.34075 0.2658
0.152688 -0.18572 0.260748
-0.00797722 -0.0918489 0.260748
0.024655 0.148248 0.260748
-0.174654 0.216303 0.253252
0.216601 0.0882295 0.231117
0.124834 0.0817786 0.266674
0.00374031 0.062548 0.260748
0.250485 -0.0615796 0.266674
0.236743 -0.225083 0.122846
0.00276333 -0.0293071 0.260748
0.171231 0.0826437 0.266674
0.262186 -0.183781 0.266674
-0.334135 0.279614 0.260748
-0.271006 -0.34075 0.264195
0.203298 -0.132787 0.260748
-0.183307 0.101004 0.260748
0.216728 -0.235948 0.240833
0.0870666 -0.25262 0.266674
-0.225699 0.207879 0.132235
-0.228614 0.195961 0.266674
0.19158 0.265034 0.266674
-0.0719239 -0.100663 0.260748
0.0972808 0.235047 0.260748
-0.0791032 -0.306129 0.266674
0.288957 0.251547 0.260748
0.268124 0.136591 0.260748
0.131454 -0.0212253 0.266674
-0.149254 -0.146755 0.260748
0.0366894 -0.228154 0.242244
-0.282438 0.237664 0.266674
0.0109003 0.198773 0.266674
-0.236585 -0.225674 0.0369605
-0.20102 -0.19706 0.266674
0.212215 0.211369 0.114072
0.097915 0.286793 0.260748
-0.164375 0.265699 0.266674
-0.0791869 -0.207952 0.266674
-0.339442 -0.223285 0.260748
0.234524 -0.292677 0.260748
0.163597 -0.229041 0.260748
-0.0539406 0.278435 0.266674
0.302411 0.0166923 0.260748
-0.180927 -0.224635 0.231117
0.0788852 0.113063 0.260748
0.208463 -0.227632 0.159533
0.185299 0.135147 0.266674
0.132677 -0.313526 0.266674
-0.0960211 -0.0523418 0.260748
-0.141142 -0.048906 0.266674
-0.248959 0.095156 0.266674
-0.29335 0.130515 0.260748
0.315334 0.170715 0.266674
-0.34075 0.163899 0.264649
0.0353923 0.0216721 0.266674
0.207445 -0.222594 0.0428932
0.164451 -0.116734 0.260748
-0.219265 0.0241371 0.235582
0.3237 -0.234318 0.266674
-0.237555 -0.173271 0.260748
-0.102813 0.125944 0.260748
-0.189085 -0.0117668 0.260748
0.283375 -0.29108 0.266674
-0.186493 0.170983 0.266674
0.223113 -0.178857 0.231117
-0.245174 -0.252287 0.266674
-0.0849749 0.0685246 0.260748
-0.114712 -0.238724 0.266674
0.240093 0.0356304 0.260748
-0.00353754 0.11472 0.260748
-0.230497 0.234457 0.0507399
-0.0254141 0.169953 0.266674
-0.169023 0.216303 0.23123
-0.0653488 0.225192 0.243681
-0.137569 0.0253619 0.266674
0.216302 -0.0396718 0.235771
-0.251673 -0.0967955 0.260748
0.220347 -0.207578 0.201196
0.0810886 -0.0633722 0.266674
0.293059 0.34075 0.2661
-0.34075 0.0552125 0.26594
-0.0939746 -0.151058 0.260748
-0.0141542 -0.297088 0.266674
-0.0149054 0.224898 0.231117
0.014713 0.252308 0.260748
0.245898 -0.13003 0.260748
-0.00352225 0.291751 0.266674
-0.243823 0.339723 0.260748
-0.209333 -0.214961 0.218839
-0.171245 -0.30747 0.260748
0.313859 -0.32747 0.260748
-0.252228 -0.0170909 0.260748
0.0607754 -0.305562 0.260748
0.211694 0.232567 0.0933636
0.209467 0.172087 0.260748
-0.296912 0.0755472 0.260748
-0.118075 0.193815 0.260748
0.125885 0.21651 0.231117
0.221851 0.207447 0.0141352
0.0149344 -0.0885198 0.266674
0.0904053 -0.112827 0.260748
-0.0438668 -0.0181839 0.260748
0.0333948 -0.117362 0.266674
-0.297303 -0.0306851 0.266674
0.00358059 -0.219265 0.234478
-0.176937 -0.0994014 0.260748
-0.34075 -0.0053969 0.265528
-0.0411189 0.0598239 0.260748
-0.214231 -0.286232 0.260748
0.283443 0.0538203 0.266674
-0.210913 -0.212671 0.128452
0.288424 -0.0805611 0.260748
-0.254317 0.189701 0.266674
0.232048 -0.323209 0.266674
0.128284 -0.107082 0.266674
0.294187 -0.150697 0.266674
0.119216 -0.219752 0.266674
0.017962 0.218294 0.231117
-0.301818 -0.0961687 0.260748
-0.236369 0.226481 0.238932
-0.250267 0.265189 0.260748
-0.0156882 -0.130153 0.260748
-0.151381 0.108115 0.260748
0.234821 -0.214482 0.250445
-0.30222 -0.174642 0.266674
0.292075 0.208336 0.266674
-0.302991 -0.0756197 0.260748
-0.163696 0.294286 0.260748
-0.0942439 0.238168 0.266674
0.205071 -0.249102 0.260748
-0.0704699 0.315526 0.260748
0.210707 -0.0707437 0.266674
0.160363 0.339641 0.266674
0.292322 0.0967767 0.260748
0.211258 0.101451 0.260748
-0.21322 -0.210519 0.166462
-0.282514 -0.173944 0.266674
0.0585574 0.309262 0.266674
-0.219265 -0.100016 0.23669
-0.307594 0.0234371 0.266674
0.118096 0.340007 0.266674
-0.239007 -0.210399 0.266674
-0.309965 0.307519 0.266674
-0.227135 0.236194 0.107116
-0.219265 -0.0558333 0.235434
0.129467 0.205279 0.266674
0.338055 -0.144799 0.260748
-0.235596 0.228486 0.00416148
-0.13434 0.316346 0.260748
-0.0866252 -0.265935 0.260748
0.063879 0.2548 0.260748
0.131617 0.16761 0.260748
0.181678 0.236918 0.260748
0.217418 -0.145902 0.231117
0.0587315 0.201655 0.260748
0.167773 -0.318024 0.260748
0.0448516 -0.259645 0.260748
-0.0177896 -0.210307 0.266674
-0.14671 -0.212564 0.266674
0.236698 0.219209 0.215228
0.157931 -0.219265 0.234614
-0.185997 -0.153976 0.260748
0.0260508 -0.16793 0.260748
0.253714 0.304612 0.266674
0.0640071 0.148539 0.260748
0.298507 -0.213991 0.260748
0.210723 -0.231528 0.131429
0.297214 0.2983 0.266674
-0.287244 -0.249312 0.260748
0.286974 -0.0401447 0.260748
0.0785082 -0.219265 0.236966
-0.230388 0.0590744 0.260748
-0.286113 0.33989 0.260748
-0.218685 -0.207898 0.0773328
0.211487 -0.212097 0.0830787
-0.207051 0.339555 0.266674
0.18948 -0.149931 0.266674
-0.14147 0.231361 0.266674
-0.234513 0.21404 0.177883
0.049684 -0.107324 0.260748
0.24583 0.149847 0.266674
0.0495335 -0.0276453 0.260748
-0.159678 0.189732 0.260748
-0.253285 -0.134631 0.266674
0.34075 0.0377946 0.264047
0.0922543 0.0698894 0.260748
-0.202154 0.135695 0.266674
0.216302 0.0466194 0.232478
-0.115127 -0.302385 0.266674
0.101979 -0.171561 0.266674
-0.0469934 0.204588 0.260748
0.204543 -0.0389164 0.266674
0.161987 -0.0778269 0.260748
-0.230444 -0.323483 0.266674
-0.217871 -0.23634 0.248607
-0.319811 -0.131216 0.266674
0.309722 -0.263327 0.260748
0.226555 -0.208108 0.0199116
-0.112206 0.0880878 0.266674
-0.234182 0.00492436 0.260748
-0.207414 0.224315 0.246349
-0.326368 0.23593 0.260748
0.140008 -0.263645 0.260748
-0.00110766 -0.224709 0.266674
-0.0857276 -0.0201067 0.260748
-0.0523851 -0.288799 0.260748
-0.216514 -0.208608 0.029802
0.207553 0.22383 0.0530252
-0.296627 -0.304786 0.266674
0.225191 0.180201 0.234363
0.210343 0.206779 0.266674
-0.105516 -0.11286 0.266674
0.235208 0.229315 0.133181
0.0895244 -0.029485 0.266674
0.309534 -0.282274 0.260748
0.163242 0.0265623 0.260748
-0.0455823 -0.0792787 0.266674
0.0979663 0.137803 0.266674
0.255967 0.236393 0.260748
-0.240467 0.129675 0.260748
0.209929 0.0778547 0.266674
-0.27281 0.207801 0.260748
-0.23139 -0.268756 0.266674
-0.0893765 -0.34075 0.264294
-0.163848 -0.229558 0.266674
-0.221069 0.119284 0.231117
-0.0791183 0.208048 0.266674
0.192679 0.301178 0.266674
-0.0441068 0.0206685 0.266674
-0.0300169 -0.24362 0.266674
-0.111271 0.173399 0.260748
0.236993 -0.00867134 0.260748
0.0404624 -0.192031 0.260748
-0.34075 0.0830776 0.264797
0.143815 0.0915276 0.266674
-0.219265 0.170336 0.235778
0.223724 0.236913 0.0315086
0.038527 0.110907 0.266674
0.0960338 0.0364887 0.266674
0.159489 -0.0381962 0.260748
-0.0360713 0.298256 0.266674
0.291442 -0.165606 0.266674
-0.185574 0.130785 0.260748
0.323444 -0.0663715 0.260748
-0.243269 0.299591 0.260748
0.0474477 -0.33674 0.266674
0.215286 0.237348 0.266674
-0.335414 -0.297299 0.260748
-0.239233 -0.0503693 0.260748
-0.055578 -0.129243 0.260748
0.247927 -0.0937271 0.266674
-0.000570804 -0.00346363 0.260748
-0.112272 -0.195908 0.260748
0.236095 -0.262423 0.260748
-0.174061 -0.266204 0.260748
0.208655 0.216413 0.159705
-0.21375 -0.102089 0.266674
-0.0195405 -0.335717 0.266674
0.109872 0.00436553 0.266674
-0.0560457 0.144742 0.266674
0.0972573 -0.308224 0.260748
0.0200077 0.303625 0.260748
-0.112673 -0.00183654 0.266674
-0.0608962 0.0485789 0.266674
0.34075 0.00934801 0.262434
0.0277267 0.0665858 0.260748
-0.0806278 -0.228154 0.233005
0.225191 0.115859 0.251747
0.0569207 -0.231797 0.260748
0.193361 -0.0999053 0.266674
-0.227609 0.207414 0.234757
0.218915 0.282047 0.260748
0.303622 0.129579 0.260748
-0.213756 -0.155652 0.266674
0.221805 -0.237006 0.0190771
-0.232869 -0.23246 0.174398
-0.0121166 0.34075 0.265766
-0.212718 -0.233586 0.119389
0.0423811 0.23094 0.266674
0.238377 0.197192 0.266674
0.161721 0.272821 0.266674
-0.177088 -0.0539562 0.266674
-0.00515711 0.230248 0.260748
-0.177139 0.0683924 0.266674
0.178774 -0.199762 0.260748
0.2667 -0.262709 0.260748
-0.303924 0.263514 0.266674
-0.0347131 -0.181083 0.266674
0.230922 -0.171703 0.266674
-0.318293 0.151443 0.266674
0.200976 -0.299475 0.260748
-0.214733 0.0887997 0.266674
0.332 0.252101 0.266674
-0.0494764 -0.22296 0.260748
0.210764 0.231587 0.233454
-0.243883 0.240396 0.260748
0.264903 0.11464 0.266674
-0.162043 0.00726452 0.266674
-0.021714 0.0892776 0.260748
0.153709 0.225192 0.233771
0.0918947 0.216303 0.232178
0.236953 0.221195 0.0917156
-0.279815 0.0151021 0.266674
-0.147271 -0.219265 0.240275
0.280291 0.0727225 0.260748
-0.208112 0.226569 0.100834
-0.118232 -0.137131 0.266674
0.196379 0.0153453 0.266674
0.216318 -0.235757 0.206048
-0.0804363 -0.247547 0.260748
0.0628315 0.0392341 0.260748
0.227652 -0.208472 0.152538
0.15244 -0.34075 0.261545
-0.0160917 -0.0479968 0.266674
-0.244722 0.160004 0.260748
-0.259447 -0.313815 0.260748
-0.228155 -0.201244 0.244201
-0.300575 -0.34075 0.265021
-0.208368 0.227427 0.143843
0.177729 0.167417 0.260748
-0.293475 -0.0050835 0.266674
0.225191 -0.11666 0.242949
0.124231 0.308167 0.260748
-0.324799 -0.192459 0.260748
-0.311835 -0.232287 0.266674
-0.161591 -0.338135 0.260748
0.29353 0.167058 0.266674
0.16575 -0.00782743 0.266674
-0.301076 0.0979956 0.266674
0.015595 0.0434549 0.260748
-0.181858 0.241935 0.266674
0.142467 0.0530009 0.260748
-0.0183491 0.141038 0.266674
0.0253111 -0.31189 0.260748
0.133071 0.230298 0.266674
-0.0822008 0.105518 0.260748
-0.270905 0.11627 0.260748
-0.1119 0.0570504 0.260748
-0.0752373 -0.0506552 0.266674
0.233703 -0.212885 0.0870621
0.078025 0.189838 0.266674
0.260248 0.274057 0.260748
-0.197731 0.277988 0.260748
0.0592308 0.34075 0.264245
-0.175601 -0.184028 0.260748
-0.196688 0.20453 0.266674
0.252229 0.0601504 0.266674
-0.114572 0.221018 0.260748
0.324325 -0.0502916 0.266674
-0.142594 -0.303656 0.266674
0.155253 -0.145514 0.260748
0.142737 -0.296069 0.260748
0.0244727 -0.0158001 0.266674
-0.235089 0.214883 0.0930471
-0.0150762 0.0522592 0.260748
-0.15893 0.0434906 0.266674
0.319327 -0.132852 0.260748
-0.0955074 -0.0822678 0.266674
0.216302 -0.0574421 0.238435
0.271467 -0.312322 0.260748
0.216302 -0.198206 0.2347
0.295096 -0.0122035 0.260748
0.261384 -0.161412 0.260748
-0.058871 0.252953 0.260748
-0.332178 -0.252783 0.260748
0.228687 -0.0530702 0.266674
0.321642 0.0991688 0.266674
-0.0445792 0.0928923 0.266674
0.105081 0.10797 0.260748
0.0759367 0.223431 0.266674
0.0710231 -0.278498 0.266674
-0.221646 0.159217 0.260748
0.206094 -0.220043 0.266674
0.319167 0.313164 0.260748
-0.223019 -0.0250817 0.260748
0.34075 0.186846 0.261131
-0.149879 0.216303 0.246085
0.00213015 0.165855 0.266674
-0.06295 0.34075 0.265023
-0.136372 0.127818 0.266674
-0.197633 0.00837395 0.266674
-0.19931 0.185723 0.266674
-0.319124 0.125158 0.266674
-0.233388 0.212515 0.0335483
0.233736 -0.212931 0.215468
-0.0793181 0.290203 0.260748
-0.0243213 0.272428 0.260748
-0.0976941 0.310339 0.260748
-0.0618842 0.206359 0.266674
-0.149519 -0.116277 0.260748
0.26671 -0.217527 0.260748
0.16156 0.148501 0.260748
0.258979 -0.0257941 0.266674
0.214904 0.209359 0.0795079
0.208738 0.02946 0.260748
0.130832 -0.164529 0.260748
-0.219265 0.109138 0.24985
-0.0176661 0.205882 0.260748
0.0264204 -0.0526811 0.266674
-0.0299145 -0.302047 0.260748
0.213276 0.14335 0.260748
-0.230635 0.273212 0.266674
-0.142786 0.276688 0.266674
0.195695 -0.176626 0.266674
0.213544 0.234166 0.149614
0.169816 -0.244278 0.260748
0.153469 0.230919 0.260748
0.140926 -0.209013 0.260748
-0.0546531 -0.19384 0.260748
-0.173172 -0.131089 0.260748
-0.208701 -0.216316 0.101985
-0.088974 0.151433 0.266674
0.104298 -0.0858862 0.260748
0.191592 -0.219265 0.242455
-0.114211 -0.275084 0.260748
0.336294 0.163002 0.266674
0.207882 -0.275399 0.260748
-0.235205 -0.119351 0.260748
0.214031 0.34075 0.261714
-0.261097 -0.199533 0.260748
-0.0859231 -0.183248 0.260748
0.0153479 0.119938 0.266674
-0.3397 0.20998 0.260748
-0.23686 0.224332 0.141827
-0.233614 0.0246728 0.266674
0.207612 -0.224499 0.178556
0.229003 0.223237 0.260748
-0.259571 -0.0728416 0.260748
-0.223508 -0.196015 0.231117
-0.087208 0.216303 0.24147
0.0410256 -0.00176528 0.266674
-0.148925 -0.0811051 0.266674
-0.12327 -0.0749944 0.266674
-0.287822 -0.276411 0.260748
-0.235862 -0.227915 0.226994
0.0671456 0.287798 0.260748
-0.031188 0.25777 0.260748
0.139432 -0.23818 0.260748
-0.212177 -0.233049 0.0352399
0.225149 -0.150606 0.266674
0.123141 -0.338208 0.260748
0.0806491 -0.220385 0.266674
-0.0981189 -0.219265 0.254536
-0.0330695 -0.10807 0.266674
0.0930687 -0.209634 0.266674
-0.0145175 -0.273062 0.266674
-0.228155 -0.0748385 0.235624
0.0190317 0.0914793 0.266674
0.141696 -0.219265 0.231823
-0.0231966 -0.0738528 0.266674
-0.215798 -0.235514 0.07273
0.336347 -0.264325 0.266674
0.244318 0.334052 0.260748
0.340641 -0.217869 0.260748
-0.0249425 0.111092 0.266674
-0.0294737 0.00510916 0.266674
0.290064 -0.235694 0.260748
-0.0845879 -0.123792 0.266674
0.262062 0.172161 0.260748
0.319387 0.202102 0.266674
-0.234191 -0.21358 0.114591
-0.126791 0.255175 0.260748
-0.113967 -0.0265636 0.266674
0.207997 0.226143 0.0264569
-0.312791 0.179638 0.266674
-0.27819 -0.0256148 0.266674
0.116976 -0.24462 0.260748
0.107779 -0.0564196 0.266674
0.0960679 -0.144859 0.266674
0.02903 -0.220431 0.266674
-0.114121 0.0209933 0.266674
0.252588 0.0123357 0.266674
-0.339095 0.304201 0.260748
0.216302 -0.0136681 0.233587
-0.210078 -0.220857 0.266674
0.0259863 -0.139959 0.266674
0.111197 0.0509368 0.266674
0.102518 0.199875 0.266674
0.184304 0.110377 0.260748
-0.231425 -0.21065 0.190897
-0.229519 -0.0848213 0.266674
-0.156824 0.312132 0.260748
0.219799 -0.0990534 0.260748
0.0567065 0.176667 0.260748
0.235582 -0.215945 0.186511
-0.253742 0.0717624 0.260748
-0.0389351 0.225192 0.237189
-0.0696691 0.000907063 0.266674
-0.191737 -0.0770862 0.260748
0.0516515 0.12553 0.260748
-0.235605 -0.215991 0.0117476
0.141836 0.00195199 0.266674
0.152803 0.119604 0.266674
-0.00158742 -0.314463 0.260748
0.216302 0.162582 0.244497
0.0820253 0.31 0.266674
0.225191 0.0707965 0.247097
-0.208089 0.217975 0.174053
-0.279339 0.275883 0.266674
0.0740362 -0.12982 0.260748
-0.233754 -0.212956 0.134585
0.301992 0.228295 0.260748
0.269241 -0.12914 0.260748
0.222 0.0539046 0.260748
0.304621 0.27236 0.266674
-0.187624 -0.219265 0.259765
0.118711 0.277504 0.260748
0.160973 0.0641763 0.266674
-0.244638 0.213766 0.266674
-0.205282 -0.0361603 0.266674
-0.166959 0.140721 0.266674
-0.219265 0.057842 0.241347
0.0737903 -0.04501 0.260748
0.136195 -0.123889 0.266674
-0.0559708 -0.313445 0.260748
0.271731 0.214844 0.266674
-0.303277 0.231738 0.260748
-0.235852 0.21652 0.208488
-0.22105 0.236941 0.074869
-0.236251 -0.15525 0.266674
-0.264425 -0.224215 0.260748
0.217338 -0.208259 0.118912
0.230164 0.209767 0.195754
-0.11362 0.144143 0.266674
-0.135945 0.207748 0.266674
0.267191 0.0337879 0.260748
-0.0337929 -0.219265 0.245863
0.118058 -0.125084 0.260748
0.223736 -0.127552 0.266674
-0.0395872 0.133417 0.266674
0.0880169 0.265084 0.260748
0.240038 -0.238426 0.260748
-0.133802 -0.192958 0.266674
0.106376 -0.228154 0.246355
-0.244888 -0.337356 0.260748
0.203069 -0.340511 0.260748
0.14879 0.175354 0.266674
-0.135555 -0.237767 0.260748
-0.207611 -0.224483 0.149867
-0.0951323 0.0400712 0.260748
0.032826 0.208228 0.260748
-0.0629217 -0.270248 0.260748
0.0658927 0.0590829 0.266674
0.00155687 0.317314 0.260748
0.317238 0.0447272 0.266674
0.279736 0.283435 0.260748
-0.26589 0.316791 0.266674
-0.214963 0.235126 0.0194398
0.178946 0.324173 0.260748
0.208134 -0.226654 0.221026
0.337298 -0.328295 0.260748
-0.289369 0.0398249 0.260748
0.220183 0.236865 0.0686657
0.223435 0.112313 0.231117
0.0747165 -0.0915218 0.260748
-0.196632 -0.170467 0.266674
0.288566 -0.332444 0.260748
0.0423117 0.321528 0.260748
-0.31443 -0.0425799 0.266674
0.2218 -0.0181406 0.260748
0.225191 -0.16245 0.24832
-0.336627 -0.0752778 0.260748
-0.0855252 0.258171 0.266674
0.121648 -0.193172 0.266674
-0.257548 -0.158578 0.260748
0.325912 -0.310354 0.266674
0.222879 0.0100628 0.266674
-0.209748 0.0534982 0.266674
0.0161097 0.285506 0.266674
-0.224692 0.325154 0.266674
-0.0626163 -0.146564 0.260748
0.305237 -0.0551213 0.260748
0.0135227 -0.0658708 0.260748
0.0493542 -0.162695 0.266674
-0.164718 -0.0280126 0.266674
0.314757 -0.162523 0.260748
0.226742 0.123098 0.266674
0.251063 -0.292222 0.266674
0.169745 0.216303 0.248585
-0.137651 -0.00132871 0.260748
-0.236435 -0.218223 0.0620915
-0.309114 -0.210532 0.266674
-0.26658 0.244947 0.266674
0.0703681 -0.323027 0.260748
-0.1157 -0.165828 0.260748
-0.310571 -0.0157995 0.266674
-0.0725873 -0.167897 0.266674
-0.266706 0.00139889 0.260748
0.224642 0.207625 0.148807
-0.284069 -0.0788325 0.260748
0.121635 -0.0376082 0.260748
-0.157068 -0.282974 0.266674
-0.124064 0.042367 0.260748
-0.0167741 -0.164296 0.266674
-0.274708 0.18124 0.266674
0.338268 -0.119718 0.266674
0.214113 0.209893 0.247235
-0.332667 0.0300525 0.260748
0.243928 -0.34075 0.262718
0.285129 -0.190206 0.260748
0.30479 0.0578612 0.260748
-0.21367 0.234254 0.224847
-0.119937 -0.0453303 0.260748
0.22877 0.182234 0.260748
-0.274569 0.0617711 0.266674
0.221388 -0.207486 0.0611104
0.265911 -0.110527 0.266674
-0.212321 -0.251104 0.266674
0.0409557 0.295952 0.260748
-0.188613 0.0783907 0.260748
-0.0314868 -0.14527 0.266674
0.209596 -0.220657 0
-0.277035 0.0832742 0.266674
-0.219265 -0.0316407 0.233375
-0.046362 0.164382 0.260748
-0.22396 0.232743 0.260748
-0.311139 -0.152567 0.260748
0.0831893 -0.162846 0.266674
0.0249705 -0.259814 0.260748
0.269994 -0.0591225 0.266674
-0.278825 -0.104014 0.260748
-0.320094 0.0700959 0.266674
-0.269209 -0.260191 0.266674
0.234174 0.230899 0.108916
0.312908 -0.0853002 0.260748
0.000376672 -0.118024 0.266674
0.139522 0.333932 0.260748
-0.094739 0.195658 0.266674
0.0429013 -0.280903 0.266674
0.0519197 -0.131959 0.260748
-0.300432 0.287311 0.260748
0.186124 0.187423 0.266674
-0.126934 0.108033 0.260748
-0.131225 0.338706 0.266674
-0.216289 0.289999 0.266674
-0.114093 -0.326492 0.266674
0.107533 -0.0182765 0.266674
0.177755 -0.043448 0.266674
0.232644 -0.232684 0.100329
-0.237835 -0.291978 0.266674
-0.0342596 0.216303 0.256839
-0.236977 -0.222991 0.249513
0.0846344 -0.292254 0.266674
-0.208336 -0.227356 0.195689
0.253801 0.210884 0.266674
-0.305794 -0.116423 0.260748
0.233699 -0.231577 0.0774389
-0.199497 -0.109592 0.266674
0.235313 -0.229089 0.146419
-0.0581976 0.299677 0.266674
0.113351 0.153985 0.260748
-0.175579 0.0295253 0.266674
-0.233494 0.212621 0.0597913
0.056664 -0.219265 0.23765
0.0190794 0.228342 0.266674
-0.308403 0.34075 0.265615
-0.304274 -0.263046 0.266674
-0.222303 -0.18729 0.266674
0.278793 0.0189011 0.260748
-0.211623 -0.232495 0.226869
0.042161 0.216303 0.238393
0.0444996 -0.219265 0.260658
0.225191 -0.0271312 0.248916
0.321721 0.00667015 0.260748
0.163125 -0.166539 0.266674
-0.105033 0.106252 0.266674
-0.21935 0.207721 0.109431
-0.155379 -0.194476 0.260748
0.212024 -0.316605 0.260748
0.150512 0.252896 0.266674
0.280281 0.308395 0.266674
-0.339496 0.131742 0.260748
-0.180299 -0.288804 0.260748
0.14466 -0.0933923 0.260748
-0.228155 -0.038454 0.248761
0.150102 0.216303 0.252652
-0.0752797 0.0345064 0.266674
0.14333 -0.034737 0.266674
0.00364178 0.225192 0.245215
0.316121 0.33725 0.266674
-0.193669 -0.304033 0.260748
-0.0740544 0.230575 0.260748
0.199995 0.154962 0.266674
-0.225682 0.236583 0.126927
0.244162 0.282142 0.266674
-0.259689 0.133867 0.260748
-0.00635618 0.0800868 0.260748
0.112674 0.220978 0.260748
0.185078 -0.221541 0.260748
0.0177778 -0.194471 0.266674
-0.296178 0.166712 0.266674
0.236402 0.0714279 0.266674
0.121519 -0.282414 0.266674
0.235886 -0.109787 0.260748
-0.245744 0.319189 0.260748
0.169213 0.303647 0.260748
-0.228155 0.185319 0.246467
-0.0377513 0.188276 0.260748
0.0843108 0.208128 0.266674
0.192768 -0.267694 0.266674
-0.277417 -0.320496 0.266674
0.190154 0.216574 0.260748
-0.278278 -0.296286 0.266674
-0.228155 0.0373542 0.248372
-0.228155 -0.120178 0.232925
0.0187943 -0.219265 0.247591
0.317749 0.290262 0.266674
0.105897 0.253853 0.266674
-0.0642294 0.0875112 0.266674
0.207618 -0.224573 0.100702
0.17303 -0.34075 0.265545
-0.214887 -0.307879 0.266674
0.314002 0.149629 0.260748
-0.108188 0.255608 0.260748
0.001515 0.271585 0.260748
0.252612 -0.32156 0.266674
-0.205711 0.165036 0.260748
-0.198308 0.230134 0.266674
0.28815 0.144258 0.266674
-0.191219 0.216303 0.240954
0.177301 -0.258462 0.266674
0.0423151 0.0482942 0.260748
0.157068 -0.271313 0.266674
0.102466 0.322821 0.260748
0.2203 0.207583 0.0544618
0.00463691 0.143565 0.266674
-0.298942 -0.139299 0.266674
0.219257 0.0431055 0.266674
0.228535 -0.078746 0.266674
0.220124 -0.232684 0.266674
-0.316708 -0.0626856 0.266674
0.286386 -0.264496 0.266674
-0.187655 0.301571 0.266674
-0.187517 -0.0281934 0.266674
0.210832 0.299327 0.260748
0.230724 -0.234296 0.220951
0.205717 -0.15637 0.260748
-0.0442419 -0.318823 0.260748
0.262245 -0.0417776 0.266674
0.0740798 0.131352 0.266674
-0.0291378 0.0426121 0.260748
-0.317474 0.253115 0.266674
0.235653 0.216096 0.0420449
-0.0199445 0.225192 0.251629
0.199358 -0.206251 0.260748
0.228098 -0.0362882 0.266674
-0.149325 -0.322785 0.260748
-0.134465 -0.219265 0.257096
-0.212724 0.0312147 0.260748
-0.224119 -0.34075 0.262176
0.0488131 -0.0868698 0.266674
0.215134 0.188916 0.266674
-0.187494 0.34075 0.262045
-0.165709 0.172897 0.260748
0.231624 -0.21079 0.0430829
0.12161 0.243092 0.260748
0.0072127 -0.300391 0.260748
0.34075 -0.168909 0.262272
0.140761 -0.0536629 0.266674
0.0672487 -0.34075 0.264327
-0.220384 0.207575 0.192421
-0.160541 0.225192 0.260598
0.144717 0.0325963 0.266674
-0.0758407 -0.284857 0.266674
-0.111234 -0.213985 0.266674
0.0431716 0.144037 0.266674
0.332983 0.139971 0.260748
0.245063 0.116742 0.266674
0.198253 0.324067 0.266674
-0.126303 0.152026 0.260748
0.0141628 -0.130506 0.260748
0.173619 -0.136465 0.266674
0.181926 -0.302286 0.260748
-0.22547 0.215859 0.260748
0.230855 0.306043 0.260748
0.0848475 0.249427 0.266674
0.0331499 -0.073547 0.260748
0.169432 0.224637 0.231117
0.173816 0.256465 0.266674
-0.228155 0.0923325 0.252232
-0.253181 0.0568128 0.266674
-0.226164 -0.140749 0.266674
0.0363263 -0.29996 0.266674
0.214682 -0.209496 0.252427
-0.0749659 -0.228154 0.257921
0.235075 0.168356 0.266674
0.273536 0.0911623 0.260748
0.231802 -0.214115 0
0.225191 0.140601 0.252959
0.028725 -0.240428 0.266674
0.0430826 0.251171 0.266674
-0.319805 -0.320201 0.260748
-0.196492 0.259557 0.266674
-0.193337 -0.262967 0.266674
-0.282923 0.257738 0.260748
-0.294026 -0.0602862 0.266674
0.0734029 0.323261 0.260748
0.311247 -0.241008 0.260748
-0.170512 0.205411 0.266674
-0.228155 0.156914 0.243496
0.208444 0.216865 0.134296
0.200539 -0.0554471 0.266674
0.100322 0.0847405 0.266674
-0.219265 -0.126288 0.251371
-0.155236 -0.0625684 0.260748
0.311654 -0.0379306 0.266674
-0.0691976 -0.0695454 0.260748
0.302124 0.182824 0.260748
-0.178944 0.279242 0.266674
0.0217551 0.269291 0.260748
0.194563 0.0385583 0.260748
-0.319657 -0.0943707 0.266674
0.168812 -0.0947835 0.266674
0.0715499 0.0840082 0.260748
0.0725043 0.167009 0.266674
-0.328744 -0.0292671 0.260748
0.00188446 0.0976642 0.266674
0.225191 -0.0669122 0.252458
0.261096 -0.0794009 0.266674
-0.16241 -0.0129735 0.260748
0.306931 0.11396 0.266674
0.0583895 -0.210189 0.266674
-0.0599842 -0.238707 0.266674
-0.183961 -0.327202 0.266674
0.279387 -0.0237188 0.266674
0.326777 -0.206873 0.266674
0.228462 0.235607 0.223659
-0.219265 -0.166589 0.253017
0.0669554 0.216303 0.253778
0.0386662 0.189501 0.260748
-0.0895941 -0.00233436 0.266674
0.187031 -0.0185525 0.266674
0.0575247 -0.245249 0.266674
-0.0617936 -0.20976 0.266674
0.2014 0.124244 0.266674
0.142465 0.192508 0.260748
0.216302 0.026606 0.243721
-0.206108 -0.0142041 0.260748
-0.114258 0.32929 0.266674
-0.0183751 0.308778 0.266674
-0.0260321 -0.228154 0.23154
-0.0710572 0.120819 0.266674
0.253224 -0.145848 0.266674
0.313504 -0.223125 0.266674
-0.159018 -0.219265 0.250942
0.0913339 -0.232584 0.266674
0.219027 0.207807 0.212861
-0.250062 0.0173391 0.260748
-0.0379535 -0.128423 0.266674
-0.140279 0.0921701 0.266674
0.246115 -0.220418 0.266674
-0.0157445 0.186046 0.260748
-0.265792 0.337736 0.260748
0.200075 0.239909 0.266674
-0.223406 0.142479 0.266674
0.323562 0.0246528 0.266674
0.0366087 0.09168 0.266674
0.0615191 -0.263706 0.266674
-0.129488 0.285131 0.260748
0.236915 0.223698 0.179351
-0.142517 0.181092 0.260748
-0.241019 -0.0713052 0.266674
-0.25036 0.282931 0.266674
-0.339751 -0.277582 0.266674
0.03343 0.13154 0.266674
-0.251805 -0.0355257 0.266674
0.297943 -0.133367 0.260748
-0.0566823 0.225976 0.260748
-0.0494022 -0.0624507 0.266674
0.216302 -0.178396 0.252494
-0.306484 -0.287478 0.260748
-0.0357523 -0.277612 0.260748
0.0197741 0.216303 0.250212
0.309506 -0.197664 0.260748
0.217701 -0.260126 0.266674
-0.293699 -0.192401 0.266674
0.116006 -0.303966 0.266674
0.17868 0.280732 0.260748
0.305555 -0.300512 0.266674
-0.287966 0.11155 0.260748
-0.0992561 0.225192 0.250783
0.19497 -0.0781402 0.266674
0.307776 0.245394 0.260748
0.281029 0.228404 0.260748
-0.283101 -0.149761 0.260748
-0.185336 0.0464318 0.266674
-0.0776511 0.137119 0.266674
0.054891 0.098845 0.266674
0.0433033 -0.0448126 0.260748
0.302714 -0.119346 0.266674
-0.213162 0.273984 0.266674
-0.00641385 -0.063122 0.260748
-0.191578 -0.219265 0.24594
-0.219265 0.0010854 0.256526
0.00841674 0.34075 0.266554
-0.316266 0.287663 0.260748
-0.135656 -0.226768 0.231117
0.207413 0.224263 0.25757
0.0924283 -0.050427 0.260748
0.23695 -0.22329 0.165005
0.17635 -0.179624 0.266674
0.318225 0.226803 0.260748
-0.0676533 0.161279 0.266674
-0.34075 -0.317526 0.261652
-0.226676 -0.20814 0.0463324
-0.238311 -0.23814 0.260748
-0.321965 -0.215348 0.260748
0.225191 -0.194051 0.252071
-0.200484 0.0934376 0.260748
-0.232983 0.0735359 0.260748
0.108507 0.069834 0.266674
0.336425 0.0871443 0.266674
-0.212562 -0.211022 0.250932
-0.172641 -0.0777096 0.260748
0.245217 -0.190295 0.266674
-0.322676 0.0891082 0.266674
-0.261163 -0.118253 0.266674
-0.224275 -0.237213 0.266674
-0.0544678 -0.105558 0.260748
-0.230799 0.100219 0.266674
-0.0614378 -0.300107 0.260748
-0.190285 -0.125011 0.260748
-0.210007 -0.230506 0.16713
-0.134049 0.225192 0.232544
0.207818 0.218984 0.178469
-0.211863 -0.232735 0.0910648
-0.101055 -0.228154 0.242641
0.229014 0.209108 0.122536
-0.22653 0.101147 0.231117
0.267921 -0.202431 0.260748
-0.0542817 0.00584599 0.260748
0.0754678 0.0295761 0.266674
0.0673223 -0.0100178 0.260748
0.302322 0.325215 0.260748
0.0047991 -0.282661 0.266674
-0.224854 -0.00987726 0.266674
0.016859 0.00143763 0.266674
-0.256041 0.173618 0.260748
0.0486391 0.216303 0.256063
0.212863 -0.210768 0.166616
-0.221264 0.207498 0.216128
0.216302 0.0882103 0.250168
-0.339581 0.191314 0.260748
0.207813 -0.225453 0.0233829
0.220493 -0.30071 0.260748
-0.220045 0.219106 0
0.192029 -0.239615 0.266674
-0.131978 -0.122462 0.260748
0.291419 0.037035 0.266674
-0.259906 -0.280857 0.260748
-0.211921 0.240091 0.266674
0.159843 0.287632 0.260748
-0.290187 0.312506 0.266674
0.0429975 -0.319784 0.260748
-0.30787 0.0398249 0.260748
0.277119 0.158556 0.266674
-0.158544 -0.245905 0.266674
0.225191 0.197985 0.253425
-0.0180947 -0.184959 0.260748
-0.213956 0.210003 0.246347
-0.0619043 0.0251254 0.260748
0.171141 0.0421176 0.266674
0.0304186 -0.033234 0.266674
0.194786 0.0864965 0.260748
0.197137 0.192484 0.260748
-0.132054 -0.1533 0.260748
-0.233847 -0.213089 0.152972
0.319261 0.129283 0.266674
-0.320618 -0.174611 0.260748
0.334736 0.340022 0.260748
0.140783 0.0662063 0.266674
0.282787 0.110782 0.260748
0.253307 -0.00719959 0.266674
0.311628 -0.0172388 0.266674
0.093727 0.216303 0.254414
0.181257 0.00126335 0.266674
-0.230469 -0.234475 0.115285
0.216302 -0.141355 0.248693
0.268757 -0.280696 0.260748
0.0173818 -0.105503 0.260748
-0.0135943 -0.10991 0.260748
-0.118114 0.241272 0.266674
-0.212024 0.214125 0.266674
0.221146 0.0660259 0.231117
-0.094811 0.272718 0.266674
-0.0670878 -0.323116 0.266674
0.0616338 0.231916 0.260748
-0.236817 0.21965 0.161127
0.208787 -0.110281 0.260748
-0.015413 -0.0300603 0.266674
0.252202 -0.271327 0.260748
0.34075 -0.043182 0.26633
-0.163589 0.121263 0.260748
-0.0922069 0.218931 0.260748
0.0013026 -0.0499425 0.260748
-0.0320359 -0.221128 0.266674
0.0773691 0.225192 0.237622
-0.102344 -0.0367061 0.266674
-0.205145 0.110307 0.260748
0.279499 -0.153726 0.260748
-0.201473 -0.319075 0.266674
-0.263687 0.295413 0.260748
-0.13772 -0.06721 0.266674
0.318526 -0.179519 0.266674
0.124063 -0.26476 0.266674
-0.222652 -0.117157 0.266674
-0.111837 -0.0961964 0.266674
-0.210424 0.213355 0.156999
-0.228155 -0.0890638 0.246359
0.171211 0.125989 0.260748
0.241648 -0.0781523 0.260748
-0.147035 0.260837 0.260748
-0.215806 0.182727 0.260748
0.0785287 -0.308941 0.266674
-0.0924036 0.0835306 0.266674
0.131684 0.142897 0.260748
-0.000573248 -0.332242 0.260748
-0.0682896 -0.116757 0.266674
-0.232679 0.211806 0.0158318
-0.0268676 0.0685655 0.266674
0.220664 -0.236906 0.1127
0.22867 0.23551 0.165
0.229533 -0.235106 0.194255
0.227467 -0.23607 0.0375259
0.224634 0.159876 0.231117
0.0460471 0.1559 0.260748
0.209007 -0.215659 0.234841
0.232543 0.0843673 0.260748
-0.0158357 0.15564 0.260748
-0.267768 0.224689 0.260748
-0.0453257 0.34075 0.264964
0.26846 0.297064 0.260748
0.213836 0.23437 0.186863
-0.210235 -0.270166 0.266674
-0.26715 -0.182448 0.266674
-0.00600913 -0.219265 0.249186
0.0704095 -0.25071 0.260748
-0.0954179 -0.244203 0.266674
0.209716 -0.214367 0.134929
-0.123836 0.300963 0.260748
-0.237022 0.222486 0.124416
-0.177406 -0.200403 0.266674
0.16173 -0.292803 0.266674
0.129795 0.225192 0.250313
0.193772 -0.286055 0.266674
0.125528 0.0991765 0.266674
0.227378 0.208346 0.178628
-0.20346 -0.232941 0.260748
0.23417 0.269187 0.260748
-0.228583 0.235551 0.215974
-0.263165 0.273584 0.260748
-0.0249186 -0.090938 0.266674
0.00492516 0.0215766 0.260748
-0.146385 0.294685 0.260748
-0.213709 -0.210176 0.202789
0.285368 -0.222668 0.266674
-0.104116 -0.29006 0.266674
-0.153273 0.0221674 0.266674
-0.224521 -0.218866 0.260748
-0.334297 -0.115291 0.260748
0.317068 0.260452 0.266674
-0.130602 -0.324273 0.266674
0.0904101 0.0989886 0.260748
0.221686 -0.276726 0.266674
-0.223545 0.129838 0.266674
0.0921282 -0.228154 0.23145
-0.236711 -0.225203 0.198316
-0.289758 0.149997 0.266674
0.207512 -0.223363 0.195661
0.218392 -0.207976 0.184172
-0.228155 -0.0105449 0.247648
-0.185408 0.154993 0.260748
-0.0904348 -0.10489 0.266674
-0.29519 0.215659 0.260748
0.225191 0.0300283 0.258719
0.156031 0.324274 0.260748
0.152036 -0.311588 0.260748
-0.228155 -0.0627538 0.248161
-0.237356 -0.134566 0.260748
0.0907403 0.29842 0.266674
-0.126298 0.216303 0.247417
0.142585 -0.280173 0.266674
-0.26862 -0.0918264 0.266674
-0.231825 0.233505 0.020332
-0.226248 0.0413346 0.260748
0.0385217 -0.0958928 0.266674
-0.129319 -0.228154 0.246766
-0.00290874 0.0420786 0.266674
0.116656 -0.323739 0.266674
-0.0519316 0.0728294 0.260748
-0.179829 0.258854 0.266674
0.0626498 0.11578 0.266674
0.288022 -0.307307 0.266674
0.246883 -0.0453275 0.260748
0.203774 -0.0203671 0.266674
-0.333981 -0.149326 0.260748
-0.308024 0.00336722 0.266674
0.114859 0.0276131 0.266674
0.105994 -0.191517 0.260748
-0.0275379 0.0276091 0.266674
0.326319 0.0521358 0.260748
0.2553 0.0768714 0.260748
-0.27004 -0.041632 0.260748
0.0176468 0.319147 0.266674
-0.0169124 -0.318789 0.260748
-0.12599 0.183337 0.266674
-0.184723 -0.235051 0.260748
-0.123064 -0.0132861 0.266674
0.0872967 0.0224375 0.260748
0.246217 -0.168551 0.260748
0.219658 0.207639 0.0954229
0.143157 0.271911 0.260748
0.34075 0.203491 0.26288
0.21063 0.251325 0.260748
0.0887235 0.00421289 0.260748
-0.079453 -0.145609 0.266674
-0.207593 -0.220186 0.0446711
-0.207626 0.2198 0.230287
-0.313265 -0.249115 0.266674
0.220784 0.198712 0.231117
-0.0135589 -0.0146987 0.260748
-0.0450769 0.0437336 0.266674
0.179877 0.150768 0.266674
0.233709 0.231563 0.0475216
-0.248425 -0.190792 0.266674
0.288845 0.236177 0.266674
-0.176558 0.327593 0.260748
-0.212961 -0.172511 0.266674
0.22134 0.159303 0.266674
0.308165 0.214127 0.266674
-0.219684 0.207637 0.0792388
0.171153 -0.228154 0.238683
0.157432 -0.0230016 0.266674
-0.05596 0.320474 0.266674
0.166402 0.177747 0.266674
0.331864 -0.0804682 0.260748
-0.12751 0.0101331 0.266674
-0.155538 -0.266224 0.266674
-0.0450293 0.240021 0.260748
0.0117779 -0.23484 0.266674
0.136201 -0.188566 0.260748
0.23231 0.106504 0.266674
0.225191 -0.0509145 0.25051
0.0651698 -0.112544 0.260748
-0.203063 0.295942 0.266674
0.125337 0.00951603 0.266674
-0.179657 -0.167774 0.266674
0.220103 -0.207599 0.0961551
0.126385 0.290583 0.266674
0.225191 -0.0274744 0.233071
-0.218306 -0.208 0.114791
0.196984 -0.315277 0.266674
-0.221834 -0.207448 0.0118863
0.289292 0.192692 0.260748
-0.0311419 -0.0482123 0.260748
0.107623 0.183197 0.266674
0.0290254 0.243183 0.266674
-0.183426 0.218341 0.266674
0.0277327 -0.327826 0.260748
0.14261 0.214605 0.266674
-0.223961 0.303955 0.266674
0.207103 0.0486773 0.260748
0.236427 -0.218194 0.0689188
-0.296665 -0.159534 0.266674
-0.24241 0.0801822 0.266674
0.23309 -0.0919506 0.260748
-0.172227 -0.228154 0.248768
0.333604 0.309381 0.266674
0.204602 0.272318 0.260748
0.307463 0.034243 0.266674
0.262633 0.250981 0.260748
-0.140545 -0.226981 0.266674
0.118423 -0.156353 0.266674
0.115169 -0.0960087 0.266674
-0.161634 0.0644944 0.266674
-0.326268 -0.235776 0.260748
0.230535 0.23443 0.0854798
-0.151545 0.221551 0.231117
0.250588 -0.114886 0.266674
0.0343115 -0.155675 0.266674
-0.254197 0.229815 0.266674
0.0732676 -0.181456 0.260748
0.18384 -0.0878176 0.260748
-0.219265 -0.0502977 0.259175
-0.101556 0.071984 0.260748
0.216302 0.183935 0.25106
-0.097169 0.207564 0.260748
-0.224563 -0.236839 0.0443799
0.321846 -0.252591 0.260748
-0.069778 0.278775 0.266674
0.293856 0.0783555 0.266674
-0.0287628 -0.0239542 0.260748
0.137027 -0.08017 0.260748
-0.315588 -0.336057 0.266674
-0.23201 0.250817 0.260748
0.0563946 0.225192 0.242567
0.150182 -0.0673594 0.260748
-0.30107 -0.319919 0.266674
-0.231035 -0.234079 0.0689876
-0.260418 0.086121 0.260748
0.141428 -0.228154 0.248789
-0.304527 0.248953 0.260748
-0.10614 -0.182696 0.266674
0.296421 -0.247153 0.266674
-0.0870766 -0.219265 0.244251
-0.0977613 0.291279 0.266674
0.208849 -0.215998 0.0652629
0.14068 -0.138565 0.260748
0.0735221 -0.0293154 0.260748
-0.244736 -0.308442 0.260748
0.103837 -0.122303 0.266674
-0.179768 -0.252888 0.266674
-0.222614 -0.237009 0.192204
0.156187 -0.247584 0.266674
0.245421 0.184559 0.260748
-0.109324 0.216303 0.246443
-0.0384457 0.280339 0.266674
0.258345 -0.306293 0.266674
0.0305589 0.0451924 0.266674
-0.219265 -0.177489 0.23336
-0.331846 0.326439 0.266674
0.0320261 -0.205111 0.260748
-0.0468929 0.260923 0.266674
0.339878 -0.232217 0.266674
-0.0855823 0.165381 0.260748
0.0904237 -0.195527 0.260748
-0.221836 0.0706253 0.266674
-0.23805 -0.0261887 0.260748
-0.175095 -0.00416008 0.260748
0.239012 -0.144011 0.260748
-0.210561 0.231297 0.128992
0.227589 0.208444 0.0312406
-0.0599144 0.192186 0.260748
0.320398 -0.295881 0.266674
-0.155107 0.203836 0.266674
0.195559 0.10155 0.266674
-0.031874 -0.32636 0.266674
0.335146 -0.278577 0.260748
-0.00493687 0.257515 0.260748
0.0589882 -0.193781 0.260748
-0.313996 -0.307144 0.266674
0.294275 -0.201168 0.266674
0.258435 0.044056 0.266674
0.104323 -0.22293 0.260748
-0.272538 0.0315709 0.266674
-0.0681196 0.265291 0.260748
-0.213667 -0.23425 0.0132334
0.14129 0.155612 0.260748
0.306736 -0.00262895 0.266674
-0.321759 0.199144 0.266674
-0.0872935 0.182454 0.260748
-0.0758843 -0.0303343 0.266674
-0.0657129 -0.228154 0.236763
0.0533879 -0.293455 0.266674
-0.0419578 0.108351 0.260748
0.181847 0.0947838 0.260748
-0.297582 0.329665 0.260748
0.0910601 0.276693 0.266674
0.225191 0.0495852 0.244649
0.215803 -0.174408 0.266674
-0.34075 0.224999 0.263713
0.0968759 0.0564387 0.266674
0.115639 -0.206063 0.260748
0.205224 -0.219265 0.249509
0.244994 0.225697 0.260748
0.221537 0.207474 0.164489
-0.162572 -0.0490789 0.266674
0.210261 -0.213588 0.213329
0.153407 -0.220703 0.266674
-0.126419 0.137771 0.260748
-0.266145 0.0184531 0.260748
-0.224916 0.146232 0.231117
-0.263878 0.10274 0.260748
-0.113126 -0.228154 0.255807
-0.11689 0.071429 0.260748
0.290253 -0.0577666 0.260748
-0.0158056 0.123256 0.266674
0.134939 0.246766 0.260748
-0.0502554 0.179797 0.260748
-0.175063 0.0852829 0.260748
0.11659 0.140368 0.266674
-0.123558 -0.289756 0.266674
-0.279551 -0.118769 0.266674
0.061891 0.0230365 0.266674
-0.217615 -0.208185 0.0585008
0.33098 -0.156816 0.266674
0.340471 0.239542 0.266674
0.218254 -0.130795 0.231117
0.0707247 -0.232051 0.260748
-0.177458 -0.34075 0.265477
0.112239 0.121219 0.260748
-0.0271388 0.34075 0.265049
-0.165589 -0.174527 0.266674
-0.0635603 -0.0821418 0.266674
-0.294835 -0.219715 0.260748
0.169769 0.229969 0.266674
-0.0382672 -0.0953106 0.260748
-0.134649 0.225192 0.256137
-0.227264 -0.0994489 0.260748
-0.163175 -0.0934799 0.260748
-0.0908606 -0.313252 0.260748
0.000527233 -0.164855 0.266674
0.180732 -0.162068 0.266674
0.0590722 0.00256461 0.266674
-0.19511 0.245507 0.260748
-0.0949099 -0.278378 0.260748
-0.267855 0.161388 0.260748
-0.34075 0.148976 0.264987
-0.00955039 -0.259307 0.260748
0.0880887 -0.0943402 0.266674
-0.255814 -0.262899 0.260748
-0.26519 -0.0128153 0.266674
-0.152536 0.137078 0.266674
0.336814 -0.0119754 0.266674
0.0855909 0.146043 0.266674
-0.0286417 -0.193346 0.260748
-0.125992 -0.0602617 0.260748
-0.143779 0.012401 0.260748
-0.00843313 0.216303 0.254519
-0.244414 0.116673 0.266674
-0.0836657 0.312292 0.266674
-0.100451 -0.0696407 0.260748
-0.275684 -0.202031 0.260748
-0.319525 0.273231 0.260748
-0.238987 0.0608963 0.266674
0.217978 0.23637 0.252187
0.0415652 0.0336964 0.260748
-0.211254 -0.232126 0.13399
-0.228155 0.201428 0.24822
-0.331544 -0.20584 0.266674
-0.148038 -0.181718 0.266674
-0.219265 0.0911968 0.24053
0.293266 0.313594 0.260748
0.213893 0.129524 0.266674
-0.236933 0.220962 0.106332
0.146856 0.13169 0.260748
-0.14612 -0.130583 0.260748
-0.230797 -0.255321 0.260748
-0.21818 -0.200079 0.260748
-0.229388 -0.235174 0.239571
0.226255 -0.220733 0.260748
0.216302 -0.121737 0.25544
0.275903 -0.247429 0.260748
-0.0976255 -0.196335 0.260748
-0.168731 -0.109987 0.266674
-0.310881 0.165121 0.266674
0.220836 0.236922 0.017166
-0.228155 -0.187226 0.243841
0.127224 -0.00498581 0.266674
-0.284152 -0.236323 0.266674
-0.148966 0.34075 0.263282
-0.181499 0.225192 0.234639
-0.289753 -0.329144 0.266674
-0.174171 0.231031 0.260748
0.0992726 -0.0721924 0.260748
0.236834 0.224617 0.193897
-0.0621881 -0.0480622 0.260748
-0.227501 -0.208402 0.168301
-0.215445 -0.209107 0.141815
0.106764 0.271681 0.266674
-0.125766 -0.175521 0.266674
-0.134842 0.241752 0.260748
-0.209094 0.215473 0.116183
0.0162074 0.13644 0.260748
0.012009 -0.181149 0.266674
-0.190462 0.118468 0.266674
-0.216248 -0.235724 0.152955
-0.315498 0.226642 0.266674
-0.32393 -0.161794 0.266674
0.339178 -0.199355 0.266674
-0.228155 0.0106308 0.248858
0.232759 0.0483508 0.266674
-0.129162 -0.276401 0.266674
-0.340108 0.0177352 0.260748
-0.210602 -0.116728 0.260748
-0.222304 0.237037 0.140986
-0.232524 0.232806 0.154475
-0.220016 0.207607 0.0613305
-0.227077 0.17369 0.260748
-0.106775 -0.154161 0.266674
-0.214316 0.209752 0.00936249
-0.136081 0.193992 0.260748
-0.0457293 -0.143047 0.266674
0.152127 0.105205 0.266674
-0.219265 -0.112104 0.24454
0.232299 0.237267 0.260748
-0.183903 0.197888 0.266674
-0.229284 -0.307363 0.266674
0.112045 0.313852 0.266674
-0.220107 -0.207599 0.238964
-0.309569 0.321905 0.266674
-0.148007 -0.103251 0.266674
0.24946 0.168466 0.266674
-0.20922 -0.215204 0.179454
-0.236883 -0.197492 0.260748
-0.021558 0.247504 0.266674
0.244555 -0.303528 0.260748
0.208805 0.228365 0.0668357
-0.110294 0.315536 0.266674
0.213896 0.210045 0.0419112
-0.162981 -0.295992 0.266674
0.155645 0.0144672 0.260748
-0.114513 -0.34075 0.266115
0.08037 -0.240017 0.266674
-0.273625 0.130816 0.260748
0.134178 -0.15007 0.266674
0.190992 0.288317 0.260748
0.0814695 -0.264315 0.260748
-0.0160717 0.218746 0.266674
-0.0286944 0.216303 0.23287
0.258359 0.1846 0.266674
0.131491 -0.248384 0.266674
0.121808 0.176033 0.266674
0.0544949 -0.0115502 0.266674
-0.059876 -0.170161 0.260748
-0.092784 -0.212052 0.266674
-0.24378 0.147133 0.266674
0.220174 0.212117 0.260748
0.196315 -0.121937 0.266674
-0.15998 -0.313753 0.266674
0.0429088 -0.240274 0.266674
0.125895 -0.228154 0.244831
0.0818277 -0.0775253 0.266674
-0.139135 0.112101 0.266674
0.301326 -0.324637 0.266674
0.198903 0.142169 0.260748
-0.0350968 0.146816 0.266674
0.225191 0.173498 0.247685
0.0100752 -0.0398249 0.266674
-0.197358 -0.0969625 0.260748
0.34075 -0.251179 0.264034
-0.118178 0.270844 0.266674
0.0800028 -0.0167906 0.260748
0.0158502 0.175067 0.260748
0.299357 0.154226 0.266674
0.0295142 0.00886986 0.266674
0.262545 0.223712 0.260748
0.276642 -0.327889 0.266674
-0.0774346 0.244218 0.260748
0.216302 -0.00576988 0.245209
-0.228155 0.147044 0.255037
-0.170597 0.247862 0.260748
0.0101271 0.0750462 0.260748
0.272089 0.269405 0.266674
-0.318501 0.0299681 0.260748
0.161915 0.0912885 0.260748
-0.25872 0.215784 0.266674
0.0840137 0.0816044 0.266674
-0.016903 -0.219265 0.240392
-0.216211 -0.212248 0
-0.0245728 0.325498 0.260748
-0.0886157 -0.0394065 0.266674
0.217446 -0.058922 0.260748
-0.237034 0.222109 0.221259
-0.250233 -0.0842053 0.266674
0.208769 -0.097612 0.266674
-0.0168104 0.0053803 0.260748
0.0638028 -0.219265 0.249674
0.0181201 -0.292252 0.266674
0.265881 0.150382 0.260748
0.220027 0.207607 0.135625
-0.111325 0.208796 0.266674
0.216302 0.0101404 0.251618
0.107632 -0.283699 0.266674
0.218348 0.236469 0.0011129
-0.077309 -0.0798635 0.266674
-0.170733 0.110875 0.266674
-0.0984724 -0.330818 0.260748
0.174472 -0.0169186 0.260748
0.216302 -0.0712654 0.236804
-0.0758373 -0.192838 0.260748
-0.033321 -0.0643066 0.266674
0.212934 -0.332692 0.266674
0.116034 0.194277 0.266674
0.00965568 -0.322652 0.260748
-0.25702 -0.0529177 0.260748
-0.233559 0.231771 0.0717329
0.272051 0.181521 0.266674
-0.224039 -0.29451 0.266674
0.237041 0.222255 0.121374
0.0692186 0.302676 0.260748
0.219564 -0.112218 0.231117
-0.0926789 -0.163487 0.266674
-0.25618 -0.214834 0.266674
0.223172 0.0716123 0.260748
-0.235182 0.227262 0.266674
-0.151064 -0.230275 0.260748
0.264172 0.0565412 0.260748
-0.104102 -0.317159 0.260748
0.085046 -0.319562 0.260748
-0.0993944 0.00536034 0.260748
0.0136908 -0.222532 0.260748
0.268304 -0.0175386 0.260748
-0.219265 -0.0723972 0.252421
-0.209888 0.0105678 0.260748
0.163036 0.136141 0.266674
-0.0516776 0.130456 0.260748
-0.284051 0.0698219 0.260748
0.218477 0.000737906 0.231117
0.309276 -0.0720197 0.260748
-0.147056 0.0398249 0.260748
-0.100045 0.159602 0.266674
0.237119 0.141011 0.260748
0.00889915 -0.203125 0.260748
-0.194904 -0.0637366 0.260748
-0.229945 0.291181 0.266674
0.119884 0.216303 0.247073
0.23547 -0.215704 0.13274
-0.258073 0.0277878 0.266674
-0.169256 -0.326804 0.260748
-0.194654 0.225192 0.251164
-0.00666633 0.243816 0.260748
0.116057 -0.0251496 0.260748
-0.264806 -0.028295 0.266674
-0.23098 0.234119 0.249128
-0.0669328 0.220118 0.231117
0.214062 0.118092 0.266674
0.216302 0.131024 0.249106
-0.0751176 -0.0139556 0.266674
0.217013 0.236082 0.199992
0.268261 0.0126329 0.266674
-0.011611 0.320768 0.260748
-0.233844 -0.213084 0.0744244
-0.024378 -0.119687 0.260748
-0.0944998 0.136712 0.260748
-0.20781 -0.219017 0.0289787
0.0256269 -0.228154 0.255268
-0.0875912 -0.225195 0.260748
0.0777778 0.0619414 0.260748
-0.0948366 0.112984 0.260748
-0.00090757 0.216303 0.23603
-0.236763 -0.22501 0.0218142
0.338701 -0.0921828 0.260748
-0.34075 -0.018953 0.265813
-0.215877 0.104517 0.266674
0.326627 0.175249 0.260748
0.0393724 0.33473 0.260748
-0.0843144 0.225192 0.25124
0.31145 0.0925503 0.260748
-0.314824 -0.0817483 0.266674
0.114975 -0.167999 0.260748
-0.101006 0.326645 0.266674
-0.323418 0.306294 0.266674
-0.151604 0.0554493 0.266674
-0.00612897 0.198868 0.260748
0.207596 -0.220137 0.14694
-0.313223 -0.196031 0.266674
0.224978 -0.206938 0.260748
-0.0237977 -0.287671 0.266674
-0.20667 0.152987 0.266674
-0.266934 -0.248323 0.260748
-0.0837641 -0.293981 0.260748
0.0958254 0.185739 0.260748
0.317183 0.184031 0.266674
-0.2986 0.0108864 0.260748
0.261298 -0.0950203 0.266674
0.208308 -0.144601 0.266674
-0.179062 -0.0367411 0.260748
-0.0758481 0.0844944 0.260748
-0.283114 0.328267 0.266674
0.213444 0.0633171 0.260748
0.225881 -0.207927 0.108615
-0.114016 0.15752 0.266674
-0.214244 -0.234654 0.104085
-0.327009 0.0603178 0.260748
-0.271829 -0.27976 0.266674
0.220995 -0.207521 0.218419
-0.0857574 0.0474665 0.266674
0.235813 0.216439 0.251528
0.216302 0.109621 0.244025
0.152691 -0.0539457 0.260748
0.225191 -0.00592023 0.255217
0.132043 0.324644 0.266674
-0.170981 0.305419 0.260748
-0.236203 0.227103 0.176003
0.107272 -0.137692 0.266674
0.220584 0.2369 0.138668
0.0697287 -0.213758 0.260748
0.328813 0.237239 0.260748
-0.050611 -0.206481 0.260748
0.224256 0.0947274 0.260748
-0.129903 -0.0848365 0.260748
0.0515043 0.111706 0.260748
-0.194008 -0.0398249 0.260748
-0.0747268 -0.269185 0.266674
-0.21695 0.208406 0.171718
0.327107 0.266746 0.260748
0.104763 -0.239493 0.260748
-0.28621 -0.264676 0.266674
-0.137629 -0.20416 0.260748
0.256727 0.197987 0.266674
