0.114163 -0.281042 0.266674
-0.331905 -0.193628 0.260748
-0.321559 -0.19654 0.266674
-0.327558 0.0674683 0.266674
0.0429583 -0.3404 0.266674
-0.234805 0.23 0.163752
0.160537 0.32258 0.260748
0.288823 -0.039928 0.260748
-0.302423 0.155422 0.266674
0.0149793 -0.253058 0.260748
-0.193074 -0.122035 0.260748
-0.306223 -0.0940022 0.266674
0.231069 0.214485 0.266674
0.0556144 0.216303 0.24206
-0.324651 0.212341 0.266674
-0.27364 0.272475 0.260748
0.122782 0.225192 0.252987
-0.17908 -0.161056 0.260748
0.207442 -0.222558 0.185173
-0.165134 0.222831 0.260748
0.00868076 0.194865 0.260748
0.221558 -0.0677885 0.231117
0.225191 -0.0182979 0.245743
0.0805514 -0.315175 0.266674
-0.118983 -0.30757 0.260748
0.203515 -0.21046 0.266674
-0.140826 -0.106349 0.260748
-0.073381 0.216303 0.242682
-0.2237 -0.306949 0.260748
0.0580551 0.0319037 0.260748
0.154528 -0.336412 0.266674
-0.155575 0.113774 0.266674
0.327526 0.119677 0.266674
-0.124422 -0.0968856 0.260748
-0.235439 0.228824 0.172082
-0.206376 -0.164883 0.260748
0.154503 -0.33442 0.260748
-0.0975191 0.316114 0.266674
-0.284294 0.00574902 0.260748
0.246672 -0.000569671 0.266674
0.230358 0.0490665 0.260748
0.116085 0.21543 0.266674
0.210359 0.218932 0.260748
-0.115957 0.143499 0.266674
0.218289 -0.208004 0.258167
0.0255652 0.0981756 0.266674
0.225191 0.184303 0.23123
0.165221 -0.179348 0.266674
0.21075 0.21289 0.199544
-0.333047 -0.0969287 0.260748
-0.280881 -0.33005 0.260748
0.313609 0.0423298 0.260748
-0.215996 0.233264 0.266674
0.295762 0.306331 0.266674
-0.222352 -0.330909 0.266674
0.11817 0.216303 0.239243
0.12752 -0.287218 0.266674
0.332247 -0.157116 0.260748
-0.132257 -0.219265 0.257692
0.131964 0.0745265 0.266674
0.113782 0.0734799 0.266674
-0.163197 0.0582287 0.266674
0.29331 0.0881078 0.266674
-0.297788 -0.31163 0.260748
0.0297216 0.155341 0.266674
0.197674 0.0195027 0.266674
0.0678411 0.0259091 0.260748
-0.0190308 -0.0173412 0.260748
-0.219265 -0.0140227 0.250495
-0.106125 0.0615519 0.266674
0.226884 -0.278532 0.266674
-0.182614 -0.178825 0.260748
0.136765 0.225192 0.246097
0.195441 -0.154194 0.260748
-0.219265 0.01185 0.260633
-0.31829 0.0359553 0.260748
0.0556146 0.0532457 0.260748
0.228716 0.208969 0.249828
-0.224191 0.155021 0.266674
0.0971668 0.172005 0.266674
0.26269 0.0662216 0.260748
0.231775 -0.0349144 0.260748
-0.0322274 0.177046 0.266674
0.277504 -0.321125 0.260748
-0.305638 -0.229199 0.266674
0.160773 0.176823 0.266674
-0.00604436 -0.185288 0.266674
-0.267678 0.231055 0.266674
-0.0765754 -0.187884 0.260748
0.240246 -0.281569 0.260748
-0.175818 0.017103 0.260748
-0.0199575 -0.295116 0.266674
-0.219265 -0.16993 0.239277
-0.0156214 0.216303 0.258776
0.108507 0.187213 0.266674
-0.0716184 -0.161717 0.266674
-0.173028 -0.221127 0.231117
0.179269 0.13274 0.260748
0.0461178 -0.224952 0.231117
0.184838 -0.216424 0.260748
-0.217895 -0.236346 0.158445
0.233514 0.212642 0.109856
0.325951 -0.20666 0.260748
-0.0660141 -0.0922343 0.260748
0.0321025 -0.159579 0.266674
-0.223862 -0.12867 0.260748
-0.0033481 0.224429 0.260748
0.268245 0.307551 0.266674
-0.256622 -0.0555791 0.266674
-0.0829327 -0.287779 0.266674
0.31728 0.285391 0.260748
0.218765 -0.0366314 0.231117
-0.335138 -0.144805 0.266674
-0.222254 -0.237041 0.172051
0.283539 -0.315808 0.266674
-0.0938736 0.177563 0.260748
0.233599 -0.212737 0.233923
0.205324 -0.208984 0.260748
-0.0265476 -0.322949 0.266674
-0.0389331 0.216303 0.251693
0.219028 -0.285467 0.260748
-0.21433 -0.0397108 0.266674
-0.0814967 0.0716168 0.266674
0.0900735 0.220464 0.266674
0.214187 -0.234614 0.226835
-0.0738486 0.0125659 0.266674
-0.129677 -0.24314 0.260748
0.216302 0.0851418 0.234334
0.0350282 -0.300288 0.260748
0.129573 -0.31614 0.266674
0.233564 -0.231764 0.138211
0.0511729 0.297273 0.260748
-0.154258 0.104602 0.266674
-0.228155 -0.0015357 0.240523
0.00520524 -0.255829 0.260748
-0.0291911 -0.219265 0.259565
-0.221449 0.158985 0.260748
0.263242 -0.14942 0.266674
-0.231885 -0.208595 0.260748
0.194002 0.333768 0.266674
-0.294124 -0.237176 0.260748
0.332108 0.25666 0.266674
-0.0723167 0.240953 0.260748
-0.0436495 -0.134936 0.260748
0.206501 -0.0557469 0.266674
-0.0807817 -0.332589 0.266674
0.239681 -0.0684709 0.260748
-0.281304 0.188083 0.260748
0.304368 -0.148998 0.260748
0.0183043 -0.219265 0.247855
-0.0127015 -0.288274 0.266674
-0.318023 0.0511463 0.266674
-0.207064 -0.28335 0.266674
-0.0736695 -0.326024 0.266674
0.135384 0.286629 0.260748
0.232468 -0.134071 0.260748
0.308406 0.159424 0.266674
-0.321151 -0.289865 0.266674
0.0104349 0.202924 0.266674
-0.19433 0.00351059 0.266674
-0.340743 -0.247798 0.266674
-0.208825 -0.0931138 0.266674
-0.188753 0.323028 0.266674
-0.334661 0.327894 0.266674
0.232632 -0.232696 0.0811557
0.142599 -0.0803817 0.266674
-0.160543 0.0151608 0.266674
0.199565 0.225192 0.244017
-0.0805636 0.213018 0.266674
0.0086658 0.183647 0.260748
-0.0900541 -0.0650448 0.266674
-0.325318 -0.318396 0.260748
0.208773 -0.0788611 0.266674
-0.318656 -0.0417525 0.266674
-0.146194 0.238665 0.260748
-0.16774 0.257341 0.260748
-0.281856 0.086726 0.266674
0.238259 -0.0752116 0.266674
0.287392 -0.121968 0.260748
-0.00433442 -0.316988 0.266674
0.102224 0.169967 0.260748
-0.0329035 0.222059 0.231117
-0.236434 0.226238 0.137481
-0.236884 -0.2204 0.086034
0.218442 -0.207963 0.0696296
-4.88758e-06 0.178801 0.260748
-0.224014 0.19272 0.260748
-0.322894 -0.0368822 0.260748
0.230327 0.234576 0.210625
0.312589 -0.277538 0.266674
0.22321 0.2075 0.184658
0.250231 0.222263 0.260748
0.126435 0.129277 0.260748
-0.228155 0.0534842 0.23681
0.278714 -0.143274 0.266674
0.216729 -0.208658 0.260748
-0.163111 0.00921461 0.266674
0.225191 -0.018069 0.248138
0.0936785 -0.219265 0.239899
-0.308707 0.226198 0.266674
-0.176451 0.285046 0.260748
-0.0672899 0.217046 0.266674
-0.140173 -0.122668 0.266674
-0.147175 0.324078 0.266674
-0.0173265 0.203521 0.260748
0.105377 -0.195398 0.266674
0.0575077 0.00993237 0.260748
-0.226174 0.208006 0.246895
-0.309038 0.111608 0.266674
0.0683281 0.166521 0.266674
-0.296667 -0.177689 0.260748
-0.265892 0.251078 0.260748
-0.210309 0.185254 0.260748
0.0493617 -0.337078 0.266674
-0.21267 -0.210914 0.0054938
0.000348836 0.0908213 0.266674
-0.029631 -0.0547608 0.260748
0.265611 -0.258351 0.260748
0.0097672 0.00598043 0.266674
0.221327 0.236965 0.13506
0.0685573 0.136375 0.260748
0.0219575 -0.0732767 0.266674
-0.231711 0.21085 0.0795174
-0.148735 0.237828 0.266674
-0.188932 0.0981441 0.260748
-0.140976 0.178925 0.266674
-0.236713 0.225197 0.188205
-0.150029 -0.262598 0.260748
-0.184671 -0.0585118 0.266674
0.314473 0.0143298 0.266674
0.196204 -0.18809 0.266674
0.10721 0.11502 0.260748
0.33836 0.330936 0.266674
0.22468 0.152957 0.266674
0.28256 -0.316469 0.260748
-0.0154272 0.0482962 0.260748
-0.228155 0.184771 0.236044
0.236584 -0.225675 0.22962
0.124785 0.22509 0.266674
-0.189621 0.0230087 0.260748
0.233268 -0.23206 0.126354
0.0903908 0.266439 0.266674
-0.0639013 -0.164246 0.260748
0.00530371 -0.0571394 0.260748
-0.339137 0.189255 0.266674
0.0305964 0.184937 0.266674
0.0487212 -0.160456 0.266674
-0.256097 -0.00347975 0.260748
0.326945 0.267694 0.260748
-0.140231 -0.0049839 0.260748
0.182407 -0.2285 0.266674
0.150427 -0.255996 0.266674
-0.248835 0.017349 0.266674
0.129591 -0.219265 0.242056
0.183181 0.271235 0.260748
-0.179782 -0.0927825 0.260748
0.0706932 -0.223033 0.260748
0.0547337 -0.183789 0.260748
0.0394041 -0.0472732 0.260748
-0.276464 -0.294265 0.266674
0.0658258 -0.035414 0.266674
-0.0832092 -0.237723 0.266674
-0.0820051 0.319307 0.266674
0.324036 -0.0594854 0.260748
0.298456 0.0586809 0.260748
-0.291384 0.272337 0.266674
-0.132261 0.144519 0.266674
0.195085 -0.308109 0.266674
0.144452 0.0619454 0.266674
0.0362293 0.279243 0.266674
-0.290166 0.32902 0.266674
-0.212641 0.233514 0.147217
-0.129563 0.111109 0.260748
0.24858 0.234794 0.260748
0.197745 -0.101136 0.260748
-0.201374 -0.230862 0.266674
-0.327179 -0.165604 0.260748
-0.132804 -0.101722 0.266674
-0.133322 -0.208327 0.260748
-0.0456274 0.275932 0.266674
0.15644 0.21316 0.266674
0.296252 -0.309625 0.260748
0.122052 -0.00512037 0.260748
-0.228155 0.0290712 0.240227
-0.0930966 -0.254294 0.260748
0.222621 0.23701 0.0136885
0.156395 -0.136721 0.266674
-0.015036 -0.147358 0.266674
0.225191 0.132399 0.248555
-0.00556433 0.095756 0.260748
-0.133368 -0.0333265 0.266674
-0.0928969 0.216303 0.248282
0.056183 0.113867 0.266674
-0.212564 0.233437 0.233404
0.192004 -0.34075 0.265656
0.0530825 -0.325884 0.260748
0.196398 -0.228154 0.239847
-0.0216265 0.236631 0.266674
0.291709 -0.325947 0.266674
0.322429 0.128537 0.266674
0.23733 0.0548574 0.260748
-0.0554555 -0.0703002 0.266674
0.152295 0.216303 0.238963
0.170333 -0.180025 0.266674
-0.255187 0.106926 0.266674
-0.00726113 0.174176 0.266674
-0.121138 -0.313967 0.260748
-0.219265 0.136612 0.232653
0.0402308 0.217967 0.231117
0.193419 0.255787 0.266674
-0.339791 -0.0449674 0.266674
0.245482 0.0505968 0.260748
0.244802 0.156672 0.266674
0.337559 0.338598 0.260748
0.179209 0.216303 0.247086
0.00326285 0.20094 0.266674
0.0984145 0.00509512 0.266674
0.0173659 0.337924 0.260748
-0.207581 0.220315 0.133167
0.103985 -0.257812 0.260748
0.270938 0.154283 0.266674
0.219466 -0.166918 0.260748
0.159196 0.337795 0.260748
0.097236 0.138633 0.266674
-0.257728 -0.174837 0.266674
-0.197351 -0.19816 0.260748
-0.104189 -0.185352 0.260748
-0.156978 -0.237674 0.260748
0.208537 -0.108951 0.266674
0.0988086 -0.219265 0.241894
0.218506 -0.0191322 0.260748
0.296384 0.227353 0.260748
-0.34075 -0.334984 0.261821
-0.226744 -0.22807 0.260748
0.225799 -0.195385 0.266674
-0.211336 -0.212248 0.107991
0.2083 -0.217182 0.247447
-0.329113 -0.191515 0.266674
-0.0915512 -0.278193 0.260748
-0.19902 -0.228154 0.256032
-0.246797 -0.191074 0.266674
-0.205779 -0.289321 0.260748
-0.0515687 0.0461505 0.260748
-0.192693 0.0881485 0.266674
-0.212007 -0.211577 0.197323
-0.196148 -0.0483724 0.260748
0.13284 -0.228154 0.235169
0.296742 -0.0770801 0.266674
-0.22665 -0.0105477 0.231117
-0.215965 0.235593 0.151062
-0.108341 0.335651 0.260748
0.0802739 0.290239 0.260748
-0.147711 -0.329796 0.266674
0.312995 -0.0506314 0.266674
0.217344 -0.208257 0.182443
0.00389034 -0.34075 0.263624
0.0801174 0.049665 0.266674
-0.34058 0.330753 0.266674
0.0461068 0.279665 0.260748
-0.0143294 0.0750842 0.266674
0.213881 0.234402 0.0933048
0.298252 -0.0773416 0.260748
-0.129686 -0.161372 0.260748
0.100235 -0.274419 0.266674
0.173135 0.30547 0.266674
0.293621 0.0402461 0.266674
-0.249189 0.0776366 0.260748
-0.1902 0.164504 0.266674
-0.096872 -0.22523 0.260748
-0.320545 0.280909 0.266674
0.0405792 0.199709 0.266674
0.203696 -0.1064 0.260748
0.043102 0.225192 0.252403
0.0484222 0.225192 0.260367
0.235217 -0.0734649 0.260748
0.187236 -0.225546 0.231117
0.0662041 -0.147873 0.260748
0.210493 -0.2312 0.173966
0.0156296 0.0239459 0.260748
-0.328723 -0.103323 0.260748
-0.0775973 -0.231519 0.266674
-0.00433251 -0.29915 0.266674
0.311051 -0.198988 0.260748
-0.239078 0.269489 0.260748
0.298773 -0.105812 0.260748
0.228555 -0.0989191 0.260748
-0.339101 -0.0596847 0.266674
-0.320464 0.265169 0.266674
0.083407 -0.226295 0.266674
0.311702 0.214786 0.260748
0.215775 0.318434 0.266674
-0.00457388 0.34075 0.260905
-0.151272 -0.219265 0.247906
-0.236777 0.282049 0.260748
-0.212583 -0.211001 0.226789
0.113474 -0.222231 0.260748
0.150253 0.151332 0.266674
-0.213836 -0.168424 0.260748
0.216302 -0.161663 0.244788
0.102877 0.0800781 0.266674
-0.0225998 0.220788 0.231117
-0.247718 0.0876643 0.260748
0.0550787 -0.0102854 0.266674
0.0949745 0.195793 0.266674
-0.283417 0.229105 0.260748
-0.321316 0.291974 0.266674
0.0859067 -0.220487 0.266674
0.211097 -0.231969 0.071827
-0.04211 0.223664 0.260748
-0.339777 -0.333403 0.266674
-0.173039 -0.151941 0.260748
-0.0284929 -0.326415 0.260748
0.0177492 -0.153488 0.260748
0.237889 0.0893968 0.266674
-0.251067 0.0583171 0.260748
-0.194379 0.339998 0.266674
0.0674675 -0.234195 0.260748
-0.0403248 0.321458 0.266674
-0.292365 -0.317946 0.260748
-0.0184911 -0.221395 0.266674
0.171159 -0.0725991 0.260748
-0.223786 -0.236907 0.034958
0.0777468 -0.0647011 0.260748
0.0998099 0.0851475 0.260748
-0.228155 -0.196663 0.238198
0.0889952 -0.0142142 0.266674
0.107818 0.00274011 0.260748
-0.248248 -0.129751 0.260748
-0.186449 0.287259 0.260748
0.317409 -0.219777 0.260748
0.207391 0.225192 0.232338
-0.34075 -0.0157861 0.262853
0.319267 -0.280351 0.260748
-0.285653 -0.00240237 0.266674
0.125412 0.224054 0.260748
-0.0913592 0.265454 0.260748
-0.297816 0.121673 0.266674
0.0726862 0.00667709 0.266674
0.128121 0.116698 0.260748
0.143057 0.0897399 0.266674
0.106956 -0.319299 0.260748
0.309848 0.234244 0.260748
-0.228155 -0.0209609 0.232107
0.303893 -0.287036 0.266674
-0.229993 0.23481 0.192539
-0.134781 0.0467955 0.260748
0.298025 -0.07616 0.260748
0.313549 -0.125106 0.260748
0.216302 0.160057 0.256029
-0.0752726 -0.294287 0.260748
-0.15862 0.08692 0.260748
0.18836 -0.228154 0.250017
0.0608068 0.296773 0.266674
-0.171406 0.326936 0.266674
-0.0619036 -0.219265 0.242744
-0.100623 -0.306324 0.260748
0.273997 0.229557 0.266674
0.146185 0.216303 0.255285
0.233117 0.212245 0.254278
-0.321744 -0.0647765 0.260748
-0.108997 0.203051 0.266674
-0.292535 -0.0871184 0.266674
-0.331871 0.145185 0.266674
0.274838 -0.0777192 0.266674
-0.027936 -0.0755511 0.260748
-0.118441 -0.127783 0.260748
-0.109885 -0.222247 0.260748
-0.143971 0.046613 0.260748
-0.299609 -0.245544 0.266674
0.327145 0.0959257 0.260748
0.196981 0.292694 0.266674
0.0597063 0.0761355 0.266674
0.11346 0.147204 0.266674
-0.0369362 -0.226445 0.260748
0.236844 -0.224499 0.0307466
-0.0269463 0.313721 0.260748
-0.0328718 -0.124436 0.260748
0.0985534 0.326958 0.266674
-0.188835 -0.0967541 0.260748
0.319867 0.183999 0.266674
0.163373 0.181062 0.260748
-0.187127 -0.16994 0.266674
-0.212558 -0.23343 0.0289633
0.0644201 -0.225101 0.266674
-0.23635 0.226554 0.0655545
-0.278385 0.194119 0.266674
-0.283429 -0.0562989 0.266674
-0.0333134 -0.0379233 0.266674
-0.193584 0.18521 0.266674
0.0157652 0.0351095 0.260748
0.213649 0.306248 0.260748
0.233019 0.212147 0.0350342
0.189521 -0.0275574 0.260748
0.0530207 -0.228154 0.258594
0.0155246 0.216303 0.244055
-0.301632 0.0438605 0.266674
0.0872262 0.184381 0.266674
-0.228155 -0.184264 0.231236
0.0127243 0.171954 0.260748
0.215511 -0.278693 0.260748
-0.122369 0.124361 0.266674
0.13615 0.190138 0.260748
0.211099 0.231972 0.12496
-0.165692 0.0834779 0.266674
-0.097695 0.0379201 0.266674
0.0358606 0.144804 0.266674
-0.0928637 -0.119989 0.266674
0.268816 -0.047682 0.260748
0.0782739 0.239976 0.260748
0.314993 -0.11691 0.260748
0.225191 0.0147084 0.233307
0.292898 -0.182737 0.260748
-0.283617 -0.0957273 0.260748
0.0730275 0.216303 0.240219
-0.142218 -0.0797851 0.266674
0.221412 0.104673 0.260748
-0.0930534 0.187757 0.260748
0.196625 0.338757 0.266674
0.0456031 0.315178 0.260748
0.211166 0.264488 0.266674
0.133772 -0.159192 0.266674
0.266274 0.206152 0.260748
-0.138576 0.209163 0.260748
-0.138952 -0.141566 0.260748
0.184102 0.320599 0.260748
-0.0943877 -0.312001 0.266674
0.104499 -0.0812961 0.260748
-0.218328 -0.207994 0.249681
-0.0779483 0.228921 0.266674
-0.12427 0.216303 0.240683
-0.322675 -0.145368 0.260748
-0.0103674 0.269536 0.266674
0.225191 -0.116743 0.253764
-0.246844 0.158361 0.260748
0.210215 -0.213653 0.20759
0.209145 0.162093 0.266674
0.0547258 -0.0138176 0.260748
-0.226649 0.208134 0.00325083
-0.212056 0.211528 0.246124
0.220802 -0.158781 0.266674
0.0403132 -0.330674 0.260748
-0.0104271 0.221763 0.260748
0.234364 0.21383 0.111602
0.0450464 0.234802 0.266674
-0.25333 -0.212869 0.266674
0.0980391 0.12068 0.260748
-0.0537139 0.225192 0.253109
0.269032 0.161972 0.260748
-0.213172 0.302044 0.266674
-0.130304 0.225192 0.248352
-0.23417 -0.230906 0.164077
-0.0761616 -0.34075 0.260917
0.276715 0.21977 0.266674
0.2162 -0.269504 0.266674
-0.251219 0.32211 0.266674
-0.219265 -0.169923 0.231279
-0.219265 -0.162359 0.239255
0.0693673 -0.155034 0.260748
0.0597481 0.239784 0.266674
0.279879 -0.24298 0.260748
-0.340537 0.0598024 0.260748
-0.147438 0.00553602 0.266674
-0.246104 -0.110953 0.266674
0.31602 -0.0567179 0.260748
-0.171195 -0.141068 0.260748
0.169994 -0.0347391 0.266674
-0.279222 -0.00651789 0.260748
-0.140119 -0.066998 0.260748
0.175696 0.156633 0.260748
0.241928 0.34075 0.263334
0.279696 0.261214 0.260748
-0.222191 -0.0620126 0.231117
0.207554 -0.0719532 0.260748
0.202741 0.0575035 0.260748
-0.303144 0.317536 0.266674
0.313791 -0.231426 0.266674
-0.228155 0.124136 0.260112
-0.0946566 0.229161 0.260748
0.216302 0.086284 0.255592
0.173739 0.129796 0.266674
0.207427 -0.222063 0.0186017
-0.219687 -0.193727 0.260748
0.278674 0.269733 0.260748
-0.079478 0.00747761 0.266674
-0.182669 -0.0169318 0.260748
-0.148413 0.331661 0.260748
0.168457 0.0930632 0.260748
0.25683 0.0612104 0.266674
0.209019 -0.182688 0.266674
0.238414 -0.322284 0.260748
0.216302 -0.143428 0.236911
0.0356329 -0.0511873 0.260748
0.138918 -0.269064 0.260748
0.00795954 0.331616 0.266674
-0.145074 -0.270355 0.266674
-0.206445 -0.223698 0.260748
0.0444541 -0.0612561 0.260748
0.225191 0.158343 0.238646
0.307826 -0.239033 0.266674
0.0682131 -0.0495468 0.266674
0.0584223 0.256974 0.266674
0.106156 -0.000605822 0.266674
-0.316052 -0.175775 0.260748
0.121252 0.11807 0.260748
0.102761 -0.0414982 0.266674
0.202885 -0.219265 0.247886
0.34075 -0.191885 0.26223
-0.0863968 0.34075 0.261094
-0.10127 -0.0884257 0.260748
-0.219265 -0.103024 0.252895
0.216302 0.0511731 0.244752
-0.0534561 -0.0368217 0.260748
0.283106 0.00115469 0.260748
-0.0129329 0.119383 0.266674
-0.253834 0.242142 0.260748
0.137365 -0.0638714 0.266674
0.260934 -0.12472 0.266674
0.193986 -0.3072 0.266674
-0.268019 0.0296605 0.266674
-0.00247191 -0.228154 0.248033
-0.0269538 0.0143644 0.266674
-0.169357 -0.276178 0.266674
-0.213395 0.0807464 0.266674
0.235165 0.215051 0.221756
0.226845 0.0447397 0.266674
-0.0556692 0.139362 0.266674
0.0161112 0.0510687 0.266674
0.230379 -0.214971 0.260748
-0.306546 0.225269 0.260748
-0.0301194 -0.228154 0.244977
0.209917 -0.21408 0.102514
-0.0865447 -0.083238 0.260748
-0.0249551 -0.254319 0.260748
0.224866 0.182794 0.231117
0.276954 0.164131 0.266674
-0.194303 0.0836687 0.266674
0.314495 -0.11458 0.266674
-0.244427 0.33171 0.266674
0.183126 -0.246415 0.260748
-0.232943 -0.105643 0.260748
0.171854 -0.109541 0.266674
0.216302 0.0207289 0.242186
0.206501 -0.326154 0.266674
-0.0214031 0.223235 0.260748
0.283816 -0.067168 0.266674
0.169521 -0.228154 0.234983
-0.317565 0.018835 0.266674
0.302447 0.212737 0.260748
-0.321857 -0.152872 0.266674
0.287613 0.338527 0.260748
0.292484 0.0268721 0.260748
-0.228155 -0.136259 0.256368
0.0433981 -0.121959 0.266674
0.0402817 -0.0520139 0.266674
-0.127481 0.16015 0.266674
-0.270321 -0.0371776 0.260748
0.241178 0.304739 0.260748
-0.118619 -0.229177 0.266674
0.00460249 -0.0244945 0.260748
-0.196099 -0.0883611 0.260748
0.213151 0.23929 0.260748
0.256741 -0.23767 0.260748
-0.226067 -0.0131535 0.260748
-0.11393 -0.00716847 0.260748
0.0411213 0.282473 0.260748
0.0795943 -0.202618 0.260748
-0.107752 0.222008 0.260748
0.253821 0.0936058 0.266674
0.0449407 -0.286314 0.260748
-0.0240262 0.0993388 0.260748
0.0834579 0.0109375 0.260748
0.287321 0.104348 0.260748
0.0209528 -0.315941 0.260748
-0.287874 0.0457543 0.260748
0.186454 0.000963479 0.266674
0.292862 -0.226758 0.266674
-0.101116 -0.0182337 0.266674
-0.0183 0.337289 0.260748
0.107895 0.216303 0.239947
-0.0406959 -0.0975042 0.266674
-0.10492 0.0184631 0.260748
0.214738 -0.177078 0.266674
-0.210333 -0.255825 0.266674
-0.258502 0.223956 0.260748
-0.17493 -0.0708742 0.260748
0.273273 0.00207862 0.260748
-0.0259837 -0.159929 0.260748
0.295028 -0.249406 0.266674
0.225237 0.207756 0.253286
0.233376 -0.231952 0.00885909
0.000684679 -0.231237 0.260748
-0.193518 0.159172 0.266674
-0.232411 -0.284557 0.266674
0.0533321 -0.0400648 0.260748
0.121069 -0.0994271 0.266674
-0.127959 -0.173874 0.266674
-0.244316 0.0120164 0.260748
-0.0128897 0.211848 0.266674
-0.203377 -0.00685212 0.260748
-0.0487497 -0.318452 0.260748
-0.0878033 -0.144703 0.260748
-0.0257058 -0.257182 0.260748
-0.174509 0.220346 0.231117
-0.228155 0.101589 0.243289
0.0820013 0.226681 0.266674
-0.05816 0.225192 0.254467
-0.124153 -0.243239 0.260748
-0.232647 0.299361 0.260748
0.176477 -0.246039 0.260748
0.0695976 -0.274246 0.260748
-0.236836 -0.224609 0.225701
-0.212808 0.0140875 0.266674
-0.206649 -0.282537 0.266674
-0.091989 -0.0849895 0.266674
-0.156424 -0.0348972 0.266674
-0.246279 -0.0323102 0.266674
-0.134273 -0.240036 0.266674
0.322527 -0.334697 0.260748
-0.133095 0.0835163 0.260748
0.305774 -0.197748 0.266674
-0.219334 -0.236732 0.0960251
-0.276542 -0.0712487 0.260748
0.0507083 -0.321899 0.266674
0.320455 0.215427 0.260748
-0.203039 -0.227348 0.260748
-0.250686 0.325345 0.266674
-0.249515 0.0353026 0.266674
0.09678 0.332854 0.266674
-0.284891 -0.0708981 0.260748
0.327198 -0.262538 0.260748
0.0831214 0.160132 0.260748
-0.219265 0.168031 0.236198
0.0238104 0.118351 0.266674
0.27292 0.147799 0.260748
0.228128 0.235763 0.160507
0.0743169 0.208031 0.260748
-0.118201 -0.0770577 0.260748
0.0162415 0.181398 0.266674
0.305508 0.124557 0.260748
-0.0226159 0.210365 0.260748
0.236431 0.226249 0.072531
0.0580339 -0.228154 0.243172
0.0385961 0.216303 0.256137
-0.06078 -0.17406 0.260748
0.142613 -0.0793522 0.266674
0.217734 -0.032502 0.260748
-0.228155 0.069964 0.239184
0.272407 0.0494848 0.266674
0.242194 0.292692 0.266674
-0.10837 -0.0252718 0.260748
-0.236035 0.099441 0.260748
-0.0642137 0.229252 0.260748
-0.111917 0.216303 0.232876
0.297714 0.225776 0.260748
-0.262865 -0.0322625 0.260748
0.109863 0.285309 0.266674
0.323176 -0.0266542 0.260748
-0.084662 0.234057 0.260748
-0.166172 0.32503 0.266674
0.233869 -0.213122 0.0594034
0.267122 -0.19702 0.260748
0.325656 0.182895 0.260748
0.137113 0.0753692 0.266674
-0.178097 -0.255112 0.260748
-0.29229 0.0932625 0.266674
0.0613515 0.12635 0.260748
-0.05914 -0.279258 0.266674
-0.188531 -0.205047 0.260748
0.0517573 0.0425368 0.260748
-0.301343 0.0764668 0.266674
0.260883 0.143233 0.260748
-0.00791535 -0.232132 0.266674
0.151958 -0.184621 0.260748
0.224407 -0.207604 0.0284142
0.269267 0.19437 0.260748
-0.186676 0.308724 0.260748
-0.230206 -0.224886 0
0.293547 0.282629 0.266674
-0.246238 0.119042 0.266674
0.154248 0.205145 0.266674
0.213228 0.233944 0.0785254
0.0676219 -0.333789 0.260748
0.173017 0.322929 0.266674
-0.04388 -0.144227 0.266674
-0.277309 0.136377 0.266674
0.230469 -0.209982 0.0222039
0.221755 -0.0516585 0.266674
-0.232758 0.0288994 0.260748
0.163001 -0.148153 0.260748
0.30119 -0.120002 0.266674
-0.256831 -0.226685 0.266674
-0.129718 0.169688 0.260748
-0.329369 -0.255628 0.260748
-0.170678 -0.178526 0.266674
0.166856 0.00244787 0.266674
0.311008 -0.284325 0.266674
0.177709 0.284775 0.260748
0.232688 0.211816 0.00625967
0.304862 -0.276215 0.260748
-0.219265 -0.158929 0.233411
0.306726 -0.168014 0.266674
0.213024 0.210656 0.147188
-0.00427994 0.0810396 0.266674
-0.334393 -0.334875 0.260748
-0.0143649 -0.190389 0.260748
-0.0621378 0.267643 0.266674
-0.052897 -0.228837 0.260748
0.010474 -0.200188 0.266674
-0.223224 -0.311866 0.260748
0.237003 -0.221769 0.155706
0.236177 -0.217263 0.20385
-0.0701224 -0.0616959 0.266674
-0.314157 0.194499 0.266674
0.237641 0.230227 0.266674
-0.130159 0.227082 0.260748
0.0104277 -0.156147 0.266674
-0.24917 0.246172 0.260748
0.0880959 -0.228154 0.255276
-0.262877 -0.0356046 0.266674
0.187685 0.0358971 0.260748
-0.0288363 -0.122463 0.260748
0.192296 -0.197618 0.266674
0.0906444 -0.185024 0.260748
0.127916 0.0177886 0.260748
-0.224474 -0.0570789 0.231117
0.234753 0.228376 0
0.232967 -0.232361 0.144914
0.309529 -0.126724 0.266674
0.282046 0.19124 0.260748
0.0916323 0.0318306 0.266674
0.0710461 -0.0765981 0.266674
-0.219743 0.143116 0.260748
-0.22294 0.207414 0.231322
-0.121751 0.0767018 0.266674
0.17974 -0.242992 0.266674
-0.330894 0.0654583 0.260748
0.233662 0.311622 0.266674
-0.219265 -0.146993 0.25963
0.325783 -0.168346 0.266674
-0.0799456 -0.291109 0.266674
-0.0691857 0.126239 0.260748
-0.122157 0.0815198 0.260748
0.281291 0.153506 0.266674
0.204242 -0.187573 0.266674
-0.189228 -0.113395 0.266674
0.193619 -0.309922 0.260748
0.129349 0.285885 0.260748
-0.102446 -0.266972 0.266674
0.2087 -0.164524 0.260748
-0.0683853 -0.225257 0.260748
0.229013 -0.0190352 0.260748
0.00239339 -0.0667362 0.266674
0.0527969 -0.219265 0.257917
-0.3363 -0.039509 0.266674
0.0788645 0.0685231 0.266674
-0.0836608 0.104899 0.260748
0.229439 -0.290379 0.266674
-0.20712 -0.0836149 0.266674
-0.210295 0.118363 0.266674
-0.0680453 -0.143555 0.260748
0.212323 0.0469604 0.260748
0.312837 0.104394 0.260748
0.0115711 0.306563 0.260748
0.0878116 -0.0828219 0.260748
0.324646 -0.115205 0.266674
0.146947 -0.14594 0.266674
-0.198466 0.279764 0.266674
0.225191 0.102491 0.253189
-0.202441 -0.0804147 0.260748
0.34075 -0.151566 0.265455
0.280621 -0.0362784 0.266674
-0.191811 -0.278016 0.266674
0.251547 0.326036 0.260748
-0.0438824 0.169872 0.260748
-0.308211 -0.0107149 0.266674
-0.0301405 -0.0543544 0.266674
-0.178753 -0.111658 0.266674
-0.299629 -0.0957001 0.266674
0.248069 0.217401 0.260748
0.209846 0.0716884 0.266674
-0.246024 0.0723817 0.266674
-0.308196 0.34075 0.261024
-0.228976 0.107877 0.260748
-0.235779 0.0549588 0.266674
-0.1999 -0.0610687 0.266674
-0.294016 -0.228584 0.266674
0.0780334 -0.267086 0.260748
-0.189404 0.268644 0.260748
0.135707 -0.0419768 0.260748
-0.336984 -0.064227 0.260748
-0.219265 0.0442171 0.257972
-0.0585033 0.282743 0.260748
0.0730565 0.0938165 0.266674
-0.296168 0.0336597 0.260748
-0.0779261 -0.281696 0.266674
0.229726 0.234997 0.223722
-0.257778 0.301085 0.260748
-0.289383 0.306594 0.260748
-0.168717 -0.331873 0.260748
-0.228222 -0.125022 0.260748
-0.220393 0.0488667 0.260748
0.244912 -0.0911741 0.266674
-0.264836 -0.253104 0.266674
0.155591 0.108965 0.260748
0.0596628 -0.211347 0.266674
-0.0916387 -0.129283 0.260748
-0.30066 0.0128064 0.260748
0.225309 -0.0754057 0.266674
-0.228155 -0.0298623 0.257571
0.132967 0.225192 0.245314
-0.168898 -0.115977 0.260748
-0.303342 0.139158 0.266674
0.0716272 0.0791847 0.266674
0.277417 -0.288033 0.260748
0.263198 0.338187 0.266674
-0.132539 -0.235421 0.266674
0.171222 0.0403967 0.266674
0.15199 0.281653 0.266674
-0.311828 -0.0678929 0.266674
-0.253702 -0.0646904 0.266674
0.188181 0.0464477 0.260748
-0.291411 -0.0858295 0.266674
0.209552 0.260851 0.260748
-0.227441 0.208374 0.122008
-0.214275 0.218858 0.260748
-0.203056 -0.118011 0.266674
0.143027 -0.338592 0.260748
0.198972 0.108961 0.260748
0.0593853 0.217363 0.231117
0.333434 -0.0306056 0.266674
-0.279559 -0.302177 0.266674
-0.0365051 0.140171 0.266674
0.10403 0.0100787 0.260748
0.183242 0.271356 0.266674
0.159558 -0.250351 0.266674
-0.314851 0.0387712 0.260748
0.0827277 0.303114 0.260748
0.216302 0.199207 0.242107
0.196955 -0.0370239 0.260748
-0.145654 0.322814 0.266674
-0.109958 -0.336416 0.260748
0.12494 -0.221006 0.266674
0.332932 -0.106309 0.266674
0.128724 0.307974 0.260748
0.176407 0.34075 0.260928
0.256691 -0.184908 0.260748
0.225191 0.162507 0.240733
-0.186791 -0.0490728 0.266674
0.0339834 0.0977962 0.266674
-0.306199 -0.161277 0.266674
0.163865 0.0260504 0.266674
0.136359 0.164797 0.266674
0.214179 0.209847 0.150353
-0.255171 0.248118 0.260748
0.13129 0.218242 0.266674
-0.0015983 0.216484 0.260748
0.0257076 0.189801 0.266674
-0.10687 -0.187993 0.260748
-0.210201 0.213674 0.0924018
0.205508 -0.253438 0.260748
-0.157822 0.198284 0.260748
0.250445 -0.119556 0.266674
-0.170206 0.0923509 0.260748
-0.269485 0.197996 0.260748
-0.174239 0.232629 0.266674
0.31044 -0.000357687 0.260748
0.0379338 0.253346 0.260748
0.216351 0.0807125 0.266674
0.23703 0.222075 0.0978675
0.0368181 -0.0437837 0.266674
-0.185774 -0.228154 0.235562
0.151287 -0.161549 0.260748
0.138625 0.186987 0.260748
0.212241 -0.123908 0.266674
-0.125968 -0.29237 0.260748
-0.220138 0.233257 0.260748
-0.19714 -0.261903 0.266674
-0.220005 -0.207607 0.048816
0.222215 -0.237042 0.145816
0.0185684 -0.10496 0.260748
0.220526 0.0443478 0.260748
-0.0383127 -0.0200588 0.266674
-0.229802 -0.0772907 0.266674
-0.267772 -0.226261 0.260748
-0.0971049 0.290868 0.266674
-0.129945 -0.026732 0.260748
0.216302 0.080873 0.24146
0.232957 0.212085 0.108598
-0.13222 0.193554 0.260748
-0.340142 0.0178716 0.260748
-0.0818341 0.167526 0.260748
0.180047 0.131858 0.260748
0.266064 -0.247648 0.266674
0.231819 -0.210947 0.0871663
-0.120403 0.220902 0.266674
-0.116562 -0.0125235 0.260748
0.189488 0.20885 0.260748
0.22863 0.235529 0.249963
0.0171047 0.325075 0.260748
-0.0791655 -0.0665551 0.260748
-0.127035 0.261627 0.266674
0.207814 0.218997 0.00088596
0.126233 -0.228154 0.258706
0.340583 0.246898 0.266674
-0.148405 -0.075775 0.260748
0.245082 -0.00452903 0.260748
-0.162893 0.305173 0.260748
-0.199364 -0.0406354 0.260748
0.294352 -0.22927 0.266674
0.213893 -0.234409 0.0517589
-0.183602 -0.256424 0.260748
0.135825 0.207144 0.260748
-0.110136 -0.221147 0.231117
-0.203277 0.282422 0.260748
0.169008 0.0760741 0.260748
0.172164 -0.186375 0.266674
0.221004 -0.0278675 0.266674
0.291064 -0.0631461 0.260748
0.0179236 -0.204065 0.260748
-0.0138452 -0.210978 0.260748
-0.311131 -0.112853 0.266674
0.139793 0.340001 0.260748
0.327835 -0.0937813 0.266674
-0.0122615 -0.0833496 0.266674
0.220501 0.207565 0.234227
0.080864 0.197567 0.266674
-0.249816 -0.245525 0.266674
0.238241 -0.210481 0.266674
0.269751 -0.153881 0.260748
-0.135577 0.0414841 0.260748
-0.0175707 -0.133162 0.266674
0.208064 0.218065 0.0659211
-0.0772206 -0.037852 0.266674
0.087669 -0.223029 0.231117
0.0840986 0.123392 0.266674
0.19043 -0.0823943 0.260748
0.211845 0.211739 0.0934211
0.22722 -0.00333905 0.266674
0.29371 0.141562 0.260748
0.210676 0.231463 0.185862
-0.206222 -0.140039 0.266674
-0.302942 -0.207659 0.266674
-0.0499096 0.246989 0.260748
0.0665888 0.0805051 0.266674
-0.177809 -0.221368 0.266674
-0.284316 -0.186231 0.266674
0.0685395 0.04791 0.266674
-0.231297 0.233897 0.153576
-0.0704445 0.207019 0.266674
-0.264713 -0.151754 0.266674
0.25043 0.0472668 0.266674
-0.0671519 0.313726 0.266674
-0.107573 -0.228154 0.235376
-0.239915 0.0194369 0.260748
0.216302 -0.102507 0.237443
0.0376518 -0.0378433 0.266674
-0.0935996 -0.153867 0.266674
-0.260387 0.0993984 0.260748
-0.25011 -0.248977 0.266674
-0.1566 -0.223515 0.260748
-0.0406722 0.238428 0.260748
0.125082 -0.0671583 0.266674
-0.00772984 -0.222737 0.231117
0.00741863 -0.0196997 0.260748
0.239062 -0.0950902 0.266674
0.0203789 -0.147386 0.260748
0.0299988 -0.310746 0.260748
-0.178881 -0.135912 0.260748
-0.0378505 -0.30825 0.266674
0.136709 -0.26094 0.260748
-0.295644 -0.214271 0.266674
-0.339797 0.284078 0.266674
0.261156 -0.145804 0.260748
-0.253288 -0.0859102 0.260748
0.216302 -0.10182 0.246098
0.0395703 -0.0807501 0.260748
-0.319311 0.171215 0.260748
-0.141104 -0.331998 0.260748
0.321063 -0.171496 0.266674
-0.17538 -0.016479 0.260748
-0.232139 0.23319 0.0744255
-0.0736196 -0.100411 0.266674
-0.135705 0.325248 0.266674
-0.295827 0.100671 0.260748
0.176163 -0.322563 0.260748
0.218193 0.0648998 0.260748
0.0279665 0.105587 0.266674
-0.333289 0.130255 0.260748
-0.165491 0.0905362 0.260748
-0.0982663 -0.316522 0.266674
-0.0469088 -0.122245 0.260748
-0.107392 0.122967 0.266674
-0.0926373 0.109795 0.260748
-0.295596 -0.134137 0.266674
0.336526 0.136968 0.260748
0.0294225 -0.0843595 0.266674
0.0819081 -0.143594 0.266674
0.316358 -0.257154 0.266674
-0.22218 -0.166924 0.260748
0.221263 -0.135827 0.266674
-0.133067 -0.220953 0.231117
-0.106358 -0.276357 0.266674
0.0716124 -0.0448397 0.266674
-0.154687 0.208941 0.260748
0.216571 -0.235874 0.105514
0.289463 0.213447 0.260748
0.207833 -0.225528 0.0270511
0.225191 -0.0818962 0.246452
0.0782058 0.0010269 0.266674
-0.279305 -0.106183 0.260748
-0.312889 -0.160746 0.266674
-0.228155 0.135915 0.246603
0.221356 0.0634956 0.260748
0.21012 0.215503 0.260748
0.0473461 -0.226477 0.260748
-0.133108 -0.125379 0.266674
0.328677 0.261039 0.260748
-0.225948 0.0987722 0.260748
0.20022 0.259488 0.260748
0.324802 -0.230748 0.260748
0.242359 -0.0219259 0.260748
0.0040786 -0.25815 0.266674
0.340083 0.290015 0.260748
0.25041 0.0731117 0.266674
0.0632884 0.0272597 0.260748
-0.0281384 -0.113574 0.266674
0.216302 -0.159483 0.231173
0.167858 0.339438 0.260748
-0.0242861 0.332544 0.260748
0.175202 -0.244004 0.266674
0.260041 -0.320315 0.266674
0.124119 -0.228154 0.254974
0.223137 0.207493 0.232804
0.03251 0.269546 0.266674
0.166745 0.134678 0.266674
-0.0679147 0.330048 0.260748
-0.241015 0.204617 0.266674
-0.187186 0.13257 0.260748
-0.00522035 -0.175578 0.260748
0.34075 -0.144925 0.263601
-0.0115903 0.235089 0.266674
0.107363 0.241528 0.266674
-0.198347 0.119187 0.266674
0.335121 0.283023 0.266674
0.20482 -0.211364 0.260748
0.195719 -0.226341 0.260748
0.225191 0.0372346 0.250249
0.150745 -0.0667901 0.260748
-0.288013 -0.023204 0.260748
0.0670396 0.311063 0.260748
0.216491 0.23514 0
-0.323362 -0.217282 0.266674
0.075954 0.322966 0.260748
0.0340861 0.181639 0.260748
-0.139266 0.195342 0.260748
0.278843 0.30423 0.266674
-0.17213 0.276613 0.260748
-0.129306 -0.250609 0.260748
0.195668 -0.15686 0.260748
-0.18843 0.276158 0.266674
0.216302 -0.0805053 0.247367
-0.18614 -0.327023 0.260748
0.0542328 -0.289004 0.260748
-0.306788 -0.0216402 0.260748
-0.212669 -0.233541 0.168688
0.292556 -0.275713 0.260748
0.05041 0.34026 0.266674
0.0286135 -0.202022 0.266674
0.00984371 -0.228154 0.232876
0.087853 -0.239536 0.266674
-0.147725 -0.266305 0.260748
-0.1843 -0.326281 0.266674
-0.165723 0.281405 0.260748
0.0369459 0.0304083 0.260748
0.147392 0.15125 0.260748
-0.187301 -0.322237 0.260748
-0.219907 0.207617 0.135757
-0.224585 -0.207619 0.036723
0.138175 0.187503 0.266674
-0.13858 0.264374 0.260748
0.329524 0.117379 0.266674
-0.107385 -0.048367 0.266674
0.0651644 0.153214 0.266674
0.0932036 0.218079 0.260748
-0.274151 -0.331051 0.266674
0.305287 -0.0740463 0.266674
0.269903 0.0918092 0.266674
0.216302 0.0128481 0.236636
0.0945666 0.256891 0.260748
0.144995 -0.279186 0.266674
-0.141099 -0.32899 0.266674
0.257175 0.32402 0.260748
0.330917 0.000503898 0.266674
-0.289468 -0.195324 0.260748
0.0279337 -0.2064 0.266674
-0.331674 -0.000122607 0.266674
-0.177481 0.126691 0.266674
-0.140233 -0.232856 0.260748
-0.235941 -0.227745 0.195642
0.297685 0.157784 0.266674
-0.211493 -0.310258 0.266674
0.337328 -0.248287 0.266674
0.13886 0.218014 0.260748
0.225191 0.150596 0.235465
0.244595 0.205535 0.260748
0.140004 0.204626 0.266674
-0.151897 -0.30856 0.266674
0.0957562 0.100016 0.266674
0.212545 -0.211039 0.213117
0.0533831 -0.228154 0.251908
-0.106428 0.13644 0.260748
0.00401413 0.11118 0.260748
0.290983 0.334272 0.266674
0.193786 -0.329792 0.266674
0.276455 0.159159 0.260748
0.25236 0.242383 0.260748
0.272293 -0.131762 0.266674
0.250302 0.243019 0.260748
-0.219265 -0.196655 0.252936
0.0661769 0.151467 0.266674
-0.180692 0.188831 0.260748
0.239262 0.154303 0.260748
-0.213074 0.224206 0.266674
-0.00339937 0.0247848 0.260748
0.150651 -0.115105 0.266674
-0.124239 0.0603277 0.260748
0.225191 0.116962 0.258735
0.229367 0.0714641 0.260748
-0.149573 -0.316264 0.260748
-0.338169 -0.0705589 0.266674
0.171139 0.0940972 0.266674
-0.218225 0.255947 0.260748
0.336192 0.305258 0.260748
0.050268 0.177743 0.260748
0.0989158 -0.144309 0.260748
0.216316 -0.235755 0.0872303
-0.0190566 -0.236461 0.260748
0.293828 0.0438648 0.266674
-0.219265 -0.202289 0.237545
0.0437021 0.21908 0.231117
0.310881 0.16925 0.260748
-0.285451 0.0414488 0.260748
-0.164609 -0.219265 0.256804
0.216302 -0.1825 0.233764
-0.0304815 0.216303 0.255325
-0.235476 0.268648 0.260748
-0.215087 0.209274 0.203242
0.001412 0.249757 0.260748
0.0227589 0.211237 0.266674
0.216302 0.18965 0.255589
0.215301 -0.209174 0.0571916
-0.0924104 -0.339283 0.266674
-0.200587 -0.177201 0.260748
-0.159273 -0.303579 0.260748
0.236707 -0.225215 0.0531381
0.121568 0.225758 0.260748
0.308621 0.330166 0.266674
0.230997 -0.338306 0.266674
0.225025 -0.188241 0.266674
0.159762 -0.023714 0.266674
-0.297661 0.28125 0.266674
-0.241927 0.0744957 0.260748
-0.0346453 -0.0555824 0.266674
0.240898 -0.258823 0.260748
-0.339867 0.031091 0.266674
0.10707 -0.188178 0.266674
0.213188 0.0105798 0.266674
-0.233073 -0.232256 0.181058
0.0876546 0.0136862 0.266674
-0.226999 0.201677 0.266674
0.0504201 0.0333945 0.260748
0.0663646 -0.192118 0.266674
-0.150987 0.0947769 0.260748
-0.0629174 0.0835115 0.260748
-0.0749064 -0.139899 0.266674
-0.189676 0.223268 0.266674
0.310469 -0.218105 0.260748
-0.26599 0.248063 0.266674
0.299997 -0.258364 0.266674
-0.228155 -0.0555046 0.250631
0.186211 -0.228154 0.247553
-0.0529368 0.226347 0.266674
-0.138846 0.237334 0.260748
0.00863704 0.330177 0.260748
0.115434 0.0893482 0.266674
0.219615 0.148786 0.260748
-0.0110789 -0.19605 0.266674
0.186075 -0.29221 0.260748
-0.173421 0.207892 0.266674
-0.095362 -0.299993 0.266674
0.130855 0.257717 0.266674
-0.0284827 0.0592406 0.260748
0.0501064 0.318378 0.260748
0.134735 0.15919 0.266674
0.161165 0.177367 0.266674
0.170399 0.000285298 0.260748
-0.230084 0.0323948 0.260748
0.223135 0.213418 0.260748
-0.0723292 -0.0829567 0.260748
0.131262 0.0194202 0.266674
-0.219265 0.10494 0.242449
-0.179299 0.0471226 0.266674
0.27385 0.0721557 0.266674
0.213272 -0.127946 0.266674
0.258503 0.278893 0.266674
-0.218845 0.247909 0.260748
-0.0206921 0.10753 0.266674
0.23345 0.121057 0.266674
-0.0186814 -0.227685 0.260748
0.311659 0.162635 0.266674
0.0889601 0.0742839 0.266674
0.315758 -0.233782 0.260748
0.232304 -0.211432 0.0548357
-0.175156 0.0144283 0.260748
-0.0815029 0.246148 0.260748
-0.257973 0.271551 0.260748
0.0224368 0.295956 0.266674
-0.303618 0.0218167 0.260748
-0.0115154 -0.228154 0.249185
-0.243676 -0.280236 0.260748
0.225191 0.0765473 0.243524
0.300187 -0.0227904 0.266674
-0.165222 0.196249 0.260748
0.189838 -0.139439 0.260748
0.153231 0.13349 0.266674
-0.0823896 0.060121 0.260748
-0.0437162 0.0139358 0.260748
-0.120157 -0.205726 0.266674
-0.251843 -0.213474 0.266674
-0.238452 0.28139 0.266674
-0.331687 -0.308935 0.260748
-0.040457 0.310263 0.266674
-0.32142 0.307722 0.260748
-0.105189 0.217074 0.266674
0.188929 -0.153278 0.260748
-0.324376 -0.0174168 0.266674
-0.136386 0.224936 0.260748
-0.0293783 0.216303 0.232735
0.0448833 -0.0342169 0.260748
0.228016 0.051677 0.260748
0.0567754 0.0229765 0.260748
-0.324983 -0.34075 0.264683
0.319682 0.0448847 0.260748
0.190395 0.0761364 0.260748
0.121402 -0.243879 0.266674
-0.169932 0.314704 0.260748
0.232941 -0.247605 0.266674
0.223264 -0.207413 0.245821
0.0729267 -0.269833 0.260748
-0.122549 0.137939 0.260748
0.231214 0.215874 0.260748
0.197488 0.239077 0.266674
0.0718972 0.179349 0.266674
0.299201 0.215187 0.260748
-0.313272 -0.0514873 0.266674
-0.228155 0.158235 0.245849
0.204102 0.204276 0.260748
-0.0686881 -0.0509887 0.266674
-0.0326861 0.129466 0.260748
-0.14901 -0.228154 0.239973
0.159011 0.135341 0.266674
-0.228155 0.182485 0.258717
0.335429 -0.297402 0.260748
-0.174057 -0.0835397 0.260748
0.112955 0.233303 0.260748
0.0201558 -0.324871 0.260748
-0.0467959 0.220613 0.260748
-0.00537333 0.288633 0.260748
-0.211387 -0.232259 0.121367
0.0733408 -0.0290595 0.266674
-0.0325075 0.269109 0.266674
-0.253267 0.230227 0.260748
0.162258 0.115743 0.266674
-0.34075 -0.176533 0.263792
-0.217222 -0.236166 0.222736
0.230782 -0.158955 0.260748
0.113158 -0.0726965 0.260748
0.23433 -0.21378 0.0944531
-0.0143602 -0.253056 0.266674
0.179435 0.104448 0.266674
-0.320479 -0.0989247 0.266674
0.135073 0.217497 0.266674
-0.209873 0.230315 0.00565856
0.202961 -0.0890034 0.260748
0.279417 0.0424844 0.260748
-0.214193 0.23462 0.225239
0.216302 -0.091209 0.231148
0.234905 0.214603 0.15845
-0.267892 0.318104 0.260748
-0.264907 -0.0958936 0.266674
0.286925 0.0448396 0.266674
0.00134936 -0.0566559 0.266674
0.021439 -0.0641659 0.266674
-0.329246 -0.19208 0.260748
0.102236 0.272555 0.260748
0.165207 0.330386 0.260748
-0.233455 0.0937668 0.266674
0.22098 0.207414 0.245282
0.334676 0.0294148 0.260748
-0.0310537 0.222406 0.260748
0.143262 -0.19851 0.266674
0.0817073 -0.22674 0.260748
0.232134 -0.211262 0.181433
-0.172105 -0.157774 0.260748
-0.0368961 0.267569 0.266674
-0.218487 0.243335 0.260748
0.10169 0.0710093 0.260748
-0.280413 0.188678 0.266674
0.216302 0.128147 0.260318
-0.235758 -0.228138 0.24357
-0.151497 -0.319521 0.260748
-0.303323 0.121274 0.260748
-0.106232 0.0905096 0.260748
0.246839 0.111513 0.260748
-0.220878 0.207414 0.248776
-0.132365 0.117818 0.260748
0.107684 -0.132133 0.260748
-0.119707 -0.0637114 0.266674
-0.275806 -0.0553195 0.266674
0.29335 0.0311943 0.266674
0.309076 -0.34075 0.265332
-0.270564 0.0397265 0.266674
-0.211057 -0.310869 0.260748
-0.0292231 -0.141256 0.266674
0.17158 0.063569 0.260748
0.213465 0.128358 0.260748
-0.325829 0.0635753 0.260748
0.269349 -0.163051 0.260748
-0.153684 -0.263186 0.266674
-0.0633464 0.332739 0.266674
-0.295891 0.0833972 0.266674
-0.222132 -0.143975 0.260748
-0.289255 0.330693 0.260748
-0.068758 0.210631 0.260748
0.248687 -0.298443 0.266674
0.156634 0.30192 0.266674
0.180108 -0.113741 0.266674
-0.0471345 0.0899461 0.266674
0.326242 0.146473 0.260748
-0.330387 -0.160648 0.260748
0.0546478 0.224312 0.260748
0.0334134 0.34075 0.266327
0.00109583 -0.333236 0.266674
0.226507 -0.208095 0.145858
-0.139954 0.145068 0.260748
0.214865 -0.235079 0.0564693
-0.00231943 -0.141465 0.260748
0.101225 -0.058604 0.266674
-0.218397 0.236482 0.00383907
-0.157411 -0.0992029 0.260748
-0.15352 -0.228154 0.243698
-0.330082 0.0897292 0.260748
-0.268264 0.107077 0.260748
-0.106297 0.0719415 0.266674
0.229372 -0.209275 0.194268
-0.0920821 -0.0621724 0.266674
-0.183763 -0.228154 0.260717
0.34075 0.0848953 0.261899
0.000380814 0.0762117 0.266674
0.0717196 0.14438 0.260748
-0.228155 -0.183751 0.256549
0.311827 -0.243512 0.260748
-0.0825189 0.0125102 0.260748
-0.233948 0.231223 0.208459
0.175652 0.333678 0.266674
-0.0573927 0.154818 0.266674
0.0699672 -0.0897482 0.260748
0.0793782 0.0258957 0.260748
-0.340243 -0.332105 0.266674
-0.198698 0.207788 0.266674
0.0664901 -0.284965 0.266674
-0.28016 -0.276075 0.266674
-0.272589 -0.0883428 0.260748
-0.0856055 -0.0546 0.266674
-0.302844 0.284155 0.266674
-0.236271 0.226849 0.0980487
0.00142244 -0.0270059 0.260748
0.128433 -0.29531 0.260748
0.234516 0.11519 0.260748
-0.103869 0.0230924 0.266674
0.225191 -0.00569847 0.246277
0.022011 0.166133 0.266674
-0.331558 0.158924 0.266674
-0.201311 -0.0394357 0.260748
-0.291297 -0.0466881 0.266674
0.226324 -0.334582 0.266674
-0.220787 0.20754 0.222176
0.170609 0.225192 0.257994
0.265468 0.339271 0.266674
0.0942008 -0.228154 0.250119
0.123077 -0.0115552 0.266674
-0.224655 -0.0780563 0.260748
-0.228155 0.124758 0.259246
0.0764572 0.235208 0.260748
-0.0854064 0.271049 0.260748
0.105137 -0.219265 0.248853
-0.100857 -0.162307 0.266674
-0.301868 0.293362 0.260748
-0.000917673 0.216303 0.244963
0.0588842 -0.219265 0.236304
-0.217934 0.24966 0.266674
-0.00236928 0.201873 0.266674
-0.323424 0.320141 0.266674
0.237416 0.32444 0.260748
0.272453 0.241175 0.266674
0.235599 0.152288 0.260748
0.34075 0.0250636 0.265387
0.0673664 -0.275929 0.260748
0.0317115 -0.249578 0.266674
0.170116 -0.0139285 0.266674
-0.0616098 0.233208 0.260748
0.0936436 0.125486 0.260748
-0.0930325 -0.148063 0.266674
0.101973 -0.20695 0.260748
-0.250998 0.244334 0.266674
0.0583272 0.062461 0.266674
-0.236406 0.218115 0.00324573
-0.0509723 0.0489253 0.266674
0.225191 0.186285 0.257345
0.0921475 0.0931295 0.260748
0.236346 -0.226565 0.123415
0.0589554 -0.0856099 0.260748
-0.224188 -0.207584 0.0958774
0.335921 -0.12181 0.260748
0.222204 0.207416 0.150614
0.237467 0.216713 0.260748
-0.266901 -0.19704 0.260748
0.216302 0.150059 0.259918
0.216292 0.208712 0.0321927
-0.114109 -0.31351 0.260748
0.118995 0.216303 0.241816
0.0224335 0.209311 0.266674
-0.131664 -0.219265 0.236431
0.237665 -0.121182 0.266674
0.235332 0.215409 0.065749
0.210883 -0.24875 0.266674
-0.0980017 0.164069 0.260748
-0.339592 -0.190847 0.260748
-0.12531 -0.17145 0.260748
-0.322209 0.00772917 0.260748
0.223959 0.207565 0.0317967
-0.230392 0.234531 0.251611
-0.219265 0.199577 0.238175
-0.287801 0.278486 0.266674
0.233449 -0.324731 0.266674
0.249314 -0.0553414 0.260748
-0.0423049 -0.0288433 0.260748
-0.193053 -0.225455 0.231117
-0.219265 0.137639 0.241848
0.0221995 0.232375 0.260748
-0.208182 0.217628 0.0681207
-0.292196 0.15199 0.260748
0.121399 0.280702 0.260748
0.0707608 0.157073 0.260748
0.079085 0.337604 0.266674
-0.0883079 -0.0769626 0.266674
-0.236905 -0.223821 0.0601417
-0.224651 -0.0912946 0.266674
0.215586 0.225294 0.260748
-0.042999 0.0400147 0.266674
-0.252271 0.0177614 0.260748
0.24585 -0.188022 0.266674
0.333478 0.253433 0.260748
-0.188523 -0.28613 0.260748
-0.0965033 -0.0554742 0.260748
-0.305613 0.166976 0.260748
0.0302428 -0.228154 0.254914
-0.252578 -0.145564 0.260748
-0.115276 0.236666 0.266674
-0.234184 -0.230886 0.210927
0.0735555 0.0815012 0.266674
-0.208579 -0.216577 0.234277
-0.257397 -0.270368 0.260748
0.201401 -0.0732189 0.260748
0.144446 0.177586 0.260748
-0.28629 -0.0948503 0.260748
-0.228155 0.0471545 0.240536
0.149787 -0.189878 0.266674
-0.326487 -0.0370687 0.266674
-0.118404 -0.0473814 0.260748
0.159588 0.227732 0.260748
0.319106 0.0343115 0.266674
0.140139 0.297458 0.260748
0.161633 0.150709 0.266674
-0.237024 0.222457 0.253157
0.229207 0.155791 0.266674
0.316364 -0.0298464 0.260748
-0.30003 0.0667951 0.260748
0.218777 0.128926 0.260748
-0.0868044 -0.181391 0.260748
-0.033685 0.307896 0.266674
0.333287 -0.310176 0.266674
0.183992 -0.219265 0.252513
-0.0670077 -0.132029 0.260748
0.166469 0.216303 0.231213
0.0840293 -0.206589 0.266674
0.214071 0.209923 0.0411307
-0.150463 -0.0833783 0.266674
-0.0179895 0.315574 0.260748
0.121865 -0.219265 0.231378
-0.209356 -0.229546 0.00412878
-0.185409 0.217493 0.260748
-0.32307 0.0104011 0.266674
0.170983 -0.244698 0.266674
0.111784 -0.138822 0.260748
0.0976176 0.0849425 0.260748
-0.211351 0.130383 0.260748
0.219874 -0.236837 0.104375
-0.208809 0.241822 0.266674
-0.0372729 0.278302 0.260748
-0.315114 0.209737 0.260748
-0.167761 -0.169303 0.260748
0.312727 0.273478 0.266674
-0.219265 0.085181 0.2528
-0.0126539 -0.265955 0.266674
0.000636697 0.0316308 0.266674
-0.162208 -0.109927 0.266674
0.269014 -0.0932734 0.260748
-0.0921375 0.318424 0.260748
0.15593 -0.0805258 0.260748
-0.236887 0.220439 0.198753
0.207424 -0.2221 0.184844
-0.0705188 0.102734 0.260748
0.155797 -0.184517 0.260748
0.227268 0.2083 0.0157856
0.06167 -0.162276 0.260748
0.316578 0.235583 0.266674
-0.207491 0.221348 0.054368
-0.122383 0.0631316 0.260748
-0.209723 -0.214357 0.166155
-0.207608 0.224452 0.131321
-0.298387 0.331596 0.260748
-0.240132 -0.33998 0.260748
-0.219265 -0.135237 0.252158
0.153048 0.0443155 0.266674
0.213964 -0.0550711 0.266674
-0.323229 0.223155 0.260748
0.325309 -0.0580396 0.266674
-0.0321269 -0.325701 0.260748
-0.0346181 -0.127865 0.266674
0.210867 0.253298 0.266674
0.0315533 0.141018 0.266674
-0.129507 0.246696 0.260748
-0.00567168 0.113151 0.266674
-0.0688736 -0.204192 0.266674
0.270539 -0.17119 0.260748
0.265333 0.124133 0.266674
0.242895 -0.0150292 0.260748
-0.156825 0.1877 0.260748
-0.230189 0.209785 0.0890519
-0.107886 -0.11699 0.260748
0.306945 0.209246 0.266674
0.232267 -0.314903 0.260748
-0.0580061 -0.270281 0.260748
0.0843015 0.244928 0.260748
0.0168017 -0.0938321 0.260748
0.0548812 -0.195578 0.260748
0.0689329 0.13784 0.260748
-0.295262 -0.229694 0.260748
0.211735 0.319208 0.266674
0.222749 -0.207459 0.0486173
0.225191 -0.11387 0.236419
-0.0115642 0.225192 0.234861
0.104218 0.322067 0.266674
0.0355638 0.244595 0.260748
-0.143934 0.228641 0.260748
-0.0648407 -0.143058 0.260748
0.132524 -0.151236 0.266674
-0.313383 -0.12427 0.260748
0.173888 0.13231 0.266674
-0.153474 -0.332752 0.266674
0.234178 -0.298004 0.260748
0.286808 -0.175287 0.266674
-0.0911116 0.332234 0.260748
0.305807 0.149531 0.260748
0.31591 -0.243366 0.266674
-0.211363 -0.212221 0.194659
-0.324383 0.115323 0.260748
-0.228155 -0.161004 0.23201
0.271467 -0.101553 0.266674
0.216564 0.21646 0.260748
-0.144693 0.186741 0.260748
-0.247839 -0.329377 0.260748
-0.29371 0.155834 0.260748
-0.00551993 0.0347399 0.266674
0.225274 -0.236691 0.03346
-0.120939 -0.0170874 0.260748
-0.203653 0.0776355 0.260748
-0.0584525 -0.0375218 0.266674
-0.160931 -0.0827476 0.266674
-0.21073 -0.243873 0.260748
-0.212895 -0.23371 0.0384162
-0.213064 -0.233828 0.0274678
