0.24063 -0.255806 0.654329
0.052913 0.229368 0.443238
0.130935 0.135038 0.633223
0.0681032 0.234228 0.654329
0.0785477 -0.267361 0.636209
0.210848 -0.236403 0.214138
-0.263603 -0.103805 0.633223
-0.236403 0.210906 0.283908
-0.144339 -0.125448 0.654329
0.178464 0.0850805 0.633223
0.0538849 0.179614 0.633223
0.236144 0.105282 0.654329
0.22302 0.18716 0.654329
0.236403 0.233783 0.302453
-0.232638 0.236403 0.135454
-0.151218 0.243987 0.654329
-0.209548 0.20826 0.468415
-0.216476 0.20826 0.0278552
0.136865 -0.229367 0.437679
-0.184428 -0.0564677 0.633223
0.0625246 -0.215601 0.654329
-0.229367 -0.142526 0.441716
0.219389 -0.20826 0.0358735
0.256559 0.0566572 0.654329
-0.20826 0.233666 0.327966
0.211878 0.20826 0.0466293
-0.175552 0.092652 0.654329
-0.206354 0.166591 0.654329
0.20826 -0.23073 0.170066
0.0707093 0.0097149 0.633223
-0.00550073 -0.264294 0.633223
0.185665 0.0182814 0.654329
-0.0191124 0.17192 0.633223
0.215296 0.117373 0.422544
-0.0967893 0.109539 0.654329
0.20826 0.231027 0.517917
0.232501 0.20826 0.204741
-0.236403 0.217274 0.25233
-0.247636 0.186245 0.633223
0.20826 -0.21057 0.334294
-0.20826 -0.22702 0.514742
0.171196 0.215636 0.654329
-0.20826 0.219112 0.17342
0.214363 -0.0243103 0.633223
-0.189522 0.116913 0.654329
0.113015 0.255214 0.633223
0.0306547 -0.0941983 0.654329
0.108699 0.108548 0.633223
0.255856 0.133654 0.654329
0.236403 -0.229572 0.616734
0.108598 0.0279805 0.654329
0.226282 0.0407073 0.654329
0.10058 -0.0589385 0.633223
-0.0627487 0.0387248 0.633223
0.236403 -0.224809 0.0648021
0.0916348 0.183432 0.633223
0.156011 -0.153705 0.654329
0.193158 -0.128849 0.633223
-0.133086 -0.0600788 0.654329
-0.0723704 0.201865 0.654329
-0.145272 -0.244662 0.633223
-0.0767556 0.267361 0.636046
-0.078358 0.180722 0.633223
0.266422 -0.0555244 0.654329
-0.090714 0.224427 0.633223
0.171663 0.0831087 0.654329
0.188718 0.150854 0.633223
-0.153483 -0.194993 0.633223
-0.236403 -0.213135 0.316549
-0.192374 -0.104375 0.633223
0.0595098 -0.0462238 0.654329
0.207774 0.186977 0.633223
0.20826 -0.215527 0.0847123
-0.203344 -0.189683 0.633223
-0.267361 -0.0294426 0.633902
-0.17349 0.21387 0.633223
0.15726 -0.196063 0.633223
-0.227045 0.0619769 0.633223
0.184974 0.238159 0.633223
0.087704 -0.0385707 0.654329
-0.218801 0.174402 0.443255
-0.236403 0.221288 0.448182
0.229018 0.20826 0.510907
0.190061 0.0425389 0.633223
0.236403 0.21431 0.36158
-0.20826 -0.213321 0.0158722
-0.0409469 -0.03639 0.633223
-0.240684 0.0370601 0.654329
-0.0914084 -0.215296 0.424365
0.17598 0.127151 0.654329
0.24793 0.244482 0.654329
0.20826 0.222329 0.301821
0.0978369 -0.225867 0.633223
-0.260243 0.112138 0.654329
-0.0702071 0.0971288 0.633223
0.160608 -0.0405678 0.633223
-0.120854 -0.0976183 0.633223
-0.02292 0.105583 0.633223
0.215424 0.236403 0.425043
0.157994 -0.0358947 0.654329
0.0273394 0.102131 0.654329
-0.151827 0.0991762 0.633223
0.237491 -0.118263 0.633223
-0.226105 -0.191415 0.654329
-0.237598 -0.137681 0.633223
0.140219 0.222192 0.443255
0.219801 -0.20826 0.297214
0.214171 -0.236403 0.449189
0.20826 0.235377 0.227481
-0.234733 0.236403 0.0399154
-0.0941988 -0.0353613 0.633223
-0.0575008 -0.1538 0.654329
0.136781 0.185285 0.654329
0.236403 -0.222914 0.385637
0.130347 -0.118413 0.633223
0.0441272 -0.229367 0.439372
-0.233334 -0.236403 0.427125
0.106603 -0.176244 0.633223
0.241228 -0.0247924 0.654329
-0.193044 -0.104646 0.654329
-0.0984454 -0.191019 0.633223
0.248897 -0.19387 0.633223
-0.234033 -0.00154537 0.633223
-0.0766738 0.0330143 0.654329
0.130525 -0.0879023 0.654329
-0.154963 0.129264 0.633223
0.0490604 0.0477966 0.654329
-0.222686 -0.150929 0.654329
0.223265 -0.236403 0.545757
-0.115786 0.208031 0.654329
0.0825152 0.215296 0.438573
0.132468 0.0930103 0.654329
0.0884395 0.0954533 0.633223
0.00121513 -0.166184 0.633223
0.144979 -0.239711 0.633223
-0.0436336 0.125813 0.654329
0.223119 -0.0628438 0.633223
0.0615955 0.117363 0.633223
0.252723 0.14678 0.633223
-0.127849 0.196504 0.633223
-0.236403 0.218385 0.110427
-0.0565772 -0.0728371 0.633223
-0.224493 -0.236403 0.134529
-0.217972 0.20826 0.629737
0.234262 -0.236403 0.581889
0.229368 -0.101658 0.423311
-0.0646113 0.240843 0.654329
-0.210727 -0.236403 0.265262
0.150864 -0.240215 0.654329
0.00325865 -0.0690129 0.654329
-0.203842 -0.0638707 0.654329
-0.211806 0.20826 0.55552
-0.162272 0.159563 0.633223
0.00267842 -0.130165 0.654329
0.236014 0.20826 0.00176573
0.147218 0.0201645 0.654329
0.24442 0.0409507 0.633223
0.267361 -0.1296 0.650875
0.120681 -0.1277 0.654329
0.236403 0.212266 0.449851
0.0592022 -0.128017 0.633223
0.171909 0.189869 0.633223
0.0844407 0.0413978 0.654329
0.260494 -0.267361 0.639952
-0.20826 -0.21286 0.573302
-0.0511632 -0.0958441 0.654329
0.229368 0.0152901 0.443243
-0.00646603 -0.00736159 0.633223
0.0192096 0.181667 0.633223
0.214265 0.236403 0.118353
-0.00434484 -0.224489 0.422149
0.0992857 -0.160318 0.654329
-0.222197 -0.259489 0.633223
-0.227351 -0.00136286 0.654329
0.24473 0.0695099 0.633223
-0.119896 0.0140235 0.654329
0.218794 -0.145942 0.654329
-0.0200554 -0.102771 0.654329
-0.0731247 0.0687833 0.633223
-0.20826 -0.221175 0.365461
-0.167798 0.222132 0.654329
-0.223133 0.267361 0.635094
0.0871817 -0.0697159 0.654329
0.0383621 -0.248456 0.654329
0.26494 0.234941 0.633223
-0.174283 -0.0391824 0.654329
-0.071785 0.229368 0.434497
0.0480765 -0.00524884 0.654329
-0.0180473 -0.0189015 0.654329
-0.0944908 -0.0141092 0.654329
0.215296 0.208141 0.430031
0.0712875 -0.105037 0.633223
0.0104242 -0.218536 0.654329
0.205332 -0.105133 0.654329
-0.0773254 -0.224082 0.654329
-0.166251 -0.215296 0.442665
-0.226097 0.20826 0.384553
-0.20826 -0.209479 0.420858
-0.120143 0.138405 0.654329
-0.034415 -0.127529 0.633223
-0.0228128 0.0343324 0.633223
0.20826 -0.208878 0.490258
-0.245659 0.171818 0.654329
0.228925 0.225069 0.633223
0.186089 0.215686 0.633223
-0.20826 0.231282 0.0533893
0.216342 -0.0807645 0.443255
-0.252118 0.0518105 0.633223
-0.190842 -0.235021 0.654329
0.00186348 0.210495 0.654329
0.178862 0.215296 0.422609
0.0697992 -0.127389 0.654329
0.0608843 -0.0704671 0.633223
-0.228908 -0.0601026 0.654329
-0.110493 -0.0935026 0.654329
0.17322 0.251515 0.654329
0.17436 -0.247731 0.633223
-0.248899 -0.0663247 0.633223
0.0478892 0.246425 0.633223
0.215296 -0.0430389 0.442896
0.198124 0.118296 0.633223
0.213927 -0.217697 0.633223
-0.211389 0.0608484 0.654329
-0.216593 0.20826 0.191997
0.119919 0.0548005 0.654329
-0.233045 0.236403 0.536532
-0.258689 0.242567 0.654329
0.236403 -0.235834 0.0282675
-0.111287 -0.267361 0.6375
0.235207 0.235423 -2.77556e-17
-0.236403 -0.224581 0.180691
-0.215296 -0.0819198 0.437975
0.236403 0.211064 0.0757991
0.0377294 -0.0502784 0.654329
-0.236403 0.213499 0.000891981
-0.215296 0.0810833 0.422475
-0.129988 -0.157214 0.654329
-0.235083 0.20826 0.531813
-0.205722 0.128887 0.633223
0.0070698 -0.198737 0.633223
0.085292 -0.10813 0.654329
-0.0108982 0.0388826 0.654329
0.218198 0.20826 0.32981
0.163259 -0.131618 0.633223
0.215572 0.236403 0.576664
-0.155484 0.0266643 0.654329
-0.159622 -0.0146768 0.633223
-0.0141073 0.167067 0.654329
-0.170256 -0.164279 0.633223
-0.236115 -0.236403 0.514189
0.229368 0.133465 0.438026
0.20826 0.213926 0.279954
-0.199609 -0.127973 0.654329
-0.108167 0.215296 0.440729
-0.229286 0.136309 0.443255
0.227361 -0.20826 0.107734
0.236403 -0.208979 0.315617
-0.0368052 0.156726 0.654329
-0.236403 -0.211306 0.211518
-0.0699915 0.000859618 0.654329
-0.161897 -0.0479627 0.633223
0.0806985 -0.198708 0.633223
-0.267361 -0.239872 0.650323
0.234443 0.236403 0.148086
0.236403 -0.225416 0.281259
-0.247851 -0.0237793 0.654329
0.0655278 0.0913962 0.654329
0.236403 -0.228787 0.127405
0.196945 -0.196731 0.654329
0.10684 0.245533 0.654329
-0.0201428 0.22321 0.633223
-0.236403 0.223221 0.357496
-0.222118 0.187223 0.654329
-0.21769 -0.0502069 0.633223
-0.263497 0.1883 0.654329
0.210048 -0.20826 0.229336
0.0693054 0.1595 0.654329
0.263697 0.00241107 0.654329
-0.239297 -0.267361 0.651045
0.206736 0.160484 0.654329
-0.160373 0.0801015 0.633223
-0.236403 -0.210136 0.122904
0.041329 -0.00553593 0.633223
0.20826 -0.230819 0.360837
-0.236403 0.219118 0.212178
-0.0751774 -0.166232 0.633223
0.110123 -0.0140456 0.654329
-0.187644 -0.18773 0.654329
-0.22931 -0.16914 0.633223
-0.236403 -0.212136 0.610556
-0.236403 0.216847 0.424487
0.191525 -0.0101856 0.654329
0.22576 -0.20826 0.513947
-0.20826 0.230273 0.495115
0.173948 -0.100187 0.633223
0.205276 -0.226656 0.422149
-0.218334 0.109181 0.654329
-0.216956 0.236403 0.212782
-0.1129 0.0604815 0.633223
-0.0586426 -0.218687 0.422149
0.079211 -0.0352758 0.633223
-0.235151 -0.0962649 0.633223
-0.187094 -0.129712 0.633223
-0.20826 0.211029 0.295396
-0.21956 -0.236403 0.583062
0.136789 -0.0258658 0.633223
-0.236403 -0.230821 0.477706
-0.223274 0.236403 0.619102
-0.1356 0.258745 0.654329
0.085275 -0.215296 0.442365
0.106418 0.150114 0.633223
-0.111882 -0.151378 0.633223
-0.226209 -0.236403 0.250138
-0.107445 0.267361 0.654318
0.22888 -0.158554 0.422149
0.261681 -0.0893212 0.654329
-0.0435681 0.216521 0.654329
-0.208616 0.236403 0.453573
0.20826 0.231266 0.19773
-0.245369 -0.239146 0.633223
0.20826 -0.230325 0.57595
0.02214 0.116454 0.633223
-0.235624 0.20826 0.1514
0.124456 0.206432 0.633223
0.20826 0.233102 0.0565772
0.163916 0.027 0.633223
0.219544 0.0611466 0.422149
0.227351 -0.142094 0.443255
-0.0571979 -0.239357 0.633223
0.0350089 -0.192746 0.633223
-0.0749959 0.122755 0.654329
-0.209866 -0.236403 0.142565
-0.14162 -0.240962 0.654329
0.209194 -0.236403 0.390983
0.012832 -0.062499 0.633223
-0.121476 -0.216907 0.422149
0.0717484 -0.216174 0.633223
0.131183 -0.171017 0.633223
-0.221685 -0.20826 0.344393
-0.236403 -0.210434 0.0295439
-0.177807 -0.0100362 0.654329
0.236403 0.218121 0.0199419
0.0738918 0.241205 0.633223
0.0279081 0.215296 0.439788
0.125128 -0.0751847 0.633223
0.0925188 -0.229367 0.422451
0.20826 0.20894 0.132924
-0.138539 0.212092 0.654329
0.0551981 0.204688 0.633223
0.0676046 0.192834 0.654329
0.156345 0.237673 0.654329
0.223151 -0.236403 0.330607
0.208808 -0.236403 0.104476
-0.184515 0.216664 0.422149
-0.177985 0.154882 0.654329
-0.215269 -0.20826 0.230895
-0.00368825 0.0934457 0.654329
-0.101226 -0.0734006 0.633223
0.0494468 -0.267361 0.65394
0.232254 0.20826 0.14133
0.189224 -0.159694 0.633223
-0.189929 0.243412 0.654329
-0.20826 -0.213522 0.49118
-0.232183 0.236403 0.0854119
-0.217432 -0.0046716 0.422149
0.243344 -0.201876 0.654329
-0.212886 0.00728822 0.633223
-0.237204 0.146442 0.633223
0.252695 -0.236741 0.654329
0.253212 -0.0572416 0.633223
-0.219697 0.236403 0.157996
-0.122608 -0.0203272 0.654329
0.228491 0.236403 0.0900493
-0.236403 0.235209 0.50424
-0.216947 -0.227829 0.633223
0.236323 0.236403 0.376531
0.00610715 0.00314799 0.654329
0.0325028 -0.14968 0.654329
-0.102022 -0.181122 0.654329
-0.13886 0.0751707 0.654329
0.236403 0.22266 0.599522
-0.208699 -0.236403 0.606474
-0.260209 -0.202493 0.654329
-0.0615997 0.0592961 0.654329
0.223528 0.20826 0.39635
0.120376 0.186125 0.633223
0.164 -0.219992 0.443255
-0.00287032 0.0534269 0.633223
-0.135761 0.0313411 0.633223
0.231427 -0.236403 0.190869
0.236403 -0.216493 0.162442
-0.215296 0.121446 0.429152
-0.0704222 0.0898238 0.654329
0.203828 0.0179505 0.633223
0.233831 -0.236403 0.244254
-0.226249 -0.236403 0.370947
0.217126 -0.0210882 0.443255
-0.265038 0.0376535 0.654329
-0.228496 -0.236403 0.330357
0.235148 0.20826 0.291466
-0.0484002 -0.0219605 0.654329
0.111512 0.26512 0.654329
-0.0702617 0.157415 0.633223
-0.236024 -0.20826 0.434452
-0.224436 -0.0422958 0.443255
-0.226829 0.0395348 0.443255
0.236403 0.236287 0.443217
-0.163378 0.21593 0.443255
-0.134322 -0.217807 0.633223
-0.236403 -0.217167 0.0728118
-0.194578 0.267361 0.642374
0.267361 0.197637 0.635831
0.267361 -0.186064 0.640682
-0.240896 0.266389 0.654329
0.20826 0.234811 0.543528
-0.0702431 -0.12583 0.633223
0.22672 0.0786496 0.654329
0.236403 -0.223209 0.452546
-0.236403 -0.212975 0.573552
0.233858 -0.0415182 0.633223
-0.232222 -0.236403 0.208296
-0.101888 -0.122605 0.633223
0.154523 -0.087839 0.633223
-0.225866 -0.170062 0.443255
-0.264898 8.58605e-05 0.633223
-0.0498297 0.267361 0.639676
-0.209886 0.236403 0.0300095
0.257881 0.0152192 0.633223
0.20826 -0.23135 0.0286202
-0.0218275 0.142489 0.633223
-0.0259466 0.224855 0.443255
-0.194403 -0.216787 0.443255
0.124881 -0.147233 0.633223
-0.0789054 -0.0140504 0.633223
0.0690582 -0.244202 0.654329
0.20826 0.235241 0.150631
0.145727 0.0692537 0.654329
0.152626 -0.223345 0.422149
-0.212693 0.20826 0.264349
0.176972 -0.217646 0.633223
-0.247757 0.0933256 0.633223
0.236403 0.229748 0.527835
0.107823 -0.101697 0.654329
0.215296 0.090507 0.424008
0.230196 0.236403 0.347468
-0.189097 -0.011311 0.633223
0.15885 0.138964 0.654329
-0.0933287 -0.0443785 0.654329
-0.0469382 0.178104 0.633223
-0.236403 0.234749 0.589689
0.0390897 0.135862 0.654329
0.20826 -0.232814 0.617763
0.0478863 0.0294626 0.633223
-0.20826 0.209828 0.607688
-0.236403 0.233727 0.237029
0.0274459 0.0832564 0.654329
0.209708 0.20826 0.251606
-0.0177598 -0.0497521 0.633223
0.226518 -0.116144 0.654329
0.236403 0.230855 0.265345
-0.00909123 0.250109 0.633223
0.0375541 0.15626 0.633223
0.217735 -0.265741 0.654329
0.103578 0.0658674 0.633223
-0.164595 -0.110201 0.633223
0.0033271 -0.10098 0.654329
-0.0180442 -0.20362 0.633223
-0.258573 -0.117204 0.654329
0.013173 -0.097384 0.633223
-0.232885 0.20826 0.311792
-0.20826 -0.218748 0.401295
-0.0598451 -0.236341 0.654329
0.116906 -0.258334 0.633223
-0.139763 -0.0873743 0.633223
-0.20826 0.211743 0.00525462
-0.130088 -0.0838795 0.654329
-0.221196 0.16027 0.633223
-0.227654 -0.114583 0.633223
-0.0965777 -0.255165 0.654329
0.0393049 -0.193542 0.654329
-0.176558 0.046269 0.654329
0.20826 0.221681 0.408592
-0.236403 -0.208991 0.272944
-0.19689 -0.169583 0.633223
0.222395 0.236403 0.322642
-0.178549 0.0906349 0.633223
-0.12345 -0.129653 0.654329
-0.227813 0.22469 0.654329
-0.221587 -0.236403 0.495042
0.249353 0.120268 0.633223
0.182827 -0.121475 0.654329
0.164502 -0.00136387 0.654329
0.20826 0.222005 0.445106
0.267361 0.0748672 0.643294
-0.220559 -0.20826 0.257388
-0.165796 -0.107693 0.654329
0.232654 0.255285 0.633223
0.20087 0.0782833 0.633223
-0.13192 0.229368 0.441706
0.0929208 -0.239831 0.654329
-0.20826 0.225411 0.122027
0.215756 0.20826 0.369377
-0.0548354 -0.181394 0.654329
-0.21143 0.20826 0.419265
0.180524 -0.0646592 0.654329
-0.220399 -0.236403 0.0163504
0.231643 0.236403 0.213032
0.0274914 -0.267361 0.651769
-0.214647 -0.259666 0.654329
-0.20826 0.232107 0.353179
0.211262 0.246136 0.633223
-0.140409 -0.0407704 0.654329
-0.211822 -0.236403 0.196868
-0.256789 -0.190232 0.633223
0.218047 -0.20826 0.0141662
0.236403 -0.212705 0.593074
-0.157912 -0.220362 0.633223
0.108811 0.0194095 0.633223
0.20826 0.221881 0.492513
-0.234232 -0.192646 0.633223
0.0197628 0.256678 0.654329
0.140943 0.0465165 0.633223
0.0814372 -0.184707 0.654329
-0.236403 0.218897 0.617036
-0.215296 -0.117788 0.427916
0.113277 -0.228061 0.422149
0.20826 -0.221356 0.188935
0.236403 0.209962 0.177935
-0.238857 0.0299959 0.633223
-0.103265 0.126195 0.633223
-0.0534965 -0.210648 0.654329
-0.153492 -0.174444 0.654329
0.20826 -0.210696 0.445117
0.00786555 0.17884 0.654329
-0.20826 -0.222144 0.539399
-0.168724 -0.249561 0.654329
-0.122663 0.169986 0.633223
-0.20826 0.208448 0.0803955
-0.217609 0.236403 0.568372
0.236403 0.218381 0.475056
0.186208 -0.0270425 0.633223
0.195931 -0.262478 0.654329
-0.20826 -0.21288 0.0722087
0.182277 0.150256 0.654329
0.235569 -0.262345 0.633223
0.228086 -0.105199 0.633223
-0.0567203 -0.12918 0.654329
-0.224956 0.08694 0.633223
-0.172604 0.183883 0.633223
0.190958 -0.229367 0.443114
0.229368 0.190038 0.427945
0.0831647 -0.215408 0.654329
-0.0170456 0.0610743 0.654329
0.20826 0.216987 0.569373
-0.0548432 0.175611 0.654329
-0.0234244 -0.228283 0.443255
0.0209912 -0.244263 0.633223
0.226604 0.166753 0.633223
0.0428236 0.0625639 0.633223
-0.0408144 0.124078 0.633223
0.100082 0.215296 0.429767
-0.20826 0.210722 0.529826
0.136739 -0.26725 0.654329
0.129322 -0.229832 0.654329
0.178597 -0.183675 0.633223
0.253994 -0.149101 0.654329
-0.210779 -0.236403 0.415737
0.223658 0.260925 0.654329
0.258297 -0.141631 0.633223
-0.0234517 -0.0770205 0.654329
0.0618174 0.225362 0.422149
-0.0767039 0.122404 0.633223
0.20826 -0.210338 0.120763
-0.265297 0.217295 0.633223
0.208717 -0.236403 0.524529
-0.215296 -0.196165 0.441517
0.224106 0.120416 0.443255
0.143156 -0.262841 0.633223
-0.215296 -0.156986 0.433382
0.174553 -0.141397 0.654329
0.236403 0.208264 0.546509
0.267361 -0.109257 0.63899
-0.00960588 0.232628 0.654329
0.000377983 0.219704 0.633223
-0.211246 0.236403 0.189508
-0.0417877 0.0892149 0.633223
-0.210163 -0.20826 0.308047
0.0618075 0.0245992 0.654329
-0.238711 0.105399 0.654329
0.210826 0.20826 0.513081
0.0975875 0.0417049 0.633223
0.215296 0.00482333 0.432193
-0.0480698 0.101023 0.654329
-0.183092 -0.244598 0.633223
0.256837 0.110636 0.654329
-0.150961 0.106482 0.654329
0.184468 -0.267361 0.633633
0.206686 0.0236938 0.654329
-0.23105 0.20826 0.0922752
-0.0539438 -0.228369 0.443255
0.0974925 0.142221 0.654329
-0.23186 0.236403 0.285205
-0.21456 0.20826 0.0545322
-0.0950247 0.193823 0.654329
0.0298374 0.226238 0.633223
-0.164749 0.2653 0.654329
-0.248189 -0.159916 0.633223
-0.220991 0.236403 0.306313
0.170171 0.166722 0.633223
-0.0990627 0.0227023 0.654329
-0.0534207 -0.0723055 0.654329
-0.26294 -0.0893119 0.654329
0.202228 -0.0803391 0.654329
-0.236403 0.235496 0.0147767
0.124246 0.228303 0.633223
0.236403 -0.221907 0.492439
-0.0776311 -0.0592661 0.633223
-0.0208459 -0.251608 0.654329
0.150139 0.158116 0.654329
0.236403 -0.212111 0.431396
0.00277615 -0.156281 0.654329
0.20826 -0.231877 0.494148
-0.180458 0.0713016 0.654329
0.20826 -0.228283 0.290647
0.223581 0.236403 0.281346
-0.116532 0.0839065 0.654329
-0.0725421 0.236119 0.633223
0.0653422 -0.0220218 0.654329
-0.236094 -0.20826 0.471431
-0.122353 -0.255541 0.654329
0.242289 -0.0613016 0.654329
0.236403 -0.214179 0.531504
-0.127382 0.235282 0.654329
0.201207 -0.0519259 0.633223
-0.105297 -0.220897 0.443255
-0.109253 -0.067495 0.654329
0.224712 0.236403 0.0241877
0.0111236 -0.144421 0.633223
0.236403 -0.23568 0.370842
-0.1551 -0.263081 0.633223
0.152883 0.125515 0.633223
-0.10075 0.145229 0.654329
0.251302 0.173738 0.633223
-0.197793 -0.165317 0.654329
0.0985912 0.0874794 0.654329
-0.24309 -0.0324981 0.633223
0.232468 0.13458 0.654329
0.00553218 -0.219599 0.443255
-0.244069 0.13163 0.654329
-0.261124 -0.126524 0.633223
0.0386056 -0.106972 0.633223
0.211933 0.20826 0.631961
0.246735 0.0174239 0.654329
-0.0697875 0.0134782 0.633223
0.156419 -0.0668893 0.654329
-0.130634 0.130597 0.633223
0.126327 0.215615 0.422149
-0.0711028 -0.0907496 0.654329
0.226259 -0.20826 0.346194
0.219883 -0.204191 0.654329
0.0150353 0.207129 0.633223
0.0684695 0.157674 0.633223
-0.20826 -0.230841 0.104361
0.225282 -0.185446 0.633223
-0.175872 -0.0662648 0.654329
-0.0494537 0.229368 0.440976
0.0277 -0.0686436 0.654329
0.0881759 -0.00687709 0.633223
-0.187608 0.138546 0.633223
0.188801 0.228601 0.654329
0.20826 0.229167 0.0350067
-0.0273164 -0.20366 0.654329
0.236403 -0.230995 0.210061
0.0335573 -0.0594004 0.633223
0.233884 -0.20826 0.229026
0.20826 -0.220197 0.31316
-0.0186538 0.229368 0.423118
0.229368 0.0431423 0.441844
-0.0431367 -0.229367 0.422313
0.20826 -0.235824 0.239616
-0.213876 0.20826 0.445217
0.172384 0.055905 0.633223
-0.230137 -0.20826 0.378388
-0.209981 -0.125774 0.633223
-0.229099 0.170813 0.422149
0.0343083 -0.0333319 0.633223
-0.267361 -0.0462239 0.644362
0.0637539 -0.0676228 0.654329
-0.152271 -0.149084 0.654329
0.216341 -0.17587 0.654329
-0.21952 0.236403 0.435597
0.0416752 0.130053 0.633223
-0.178 -0.127936 0.654329
0.203125 0.0819544 0.654329
-0.219967 0.0343531 0.654329
-0.0235093 -0.152703 0.654329
-0.0982979 0.265488 0.633223
0.115185 -0.0701222 0.654329
-0.242798 -0.094563 0.654329
0.164061 -0.171075 0.654329
0.129967 -0.149223 0.654329
0.23515 -0.222796 0.654329
0.150257 -0.00912368 0.633223
-0.197455 0.20527 0.633223
-0.131336 0.035329 0.654329
0.23046 -0.236403 0.163235
-0.210725 0.085326 0.654329
0.0746025 0.0800139 0.633223
-0.222966 -0.10811 0.443255
-0.246789 -0.151089 0.654329
-0.267361 0.112143 0.633643
0.19913 -0.00712124 0.633223
-0.226771 0.20826 0.361941
0.226112 0.20826 0.615929
-0.00244272 0.1202 0.633223
-0.10726 -0.212147 0.633223
0.217856 0.20826 0.0243417
0.205376 0.208892 0.654329
0.218564 0.236403 0.475421
0.147604 0.229368 0.423546
-0.0729802 -0.252353 0.654329
0.225359 -0.236403 0.425474
-0.224275 0.20826 0.410462
0.102867 -0.0381262 0.633223
-0.058648 0.145598 0.654329
0.0391668 0.267361 0.63409
0.00873232 -0.238995 0.654329
0.124568 0.0913692 0.633223
-0.244873 0.213186 0.633223
-0.21465 -0.0939401 0.654329
-0.0172938 -0.152709 0.633223
-0.0716606 -0.0199409 0.654329
0.0901512 0.263699 0.633223
0.267361 0.256022 0.652733
0.218185 -0.20826 0.161394
-0.0376463 -0.248484 0.633223
-0.102281 0.178926 0.633223
0.100787 -0.201369 0.633223
-0.0913786 0.157303 0.633223
-0.0838591 0.202616 0.633223
0.238799 -0.138638 0.633223
0.167389 -0.219458 0.654329
-0.21501 -0.20826 0.519273
0.0328282 -0.214105 0.654329
-0.0394959 -0.105818 0.633223
-0.156579 0.199471 0.633223
-0.14288 0.177887 0.633223
-0.0394798 -0.169687 0.654329
-0.20826 -0.235148 0.437929
0.240218 0.169876 0.654329
0.122858 -0.0986982 0.633223
0.152045 -0.0880032 0.654329
-0.191343 0.0131507 0.633223
0.19423 0.111869 0.654329
0.037217 -0.215296 0.425239
0.215255 -0.20826 0.568686
0.252967 0.21815 0.633223
0.229368 0.149882 0.422783
-0.230951 -0.131726 0.654329
-0.23603 0.20826 0.173562
-0.213429 0.20826 0.573326
0.264146 0.227233 0.654329
0.229368 -0.120611 0.437493
0.0142409 0.267361 0.639696
0.140822 0.267361 0.651809
0.25692 -0.106985 0.654329
0.212859 -0.20826 0.0561336
0.193546 -0.107883 0.633223
-0.20826 0.212721 0.510414
-0.109518 0.0415559 0.654329
0.0559496 0.226479 0.633223
-0.150233 0.00520581 0.633223
0.21374 -0.20826 0.27099
0.232147 0.20826 0.0537625
-0.0180963 0.00973198 0.633223
-0.240972 0.255428 0.633223
0.193309 -0.234584 0.633223
0.159835 0.108491 0.654329
0.214768 -0.236403 0.00899327
0.0116039 -0.0490741 0.654329
0.241727 -0.0190983 0.633223
-0.111285 0.214495 0.633223
-0.215296 0.105235 0.432828
0.0786121 0.212206 0.633223
-0.236403 -0.228454 0.150833
0.169382 0.267361 0.642263
-0.0564207 0.038365 0.654329
0.142965 0.103835 0.633223
-0.20826 0.211786 0.398648
0.0964296 -0.157644 0.633223
-0.0343141 -0.0820623 0.633223
0.267361 0.131782 0.635823
-0.143941 -0.219617 0.654329
0.079463 -0.0604658 0.633223
0.118084 0.0383222 0.633223
0.131765 0.205339 0.654329
0.21864 -0.0289358 0.422149
-0.236403 -0.229736 0.403909
-0.0966509 -0.168544 0.633223
0.0197558 0.199013 0.654329
-0.20826 -0.221601 0.592154
-0.236403 -0.222951 0.532855
-0.0846629 -0.214058 0.633223
0.100944 0.202151 0.633223
-0.218851 -0.062936 0.443255
0.185665 0.257547 0.633223
0.236403 0.212716 0.431704
0.0481995 0.107242 0.654329
-0.135434 -0.113384 0.633223
-0.00677425 -0.230626 0.654329
0.0988848 0.225072 0.443255
-0.264376 -0.211548 0.633223
0.212519 -0.236403 0.59813
-0.10413 0.239456 0.633223
0.168194 0.029541 0.654329
-0.20826 -0.234844 0.345292
0.000867635 -0.237698 0.633223
0.125929 0.00123087 0.633223
0.226383 -0.20826 0.0830874
0.0973412 -0.133613 0.654329
0.267361 -0.250347 0.634323
-0.168013 -0.147468 0.633223
-0.0276231 0.254056 0.633223
-0.20826 -0.215377 0.143065
0.0389146 0.244857 0.654329
-0.186871 0.174576 0.654329
-0.11652 0.0809037 0.633223
0.236883 0.0920911 0.633223
-0.152092 0.221791 0.633223
0.0616269 -0.189926 0.633223
-0.226428 -0.137145 0.422149
-0.0434298 -0.20728 0.633223
-0.223357 0.236403 0.106254
0.236403 -0.211537 0.0250821
0.221486 0.200475 0.443255
-0.135494 0.152723 0.633223
0.229368 0.102337 0.438052
-0.20826 0.231621 0.142794
0.197452 0.229368 0.434164
-0.227551 -0.236403 0.0852325
0.215296 0.137766 0.436658
0.181025 -0.0473837 0.633223
-0.267361 0.224146 0.653811
-0.247708 -0.238116 0.654329
0.230594 0.20826 0.225277
0.0291643 0.0380625 0.633223
0.107849 -0.0348691 0.654329
-0.0161313 0.110939 0.654329
-0.00958276 -0.183574 0.633223
-0.0579693 -0.142219 0.633223
0.135398 0.122701 0.654329
-0.131361 -0.146456 0.633223
0.22468 -0.241173 0.633223
0.245327 0.240704 0.633223
-0.227226 0.185307 0.633223
-0.231334 0.0565032 0.654329
-0.119754 -0.25126 0.633223
0.106912 0.180275 0.654329
0.22166 -0.0831304 0.633223
-0.118964 -0.0377841 0.633223
0.179738 0.132621 0.633223
-0.00327036 -0.0335934 0.654329
0.0775236 -0.136795 0.633223
-0.267361 -0.230636 0.635406
-0.248633 -0.0729609 0.654329
-0.116855 -0.0158828 0.633223
-0.205699 -0.213557 0.654329
0.011301 0.114457 0.654329
-0.236403 0.210374 0.552103
0.152325 0.184956 0.633223
-0.196051 0.00722569 0.654329
-0.0247844 -0.0243356 0.633223
-0.0462229 0.0271866 0.633223
0.0388817 0.177288 0.633223
-0.144912 0.00952062 0.654329
0.0837212 0.184417 0.654329
0.20826 0.217756 0.113712
0.0210388 0.22037 0.422149
0.157029 -0.111024 0.633223
0.0588005 -0.0893 0.633223
-0.177756 0.0359705 0.633223
-0.236403 0.211322 0.193075
-0.0816091 0.260642 0.654329
-0.0240116 0.141567 0.654329
0.0817973 0.0293115 0.633223
0.210914 -0.147272 0.633223
0.20826 0.225554 0.244979
0.0815269 0.115214 0.633223
-0.257226 0.143094 0.633223
-0.160832 0.229368 0.42862
0.253868 -0.214752 0.633223
0.24809 0.0892148 0.654329
-0.0806637 0.0526275 0.654329
0.0143591 -0.215296 0.423907
-0.228089 0.229172 0.633223
-0.0595774 -0.108948 0.633223
0.20826 0.214906 0.591377
0.183499 0.0231405 0.633223
0.040115 0.109847 0.633223
0.13686 0.0442476 0.654329
-0.224492 0.236403 0.363887
0.135998 -0.168201 0.654329
0.110542 -0.216272 0.654329
-0.0928925 0.0711037 0.633223
-0.00857973 0.0191207 0.654329
-0.229367 0.128154 0.425587
-0.260041 -0.267361 0.652616
-0.230422 -0.236403 0.613244
0.109663 0.130538 0.633223
0.20826 -0.216501 0.509562
-0.0330168 0.049354 0.654329
-0.227256 -0.0400967 0.422149
0.125786 -0.234884 0.633223
-0.0939653 -0.213372 0.654329
0.236403 -0.209183 0.477107
0.168175 -0.251774 0.654329
-0.106465 -0.161873 0.654329
0.267361 -0.166579 0.633847
0.211265 -0.20826 0.14291
-0.236403 0.208454 0.12747
0.143965 -0.130632 0.654329
-0.144099 -0.0395309 0.633223
-0.0745219 -0.0354191 0.633223
-0.215296 0.039134 0.425669
-0.221221 0.152518 0.443255
-0.236403 0.217915 0.0335004
0.188118 -0.201518 0.633223
0.0887522 0.253048 0.654329
0.208914 0.246709 0.654329
-0.236403 0.226207 0.15856
-0.228502 -0.236403 0.274988
-0.0819256 0.222315 0.654329
0.0173385 0.229368 0.436314
0.235225 0.236403 0.394229
0.26678 -0.0195567 0.654329
-0.0415426 0.0507082 0.633223
0.0776491 -0.080286 0.633223
-0.231681 0.236403 0.344693
0.239734 0.267361 0.648347
0.215296 -0.149987 0.425592
0.223321 0.20826 0.30653
0.189049 0.215296 0.440186
0.0473828 0.0844516 0.654329
0.115359 0.124436 0.654329
-0.209398 0.230842 0.654329
-0.134835 0.126556 0.654329
0.0400681 -0.131133 0.633223
0.260744 -0.039383 0.633223
0.20826 0.230573 0.457404
-0.144869 0.252968 0.633223
0.267361 0.147806 0.646663
-0.219653 -0.150538 0.633223
-0.145208 -0.0959373 0.654329
0.242954 -0.237249 0.633223
-0.241667 0.0177535 0.654329
0.210902 -0.0118943 0.654329
0.125661 0.267361 0.638306
-0.18444 0.109039 0.633223
0.198434 0.139701 0.654329
-0.2147 0.236403 0.512252
0.216931 0.103425 0.654329
-0.106012 0.234079 0.654329
0.142862 -0.106712 0.654329
-0.228656 0.20826 0.470961
-0.111783 0.227114 0.422149
-0.244012 -0.261765 0.633223
0.227678 -0.236403 0.396403
-0.241875 0.167913 0.633223
0.0658715 -0.00888088 0.633223
0.0326206 0.0577329 0.654329
-0.0731862 0.171952 0.654329
-0.20826 0.214161 0.372891
-0.0515432 0.25508 0.654329
0.236403 0.226956 0.13151
0.244489 -0.122878 0.654329
0.0962341 -0.260583 0.633223
0.0161555 0.223277 0.654329
0.155936 0.186042 0.654329
0.215296 -0.0923383 0.432879
-0.236403 -0.235812 0.119831
-0.26225 0.267361 0.652203
-0.154498 -0.173819 0.633223
0.20826 -0.219874 0.404559
-0.20826 0.218829 0.315959
0.128392 0.0170296 0.654329
-0.20826 -0.228687 0.282535
0.233555 0.236403 0.117095
-0.17985 -0.219445 0.654329
0.245932 -0.00448897 0.654329
-0.267361 -0.0105164 0.651063
-0.226635 -0.236403 0.181752
0.125974 0.161033 0.654329
-0.206892 0.137331 0.654329
-0.267361 -0.163583 0.633786
-0.157338 0.0872166 0.654329
0.226089 -0.20826 0.413719
-0.236403 0.210541 0.601266
-0.203304 0.229368 0.426159
-0.0973395 -0.0919701 0.633223
-0.172514 -0.183055 0.633223
-0.253569 -0.0878236 0.633223
-0.140823 0.149312 0.654329
-0.0508569 -0.052524 0.633223
0.15644 0.247817 0.633223
-0.0223363 -0.229367 0.424021
0.0741251 -0.083536 0.654329
0.233043 -0.20826 0.374204
-0.127019 0.192849 0.654329
0.0314763 0.0193355 0.633223
-0.17279 0.0191472 0.654329
-0.0596536 0.199625 0.633223
0.0530031 -0.214074 0.633223
-0.21238 -0.20826 0.0410619
-0.225708 -0.20826 0.00473845
-0.20826 0.232316 0.549026
0.20826 -0.210996 0.103043
0.267361 0.0582991 0.639091
0.228341 0.0114769 0.422149
-0.0657059 -0.215296 0.441774
0.0747217 0.211314 0.654329
-0.145972 -0.215296 0.4288
0.0798198 -0.215934 0.422149
0.204326 0.187029 0.654329
-0.266155 -0.0735108 0.633223
-0.215296 -0.0231265 0.424015
-0.267361 0.189593 0.636108
0.0131269 -0.263065 0.633223
0.231558 0.20826 0.379258
0.16372 0.215296 0.433473
-0.236403 -0.230428 0.559785
-0.0765762 -0.201953 0.654329
-0.251004 -0.0187257 0.633223
-0.094867 -0.261839 0.633223
0.0607793 -0.143608 0.654329
-0.233265 -0.20826 0.190404
0.101921 0.0474815 0.654329
0.227693 -0.236403 0.529117
-0.226105 0.236403 0.267619
-0.225616 -0.0209717 0.654329
0.216405 -0.236403 0.151226
-0.236403 -0.231682 0.385739
0.236403 0.220238 0.156825
-0.209879 0.254621 0.633223
-0.116615 0.120267 0.654329
0.233408 0.137811 0.633223
0.00643998 0.241748 0.654329
0.267361 0.165472 0.636997
-0.213394 -0.231633 -2.77556e-17
0.09893 -0.179039 0.654329
0.185328 0.0958007 0.654329
-0.0982435 0.00435936 0.654329
0.23013 0.197982 0.633223
-0.263868 0.0845958 0.633223
-0.0163927 -0.0463719 0.654329
-0.236403 -0.209885 0.0896171
-0.258797 0.142516 0.654329
0.236403 -0.224021 0.263012
0.030571 6.27637e-05 0.654329
-0.0968422 -0.0104782 0.633223
-0.211916 0.223709 0.633223
-0.150373 -0.152276 0.633223
0.20826 0.209897 0.343583
0.20826 -0.2332 0.474548
0.0843806 -0.180826 0.633223
-0.215296 -0.0983718 0.422769
0.229368 -0.181234 0.423686
-0.267361 -0.218785 0.650307
-0.217024 -0.0461197 0.654329
-0.158903 -0.229367 0.433731
-0.231864 0.159945 0.654329
-0.14223 0.0786875 0.633223
0.20826 -0.231919 0.0768521
0.0597298 -0.111915 0.654329
0.0827723 0.119334 0.654329
0.209011 -0.0972061 0.633223
0.250844 -0.0462497 0.654329
0.267361 -0.0866035 0.636713
-0.158025 -0.00376904 0.654329
0.127836 0.1172 0.633223
0.0301717 0.197201 0.633223
-0.150697 0.198682 0.654329
-0.184477 -0.0824864 0.654329
-0.0907755 0.0989436 0.633223
0.00840726 0.235882 0.633223
0.231911 -0.219114 0.633223
0.231457 -0.20826 0.394956
0.20826 0.213683 0.200319
-0.226597 -0.236403 0.533267
0.223383 0.236403 0.0658517
-0.0315181 0.187438 0.633223
0.0729786 0.195085 0.633223
-0.0580161 0.118721 0.633223
0.142287 -0.0513054 0.633223
0.0198378 -0.0226023 0.633223
0.222092 -0.20826 0.206186
0.0921468 -0.0137671 0.654329
-0.0824325 0.215296 0.431077
-0.176079 0.053834 0.633223
0.14911 0.0624725 0.633223
-0.228018 -0.236403 0.225689
-0.033048 -0.0904417 0.654329
-0.0452242 -0.246681 0.654329
0.121035 -0.194482 0.633223
-0.0768793 -0.166735 0.654329
-0.192234 0.0548791 0.654329
0.225584 0.20826 0.348691
0.0796208 0.142376 0.654329
-0.236403 -0.213282 0.290293
0.236403 0.232736 0.54537
-0.236403 -0.213698 0.416206
-0.0479482 0.199224 0.654329
0.212605 0.236403 0.295703
-0.152722 0.0368738 0.633223
0.224328 -0.236403 0.225824
-0.0598162 0.254083 0.633223
-0.212344 0.20826 0.119479
0.181374 -0.205383 0.654329
0.0317152 -0.0335168 0.654329
-0.0593905 0.0801175 0.633223
-0.0760631 -0.224051 0.422149
0.126916 -0.00812688 0.654329
0.223489 0.20826 0.481971
-0.229367 0.0899512 0.42876
0.236403 0.225065 0.28641
0.216235 -0.0562994 0.422149
0.13381 0.242944 0.654329
0.00291169 -0.215954 0.633223
-0.060935 0.219962 0.654329
0.236403 0.222125 0.338872
0.219664 -0.236403 0.0903867
-0.0879272 0.0413794 0.633223
0.167831 -0.0212147 0.654329
-0.236403 0.234147 0.420942
0.10136 0.0702355 0.654329
-0.0324619 -0.185879 0.654329
0.236403 0.210409 0.0367727
0.210841 -0.20826 0.246961
0.242094 -0.156742 0.633223
-0.20826 -0.2323 0.0678871
0.219327 -0.196073 0.443255
-0.20826 -0.23531 0.0290927
0.210734 -0.236403 0.344301
0.0888121 0.150466 0.633223
0.00526437 0.103107 0.633223
-0.171859 -0.0903438 0.633223
0.217194 0.232094 -2.77556e-17
0.234634 0.0263231 0.633223
0.218684 0.236403 0.377266
0.221119 -0.0900084 0.654329
0.183717 -0.157023 0.654329
0.163176 -0.234214 0.633223
0.220688 0.20826 0.185543
-0.0473396 0.00065273 0.654329
-0.219165 0.140107 0.633223
-0.186622 -0.205801 0.633223
-0.238518 0.193239 0.654329
-0.236403 -0.209211 0.524621
-0.208368 -0.0655719 0.633223
-0.267361 0.127696 0.650971
-0.219934 -0.20826 0.128273
-0.193966 0.090083 0.654329
-0.0203916 -0.120185 0.654329
0.170768 -0.229367 0.427284
-0.174364 0.229368 0.441847
0.209096 -0.0408843 0.633223
-0.20826 0.235855 0.0701579
0.192006 0.250706 0.654329
0.220122 -0.20826 0.321635
-0.20826 0.221396 0.199707
0.170931 -0.0821943 0.633223
-0.253167 -0.0459253 0.654329
-0.220322 0.20826 0.166213
-0.101403 -0.229367 0.425909
0.131646 -0.215296 0.429039
0.027565 -0.177241 0.633223
0.0489835 -0.0324351 0.654329
-0.215296 0.0103304 0.432918
0.20826 0.231495 0.622729
-0.0266235 0.00122517 0.654329
-0.236403 0.222618 0.374659
-0.064144 0.017071 0.654329
0.0405338 0.153029 0.654329
0.0295539 -0.215296 0.440663
-0.125953 0.114029 0.633223
-0.210451 -0.00462961 0.654329
0.226744 -0.0583104 0.443255
-0.211507 -0.240899 0.654329
0.129243 0.0740633 0.654329
0.115945 0.0976733 0.654329
-0.0360977 0.174383 0.654329
-0.0345057 0.0318817 0.654329
-0.0132813 0.198096 0.654329
-0.267361 -0.247713 0.633996
0.107693 0.0883991 0.633223
-0.20826 -0.217964 0.384181
-0.201957 -0.0301672 0.633223
-0.0663921 0.267361 0.65033
0.0935134 -0.0923335 0.654329
0.236403 -0.228116 0.149509
0.111651 -0.0515287 0.654329
0.231353 -0.236403 0.112971
0.205232 0.0488303 0.654329
0.232052 0.236403 0.581011
0.16133 -0.0235541 0.633223
-0.232267 -0.0414423 0.633223
0.229189 0.0751441 0.422149
-0.193436 -0.0357812 0.654329
0.0980081 -0.215296 0.431119
0.116242 -0.0523709 0.633223
0.23173 -0.0745995 0.654329
-0.16675 0.107274 0.633223
0.143802 -0.22097 0.654329
0.153857 0.158312 0.633223
-0.197733 -0.258665 0.654329
-0.236403 0.218929 0.392734
-0.0533243 0.15725 0.633223
0.0135313 -0.143201 0.654329
0.0552197 0.074079 0.633223
-0.20826 -0.212079 0.629121
-0.267361 0.0525892 0.64676
0.209209 0.0559533 0.633223
0.252053 -0.219918 0.654329
-0.221629 0.116384 0.443255
0.20826 -0.235757 0.319726
-0.236403 0.22622 0.518518
0.232504 -0.236403 0.0118624
-0.0288602 -0.0032455 0.633223
0.220109 -0.236403 0.281865
0.18944 -0.0995801 0.654329
0.181327 0.266249 0.654329
0.146067 -0.215296 0.437513
0.20826 0.226534 0.0724854
0.162012 0.0816934 0.633223
0.236403 0.219871 0.391525
0.109673 -0.239161 0.654329
0.233438 -0.20826 0.268757
0.254691 0.073807 0.654329
-0.236403 0.233907 0.254296
-0.0583288 0.215296 0.439148
0.220923 0.20826 0.600016
0.215296 0.0594697 0.438247
-0.218177 -0.20826 0.110855
-0.0429103 -0.117604 0.654329
-0.20826 -0.227489 0.0879784
-0.20826 0.220097 0.481848
-0.20826 -0.215659 0.244146
-0.218534 -0.20826 0.214504
-0.188703 -0.205272 0.654329
0.0149367 0.131524 0.633223
-0.203113 0.25944 0.654329
-0.22875 -0.236403 0.354454
0.219167 -0.20826 0.611458
0.185841 0.20768 0.654329
0.236403 -0.224172 0.333269
-0.214946 -0.20826 0.558748
-0.0853893 -0.267361 0.652405
0.219989 0.20826 0.0755621
-0.0567335 -0.0310913 0.633223
0.23357 -0.138267 0.654329
-0.219843 0.20826 0.322109
-0.229367 0.200784 0.425375
0.0499256 -0.0197597 0.633223
-0.148632 0.267361 0.648668
0.256314 -0.119083 0.633223
0.234509 0.236403 0.426722
-0.236403 -0.220467 0.0161669
-0.210661 -0.197416 0.654329
-0.191836 -0.052461 0.654329
0.21523 0.0865291 0.633223
0.235977 -0.20826 0.0647902
0.225474 -0.249146 0.654329
-0.20826 0.221915 0.0183047
-0.229013 -0.199734 0.422149
-0.124731 0.096025 0.633223
0.197164 -0.027428 0.654329
-0.236403 -0.221378 0.259837
0.187415 0.184215 0.633223
0.267361 -0.20018 0.649227
0.0811069 0.229368 0.430085
0.226386 0.0437944 0.422149
-0.170885 0.267361 0.638305
0.0900203 0.101536 0.654329
-0.0744965 -0.194398 0.633223
-0.207884 -0.267361 0.635186
-0.0116004 -0.208525 0.654329
-0.219416 -0.20826 0.432882
0.0562829 -0.215296 0.434913
-0.0346434 -0.260544 0.654329
-0.149414 -0.0619568 0.654329
0.20826 -0.213803 0.213105
0.0559646 0.204309 0.654329
0.196491 0.215296 0.425555
0.222748 0.236403 0.452361
-0.161627 -0.24592 0.633223
-0.236403 0.231557 0.460961
0.0550594 0.139495 0.654329
-0.210359 -0.236403 0.531174
0.0699051 -0.221582 0.443255
0.0941764 -0.241808 0.633223
-0.215296 0.0896856 0.437771
0.256737 -0.25306 0.654329
0.20826 0.222996 0.471879
-0.167274 -0.189338 0.654329
0.153622 -0.148607 0.633223
0.209909 0.236403 0.499759
-0.221968 0.20826 0.518039
-0.228447 0.236403 0.000527346
-0.00473711 -0.0594732 0.633223
-0.246372 -0.177764 0.633223
0.217655 0.02648 0.633223
0.232095 -0.236403 0.565788
-0.20826 0.230046 0.58255
-0.23225 0.10145 0.633223
-0.212615 -0.114381 0.654329
0.00922108 0.0357694 0.633223
-0.206649 0.215296 0.433844
-0.224954 -0.0687094 0.422149
0.216954 -0.236403 0.199116
-0.0863724 -0.127389 0.633223
0.238895 -0.154973 0.654329
0.233591 -0.236403 0.44358
-0.188744 0.222669 0.654329
0.235256 -0.236403 0.602105
0.180872 -0.139368 0.633223
0.20826 0.226735 0.335976
-0.236403 0.232324 0.309005
-0.216499 0.20826 0.20816
-0.095239 -0.111864 0.654329
0.206754 -0.0648242 0.654329
-0.116012 -0.082199 0.633223
-0.232273 -0.242885 0.654329
-0.225918 -0.236403 0.44147
0.21114 -0.20826 0.419816
-0.236403 0.216165 0.228036
-0.256151 -0.0430341 0.633223
-0.20826 -0.219122 0.43536
-0.0223986 -0.0651882 0.633223
0.229368 -0.134743 0.425038
-0.11554 -0.135689 0.633223
-0.215225 -0.20826 0.473293
-0.0810973 0.0249414 0.633223
-0.183005 -0.171684 0.654329
-0.0571748 -0.221751 0.633223
-0.20826 0.213193 0.279444
-0.267361 0.251989 0.639042
0.0227004 0.162444 0.633223
0.0132059 0.094455 0.654329
0.148985 -0.0526898 0.654329
0.208518 0.236403 0.402129
0.236403 0.232374 0.61955
0.224209 -0.20826 0.48744
0.267361 -0.0709939 0.650092
-0.236403 -0.214391 0.0451105
0.15857 0.205738 0.654329
-0.0901339 0.128025 0.654329
-0.243128 -0.118709 0.633223
-0.242721 0.243707 0.654329
-0.215977 -0.20826 0.329444
0.215296 0.0752388 0.430084
-0.20826 -0.21766 0.197349
-0.236027 0.236403 0.383376
-0.20826 0.217338 0.0429811
-0.108522 -0.123969 0.654329
0.210848 -0.209824 -2.77556e-17
0.221216 -0.267361 0.638832
-0.236403 0.209151 0.0162525
0.0960256 0.228713 0.422149
-0.0255385 0.232429 0.654329
-0.216703 0.20826 0.248932
-0.226577 0.0401345 0.633223
-0.221703 -0.20826 0.492093
0.16397 0.0110819 0.633223
0.241456 -0.079786 0.633223
-0.23046 -0.0717476 0.633223
0.156736 -0.211963 0.633223
-0.20934 -0.20826 0.35624
-0.235527 0.236403 0.608968
-0.233128 -0.0764828 0.654329
-0.128728 0.0619925 0.633223
-0.110531 0.0687893 0.654329
0.20826 -0.228742 0.0487293
0.0858657 -0.0987346 0.633223
-0.0844579 -0.238273 0.654329
-0.159084 -0.0437699 0.654329
0.236403 0.227506 0.0327474
-0.0588082 0.215316 0.422149
0.186044 0.0711357 0.633223
0.188139 0.190738 0.654329
0.202334 -0.0676852 0.633223
0.0703796 0.0696093 0.654329
-0.216722 -0.236403 0.157547
0.0826112 0.168063 0.654329
-0.110685 0.157515 0.654329
0.0584675 0.215296 0.438736
-0.190179 -0.228176 0.422149
0.168622 0.15816 0.654329
-0.0961994 0.0556774 0.633223
-0.236403 -0.223528 0.621427
0.223312 0.20826 0.128292
0.09507 0.168057 0.633223
-0.229367 0.143283 0.430568
-0.115314 -0.175947 0.633223
-0.193262 0.190091 0.633223
-0.144873 0.229577 0.654329
-0.0110807 0.0668489 0.633223
-0.234245 -0.20826 0.334941
-0.20826 0.232104 0.617343
0.0490395 -0.0567708 0.633223
-0.0284339 0.215296 0.423666
0.0111806 -0.116975 0.654329
-0.0942923 0.0377764 0.654329
0.10644 -0.267361 0.643019
0.20826 -0.233764 0.549467
0.123555 -0.246555 0.654329
-0.0625138 -0.255328 0.633223
-0.1579 -0.134482 0.654329
0.190982 0.0944705 0.633223
0.101537 0.244582 0.633223
0.147836 0.0959423 0.654329
0.0498721 0.215296 0.422965
0.238561 0.185498 0.654329
-0.207612 -0.146819 0.654329
-0.222704 -0.123711 0.443255
-0.243997 0.0781836 0.633223
-0.267361 -0.129826 0.651722
-0.223181 0.20826 0.611935
-0.180283 0.139462 0.654329
0.229368 -0.0295752 0.438658
0.0538577 -0.250082 0.654329
0.223238 0.236403 0.0492013
-0.236403 0.210798 0.348112
0.0583282 -0.143541 0.633223
0.219849 -0.236403 0.410941
0.106678 -0.229367 0.438861
0.161312 0.261865 0.654329
0.267361 -0.0536962 0.638952
-0.229367 0.0745603 0.422176
-0.0575036 -0.0573469 0.654329
0.00776294 0.17125 0.633223
0.248435 -0.0755047 0.654329
0.0936197 0.267361 0.651038
0.221365 0.267361 0.640451
0.0294805 0.139561 0.633223
-0.223592 -0.236403 0.471107
-0.26488 0.127389 0.633223
-0.236403 0.231458 0.0996154
-0.222642 -0.20826 0.364899
-0.229367 -0.162636 0.430539
0.118809 -0.216779 0.633223
0.20826 0.210176 0.397261
-0.228982 0.15466 0.422149
-0.216864 0.0277924 0.443255
0.20826 -0.223537 0.379991
-0.218452 -0.20826 0.409383
0.23491 0.20826 0.0908622
-0.236403 -0.23472 0.238729
0.0988125 0.00424558 0.633223
0.0339698 0.229368 0.441186
0.0433124 -0.138758 0.654329
-0.229784 -0.236403 0.0622447
-0.031863 -0.013211 0.654329
0.215296 0.0962279 0.438726
-0.0996796 0.204444 0.633223
-0.229367 -0.0795003 0.432334
-0.232572 0.131254 0.633223
0.229368 -0.198638 0.429343
-0.206812 0.15495 0.633223
0.126062 -0.0368131 0.633223
-0.223728 0.236403 0.172768
0.0860768 -0.168061 0.654329
0.170704 0.253378 0.633223
-0.222037 0.20826 0.0692084
0.0425618 -0.0722446 0.654329
0.210579 -0.20826 0.0714667
0.0551691 0.183948 0.654329
-0.164883 -0.222514 0.654329
0.233922 -0.20826 0.33298
-0.059127 0.0795488 0.654329
-0.0996466 0.0532023 0.654329
0.229368 -0.0823987 0.435463
0.230177 0.238927 0.633223
0.231954 0.236403 0.251858
0.167885 0.12288 0.633223
-0.143061 0.0925061 0.654329
-0.236403 -0.233727 0.19284
-0.0400784 -0.267361 0.64187
-0.22928 -0.20826 0.586119
-0.20826 -0.23043 0.49924
0.0482031 -0.205856 0.654329
0.169229 -0.154626 0.633223
0.176723 0.0435568 0.654329
0.236403 -0.222122 0.192221
0.229368 0.177346 0.439054
0.0264776 0.182765 0.654329
-0.0794819 0.0181288 0.654329
-0.220173 0.236403 0.469912
0.267361 -0.149876 0.647261
-0.0998574 -0.0282555 0.654329
-0.196498 0.224038 0.633223
-0.0108934 0.225845 0.443255
0.138503 -0.153693 0.633223
-0.20826 0.217411 0.0647056
0.0125753 0.00484172 0.633223
-0.267361 0.065339 0.638393
-0.235626 -0.0561232 0.633223
0.149529 -0.255206 0.654329
-0.236403 -0.223526 0.327435
-0.113373 0.229368 0.441851
-0.216471 0.201152 0.654329
-0.229367 -0.0228545 0.429285
0.0718447 0.215296 0.427994
0.222231 -0.20826 0.132656
-0.151858 0.126987 0.654329
-0.187907 -0.19085 0.633223
0.167666 -0.04734 0.654329
-0.145905 -0.0809719 0.654329
-0.189465 0.229368 0.43188
-0.212604 0.0470542 0.633223
0.11038 -0.244884 0.633223
0.148589 -0.128749 0.633223
-0.20826 0.225195 0.565164
0.222195 0.236403 0.199383
-0.176167 -0.0038211 0.633223
-0.132513 0.267361 0.642523
0.178007 -0.229961 0.654329
0.22411 -0.075787 0.422149
0.161819 0.229368 0.428125
-0.229367 0.181246 0.432827
0.267361 0.0207538 0.650534
-0.216062 -0.176009 0.633223
-0.266917 -0.104841 0.654329
-0.215296 -0.0382623 0.432181
0.121928 0.183995 0.654329
0.212991 0.0707796 0.654329
0.22431 -0.188417 0.654329
0.120115 0.252204 0.654329
0.155782 0.0471497 0.633223
-0.267252 0.168935 0.633223
-0.215296 0.17621 0.423021
0.0757103 0.255935 0.633223
-0.20826 -0.223512 0.0380921
0.116546 0.217326 0.443255
-0.187874 0.257815 0.633223
0.231321 0.248252 0.654329
0.224411 0.236403 0.105449
-0.230399 -0.20826 0.303936
0.0201319 0.13315 0.654329
-0.230229 -0.236403 0.571807
-0.198329 -0.0514628 0.633223
0.116868 -0.141966 0.654329
0.222544 0.20826 0.283773
0.0308553 0.251215 0.633223
-0.232171 0.210251 0.654329
0.129482 0.254037 0.633223
0.229792 -0.0154642 0.654329
-0.166806 -0.208586 0.633223
0.266523 0.0976665 0.654329
-0.17238 -0.223176 0.633223
0.236403 0.235156 0.504954
0.155146 -0.182807 0.654329
0.100066 0.127713 0.654329
0.236403 0.226949 0.178695
0.236403 -0.220734 0.244964
0.225456 -0.236403 0.345152
-0.221321 -0.20826 0.0527469
0.227438 -0.236403 0.136238
0.141366 -0.0749449 0.633223
0.132899 -0.0627064 0.633223
-0.241754 0.00154155 0.654329
-0.10782 -0.00677574 0.654329
0.144436 0.22908 0.654329
0.218918 -0.236403 0.266923
-0.22887 0.236403 0.121267
0.113983 -0.0284782 0.633223
0.216979 0.151906 0.443255
0.00431234 0.157988 0.654329
-0.0278617 0.0846485 0.633223
0.224684 0.20826 0.0113765
-0.236403 -0.219521 0.223645
0.266053 -0.180909 0.654329
0.20826 0.223427 0.135049
-0.231179 -0.242756 0.633223
0.0981742 0.233733 0.654329
0.20826 -0.223311 0.592434
-0.215296 -0.178682 0.437972
-0.195007 0.0727706 0.654329
-0.0361579 0.229368 0.433816
-0.246099 0.0173031 0.633223
-0.211686 -0.111264 0.633223
0.236403 0.212826 0.277663
-0.175655 0.215296 0.433663
0.133638 -0.251783 0.633223
0.236403 -0.212722 0.462682
0.236403 -0.218325 0.364201
-0.258007 -0.188078 0.654329
0.114165 0.0558443 0.633223
0.0751933 -0.00821018 0.654329
-0.20826 -0.20922 0.445722
0.211076 0.20826 0.23218
-0.236403 -0.222944 0.496143
-0.125553 -0.267361 0.634549
0.051388 -0.267361 0.639505
-0.20826 -0.213097 0.263506
-0.0759256 0.103305 0.654329
0.0910684 0.05615 0.633223
0.236403 0.212404 0.499099
-0.215296 0.134762 0.434964
0.254467 0.00109738 0.633223
0.236403 0.235488 0.230106
-0.162188 0.0482869 0.654329
0.0893855 -0.202304 0.654329
-0.213939 0.172829 0.633223
0.0137814 0.21714 0.443255
-0.168498 0.134463 0.633223
0.0264259 -0.0467809 0.633223
-0.209559 0.267361 0.644043
-0.030213 0.210891 0.654329
-0.161245 -0.162199 0.654329
-0.22608 0.013246 0.633223
0.215632 0.236403 0.562198
-0.17844 0.14973 0.633223
0.21708 -0.127082 0.654329
-0.196376 -0.090497 0.633223
-0.057312 -0.0872614 0.633223
0.222322 -0.236403 0.367764
0.143904 -0.00461698 0.654329
-0.127068 -0.0353124 0.654329
-0.20826 -0.230556 0.551811
-0.229367 -0.18033 0.43379
0.203254 0.0367921 0.633223
0.0189781 0.1697 0.654329
-0.00138247 0.0230738 0.633223
0.236403 0.214514 0.309062
-0.181617 -0.0423696 0.633223
0.0795708 -0.0240311 0.654329
-0.175527 0.234245 0.654329
0.229368 -0.160484 0.436373
-0.150344 -0.108439 0.633223
0.213578 0.20826 0.215413
0.211279 -0.236023 0.633223
-0.000329494 0.229368 0.430715
0.0968143 6.31809e-06 0.654329
-0.0360266 0.267361 0.643608
-0.20826 0.222218 0.214035
0.0902196 0.0177006 0.633223
-0.0216078 0.241036 0.633223
-0.241365 0.149206 0.654329
-0.0495271 0.0132369 0.633223
-0.213607 0.236403 0.0161675
-0.20826 0.233598 0.300371
-0.20281 0.180456 0.654329
-0.236403 -0.223636 0.34589
0.0696147 0.178672 0.654329
-0.105943 0.129781 0.654329
0.20826 -0.210941 0.289241
-0.203995 0.100234 0.654329
0.227229 -0.128177 0.633223
0.20826 0.220423 0.187749
-0.138447 -0.145568 0.654329
-0.21862 -0.20826 0.0242567
0.233704 -0.209328 -2.77556e-17
0.170919 -0.11414 0.633223
-0.240164 -0.189214 0.654329
0.219014 0.131101 0.422149
-0.153779 -0.0850159 0.633223
0.213404 -0.169483 0.633223
-0.0353695 -0.224783 0.633223
-0.0884946 0.23846 0.633223
-0.235027 0.20826 0.458266
0.0209929 -0.206254 0.654329
0.00776303 -0.178783 0.633223
-0.226901 0.236403 0.226823
-0.0965034 -0.0910966 0.654329
0.209603 0.0995575 0.633223
0.183245 -0.0246789 0.654329
-0.0205352 -0.215296 0.424059
0.218568 -0.16827 0.422149
0.215296 -0.0421116 0.426143
0.260847 -0.267361 0.654115
0.20826 -0.216778 0.0338114
0.236403 0.211993 0.124375
-0.229367 -0.116791 0.426645
-0.225123 0.20826 0.299948
0.20826 0.210088 0.265567
0.20826 -0.224454 0.121754
-0.129496 -0.221786 0.443255
0.11262 -0.154264 0.633223
0.0971571 0.0789988 0.633223
-0.0286103 0.0191498 0.633223
0.0227207 -0.240822 0.654329
-0.132788 0.215296 0.4413
0.06676 0.173869 0.633223
-0.236403 -0.234505 0.0342767
0.0213976 -0.254915 0.654329
0.176874 -0.229367 0.443007
0.221142 0.236403 0.519757
0.235097 0.236403 0.602256
0.0681604 0.0120452 0.654329
