-0.20826 0.221287 0.626472
0.20826 -0.208805 0.0265216
0.0130407 -0.033912 0.633223
-0.20826 -0.224307 0.324789
-0.20826 -0.225157 0.610257
-0.101776 -0.112152 0.633223
0.0200186 0.139117 0.633223
6.24955e-05 -0.146028 0.654329
-0.216463 -0.20826 0.467904
0.265991 -0.216748 0.654329
-0.0571192 -0.0851434 0.633223
-0.00900742 0.109242 0.633223
0.229368 -0.162402 0.431054
0.0969957 -0.257356 0.654329
-0.236403 -0.226165 0.387762
0.267361 -0.12306 0.652249
-0.236403 -0.221106 0.566105
0.20826 -0.230038 0.28818
-0.0757284 0.266657 0.633223
-0.225667 -0.20826 0.230299
-0.0975437 -0.257586 0.654329
-0.220823 0.0963819 0.443255
0.266846 0.0736096 0.654329
-0.0822367 0.131782 0.654329
0.228991 0.244933 0.654329
0.235065 0.232311 0.633223
-0.118122 0.0905756 0.654329
-0.127778 0.0547131 0.654329
0.115577 0.118306 0.633223
0.238412 0.055467 0.654329
-0.113324 -0.108757 0.654329
0.20945 0.00705612 0.633223
0.219167 -0.20826 0.37033
0.202139 -0.0447542 0.633223
0.188507 -0.0197452 0.633223
-0.236403 -0.220139 0.0880887
-0.090291 0.0937142 0.633223
0.20826 -0.22707 0.0161981
-0.0304381 -0.258641 0.654329
0.200758 -0.0557244 0.633223
-0.248553 -0.126063 0.654329
0.218188 -0.20826 0.371704
-0.221261 -0.227641 0.633223
0.267361 0.230766 0.638597
0.20826 0.228271 0.331489
0.201956 -0.00650328 0.633223
0.229368 -0.0323216 0.423133
0.20826 0.209534 0.333488
-0.180614 -0.0484884 0.654329
-0.236403 -0.224258 0.0730728
-0.00100657 0.0561777 0.633223
-0.015854 -0.14527 0.633223
0.21636 -0.20826 0.574475
0.226943 -0.226223 0.633223
0.229368 0.0915904 0.435843
0.17047 -0.0217633 0.633223
0.197271 -0.0639961 0.633223
-0.236403 0.223291 0.568073
-0.180524 -0.0780472 0.633223
-0.142957 -0.180852 0.633223
0.18182 -0.233077 0.633223
-0.132901 -0.267361 0.644243
0.0469167 0.12704 0.654329
-0.0922374 -0.267361 0.637534
0.0390581 0.0831144 0.654329
0.0203189 0.267361 0.64031
0.101683 -0.267361 0.640788
-0.241274 -0.263521 0.654329
0.0605843 -0.226722 0.654329
0.0156512 0.223378 0.633223
0.0425526 -0.0954352 0.633223
-0.20826 -0.220291 0.0515967
-0.12524 -0.00542346 0.654329
-0.236403 0.226296 0.18062
-0.0840454 0.138978 0.633223
0.231643 0.123742 0.654329
0.131797 0.172253 0.633223
-0.247038 -0.18819 0.633223
-0.20826 0.213128 0.238111
-0.156954 0.267361 0.641671
-0.221711 0.20826 0.453878
-0.158778 0.172883 0.654329
-0.127672 0.267361 0.652962
-0.209254 -0.236403 0.306222
0.226702 0.20826 0.20328
-0.0249878 -0.0749356 0.633223
0.159995 -0.0708133 0.654329
-0.230438 -0.20826 0.306203
0.236403 0.236061 0.0698989
-0.186712 -0.211557 0.654329
0.20826 0.228971 0.102111
-0.261619 -0.191449 0.633223
-0.10569 0.160805 0.654329
0.125242 0.200947 0.633223
0.231696 0.236403 0.0873426
0.0491595 -0.0476181 0.654329
-0.166309 -0.248152 0.633223
-0.236403 0.209321 0.167277
0.0117353 0.215296 0.443162
-0.218512 -0.236403 0.283461
-0.142392 0.182326 0.633223
0.0214098 -0.133194 0.654329
-0.235427 0.236403 0.292995
0.258679 -0.209441 0.654329
-0.163075 -0.129223 0.633223
-0.250722 0.09571 0.633223
-0.0607343 -0.0614169 0.633223
-0.20917 -0.20826 0.181454
0.20826 -0.235313 0.429323
0.236403 0.231867 0.520927
0.24883 -0.147448 0.633223
0.236403 -0.216508 0.515747
0.236392 -0.236403 0.388347
0.215296 0.0226488 0.426079
0.21934 0.236403 0.0567283
0.236403 0.225412 0.103844
-0.0730616 -0.217271 0.654329
-0.236403 -0.215943 0.0574746
-0.0890191 -0.202696 0.633223
0.267361 -0.10663 0.652073
0.0659794 -0.146703 0.654329
0.200462 -0.119617 0.654329
-0.129016 -0.24937 0.654329
-0.210403 -0.236403 0.30533
-0.20826 0.208458 0.435045
-0.04333 0.157831 0.633223
-0.0198606 -0.178957 0.654329
-0.0495533 -0.215296 0.440379
-0.0658086 -0.196581 0.633223
0.1742 -0.204472 0.654329
-0.20826 -0.213919 0.452285
-0.00296012 -0.10773 0.633223
-0.099269 0.229368 0.423839
-0.267361 -0.0898847 0.636659
0.236403 0.234007 0.398245
-0.212606 -0.20826 0.0151024
0.0308989 0.22574 0.443255
0.220257 -0.0550151 0.654329
-0.165431 -0.03782 0.633223
-0.19617 0.0841206 0.654329
0.229368 -0.132392 0.436451
0.0879088 -0.23147 0.633223
-0.163127 0.016209 0.633223
-0.22667 0.20826 0.59485
-0.166868 -0.248245 0.633223
-0.0526811 -0.021 0.654329
0.264318 0.00191194 0.654329
0.255745 -0.0943706 0.654329
0.0497425 -0.101429 0.633223
0.211017 0.236403 0.0960666
0.0594753 0.161082 0.633223
-0.13653 -0.205649 0.654329
0.161125 -0.08631 0.633223
-0.00254482 -0.215296 0.436275
-0.136582 -0.106927 0.633223
0.144041 0.0352657 0.654329
0.236403 0.216015 0.213441
0.185982 0.212009 0.633223
0.223688 0.20826 0.29854
0.0531408 -0.215296 0.422865
-0.0500601 -0.123408 0.654329
-0.0599741 -0.226044 0.633223
0.236403 0.222653 0.510561
-0.213415 0.236403 0.412317
0.00415674 0.0844421 0.654329
0.000592113 -0.232946 0.633223
-0.124055 0.155698 0.633223
-0.203676 0.215322 0.422149
0.222837 0.184472 0.654329
-0.195927 -0.0714396 0.633223
0.236403 0.227593 0.0139107
0.189789 -0.245238 0.654329
-0.148252 0.180625 0.654329
-0.20826 -0.235818 0.620106
0.238104 -0.192561 0.654329
-0.174156 0.0174005 0.654329
0.117187 0.201622 0.633223
0.220662 0.0495425 0.654329
-0.00904074 -0.205527 0.654329
0.236403 -0.21791 0.335536
-0.101367 0.0940526 0.654329
-0.0545078 0.124159 0.654329
0.123808 -0.200574 0.633223
-0.145079 -0.0605073 0.633223
-0.229367 -0.0260158 0.426906
-0.253647 0.137766 0.654329
0.0447627 -0.151878 0.654329
-0.120295 -0.16741 0.654329
-0.220093 -0.20826 0.566077
-0.212121 0.0850097 0.633223
-0.0299402 0.267361 0.652438
-0.156509 -0.128428 0.633223
-0.12158 0.25188 0.654329
0.267361 -0.159378 0.647394
-0.0351198 -0.226225 0.654329
-0.152507 0.125807 0.654329
-0.0398099 -0.230357 0.654329
-0.262361 -0.0848288 0.654329
0.215383 -0.236403 0.114531
-0.236403 -0.222031 0.335093
0.215296 0.158923 0.437517
-0.101897 -0.114595 0.633223
0.132778 0.164611 0.633223
-0.0941225 0.0266132 0.633223
-0.182522 -0.110018 0.654329
-0.049306 -0.0838309 0.633223
0.0199029 0.166172 0.654329
0.162967 0.12449 0.654329
0.0420237 0.0523051 0.633223
0.267361 0.0743812 0.649454
0.020752 0.000127852 0.633223
-0.0943854 -0.22837 0.422149
0.218021 -0.236403 0.19999
-0.107554 0.118997 0.633223
0.0778058 0.229368 0.424279
0.26061 -0.141263 0.633223
0.03705 0.0546833 0.654329
0.0499238 -0.144334 0.654329
-0.124288 0.215296 0.428576
-0.20826 -0.208416 0.531387
0.202984 0.225947 0.633223
0.209831 0.155646 0.654329
-0.186785 -0.104545 0.654329
-0.260377 0.223066 0.654329
0.184947 0.195128 0.633223
0.182223 0.0757533 0.633223
0.240729 0.0257518 0.633223
0.0362705 -0.0539178 0.633223
0.211205 -0.236403 0.0669686
-0.227709 -0.236403 0.553954
-0.229367 0.0295189 0.432427
0.242483 -0.0867032 0.654329
0.236403 -0.231308 0.133524
0.224555 0.182824 0.654329
-0.00838014 -0.0472223 0.654329
-0.0720274 0.224165 0.633223
-0.0540932 -0.178072 0.654329
-0.0432174 -0.0937095 0.633223
0.21965 0.215022 0.633223
-0.236403 0.215761 0.0238163
-0.236403 0.226011 0.480845
0.236828 -0.0211797 0.633223
0.236403 -0.210712 0.534472
0.0820268 0.267361 0.652532
0.0817446 -0.267361 0.637921
0.0558473 -0.122968 0.654329
0.136673 -0.00262895 0.633223
0.236403 0.216524 0.20532
0.0224319 -0.25231 0.633223
-0.236403 0.21853 0.566926
-0.261871 -0.189317 0.654329
0.267361 0.134221 0.645662
0.231136 -0.236403 0.0188017
-0.20826 0.235262 0.478414
-0.212007 0.128918 0.633223
0.267361 -0.173361 0.645852
-0.236403 -0.22303 0.10901
0.173332 0.140989 0.633223
0.0491282 -0.260747 0.633223
0.236403 -0.225923 0.251191
0.0403916 -0.250618 0.654329
0.0313552 -0.205909 0.654329
-0.217421 -0.236403 0.0494654
0.10705 0.203213 0.633223
0.0287473 -0.0279102 0.654329
0.098286 -0.128134 0.654329
0.046194 0.159118 0.633223
-0.12975 -0.123288 0.633223
-0.116898 -0.161121 0.633223
-0.236403 0.220547 0.363901
-0.202066 -0.239287 0.633223
0.209447 -0.20826 0.152373
0.00145608 0.237676 0.654329
-0.0669585 -0.157981 0.633223
0.267361 -0.133214 0.642437
0.225249 -0.108153 0.633223
0.187439 -0.027971 0.654329
0.162536 0.215296 0.433528
0.0555935 0.229368 0.423409
0.215905 -0.236403 0.0174209
0.0935669 0.267361 0.634906
0.00536737 0.147102 0.654329
0.236403 0.213315 0.414109
-0.236403 -0.208723 0.0146367
0.220143 -0.126338 0.443255
-0.1145 -0.00301719 0.654329
-0.266552 0.224895 0.633223
0.136713 -0.131307 0.633223
0.119701 -0.0721233 0.654329
-0.222443 -0.20826 0.495127
0.0484328 0.215296 0.431127
0.226547 0.236403 0.20946
0.236403 0.225317 0.104024
0.0804749 0.215296 0.439589
-0.223553 -0.236403 0.606679
0.23439 0.20826 0.539832
-0.20826 0.23633 0.084657
0.20826 -0.209878 0.379388
-0.209773 -0.113546 0.633223
-0.267361 -0.143269 0.647155
0.20826 0.224575 0.410848
0.20826 -0.215325 0.562979
-0.0539238 -0.122624 0.654329
0.167024 0.163751 0.633223
0.0629305 0.00612158 0.633223
-0.0598166 0.0939068 0.633223
0.168608 -0.220489 0.422149
0.20826 -0.213782 0.113639
0.160262 0.254023 0.633223
-0.169785 0.043629 0.633223
-0.160036 0.015172 0.633223
-0.262965 0.0195773 0.654329
0.235773 0.0878353 0.633223
-0.123605 0.17077 0.633223
-0.267361 -0.121951 0.633923
-0.230864 0.0697996 0.633223
-0.248349 -0.0408708 0.633223
0.228949 0.20826 0.175288
0.205889 -0.215296 0.432141
0.160566 -0.246125 0.633223
0.168195 0.0707951 0.633223
0.236403 0.218676 0.628991
-0.236403 0.22711 0.606743
-0.130805 0.114525 0.654329
-0.14858 -0.000832587 0.654329
0.0613528 -0.145561 0.654329
-0.236403 -0.219001 0.281072
0.00138068 -0.0766217 0.633223
0.197317 0.000454873 0.654329
0.131369 -0.0781569 0.633223
-0.236403 0.233476 0.404013
0.232723 0.181858 0.654329
-0.236403 0.220646 0.364972
0.221909 -0.20826 0.220789
0.135026 0.0477875 0.654329
-0.229367 0.10667 0.427191
-0.267361 -0.260286 0.641125
-0.128663 -0.00536478 0.654329
-0.0668922 0.175126 0.633223
0.246623 -0.239591 0.654329
0.0190905 0.2651 0.633223
0.229247 0.186788 0.654329
-0.0149367 -0.206666 0.654329
-0.0291554 -0.189518 0.633223
-0.116454 0.12182 0.654329
0.132197 0.152297 0.654329
-0.236403 -0.219371 0.218649
-0.104235 0.174663 0.654329
0.241085 0.217777 0.633223
0.196132 0.143415 0.633223
-0.0805891 -0.0582104 0.654329
-0.0539317 -0.123404 0.633223
0.215296 -0.0294653 0.428842
0.076003 -0.260294 0.633223
-0.20826 0.230773 0.603445
-0.256535 -0.267361 0.645126
0.100543 -0.179033 0.654329
-0.0613377 0.229368 0.438345
-0.225961 0.20826 0.1312
-0.238501 -0.265299 0.654329
0.0767302 0.0220747 0.654329
-0.137013 -0.239009 0.654329
-0.267361 -0.188863 0.640233
0.0624319 0.0686405 0.654329
-0.0120628 0.205525 0.633223
0.110829 -0.0667654 0.654329
-0.203724 -0.0653703 0.633223
0.235094 0.148802 0.633223
0.224789 -0.00153452 0.633223
0.267361 -0.00733185 0.652269
-0.233743 -0.030477 0.633223
0.236403 0.219415 0.485164
-0.158573 -0.253292 0.654329
0.234818 -0.239896 0.654329
0.225188 0.00836718 0.443255
0.20826 0.232144 0.0718321
0.23026 0.20826 0.165098
-0.108594 -0.0772839 0.633223
-0.20826 0.219336 0.407612
0.0238562 -0.208048 0.654329
0.0855455 -0.24453 0.633223
-0.163603 0.062969 0.654329
0.20826 -0.235128 0.094217
-0.145928 -0.198916 0.654329
0.201733 0.0388913 0.654329
0.236403 0.212331 0.213609
0.181466 -0.215372 0.422149
0.236403 0.208379 0.139677
-0.131069 -0.234448 0.654329
0.0370082 -0.267361 0.638458
-0.267361 -0.0179372 0.64605
0.233512 0.236403 0.107939
-0.209602 -0.0192101 0.633223
0.0584978 -0.147067 0.633223
0.144086 -0.250831 0.654329
-0.222351 -0.172461 0.633223
0.0169595 0.097222 0.633223
-0.215764 0.20826 0.322477
0.092855 0.184228 0.633223
0.230063 -0.236403 0.425144
-0.251304 0.0139 0.654329
0.0667385 -0.267361 0.653343
-0.0431737 -0.253406 0.633223
-0.0192145 -0.138824 0.654329
-0.236403 -0.234482 0.38186
0.24865 0.266059 0.633223
0.220675 -0.00862136 0.633223
-0.229367 0.131245 0.434143
-0.267361 0.187309 0.635841
0.12376 0.178665 0.633223
-0.0819322 -0.121254 0.654329
-0.236321 -0.20826 0.131844
-0.0693431 0.163442 0.654329
-0.0434803 0.0725148 0.654329
0.0778391 0.223275 0.422149
0.0116901 0.246662 0.654329
0.247998 0.0185031 0.633223
-0.20826 -0.217758 0.117358
0.100867 -0.189187 0.633223
-0.211982 0.236403 0.0341909
-0.221122 -0.20826 0.306979
-0.236403 -0.214915 0.251793
-0.20826 -0.220508 0.348203
-0.22018 -0.094631 0.443255
0.211572 -0.020236 0.654329
0.258329 0.211805 0.633223
-0.201052 -0.26373 0.654329
0.227465 0.236403 0.187779
0.0148953 -0.0730182 0.633223
-0.000980079 -0.265588 0.654329
-0.213358 -0.0133025 0.654329
0.236403 0.218944 0.238142
-0.20826 -0.229131 0.0665895
-0.219898 0.20826 0.172172
-0.237896 0.206001 0.633223
0.104233 -0.200742 0.654329
0.184413 0.21668 0.422149
0.0800445 0.128589 0.633223
0.236403 0.227206 0.588459
-0.222836 -0.236403 0.606202
0.20826 0.221771 0.0188793
0.236403 0.228455 0.570425
-0.00865266 -0.193607 0.654329
-0.219287 -0.0460792 0.654329
0.176551 -0.174957 0.654329
0.236403 -0.216534 0.555773
-0.016214 -0.0441551 0.654329
0.20826 0.219584 0.246451
-0.222059 0.20826 0.379436
0.20826 0.224672 0.199375
-0.23515 0.236403 0.270085
0.0536931 0.229368 0.433038
-0.00501922 0.215472 0.633223
0.149025 0.14725 0.633223
0.174171 -0.208143 0.654329
-0.026161 0.165607 0.633223
0.173411 0.200092 0.654329
-0.185861 0.128253 0.633223
-0.236403 -0.22812 0.347851
-0.201554 -0.0664798 0.633223
0.232189 -0.24564 0.654329
0.121158 0.181478 0.633223
-0.226403 -0.0537451 0.633223
0.267361 -0.0294777 0.637702
-0.130462 -0.267361 0.640737
-0.213575 0.236403 0.448481
-0.18625 0.0709969 0.654329
-0.232739 0.236403 0.240127
0.105541 -0.187676 0.654329
0.236403 0.22547 0.427503
0.229292 0.108164 0.654329
0.214722 0.236403 0.537328
0.232607 0.20826 0.50331
0.226294 -0.0502784 0.443255
0.20826 -0.212625 0.613008
0.236403 0.235947 0.507125
-0.236403 0.220489 0.202537
-0.141194 -0.168742 0.654329
0.106481 -0.0560372 0.633223
-0.0280055 -0.100737 0.654329
0.267361 -0.19142 0.636555
-0.212507 0.20826 0.400074
-0.0614642 -0.242279 0.633223
-0.107902 -0.109947 0.654329
0.254554 -0.210706 0.633223
0.20826 -0.219043 0.29991
0.198315 -0.215296 0.426417
0.221523 -0.236403 0.342263
-0.0996077 -0.0401048 0.654329
-0.153939 -0.217017 0.443255
0.25367 0.14139 0.633223
0.260713 -0.221645 0.633223
-0.033094 0.239593 0.654329
-0.0527326 0.0629613 0.633223
0.0676383 -0.0958134 0.633223
-0.247019 0.18178 0.633223
0.0455922 0.062214 0.633223
-0.215262 -0.20826 0.518927
0.220471 -0.20826 0.499925
0.22569 0.0505972 0.443255
-0.229367 0.1823 0.42861
0.232212 -0.236403 0.216381
0.159393 -0.19849 0.654329
0.00991103 -0.206612 0.654329
-0.236403 -0.224806 0.579403
-0.15642 0.0273165 0.654329
-0.267361 0.0218525 0.652739
0.23588 -0.20826 0.416027
-0.167076 0.252855 0.654329
0.093797 0.232787 0.633223
-0.222473 0.180433 0.443255
-0.234459 0.0926155 0.633223
-0.134129 0.142304 0.633223
0.265487 -0.0849445 0.633223
0.256669 -0.150816 0.633223
0.0175892 -0.0864107 0.654329
0.123483 -0.0444587 0.654329
0.182659 0.147839 0.633223
-0.139794 -0.0977768 0.633223
-0.213329 0.236403 0.254943
0.0463517 -0.215296 0.442626
0.245406 0.189363 0.633223
0.152638 0.229368 0.430348
-0.194423 -0.22282 0.422149
0.167617 0.053859 0.654329
-0.203931 -0.0787843 0.633223
0.20826 0.233579 0.136566
-0.0046972 0.215296 0.426832
-0.104432 -0.229367 0.423996
0.036451 0.0962438 0.654329
0.236403 -0.234713 0.586137
-0.233013 -0.20826 0.0259475
-0.20826 0.222427 0.0317649
-0.209503 -0.236403 0.214983
0.208611 0.0259715 0.633223
-0.236403 0.208371 0.0169079
0.267361 -0.169947 0.64896
0.0533423 0.172761 0.633223
0.205462 -0.233492 0.654329
0.178451 -0.215296 0.435581
-0.218979 -0.20826 0.373916
0.0414726 -0.254875 0.633223
-0.164197 0.22255 0.422149
0.20826 -0.208305 0.0429736
-0.218414 0.015459 0.654329
-0.0927825 -0.113321 0.654329
0.20826 -0.225789 0.28926
-0.00069654 0.267361 0.651205
-0.10492 0.0431065 0.633223
0.236403 0.225239 0.397103
0.194237 0.246656 0.633223
0.0189893 -0.229367 0.424356
0.0926735 -0.233846 0.633223
0.0121968 -0.209909 0.633223
-0.0950295 -0.0875542 0.633223
-0.235332 -0.236403 0.129704
0.20826 0.231065 0.435766
-0.20826 0.211582 0.421546
-0.0266452 -0.0216639 0.633223
-0.219462 0.20826 0.371231
-0.267361 0.223229 0.652593
0.236476 0.215216 0.654329
0.225224 0.236403 0.278603
-0.21819 -0.224164 0.654329
-0.2212 -0.0666194 0.633223
0.20826 0.213764 0.613216
-0.00766149 -0.229001 0.633223
-0.195607 -0.264052 0.633223
-0.216911 0.0989659 0.422149
-0.164802 -0.189638 0.654329
0.00403163 0.228979 0.654329
-0.234923 0.212053 0.633223
-0.228919 0.20826 0.0349791
0.211709 0.250406 0.633223
0.144276 -0.238984 0.654329
0.236403 -0.229135 0.193753
-0.183307 -0.261842 0.654329
-0.236403 0.208785 0.482002
0.267361 -0.0983999 0.653441
-0.0792384 0.0644337 0.654329
-0.027827 -0.132316 0.654329
0.0173 -0.223969 0.633223
0.230099 0.20826 0.574673
-0.172773 -0.0735272 0.633223
0.20826 0.210251 0.373535
-0.234314 -0.226471 0.633223
0.207483 -0.171658 0.654329
0.227571 -0.20826 0.409459
-0.229367 0.15698 0.441612
-0.253118 0.0282982 0.633223
0.174563 -0.0238208 0.654329
-0.149988 -0.00710386 0.654329
-0.152275 0.160566 0.633223
-0.208672 -0.236403 0.591147
0.160389 0.209313 0.633223
0.052627 0.0167151 0.654329
-0.252746 0.100163 0.654329
-0.0998901 0.267361 0.641552
0.2308 -0.172987 0.654329
-0.235166 0.0409161 0.654329
-0.0252632 -0.101514 0.654329
0.0534307 -0.00233704 0.633223
-0.225681 0.145215 0.654329
-0.20826 -0.215329 0.115234
0.0721317 0.215296 0.428293
-0.267361 0.130267 0.650949
-0.20826 0.227756 0.569834
-0.20958 -0.234497 -2.77556e-17
-0.230154 -0.233446 0.633223
0.0867907 0.173751 0.633223
0.13277 0.0610499 0.654329
-0.229249 0.20826 0.564445
0.265705 -0.0130858 0.633223
0.192601 -0.215296 0.442078
-0.128353 -0.0207045 0.654329
-0.0720048 -0.117826 0.654329
-0.224618 -0.20826 0.448472
0.190838 0.118527 0.654329
0.236403 0.212683 0.269366
0.163218 -0.0632264 0.633223
0.267361 -0.0595721 0.649808
0.0612954 -0.0691175 0.654329
0.236403 0.210661 0.499785
0.117074 -0.054927 0.654329
0.215296 -0.0898408 0.427271
-0.038982 0.218529 0.633223
0.106758 -0.0734352 0.633223
0.21247 0.188778 0.654329
-0.0754703 -0.170069 0.654329
0.216671 0.20826 0.467953
0.203638 -0.267361 0.63387
-0.228867 0.220693 0.633223
-0.214222 0.20826 0.50066
0.236403 -0.209186 0.351063
0.223664 0.20826 0.164386
0.222724 0.133514 0.443255
-0.0209323 0.129707 0.633223
-0.169585 0.0445485 0.633223
0.143609 -0.0108268 0.654329
-0.20826 0.23015 0.0750048
0.0756588 0.169518 0.654329
0.0904184 0.0991318 0.633223
0.103484 0.234452 0.654329
-0.212974 -0.236403 0.569217
0.0666643 -0.103072 0.654329
0.20826 0.223012 0.196503
0.0730713 0.00242698 0.654329
0.170296 -0.155071 0.633223
0.183544 -0.251418 0.654329
0.20826 -0.228894 0.183188
0.177786 -0.0592229 0.654329
-0.22123 0.0588876 0.422149
0.161319 0.219486 0.422149
0.236403 0.226134 0.404737
-0.0732574 0.0874917 0.633223
-0.220631 -0.236403 0.0535529
-0.218062 0.236403 0.292411
-0.20826 0.223818 0.406279
-0.136866 0.195446 0.654329
0.218791 -0.236403 0.0243994
-0.193288 0.00205421 0.654329
-0.0256763 -0.0333956 0.654329
-0.203901 0.0548512 0.654329
-0.144685 0.0583749 0.633223
0.0916854 -0.0227046 0.633223
-0.209235 -0.227614 -2.77556e-17
0.0159306 0.22063 0.443255
-0.112589 0.0606851 0.654329
0.0340974 0.0610218 0.633223
-0.112161 -0.223426 0.633223
0.143195 -0.225177 0.633223
-0.217684 -0.20826 0.247563
-0.236403 -0.232346 0.122041
-0.251784 0.148706 0.633223
0.00470889 0.135092 0.633223
0.0242953 -0.104492 0.654329
-0.099409 0.215296 0.433719
-0.154317 -0.14878 0.654329
-0.228945 0.236403 0.106793
0.154021 0.193469 0.633223
0.0791089 0.21854 0.654329
-0.116845 -0.0672864 0.633223
-0.215296 -0.16488 0.435961
-0.231097 -0.219555 0.633223
-0.232867 0.20826 0.403796
-0.263992 -0.231039 0.633223
-0.219672 0.20826 0.307274
0.187449 -0.156252 0.633223
0.225715 -0.20826 0.37633
0.054679 -0.165906 0.633223
-0.236403 -0.213069 0.18834
-0.0290731 0.18232 0.654329
-0.267361 -0.263886 0.645947
-0.20875 0.093725 0.633223
0.167674 -0.229367 0.429505
0.229368 -0.104129 0.426247
-0.209602 0.19178 0.654329
0.108674 0.229368 0.437676
-0.179449 -0.084024 0.654329
0.186871 -0.24112 0.633223
0.210474 -0.236403 0.219051
-0.236403 -0.214527 0.204095
-0.216198 0.158248 0.422149
0.236403 0.235139 0.160727
0.187506 -0.139113 0.654329
-0.050424 0.111228 0.633223
0.20826 -0.223911 0.331364
-0.0911919 -0.13695 0.654329
-0.0370883 0.195144 0.633223
0.0855282 -0.0618854 0.633223
0.155685 -0.107652 0.633223
-0.120235 0.0359703 0.633223
-0.021948 0.255054 0.654329
-0.231783 0.00706887 0.633223
-0.215376 -0.0946268 0.443255
0.20826 -0.230588 0.374513
0.236403 0.220055 0.330599
0.0259949 0.138195 0.654329
0.0837696 0.0273535 0.654329
-0.0423661 0.247106 0.654329
0.0261035 0.21715 0.633223
0.0346091 -0.243711 0.654329
0.176993 0.00650838 0.654329
0.227399 -0.0513577 0.633223
0.152073 -0.145649 0.633223
-0.225378 0.144907 0.654329
-0.220446 -0.20826 0.254774
0.230026 -0.236403 0.0879298
0.222349 -0.236403 0.596014
-0.120543 -0.189195 0.633223
-0.227002 0.219666 -2.77556e-17
-0.267361 0.191197 0.639563
0.0355486 -0.0109303 0.633223
0.0176785 0.214309 0.654329
-0.00787073 0.149473 0.633223
-0.166088 0.263962 0.654329
-0.0587224 -0.0483299 0.633223
0.0835378 0.221922 0.422149
-0.144488 0.0580979 0.633223
-0.182826 0.225065 0.633223
0.199931 -0.0258974 0.633223
-0.236403 -0.215506 0.508587
-0.173095 0.181857 0.654329
-0.242575 0.111947 0.654329
-0.13968 -0.217319 0.443255
-0.224666 0.202626 0.422149
-0.15633 -0.2512 0.633223
-0.00646764 0.215286 0.633223
-0.0208468 -0.00281605 0.633223
0.236403 0.228486 0.260173
-0.126573 0.16044 0.633223
-0.0151028 0.161395 0.654329
0.236403 0.212311 0.182434
-0.211689 -0.20826 0.611677
0.0133164 -0.215296 0.430773
-0.0777902 0.223977 0.654329
-0.21795 -0.0351027 0.443255
-0.217431 0.20826 0.502052
0.236403 -0.216943 0.521125
0.21727 0.20826 0.0665497
-0.0935077 -0.191327 0.633223
0.215296 0.0309521 0.441962
0.0136859 -0.18958 0.633223
-0.267361 -0.236458 0.634307
-0.248396 -0.00314072 0.633223
0.169325 -0.166512 0.654329
0.0113543 0.0201856 0.654329
0.236403 -0.210687 0.042454
-0.2088 -0.00253224 0.654329
-0.267361 0.234173 0.647513
0.214081 0.251773 0.654329
0.241992 0.1898 0.654329
-0.007514 -0.267361 0.652164
0.20742 -0.104762 0.654329
-0.212797 0.20826 0.27381
0.0501897 0.215296 0.440005
-0.236403 -0.23146 0.026711
-0.125856 0.129179 0.633223
0.190319 0.133746 0.654329
-0.0687333 0.0286684 0.633223
-0.185889 0.215296 0.440477
0.197112 0.167474 0.654329
-0.158477 0.247485 0.633223
0.227382 0.236403 0.406062
0.217574 0.18641 0.443255
-0.0797002 0.0173992 0.654329
-0.234179 0.236403 0.114288
-0.000698596 0.10439 0.633223
-0.232644 0.236403 0.513283
0.0992318 -0.174107 0.633223
0.238942 0.0583178 0.633223
0.225178 -0.20826 0.505528
0.0191811 0.255924 0.654329
0.215296 0.0617411 0.439365
0.11757 -0.199161 0.654329
0.142066 0.108376 0.654329
-0.257681 -0.0837746 0.654329
0.252048 0.0864643 0.654329
-0.210122 0.236544 0.654329
-0.20915 -0.20826 0.0235117
0.20826 0.235041 0.4494
-0.229367 0.0327914 0.422305
-0.0310257 0.0416733 0.654329
-0.236403 0.225792 0.446441
0.234864 0.20826 0.0195911
-0.22836 0.236403 0.32511
0.20826 -0.231202 0.518239
0.0129839 -0.0125296 0.633223
0.235139 -0.236403 0.382854
-0.163418 -0.216612 0.654329
0.239874 0.149029 0.633223
0.228523 0.20826 0.0369573
-0.0361528 -0.110539 0.654329
0.184787 -0.234815 0.633223
-0.143737 -0.0361093 0.633223
-0.230929 -0.219989 0.633223
-0.229241 -0.236403 0.579396
-0.0924972 -0.217888 0.422149
-0.23512 -0.0971084 0.633223
-0.20826 0.233188 0.538291
0.0132275 -0.0400417 0.654329
0.107723 0.175977 0.654329
-0.219807 0.236403 0.557798
-0.161899 -0.0472596 0.654329
-0.226549 0.20826 0.512599
0.207651 -0.259772 0.654329
0.228915 0.20826 0.285996
0.213693 -0.20826 0.336301
-0.121581 0.154389 0.654329
-0.0742236 0.249046 0.633223
0.11404 0.0957817 0.654329
0.139271 0.125996 0.633223
-0.167245 0.182577 0.654329
-0.219004 -0.225253 0.633223
-0.23597 0.20826 0.0227677
-0.196467 0.243415 0.633223
-0.102666 -0.196003 0.633223
-0.267361 0.0238859 0.633623
0.218994 0.20826 0.506635
-0.177282 0.141825 0.633223
-0.201957 -0.0968922 0.633223
0.140453 -0.10732 0.633223
0.267361 0.145288 0.65124
0.215644 -0.236403 0.614692
0.0360954 0.110677 0.654329
0.212409 -0.20826 0.378255
-0.21674 0.20826 0.0699887
0.229368 -0.00218907 0.430277
0.0638129 0.0271305 0.633223
-0.217315 0.20826 0.542714
-0.225921 0.236403 0.2558
-0.220859 -0.078388 0.443255
-0.238142 0.032437 0.654329
-0.254967 -0.0270215 0.633223
0.212141 0.20826 0.444265
-0.249794 0.108199 0.654329
-0.111494 0.127436 0.633223
-0.216131 -0.0609922 0.633223
-0.20826 -0.229973 0.0309991
0.219403 0.236403 0.387701
0.0850999 -0.205228 0.633223
0.0122989 0.113799 0.633223
-0.235011 0.236403 0.0692445
0.159181 -0.204899 0.633223
-0.0945557 -0.127233 0.633223
0.253904 -0.214823 0.654329
0.116398 0.166944 0.654329
-0.143201 -0.0526604 0.654329
0.0192345 0.0527461 0.654329
-0.199386 -0.182397 0.654329
0.20826 -0.22092 0.456692
0.216306 0.133722 0.422149
-0.0891795 -0.169294 0.633223
-0.0168275 -0.220365 0.422149
-0.225369 0.0544904 0.443255
0.0905943 -0.229303 0.422149
-0.089615 0.247574 0.654329
0.074432 0.0460905 0.633223
-0.10018 0.1449 0.654329
0.215296 -0.0547397 0.433691
-0.22645 -0.236403 0.401467
0.013682 -0.0671129 0.654329
0.20826 0.221563 0.134706
-0.21974 0.20826 0.275801
0.0433086 0.229368 0.435102
0.221983 -0.20826 0.0697588
-0.173338 -0.124997 0.654329
-0.137077 -0.072802 0.633223
0.0720956 -0.0748235 0.654329
-0.148372 0.0863072 0.633223
-0.0421472 0.215106 0.633223
0.220335 0.20826 0.154357
-0.196504 0.0987189 0.654329
-0.234255 0.20826 0.172819
-0.1437 0.0614864 0.633223
-0.267361 -0.26417 0.641962
-0.133478 0.19009 0.654329
0.223962 -0.236403 0.330604
0.137348 0.153109 0.654329
0.0770188 -0.0180721 0.633223
-0.0705948 -0.150672 0.654329
-0.0284282 0.164085 0.654329
0.244221 -0.257526 0.633223
-0.233231 -0.236403 0.375546
0.215296 0.0862126 0.42496
0.140944 -0.223668 0.422149
-0.231729 0.0560707 0.633223
-0.218145 0.20826 0.196599
0.126886 0.0863733 0.654329
0.151947 -0.215296 0.429071
0.20826 -0.222657 0.595745
-0.234459 -0.20826 0.455665
-0.20826 0.22677 0.0815437
-0.0364183 -0.200599 0.654329
-0.0196193 0.0735404 0.633223
0.0517233 0.107417 0.633223
-0.00424811 -0.106497 0.633223
0.00884923 0.0565949 0.654329
-0.199522 0.0740842 0.633223
-0.234753 0.103113 0.654329
0.0847963 -0.0981034 0.633223
-0.00145213 -0.215296 0.422344
-0.0552532 0.229368 0.44065
-0.219166 0.236403 0.589309
-0.225159 0.20826 0.0544541
-0.193677 0.121288 0.633223
-0.229596 -0.20826 0.432852
-0.0515273 0.2174 0.633223
0.0481775 0.235707 0.654329
-0.0141691 0.201675 0.654329
-0.213924 -0.20826 0.42243
0.236403 0.222308 0.0269405
0.145042 -0.132832 0.633223
0.20826 0.215919 0.44201
0.156065 0.215296 0.441045
0.118648 0.194775 0.654329
0.238321 -0.148663 0.654329
0.267326 -0.143489 0.654329
0.20826 0.225426 0.0506656
0.158489 0.0881271 0.654329
0.20826 0.215043 0.581352
-0.202036 0.154889 0.654329
-0.20826 -0.21158 0.0357092
0.174576 0.0392287 0.654329
0.0288104 0.209668 0.654329
0.20826 -0.2083 0.300333
-0.219352 0.0435472 0.422149
-0.215296 0.1943 0.430074
0.121341 -0.0372123 0.654329
-0.132924 -0.0476815 0.654329
-0.218869 -0.20826 0.297855
0.236403 -0.218005 0.369392
-0.168655 0.237536 0.633223
0.2195 -0.20826 0.248453
0.20826 0.231694 0.0166397
0.195989 0.137144 0.633223
-0.0191284 0.197551 0.654329
0.0629759 -0.128036 0.654329
-0.00186116 0.215296 0.431196
0.210521 0.20826 0.00369607
-0.232145 0.20826 0.471152
0.069235 0.225709 0.633223
0.215296 0.148683 0.43409
-0.223505 0.236403 0.373693
0.0407693 -0.11415 0.654329
0.0978653 0.103469 0.654329
-0.229367 -0.185715 0.42826
0.215296 0.0974447 0.436431
0.000812292 0.0393869 0.633223
-0.22139 0.236403 0.620127
-0.205301 0.190376 0.633223
0.132937 -0.200362 0.654329
0.20826 -0.222621 0.603063
0.214574 -0.234293 0.654329
-0.0656186 -0.216427 0.654329
-0.169964 -0.0211127 0.654329
0.229368 -0.153464 0.439413
0.23347 -0.20826 0.422457
0.236403 -0.211715 0.524002
-0.20826 -0.213704 0.132946
-0.236403 -0.219052 0.577935
0.0802288 0.241622 0.654329
-0.208334 -0.236403 0.477884
-0.172671 -0.0453135 0.654329
-0.0858614 -0.062411 0.654329
-0.0373807 -0.219768 0.654329
-0.0507021 0.157093 0.654329
-0.267361 0.198876 0.645557
-0.22045 -0.236403 0.346481
0.236403 -0.23057 0.353209
0.141303 -0.193631 0.633223
0.0236613 0.153455 0.654329
0.118111 -0.218003 0.654329
-0.102215 -0.225206 0.633223
-0.229367 -0.0250635 0.43246
-0.243803 -0.12894 0.654329
-0.22535 0.20826 0.587884
-0.257055 0.12654 0.633223
-0.147684 -0.109367 0.633223
0.0773954 -0.0723325 0.654329
0.14665 -0.229367 0.441221
0.0872736 0.206461 0.633223
-0.237707 -0.0652776 0.654329
-0.128183 0.226516 0.443255
0.218914 0.105101 0.443255
0.213078 0.20826 0.383998
0.0596471 -0.164754 0.633223
-0.236403 0.223334 0.328902
-0.0131048 0.218574 0.443255
0.212334 0.20826 0.122772
0.231854 0.236403 0.373791
0.20826 -0.2206 0.137036
-0.236403 -0.22836 0.578823
0.262056 0.0968458 0.654329
0.215296 -0.012365 0.431499
0.236403 -0.215788 0.0585126
-0.0491425 -0.19533 0.654329
0.20826 0.228528 0.018864
-0.215296 -0.00510868 0.432873
-0.120954 -0.254543 0.654329
-0.219816 -0.20826 0.148345
0.218588 0.236403 0.0991767
-0.216316 -0.0530586 0.654329
0.031088 0.215296 0.435118
0.0861527 0.117574 0.633223
0.236403 0.224592 0.283303
-0.235785 -0.23013 0.633223
0.183709 -0.108732 0.633223
0.0862875 -0.0729258 0.633223
0.236403 0.208408 0.224058
-0.20826 -0.208273 0.04835
-0.163128 0.177941 0.633223
0.202575 0.0262156 0.654329
0.00576219 0.14945 0.654329
0.255112 -0.2254 0.633223
-0.236403 -0.231495 0.124702
-0.250177 -0.106245 0.633223
0.262844 0.230947 0.654329
0.193542 -0.229367 0.436794
-0.239826 0.266818 0.633223
0.0188402 -0.0783952 0.633223
-0.163188 0.0502307 0.633223
-0.0786336 0.14139 0.633223
0.0918625 0.173721 0.633223
0.210117 -0.20826 0.406616
0.209357 0.236403 0.353087
0.0498326 -0.174105 0.654329
-0.0563734 -0.226415 0.422149
-0.200936 -0.12419 0.633223
-0.215646 -0.20826 0.143512
0.236403 -0.222723 0.259414
0.262214 0.267361 0.646655
0.245123 0.0597129 0.654329
-0.257681 -0.00734568 0.654329
-0.117457 0.0895157 0.633223
-0.263567 -0.171414 0.633223
0.0143105 0.215342 0.443255
-0.0477597 -0.146432 0.654329
-0.174826 0.216331 0.633223
-0.0580917 -0.169489 0.654329
-0.217942 0.236403 0.335587
-0.174386 0.099908 0.633223
0.107674 0.229368 0.442739
-0.236403 0.221539 0.265174
0.0960001 -0.0800576 0.633223
-0.0334432 0.229368 0.431313
-0.0736479 -0.0216553 0.633223
0.160852 -0.21853 0.443255
0.184445 0.0954432 0.654329
0.127278 -0.188545 0.633223
0.0278141 -0.267361 0.653812
0.196899 -0.135099 0.654329
0.234802 -0.193693 0.633223
-0.219419 0.236403 0.176802
-0.181064 -0.135567 0.633223
0.22563 0.236403 0.395166
0.267361 0.159938 0.639092
-0.111142 0.227792 0.422149
-0.0623037 0.124533 0.633223
-0.231137 0.236403 0.120848
-0.122153 -0.02619 0.654329
-0.236403 -0.232967 0.124747
-0.181056 -0.264953 0.654329
0.0735333 0.0661213 0.654329
-0.20826 0.229501 0.525026
0.134705 -0.172192 0.633223
-0.236403 -0.235153 0.176211
0.134741 -0.000238359 0.654329
-0.205067 0.0693616 0.633223
-0.21034 -0.20826 0.366075
-0.236403 -0.230792 0.558751
0.174779 -0.215296 0.42764
-0.124199 0.181849 0.654329
0.130522 -0.0256237 0.633223
-0.203065 0.206766 0.633223
-0.217022 -0.20826 0.530664
0.26179 -0.0969418 0.633223
-0.236403 -0.23526 0.603863
0.128439 -0.0324561 0.633223
0.121265 -0.0134198 0.654329
-0.219491 0.225545 0.633223
0.0220514 -0.20517 0.633223
0.20826 -0.232128 0.458955
-0.102292 -0.151378 0.633223
-0.142287 0.249433 0.633223
0.151264 -0.0647093 0.633223
-0.22636 -0.236403 0.369617
0.214244 -0.20826 0.317926
0.117624 -0.20174 0.654329
0.163951 0.031837 0.633223
-0.214414 0.241118 0.633223
0.0813011 -0.0222252 0.654329
-0.236403 0.230138 0.168775
0.236403 -0.231924 0.368692
0.221985 0.236403 0.232835
0.236403 -0.209526 0.306524
0.198511 -0.0105702 0.633223
-0.136299 -0.0935527 0.654329
-0.236003 -0.20826 0.294598
0.0436874 -0.213309 0.654329
-0.264938 0.244538 0.654329
-0.215817 0.22652 0.633223
0.0966704 -0.186917 0.633223
-0.211538 0.20826 0.169588
0.227684 0.236403 0.396137
-0.103418 -0.0281386 0.633223
0.0204047 0.035751 0.654329
0.159883 0.0782654 0.654329
0.145186 -0.229367 0.439387
-0.141624 0.252386 0.654329
-0.155442 -0.0140216 0.654329
0.20826 -0.22016 0.430246
-0.20826 -0.234232 0.543356
-0.129119 -0.144096 0.633223
-0.23334 -0.202169 0.633223
-0.195096 -0.0866557 0.633223
-0.221911 -0.20826 0.0552153
-0.101866 -0.112439 0.654329
-0.0335297 -0.0114873 0.654329
0.236403 -0.222323 0.533276
0.178034 0.206979 0.654329
0.108975 -0.227487 0.443255
0.152433 -0.184027 0.654329
0.205187 -0.233846 0.654329
-0.084691 0.162707 0.654329
-0.232182 0.236403 0.0623188
-0.157319 -0.26508 0.633223
0.236403 -0.211613 0.235262
0.208858 0.20826 0.0820496
-0.234458 -0.20826 0.450917
-0.0845125 0.016276 0.633223
0.241716 -0.120509 0.633223
-0.135777 0.0560341 0.654329
-0.0247766 -0.246785 0.633223
0.131062 0.000582635 0.633223
0.213926 0.20826 0.549777
-0.236403 -0.228884 0.247978
-0.185211 -0.0213446 0.654329
-0.0373601 0.0769412 0.633223
0.0679856 -0.0924885 0.633223
-0.207208 -0.119142 0.654329
0.0899877 0.205722 0.654329
0.193574 0.0406277 0.654329
0.0367019 0.14565 0.654329
-0.248687 -0.0157463 0.654329
0.039542 0.104298 0.654329
-0.222178 -0.180918 0.443255
0.0679641 0.11272 0.633223
-0.24202 -0.163576 0.654329
0.236403 -0.210399 0.223954
0.0244072 -0.267361 0.637974
0.0801063 -0.0558001 0.633223
0.20826 0.232362 0.548906
-0.225738 0.20826 0.0880985
0.229368 -0.117787 0.436489
-0.089423 -0.142443 0.633223
-0.16323 -0.103922 0.633223
-0.189545 0.00991815 0.633223
-0.168097 -0.0644878 0.633223
0.112781 0.0579187 0.633223
0.150903 0.00848407 0.633223
-0.231523 -0.236403 0.566865
0.0789798 -0.221854 0.654329
-0.11823 -0.265555 0.654329
0.0241367 -0.267361 0.640855
0.235884 0.0754747 0.633223
0.236403 0.213796 0.0419546
0.00458691 -0.0895514 0.654329
-0.211977 -0.20826 0.608908
0.148266 0.116193 0.654329
-0.0259212 -0.267361 0.639992
-0.0385983 0.190184 0.633223
0.175633 0.131474 0.654329
-0.131028 -0.101623 0.654329
0.00948656 0.0401885 0.633223
0.236403 -0.216088 0.46884
-0.231005 -0.236403 0.287392
-0.20826 -0.213099 0.228036
0.00764604 -0.216493 0.422149
-0.0109528 -0.058895 0.654329
-0.228682 -0.236403 0.300324
0.215249 -0.20826 0.537151
-0.236403 0.215208 0.53553
-0.215296 0.0591744 0.427436
-0.143939 0.227701 0.443255
-0.260186 -0.222399 0.633223
-0.236403 0.23286 0.609008
-0.0389573 -0.22153 0.633223
0.192781 0.0682721 0.654329
-0.215296 0.031232 0.433469
-0.231439 -0.236403 0.364902
-0.22485 0.20826 0.318488
0.173625 -0.024983 0.654329
-0.0482226 0.00427476 0.654329
-0.203265 -0.105251 0.633223
-0.143294 0.109722 0.654329
-0.229367 -0.168065 0.433813
-0.038801 -0.267361 0.646133
0.240309 -0.0742932 0.633223
0.191589 0.104014 0.633223
-0.0251431 -0.151739 0.654329
-0.267361 0.0946231 0.635651
0.229839 0.20826 0.100936
0.0544239 -0.215296 0.440624
-0.24293 -0.161704 0.654329
0.264512 0.245686 0.654329
-0.0903518 0.219935 0.443255
-0.251777 -0.0941481 0.654329
-0.122787 -0.0151862 0.633223
-0.231469 0.0694675 0.654329
-0.236403 -0.211165 0.464294
-0.134634 0.239102 0.654329
0.107355 0.229368 0.434343
0.109059 -0.0270061 0.633223
0.236403 0.222151 0.319248
0.215296 -0.153073 0.435181
-0.20611 0.104281 0.654329
0.267361 0.164338 0.637759
-0.236267 0.20826 0.521829
0.111193 -0.229367 0.437137
-0.236403 0.209501 0.168397
0.182842 0.180925 0.633223
-0.0864351 -0.250149 0.654329
0.233632 -0.149591 0.654329
-0.206201 -0.11742 0.633223
-0.0772022 -0.100996 0.654329
-0.20826 0.226506 0.321129
-0.116088 -0.229367 0.427137
-0.0213179 0.111265 0.654329
0.212243 -0.20826 0.292243
-0.0617917 -0.197361 0.654329
0.0794372 0.0111696 0.633223
0.162938 0.054473 0.654329
-0.0169889 -0.191209 0.654329
-0.242882 0.0566317 0.654329
-0.236403 0.235299 0.156886
-0.265136 0.0689498 0.633223
0.18276 0.117467 0.654329
0.236403 0.225747 0.270984
-0.231468 -0.20826 0.537303
-0.158688 -0.00936237 0.654329
-0.228712 0.236403 0.175209
0.229421 0.236403 0.0831918
0.236403 0.211083 0.137262
-0.229179 0.236403 0.550036
0.215296 -0.101548 0.42667
-0.20826 0.222425 0.239327
-0.0895582 0.157095 0.633223
-0.035044 -0.15467 0.633223
0.236308 0.147703 0.654329
0.22712 0.093536 0.443255
0.24362 -0.0440192 0.633223
-0.185963 0.201906 0.633223
0.20826 0.212827 0.158253
0.192581 0.229368 0.435739
-0.235758 -0.20826 0.437079
0.236403 -0.221269 0.563717
0.0971439 -0.188248 0.654329
0.0997987 -0.215296 0.438584
-0.232264 -0.115462 0.633223
-0.0796824 -0.200179 0.654329
0.208914 0.236403 0.48064
0.151975 0.232148 0.633223
-0.158297 0.0505327 0.654329
0.20826 -0.218551 0.0517017
0.0479116 -0.170183 0.654329
-0.231042 -0.20826 0.0818612
-0.00965723 0.220084 0.654329
0.20826 0.210718 0.437035
0.0595484 0.101406 0.633223
-0.172651 0.191907 0.654329
-0.234295 -0.20826 0.442853
0.175895 -0.123776 0.633223
-0.0766678 0.106568 0.633223
0.184127 -0.0628659 0.654329
-0.208236 0.138135 0.633223
0.220812 -0.140993 0.654329
0.231787 -0.236403 0.0477663
0.129133 0.194013 0.654329
-0.115704 0.104038 0.654329
-0.112972 -0.258944 0.633223
0.22119 -0.20826 0.394653
-0.132295 -0.00886658 0.654329
-0.236403 0.224341 0.0663547
0.224169 -0.236403 0.301876
-0.215296 -0.188129 0.431309
-0.20826 0.223077 0.0358686
-0.148492 -0.229367 0.435573
-0.231364 0.20826 0.028623
-0.144884 -0.145481 0.654329
0.170736 0.262968 0.654329
-0.219868 -0.236403 0.270903
0.20826 0.209377 0.214024
0.170112 0.147769 0.633223
-0.267361 0.242078 0.649818
-0.201189 0.0374567 0.633223
0.222093 0.20826 0.0187025
-0.231229 0.20826 0.609563
-0.214753 0.10299 0.654329
0.229368 -0.0893689 0.436532
-0.115189 0.190323 0.654329
-0.154965 -0.24896 0.633223
-0.229367 -0.157965 0.430179
-0.214527 -0.20826 0.46143
0.0335748 -0.150465 0.654329
0.267361 0.0745084 0.651762
0.258004 0.0373462 0.633223
-0.163828 0.126284 0.633223
-0.215375 0.00544918 0.443255
-0.1099 0.153375 0.633223
0.232923 -0.246703 0.654329
-0.00794992 -0.0107702 0.654329
0.0776223 0.229368 0.436708
0.20826 0.228551 0.569981
-0.0253557 0.235269 0.654329
-0.0253032 -0.0595447 0.654329
-0.214703 0.236403 0.313158
0.13601 -0.192728 0.633223
0.20826 -0.227951 0.408751
0.108297 0.229368 0.43037
-0.20826 -0.22554 0.539096
-0.20826 0.231802 0.411755
0.046922 -0.22237 0.633223
-0.217407 0.0459184 0.633223
-0.220964 -0.20826 0.018302
-0.236403 -0.21562 0.587604
0.217103 -0.20826 0.286293
-0.193511 -0.135309 0.633223
-0.112143 -0.0207281 0.654329
-0.266896 -0.0433915 0.633223
0.0986584 0.247152 0.633223
-0.145747 0.175154 0.633223
0.229534 0.20826 0.564683
0.267361 0.117572 0.644525
-0.0113969 0.0555794 0.633223
-0.20826 -0.224686 0.245426
-0.150191 -0.26398 0.654329
0.236403 -0.208641 0.408416
-0.235005 0.198678 0.633223
0.223453 0.236403 0.0927316
-0.228093 -0.20826 0.328777
0.11686 0.0726987 0.654329
0.0222902 -0.122081 0.654329
0.12063 -0.253787 0.654329
-0.0214482 0.103757 0.654329
-0.0957886 -0.217637 0.654329
-0.215841 -0.127187 0.654329
-0.0516661 0.236394 0.633223
0.10111 -0.131492 0.654329
-0.147022 0.11904 0.633223
0.0667408 -0.119207 0.654329
0.180865 -0.265698 0.654329
0.251847 -0.267361 0.641453
0.20826 0.215615 0.350459
0.0207213 0.0075784 0.633223
-0.236403 0.225508 0.6263
0.215529 0.0527444 0.633223
-0.00250089 0.0211609 0.654329
0.20826 -0.226241 0.251324
0.223304 0.236403 0.437907
-0.220953 0.048581 0.443255
-0.212674 -0.20826 0.276911
0.237972 -0.209735 0.654329
0.22065 -0.236403 0.579441
0.252213 -0.106583 0.633223
-0.220808 0.128399 0.654329
-0.213446 -0.20826 0.418498
-0.258827 0.0439035 0.633223
-0.20826 0.226377 0.0254909
-0.0937794 -0.0725762 0.633223
-0.229367 -0.0146351 0.427398
-0.215288 0.171414 0.654329
-0.20826 -0.235985 0.121261
0.213271 0.236403 0.599673
0.236403 0.218468 0.444158
-0.108601 -0.0730931 0.654329
0.0155825 0.020788 0.654329
-0.242414 0.055001 0.633223
0.0195237 -0.148688 0.654329
-0.0543479 0.00623709 0.654329
-0.205281 -0.00814044 0.633223
-0.142608 -0.0158714 0.654329
-0.229367 0.0152615 0.429913
0.202702 -0.215452 0.633223
0.0413019 0.246473 0.654329
0.0861328 0.229368 0.426006
-0.267361 0.010734 0.645001
-0.20826 0.225702 0.427161
-0.000513047 -0.24479 0.633223
-0.0789804 0.267361 0.649859
0.263177 0.242092 0.654329
-0.109768 0.223339 0.422149
0.236403 -0.224679 0.191521
0.178798 0.096779 0.633223
0.235828 0.0617334 0.654329
-0.20826 -0.227971 0.541162
-0.056465 -0.0403215 0.633223
-0.20826 -0.21675 0.178727
0.236403 -0.21457 0.231826
-0.224272 -0.236403 0.591871
0.198474 -0.226545 0.633223
-0.0363639 0.142767 0.633223
0.214909 -0.0949703 0.633223
0.230828 -0.20826 0.0532069
-0.228885 -0.182517 0.443255
0.236403 0.235373 0.143223
-0.267361 0.0602963 0.652678
0.0356044 -0.0393417 0.654329
-0.13915 0.0307764 0.654329
-0.20826 -0.222694 0.565089
-0.221615 -0.156864 0.654329
-0.222456 0.107562 0.633223
0.215721 0.236403 0.354848
0.217732 0.20826 0.626059
-0.029649 0.050921 0.633223
0.207358 0.217832 0.443255
-0.0386096 0.24968 0.654329
0.0648775 0.145209 0.654329
-0.128754 -0.171233 0.654329
0.0931154 -0.101799 0.633223
-0.0234663 -0.222024 0.633223
0.0842611 -0.186896 0.654329
-0.164637 0.226233 0.654329
0.20826 -0.218771 0.377935
0.178367 -0.169387 0.654329
-0.223367 0.19593 0.633223
-0.228479 0.236403 0.131346
0.230532 0.04699 0.654329
0.0527194 -0.00165462 0.654329
0.0436382 -0.0372112 0.633223
-0.197257 0.00318417 0.654329
0.101118 -0.267361 0.633868
0.191879 0.193912 0.654329
0.0646795 -0.111617 0.633223
0.233138 0.20826 0.100547
-0.250623 -0.267361 0.639393
-0.163852 0.226762 0.422149
-0.00876041 0.217789 0.422149
0.236223 0.20826 0.00916016
-0.20826 -0.224839 0.434413
-0.236403 -0.234983 0.191332
0.0686521 0.0531703 0.633223
-0.0105506 -0.266768 0.654329
-0.205182 0.229368 0.42761
-0.235323 -0.236403 0.1697
0.236403 -0.220131 0.312827
0.234128 -0.236403 0.174669
-0.209151 0.236403 0.401259
-0.00937504 -0.131111 0.633223
-0.162459 -0.081933 0.654329
0.21697 0.106012 0.422149
-0.233426 -0.20826 0.128827
0.128906 0.0852035 0.633223
-0.118604 -0.22123 0.654329
0.20826 0.234155 0.0971822
-0.0359321 0.0365041 0.654329
-0.201309 0.257199 0.633223
-0.0165919 0.112818 0.654329
0.0710115 -0.115749 0.633223
0.0206233 -0.0809503 0.654329
0.20826 0.214882 0.0188793
-0.160816 -0.118102 0.654329
0.186372 0.0280371 0.633223
-0.235662 -0.236403 0.580183
-0.212529 -0.20826 0.494874
-0.121027 0.0634096 0.654329
-0.0701574 -0.218441 0.422149
-0.161449 0.09639 0.633223
-0.208509 -0.236403 0.582445
0.213794 0.225196 -2.77556e-17
-0.115646 -0.229367 0.42472
0.226861 -0.0040535 0.633223
0.074163 -0.202864 0.654329
0.120282 -0.171664 0.633223
0.107571 0.0407878 0.654329
-0.212764 -0.20826 0.102832
-0.20826 -0.219891 0.105091
0.197461 0.0181776 0.654329
0.211968 0.20826 0.483825
-0.220322 0.23434 0.633223
0.202243 0.237796 0.654329
0.219792 -0.148252 0.422149
0.0322107 0.218991 0.654329
-0.0928365 0.240299 0.633223
-0.20826 0.21346 0.35182
-0.201099 0.0712358 0.633223
0.211821 0.236403 0.360956
-0.214328 0.20826 0.156173
-0.229367 0.140377 0.442837
-0.00359744 0.0974586 0.633223
-0.00274825 -0.014489 0.633223
-0.120269 -0.221756 0.443255
0.219932 0.236403 0.605978
-0.236403 -0.208618 0.158174
0.228563 -0.163323 0.443255
-0.20826 0.221648 0.286983
0.115789 0.218385 0.422149
0.236403 -0.213422 0.159245
0.218099 0.136994 0.443255
-0.0571592 0.229368 0.440845
-0.258933 0.0890186 0.654329
0.145043 -0.229367 0.425842
0.120125 -0.0973017 0.654329
0.0990377 -0.0803222 0.633223
0.20826 -0.231998 0.160626
-0.24909 0.0330029 0.633223
0.216127 -0.20826 0.47546
-0.00121123 -0.203077 0.633223
-0.21798 0.236403 0.0740778
0.0503141 0.202559 0.654329
0.124334 -0.144179 0.654329
0.138336 0.206179 0.633223
0.0167549 0.074127 0.633223
0.132225 -0.0520734 0.654329
0.23568 -0.20826 0.576821
0.137337 0.0974266 0.633223
0.20826 -0.23193 0.364527
0.19372 0.211149 0.654329
-0.0149839 -0.0611712 0.654329
-0.0931716 -0.125041 0.654329
0.229368 0.206824 0.428973
-0.219333 -0.236403 0.55796
-0.0854638 0.0532604 0.633223
-0.160211 -0.164222 0.633223
-0.0665663 -0.168576 0.654329
-0.215296 0.036264 0.4222
-0.0690346 -0.215296 0.428222
-0.20826 0.233498 0.483487
0.222163 -0.20826 0.441296
0.119856 -0.263616 0.654329
0.20868 0.236403 0.442879
0.267361 0.261016 0.6519
0.139135 -0.0544625 0.633223
0.236403 0.225749 0.580658
0.128407 0.24493 0.654329
-0.130345 -0.0237067 0.633223
0.0665208 -0.072526 0.654329
-0.0758287 -0.0825717 0.633223
-0.152109 0.145682 0.654329
-0.208593 0.0938163 0.654329
0.0663287 -0.217479 0.422149
0.250883 0.239881 0.633223
-0.20826 0.228059 0.069966
-0.249274 0.000454098 0.633223
-0.111165 -0.13652 0.633223
-0.213935 -0.20826 0.371625
-0.245429 0.018658 0.633223
0.128897 -0.0956325 0.633223
0.141568 -0.215404 0.654329
-0.229367 0.112609 0.428899
-0.031328 -0.173922 0.633223
-0.229367 0.094011 0.427268
-0.0289638 -0.0670247 0.654329
0.230125 0.236403 0.465239
0.221047 0.236403 0.390445
0.0143167 0.0928828 0.633223
-0.127612 -0.225949 0.654329
0.236403 0.230074 0.235757
-0.145007 0.229368 0.434087
-0.235343 0.0191075 0.633223
0.185436 -0.207792 0.654329
0.121729 0.223085 0.633223
-0.267361 0.25611 0.644282
0.20826 -0.221066 0.244975
0.265139 0.0430359 0.654329
-0.139264 -0.145604 0.654329
0.112209 -0.229367 0.422601
-0.060836 -0.0537367 0.633223
-0.17228 0.201164 0.633223
-0.215296 0.169432 0.424259
0.208507 -0.0450127 0.633223
-0.20826 -0.210086 0.171484
0.222169 -0.213358 0.633223
0.0785716 -0.00796598 0.633223
-0.177036 -0.215296 0.426572
0.158272 0.216041 0.443255
0.157734 0.157261 0.654329
-0.0411169 0.250489 0.633223
-0.267361 0.233093 0.634432
-0.0617233 0.00384161 0.633223
-0.135023 0.179795 0.633223
0.228873 -0.20826 0.4918
-0.09344 0.00252649 0.654329
-0.223905 0.236403 0.406327
0.236948 -0.238413 0.654329
-0.20826 -0.213797 0.221577
0.141893 -0.267361 0.647277
-0.0551582 0.151642 0.633223
0.236403 0.215425 0.610909
-0.232116 0.20826 0.54255
0.222358 -0.236403 0.556644
0.187377 0.150523 0.654329
-0.216863 -0.204686 0.443255
0.236403 -0.2238 0.285234
-0.0658888 0.267361 0.65346
0.115666 0.267361 0.644522
0.229368 -0.0637368 0.443092
0.0450087 -0.105596 0.633223
0.236403 0.223761 0.396784
-0.205116 0.221149 0.422149
0.0698812 -0.155134 0.633223
0.215567 0.0439787 0.633223
0.165089 0.0708861 0.654329
0.167394 0.0127891 0.633223
-0.234223 -0.236403 0.112739
0.236403 -0.226158 0.00978228
0.226884 0.191211 0.654329
0.223542 0.0283297 0.443255
-0.220307 0.236403 0.400448
0.253646 0.070189 0.654329
0.235702 -0.236403 0.119515
0.236403 0.220877 0.16936
0.20826 0.215772 0.533479
-0.214511 0.219694 -2.77556e-17
0.236403 0.233442 0.353142
-0.221647 -0.20826 0.00803204
-0.0658507 0.0332979 0.633223
-0.0520351 -0.260881 0.654329
-0.236403 -0.228936 0.146199
0.148454 -0.236125 0.633223
-0.194645 -0.244152 0.654329
-0.108278 0.0485118 0.633223
-0.20927 0.236403 0.632032
-0.103972 -0.143866 0.654329
-0.0760699 -0.117816 0.633223
-0.2164 0.20826 0.57746
-0.212614 -0.236403 0.275952
-0.00205192 0.0423063 0.654329
0.0598392 -0.1872 0.654329
0.22525 0.236403 0.489599
0.167494 0.0350896 0.654329
0.20826 0.229831 0.47572
-0.267361 0.0413637 0.647994
0.0294494 -0.0331718 0.633223
0.0454765 0.0301328 0.633223
-0.184936 0.0565042 0.654329
-0.262765 -0.240793 0.633223
-0.0764068 0.128565 0.633223
0.135469 -0.229367 0.430953
0.173465 -0.162065 0.654329
-0.236403 0.229546 0.301757
0.193148 -0.248558 0.633223
0.178481 0.257915 0.654329
0.0964985 -0.137175 0.633223
0.258468 -0.212956 0.633223
0.0954057 -0.267361 0.642855
-0.229367 -0.179941 0.432789
0.0869952 0.158865 0.633223
-0.267361 -0.0857572 0.651972
0.20826 -0.221792 0.208036
0.0712911 -0.229367 0.442215
-0.222733 0.160337 0.654329
-0.229367 -0.0820894 0.433809
-0.20826 -0.218884 0.225244
0.0381944 -0.207942 0.633223
-0.212816 0.20826 0.132462
-0.20826 -0.234154 0.520028
-0.167591 -0.092023 0.654329
-0.219474 0.154725 0.633223
0.13146 0.267361 0.638909
-0.219019 0.236403 0.326298
-0.12884 0.0438393 0.633223
-0.00092867 -0.180419 0.633223
-0.236403 -0.211762 0.575402
-0.221883 -0.20826 0.162705
0.267361 0.173187 0.641551
0.0194063 0.215296 0.42893
-0.230484 0.236403 0.399037
-0.20846 -0.251418 0.633223
0.236403 0.227089 0.262765
-0.224608 0.0172233 0.654329
0.20826 -0.220504 0.588508
-0.205252 0.263579 0.654329
-0.263575 0.211014 0.654329
-0.089803 -0.0496137 0.633223
0.229368 0.0675956 0.436451
-0.019284 0.146727 0.633223
-0.236403 -0.222289 0.231652
0.215902 -0.236403 0.361315
-0.12309 0.210092 0.633223
