0.11255 -0.170534 0.402006
-0.116317 -0.164469 0.402006
0.11456 0.1826 0.402006
0.193675 0.24483 0.402006
-0.283566 -0.0206552 0.402006
-0.306687 0.191997 0.415406
-0.269383 -0.130617 0.401194
0.269133 -0.0489318 0.0499672
0.229178 0.0239717 0.415406
-0.0683885 -0.078823 0.402006
0.161043 -0.119616 0.402006
0.180421 -0.321093 0.402006
-0.291076 -0.0479029 0.415406
-0.269882 -0.178847 0.415406
-0.265859 -0.0227268 0.117468
0.240619 -0.244409 0.415406
-0.2873 -0.0400426 0.115389
0.108904 -0.145764 0.402006
-0.0709936 0.270834 0.402006
0.2873 0.0707245 0.337283
-0.146128 -0.221327 0.415406
-0.0870223 -0.0228704 0.415406
-0.265859 -0.0499552 0.304347
-0.185661 0.0912869 0.402006
-0.0417114 -0.0551189 0.415406
0.00953987 0.145206 0.415406
0.13629 -0.0771111 0.415406
-0.138595 -0.195672 0.415406
0.0060508 -0.0580797 0.402006
-0.2873 0.00334379 0.199261
0.195337 -0.286548 0.415406
0.267159 0.0235984 0.192316
-0.24642 -0.308004 0.402006
-0.0956548 -0.0955287 0.402006
0.107664 0.0446267 0.402006
0.0599712 0.0538776 0.415406
-0.222943 -0.104439 0.402006
0.14443 -0.214452 0.415406
0.251321 -0.297065 0.402006
0.17397 -0.086445 0.402006
0.127813 -0.17264 0.415406
-0.179671 -0.293798 0.415406
-0.314072 -0.271221 0.415406
0.0689329 -0.0469439 0.415406
-0.131368 0.260783 0.402006
0.286715 0.0534374 0.309912
-0.0156454 0.126025 0.415406
0.105636 -0.11933 0.402006
0.294725 -0.120742 0.402006
-0.121634 0.211707 0.402006
0.315052 -0.270763 0.402006
0.299282 0.197104 0.402006
-0.0795491 -0.028149 0.415406
-0.119379 0.309803 0.415406
-0.16999 0.227059 0.402006
0.291882 0.116279 0.415406
0.0547187 -0.196332 0.415406
0.164517 0.109551 0.402006
-0.287131 0.226406 0.402006
0.116187 0.229039 0.415406
-0.301877 0.00974151 0.415406
-0.317484 0.0884922 0.402006
-0.131724 -0.0353776 0.415406
0.239343 -0.233753 0.402006
-0.278653 0.0487487 0.144123
0.245936 0.0355436 0.415406
0.134365 0.130682 0.415406
-0.276012 0.0891171 0.379937
0.320196 0.133275 0.402006
-0.274443 0.0811373 0.402006
0.105867 0.119808 0.415406
0.0349185 0.29919 0.415406
0.2873 -0.0120806 0.164564
-0.132895 -0.231898 0.415406
-0.172493 -0.142537 0.415406
-0.27664 0.225273 0.402006
-0.250455 0.160744 0.402006
0.138237 0.315446 0.415406
0.0863107 -0.146934 0.415406
-0.259175 -0.188548 0.415406
-0.0683023 -0.245839 0.402006
0.283965 -0.0521629 0.402006
-0.0364735 -0.300159 0.415406
-0.269941 0.0222965 0.189761
-0.23179 -0.0549566 0.402006
0.00864226 0.211542 0.415406
-0.0334865 -0.268665 0.402006
-0.0468138 -0.253474 0.415406
0.108754 0.1783 0.415406
-0.124336 0.139784 0.402006
0.152693 -0.110682 0.402006
0.0760255 -0.321605 0.402095
-0.202565 -0.312042 0.402006
-0.2873 0.0072855 0.198941
0.236221 -0.205088 0.402006
-0.0304329 -0.181952 0.402006
-0.172835 -0.133101 0.415406
0.249186 -0.319633 0.415406
-0.282372 0.0003573 0.174339
0.282664 0.0967543 0.394926
-0.227024 -0.282853 0.402006
0.265861 -0.048472 0.270943
0.0188085 -0.0496353 0.402006
-0.134854 -0.0544489 0.415406
-0.259571 -0.0838939 0.402006
0.0192125 -0.197515 0.402006
0.25311 -0.00186208 0.415406
-0.0205927 0.202658 0.402006
0.268941 0.00911173 0.212776
0.194452 -0.0194806 0.415406
-0.276704 -0.0819774 0.370548
-0.300894 0.190257 0.415406
0.277931 0.125115 0.391553
0.311407 0.0540199 0.415406
0.0678909 0.0645152 0.415406
-0.0418909 -0.0144161 0.415406
0.2751 0.0243115 0.193715
-0.077449 -0.22879 0.415406
-0.200935 0.235896 0.402006
0.262216 0.0733876 0.402006
0.301623 0.133572 0.402006
0.2873 0.0701016 0.073812
0.179291 0.164173 0.415406
-0.12925 0.258508 0.402006
0.0684452 -0.149553 0.415406
-0.000551432 0.03934 0.402006
-0.182269 -0.131021 0.402006
0.0169441 0.310077 0.415406
-0.269905 0.010463 0.156836
0.275403 -0.00379732 0.415406
0.0369932 -0.202699 0.415406
-0.228821 -0.313493 0.415406
0.0705319 -0.296432 0.402006
-0.0654649 0.227677 0.415406
0.0622071 -0.0488974 0.415406
0.280027 -0.115066 0.374259
-0.10017 0.321605 0.409784
0.102669 0.106511 0.402006
0.258358 -0.0045976 0.402006
-0.137048 -0.215445 0.415406
0.114892 -0.231017 0.415406
-0.218635 -0.225089 0.415406
-0.270872 0.106641 0.402006
-0.147583 -0.234138 0.402006
-0.265859 0.0486334 0.294516
0.12464 -0.00155023 0.402006
-0.0412597 -0.286332 0.402006
0.199082 0.095698 0.402006
0.265861 -0.00573248 0.161314
0.125899 -0.101504 0.402006
0.314878 -0.209945 0.415406
-0.0726393 -0.0226244 0.415406
0.0870921 0.300614 0.415406
0.247408 0.289438 0.402006
0.0981076 0.233842 0.415406
0.0323099 0.126398 0.415406
-0.140003 -0.261595 0.415406
-0.269259 0.0301322 0.264173
-0.285358 0.0368028 0.111214
-0.13092 0.0747801 0.415406
-0.159355 0.253001 0.402006
0.265861 -0.00219588 0.232027
-0.111082 0.127522 0.402006
0.2873 -0.0241662 0.234641
-0.0915656 0.292637 0.402006
-0.180383 0.279043 0.402006
-0.265859 0.0617639 0.116309
0.306703 0.179193 0.415406
0.246327 0.0996263 0.415406
0.286745 -0.130697 0.401333
-0.0374882 0.128507 0.415406
0.295013 -0.00225469 0.402006
0.278036 -0.0423479 0.121923
0.258849 0.103259 0.402006
-0.218269 -0.205857 0.402006
0.148661 0.127807 0.402006
0.233541 0.246264 0.402006
0.168298 -0.0333982 0.402006
-0.208218 0.245088 0.402006
-0.321605 -0.0703208 0.409443
0.316034 0.261623 0.415406
-0.209877 0.0884555 0.415406
-0.13754 -0.229566 0.402006
0.183574 0.160595 0.415406
0.2873 0.0340499 0.168641
0.243562 -0.0833591 0.415406
-0.321605 -0.135479 0.410072
-0.320671 0.225272 0.415406
-0.273932 0.179338 0.415406
-0.214787 -0.239541 0.415406
-0.306851 -0.27596 0.402006
0.220102 0.198885 0.402006
0.0910195 -0.0249104 0.402006
-0.2873 0.095233 0.37912
-0.0899201 0.281332 0.402006
0.286151 -0.269074 0.402006
-0.269926 -0.106864 0.402006
0.173226 0.0981164 0.402006
0.252103 -0.0416997 0.415406
-0.274115 0.0325611 0.26894
-0.00251126 -0.0276802 0.402006
-0.321605 0.145093 0.413385
-0.280774 0.044267 0.0982853
0.0790682 0.162269 0.402006
0.033718 -0.296442 0.402006
0.215192 0.181333 0.402006
0.296976 0.129847 0.402006
-0.207812 0.239484 0.415406
0.276014 -0.00640546 0.239653
0.0289802 0.321605 0.406801
0.2873 -0.00791618 0.213791
-0.275103 -0.145019 0.415406
-0.0301581 0.11725 0.415406
0.274321 0.242337 0.402006
-0.252748 0.107212 0.415406
0.321605 -0.0794976 0.406782
-0.0404559 0.2238 0.415406
-0.278237 -0.275925 0.402006
0.201858 0.250621 0.415406
0.0981291 0.250329 0.415406
0.213165 -0.210712 0.402006
0.2873 0.00576403 0.175374
0.260906 0.192046 0.402006
-0.277699 0.145524 0.415406
-0.0309379 -0.201239 0.402006
-0.126182 0.156949 0.415406
-0.0920255 0.119764 0.415406
0.237424 -0.0296387 0.402006
0.129648 0.228199 0.402006
-0.281468 -0.222396 0.402006
-0.214787 -0.133633 0.402006
0.127366 0.281751 0.415406
0.24699 0.0176322 0.402006
-0.321605 -0.126939 0.412165
-0.204176 0.128367 0.415406
0.0686437 -0.268157 0.402006
-0.0290355 0.118164 0.415406
0.255897 0.229547 0.415406
0.285692 -0.240521 0.402006
0.305666 0.180801 0.402006
0.244991 0.183565 0.402006
-0.297592 0.156043 0.402006
0.145279 0.181806 0.402006
0.241598 -0.321605 0.412813
0.154958 -0.308439 0.402006
-0.270289 0.108661 3.13325e-17
-0.123208 -0.167429 0.415406
-0.159939 -0.226107 0.402006
0.271537 -0.26305 0.415406
-0.214177 0.0702397 0.402006
-0.248171 -0.176138 0.415406
-0.0515735 -0.0227332 0.415406
0.309933 0.0331846 0.415406
0.150012 -0.239565 0.402006
-0.113242 -0.0232646 0.415406
0.199907 -0.0548642 0.402006
-0.271379 0.020478 0.19309
0.206517 -0.11127 0.402006
-0.0817834 -0.291237 0.415406
-0.202817 0.196263 0.402006
0.157046 -0.283173 0.415406
0.0555207 -0.12805 0.402006
-0.00992182 -0.227439 0.402006
-0.159207 -0.247306 0.402006
0.278621 -0.0221154 0.266863
-0.0707834 -0.275883 0.402006
-0.292203 -0.147614 0.415406
0.0500602 0.0112682 0.415406
-0.18538 -0.246437 0.402006
-0.271495 0.101385 0.0529547
0.174964 -0.321605 0.41224
0.2873 0.0971152 0.0215467
-0.283531 0.121939 0.385319
0.172701 0.0708646 0.402006
0.2873 -0.0611561 0.300611
-0.265859 -0.072511 0.352423
0.280577 0.091246 0.0169152
0.265861 0.0445924 0.253747
-0.163798 -0.285146 0.415406
-0.112166 -0.0441041 0.415406
-0.282397 -0.100989 0.415406
-0.108791 -0.0270574 0.415406
0.00989574 -0.073869 0.415406
-0.2873 -0.0755553 0.0246276
0.273793 -0.10121 0.402006
0.0577499 -0.0622024 0.415406
0.240877 0.0635099 0.402006
-0.154572 0.130148 0.415406
-0.189691 0.140138 0.402006
0.279904 0.0507816 0.0870018
-0.0609395 -0.0368045 0.402006
-0.275706 -0.0248308 0.415406
0.147192 -0.0778688 0.402006
-0.15484 0.0399701 0.402006
0.269311 -0.177272 0.402006
-0.0156556 0.0472383 0.402006
0.056922 0.290455 0.415406
-0.198643 0.0439118 0.402006
0.312809 -0.235644 0.415406
0.251215 -0.234163 0.402006
-0.311335 -0.172417 0.415406
0.227644 -0.1361 0.402006
-0.265859 -0.094962 0.0169456
-0.0924769 0.0241659 0.402006
-0.246679 -0.245534 0.415406
-0.174855 -0.172524 0.415406
-0.158811 0.321605 0.410897
-0.105777 -0.0661699 0.415406
-0.268663 0.0100756 0.211107
0.290713 -0.0724008 0.402006
-0.176523 -0.303254 0.402006
-0.220595 -0.231067 0.402006
0.0560392 0.0331228 0.415406
-0.00407448 -0.275151 0.415406
0.265861 -0.0679197 0.301693
0.194112 -0.164233 0.415406
0.27785 -0.113904 0.402006
-0.206261 -0.321605 0.410918
-0.154498 0.186097 0.402006
-0.275547 0.168698 0.402006
0.321605 0.15411 0.408786
0.210068 -0.241829 0.415406
-0.270548 -0.321605 0.409707
0.0715865 0.0814638 0.415406
-0.267064 -0.31924 0.415406
-0.298431 0.124963 0.402006
-0.206625 0.290891 0.415406
-0.247572 -0.223006 0.415406
-0.158916 -0.321605 0.404937
0.292728 0.29268 0.415406
0.0702978 -0.0514211 0.402006
0.0874543 0.145704 0.415406
0.0757555 0.276993 0.402006
0.151902 0.0717275 0.415406
0.285062 -0.31659 0.402006
-0.0141805 0.195301 0.402006
0.176241 -0.22819 0.415406
0.266916 0.0799051 0.0365583
0.00657073 -0.19516 0.415406
0.0996125 0.0315647 0.402006
0.245169 -0.0166802 0.402006
0.115277 0.223949 0.402006
-0.263586 0.0867128 0.402006
0.321605 -0.122333 0.404251
0.25896 -0.107405 0.402006
-0.162343 -0.120804 0.415406
0.251129 -0.302292 0.415406
0.109221 0.224758 0.402006
0.0709551 -0.251276 0.402006
0.2873 0.0849284 0.0629073
0.274409 0.219769 0.415406
0.239228 0.0198273 0.415406
0.152029 0.20271 0.402006
0.264947 0.0752665 0.415406
-0.314396 -0.117695 0.402006
-0.2873 -0.043629 0.285938
0.0180896 -0.0291593 0.415406
-0.225743 -0.0583678 0.402006
0.238618 0.262962 0.402006
0.27619 0.0298106 0.176925
0.189139 -0.317083 0.415406
-0.0351253 -0.309804 0.415406
0.27259 -0.0492584 0.260276
-0.0612123 0.00906697 0.415406
-0.265341 -0.0946491 0.402006
-0.056838 -0.227887 0.402006
-0.0163434 0.0639019 0.402006
0.242934 -0.160503 0.402006
0.114018 0.199112 0.402006
0.252248 0.280329 0.402006
-0.273186 -0.0202264 0.415406
-0.0548932 0.0347585 0.402006
-0.236699 0.221711 0.415406
-0.208989 -0.321002 0.402006
-0.202233 -0.195353 0.402006
-0.0439055 0.134343 0.415406
0.2873 0.0386278 0.141742
-0.301065 0.297991 0.415406
-0.278108 -0.0614324 0.281362
0.2873 -0.0460885 0.299615
0.277733 -0.0618571 0.0246
0.0491909 -0.042839 0.415406
0.136663 -0.0319282 0.415406
0.086544 -0.215915 0.415406
0.280649 0.157266 0.415406
0.0484744 -0.075404 0.402006
-0.0707293 0.279259 0.415406
0.23516 0.257633 0.402006
-0.222377 -0.148583 0.415406
-0.198725 -0.108898 0.402006
-0.220412 -0.179262 0.415406
0.248145 0.0356208 0.402006
0.250495 0.310702 0.415406
0.109101 -0.321605 0.415225
0.0572355 -0.303832 0.402006
0.27849 0.149672 0.415406
-0.321605 -0.272899 0.403334
-0.0387072 0.198678 0.402006
-0.268511 -0.301927 0.415406
-0.269814 0.074553 0.415406
0.0751971 -0.0208621 0.415406
0.0281384 0.0926205 0.415406
0.172862 0.096711 0.415406
0.122378 -0.13072 0.402006
0.271307 0.321605 0.41501
0.310805 0.233863 0.415406
-0.12326 0.260536 0.415406
0.0567345 0.280321 0.415406
-0.134911 -0.0442683 0.415406
-0.195743 -0.215099 0.402006
0.149633 -0.0271199 0.415406
-0.2873 0.0449358 0.27375
-0.103332 -0.0835419 0.402006
-0.240942 0.130252 0.402006
-0.220225 0.252195 0.402006
-0.00906852 0.00866866 0.402006
-0.205781 -0.117157 0.415406
0.193641 -0.13624 0.415406
0.274459 -0.0575925 0.274711
-0.313721 -0.153355 0.415406
-0.202168 0.314465 0.402006
-0.2873 -0.0655645 0.311831
0.194119 -0.272863 0.402006
-0.294991 0.198134 0.415406
0.129664 0.239577 0.415406
-0.149573 -0.0244266 0.402006
0.27419 0.0853989 0.0806433
0.13697 -0.0786121 0.402006
0.189926 -0.250428 0.402006
0.265861 -0.101604 0.400632
-0.0429949 -0.0116998 0.402006
0.317485 0.318249 0.415406
-0.285129 -0.115075 0.402006
0.0610394 0.115036 0.402006
-0.149072 0.258511 0.415406
-0.106094 -0.26769 0.415406
0.167318 -0.152305 0.415406
-0.22996 0.266569 0.402006
-0.1436 0.250769 0.402006
0.321605 -0.320303 0.404502
0.109701 0.19413 0.415406
0.0151537 0.108794 0.402006
-0.154847 -0.0689503 0.415406
-0.11668 -0.151329 0.415406
0.28256 -0.0607754 0.280224
-0.265859 -0.0247301 0.218255
-0.135085 -0.300806 0.402006
0.0736048 0.307005 0.402006
0.319911 -0.307842 0.402006
0.266004 -0.279807 0.402006
-0.0595532 -0.00362694 0.402006
-0.0103439 0.292138 0.415406
-0.155289 -0.15726 0.415406
-0.2873 -0.0504902 0.270247
-0.265859 -0.0429011 0.288144
-0.257101 0.120811 0.415406
0.27212 -0.26566 0.415406
-0.114947 0.200054 0.402006
0.2873 -0.102319 0.35568
-0.306435 0.245805 0.402006
0.0481573 -0.146721 0.415406
-0.304415 0.0973705 0.402006
0.0853111 0.204616 0.415406
0.00496018 -0.0522327 0.402006
0.0126307 -0.218215 0.415406
-0.186597 0.019497 0.415406
0.0910024 -0.115031 0.415406
-0.138089 0.262573 0.402006
-0.2873 0.111254 0.373695
0.23177 -0.184432 0.415406
-0.319776 -0.137271 0.415406
0.265861 0.0992334 0.0323097
0.0416493 0.0706502 0.415406
0.265861 0.0853513 0.0560499
-0.0989661 -0.170157 0.402006
0.157819 -0.148301 0.415406
-0.271876 0.186236 0.402006
0.0190293 0.200063 0.415406
-0.0325138 0.183231 0.402006
0.0439745 -0.11636 0.402006
0.135023 0.221313 0.402006
0.2873 -0.00117856 0.193026
-0.141825 -0.170937 0.402006
-0.01733 -0.030605 0.402006
-0.267212 -0.116317 0.402006
0.0866604 0.0957967 0.415406
0.165503 0.168124 0.415406
0.15599 -0.191367 0.415406
0.0608538 0.10654 0.415406
0.0925059 -0.104604 0.415406
0.125382 0.0189949 0.402006
-0.0915762 -0.016052 0.402006
0.321605 0.224127 0.407203
0.0172474 0.117381 0.415406
-0.265859 -0.0536486 0.0692647
0.261343 -0.141292 0.402006
0.130504 -0.250655 0.415406
0.172898 0.119174 0.415406
0.26736 -0.087586 0.402006
0.0910354 -0.24645 0.415406
0.242211 -0.00323626 0.415406
-0.123844 0.199858 0.402006
-0.160732 0.0862983 0.415406
0.216284 -0.257919 0.402006
-0.169257 0.305973 0.402006
0.2873 -0.0608246 0.332575
-0.18487 -0.203957 0.402006
0.195212 -0.0324113 0.415406
0.196597 -0.206338 0.415406
0.130165 0.29116 0.402006
-0.215128 0.125658 0.415406
0.0263054 -0.0854957 0.402006
-0.15745 -0.151912 0.415406
0.0830254 0.128781 0.415406
-0.189249 -0.105171 0.402006
-0.0191858 -0.288051 0.402006
-0.297054 -0.0745504 0.415406
0.2873 -0.113517 0.395168
0.297033 -0.307493 0.402006
0.00628814 -0.201644 0.415406
0.170567 0.109627 0.402006
-0.192633 0.0278361 0.415406
-0.256119 0.00209725 0.402006
-0.284142 -0.101918 0.402006
-0.296065 0.243563 0.415406
-0.150005 0.263503 0.402006
0.162721 0.268977 0.415406
0.310952 0.0469745 0.415406
0.227423 -0.0511509 0.402006
0.0959213 0.193787 0.415406
-0.188986 0.314604 0.402006
-0.27543 -0.177148 0.415406
0.265861 0.0582722 0.307853
0.265861 -0.0295831 0.253329
-0.248247 0.0943592 0.415406
-0.270869 -0.125317 0.392013
-0.0566767 -0.246367 0.415406
0.320068 0.24622 0.402006
-0.316618 0.209891 0.402006
0.115044 0.104561 0.402006
-0.282405 0.0649202 0.332448
-0.243373 -0.200825 0.402006
0.279873 0.103208 0.402006
0.17524 -0.1864 0.402006
0.06921 -0.31083 0.415406
-0.266188 -0.0691868 0.0102146
-0.2873 0.0438857 0.137801
0.00347492 -0.233757 0.415406
-0.280019 -0.024482 0.402006
0.265447 0.0075525 0.415406
0.301696 -0.270106 0.415406
0.305166 -0.202017 0.402006
0.0921142 0.166014 0.402006
-0.260966 -0.129496 0.402006
-0.306878 0.181613 0.415406
0.257414 0.234479 0.402006
-0.141308 -0.0689007 0.402006
0.110167 -0.0251374 0.402006
-0.27783 0.055816 0.255546
-0.161124 0.155157 0.415406
-0.116953 0.321605 0.403214
0.287215 0.115158 0.372012
-0.00325233 0.279444 0.402006
0.0585338 -0.310553 0.402006
-0.245789 -0.108743 0.415406
0.151148 -0.0639749 0.415406
0.0630413 -0.138234 0.402006
0.00909317 0.0737351 0.402006
-0.239613 0.157722 0.415406
-0.273011 -0.00372247 0.197729
-0.194348 -0.213028 0.415406
-0.210904 0.248867 0.415406
-0.314116 0.198076 0.415406
-0.265859 -0.0667739 0.0668901
0.0303728 0.284846 0.402006
-0.320333 -0.0996282 0.415406
-0.174499 -0.233011 0.415406
0.133003 0.286368 0.402006
-0.242912 0.243751 0.415406
-0.108842 0.235844 0.402006
-0.167409 -0.108961 0.402006
-0.133978 -0.0212072 0.402006
-0.0386904 -0.114514 0.415406
0.00451747 0.0399292 0.415406
0.223565 0.275324 0.415406
-0.128549 -0.0531483 0.402006
-0.1545 0.106631 0.402006
0.0760963 0.024177 0.402006
-0.111913 -0.0492004 0.402006
-0.265859 -0.0810417 0.339826
0.138791 -0.00139484 0.415406
-0.0926829 -0.273914 0.402006
-0.00434697 -0.0401748 0.415406
-0.2873 -0.0454997 0.284739
0.025162 0.0655048 0.415406
0.139843 0.113594 0.402006
-0.0493094 -0.288051 0.415406
-0.265859 0.1219 0.00510414
-0.260695 -0.210911 0.402006
-0.192313 -1.93119e-05 0.402006
0.183304 -0.157284 0.402006
-0.245158 -0.0409965 0.402006
0.0498513 0.203141 0.415406
0.15843 0.0887904 0.415406
-0.2873 0.00302669 0.16436
-0.0908909 -0.190768 0.415406
-0.216375 0.0194359 0.415406
0.277868 -0.0408868 0.124791
-0.142843 0.17911 0.415406
0.313237 0.218615 0.415406
0.0530365 -0.262687 0.402006
0.0344555 0.0217929 0.415406
-0.0190665 -0.167749 0.415406
0.105572 -0.1789 0.415406
0.153355 0.000773758 0.402006
0.160866 -0.321605 0.403759
-0.308059 -0.0944874 0.415406
0.270518 0.087626 0.415406
-0.221287 -0.227709 0.402006
-0.0990228 -0.0122547 0.402006
-0.152161 -0.176924 0.402006
-0.144978 0.212513 0.415406
-0.204856 0.00391272 0.415406
0.00258744 -0.283798 0.402006
-0.0623625 0.303296 0.415406
0.178869 0.0439974 0.415406
-0.0547402 -0.291097 0.402006
0.183108 -0.0803088 0.415406
-0.0300321 0.321582 0.415406
-0.27938 -0.0903466 0.402006
-0.185931 0.21511 0.415406
-0.256394 0.28433 0.402006
0.0484224 -0.109825 0.415406
0.262466 0.168727 0.402006
0.2873 0.0609167 0.0721101
-0.185409 0.309225 0.402006
-0.116145 0.201562 0.415406
0.124238 -0.196834 0.415406
0.282728 -0.0117533 0.181968
-0.273556 0.0457869 0.0956528
0.191045 -0.272796 0.402006
-0.265859 0.0237612 0.147241
-0.270973 -0.228932 0.415406
0.21414 0.250971 0.402006
-0.0550197 0.049134 0.402006
0.277471 0.00099583 0.20699
0.2873 0.0732233 0.0637426
0.240467 0.16849 0.415406
-0.0183386 0.143889 0.415406
0.127714 0.269914 0.415406
0.140993 0.149848 0.402006
0.235001 -0.118057 0.415406
0.273544 0.0317863 0.119903
-0.274436 0.00399351 0.221641
0.172812 0.0833142 0.415406
-0.11697 0.228501 0.402006
-0.312955 0.320176 0.415406
-0.269484 -0.239238 0.415406
0.203739 -0.261107 0.402006
0.116785 -0.109797 0.415406
-0.203588 -0.136126 0.402006
0.199983 9.90331e-05 0.402006
0.179268 -0.26405 0.415406
-0.316367 -0.244535 0.415406
0.234573 -0.085998 0.402006
-0.216437 0.0206442 0.415406
0.243288 0.0421901 0.415406
0.175182 0.163334 0.415406
0.0291722 0.2287 0.402006
0.218267 -0.156883 0.402006
0.118121 0.219361 0.415406
-0.295176 -0.175874 0.415406
-0.149755 0.315295 0.415406
-0.0636181 0.0738882 0.402006
0.256616 0.279873 0.402006
-0.293719 -0.283761 0.402006
0.118388 -0.00508282 0.415406
-0.285246 0.31555 0.415406
-0.317497 -0.277415 0.415406
0.284138 -0.0776947 0.0525512
-0.165748 -0.119914 0.415406
-0.183793 0.320788 0.415406
0.0195681 0.0774131 0.402006
-0.146606 0.0515121 0.415406
-0.321256 -0.160018 0.415406
0.127771 0.0772165 0.402006
0.0816721 -0.154641 0.402006
0.274303 -0.0226908 0.21426
0.0417819 -0.00682515 0.415406
0.28618 -0.210973 0.402006
-0.164126 0.153627 0.415406
0.321605 -0.169819 0.410972
0.2873 -0.00777612 0.137699
-0.190091 0.252252 0.402006
0.149569 0.00488368 0.415406
0.0948345 -0.126103 0.402006
0.185625 -0.252711 0.402006
0.267682 -0.319397 0.415406
0.263638 0.196767 0.415406
-0.224528 -0.157112 0.415406
-0.174599 -0.0277409 0.415406
0.131397 -0.135996 0.402006
0.246715 -0.0201036 0.402006
-0.122842 0.216879 0.402006
-0.189089 0.127985 0.402006
0.0297734 0.188564 0.402006
-0.207461 0.136043 0.402006
-0.021953 0.0416708 0.415406
-0.2873 -0.0118273 0.233739
0.2873 -0.00345565 0.182542
-0.265859 0.0520114 0.283918
-0.2873 0.00209649 0.176364
-0.303353 -0.216172 0.402006
0.141736 0.185598 0.415406
-0.220791 -0.137943 0.415406
0.250385 -0.229641 0.402006
0.232554 0.0516519 0.402006
0.0494339 -0.229301 0.402006
-0.156254 0.0870412 0.415406
-0.227697 -0.140624 0.415406
-0.172308 0.0811553 0.402006
0.265861 -0.0949889 0.0132718
-0.321605 0.139313 0.410313
-0.207678 -0.182465 0.415406
0.265861 0.0908115 0.059331
0.182879 -0.0482521 0.415406
-0.221223 -0.238796 0.415406
0.147469 0.265274 0.415406
-0.131007 -0.171024 0.415406
-0.0923844 0.105124 0.415406
-0.00412488 0.128698 0.402006
0.102189 -0.220944 0.402006
0.28623 0.284349 0.415406
-0.279822 0.0372451 0.415406
0.286844 -0.0582062 0.275774
0.284419 0.197104 0.402006
-0.292004 -0.234492 0.402006
-0.274445 -0.153396 0.402006
-0.0438178 -0.321605 0.411133
-0.263552 -0.0894657 0.402006
0.280867 0.110022 0.361932
-0.00447562 -0.108084 0.402006
0.281409 0.0589489 0.402006
-0.113634 -0.0964375 0.415406
-0.0108434 -0.310884 0.402006
-0.274088 0.0244579 0.253036
0.0511589 -0.10916 0.415406
0.14264 -0.115254 0.402006
-0.303482 -0.135899 0.402006
-0.025263 -0.268342 0.402006
-0.00222823 -0.174373 0.415406
0.271218 0.11583 0.0279345
-0.0181383 0.252809 0.415406
-0.259317 -0.138389 0.415406
0.286863 0.254897 0.402006
-0.178549 0.00899777 0.415406
-0.2873 0.035962 0.146868
-0.0647813 0.293944 0.415406
0.261475 -0.216317 0.402006
-0.135038 -0.0292047 0.402006
0.0808421 0.276181 0.415406
0.14458 -0.132494 0.402006
0.268623 -0.0866839 0.325099
0.273179 -0.29676 0.402006
0.0166728 0.276642 0.415406
0.23193 -0.237503 0.415406
-0.00698617 0.0514878 0.402006
0.132431 0.0601571 0.415406
-0.133413 0.044569 0.402006
-0.0303875 0.252458 0.415406
0.0817114 -0.0149703 0.415406
-0.265859 0.11344 0.377537
-0.267401 0.100423 0.0546215
0.212858 0.222697 0.415406
0.265861 -0.0137047 0.199728
-0.107387 0.00137201 0.415406
0.277446 -0.055385 0.402006
0.247878 0.232355 0.402006
-0.15554 0.217588 0.402006
-0.140904 0.303863 0.415406
-0.0456569 0.0826016 0.402006
0.184955 -0.277977 0.415406
-0.0539584 0.212365 0.415406
0.280251 0.0600622 0.415406
-0.320645 0.109491 0.415406
-0.265908 -0.0498434 0.415406
0.267824 0.128993 0.00513561
-0.156803 -0.319922 0.415406
0.25132 -0.0244318 0.402006
-0.0737242 -0.175848 0.402006
-0.226127 -0.149975 0.415406
0.21349 -0.236184 0.415406
-0.28995 -0.214381 0.402006
0.25639 -0.177726 0.415406
0.0232554 -0.115022 0.415406
-0.155357 -0.164041 0.402006
-0.0303653 0.253332 0.415406
0.0715752 -0.113837 0.415406
0.280388 -0.0290845 0.278934
0.118322 0.000110924 0.402006
0.1847 -0.265805 0.402006
-0.0980957 0.235935 0.415406
-0.111939 0.0783407 0.415406
0.170464 0.176075 0.402006
0.204827 0.0313224 0.415406
0.265861 0.085493 0.322608
-0.274157 -0.089811 0.0287718
-0.211242 0.0447709 0.402006
-0.227196 0.31816 0.415406
-0.250587 -0.306662 0.415406
-0.129132 0.17789 0.402006
-0.109772 0.130714 0.415406
0.152704 0.194181 0.402006
-0.321605 -0.3194 0.414283
0.116781 0.157003 0.415406
-0.0161939 0.206337 0.402006
0.111599 0.0340824 0.402006
0.0483551 -0.267487 0.415406
-0.162417 -0.00322202 0.402006
0.120502 0.20123 0.415406
-0.215105 0.0750231 0.415406
0.14476 0.0672823 0.415406
-0.150525 0.260993 0.402006
0.201676 0.23272 0.402006
0.196379 0.24557 0.402006
-0.0227694 0.163755 0.402006
-0.114871 -0.256851 0.415406
-0.265859 0.0824165 0.0411503
-0.101354 0.192165 0.415406
-0.119198 0.203726 0.415406
0.0179712 0.0231588 0.402006
-0.191201 -0.0193293 0.415406
-0.197291 0.145 0.402006
0.0016478 -0.0237663 0.415406
0.0683651 0.160898 0.415406
0.196198 0.185942 0.402006
0.2873 0.031273 0.256694
-0.208561 0.126593 0.402006
0.262167 0.0590012 0.402006
0.201944 0.198759 0.415406
0.310812 -0.199315 0.415406
-0.2873 -0.0162311 0.252081
-0.289605 -0.11458 0.415406
-0.22849 -0.275538 0.415406
0.000541478 0.0774504 0.415406
0.314706 -0.0297193 0.402006
0.0550366 0.308627 0.415406
0.287102 0.107549 0.357077
0.2873 -0.101532 0.386728
-0.269723 -0.0187711 0.415406
-0.186428 0.079775 0.415406
0.255023 0.184178 0.402006
0.0207683 0.259491 0.402006
-0.289844 0.150702 0.402006
-0.273053 -0.0185532 0.415406
0.228392 -0.271024 0.415406
0.196082 0.150201 0.402006
0.0917136 -0.283719 0.415406
-0.265859 0.0235468 0.211296
0.0575732 -0.268373 0.415406
-0.312872 -0.0462989 0.415406
0.176127 -0.228557 0.415406
-0.0440724 0.0930762 0.402006
0.188457 0.294577 0.402006
0.2873 0.00225044 0.190856
0.196796 -0.238676 0.415406
-0.0719188 0.185909 0.415406
-0.0965251 0.192466 0.402006
-0.0995559 0.00878236 0.415406
0.0471755 -0.267755 0.415406
-0.0726166 -0.292117 0.402006
0.0585988 0.0965102 0.415406
-0.265859 -0.00827258 0.164119
0.027638 0.319516 0.415406
0.196358 0.0707859 0.415406
0.221619 0.109176 0.402006
0.189421 -0.320037 0.402006
-0.184778 -0.314217 0.415406
0.266104 -0.106113 0.402006
0.273094 -0.0356192 0.135129
0.282273 -0.0834175 0.415406
-0.241004 0.321605 0.407703
-0.260953 -0.211154 0.402006
-0.179051 0.122982 0.415406
-0.285813 -0.0371275 0.239265
-0.2752 0.0005593 0.22759
-0.192139 0.186665 0.402006
0.160194 0.220912 0.415406
0.113789 -0.138977 0.415406
0.0872216 0.0233766 0.415406
-0.313923 -0.181579 0.415406
-0.164346 -0.218419 0.402006
0.2873 0.0526791 0.090182
0.271887 -0.0321169 0.142002
-0.0998989 -0.144683 0.415406
-0.194251 -0.161651 0.402006
-0.188082 0.182836 0.415406
0.0627773 -0.175761 0.402006
-0.313497 -0.242876 0.415406
-0.301782 0.0116889 0.415406
0.128511 0.180719 0.415406
0.282668 0.0513629 0.30584
-0.200061 0.155561 0.415406
-0.143959 -0.134552 0.402006
-0.2873 0.0915402 0.334275
0.186084 -0.232247 0.415406
0.0109514 0.260078 0.415406
0.232385 0.000225604 0.402006
-0.265859 0.0141613 0.20588
0.132709 -0.128618 0.415406
-0.303383 -0.236519 0.402006
0.2873 -0.0335863 0.255982
0.276722 0.25313 0.402006
-0.169239 0.137189 0.402006
-0.271593 -0.0696089 0.00938617
0.2873 0.0980882 0.0505615
-0.00340047 0.17639 0.415406
-0.2873 -0.123469 0.400331
0.287108 -0.109989 0.402006
0.191936 -0.12176 0.415406
-0.0980475 0.104773 0.402006
-0.0669955 -0.158172 0.402006
-0.282137 0.10337 0.415406
0.0152012 0.15895 0.415406
-0.10126 -0.317641 0.402006
0.273003 -0.0349993 0.235579
-0.115193 -0.186741 0.415406
0.2873 0.105938 0.0193183
0.134821 -0.263503 0.402006
0.265861 0.0425534 0.271508
0.21341 -0.105171 0.415406
-0.271905 -0.187787 0.415406
0.26865 0.0620252 0.326766
0.0927014 0.131696 0.402006
0.0477395 0.31953 0.415406
-0.320547 -0.321605 0.404599
0.221952 0.0511198 0.402006
0.234822 0.0511761 0.415406
-0.0749914 -0.217277 0.415406
-0.2873 0.0237866 0.206256
0.0224054 -0.0477182 0.402006
-0.265361 -0.103452 0.402006
-0.111869 -0.305824 0.402006
0.166354 -0.232232 0.415406
-0.174621 -0.274311 0.402006
0.216993 0.296584 0.402006
0.277834 0.0874726 0.376709
-0.0234733 -0.0241271 0.415406
0.0287549 -0.292898 0.402006
0.067181 0.0236228 0.415406
0.0357419 -0.11077 0.402006
-0.185054 0.0944925 0.402006
0.265861 0.102602 0.38985
0.127566 -0.149035 0.402006
-0.249629 -0.0148184 0.415406
0.104092 0.191918 0.415406
0.00197724 0.171529 0.415406
0.260351 -0.238011 0.415406
0.296724 -0.170183 0.415406
0.0891809 0.268372 0.415406
-0.15588 0.0765381 0.402006
-0.163713 0.28587 0.402006
-0.178934 0.191078 0.402006
0.270483 0.0938923 0.330275
0.300691 -0.263352 0.402006
-0.220331 -0.103018 0.415406
0.0790524 0.118116 0.402006
-0.0636768 -0.227985 0.402006
-0.147993 0.211037 0.402006
0.0737438 -0.207565 0.402006
0.208577 -0.249621 0.402006
-0.216024 -0.170359 0.415406
0.06644 -0.222736 0.402006
-0.162242 0.295861 0.402006
0.265765 0.0413029 0.415406
0.0642068 0.0964883 0.415406
-0.294274 0.321605 0.412086
0.2873 -0.0123712 0.171948
-0.062095 -0.191693 0.402006
-0.0888999 -0.102059 0.415406
0.307726 -0.195179 0.402006
0.206264 -0.311996 0.402006
0.048649 0.305407 0.415406
-0.247859 0.250831 0.402006
-0.218071 0.00154868 0.402006
-0.273812 -0.120108 0.402006
-0.302464 -0.230461 0.415406
0.187824 0.109854 0.402006
-0.241875 0.192099 0.415406
0.321605 -0.291157 0.415269
-0.0929807 -0.030756 0.402006
0.21419 -0.314662 0.415406
-0.287005 0.0558461 0.314639
-0.300257 0.310198 0.402006
-0.272111 0.266979 0.402006
0.200937 0.0116866 0.402006
-0.285348 -0.0630442 0.337754
-0.270212 0.123639 0.415406
0.0944132 -0.0853794 0.402006
0.0660841 0.17228 0.402006
-0.000535131 0.263876 0.415406
-0.302581 -0.215167 0.415406
-0.321605 -0.000917792 0.409755
-0.00885844 0.218882 0.415406
0.237222 0.248425 0.415406
0.2873 -0.0799718 0.0392889
-0.00137064 0.321605 0.413606
0.266398 -0.101757 0.351207
-0.245193 0.182953 0.402006
-0.276493 -0.0773374 0.0532526
-0.0368671 -0.162232 0.402006
0.116435 0.301882 0.415406
-0.241763 -0.0737328 0.415406
-0.313045 0.186771 0.402006
-0.279137 -0.0488812 0.109101
-0.239045 0.189138 0.402006
0.275135 0.0294857 0.262904
0.112092 -0.199643 0.415406
-0.170908 0.0285145 0.402006
0.130738 0.321605 0.407618
-0.208124 0.142642 0.402006
-0.218959 0.0940888 0.415406
0.277219 -0.318559 0.415406
0.0915837 0.195456 0.402006
-0.28503 -0.020482 0.210434
-0.265859 0.0628375 0.277107
-0.317679 0.0498472 0.402006
-0.264577 0.262603 0.415406
-0.298788 0.0745522 0.415406
0.321605 -0.068769 0.412167
0.0836951 0.104423 0.402006
-0.312459 0.22673 0.415406
-0.207576 0.244357 0.415406
0.0365095 -0.0376087 0.415406
0.320792 -0.0792813 0.415406
0.251292 -0.198166 0.402006
0.2873 -0.0415847 0.29934
-0.109188 0.0258619 0.402006
-0.243823 0.0844104 0.402006
0.247259 0.233762 0.402006
-0.148527 0.0555501 0.402006
-0.289905 0.162809 0.402006
-0.0924017 0.0958573 0.402006
-0.263931 0.136514 0.415406
-0.2873 0.0149219 0.213445
-0.249922 -0.117636 0.415406
-0.2873 -0.0241265 0.114608
-0.0155956 -0.0474162 0.402006
-0.163734 0.1396 0.415406
0.00599355 0.127287 0.415406
0.282227 -0.0516395 0.2644
-0.3137 0.0929956 0.402006
-0.272939 -0.0423272 0.0629295
-0.248132 0.2509 0.402006
-0.291151 0.17154 0.402006
0.200048 -0.0999136 0.402006
0.0526454 -0.28219 0.415406
0.276841 0.294502 0.415406
0.139499 -0.181196 0.402006
0.0744395 0.142227 0.415406
-0.0681339 0.296153 0.415406
-0.0441552 0.109898 0.415406
-0.0522491 0.0311483 0.402006
-0.287927 -0.170203 0.402006
0.2671 0.119762 0.0211243
0.225174 -0.306903 0.415406
-0.31385 0.047812 0.415406
-0.229499 -0.153453 0.402006
-0.279867 -0.0147213 0.200456
0.0370965 0.185469 0.402006
0.2873 -0.012475 0.155866
0.271152 0.00109321 0.415406
0.265861 0.111115 0.373528
-0.20401 0.0581407 0.415406
0.130323 -0.310251 0.415406
0.265861 0.0117988 0.216646
-0.211553 0.246305 0.415406
-0.203022 -0.283263 0.415406
0.0640087 -0.197508 0.415406
0.296574 -0.109053 0.415406
-0.285949 0.067172 0.415406
0.278836 0.094123 0.0655327
-0.107635 -0.0548229 0.415406
-0.159689 -0.0545364 0.415406
-0.207596 -0.029409 0.415406
-0.259809 0.275548 0.415406
-0.130778 0.219707 0.415406
0.247959 0.0794852 0.415406
0.173284 0.109532 0.402006
-0.146685 0.0391573 0.402006
-0.042714 0.269262 0.402006
0.0852591 0.219787 0.402006
0.251004 0.217258 0.415406
-0.265859 -0.000281848 0.18879
-0.13472 -0.105355 0.415406
0.184029 0.0509552 0.415406
0.245049 -0.239378 0.415406
0.277163 -0.0399888 0.415406
0.267965 -0.120088 0.415406
-0.155323 -0.290537 0.402006
-0.302323 -0.125568 0.415406
0.172215 0.0227982 0.402006
0.265861 -0.0280902 0.114276
-0.294531 0.315352 0.402006
-0.145639 0.316904 0.415406
0.162925 -0.185507 0.415406
0.247689 0.127167 0.402006
-0.209444 -0.0865692 0.402006
0.231593 0.261206 0.415406
-0.308444 -0.19712 0.415406
0.0639417 -0.0469092 0.415406
0.148664 0.0498143 0.415406
-0.145912 0.0639139 0.402006
-0.2873 0.0631929 0.294065
-0.0815434 -0.0136439 0.402006
-0.241701 -0.124466 0.415406
0.26828 -0.136526 0.415406
-0.283992 -0.122041 0.402006
0.2873 0.0976708 0.345633
0.152215 0.183532 0.402006
-0.140226 0.0635716 0.402006
0.291312 0.148881 0.402006
-0.217392 0.000730932 0.402006
0.239866 -0.0997936 0.402006
0.0648473 0.125831 0.415406
0.31353 -0.225956 0.415406
-0.097878 0.14376 0.415406
-0.311807 0.321605 0.404777
-0.303416 0.268929 0.402006
-0.112978 -0.192747 0.402006
0.205031 0.0749119 0.415406
0.265861 -0.0378211 0.0904175
0.202959 -0.2726 0.415406
0.211114 -0.162766 0.402006
0.0226695 0.264692 0.415406
-0.224637 0.0035693 0.415406
-0.277547 -0.182279 0.415406
0.2873 0.07533 0.331987
0.00556871 -0.105171 0.415406
-0.0677469 0.183712 0.415406
-0.0438959 0.0616464 0.415406
-0.160805 -0.0433809 0.402006
0.0299572 -0.0754361 0.415406
-0.0833005 0.00730929 0.415406
0.0327945 0.262304 0.402006
0.232296 0.26073 0.415406
0.149604 0.226376 0.402006
-0.300636 0.0893036 0.415406
0.154547 0.0687782 0.402006
-0.119985 -0.299315 0.415406
0.0653264 0.100476 0.415406
0.247035 -0.116862 0.402006
0.16138 -0.0222913 0.415406
0.195811 -0.267437 0.415406
0.0865562 -0.228289 0.415406
0.26591 -0.0285942 0.278085
0.106995 -0.151341 0.415406
0.231517 -0.116511 0.415406
-0.091293 -0.304862 0.402006
0.108218 -0.125818 0.402006
0.138368 -0.127437 0.402006
-0.296357 -0.107231 0.415406
-0.31663 -0.0793693 0.402006
0.278976 0.0670408 0.0588399
-0.191341 0.0324206 0.402006
0.140112 0.187856 0.415406
0.129954 0.1705 0.415406
0.177621 -0.256929 0.415406
0.286787 -0.0517206 0.044494
0.275833 0.301756 0.415406
-0.0462136 -0.0322531 0.402006
-0.130113 0.242255 0.402006
-0.233675 0.169952 0.415406
0.267404 0.112012 0.0345477
0.254232 0.16244 0.402006
0.188934 -0.0967371 0.402006
-0.139623 -0.301902 0.402006
-0.31252 0.00542352 0.415406
0.281223 -0.0335627 0.233091
0.211021 -0.11583 0.402006
0.123781 0.160195 0.415406
0.225557 0.0730695 0.415406
-0.160281 0.265372 0.415406
-0.214312 0.205968 0.402006
0.268796 0.249833 0.415406
0.265861 -0.00164428 0.188146
0.141408 -0.289288 0.415406
-0.208623 -0.0897584 0.415406
-0.221089 0.0106327 0.402006
0.277086 -0.0230651 0.415406
-0.02808 0.103022 0.415406
0.109394 0.209196 0.402006
0.0158487 0.0739888 0.402006
-0.267763 -0.225735 0.402006
-0.290265 0.205005 0.415406
-0.2873 -0.0758864 0.349164
-0.302461 -0.148996 0.402006
0.142063 0.0589104 0.415406
0.238555 -0.0722513 0.402006
0.0600543 0.321605 0.404458
0.151756 0.00900671 0.402006
0.235644 0.139158 0.415406
-0.307741 0.141707 0.415406
-0.2873 -0.0334324 0.0960313
-0.160088 -0.218033 0.415406
-0.243203 -0.107898 0.402006
-0.166553 -0.32022 0.415406
-0.262754 0.132469 0.415406
0.0621757 -0.0303359 0.415406
-0.064123 0.155534 0.415406
0.254549 -0.271512 0.402006
-0.143127 -0.129368 0.415406
0.194847 -0.00275835 0.402006
-0.265859 -0.0451274 0.266268
0.286702 0.0261521 0.256361
-0.00394782 0.321605 0.41365
-0.258019 -0.189748 0.402006
0.152312 0.133173 0.402006
-0.282773 -0.0417193 0.0641226
0.150465 -0.168979 0.415406
0.0998105 -0.157671 0.402006
-0.283155 0.111992 0.365798
0.0112942 0.179838 0.415406
-0.164276 0.214814 0.402006
0.224488 0.0999533 0.402006
-0.301447 0.0232154 0.402006
-0.165933 -0.230487 0.415406
0.118 0.238508 0.415406
0.286564 0.129113 0.399399
-0.212466 0.291202 0.415406
-0.125099 -0.266927 0.415406
0.110702 0.0480925 0.415406
0.24855 -0.0256528 0.415406
-0.267777 -0.0986849 0.0113558
0.22963 -0.279078 0.415406
-0.292033 -0.038482 0.415406
-0.154555 -0.233677 0.402006
-0.0403884 -0.113265 0.415406
0.083622 -0.19012 0.402006
-0.0500804 0.0608661 0.402006
0.303794 -0.286192 0.402006
-0.2873 0.0875645 0.34657
0.28227 0.0927224 0.415406
0.266047 0.0774767 0.094365
0.0485441 0.198128 0.415406
-0.224682 -0.187101 0.402006
0.265861 0.0841449 0.358059
-0.266396 -0.120855 0.402006
-0.28483 0.00249227 0.170641
-0.0206859 -0.321605 0.408184
0.209061 -0.198356 0.415406
0.0274484 -0.188158 0.415406
0.268326 -0.206136 0.415406
0.0735987 0.235478 0.402006
0.167615 -0.204992 0.402006
-0.298225 0.241278 0.402006
-0.144459 -0.0875315 0.402006
-0.126296 0.223906 0.402006
0.162684 0.0360014 0.402006
-0.299276 0.321605 0.411647
-0.167318 0.194431 0.402006
0.27647 -0.0115085 0.248492
-0.143853 -0.243426 0.415406
0.262976 0.0649574 0.415406
0.265861 0.0445519 0.265247
-0.271703 -0.0336521 0.13899
-0.158698 -0.308504 0.402006
0.26637 0.067308 0.111978
-0.0455492 -0.0629189 0.402006
-0.290464 0.313034 0.415406
-0.0579621 -0.195121 0.415406
-0.119802 -0.110616 0.402006
0.23612 0.262477 0.402006
-0.273068 0.106999 0.355998
0.0775148 0.126413 0.415406
0.174345 -0.196108 0.402006
-0.177275 0.270198 0.402006
-0.199201 0.279469 0.415406
0.316201 -0.128638 0.415406
0.171757 -0.0447656 0.415406
-0.253562 0.081707 0.415406
0.184092 -0.0854695 0.415406
-0.233641 0.213767 0.402006
-0.250183 0.209344 0.402006
0.084115 0.318195 0.415406
-0.311733 0.186281 0.415406
-0.180994 0.0441974 0.415406
-0.268358 0.115032 0.402006
0.265861 0.119737 0.398498
0.226401 0.230071 0.402006
0.268153 0.0782646 0.0393997
0.281332 -0.0330868 0.140099
0.187817 -0.0553579 0.402006
-0.258944 0.131562 0.402006
0.0851393 0.101767 0.415406
-0.154055 0.321605 0.411523
0.258333 0.119228 0.402006
0.0416368 0.191066 0.415406
-0.0394262 -0.21144 0.415406
-0.120484 0.0688364 0.402006
0.177017 0.0146157 0.402006
0.153809 0.233079 0.402006
0.0697943 -0.135425 0.402006
-0.0422456 0.321605 0.407395
0.0693732 -0.245912 0.415406
-0.31115 -0.253618 0.402006
0.270712 0.301248 0.402006
0.0934412 -0.268533 0.402006
0.0653442 -0.266299 0.415406
0.0294596 0.31306 0.402006
-0.128903 0.22095 0.415406
0.0645483 0.264576 0.402006
0.259022 0.253722 0.402006
-0.265859 -0.0720389 0.0564733
0.274004 -0.040941 0.402006
0.0869195 0.294869 0.402006
-0.314948 0.257998 0.415406
0.0361482 -0.216188 0.402006
-0.2873 -0.0780334 0.329627
0.081176 0.0944373 0.402006
0.116414 -0.23732 0.402006
0.196955 0.0895229 0.415406
0.138845 0.0905164 0.402006
0.2873 -0.0349056 0.113299
0.0821752 0.0116843 0.415406
0.216262 -0.318111 0.415406
-0.2873 0.0905459 0.371649
-0.310977 -0.304805 0.402006
0.269153 -0.00144613 0.231063
-0.0781894 0.0296191 0.415406
-0.211028 -0.143282 0.402006
-0.0653557 -0.135277 0.415406
0.273285 0.0424781 0.229369
0.0896196 0.0546462 0.415406
-0.164309 -0.173968 0.415406
-0.200738 0.273163 0.415406
-0.0605872 0.170933 0.415406
0.279563 -0.0464725 0.309051
-0.2873 -0.00798368 0.131922
0.310086 0.122679 0.402006
0.27197 0.0969343 0.415406
-0.2873 0.00517772 0.170593
0.318811 0.134795 0.402006
-0.188697 0.299002 0.402006
-0.0518073 0.00405672 0.402006
0.127379 0.241589 0.415406
0.210287 0.105171 0.415406
-0.136076 0.0236458 0.415406
-0.19819 0.0410336 0.415406
-0.0382403 0.143761 0.402006
-0.0150431 0.0433451 0.402006
-0.301623 -0.0352079 0.402006
0.0616696 0.0647881 0.415406
0.0996871 0.108055 0.415406
0.0285974 -0.138869 0.402006
-0.2873 0.101919 0.371915
-0.224598 0.183526 0.402006
-0.281134 0.203582 0.402006
-0.29842 0.044214 0.402006
0.227904 0.321605 0.405244
0.0864137 0.0736687 0.415406
0.0238214 0.293527 0.415406
0.221819 -0.227128 0.402006
0.143791 0.31381 0.415406
-0.262606 0.261508 0.402006
0.212369 -0.255599 0.402006
0.208205 0.064839 0.415406
0.260188 -0.0288427 0.402006
-0.255433 0.148211 0.415406
-0.0842731 0.230576 0.415406
-0.265859 -0.0743489 0.0388073
0.249563 0.195748 0.415406
0.137763 0.0750481 0.402006
0.193023 -0.302543 0.415406
-0.0148934 0.205166 0.402006
-0.302626 0.0617475 0.415406
0.275583 0.205356 0.402006
-0.03677 -0.19364 0.402006
-0.104608 0.069427 0.402006
0.254436 0.219089 0.402006
0.272773 -0.0293499 0.279394
0.201777 -0.190519 0.415406
-0.138655 0.195819 0.415406
0.0461588 0.281814 0.415406
-0.121925 -0.191023 0.415406
-0.241669 0.146528 0.402006
-0.0898275 0.209811 0.415406
0.051559 0.152212 0.402006
0.132464 -0.073933 0.402006
-0.0110366 -0.165621 0.402006
-0.190242 0.133953 0.402006
0.00348005 0.101994 0.415406
0.294027 -0.0605493 0.415406
0.268109 -0.310247 0.402006
0.18178 -0.287392 0.402006
-0.2873 -0.0168793 0.135438
0.320037 0.244127 0.402006
-0.265859 -0.0712548 0.341544
0.286405 -0.019151 0.208129
-0.133146 -0.269528 0.402006
-0.292753 0.0495698 0.415406
0.0724968 0.141067 0.402006
-0.321605 -0.107637 0.407299
0.151179 -0.21078 0.402006
-0.220052 -0.256292 0.415406
-0.0340322 -0.192585 0.415406
0.231776 -0.205695 0.402006
-0.256846 -0.0426105 0.415406
0.30395 0.0629584 0.402006
-0.0789166 -0.19304 0.402006
0.0939609 -0.153862 0.415406
0.233517 0.194447 0.415406
-0.261317 0.0400824 0.415406
0.13223 0.0582824 0.402006
0.00223404 0.21941 0.402006
0.0105191 -0.321605 0.414688
0.165958 -0.180871 0.415406
-0.0539576 -0.0223442 0.415406
0.2873 -0.0662082 0.0447225
-0.269992 -0.0876856 0.0329431
0.127577 -0.193289 0.402006
-0.141135 0.105032 0.415406
-0.282226 0.0958096 0.0626114
-0.315122 0.0142025 0.402006
0.122531 -0.157574 0.402006
-0.163157 -0.117549 0.402006
0.283021 -0.184896 0.415406
-0.248947 0.29142 0.402006
0.195994 0.0991276 0.415406
-0.265859 -0.0485041 0.288177
0.197665 -0.137816 0.415406
-0.281853 0.122261 0.402006
-0.294737 0.0002397 0.415406
-0.148981 0.222821 0.402006
0.2873 0.0959283 0.354394
0.138157 -0.189238 0.402006
0.265861 0.00505436 0.191809
0.0123582 0.000633597 0.402006
0.291311 0.265229 0.415406
-0.265859 0.0400839 0.282469
0.219485 0.0288066 0.415406
-0.104058 0.244746 0.415406
0.178867 0.0241101 0.415406
-0.265859 -0.0689903 0.0232954
-0.0515821 -0.0191101 0.402006
-0.278396 -0.10446 0.415406
-0.190283 0.0193744 0.402006
-0.0128843 0.199336 0.402006
-0.277742 -0.122834 0.415406
-0.265859 -0.0430796 0.277067
-0.240671 0.303784 0.415406
0.1259 -0.202483 0.415406
0.278134 -0.0788928 5.40688e-17
0.196727 0.222458 0.415406
-0.134586 -0.00293019 0.415406
0.283873 0.112892 0.367564
0.31603 -0.174692 0.415406
0.265861 0.110994 0.365484
0.114984 0.229374 0.415406
-0.111474 0.253509 0.402006
0.311095 -0.179775 0.402006
-0.269521 -0.0215606 0.415406
-0.250413 -0.246353 0.402006
-0.304547 -0.224764 0.415406
-0.0204339 -0.0875872 0.415406
0.29543 -0.157655 0.402006
-0.297676 0.171024 0.415406
0.2873 0.0132655 0.219963
0.195847 0.248161 0.415406
0.117903 -0.0321481 0.402006
-0.203662 -0.123201 0.402006
-0.289275 0.192298 0.415406
0.125211 0.201725 0.415406
0.11169 0.252009 0.415406
-0.273664 0.0196593 0.194508
0.272396 0.14371 0.415406
0.0349489 -0.0498573 0.402006
0.078247 0.0920507 0.415406
0.0419774 -0.292031 0.415406
0.211641 0.218611 0.415406
-0.161458 -0.17017 0.415406
-0.286976 0.0420225 0.415406
-0.321386 0.0717791 0.415406
-0.168873 -0.00967482 0.402006
0.02463 -0.100582 0.402006
-0.314512 0.0187765 0.415406
-0.0496158 0.284286 0.415406
0.265861 -0.0137316 0.156337
0.218279 0.22881 0.402006
0.15657 -0.14014 0.402006
0.297096 -0.155613 0.402006
-0.176116 0.294122 0.415406
-0.256128 -0.32118 0.415406
-0.2873 -0.0848384 0.352837
0.316792 0.321605 0.403181
0.0381654 0.0424012 0.402006
0.22732 0.122067 0.402006
0.204599 -0.112096 0.402006
-0.0328479 0.270182 0.415406
-0.085418 0.124641 0.402006
-0.0289908 -0.269073 0.415406
0.259113 -0.1172 0.402006
-0.116889 0.175348 0.415406
-0.00529256 0.143133 0.402006
0.279994 -0.0664658 0.343681
-0.265859 -0.0310374 0.276346
0.0838617 -0.22172 0.402006
0.0576994 -0.189565 0.402006
-0.292618 0.292197 0.402006
0.0323022 0.189501 0.402006
0.185865 -0.104778 0.415406
0.179083 0.287917 0.402006
-0.2873 0.0219263 0.16149
-0.194404 -0.0387411 0.415406
-0.0973192 0.238927 0.402006
0.0903025 -0.238862 0.415406
0.162025 0.199628 0.402006
-0.246853 -0.0668633 0.415406
-0.25823 0.118915 0.415406
-0.0586191 -0.0804452 0.415406
-0.10873 0.0935288 0.415406
0.0401073 -0.308474 0.402006
-0.158411 -0.280349 0.402006
0.270664 -0.0367193 0.238558
0.182659 -0.226773 0.402006
0.250568 0.171711 0.415406
0.243186 0.128235 0.415406
-0.0186893 0.133575 0.402006
-0.0332734 -0.293046 0.402006
0.217683 -0.0047881 0.415406
0.160646 -0.0125606 0.415406
0.0886423 0.0128225 0.415406
-0.239096 0.145621 0.402006
-0.215307 -0.164909 0.415406
0.0818634 -0.0187908 0.415406
0.217812 -0.0716296 0.402006
0.302164 -0.257399 0.402006
0.171642 -0.0291664 0.415406
-0.151523 -0.308321 0.415406
-0.316007 -0.0714618 0.402006
-0.17493 0.317979 0.402006
0.0760506 -0.278536 0.402006
0.279118 0.0701922 0.415406
-0.149078 0.270138 0.415406
-0.0690843 0.177036 0.415406
0.00128147 0.293493 0.415406
-0.141473 0.174896 0.402006
-0.265859 0.106869 0.396067
-0.0972122 0.0206476 0.415406
0.00876313 -0.157234 0.415406
-0.167502 0.122913 0.402006
0.0876694 0.272494 0.415406
0.153733 0.200184 0.415406
0.28427 -0.215325 0.415406
0.2873 0.0518602 0.267647
0.123901 0.0500191 0.402006
-0.285632 0.058626 0.320095
0.265861 -0.0497304 0.104028
0.12901 0.0860169 0.402006
-0.250451 0.252443 0.415406
0.0576775 -0.0231869 0.402006
-0.184881 -0.290577 0.402006
-0.273158 -0.0670235 0.344647
0.286121 -0.0576711 0.0328154
-0.285007 0.0141912 0.402006
-0.29852 -0.0132748 0.402006
-0.2873 0.0599909 0.08653
-0.133578 -0.216869 0.415406
0.0026764 -0.258962 0.402006
-0.213453 0.169755 0.402006
0.146958 0.0850174 0.402006
-0.260426 -0.04837 0.415406
-0.2407 0.0590371 0.415406
0.119484 -0.0526678 0.415406
0.131839 -0.0723463 0.402006
0.316776 -0.0735562 0.402006
0.0233308 0.314001 0.402006
0.0461876 0.120473 0.402006
0.218451 0.164583 0.402006
-0.109523 -0.257496 0.402006
-0.284412 -0.303708 0.415406
0.282708 0.0143733 0.17421
0.282449 0.060378 0.0703802
0.265861 -0.0309608 0.24693
0.0749825 -0.135084 0.415406
0.0496705 -0.321605 0.40955
-0.181824 0.0334192 0.402006
-0.17579 -0.0331842 0.402006
0.321605 0.198341 0.403002
-0.028295 -0.302094 0.402006
-0.221361 -0.0611728 0.402006
0.29858 -0.0463184 0.415406
0.248621 0.0604173 0.402006
-0.318975 -0.304437 0.402006
-0.0153636 0.289971 0.402006
0.265861 -0.0122021 0.226841
-0.19882 -0.06141 0.415406
-0.111914 -0.262559 0.415406
-0.321605 0.116056 0.415231
0.00588027 -0.247462 0.415406
-0.0758731 -0.286877 0.415406
-0.256626 -0.239094 0.402006
0.271003 0.169703 0.402006
0.100434 0.139878 0.415406
-0.174171 0.01411 0.402006
0.30834 0.112994 0.402006
0.00732404 -0.169875 0.402006
0.283091 0.108453 0.358852
-0.108323 0.119641 0.415406
-0.283859 -0.0227091 0.101432
-0.284568 -0.165974 0.402006
-0.171633 -0.246337 0.415406
-0.317755 0.277949 0.415406
0.24329 0.262137 0.402006
-0.0288931 -0.239315 0.415406
0.0397564 -0.111741 0.402006
-0.051135 -0.0388288 0.402006
0.208885 -0.0616685 0.415406
-0.265859 0.0172618 0.204893
-0.265859 -0.0615402 0.310323
-0.076396 0.0836519 0.415406
0.2873 0.035044 0.14963
0.206496 0.171972 0.415406
0.0519103 0.169901 0.415406
0.278009 0.0943436 0.331161
-0.241333 -0.269858 0.402006
-0.275714 0.0658424 0.0609156
0.137067 0.169666 0.415406
-0.0449055 -0.0886088 0.415406
-0.256067 -0.0441873 0.415406
0.218039 -0.291426 0.415406
-0.265859 0.0156511 0.193817
-0.0206018 -0.312936 0.402006
-0.150603 -0.318034 0.402006
0.216125 -0.163654 0.402006
-0.178841 0.000121415 0.402006
-0.202384 -0.18896 0.415406
0.265422 0.193754 0.415406
0.0309896 -0.317219 0.402006
0.21267 -0.00688305 0.402006
-0.063195 0.128467 0.415406
-0.0325268 0.0196678 0.415406
0.130253 0.193454 0.415406
0.22536 0.166934 0.415406
0.261802 -0.00197819 0.415406
0.2873 -0.0539534 0.0490419
-0.276783 0.116334 0.402006
0.222966 0.256708 0.402006
-0.0609484 -0.271164 0.402006
-0.0669931 -0.0473588 0.402006
0.163165 -0.312726 0.415406
0.238812 0.145092 0.402006
-0.2873 -0.0718937 0.32516
-0.19888 0.0791854 0.415406
0.114331 0.159939 0.402006
0.321605 0.152232 0.415229
0.311268 0.231454 0.402006
-0.221696 -0.0746459 0.415406
-0.280301 0.046399 0.415406
0.0284635 0.123676 0.402006
-0.151425 0.236519 0.415406
-0.265859 -0.0171894 0.134692
0.271893 0.224536 0.415406
0.162684 0.165176 0.402006
-0.265859 0.0159022 0.198385
0.00695902 0.0708542 0.402006
-0.0750338 -0.310636 0.415406
0.131271 -0.0281518 0.415406
0.120397 -0.0345981 0.402006
-0.0887785 0.234978 0.402006
-0.211424 -0.321584 0.402006
0.31661 -0.0125521 0.415406
-0.0158499 -0.0718012 0.402006
0.0474382 -0.00246137 0.402006
-0.0750767 0.132331 0.415406
-0.286436 -0.268864 0.402006
0.0129938 0.228765 0.402006
0.085459 0.229126 0.415406
0.287248 -0.0570777 0.402006
0.0423105 -0.309211 0.415406
0.265861 -0.0303414 0.257163
0.251237 0.14733 0.415406
0.155692 0.238827 0.415406
0.282544 0.184171 0.415406
-0.212143 -0.102012 0.402006
0.205629 0.126209 0.402006
0.0697152 -0.199572 0.402006
0.265861 -0.0723149 0.0108192
-0.0500649 -0.235465 0.415406
0.115912 0.215909 0.402006
-0.265859 -0.0660364 0.0571235
