0.215837 0.101269 0.551163
-0.256642 -0.181891 0.0484001
0.240401 -0.046123 0.537715
0.183807 -0.189524 0.551163
-0.256547 0.121449 0.570708
-0.243492 0.00500047 0.570708
-0.190565 -0.0746047 0.570708
0.293173 0.0774415 0.561759
-0.264111 -0.0120447 0.331025
-0.0945023 0.220978 0.570708
0.26972 -0.00939757 0.13118
0.149929 0.0136804 0.494903
0.127823 -0.204104 0.551163
-0.170618 0.157279 0.570708
-0.269437 0.00100973 0.317345
0.0488024 -0.247587 0.570708
0.264266 0.0118921 0.305588
0.156916 0.0136804 0.520718
0.0623202 -0.278298 0.551163
-0.293173 0.0989677 0.553515
-0.0675301 -0.127699 0.570708
-0.27165 0.179191 0.026935
0.0704633 0.0834844 0.570708
0.111174 -0.00923887 0.526927
-0.254832 0.10266 0.535527
0.239715 0.228659 0.570708
0.199921 0.107344 0.570708
-0.0272489 0.000455839 0.526927
0.122541 -0.0488587 0.570708
0.244991 -0.189071 0.0418516
-0.26242 -0.209521 0.544902
0.119374 0.00948227 0.526927
0.27073 -0.234311 0.041544
0.282151 -0.232539 0.551163
0.238274 0.194286 0.0371133
0.182136 -0.190121 0.551163
-0.267672 -0.00762098 0.434101
-0.242452 0.195524 0.551163
0.270201 -0.236514 0.570708
0.0906127 0.231199 0.570708
0.0953587 -0.231038 0.570708
-0.249217 -0.117838 0.122031
0.184477 0.116237 0.551163
-0.0609725 0.0776952 0.551163
-0.238292 -0.182085 0.0198466
0.0646195 -0.247237 0.570708
0.183475 -0.155799 0.551163
-0.267235 -0.0585555 0.551163
0.0153999 0.142005 0.551163
0.249073 -0.242677 0.570708
-0.0422733 -0.283005 0.551163
0.24431 0.166734 0.0397733
0.134233 -0.175571 0.570708
0.28422 0.260648 0.570708
0.230726 0.0121883 0.526927
-0.100203 0.277833 0.570708
-0.203066 0.263009 0.570708
0.189501 -0.255268 0.570708
0.0213711 -0.289171 0.570708
0.265365 0.0358674 0.156787
-0.0199123 -0.22775 0.539579
-0.0566078 0.260596 0.551163
0.0732025 -0.0155265 0.570708
0.280884 0.0417551 0.551163
-0.0670021 -0.138969 0.551163
-0.125957 0.00837493 0.570708
0.0975854 0.203665 0.570708
-0.259932 -0.223468 0.0377666
0.25081 -0.222956 0.0411074
-0.0345744 0.0163796 0.551163
-0.247089 0.0162432 0.272196
0.240401 0.00924696 0.545599
-0.0583087 -0.013481 0.570708
-0.220643 -0.00596198 0.570708
0.25035 0.184134 0.0719248
0.290268 -0.0982144 0.551163
0.258382 -0.00968612 0.53537
0.241076 -0.0900335 0.13382
-0.135968 -0.00156462 0.551163
-0.0241266 -0.0487321 0.551163
0.248223 0.0390886 0.545415
-0.150476 -0.0136812 0.494005
-0.270424 0.186361 0.0485995
-0.10714 0.209314 0.570708
-0.199425 0.0948384 0.551163
0.105734 0.108502 0.551163
0.0669576 -0.232969 0.543342
0.235703 0.170168 0.00119205
0.0707187 -0.0737093 0.551163
-0.19859 0.290441 0.570708
0.167046 0.0136804 0.50749
0.25583 0.136132 0.039638
0.233571 -0.206891 0.0564031
0.149935 0.0364459 0.570708
0.094357 0.209907 0.551163
0.0862338 -0.268248 0.551163
-0.225075 0.288283 0.551163
0.235585 0.0639436 0.551163
-0.0792176 -0.0523356 0.570708
0.233964 0.0372441 0.570708
0.0120868 -0.179365 0.570708
0.243597 -0.203862 0.00999785
0.109201 0.0249527 0.570708
-0.199874 -0.0263359 0.570708
0.271673 0.16207 0.026054
0.0822064 -0.149091 0.570708
-0.251278 -0.0173643 0.420384
-0.129452 -0.0463812 0.570708
-0.268558 0.00430236 0.29714
-0.229254 0.0108094 0.487838
-0.224278 0.201981 0.551163
0.242964 -0.20863 0.0604579
0.079876 0.046382 0.570708
0.260618 0.0225647 0.162427
0.232267 0.0136804 0.492639
0.246713 0.026338 0.536301
0.246747 -0.0637038 0.551163
0.244103 -0.181903 0.551163
-0.238387 -0.151242 0.570708
0.177047 0.0648089 0.570708
0.170487 -0.034577 0.570708
0.206612 -0.156554 0.551163
-0.293173 -0.0698949 0.564982
-0.0245049 -0.238701 0.538364
-0.247231 -0.0707683 0.141988
0.252034 -0.0050707 0.129777
-0.0991061 0.0793455 0.570708
-0.246737 0.0503234 0.150657
-0.240398 -0.144014 0.537181
-0.243171 0.0306936 0.15898
-0.165024 0.188704 0.551163
0.0410281 0.126205 0.551163
0.203754 -0.293171 0.557172
-0.258549 -0.191114 0.0394652
0.118215 -0.144101 0.551163
0.250675 0.194549 0.0625433
0.265446 0.142601 0.00880027
-0.198611 0.171847 0.551163
0.242138 0.145721 0.0558279
-0.241271 0.0807309 0.551163
0.00333267 0.0909567 0.570708
-0.0740722 -0.0310252 0.570708
0.134246 -0.0136812 0.489199
-0.29156 0.286981 0.556486
0.282488 0.015786 0.570708
-0.160214 -0.0649118 0.551163
0.217814 0.0136804 0.490051
0.159597 -0.00973696 0.551163
0.232584 0.171594 0.0191282
0.246877 0.142048 0.551163
0.0896595 0.067053 0.551163
-0.037275 0.244218 0.551163
-0.23257 0.150387 0.0300446
-0.258792 0.190415 0.0380712
0.110335 -0.214903 0.551163
-0.0689177 0.0763711 0.551163
0.21131 0.0929272 0.551163
0.134591 -0.12166 0.551163
0.13987 -0.074624 0.570708
0.0419805 0.0136804 0.51181
0.257433 0.016169 0.432554
0.257834 -0.212915 0.0312717
0.273432 -0.0441009 0.551163
-0.19747 -0.1351 0.570708
0.0785035 -0.267714 0.570708
-0.25335 0.0746001 0.109479
0.267828 -0.00706938 0.326311
0.0830337 -0.235022 0.570708
-0.253546 0.000453376 0.179813
0.254384 0.0242998 0.547809
0.253356 0.0172618 0.497357
0.0189938 -0.0136812 0.518572
-0.0905412 -0.0588361 0.551163
-0.0148306 0.292097 0.570708
-0.135021 0.226977 0.570708
-0.137418 0.0859339 0.551163
-0.132928 0.174887 0.570708
0.113902 -0.129322 0.551163
-0.234594 -0.0186061 0.153033
-0.0714897 0.0448998 0.551163
0.201478 0.0637663 0.551163
-0.270931 0.0752758 0.570708
0.28704 -0.237531 0.551163
-0.0776182 0.154935 0.551163
-0.11892 0.104051 0.570708
0.147915 0.0766011 0.551163
0.130375 -0.102821 0.570708
0.26002 0.186341 0.0830855
0.259946 -0.19421 0.0537997
-0.0115144 -0.0834038 0.551163
-0.0909724 -0.292833 0.570708
0.170608 -0.148186 0.551163
0.20755 -0.237577 0.541077
-0.0205511 0.284056 0.570708
0.293173 -0.221136 0.561196
-0.172891 0.0271223 0.551163
0.0771493 -0.18891 0.551163
-0.163931 0.0136804 0.492812
-0.166456 0.0136804 0.491891
0.103995 -0.162436 0.551163
0.0857367 -0.235986 0.570708
-0.25046 0.188993 0.0719248
-0.218053 -0.210958 0.551163
-0.246448 -0.0136812 0.499737
0.106415 -0.265009 0.570708
0.178553 -0.255357 0.570708
-0.00522017 0.0410245 0.570708
0.230356 -0.196959 0.551163
-0.0905145 0.0136804 0.518668
0.268055 0.00622142 0.356465
-0.0583894 -0.0754978 0.570708
0.226972 0.0336068 0.570708
-0.169371 0.0136804 0.512688
0.265521 -0.0106396 0.268817
0.267585 -0.00797749 0.200516
-0.0488541 0.284747 0.570708
0.240401 -0.117349 0.54095
-0.199016 0.151111 0.551163
-0.23881 0.190683 0.551163
0.144229 -0.0506572 0.570708
0.284517 -0.293171 0.555638
-0.211927 0.293171 0.556673
-0.231107 0.224268 0.570708
-0.12063 -0.00626138 0.551163
0.201645 -0.00156121 0.526927
-0.293173 0.128063 0.566955
-0.243342 0.171806 0.0551541
0.230545 0.274203 0.551163
-0.12355 -0.137047 0.551163
-0.239716 0.0239815 0.546523
0.0983856 -0.163933 0.551163
0.268788 0.00348211 0.412366
0.26893 -0.00295288 0.261015
-0.204859 -0.262409 0.551163
-0.0664495 -0.0136812 0.513985
-0.123313 -0.160821 0.551163
-0.261591 -0.196841 0.0586423
0.149977 -0.00576397 0.487838
0.240401 0.0967862 0.53815
0.174841 0.281703 0.570708
0.257881 0.00135233 0.526927
0.238713 -0.223944 0.0595668
0.190526 -0.0774643 0.570708
0.129732 -0.0943757 0.551163
-0.0983316 -0.214292 0.551163
-0.135914 0.0309288 0.570708
-0.263846 -0.132836 0.54018
-0.281889 -0.275841 0.570708
0.0363873 0.068717 0.570708
-0.252652 -0.191465 0.543845
-0.242759 0.129061 0.570708
0.270502 -0.191496 0.0510938
-0.206673 0.100326 0.570708
-0.260636 -0.195513 0.015145
-0.112285 0.149492 0.551163
-0.0270884 0.293171 0.553751
0.0691193 0.252929 0.570708
-0.191335 0.291936 0.570708
-0.246648 -0.221268 0.0429112
0.0124008 -0.277926 0.570708
-0.272279 0.134184 0.551163
0.289356 -0.0710981 0.551163
0.24224 0.0141386 0.302586
0.196908 -0.171576 0.570708
0.0728162 -0.195903 0.570708
0.0417401 -0.170497 0.551163
0.141287 -0.283585 0.551163
0.0739733 -0.0108741 0.551163
0.219985 -0.26233 0.570708
0.105788 0.265349 0.551163
0.147096 -0.174455 0.570708
-0.084117 -0.101149 0.570708
0.0493845 -0.0518163 0.551163
0.273956 -0.0934978 0.570708
0.148623 -0.0901749 0.551163
0.230548 -0.266491 0.551163
-0.12896 -0.0469851 0.551163
-0.269512 -0.000731036 0.481564
-0.260551 -0.219354 0.0113691
-0.0825608 -0.238667 0.538446
-0.114386 0.0136804 0.495897
0.176139 -0.0136812 0.51318
-0.149544 0.246774 0.570708
-0.24358 0.156938 0.0526185
0.267918 -0.00673203 0.276393
-0.218906 -0.25107 0.570708
-0.0274145 -0.15351 0.570708
-0.254131 -0.212069 0.0467118
0.188856 0.0789723 0.570708
-0.100631 -0.255702 0.551163
0.0924066 -0.0754649 0.570708
-0.293173 -0.0747501 0.553413
0.26972 0.0158262 0.159743
0.245974 0.0543678 0.116683
0.258853 -0.015789 0.419416
0.245874 -0.02588 0.5343
-0.258757 0.207404 0.551163
-0.226482 -0.108003 0.551163
-0.251678 -0.0136812 0.51298
-0.244311 -0.185647 0.0433845
0.259427 0.268264 0.570708
-0.243591 0.138781 0.535527
0.190124 -0.279449 0.570708
0.243304 0.0532047 0.551163
-0.265134 -0.0110212 0.343459
-0.268458 -0.00468004 0.424484
-0.263718 0.0124375 0.373489
0.270987 0.186727 0.0298991
-0.236581 -0.00766125 0.240485
0.244015 -0.182495 0.0898664
0.00785208 0.0497767 0.570708
0.158413 0.0743089 0.551163
-0.24093 -0.128817 0.0991606
-0.248027 -0.00727698 0.534745
-0.0324625 0.28003 0.551163
-0.260377 0.164431 0.0508722
0.0664499 -0.203537 0.570708
0.26376 0.0123984 0.522071
-0.0968841 -0.245999 0.570708
0.24687 -0.192012 0.0719248
-0.239891 0.0330918 0.570708
-0.244041 -4.24438e-07 0.136921
0.236261 -0.00641522 0.456494
-0.251479 -0.144109 0.539886
0.262717 0.0134402 0.329938
0.165013 -0.242411 0.551163
-0.248185 0.14214 0.0854321
-0.237405 0.0136804 0.492862
-0.190244 0.293171 0.561553
-0.0477735 -0.27934 0.551163
-0.18816 -0.0136812 0.512381
0.255562 0.194137 0.0499449
0.132039 -0.0206081 0.570708
-0.253297 -0.0162657 0.541831
0.248033 -0.0390894 0.53864
0.0818106 -0.213268 0.570708
-0.251905 0.00319435 0.164176
-0.254222 0.0170281 0.453117
0.039593 -0.24621 0.551163
-0.00853789 0.0579448 0.570708
0.128418 -0.278742 0.551163
-0.242111 0.0140236 0.401824
0.241496 -0.138662 0.0959889
0.0219009 -0.258651 0.551163
0.123847 0.185225 0.570708
0.157458 -0.0113964 0.526927
0.264581 0.0690729 0.551163
-0.234022 -0.293171 0.556744
-0.263575 0.184717 0.570708
0.0176079 -0.18707 0.551163
-0.0493436 0.183446 0.570708
0.257192 0.0162337 0.280854
0.244171 -0.0816545 0.551163
0.283041 -0.274109 0.551163
-0.244311 0.150846 0.0572063
0.196421 -0.0117359 0.570708
-0.238539 0.0104499 0.419667
-0.151499 0.202485 0.551163
-0.173696 0.0136804 0.493856
-0.0106953 -0.241371 0.570708
0.251725 0.194949 0.0422378
-0.293173 0.13014 0.556512
0.286698 0.0830039 0.570708
-0.0584876 -0.220867 0.551163
0.241725 -0.147613 0.535527
-0.251232 0.0032979 0.540373
-0.128157 0.016645 0.551163
-0.264981 -0.0111748 0.410119
-0.216051 0.00310267 0.487838
-0.244311 0.175691 0.0341336
-0.235194 0.00246315 0.164823
0.0508661 0.185009 0.551163
0.236201 -0.052276 0.551163
-0.0252058 0.157747 0.551163
-0.190041 -0.135473 0.570708
-0.25814 -0.186079 0.0312717
-0.0551188 0.108028 0.551163
-0.280953 0.0302881 0.551163
-0.240767 0.150942 0.551163
0.26504 -0.0111198 0.487054
0.245687 -0.0147446 0.165742
0.216881 0.293171 0.568928
0.0518816 -0.108003 0.570708
0.136431 0.0951403 0.570708
-0.241686 -0.141966 0.0943178
-0.162302 -0.0136812 0.495292
-0.0409856 0.170441 0.570708
-0.15807 -0.284046 0.551163
-0.0975614 -0.264132 0.570708
-0.002666 0.204608 0.570708
-0.182307 -0.0577436 0.570708
-0.106033 0.166587 0.551163
0.250262 -0.0362405 0.570708
-0.24921 -0.194444 0.0818103
-0.0594661 0.0730733 0.551163
-0.266844 0.00930902 0.306045
-0.0344858 -0.0677623 0.570708
0.0419666 0.12635 0.551163
0.0747902 0.122779 0.551163
-0.0297888 0.0136804 0.510372
0.219459 0.270862 0.570708
-0.252323 0.0856841 0.551163
-0.0866155 -0.0417227 0.551163
0.267716 -0.00478939 0.169963
-0.087177 -0.213935 0.551163
0.220654 0.0607277 0.570708
0.081884 0.218083 0.551163
-0.0784337 -0.0136812 0.503712
-0.263518 -0.125258 0.0926601
0.280281 -0.0216154 0.570708
0.0877923 0.290811 0.551163
0.184136 -0.176076 0.551163
0.213373 -0.109012 0.551163
-0.278157 -0.270253 0.551163
-0.0458537 -0.0136812 0.502298
0.0303454 0.244492 0.570708
0.0187041 0.190204 0.551163
-0.233167 -0.196818 0.0150307
0.256909 -0.145186 0.0843475
0.263607 0.123936 0.106935
0.253235 -0.150944 0.542275
-0.269357 0.0236765 0.138043
0.252811 0.0174078 0.410667
-0.260302 0.0607783 0.146224
-0.251715 0.00156611 0.551163
-0.258383 -0.00301988 0.53203
-0.149704 0.177457 0.570708
-0.293173 0.00179622 0.552824
0.139054 0.225854 0.551163
-0.016296 -0.161229 0.551163
0.142008 0.0973079 0.551163
0.0389276 -0.242052 0.570708
-0.289483 -0.196463 0.570708
-0.206448 -0.116485 0.570708
-0.240783 -0.0962607 0.570708
0.196012 -0.0292783 0.570708
-0.12842 -0.113064 0.570708
-0.247298 0.0136804 0.498717
0.257698 -0.164586 0.551163
0.261549 0.159748 0.0793583
-0.00126189 -0.265871 0.551163
0.00144401 0.259847 0.570708
-0.26416 -0.194831 0.0572993
0.216584 0.00339457 0.551163
-0.236188 0.135643 0.0187696
-0.0137884 0.0136804 0.496278
0.0598165 0.163859 0.570708
0.171286 -0.0136812 0.497671
-0.0206278 -0.174294 0.570708
-0.27809 -0.217071 0.570708
-0.245877 0.000523295 0.529843
-0.23257 0.151393 0.0335817
-0.26969 -0.0061577 0.551163
0.242026 0.0691216 0.551163
-0.150014 -0.102478 0.570708
0.240401 -0.115896 0.547312
0.265528 0.0014388 0.129777
0.262832 -0.119856 0.535527
0.240401 0.0168743 0.544029
0.0840045 -0.0970592 0.570708
-0.255625 -0.2009 0.0312717
0.249902 0.0213105 0.547461
-0.272845 0.0516347 0.570708
0.196129 -0.23052 0.531853
0.232584 0.160581 0.0259848
0.109912 -0.00227425 0.570708
0.203802 0.0136804 0.521349
-0.10348 0.179475 0.551163
-0.288498 0.280941 0.551163
0.263289 0.0128694 0.357923
-0.00966889 -0.0136812 0.49112
-0.268912 0.0029777 0.484218
0.0778016 0.293171 0.56954
-0.0363046 -0.241841 0.570708
-0.206732 -0.072204 0.551163
0.0857822 0.175048 0.570708
-0.233017 -0.217263 0.0503278
0.293173 0.0259684 0.570214
-0.28543 0.259744 0.551163
0.291677 0.0767587 0.551163
0.26972 -0.0154681 0.15279
-0.0400705 0.0216277 0.570708
-0.243867 -0.208727 0.0504417
0.0526245 0.00533654 0.487838
0.125516 -0.19775 0.551163
0.240833 0.238968 0.551163
0.121537 -0.0136812 0.508491
-0.129359 -0.250562 0.551163
0.177469 0.269527 0.570708
-0.282484 -0.229741 0.570708
-0.24105 0.130903 0.100518
0.165097 -0.262265 0.551163
0.00893581 0.0760851 0.570708
0.126856 -0.195256 0.551163
0.268407 -0.0145499 0.129777
-0.242865 0.168567 0.0610408
0.242806 0.161454 0.0927027
0.208277 -0.0792978 0.551163
-0.106098 0.00717317 0.526927
-0.238414 -0.0850445 0.13172
0.1791 0.227616 0.551163
-0.1804 -0.273419 0.551163
-0.177652 0.176798 0.551163
-0.26523 -0.0954755 0.13145
-0.222525 0.0490776 0.570708
0.216313 -0.032507 0.570708
0.23508 -0.00201741 0.220714
-0.0684338 0.178369 0.570708
-0.263846 0.172768 0.545849
-0.0616626 -0.169591 0.551163
-0.237758 0.00966894 0.271047
0.236389 0.00689291 0.421819
0.258382 -0.0286432 0.546859
-0.211622 -0.0307429 0.551163
-0.0892681 -0.0018573 0.526927
-0.24908 -0.00541172 0.129777
0.293173 -0.128285 0.570002
-0.241668 -0.181909 0.551163
0.0561364 -0.00395662 0.570708
-0.194687 -0.0982165 0.570708
0.247418 -0.18332 0.0410409
0.268152 -0.0448668 0.152299
-0.209992 -0.238907 0.536315
-0.111978 -0.0936714 0.570708
0.286222 0.237613 0.570708
-0.283616 -0.117777 0.551163
0.0512781 -0.0968691 0.570708
0.293173 0.177911 0.565956
0.038905 -0.154221 0.570708
0.1802 0.123682 0.570708
-0.043675 -0.235767 0.551163
-0.159025 -0.266198 0.570708
0.0422062 0.0741294 0.570708
-0.263711 0.0124442 0.435286
0.12022 -0.0136812 0.502334
0.24939 0.0168566 0.198015
-0.0510583 0.293169 0.551163
-0.17811 -0.00206783 0.551163
-0.0863553 -0.27604 0.570708
-0.109216 0.110324 0.551163
0.189767 -0.244416 0.551163
-0.0247672 0.181684 0.551163
0.166501 -0.293171 0.556726
-0.156818 -0.23332 0.551163
-0.209425 0.175292 0.570708
-0.253707 0.0472772 0.551163
-0.211623 -0.0102352 0.551163
0.104557 -0.15685 0.551163
0.0270726 0.0708896 0.551163
0.0846091 0.293171 0.569938
-0.110167 0.290831 0.551163
0.252119 -0.0414504 0.544121
-0.115139 -0.293171 0.555147
0.252129 0.00725684 0.490696
0.248915 -0.210579 0.570708
0.260914 0.0792226 0.551163
0.243016 0.142124 0.551163
0.00215769 0.0383768 0.570708
0.271673 0.174484 0.0416174
-0.153394 -0.0120928 0.487838
-0.240946 -0.0306196 0.551163
-0.0950901 0.121665 0.551163
-0.010268 -0.131668 0.551163
-0.259759 -0.227536 0.055322
-0.114236 0.103572 0.551163
0.118413 -0.0136812 0.521813
-0.0779154 -0.129862 0.551163
-0.186248 0.154532 0.551163
0.232189 -0.288729 0.551163
0.249297 0.0257277 0.547426
-0.188329 0.239442 0.570708
-0.252272 -0.0390894 0.528201
-0.239618 0.0959947 0.570708
0.24374 -0.231722 0.0287902
-0.0570603 0.110256 0.551163
-0.281526 0.176068 0.570708
-0.0438916 0.113838 0.551163
0.0752477 -0.0131602 0.570708
-0.230029 0.263665 0.551163
0.256678 -0.0885715 0.104505
-0.138749 0.126696 0.551163
-0.117154 -0.211433 0.551163
-0.214823 -0.151622 0.570708
-0.195038 -0.00600032 0.526927
-0.018551 0.047912 0.551163
0.228834 -0.00813788 0.551163
-0.206504 -0.15599 0.551163
0.286226 -0.005916 0.570708
0.210244 -0.237521 0.551163
-0.267358 0.0584605 0.134107
-0.0214493 -0.155072 0.551163
-0.168193 -0.20726 0.551163
0.292601 -0.267403 0.551163
0.288605 0.00180033 0.551163
0.253973 0.109239 0.570708
-0.244311 0.167906 0.0502657
-0.128662 0.231541 0.570708
-0.259932 0.160973 0.0540613
0.262962 -0.0190389 0.570708
-0.198808 -0.180785 0.570708
0.251514 0.256631 0.551163
-0.242926 -0.188705 0.0118549
-0.130692 0.0491133 0.570708
-0.0396332 0.21219 0.551163
-0.260702 0.0768441 0.570708
0.233414 -0.142761 0.551163
0.208543 -0.193472 0.570708
0.276117 -0.257089 0.570708
-0.219749 -0.0700371 0.551163
-0.232846 0.149105 0.0413896
-0.182108 0.228653 0.570708
-0.245028 0.189885 0.0855891
0.293173 -0.163622 0.562709
0.221433 0.156385 0.551163
-0.0695383 -0.249625 0.551163
-0.253134 0.130082 0.116839
0.275263 0.059201 0.551163
-0.103384 -0.0478486 0.570708
0.252947 0.126766 0.0909057
0.00338286 0.258109 0.570708
0.192271 0.100845 0.570708
0.146097 0.206406 0.551163
-0.157953 0.0597247 0.570708
0.0997167 -0.0847903 0.570708
0.173342 -0.161743 0.551163
-0.265523 -0.0903721 0.112734
-0.250873 -0.192279 0.551163
0.268371 -0.0050388 0.210944
0.128643 0.284571 0.551163
-0.263436 -0.0127207 0.203562
-0.116474 -0.23385 0.570708
-0.13678 -0.28184 0.551163
0.256383 -0.18071 0.570708
0.0581499 -0.218187 0.551163
-0.207042 0.0804108 0.551163
0.0631488 -0.0136812 0.519609
0.275137 -0.130901 0.570708
0.0513871 0.139597 0.551163
0.263854 -0.107068 0.550146
0.199584 -0.179496 0.570708
-0.245395 0.0643334 0.570708
-0.101465 0.293171 0.555221
-0.201382 0.26171 0.551163
-0.118923 0.187497 0.570708
0.253398 0.119331 0.121397
0.244657 0.188709 0.0762242
-0.111031 0.286563 0.570708
-0.235259 0.0301744 0.127791
0.111389 -0.0647995 0.551163
-0.23544 -0.00338516 0.51908
0.0660362 -0.267103 0.551163
0.018403 -0.262605 0.551163
0.255344 0.0112913 0.548036
0.169879 -0.17401 0.551163
0.257076 -0.174246 0.551163
-0.235705 0.037922 0.154418
-0.138358 0.236889 0.570708
0.257696 -0.0160989 0.1798
0.268862 0.143348 0.00830096
0.0400468 -0.234313 0.570708
-0.243562 -0.221432 0.0514717
0.234425 0.00532073 0.570708
0.0789234 -0.245596 0.570708
0.129895 -0.270463 0.570708
-0.258383 0.00834347 0.542032
0.238167 0.0783684 0.138766
-0.053492 0.0726028 0.570708
0.148489 -0.277807 0.570708
0.00692436 0.146271 0.570708
0.28757 -0.219292 0.551163
0.23407 -0.118526 0.570708
-0.251144 0.194795 0.0527683
-0.00305089 0.075213 0.570708
0.161502 -0.233914 0.570708
-0.280287 -0.0293407 0.570708
-0.103943 -0.210252 0.570708
-0.223724 0.201992 0.570708
-0.0124163 -4.02918e-05 0.487838
0.22182 -0.236919 0.570708
0.258149 0.148901 0.033085
0.260731 -0.194828 0.014423
0.122145 -0.228817 0.551163
-0.251129 -0.114106 0.570708
-0.188665 0.0539605 0.551163
-0.19431 0.286846 0.551163
0.0150393 0.0346114 0.570708
-0.0890456 -0.266114 0.570708
-0.228418 0.219117 0.551163
0.0576419 -0.217634 0.551163
-0.240398 -0.029475 0.546703
-0.24416 -0.195054 0.0293533
-0.219079 0.106759 0.570708
0.183398 0.233319 0.570708
0.24431 0.162197 0.0565337
-0.0247485 -0.0160703 0.570708
-0.241121 -0.11137 0.535527
-0.234536 0.00934869 0.14572
0.248431 0.220272 0.551163
-0.237298 -0.175783 0.570708
0.147284 0.0210545 0.570708
0.258816 0.0602732 0.11458
0.164654 -0.0912852 0.551163
-0.258383 0.000691535 0.5301
0.257016 0.0162808 0.35571
0.265356 0.112571 0.570708
0.138013 0.202882 0.570708
0.258639 0.269217 0.551163
-0.263846 0.159556 0.55039
-0.0133151 0.218535 0.551163
0.250983 -0.0191205 0.551163
0.263021 -0.134139 0.0916222
-0.111517 0.124692 0.551163
-0.196732 -0.187793 0.551163
0.00995758 0.246609 0.551163
0.267308 -0.0595461 0.119388
0.0395038 -0.235098 0.531716
0.211736 -0.196273 0.570708
-0.213734 0.114429 0.551163
-0.293173 0.181509 0.563788
-0.235976 -0.00539485 0.302812
-0.193392 0.293171 0.560792
0.143978 -0.20391 0.551163
-0.147365 0.0899071 0.570708
-0.229865 -0.0415136 0.551163
0.226087 0.0561575 0.551163
-0.234755 0.000821043 0.207391
0.103779 0.24329 0.551163
-0.216087 -0.293171 0.56933
-0.266653 0.00950061 0.345309
-0.269207 0.0262872 0.154754
-0.07946 0.0494101 0.570708
0.214751 0.00252376 0.487838
0.186408 0.173886 0.570708
0.0490413 -0.0297515 0.551163
-0.0255209 -0.0136812 0.52659
-0.0608382 0.0495236 0.570708
-0.011944 0.0975656 0.551163
0.176303 -0.1405 0.551163
-0.234726 0.000710461 0.307827
0.234612 -0.000274526 0.267086
0.131611 -0.0821654 0.551163
-0.209579 -0.215533 0.570708
-0.242443 -0.088178 0.551163
-0.0511349 -0.0136812 0.50182
-0.235937 0.00524708 0.298684
-0.0123306 0.293171 0.570707
-0.03805 -0.286492 0.551163
-0.271486 -0.193749 0.0325176
-0.0762475 -0.0461502 0.551163
0.267499 -0.0082981 0.271612
0.244438 0.0155295 0.168162
0.163923 0.0196047 0.551163
-0.0806367 0.0879567 0.551163
0.254733 -0.0176119 0.526927
-0.239858 0.01177 0.346448
0.113965 -0.0120796 0.570708
-0.251623 0.192097 0.0402556
0.237027 0.115014 0.551163
0.181117 0.00626713 0.570708
0.220683 -0.2275 0.54065
0.169572 -0.235648 0.570708
-0.186555 -0.0387329 0.551163
-0.209162 -0.293171 0.566485
-0.0866518 -0.0133864 0.570708
-0.247733 0.0164155 0.475172
-0.263583 -0.110128 0.535527
-0.0969148 0.279525 0.570708
-0.188016 -0.00199834 0.487838
0.163077 -0.0136812 0.510275
-0.0911915 -0.251263 0.570708
-0.190705 -0.127026 0.551163
-0.235181 0.215567 0.570708
-0.114325 -0.232551 0.570708
-0.247156 0.0549886 0.551163
-0.107438 0.260112 0.551163
0.260041 -0.00199775 0.179813
0.242389 -0.0142892 0.401269
-0.0948522 -0.171989 0.551163
0.23674 0.00819734 0.273089
-0.265224 0.095567 0.121532
0.222188 0.17227 0.570708
0.0209984 -0.205063 0.570708
-0.00905019 -0.256059 0.570708
-0.10841 -0.0136812 0.524764
0.292168 -0.170719 0.570708
0.285144 0.073419 0.570708
-0.139683 -0.118803 0.570708
0.260107 -0.0131226 0.179813
0.260696 -0.155936 0.535527
0.293173 0.251636 0.565532
0.245602 -0.179708 0.551163
-0.0773318 0.0444258 0.551163
-0.0444518 0.221881 0.551163
-0.26402 -0.11259 0.570708
0.251324 -0.194897 0.0334742
-0.233527 0.14042 0.0220427
-0.078372 -0.0122565 0.526927
0.261219 -0.165478 0.0902193
-0.256522 0.168357 0.0460755
0.241021 -0.0818572 0.535527
-0.209382 -0.248624 0.551163
-0.252717 -0.0169131 0.539759
-0.270303 -0.0450993 0.551163
0.0124232 0.131929 0.570708
-0.106414 -0.234148 0.570708
0.220163 -0.0170249 0.551163
-0.113418 0.0119339 0.570708
-0.226936 0.293171 0.565012
-0.2793 -0.260221 0.551163
0.0310373 -0.00560179 0.570708
-0.232789 -0.228807 0.0322422
0.233914 -0.239674 0.0263779
-0.0726908 -0.243761 0.551163
-0.285107 0.229318 0.570708
-0.21702 0.0914354 0.551163
0.0454047 0.0426079 0.551163
-0.262128 -0.0140287 0.219898
-0.231775 -0.0377514 0.570708
-0.256468 0.0919911 0.13299
0.271312 0.164456 0.050629
0.268294 0.0590411 0.551163
-0.134375 -0.123083 0.551163
-0.201261 0.078465 0.570708
0.228302 0.208812 0.551163
0.243457 0.172788 0.0752809
-0.270136 -0.148068 0.570708
-0.271615 -0.154067 0.551163
-0.183593 0.254972 0.551163
0.0992408 -0.114952 0.570708
-0.144208 0.0836942 0.570708
-0.244311 -0.207538 0.0446095
-0.111311 -0.157995 0.551163
-0.11891 -0.0145168 0.570708
-0.179051 -0.0373303 0.551163
-0.292237 0.113911 0.551163
-0.242135 0.137682 0.0468254
0.0558806 0.0504504 0.551163
0.234538 0.00714905 0.131341
-0.269012 0.0650871 0.570708
0.0589258 0.156504 0.570708
0.282704 -0.0997315 0.570708
-0.262525 0.0288683 0.125762
0.176794 0.13079 0.551163
-0.0844874 -0.0136812 0.512323
0.0889135 -0.193174 0.570708
0.10149 -0.0866655 0.570708
0.271673 0.154537 0.0411986
0.254174 0.194485 0.0725305
0.0245228 0.1233 0.570708
0.209583 0.254051 0.570708
-0.0824634 -0.0136812 0.493962
0.271673 0.152853 0.0333011
0.0802661 0.0136804 0.526444
-0.241946 -0.0846284 0.535527
0.258732 0.0401718 0.154962
0.241191 0.133358 0.0963092
-0.0833884 0.0350821 0.570708
0.23511 -0.0275393 0.152212
-0.255036 -0.128158 0.551163
0.145191 0.1412 0.551163
-0.253411 0.0172452 0.252012
-0.245058 0.0150748 0.165603
-0.242918 -0.0113627 0.167176
-0.2214 -0.260319 0.570708
-0.117791 -0.215402 0.551163
-0.293173 -0.259685 0.569751
-0.263846 -0.110591 0.548662
-0.242936 -0.203907 0.570708
0.0514531 -0.216937 0.551163
0.0331494 -0.03968 0.570708
0.0496505 -0.288793 0.551163
0.120578 0.293171 0.551241
0.248679 -0.0147038 0.548036
-0.153453 -0.0504519 0.551163
-0.260857 -0.22755 0.012876
-0.259889 -0.0735395 0.551163
0.0481116 -0.163434 0.551163
0.248084 0.124589 0.551163
-0.250346 -0.189369 0.0625433
-0.0766029 -0.00646996 0.570708
-0.173286 0.204108 0.570708
0.219809 0.234243 0.570708
0.0103658 0.143444 0.551163
-0.118264 0.0748313 0.570708
-0.143426 0.24432 0.570708
0.11696 0.0135981 0.570708
-0.024377 -0.293171 0.559891
-0.0313473 -0.1158 0.570708
0.204571 -0.048037 0.570708
-0.157382 -0.260686 0.551163
-0.236577 -0.228086 0.0567992
0.286306 0.0838325 0.551163
0.293173 -0.00883001 0.552184
0.115175 -0.150739 0.570708
-0.0509705 -0.0425858 0.570708
-0.262254 0.167631 0.570708
0.243487 0.173314 0.0811847
-0.26395 0.117738 0.108802
-0.290952 -0.177901 0.570708
0.18308 -0.0136812 0.525432
-0.103946 -0.134751 0.570708
-0.00327834 -0.0456701 0.570708
0.205294 -0.198843 0.551163
0.235742 -0.103356 0.551163
-0.251499 0.147442 0.570708
0.162259 0.0136804 0.509544
-0.249429 -0.162311 0.551163
-0.0124343 0.0136804 0.501429
-0.271673 -0.217196 0.0299965
0.268365 -0.00385037 0.570708
0.268695 0.00382807 0.215729
-0.0557316 0.0492545 0.570708
-0.0636239 0.263641 0.551163
0.107854 -0.280782 0.570708
0.262045 0.169849 0.00112854
-0.183405 0.203882 0.551163
-0.255988 0.180442 0.0312717
0.0668949 0.268185 0.570708
0.220897 -0.03013 0.551163
-0.270409 0.151709 0.056888
0.286043 -0.164009 0.570708
0.055825 -0.116777 0.570708
0.0496739 0.129941 0.551163
-0.287932 0.209554 0.551163
-0.232721 -0.198517 0.0197115
0.0491719 0.236786 0.570708
0.258382 0.00275482 0.544034
0.206489 0.267164 0.570708
-0.253969 0.167904 0.535527
0.246645 0.129986 0.535527
0.172341 0.0136804 0.520471
-0.211137 -0.00900387 0.526927
-0.174177 0.026807 0.570708
-0.00361842 -0.128559 0.570708
-0.159528 -0.0704444 0.570708
0.141907 -0.0310903 0.551163
0.235266 0.0302518 0.145848
0.239291 0.0199278 0.539884
0.00878239 -0.0880667 0.570708
-0.250442 -0.145825 0.570708
-0.270971 -0.0220828 0.570708
0.239408 0.102339 0.108207
-0.0797064 -0.103746 0.551163
0.240922 0.167775 0.551163
-0.0782205 0.0079312 0.570708
0.263342 -0.267071 0.551163
-0.124083 0.235423 0.551163
0.179314 -0.281136 0.570708
-0.261613 -0.0483374 0.551163
0.107695 -0.00710562 0.551163
-0.12147 -0.0442418 0.570708
0.0756644 0.230319 0.570708
0.159631 -0.212814 0.570708
0.143525 0.284427 0.570708
0.293173 -0.229277 0.561122
-0.0446501 0.00127813 0.551163
0.268832 -0.00331642 0.180047
0.211263 0.292455 0.551163
-0.263351 0.128163 0.10355
0.083201 0.146666 0.551163
0.187679 -0.159455 0.570708
-0.233786 0.164736 0.0031013
0.240401 0.140484 0.542799
-0.24118 -0.00926119 0.536292
0.253414 0.0172464 0.519198
0.263854 0.139565 0.543039
-0.19479 0.110451 0.570708
-0.240398 -0.15261 0.549253
-0.0321189 0.279672 0.570708
0.259946 -0.213551 0.058838
0.224856 -0.236076 0.570708
0.0927005 -0.128162 0.570708
0.0132495 -0.232151 0.543003
0.239183 0.0984207 0.112108
0.271673 0.166285 0.0441205
0.236651 0.00786648 0.411897
-0.266789 -0.00936529 0.35123
0.220723 0.0792699 0.551163
0.252063 0.00972474 0.129777
-0.248227 0.132815 0.0887519
-0.230348 -0.220633 0.570708
-0.00375479 0.019444 0.551163
0.182675 -0.0744782 0.570708
-0.189842 0.146179 0.551163
-0.266655 -0.0706843 0.12696
0.0414002 0.288953 0.570708
0.240401 0.158332 0.547331
-0.181598 -0.0136812 0.525259
-0.245553 -0.125464 0.570708
-0.131908 -0.0395343 0.551163
0.0491325 0.19717 0.570708
0.238818 -0.0357319 0.551163
0.293173 -0.0631919 0.570557
-0.0330706 -0.0824441 0.551163
-0.201234 0.258139 0.570708
-0.00581732 0.152928 0.570708
-0.220161 0.101394 0.570708
0.270967 0.147907 0.0149726
0.293173 -0.126277 0.567167
-0.256639 -0.0625146 0.551163
0.131562 0.272925 0.551163
-0.263846 0.102579 0.543334
-0.258806 0.0535651 0.551163
-0.0242554 -0.0136812 0.502932
-0.285661 -0.0255536 0.570708
-0.0476456 -0.227277 0.570708
0.235914 -0.273617 0.551163
-0.250896 0.167511 0.535527
-0.234588 0.000192708 0.425509
-0.130634 -0.293171 0.552444
0.0355585 -0.249082 0.551163
-0.236122 -0.0656598 0.570708
-0.158821 0.124376 0.551163
-0.208083 -0.243681 0.570708
-0.0144362 0.212101 0.551163
0.0487194 0.118368 0.570708
-0.240504 -0.121403 0.104363
-0.140324 0.132579 0.551163
-0.107881 0.256267 0.551163
-0.0709439 -0.0136812 0.525526
-0.0158049 0.24062 0.570708
0.0475103 0.0136804 0.501122
-0.271671 -0.114648 0.551163
0.248297 0.0684863 0.570708
0.117219 0.0136804 0.50281
0.265399 -0.0376582 0.551163
-0.000967085 0.0481027 0.570708
0.288952 0.291453 0.56684
0.261112 -0.2361 0.0427089
-0.244323 -0.0841087 0.551163
-0.265722 0.260116 0.551163
-0.044533 0.128604 0.570708
0.048383 0.280631 0.551163
0.206789 0.0321439 0.570708
-0.255884 -0.162845 0.551163
-0.0357052 0.0136804 0.519541
0.252013 -0.19751 0.0572448
-0.260368 0.00412632 0.533211
-0.245877 0.0196846 0.543218
-0.0160594 0.282919 0.570708
0.147191 0.126673 0.570708
0.2245 0.189249 0.551163
-0.253091 -0.0355586 0.540529
0.241182 0.0205647 0.54991
-0.206292 -0.239785 0.570708
-0.0122421 -0.0183256 0.570708
-0.269706 3.96091e-06 0.310151
-0.0136127 -0.178187 0.570708
-0.130698 -0.00243294 0.551163
-0.267594 -0.00791574 0.29156
-0.236458 -0.00719897 0.201175
0.00294018 0.222152 0.551163
-0.220348 -0.0988975 0.551163
0.112985 -0.231188 0.551163
0.226464 -0.147131 0.570708
-0.257979 -0.183288 0.0593585
0.0355688 -0.250235 0.551163
0.15553 0.0496709 0.551163
-0.241694 -4.24438e-07 0.144431
0.03625 0.00326836 0.570708
0.0161166 -0.23383 0.570708
-0.250229 -0.0486684 0.151359
0.0107918 -0.202463 0.551163
-0.217306 -0.105595 0.570708
-0.256863 0.150089 0.0247505
-0.207718 0.0913739 0.570708
-0.0201113 0.124382 0.570708
0.268922 -0.031467 0.127036
-0.248206 0.0132975 0.526927
0.104454 -0.0941673 0.570708
0.156586 -0.0136812 0.504316
-0.109835 -0.174159 0.570708
0.236008 -0.00547474 0.469448
-0.184537 0.231443 0.570708
0.293173 0.0697208 0.556624
0.280668 0.02398 0.551163
0.259946 0.17366 0.05698
0.239354 0.0112504 0.286461
0.236314 -0.240081 0.0198395
-0.153875 0.224366 0.551163
0.0495676 -0.159315 0.570708
0.259946 0.182182 0.0368943
0.258647 0.214992 0.551163
0.236543 0.00746681 0.411845
0.258764 0.0158125 0.23545
-0.263235 0.169971 0.551163
-0.270443 -0.229204 0.0526998
0.119701 0.0648683 0.551163
-0.075611 -0.128071 0.551163
0.0397053 -0.11307 0.551163
-0.230019 0.043294 0.570708
-0.271336 0.0324862 0.570708
-0.172526 0.0136804 0.507983
0.0697362 0.234861 0.570708
0.00382861 0.26691 0.551163
0.191951 0.0591665 0.570708
-0.0190968 0.16111 0.570708
-0.182701 0.293171 0.557196
-0.260629 0.209648 0.551163
0.250369 0.144623 0.110674
0.202113 -0.0529286 0.551163
-0.2458 -0.0363942 0.156563
0.263854 -0.0261708 0.550827
-0.136766 0.151314 0.570708
0.0131613 -0.0560104 0.570708
-0.179516 0.139174 0.570708
-0.146935 -0.130355 0.551163
0.0176179 -0.0996367 0.570708
-0.242278 0.0104276 0.526927
0.26867 -0.268118 0.551163
0.0168084 -0.0419527 0.551163
-0.0956959 0.000969589 0.570708
0.266358 -0.0760744 0.119485
-0.225099 -0.293171 0.561748
0.163282 0.227364 0.551163
-0.24281 0.15027 0.00376141
0.233052 0.184457 0.0325677
0.293173 0.135449 0.552476
0.14406 0.194342 0.570708
0.240927 0.128771 0.0990629
0.198375 -0.1444 0.570708
0.0924245 0.271375 0.551163
0.0106602 0.143007 0.570708
0.237884 -0.195225 0.00498065
0.236068 0.00569739 0.48003
0.293173 -0.250288 0.552655
0.18802 -0.23065 0.551163
-0.044162 -0.169395 0.570708
0.217166 0.173098 0.570708
0.0528911 0.0780343 0.551163
0.263854 -0.0763748 0.54398
-0.167923 -0.238646 0.570708
0.132432 0.0115959 0.487838
0.106237 -0.0868167 0.570708
0.257538 0.134547 0.0316676
-0.26891 0.00298508 0.287556
0.14935 0.0461068 0.570708
-0.251066 0.00618565 0.542603
0.264201 -0.101086 0.570708
0.243976 0.173359 0.0470019
0.275586 -0.243418 0.570708
-0.247851 0.181762 0.0480173
0.252695 0.0827887 0.535527
0.202095 -0.0875195 0.551163
-0.26217 0.148702 0.0930338
-0.242961 0.0195423 0.546413
-0.00851816 -0.0839227 0.551163
0.0577479 0.0166455 0.570708
-0.0735924 0.291985 0.570708
0.246375 0.0502611 0.551163
0.212626 -0.157326 0.551163
0.0998523 0.0349625 0.551163
-0.245877 -0.0269094 0.527766
0.241762 -0.0136613 0.29238
-0.240364 0.178452 0.570708
0.261106 0.0240583 0.544746
-0.0208026 -0.225653 0.570708
-0.253445 -0.125104 0.570708
0.157676 -0.00492824 0.487838
-0.20503 0.14599 0.551163
0.218849 -0.131685 0.551163
-0.261886 -4.24438e-07 0.13454
-0.0070371 0.0811404 0.551163
-0.245877 -0.0231212 0.541734
-0.195395 -0.0133845 0.487838
-0.166839 0.00929785 0.551163
-0.00461939 -0.164673 0.570708
-0.221789 -0.159206 0.551163
0.260875 0.143917 0.0452243
0.25915 0.190124 0.0814624
-0.00799146 0.211681 0.551163
-0.213277 -0.0136812 0.510452
-0.0311946 0.252228 0.551163
0.237625 -0.195067 0.0574566
0.00689903 0.285833 0.551163
0.250532 0.15225 0.570708
-0.168644 -0.0526484 0.551163
-0.0370439 0.0401318 0.570708
0.260351 -0.128908 0.535527
0.284706 0.208741 0.570708
-0.0286614 -0.0973731 0.551163
0.178598 0.171602 0.551163
0.240912 0.291533 0.570708
-0.0802722 -0.237984 0.551163
0.165078 0.11217 0.570708
-0.259277 -0.0156752 0.39504
-0.0347429 -0.268623 0.570708
-0.291911 -0.187872 0.570708
-0.24118 0.0028874 0.536947
-0.0823911 -0.293171 0.564433
0.24639 -0.016053 0.401671
0.110193 -0.0412431 0.551163
0.251306 0.0173702 0.278005
0.244515 -0.21343 0.544095
0.178845 0.0136804 0.49845
0.120279 -0.224206 0.570708
0.0567371 -0.0660318 0.570708
0.251983 0.0152577 0.548036
0.184956 0.00547367 0.551163
-0.107467 0.0136804 0.516389
-0.254496 0.169832 0.0598548
0.0152631 0.132164 0.570708
0.197161 -0.00695446 0.551163
-0.252337 -0.00463482 0.544012
0.0314724 0.0882533 0.570708
-0.0992055 0.267159 0.570708
-0.237516 0.256762 0.551163
0.197255 -0.0938906 0.570708
-0.248709 -0.159554 0.570708
-0.244904 -0.192432 0.551163
0.194313 -0.0399937 0.551163
-0.152385 -0.0132247 0.487838
0.1932 -0.143555 0.570708
-0.2195 0.0136804 0.526153
-0.104214 0.137186 0.551163
-0.140116 -0.0497205 0.570708
0.24924 -0.0269024 0.570708
0.122728 0.0181179 0.551163
0.188872 0.0255122 0.570708
-0.128532 0.171338 0.551163
-0.253264 -0.0987746 0.541515
0.0565797 -0.114329 0.570708
0.264943 -0.100695 0.108636
-0.284874 0.239673 0.570708
-0.0358064 0.151949 0.570708
-0.01847 0.251454 0.551163
0.263815 0.165176 0.551163
-0.271497 0.181628 0.0313693
-0.232292 0.165443 0.551163
-0.247229 0.0733548 0.551163
-0.293173 -0.0465744 0.563789
0.24761 -0.0163796 0.401711
0.221377 0.167905 0.551163
-0.118075 0.027635 0.551163
-0.0111169 0.241879 0.551163
-0.121949 0.0136804 0.526391
-0.0190858 -0.00145379 0.487838
0.132184 -0.00697946 0.526927
0.159946 -0.225783 0.570708
-0.0331559 0.229549 0.551163
-0.132871 0.293171 0.566177
0.0156134 -0.0136812 0.507501
0.241951 -0.0138502 0.47341
-0.126339 -0.16199 0.551163
0.245226 -0.185019 0.0630226
0.0664291 0.186402 0.570708
-0.284379 0.0842588 0.570708
0.268601 -0.00418267 0.252474
-0.293173 -0.0666431 0.551921
0.293173 -0.0918235 0.565427
0.213115 0.149386 0.570708
-0.243989 -0.198975 0.0447665
-0.246445 0.0265046 0.541499
-0.258734 -0.219526 0.018468
-0.250213 -0.194679 0.0494321
-0.119041 -0.0333642 0.570708
-0.190729 -0.177581 0.570708
-0.119531 0.293171 0.553119
-0.136864 -0.237088 0.53254
-0.258383 -0.013491 0.527143
-0.23257 -0.210907 0.0302923
0.226135 0.152276 0.570708
-0.0931343 -0.262684 0.570708
-0.137965 0.209115 0.570708
-0.253507 0.145967 0.551163
-0.134927 -0.155246 0.570708
-0.234536 -0.0149036 0.136027
0.133943 0.216161 0.551163
-0.00723067 0.164158 0.551163
0.273046 0.207473 0.551163
-0.293173 0.10695 0.566621
0.0952561 -0.120687 0.570708
-0.249313 0.180957 0.037509
-0.245877 -0.0307599 0.544368
0.123629 -0.0136812 0.518267
-0.153071 0.0713614 0.570708
0.123334 -0.119343 0.551163
0.051545 -0.204371 0.570708
-0.156906 -0.179363 0.570708
0.2266 -0.00729093 0.570708
0.0689803 -0.0185486 0.570708
-0.0434751 -0.00463217 0.570708
-0.110638 -0.153571 0.570708
0.203604 0.00156289 0.526927
0.255444 0.0167022 0.436492
-0.260757 -0.0405401 0.121606
-0.270996 -0.159441 0.551163
0.29015 -0.184393 0.551163
-0.257456 -0.202142 0.0312717
0.288671 -0.218667 0.570708
0.263854 0.0970213 0.540844
0.0453234 0.0573764 0.570708
0.12202 -0.0548033 0.570708
-0.188042 0.0845681 0.551163
0.219072 -0.28365 0.551163
-0.236428 -0.00708708 0.216559
-0.00547811 -0.259241 0.551163
0.188259 -0.105702 0.551163
-0.257286 -0.0162077 0.4173
0.249934 0.0136804 0.513557
0.240158 -0.115384 0.110632
-0.270918 -0.245104 0.570708
0.0123551 0.244983 0.570708
0.0882586 -0.159923 0.570708
-0.117562 0.103365 0.570708
-0.200365 -0.221273 0.551163
-0.24849 -0.016618 0.315367
-0.246509 0.0160878 0.466057
0.285661 -0.159134 0.570708
0.237067 0.00896138 0.441257
0.254656 -0.205164 0.0168134
-0.246255 0.166629 0.0767127
0.0159406 0.168695 0.570708
-0.276231 0.111665 0.551163
0.28994 -0.0472098 0.570708
0.0756812 -0.208568 0.551163
-0.192267 0.204919 0.551163
-0.247003 0.0162201 0.27962
-0.0440995 0.26579 0.551163
0.16272 0.111142 0.551163
0.241182 0.0388489 0.540591
0.285595 -0.136423 0.551163
0.0255983 0.0136804 0.509804
0.260109 -0.127009 0.570708
-0.229162 0.154538 0.551163
0.0726218 -0.263717 0.551163
-0.244396 -4.24438e-07 0.142398
-0.202422 0.166373 0.551163
0.103796 -0.140103 0.551163
-0.029075 -0.175706 0.570708
-0.240398 0.0225986 0.542818
-0.0846988 -0.0462198 0.551163
0.0836731 0.234676 0.551163
0.194858 0.21969 0.551163
0.170417 -0.28592 0.551163
0.114331 0.206523 0.570708
0.00356001 0.253159 0.551163
0.113776 -0.0534808 0.570708
0.248339 -0.00363765 0.548036
-0.0362537 0.168485 0.551163
-0.258429 -0.172564 0.570708
0.293173 0.179471 0.568845
0.0624671 0.0478074 0.570708
0.057166 0.0775292 0.570708
0.277234 0.231808 0.551163
0.249647 -4.24438e-07 0.141832
0.245348 0.0024467 0.526927
-0.201052 0.181197 0.551163
-0.238496 -4.24438e-07 0.15562
0.0424272 -0.291019 0.570708
-0.00551289 -0.166154 0.570708
0.263854 -0.170762 0.550117
0.242323 0.0142222 0.305312
-0.14143 -0.012052 0.570708
-0.263063 0.0321472 0.54248
-0.0612089 0.0157255 0.570708
0.0942244 0.0136804 0.511326
0.2842 0.263987 0.570708
0.218449 -0.101765 0.551163
-0.26908 0.167869 0.570708
0.0196416 0.0174747 0.551163
-0.26682 0.0728584 0.551163
-0.0961959 0.0116587 0.570708
0.263854 0.0626995 0.547608
0.0593633 0.283682 0.570708
-0.156976 -0.0237363 0.551163
-0.14625 -0.0335505 0.551163
-0.26856 -0.00429664 0.190953
0.267446 0.0571474 0.139899
-0.19807 0.0136804 0.499885
-0.0213636 0.0433413 0.551163
-0.00922053 -0.228651 0.541554
0.0714416 0.0576664 0.551163
0.186134 0.278343 0.551163
0.239887 -0.293171 0.564742
0.24788 -0.107864 0.535527
0.262917 0.135935 0.114028
-0.112156 -0.242075 0.551163
0.0851712 0.227753 0.551163
-0.20827 -0.161153 0.551163
-0.244369 -0.225595 0.0369238
0.244073 -0.206628 0.0478549
0.238162 -0.0806529 0.135494
0.0133094 0.0510323 0.570708
0.252129 -0.0100509 0.516093
0.0517238 -0.0489061 0.551163
0.010002 0.029031 0.570708
-0.254426 0.18409 0.0312717
0.263075 0.172776 0.540639
0.268097 -0.236898 0.0478441
0.254701 -0.0655442 0.570708
-0.00615174 -0.0477826 0.551163
0.268321 -0.00522761 0.423236
-0.245005 0.116047 0.12279
0.00493556 0.0602356 0.551163
0.0127821 -0.0929242 0.570708
0.0675244 -0.192442 0.570708
-0.170431 0.0442378 0.551163
-0.256629 -0.200404 0.551163
-0.263846 -0.205627 0.542638
-0.270394 0.191109 0.0413466
-0.014531 0.0562257 0.570708
-0.097763 0.240329 0.570708
0.018117 0.109057 0.551163
-0.235729 -0.00446907 0.23013
-0.238969 -0.158845 0.551163
-0.138788 0.0794888 0.570708
-0.0624239 -0.213604 0.570708
0.188971 0.165999 0.551163
0.0836006 -0.10851 0.570708
0.216977 -0.0768811 0.570708
0.240886 -0.0713398 0.551163
-0.244439 -0.0155341 0.420068
0.24431 -0.218748 0.039584
0.251352 -0.0854894 0.54343
-0.167442 -0.259552 0.551163
0.260974 -0.015184 0.179258
-0.0869237 -0.167105 0.551163
-0.244311 -0.229704 0.0405914
-0.247892 0.293171 0.560197
-0.0235705 0.0159073 0.570708
-0.0710526 -0.19251 0.551163
-0.0138687 -0.024236 0.551163
0.0974728 -0.165953 0.551163
-0.225902 0.279493 0.570708
-0.212669 -0.217541 0.551163
-0.148679 -0.0870929 0.570708
-0.0594316 0.228103 0.551163
-0.293173 -0.221693 0.553685
-0.157173 0.0152221 0.570708
-0.24049 -0.179264 0.535527
-0.256081 -0.187788 0.0312717
0.235991 -0.00541016 0.343213
0.239667 0.0271083 0.538899
-0.246853 -0.01618 0.233353
-0.0645461 -0.171912 0.570708
-0.263846 -0.0509542 0.544769
0.240401 -0.141173 0.541223
0.29307 0.112612 0.551163
-0.275429 0.128523 0.551163
0.225902 -0.180295 0.551163
-0.00111324 -0.172396 0.570708
-0.245342 0.190057 0.0493469
-0.211085 -0.0856646 0.551163
0.243632 0.15527 0.0516515
-0.145531 -0.0136812 0.488118
0.185101 -0.180864 0.570708
0.243862 0.146339 0.039526
0.139949 -0.268133 0.551163
-0.103714 0.0136804 0.51933
0.265361 -0.0107988 0.455236
-0.148023 -0.167988 0.570708
0.215264 0.13835 0.551163
0.0469546 0.0386988 0.551163
-0.0865273 0.260764 0.570708
0.293173 -0.206005 0.566971
0.0276344 0.0136804 0.492051
-0.0963109 -0.147999 0.551163
0.255625 -0.180116 0.570708
-0.233139 0.143873 0.0375839
-0.246607 0.0136804 0.491037
0.255128 -0.0513084 0.570708
-0.129288 0.11769 0.570708
0.104752 0.0419226 0.551163
-0.18528 -0.247351 0.570708
0.230969 -0.132364 0.570708
-0.0290651 0.274947 0.551163
-0.123737 0.0274321 0.551163
-0.126387 -0.188195 0.551163
0.225662 -0.293171 0.558643
0.247739 0.0395434 0.570708
0.245874 -0.0257977 0.544283
-0.172963 -0.0939167 0.570708
-0.0700591 -0.190615 0.551163
0.123333 -0.159448 0.570708
0.291329 0.0402374 0.570708
0.102885 -0.17653 0.570708
-0.199518 -0.251554 0.551163
0.234748 0.0212452 0.138635
0.237892 -4.24438e-07 0.149274
-0.252622 0.0174565 0.256445
0.125491 -0.0309947 0.551163
0.187543 -0.0934625 0.551163
-0.216922 0.0461497 0.570708
0.261192 -0.186819 0.0453768
0.234752 -0.168415 0.551163
-0.260736 0.103272 0.551163
-0.234536 0.0135884 0.160491
0.273488 -0.281785 0.570708
-0.120749 -0.163419 0.570708
0.293173 -0.0704238 0.557893
0.164747 -0.171426 0.570708
0.0520185 -0.107555 0.551163
-0.00674063 -0.232747 0.54325
0.238121 -0.19017 0.00835794
0.263076 -0.0130829 0.262611
-0.267884 0.00682776 0.501551
0.093532 -0.267643 0.570708
-0.243489 0.148052 0.0139893
0.259946 -0.186142 0.0446705
0.244992 -0.189179 0.535527
-0.175112 0.061331 0.551163
-0.187429 0.293171 0.551835
-0.255595 -0.0914195 0.103491
0.0513327 -0.286721 0.551163
0.0337622 0.189643 0.570708
0.251113 0.163117 0.570708
0.259242 0.0156843 0.244833
-0.243817 -0.224742 0.0459571
0.259946 -0.231134 0.0477366
0.240401 0.111885 0.540526
0.10629 0.251616 0.551163
-0.161578 0.161883 0.551163
0.251026 -0.0990403 0.541268
-0.253528 -0.0258741 0.126827
0.219168 0.0286316 0.570708
-0.279334 -0.0806071 0.551163
0.252129 -0.00936597 0.510738
-0.283426 -0.195848 0.570708
0.238099 -4.24438e-07 0.163385
0.169863 -0.049172 0.551163
-0.0478633 -0.230947 0.542505
-0.263696 0.0124587 0.457834
0.263073 0.0161409 0.54071
-0.250962 -0.211398 0.0609175
0.00353599 -0.0207399 0.570708
0.234538 -0.00818252 0.157311
-0.206493 0.034443 0.570708
0.0777818 -0.214966 0.551163
-0.292083 0.285939 0.552421
0.122636 0.113448 0.570708
0.0377084 0.278983 0.551163
0.236113 0.0320345 0.570708
-0.244311 0.17224 0.0382845
0.244548 -0.0155597 0.508123
-0.140659 -0.237455 0.570708
-0.271441 0.0459385 0.570708
-0.0722323 -0.129277 0.570708
0.263235 0.130403 0.107309
-0.28183 0.0092645 0.570708
0.202224 -0.227245 0.535822
0.0948315 0.0802426 0.551163
-0.240882 0.00721281 0.168936
-0.240154 0.0783272 0.138783
-0.293173 -0.0619709 0.556969
-0.242894 0.143347 0.00941261
0.130637 -0.206377 0.570708
-0.2887 -0.0632785 0.551163
-0.225529 0.0136804 0.505174
-0.26024 -0.182267 0.0761883
-0.236754 -0.00830825 0.525062
-0.0271592 0.000715256 0.570708
0.116573 0.145009 0.551163
0.2645 0.117526 0.551163
0.264769 -0.240603 0.0400829
0.234538 -0.00672133 0.155357
-0.0222808 -0.245022 0.551163
0.00834697 -0.272088 0.570708
-0.255616 0.154682 0.551163
-0.244509 -0.213077 0.551163
0.0300453 0.240134 0.551163
0.240401 -0.123318 0.542219
0.245874 0.0194802 0.540452
0.000507683 0.260374 0.570708
-0.246007 0.0290736 0.539417
-0.269239 0.00175218 0.497566
-0.23995 0.194739 0.0277104
0.0285283 0.0535791 0.551163
-0.244779 -0.188064 0.0629543
-0.238346 0.0102567 0.182117
-0.2357 -0.0378427 0.14219
-0.258186 0.145687 0.551163
-0.240019 0.180395 0.0573215
0.268475 0.00464978 0.48088
-0.263268 0.140239 0.535527
0.075618 0.219738 0.570708
0.0191186 0.130321 0.570708
-0.270299 -0.229945 0.0539663
0.235247 -4.24438e-07 0.169854
-0.00397745 0.00840437 0.551163
-0.21298 -0.234064 0.570708
0.208579 0.143657 0.551163
0.269663 -0.252404 0.570708
0.209619 -0.159773 0.570708
0.0639009 0.0758824 0.570708
-0.254659 -0.0169108 0.180457
-0.212378 -0.179074 0.551163
0.248692 0.156215 0.0312717
-0.265884 -0.0102704 0.350457
-0.24351 0.151094 0.535527
-0.244311 -0.236481 0.0348806
0.257282 -0.0162096 0.414346
-0.263985 0.0771742 0.551163
0.266114 -0.159222 0.570708
-0.293173 -0.119381 0.570109
0.278357 -0.212368 0.551163
0.24686 0.0810024 0.551163
0.293173 -0.0332393 0.554672
-0.173747 0.00914389 0.570708
0.251341 0.166874 0.0463707
-0.196346 0.135384 0.570708
0.0211875 0.133616 0.551163
0.245874 0.00265162 0.53239
0.260812 -0.172559 0.0854156
0.0357347 -0.164505 0.570708
-0.032053 -0.266714 0.551163
0.241182 0.0360916 0.545211
-0.145916 -0.0727315 0.551163
-0.0213798 -0.0645121 0.570708
0.247871 -0.176752 0.0731089
0.0600808 -0.227425 0.538795
0.039108 -0.212611 0.551163
0.165137 -0.145502 0.570708
0.0965302 0.00557062 0.570708
0.202029 -0.0477152 0.570708
-0.00587595 -0.227436 0.551163
-0.031343 0.00698739 0.551163
-0.0538484 0.0136804 0.503273
0.00711936 0.228021 0.570708
-0.251399 -0.199488 0.535527
0.273256 0.135586 0.551163
-0.243407 -0.228383 0.0137092
-0.270302 0.136113 0.0220645
-0.0179104 -0.0892111 0.570708
0.033788 0.0302094 0.570708
0.249937 -0.00344148 0.551163
0.261149 0.137643 0.0234578
-0.212921 -0.046143 0.551163
0.232584 0.171338 0.0425548
-0.258889 0.12256 0.120029
0.265845 0.159232 0.000983437
0.240401 -0.207904 0.548294
-0.0701882 -0.0914015 0.570708
-0.03158 0.0075354 0.487838
0.0230979 0.258262 0.551163
0.23154 0.0818465 0.570708
0.0212857 0.258926 0.570708
-0.234399 -0.213664 0.570708
-0.252824 -0.165944 0.535527
-0.260433 0.148003 0.0428286
0.00708675 0.177304 0.551163
-0.235514 0.0818256 0.551163
0.23929 0.163514 0.0624116
-0.261502 0.0146546 0.31221
-0.00992832 -0.157319 0.551163
-0.293173 -0.210231 0.554826
-0.0291765 0.0346456 0.570708
0.0562994 -0.272142 0.570708
0.253771 0.0540756 0.535527
-0.257584 0.0550472 0.116441
0.0299293 0.00806079 0.487838
-0.19867 -0.238305 0.53486
0.139297 0.280692 0.570708
-0.178568 -0.0176262 0.570708
-0.273865 -0.125679 0.570708
-0.173042 0.244108 0.570708
0.252129 0.0130604 0.521739
-0.112591 0.00314972 0.570708
-0.266779 0.154001 0.00202391
0.153882 -0.26493 0.570708
0.118316 -0.191212 0.551163
-0.275335 0.203952 0.570708
0.260281 -0.0386905 0.122264
-0.176455 -0.0943513 0.570708
0.0780856 -0.2295 0.551163
0.0115367 -0.281878 0.570708
-0.235073 0.00201097 0.470782
0.253699 -0.194746 0.0589379
-0.197858 -0.00276072 0.526927
0.261329 0.0207956 0.128636
-0.263846 0.0500439 0.550355
-0.143486 0.0185027 0.570708
0.246867 -0.229039 0.0543178
