0.00685778 -0.000787884 0.548202
-0.130737 -0.0124399 0.548202
-0.214348 0.0511335 0.521115
0.28261 -0.148482 0.569256
-0.218993 -0.290087 0.549657
-0.0448975 -0.12955 0.548202
0.0482295 -0.0946123 0.548202
0.225182 -0.290087 0.559677
0.154261 0.107874 0.548202
0.125106 0.193209 0.548202
-0.192517 -0.110954 0.543211
0.203245 0.140126 0.548202
0.00433034 0.181159 0.569256
0.216201 0.0427516 0.151347
0.00599256 0.152331 0.569256
-0.20133 -0.189782 0.569256
0.291251 -0.111606 0.565725
0.00421584 -0.270453 0.569256
0.156702 0.256183 0.548202
-0.221857 -0.073601 0.541648
0.252977 -0.225603 0.548202
0.243629 -0.22464 0.569256
0.202743 0.00778422 0.1507
-0.156191 -0.0542552 0.548202
0.120354 -0.209203 0.548202
-0.0267744 0.120893 0.548202
0.291251 0.123962 0.564616
0.132578 0.088171 0.548202
0.141131 0.036189 0.569256
0.292777 0.017732 0.560814
0.169522 0.167933 0.548202
-0.13604 -0.233079 0.548202
-0.0808178 0.107508 0.548202
-0.107086 0.0636135 0.569256
0.174309 -0.00256753 0.548202
-0.0609191 0.00490111 0.569256
0.291251 -0.105196 0.567805
0.125705 0.0967253 0.548202
-0.287095 -0.0964367 0.569256
-0.0455178 0.174961 0.548202
0.0825074 0.290087 0.562213
-0.218822 -0.167161 0.525588
-0.194837 -0.153324 0.569256
0.117155 0.158397 0.548202
-0.291267 0.202879 0.567608
0.234654 -0.259425 0.548202
-0.0427359 -0.215913 0.569256
-0.243747 -0.169497 0.0564627
0.179616 -0.225542 0.569256
-0.189164 -0.112982 0.548202
0.0190588 -0.191365 0.548202
0.269952 -0.251712 0.0318154
0.0285808 0.290087 0.565007
0.199726 -0.058552 0.525588
0.224726 -0.199652 0.569256
0.278275 -0.00139138 0.569256
-0.226606 -0.229379 0.548202
-0.0179629 0.268926 0.548202
-0.214169 -0.0311675 0.418948
-0.276956 0.291196 0.551158
0.252821 0.288787 0.569256
0.0334043 0.258428 0.548202
0.288624 0.0636576 0.569256
0.28539 -0.120324 0.548202
-0.218856 -0.0363695 0.548202
0.192072 -0.290087 0.551453
-0.29212 0.251988 0.00910224
0.22663 0.0140569 0.548202
-0.192828 -0.263168 0.569256
-0.0263246 -0.107899 0.548202
0.209904 0.0462806 0.148083
0.0606934 -0.102286 0.569256
-0.0292451 0.0557852 0.548202
0.0437038 -0.191663 0.569256
0.271288 0.273071 0.00796315
-0.292466 -0.11427 0.554583
0.0507558 -0.0935455 0.548202
0.22339 -0.0855345 0.0890356
0.069061 0.291065 0.550811
-0.214354 -0.0862329 0.131213
-0.291267 -0.135728 0.56682
-0.0871914 -0.0231003 0.569256
-0.258158 -0.255311 0.569256
0.267426 -0.253663 0.0408052
-0.052126 0.165944 0.548202
-0.228296 -0.00179979 0.548202
0.238022 0.104581 0.569256
0.236142 0.0311013 0.569256
-0.0776871 -0.165346 0.569256
-0.202749 -0.00302473 0.138094
-0.0858617 -0.11818 0.569256
-0.124285 -0.0856305 0.548202
-0.0405981 0.137445 0.548202
-0.206014 -0.0271223 0.468646
0.163543 0.0409427 0.548202
0.240609 -0.17647 0.0683281
-0.208615 -0.025738 0.213916
0.227244 -0.144828 0.5383
-0.215401 0.0487232 0.29327
-0.0130882 0.156391 0.548202
-0.0728446 0.292427 0.556497
-0.0680022 -0.262282 0.569256
0.202743 -0.0316977 0.128816
-0.267299 0.105379 0.548202
-0.227114 -0.0798388 0.548202
0.235014 -0.0189301 0.569256
-0.291736 0.0637228 0.566432
0.0868255 -0.18641 0.569256
0.164377 -0.199492 0.548202
0.182284 0.167658 0.526381
0.212699 -0.0439903 0.525588
0.239037 0.146724 0.0979056
0.28127 -0.166051 0.548202
-0.0489227 0.0345965 0.548202
0.29287 -0.220247 0.556238
-0.105484 -0.0120756 0.548202
-0.201165 -0.038657 0.321365
-0.150797 0.210447 0.569256
0.185761 0.0173567 0.548202
-0.249266 -0.0949994 0.569256
-0.233925 0.101504 0.106204
0.291251 -0.245069 0.549712
0.152254 0.131087 0.548202
0.194331 -0.0868772 0.539817
0.247477 0.290087 0.553303
0.291251 0.130161 0.552995
-0.151659 0.290087 0.55443
0.213623 0.0300832 0.295627
0.211651 -0.0273722 0.32242
0.147456 -0.293567 0.556719
-0.271691 0.190031 0.569256
0.18967 -0.148405 0.534307
-0.212764 -0.0849779 0.102909
0.279547 0.0668634 0.569256
-0.18243 0.155962 0.531028
-0.19823 -0.0354675 0.527287
0.209405 -0.292427 0.56158
-0.259684 -0.0563217 0.569256
-0.283148 0.261061 0.548202
0.237749 -0.167076 0.0616847
-0.269128 0.1967 0.548202
0.223501 -0.0867572 0.12706
-0.203549 -0.0015893 0.569256
0.173232 -0.108475 0.569256
-0.0131227 -0.125366 0.548202
-0.215956 -0.0380204 0.427168
-0.292431 -0.208884 0.555683
-0.292431 0.0214049 0.55548
0.0990281 -0.109142 0.569256
0.173603 -0.206933 0.569256
0.291251 -0.00138718 0.555154
0.244143 0.0351344 0.548202
-0.204124 0.0536707 0.255836
0.0806404 -0.261837 0.569256
0.0908164 -0.278417 0.548202
0.27876 -0.101782 0.569256
-0.207189 0.056167 0.249815
-0.186405 -0.244503 0.569256
0.210522 -0.0339067 0.151282
0.242652 -0.0357012 0.548202
0.132711 -0.019851 0.569256
0.200967 -0.0426182 0.515684
-0.276369 -0.277994 0.00563221
0.271745 -0.10527 0.548202
-0.134552 0.108621 0.548202
-0.293013 0.191852 0.559593
-0.222366 0.290087 0.548416
-0.099464 0.0325971 0.569256
0.23134 0.284695 0.569256
0.199384 0.114294 0.569256
-0.215754 0.0461225 0.295367
0.130513 -0.180909 0.548202
-0.289529 0.137579 0.569256
-0.149219 -0.191045 0.548202
0.0603714 -0.0297094 0.548202
-0.07685 -0.0567948 0.548202
-0.216344 -0.041775 0.19215
0.211336 -0.0272034 0.186932
-0.0533316 -0.0927738 0.569256
-0.115269 -0.0480214 0.548202
0.131019 0.0459284 0.548202
0.270962 -0.0435802 0.548202
-0.140142 0.106502 0.548202
0.241167 0.0540494 0.548202
-0.083904 0.25097 0.548202
-0.222151 0.286876 0.569256
-0.189867 -0.145958 0.533018
-0.221266 0.048691 0.548202
-0.20197 0.049369 0.17983
-0.209544 0.0564239 0.447794
0.201212 0.044452 0.34303
0.10742 0.293441 0.556467
-0.201434 0.0366435 0.326741
0.231729 0.0934586 0.112534
-0.279753 -0.173039 0.569256
-0.222177 0.115897 0.0873031
0.021589 0.290087 0.564439
0.207938 0.0260851 0.271516
0.0691285 -0.00899386 0.569256
-0.26597 -0.262986 0.548202
0.0784516 0.0144867 0.548202
0.0742562 -0.186336 0.548202
0.276344 -0.273349 0.569256
0.0489884 0.292427 0.555238
-0.243407 -0.0676436 0.569256
0.29242 -0.191688 0.56137
-0.204313 0.290087 0.56785
0.220709 -0.0396333 0.548202
0.0979036 -0.0955351 0.548202
-0.263779 -0.252098 0.569256
0.138054 0.280224 0.569256
0.13192 0.0740626 0.548202
0.29242 0.272145 0.561103
-0.213273 -0.200419 0.569256
0.206138 0.0556111 0.515934
0.211912 0.0551464 0.124595
0.214441 0.0151637 0.137586
0.199133 -0.108596 0.548202
-0.20872 -0.0716943 0.124035
-0.161521 -0.0489709 0.548202
-0.291267 0.162831 0.557918
0.189629 0.271739 0.569256
0.292771 0.0666628 0.555841
0.215307 -0.0492135 0.14214
0.186706 -0.0772768 0.569256
-0.195734 -0.0684511 0.530969
-0.281255 0.27524 0.569256
-0.252422 0.194376 0.0742918
0.288858 0.0965295 0.569256
-0.215445 -0.272916 0.569256
-0.0662407 0.197419 0.569256
-0.202915 0.207379 0.548202
0.13273 -0.0964158 0.548202
-0.00538743 -0.0101935 0.569256
-0.264025 0.249151 0.0257335
-0.201613 -0.00164999 0.548202
-0.0892911 0.273708 0.569256
0.252988 0.0170683 0.569256
-0.21466 0.0505064 0.405584
0.1461 0.195085 0.569256
0.194165 0.272703 0.548202
-0.208701 0.0568761 0.414659
0.122909 0.125927 0.569256
0.215133 0.0330978 0.305252
0.289068 0.0141308 0.548202
0.292421 0.242029 0.554445
-0.0167554 -0.290087 0.550153
0.19362 0.0962613 0.527163
-0.194925 0.115272 0.548202
0.0374772 -0.0812805 0.569256
-0.0352841 0.211863 0.548202
-0.264646 0.221436 0.569256
-0.167225 -0.102974 0.548202
-0.214402 -0.0316357 0.223235
-0.19169 -0.0537523 0.548202
-0.252638 0.255552 0.548202
0.0642459 -0.237823 0.569256
-0.279821 0.0839376 0.569256
-0.221649 0.0708587 0.534107
-0.20936 0.0565223 0.146807
0.150471 0.144301 0.569256
0.00634772 0.17206 0.548202
-0.105575 0.275069 0.548202
-0.172757 0.11632 0.548202
0.125346 0.124019 0.569256
-0.265819 0.205276 0.00247734
0.0235103 0.25506 0.548202
0.228859 0.163563 0.548202
0.204865 -0.06186 0.548202
0.190289 -0.12961 0.548202
0.200974 -0.0399876 0.332578
0.192762 0.121957 0.548202
-0.292431 -0.0421363 0.557068
-0.291267 0.180899 0.555334
0.234342 -0.0203565 0.548202
-0.12457 -0.197533 0.569256
-0.0868173 -0.00585371 0.548202
-0.292323 -0.0698289 0.553864
-0.10691 -0.0472759 0.548202
-0.252269 0.214734 0.0653994
0.205504 -0.0273879 0.483975
0.16982 0.288067 0.569256
0.168471 0.052395 0.569256
-0.0620904 0.0846826 0.548202
-0.18952 -0.186635 0.569256
0.148539 0.0878068 0.569256
0.0620497 -0.140639 0.569256
0.293006 -0.124808 0.559335
-0.259916 -0.0943874 0.548202
-0.0625164 0.0689362 0.548202
-0.199149 0.0497197 0.525588
-0.291267 0.189978 0.548516
0.0768625 -0.292427 0.554651
0.291074 -0.241141 0.569256
-0.210067 0.0540742 0.548202
0.113314 -0.292427 0.55709
-0.239842 -0.292427 0.561611
0.0724198 0.165218 0.548202
0.0448856 -0.234272 0.548202
-0.230273 0.13993 0.10424
0.202743 -0.0374859 0.145456
-0.0617251 -0.0520394 0.569256
0.0175955 0.290087 0.552335
-0.133677 -0.0542984 0.569256
-0.180911 -0.290087 0.564458
-0.19581 0.0674491 0.54643
-0.106351 0.214939 0.548202
0.124776 0.0442402 0.548202
0.113075 -0.0444807 0.569256
0.263215 -0.234793 0.0545011
0.255592 0.216641 0.569256
0.215159 -0.0928782 0.0992679
0.257787 0.0366848 0.548202
0.0729815 0.292427 0.556786
-0.115026 -0.25226 0.569256
-0.124598 -0.205004 0.569256
0.134076 -0.276466 0.569256
-0.262584 -0.233863 0.548202
0.202743 0.00522967 0.112785
0.206075 0.0442379 0.118047
0.23744 -0.281641 0.569256
0.213137 -2.59623e-07 0.143211
0.224491 0.292427 0.558389
0.29242 0.008351 0.557182
-0.221744 -0.0576808 0.548202
-0.288205 -0.249104 -9.61755e-19
-0.279058 -0.188076 0.548202
0.214009 0.0891044 0.116931
0.0105419 -0.0403497 0.569256
-0.123145 -0.188233 0.569256
-0.13412 0.293597 0.559806
0.215145 -0.0337687 0.141706
0.291251 -0.0942908 0.556858
-0.177681 -0.173377 0.569256
0.222365 0.0591996 0.127344
0.228905 -0.083128 0.10858
-0.244061 -0.194748 0.569256
-0.208207 -0.0700091 0.117222
-0.251332 0.211657 0.0667796
0.201896 -0.290087 0.564171
-0.291267 0.0289794 0.554806
-0.202749 0.0173303 0.131131
0.165286 0.234693 0.548202
-0.0585476 -0.0408675 0.569256
0.20231 0.0500716 0.135823
-0.19411 0.0389528 0.548202
0.178553 -0.18054 0.548202
0.193269 -0.100895 0.526566
-0.157306 0.159899 0.548202
-0.170512 -0.177066 0.569256
-0.198193 -0.0359625 0.547189
-0.209512 0.0311696 0.569256
0.255697 0.229297 1.55565e-19
-0.0297847 -0.0164773 0.548202
-0.0870792 -0.290185 0.568961
0.216069 -0.0437395 0.206419
0.274136 0.127021 0.548202
0.0416467 -0.218178 0.548202
0.0999927 -0.0125283 0.569256
-0.0263117 0.261158 0.569256
-0.162356 -0.172994 0.548202
-0.291641 0.146169 0.567001
-0.035519 -0.0870579 0.548202
-0.13758 0.0937763 0.548202
0.169504 -0.286501 0.569256
-0.297426 0.244688 0.00786094
0.292294 0.15314 0.553769
-0.103974 -0.142622 0.548202
0.26348 -0.0367944 0.548202
-0.17139 -0.292574 0.561945
0.147126 0.100232 0.569256
0.202743 0.00911704 0.1084
-0.0655859 -0.272739 0.548202
-0.12199 -0.0334996 0.569256
0.200914 -0.292113 0.553603
-0.092363 0.133201 0.548202
0.0171652 0.156442 0.569256
0.165629 0.20676 0.548202
-0.19721 -0.061449 0.548202
0.183866 -0.223544 0.569256
0.261202 -0.201295 0.0629042
0.216295 0.0420468 0.373534
0.0752316 0.289354 0.569256
0.279871 0.290087 0.556915
-0.200076 0.0822884 0.548202
-0.201496 0.036177 0.514047
0.291251 0.0942564 0.566913
-0.146351 0.172485 0.569256
0.245468 -0.258602 0.548202
0.138565 0.290036 0.548202
-0.222891 0.292427 0.560482
-0.0310011 -0.245119 0.569256
-0.218361 0.0305544 0.548202
0.258972 0.22985 0.0581846
0.216078 -0.0436717 0.147742
-0.292431 -0.20847 0.561897
0.127474 -0.0799894 0.569256
-0.1605 -0.0431908 0.569256
0.29242 0.173328 0.556002
-0.18769 -0.041542 0.569256
0.0146399 -0.251323 0.569256
0.223528 0.239939 0.548202
-0.242887 -0.183917 0.0578584
0.292642 -0.293188 0.560718
0.00151256 0.210846 0.569256
-0.137148 0.0442378 0.548202
0.161749 0.129609 0.569256
-0.161789 0.252732 0.569256
-0.201449 0.0461318 0.135421
-0.291212 -0.292427 0.556847
0.209346 -0.068788 0.1399
-0.138806 -0.0510431 0.569256
-0.211907 0.134102 0.525588
-0.291267 -0.073707 0.551486
0.266978 -0.0996566 0.548202
-0.0869527 -0.171313 0.548202
-0.216146 -0.0394184 0.162858
0.14196 0.224886 0.548202
0.0914428 -0.193427 0.548202
-0.0554863 0.167741 0.569256
0.183026 -0.228197 0.569256
0.171276 0.108702 0.569256
0.124815 -0.251619 0.569256
0.096384 0.166551 0.548202
0.196673 -0.141809 0.548202
-0.129311 -0.139111 0.548202
-0.13935 -0.290087 0.551377
-0.0439125 -0.240146 0.548202
0.0478262 -0.290087 0.551887
-0.20508 0.266996 0.548202
-0.19199 -0.0666695 0.548202
-0.252895 -0.170902 0.0566969
-0.0810581 0.0586688 0.569256
0.229172 -0.0841021 0.0947965
0.223041 0.0623476 0.136395
0.0275638 -0.0786128 0.569256
0.214918 0.032683 0.548202
0.152871 0.0129704 0.548202
-0.19451 0.149745 0.548202
-0.0389856 0.290414 0.568275
0.291251 0.0183193 0.558985
0.279891 -0.103092 0.548202
-0.198849 -0.0124367 0.539395
-0.268929 0.0424897 0.569256
-0.152949 0.290534 0.567914
-0.0171452 0.00807729 0.548202
0.0343481 -0.0358141 0.548202
0.0808125 -0.276427 0.569256
-0.216186 -0.0429427 0.281802
-0.291267 0.116087 0.552207
-0.0366527 -0.26396 0.569256
0.082123 0.133185 0.569256
-0.220793 -0.0595745 0.546813
0.29242 -0.261385 0.55785
0.246395 -0.230781 0.548202
-0.249882 -0.157776 0.548202
-0.204651 -0.027935 0.16464
-0.0331402 -0.287189 0.548202
-0.102234 -0.0557035 0.548202
0.233597 0.224145 0.00154712
0.226111 -0.129875 0.537567
0.202743 -0.00310381 0.116606
-0.26447 0.252251 0.548202
-0.0942006 0.133469 0.569256
-0.281794 0.0979442 0.569256
0.0808672 0.241372 0.569256
-0.146396 -0.0147344 0.548202
-0.102515 0.292427 0.559995
-0.213019 0.163947 0.548202
0.0307417 0.292427 0.55607
-0.181394 0.252442 0.569256
-0.291267 0.105075 0.564701
-0.0666656 -0.160437 0.548202
-0.292112 -0.288542 0.564162
-0.272335 0.159896 0.548202
-0.0980687 -0.205641 0.548202
-0.0565712 0.0875272 0.548202
0.200877 0.0407082 0.180393
0.194326 -0.0869379 0.534577
0.292391 0.274236 0.562411
0.260188 0.240776 0.0521445
-0.141846 0.289641 0.569256
0.215597 -0.04728 0.266844
-0.220065 -0.290087 0.556011
-0.270716 0.290087 0.549135
0.102811 0.0740947 0.569256
0.0708202 0.184234 0.569256
0.0924332 0.25706 0.548202
-0.210997 -0.0751782 0.1368
-0.00481483 0.150046 0.548202
-0.0946352 0.292427 0.560259
0.122774 0.290087 0.551771
0.0707493 -0.259323 0.548202
-0.202749 -0.0163901 0.135459
0.0947717 0.140461 0.569256
0.14146 0.276444 0.548202
0.216248 -0.0423995 0.376543
-0.21542 0.0485826 0.498099
0.201063 0.039323 0.154303
0.0476371 -0.0912201 0.569256
-0.271755 0.240962 0.0277672
0.232235 0.198839 0.569256
0.29242 0.199538 0.558805
-0.255465 -0.182752 0.077325
0.230349 -0.0645687 0.569256
0.198009 -0.256817 0.548202
0.104313 -0.140756 0.548202
0.198059 0.0889041 0.525588
0.232726 -0.216011 0.548202
-0.11379 0.0844089 0.548202
-0.21036 -0.053706 0.569256
0.145522 -0.29147 0.55189
-0.267641 -0.176312 0.569256
0.142449 -0.24304 0.569256
0.108515 0.188113 0.569256
-0.109764 -0.22099 0.569256
-0.0363193 0.153128 0.548202
-0.0349259 0.0706789 0.569256
0.204843 -0.0549169 0.253356
-0.241065 -0.148406 0.548202
0.237906 -0.221654 0.569256
-0.0232809 0.230511 0.569256
0.221769 -0.130383 0.548202
-0.284808 0.151 0.548202
0.0559981 -0.127972 0.548202
0.246108 0.155858 0.548202
0.291251 0.0697051 0.560415
0.123578 0.0744016 0.548202
-0.205747 -0.0553938 0.426122
-0.201519 -0.0360071 0.218371
0.235583 0.107559 0.078382
-0.218012 0.151423 0.569256
0.21834 -0.026464 0.544648
0.207527 -2.59623e-07 0.127115
-0.215904 0.0376405 0.211167
0.0253635 -0.0719708 0.569256
-0.291267 -0.212142 0.552734
-0.140208 -0.112586 0.569256
-0.200948 -0.12836 0.569256
0.093675 0.142332 0.569256
0.196141 -0.0629844 0.526008
-0.226972 -0.0912854 0.0860392
-0.00109714 0.290087 0.551975
0.133544 0.279958 0.548202
0.194644 -0.0827386 0.543878
-0.239519 0.121967 0.102745
-0.214446 0.0164085 0.146702
-0.293013 -0.172162 0.558438
0.295447 -0.264166 0.00599294
0.266372 -0.220211 0.0485867
-0.202749 -0.029305 0.11144
0.198766 0.1569 0.525588
0.171526 -0.221056 0.569256
-0.292431 0.231687 0.556557
0.293006 -0.097468 0.55797
0.218233 0.102977 0.111345
-0.291267 0.127583 0.561563
-0.222092 0.0582099 0.127611
0.070854 0.215723 0.548202
-0.215057 0.0497079 0.316768
0.0812798 -0.0445987 0.569256
-0.158457 0.223809 0.548202
-0.201545 0.167482 0.548202
0.0577305 -0.207145 0.548202
-0.140886 0.0930311 0.569256
0.265467 0.216899 0.0499332
-0.292431 0.113937 0.557555
-0.239875 -0.183282 0.569256
0.204268 -0.0286719 0.481035
-0.248074 -0.272545 1.88463e-18
-0.21309 -0.0289979 0.49276
0.254254 0.290087 0.561388
-0.207669 0.142075 0.548202
-0.0668203 0.0389499 0.548202
-0.205173 0.147907 0.548202
0.088095 -0.141625 0.569256
0.109665 0.0532379 0.569256
-0.1237 -0.282095 0.548202
-0.205583 -0.0919383 0.525588
0.183534 0.292054 0.563357
-0.269413 0.117277 0.548202
0.214441 0.017339 0.119594
0.242149 0.0785803 0.548202
-0.0621091 0.0488868 0.569256
-0.213495 0.0298123 0.487097
0.126996 0.258475 0.569256
0.273797 -0.256254 0.548202
-0.291267 -0.210196 0.557775
0.144771 -0.181374 0.569256
-0.202609 -0.0506455 0.477559
-0.10131 -0.0664455 0.548202
0.168252 0.290087 0.553272
0.166285 0.221352 0.548202
-0.206229 -0.0270067 0.27583
0.210715 0.0616047 0.548202
0.0584466 0.0622439 0.569256
0.201809 0.11427 0.525588
-0.201492 -0.0464522 0.453259
0.250119 0.235968 0.548202
0.265686 -0.160022 0.548202
-0.291267 0.041565 0.561875
0.287515 0.0757337 0.569256
0.239113 -0.120709 0.569256
0.19404 -0.119105 0.548202
-0.184638 0.146238 0.548202
0.289003 -0.257214 -7.5583e-19
0.202289 0.100507 0.569256
0.173829 -0.250883 0.548202
0.0131183 0.131608 0.569256
0.00617489 0.257832 0.569256
-0.215691 0.0360691 0.254481
0.136003 0.293597 0.559309
0.212453 0.0548564 0.350206
0.0138361 -0.109988 0.569256
-0.229212 0.210773 0.548202
0.247917 -0.200473 0.0529643
0.0330754 0.0278335 0.548202
-0.0121466 0.230886 0.569256
-0.202556 -0.05054 0.424857
0.214905 -0.181231 0.569256
-0.0449605 -0.0907817 0.569256
-0.201799 -0.0487518 0.499865
-0.179453 0.290162 0.548401
-0.155474 0.287766 0.569256
-0.156843 -0.189616 0.548202
-0.274925 -0.232485 -7.65645e-19
0.175 0.0439832 0.548202
-0.291446 0.097706 0.568179
-0.0294528 -0.19816 0.569256
0.230163 0.0755477 0.569256
-0.292199 -0.242375 -1.37953e-18
0.212137 0.106762 0.548202
0.0935561 0.252643 0.548202
-0.0612903 0.290087 0.567882
0.279417 0.27067 0.548202
-0.237318 0.28152 0.548202
0.235111 -0.110963 0.112986
-0.261556 0.0349836 0.548202
-0.305077 0.240226 0.00108031
-0.0509917 -0.272724 0.548202
-0.217986 0.0663415 0.548202
-0.195917 0.167658 0.54677
-0.246429 -0.19555 0.0650669
-0.045917 -0.0552742 0.569256
-0.101563 0.0360778 0.548202
0.0283266 0.06125 0.548202
0.280602 0.211353 -1.71459e-18
0.257678 0.199932 0.548202
0.201816 0.0336984 0.385157
0.235152 -0.272885 0.548202
0.275093 0.125987 0.548202
-0.292431 -0.177531 0.560206
0.28891 0.193682 0.569256
-0.267938 0.253388 0.0419344
0.291251 -0.146711 0.566357
0.000180036 0.283657 0.569256
0.0699878 0.0104275 0.569256
-0.258659 -0.102221 0.548202
0.279154 -0.252472 0.548202
0.17935 0.156962 0.527124
0.205532 0.023854 0.548202
0.288836 0.0844555 0.569256
0.257393 0.206327 0.0676693
0.20896 -0.0567283 0.200393
0.0716659 -0.101457 0.569256
0.216957 0.157774 0.569256
-0.291267 0.143452 0.559197
0.279504 0.219549 0.548202
0.267375 -0.123771 0.569256
-0.204825 0.0495478 0.107613
-0.00192907 -0.0268842 0.548202
-0.201669 0.0255274 0.548202
-0.21614 0.0432836 0.326441
0.235844 0.0881281 0.569256
0.213399 0.0296363 0.230066
-0.0606712 -0.151163 0.548202
-0.172079 0.0112093 0.548202
0.202743 -0.0108261 0.135614
-0.047167 0.010183 0.548202
0.209458 -0.0564618 0.242599
-0.145232 0.100428 0.548202
-0.292431 0.214561 0.556659
0.292819 0.201614 0.560647
-0.204389 -0.028458 0.492001
-0.225725 0.127548 0.105089
0.256456 -0.281334 0.569256
-0.213791 0.0353281 0.132885
0.218303 -0.125691 0.548202
-0.238088 -0.291558 0.564844
-0.291721 -0.232245 0.566517
-0.211985 -0.0275439 0.479042
0.25831 0.166643 0.548202
0.225841 0.126315 0.545416
-0.0131235 -0.118021 0.569256
0.253456 -0.185899 0.548202
-0.0037576 0.24448 0.569256
0.286323 -0.140582 0.548202
0.214159 0.223234 0.548202
0.253751 -0.264142 0.548202
-0.080222 0.288728 0.548202
-0.198849 0.0237978 0.539448
0.292095 0.124208 0.564192
0.128738 -0.0108209 0.569256
0.0201313 0.129334 0.569256
0.0698269 0.00303796 0.569256
0.276532 -0.0832713 0.569256
-0.213451 -0.0357219 0.131851
-0.201237 0.0381146 0.491184
0.263418 0.250453 0.0286885
0.0957451 -0.240652 0.569256
0.192969 -0.057835 0.569256
0.214413 0.0509997 0.463162
-0.047831 0.0150917 0.569256
0.242281 0.173126 0.0558737
0.2763 -0.202498 0.548202
-0.211365 0.290087 0.568203
0.238413 -0.0680005 0.548202
0.29242 -0.0132352 0.560323
0.291251 -0.189439 0.560355
0.224446 0.139473 0.525588
-0.20683 -0.0559738 0.212776
0.0977015 0.290045 0.548202
-0.122414 -0.290087 0.549537
0.0204762 0.0819238 0.569256
-0.163907 0.193026 0.569256
-0.26495 0.124977 0.569256
-0.00429291 0.218546 0.548202
0.204433 0.124332 0.569256
0.00222591 0.0210835 0.548202
0.0295579 -0.269224 0.569256
0.065072 0.253144 0.569256
-0.201972 0.0493743 0.128267
-0.147576 0.271819 0.548202
-0.291267 0.0283283 0.549814
-0.240055 0.230365 0.569256
-0.230427 -0.129828 0.0731488
0.285919 -0.0703003 0.569256
-0.0796569 -0.160691 0.548202
0.21437 0.134663 0.569256
-0.253931 0.206134 0.0417939
0.200406 0.252765 0.569256
-0.291267 -0.243854 0.558764
0.216048 -0.0387615 0.374592
-0.263987 0.0393125 0.569256
-0.212961 -0.0287383 0.215914
-0.199476 -0.158005 0.548202
0.206381 0.0983495 0.569256
-0.291267 -0.268671 0.561359
-0.21946 0.0420007 0.545072
0.219946 0.102955 0.525588
0.139742 0.108243 0.569256
0.213406 -0.0530094 0.11623
0.0574745 0.142543 0.569256
0.00448152 0.188857 0.548202
-0.271072 0.0665448 0.569256
-0.210626 -0.0856143 0.548202
-0.245128 -0.256376 0.548202
0.0119566 0.195467 0.569256
-0.238054 0.250233 0.569256
-0.200036 -0.179002 0.548202
0.147432 -0.0771206 0.569256
-0.0648396 -0.122583 0.569256
0.0817802 -0.236787 0.569256
-0.168333 0.0808898 0.569256
0.109511 0.0561346 0.569256
0.235828 -0.160766 0.0849037
-0.222945 0.292427 0.56188
-0.17845 0.0450003 0.569256
0.0104085 0.0817715 0.569256
-0.277537 -0.192569 0.569256
0.108769 -0.292427 0.559183
-0.224708 0.145551 0.548202
-0.146074 -0.277689 0.569256
-0.271433 0.169763 0.548202
0.167728 -0.0772777 0.569256
0.215371 -0.03369 0.503829
0.255381 0.19965 0.569256
-0.190852 -0.132946 0.546247
-0.229855 -0.0866113 0.0932785
0.21834 -0.0170281 0.539183
0.265894 -0.238537 0.0519421
0.167046 0.159765 0.548202
-0.214882 0.0340673 0.127937
0.216171 0.0396806 0.248764
-0.214119 -0.0310653 0.148639
-0.0122052 -0.195434 0.569256
0.0281839 0.292427 0.554669
0.0244869 -0.290087 0.563498
0.20317 -0.290087 0.559904
0.238942 -0.0957085 0.548202
-0.120945 0.11277 0.569256
0.11379 0.0286353 0.569256
-0.267012 0.230809 0.0156208
0.205507 -0.0552729 0.408958
0.228746 -0.104132 0.118292
0.223881 0.0689336 0.133567
0.230665 0.237313 0.548202
0.0196221 -0.192228 0.548202
0.069508 0.120096 0.548202
0.274877 0.290087 0.564014
-0.184671 0.0982319 0.548202
0.151114 -0.25016 0.548202
0.238832 0.0705301 0.569256
-0.246826 0.0243965 0.569256
0.278853 -0.213026 0.569256
-0.0986805 0.0254655 0.548202
-0.136762 0.208601 0.548202
0.076206 0.00356758 0.569256
0.178718 -0.28347 0.569256
0.209748 0.106097 0.548202
-0.215446 0.226907 0.569256
-0.121838 0.145338 0.548202
0.286812 0.278117 0.548202
0.20769 0.026218 0.395038
0.287189 -0.261598 0.569256
-0.207906 0.0565516 0.113715
0.240448 0.103822 0.548202
-0.1854 -0.0321145 0.548202
-0.258551 0.235367 0.0462503
0.19333 0.100095 0.544498
-0.245249 -0.251558 1.39122e-18
0.164758 0.149744 0.548202
-0.00502658 0.0819046 0.569256
-0.211623 -0.0920602 0.525588
0.233734 0.150681 0.0987169
-0.053537 -0.219524 0.548202
-0.265142 0.293597 0.557257
-0.141566 -0.102588 0.569256
-0.213837 0.0521609 0.285637
0.290792 -0.152942 0.569256
-0.202401 0.0324297 0.113603
0.055699 -0.194531 0.548202
0.201406 0.0367577 0.385933
-0.237842 0.156689 0.543674
-0.094877 -0.0882102 0.548202
0.202741 -0.0509327 0.318608
-0.21644 -0.0730749 0.0952461
0.214713 0.0543453 0.548202
0.292991 -0.0943715 0.55672
0.15893 0.0268252 0.569256
0.0916275 0.153155 0.548202
0.291251 -0.0402186 0.565683
-0.271755 0.246291 0.0357926
0.223849 0.0723049 0.132319
0.206635 0.181166 0.569256
-0.291267 0.152459 0.54844
-0.129567 0.0379856 0.569256
-0.230227 -0.180224 0.569256
0.214709 -0.0914015 0.128516
-0.148751 0.228155 0.548202
0.209127 0.0566401 0.142112
0.17935 -0.162741 0.530213
-0.0229899 0.0113867 0.548202
-0.11058 -0.149189 0.569256
0.179438 -0.136491 0.569256
-0.195315 -0.134579 0.525588
-0.12426 -0.0714127 0.548202
0.215488 -0.0480918 0.437769
0.20576 -0.293518 0.556621
0.212988 0.157825 0.548202
-0.0642595 -0.181162 0.569256
-0.0171452 0.241573 0.548202
-0.191687 0.121916 0.52572
0.154561 -0.0144727 0.548202
0.232778 0.0429094 0.569256
0.154083 0.0832025 0.569256
0.00649258 0.257005 0.569256
-0.138129 -0.190008 0.548202
-0.124241 0.156167 0.548202
-0.126443 0.0693064 0.569256
-0.00714025 0.199093 0.548202
0.222377 -0.22107 0.548202
-0.0362108 0.188186 0.569256
0.0737467 0.0764697 0.548202
-0.208732 0.0568592 0.429183
0.054853 -0.277123 0.569256
-0.196017 0.0647039 0.537096
-0.222758 0.114881 0.569256
0.140508 0.129819 0.569256
0.21189 0.0551583 0.393278
0.000160664 0.246845 0.548202
0.203397 -0.0304136 0.342521
-0.0361502 -0.0636496 0.548202
0.213179 0.226652 0.548202
-0.0860625 0.213154 0.569256
-0.114668 -0.0500225 0.569256
0.0799351 -0.131589 0.548202
-0.265352 0.282201 0.00482273
-0.205639 0.0955121 0.548202
-0.0621828 -0.0340715 0.548202
-0.156395 0.097714 0.548202
0.236093 0.183332 0.548202
-0.184015 -0.155961 0.534099
-0.275531 -0.2257 -1.00552e-18
-0.103008 0.17039 0.569256
-0.0434226 0.116041 0.569256
0.291251 -0.0229171 0.557745
0.267584 0.119482 0.548202
0.243638 -0.185667 0.0813442
0.177657 -0.0102187 0.548202
-0.209693 0.237438 0.548202
-0.205094 -0.167657 0.528546
0.253036 -0.225507 0.0103772
0.215815 -0.0370165 0.502625
0.0684391 0.0619245 0.569256
-0.183614 0.287985 0.569256
0.291251 0.0271505 0.551267
-0.126308 -0.182714 0.548202
-0.131658 -0.292427 0.560074
0.00132942 0.0790706 0.569256
0.209262 -0.0735096 0.109395
-0.210013 0.242206 0.548202
0.156003 0.107639 0.548202
-0.218092 0.241993 0.569256
-0.0830487 0.159401 0.569256
-0.203006 0.0312205 0.464404
0.214006 0.0890939 0.123026
-0.255747 0.216602 0.0379858
-0.109657 0.0926721 0.569256
0.0969864 -0.220499 0.569256
0.192054 0.13726 0.525588
0.197954 -0.0809325 0.548202
0.207794 -0.0261607 0.255689
0.0297539 -0.00073415 0.548202
0.235746 -0.0519689 0.569256
-0.20266 -0.0319123 0.122911
-0.223805 0.141524 0.548202
0.0979556 -0.235233 0.569256
0.25353 0.275192 0.548202
0.063633 -0.173885 0.548202
0.0309063 0.279132 0.569256
-0.274513 -0.00228634 0.569256
-0.143125 0.292427 0.555818
-0.206633 0.055869 0.375429
-0.216546 -0.114322 0.548202
0.263207 0.111349 0.569256
-0.249794 0.196097 0.0462845
-0.135684 0.0753393 0.569256
0.246794 0.182096 0.081317
-0.215715 0.164347 0.548202
0.0117454 0.0367129 0.569256
0.220125 0.150413 0.548202
-0.133955 0.189306 0.569256
0.127697 0.175424 0.569256
-0.00952378 -0.292427 0.559476
0.115917 -0.202109 0.548202
-0.206306 0.0269669 0.511846
0.29182 0.0804603 0.551239
0.223144 0.0907056 0.533646
-0.125312 -0.0460892 0.548202
0.29242 -0.186163 0.557503
-0.0599479 0.112031 0.569256
0.0095264 -0.0741505 0.569256
0.291251 -0.110964 0.551053
-0.0624988 0.143663 0.569256
0.0548083 -0.225154 0.569256
0.18544 0.226662 0.569256
0.275822 -0.0548071 0.569256
-0.258589 -0.212659 0.00674831
0.151627 0.154345 0.548202
-0.243926 0.251657 0.569256
-0.0992973 0.12459 0.548202
0.0906377 0.193058 0.548202
0.271692 0.0971445 0.548202
-0.0226855 0.060014 0.548202
-0.206815 -0.191756 0.569256
-0.246303 -0.190731 0.548202
-0.136725 -0.0674684 0.548202
-0.205178 0.053606 0.525588
0.265707 0.253173 0.0464768
0.270577 0.230937 0.569256
-0.292431 -0.215106 0.560526
0.255734 0.0208152 0.569256
0.0821452 -0.163373 0.569256
0.292796 -0.0542286 0.555943
0.215394 0.0487952 0.483506
0.291251 0.144537 0.551356
-0.258475 -0.290087 0.552474
0.291251 -0.215339 0.550868
-0.221793 0.114636 0.108663
0.0334437 0.120079 0.548202
-0.218267 0.0003483 0.569256
0.185326 0.139417 0.548202
-0.215436 -0.0341949 0.457399
-0.0752818 0.0800253 0.548202
0.128402 0.141023 0.548202
-0.216109 0.0435073 0.235854
0.124973 -0.0166194 0.548202
-0.0974904 0.290087 0.554285
0.171098 0.0367482 0.548202
0.275079 -0.197151 0.569256
0.105712 -0.190879 0.548202
-0.270548 0.193685 0.548202
-0.164482 -0.0404901 0.569256
0.148301 0.290087 0.560191
0.215691 -0.0465708 0.490103
-0.237666 -0.226524 0.569256
0.235198 0.116767 0.548202
0.225008 -0.0323318 0.569256
0.22924 -0.104938 0.0811065
-0.0632965 0.226788 0.548202
0.290257 0.147897 0.548202
0.00774068 0.0486478 0.569256
-0.0925597 -0.276029 0.569256
-0.275935 -0.0482732 0.569256
-0.195526 0.203696 0.548202
0.102883 0.062594 0.569256
-0.0683738 -0.290087 0.558509
-0.212076 0.0550662 0.52497
-0.0532749 -0.192561 0.548202
0.230546 0.143417 0.0729635
-0.216311 0.0420193 0.238629
-0.113336 0.290087 0.56219
0.198844 0.0211576 0.532086
0.126252 0.172276 0.548202
0.264171 -0.275314 1.11491e-18
-0.106009 0.0164547 0.569256
0.213316 -0.0358792 0.119047
-0.0736968 -0.242549 0.548202
-0.21567 -0.0467422 0.125588
-0.141733 -0.255374 0.569256
-0.149853 -0.110112 0.569256
0.209603 0.0563848 0.254454
0.112418 -0.10513 0.548202
-0.278863 0.0386316 0.548202
0.203201 0.0518522 0.446673
0.240448 -0.12536 0.0932684
-0.246741 -0.176787 0.0833293
-0.140936 0.148186 0.569256
0.20444 0.0543296 0.488631
-0.292431 -0.00429231 0.561573
-0.239452 -0.2162 0.548202
-0.218485 0.292427 0.560346
0.213507 -0.0298519 0.474218
-0.19261 0.109724 0.537934
0.201771 0.0486291 0.503177
-0.166277 -0.0844097 0.548202
0.237835 0.16454 0.542569
-0.218345 0.00805572 0.542916
0.0936643 -0.0355469 0.548202
-0.071792 0.276476 0.569256
-0.215721 -0.0463638 0.295295
0.117538 -0.19578 0.569256
0.188768 -0.212281 0.569256
0.271037 0.27871 0.548202
-0.201846 -0.0411138 0.548202
0.200426 -0.167657 0.535726
-0.21564 0.0356997 0.179522
0.22644 -0.167657 0.544222
-0.190227 -0.106295 0.569256
0.185117 -0.176666 0.569256
0.0432717 0.290087 0.565991
0.220588 0.0526964 0.130913
-0.224296 0.105769 0.53909
-0.0388132 0.220182 0.548202
-0.247789 0.239138 0.548202
-0.208787 -0.0568286 0.117194
-0.191187 -0.167657 0.541544
-0.232421 -0.0959992 0.109181
-0.216758 -0.233977 0.548202
0.19608 0.174953 0.548202
-0.274495 -0.0902323 0.548202
-0.212291 0.027709 0.343931
0.0115822 -0.0294563 0.569256
0.227205 -0.144321 0.528543
0.211133 0.0555644 0.404953
-0.209392 -0.0739006 0.0982623
0.176913 0.038757 0.569256
-0.25578 -0.231609 2.22055e-19
0.232501 -0.290087 0.55811
0.198368 -0.052276 0.548202
0.2021 -0.0496516 0.323229
0.256482 -0.183165 0.569256
-0.208369 0.159223 0.548202
-0.232177 -0.148741 0.0934527
-0.291267 -0.152368 0.559099
-0.233529 0.153182 0.0905925
-0.0991289 0.122373 0.548202
0.219313 -0.106524 0.092586
0.157775 -0.149581 0.548202
-0.236078 -0.109379 0.0930405
-0.16949 0.147432 0.569256
-0.194185 -0.293576 0.559942
0.0387897 0.0590463 0.569256
0.132387 0.140817 0.569256
0.142213 -0.208316 0.548202
0.279129 0.278444 0.548202
0.124783 0.107423 0.569256
0.264622 0.101639 0.548202
0.252416 0.286503 0.569256
0.247708 -0.137653 0.548202
-0.233289 0.133887 0.0709165
-0.207724 0.0262073 0.283601
0.102813 -0.0295406 0.569256
0.212373 0.0548993 0.155919
-0.204128 -0.0536791 0.353999
0.0714896 0.066412 0.569256
0.191598 -0.19696 0.569256
-0.216115 0.0556343 0.548202
-0.214826 -0.259914 0.548202
0.279394 0.243134 0.569256
0.246535 -0.246223 0.569256
0.0791 0.200591 0.569256
-0.186302 0.208187 0.569256
-0.215899 0.0952743 0.0944284
0.202695 0.0508413 0.245303
0.107864 0.116882 0.569256
-0.193718 -0.0950847 0.543631
0.224559 0.0573718 0.569256
0.291251 -0.239043 0.559397
-0.075843 0.0651165 0.548202
-0.103505 -0.263365 0.548202
0.194517 0.084422 0.545493
0.20279 0.0510312 0.498993
-0.292222 -0.127591 0.563501
-0.201612 -0.0473527 0.269754
0.201294 -0.037598 0.110733
0.203163 -0.00853555 0.548202
0.291251 -0.182966 0.559012
0.262787 0.290087 0.549855
-0.131218 -0.292427 0.559694
-0.201196 0.0442368 0.38907
0.0211016 -0.105306 0.548202
0.225045 -0.0710057 0.132289
-0.130327 -0.00887018 0.548202
0.0470244 -0.0689235 0.548202
-0.012125 0.290087 0.551155
0.21485 0.0325338 0.250946
-0.0813787 0.163713 0.569256
0.218537 0.160153 0.548202
-0.234064 -0.054489 0.548202
0.220955 0.0942042 0.569256
0.154174 -0.00964856 0.548202
-0.292353 -0.0568574 0.554024
0.168098 0.0864917 0.548202
0.269413 0.290087 0.556611
0.204981 -0.00106378 0.108393
-0.212182 0.0550092 0.296491
0.251028 -0.269168 0.00798008
-0.0575995 0.061575 0.569256
-0.275762 -0.110149 0.569256
-0.00481385 0.135246 0.569256
-0.28407 0.170159 0.548202
-0.237842 0.160789 0.53323
0.196164 0.145382 0.548202
-0.228484 0.167658 0.531597
0.266934 0.23401 0.0210546
0.233893 0.170461 0.548202
-0.214907 -0.03265 0.475475
-0.2091 0.0387849 0.548202
0.211207 0.0383139 0.134422
-0.191609 -0.122946 0.527355
-0.137955 0.222763 0.569256
0.245657 0.14442 0.0743722
-0.237842 0.16036 0.538238
-0.276057 0.130604 0.569256
-0.213623 -0.0877985 0.109706
-0.204662 0.0279141 0.351911
-0.23112 -0.237476 0.548202
0.201341 -0.0372409 0.408122
0.0612012 0.136165 0.548202
-0.194427 -0.292427 0.556188
-0.206941 0.0266269 0.273996
0.198844 0.00701713 0.548064
-0.0782891 -0.234272 0.548202
-0.218452 0.0448959 0.141052
-0.286779 -0.285655 0.569256
0.0160543 -0.048211 0.569256
-0.0303296 0.0192176 0.569256
0.214154 0.153703 0.548202
-0.210744 -0.0268788 0.466892
0.189924 0.202331 0.569256
0.205016 0.0276507 0.229611
0.162697 -0.23694 0.548202
0.119749 -0.290087 0.555752
-0.250553 0.169258 0.548202
-0.271035 0.269194 0.00942734
0.0538837 -0.241259 0.548202
0.147925 -0.0454441 0.548202
0.18642 0.0662027 0.569256
-0.200305 -0.123819 0.569256
-0.291328 -0.150039 0.548527
0.291251 -0.168013 0.556446
0.151308 0.172529 0.548202
-0.235046 -0.191856 0.548202
-0.258168 -0.260484 0.0121666
0.167792 0.189902 0.569256
0.202204 0.0498596 0.372311
0.279213 -0.24903 0.01496
-0.293013 -0.181269 0.55749
-0.0104659 0.228035 0.548202
0.267429 0.293587 0.55676
-0.128359 0.292427 0.561322
0.146407 -0.061023 0.548202
0.222172 0.177789 0.548202
0.225452 0.292417 0.562268
0.214418 -0.0509875 0.263119
-0.177296 -0.198534 0.548202
0.266436 -0.0787629 0.569256
-0.0143254 -0.270817 0.548202
0.203033 -0.0515173 0.299949
0.231689 0.0933118 0.0930933
0.172027 0.249993 0.548202
-0.0217728 0.183928 0.569256
0.0363171 0.292027 0.563439
-0.129482 0.290087 0.556022
0.128089 -0.292427 0.560259
0.201572 0.0471391 0.219272
-0.210625 0.0779544 0.0991022
-0.260756 -0.183439 0.569256
0.00746161 0.279277 0.548202
0.135442 -0.237522 0.548202
-0.041906 0.258171 0.569256
-0.00260356 0.276652 0.548202
-0.18225 -0.155961 0.541124
0.234188 -0.0905983 0.569256
-0.232237 0.070044 0.569256
0.0391863 -0.16647 0.548202
0.0343292 0.105649 0.569256
0.073788 -0.172839 0.569256
-0.0236555 0.175284 0.548202
0.235293 -0.217385 0.548202
-0.261558 0.142419 0.548202
0.241887 0.180667 0.0761417
-0.089081 0.247813 0.548202
-0.239688 -0.0784124 0.569256
0.22839 -0.136337 0.0793085
0.0892784 -0.0922045 0.569256
-0.292431 0.20063 0.561784
0.203656 -0.0201935 0.569256
0.207008 0.0512012 0.105175
-0.284958 0.262468 0.0093078
-0.108086 -0.0827793 0.548202
-0.172989 0.290087 0.550225
0.213711 0.0302583 0.421467
-0.225104 0.125508 0.106471
0.197407 0.0462611 0.540503
-0.0379854 -0.0339774 0.548202
-0.200966 0.0425158 0.522451
-0.276237 0.12146 0.548202
0.0651371 -0.00948328 0.569256
0.0094794 0.216079 0.569256
-0.041723 -0.290087 0.558678
-0.258658 0.290087 0.551924
0.219472 0.0422361 0.531352
-0.0275798 -0.213665 0.569256
-0.202749 0.00463348 0.149526
0.29228 -0.0942963 0.553692
-0.214332 -0.0775652 0.548202
0.303346 -0.254097 0.00036269
-0.209125 0.0730269 0.108949
0.19412 0.167658 0.542894
-0.0440191 -0.275263 0.569256
0.0782253 -0.220177 0.548202
-0.024229 -0.279826 0.548202
0.271118 0.238158 0.0242925
-0.204546 -0.0545145 0.23368
0.108375 0.111603 0.569256
0.124933 0.148848 0.569256
-0.0862913 0.216423 0.548202
0.224896 -0.100243 0.12141
0.0378834 -0.110301 0.569256
0.291251 0.271667 0.556499
0.214566 -0.0319669 0.270907
0.0879431 0.196556 0.569256
-0.275384 0.251559 0.548202
0.128829 -0.117372 0.569256
0.140832 -0.0453752 0.548202
0.225207 0.11794 0.531418
-0.210813 0.0269171 0.451803
-0.0361643 0.136065 0.569256
0.192136 -0.115855 0.525986
0.0713768 -0.0124124 0.548202
0.214772 0.0916083 0.107258
-0.282244 -0.210906 0.00543619
0.291251 -0.0572907 0.569191
0.278206 0.134957 0.569256
0.0171292 0.239198 0.548202
0.29242 -0.0868021 0.557447
-0.135425 -0.266271 0.548202
-0.00127709 0.0949478 0.548202
-0.204097 -0.0565105 0.116767
-0.223732 0.0983353 0.526881
0.199834 -0.121631 0.569256
0.15338 0.226968 0.569256
-0.0519966 -0.285514 0.569256
-0.203701 -0.0298325 0.223671
-0.225169 0.0558841 0.548202
0.00885543 0.290087 0.560097
0.217452 0.0546937 0.100463
0.250985 0.11686 0.569256
0.0494458 -0.131074 0.548202
0.08907 -0.25681 0.569256
0.0404938 0.176457 0.548202
-0.202881 -0.0314695 0.154585
-0.230578 0.162768 0.548202
-0.139482 -0.0232786 0.548202
0.128904 -0.093244 0.569256
0.240698 -0.290087 0.56459
0.163722 0.0758671 0.569256
-0.255596 -0.17052 0.569256
0.187872 0.00682104 0.569256
0.215957 -0.038081 0.339998
-0.158361 -0.23775 0.569256
-0.196038 0.0644361 0.539057
-0.210166 -0.291906 0.553052
0.0866173 0.130056 0.548202
0.18719 -0.142544 0.569256
0.0488609 -0.0962118 0.548202
0.0238553 -0.188872 0.569256
-0.195516 -0.1791 0.548202
-0.0294538 0.0498553 0.548202
0.0359252 -0.290087 0.559248
-0.201899 0.0334318 0.124895
0.00694603 0.182327 0.569256
-0.20366 0.267329 0.569256
0.232187 0.190927 0.548202
0.13276 0.0620535 0.569256
-0.191945 -0.118506 0.528102
0.215747 0.0365017 0.429577
0.197249 -0.290087 0.558519
-0.217063 -0.272253 0.548202
-0.247599 0.247984 0.548202
0.291967 -0.154101 0.552021
0.247774 0.152163 0.0891882
0.25149 -0.242038 0.013224
-0.213653 -0.0525302 0.481407
0.200022 -0.102001 0.548202
0.0517127 0.0354016 0.569256
-0.265214 -0.253814 4.02212e-19
-0.292975 -0.214811 0.560051
-0.237441 0.213038 0.569256
-0.23394 0.0954249 0.548202
-0.0318599 -0.135166 0.569256
-0.206619 -2.59623e-07 0.121213
0.291251 0.0419229 0.562233
-0.211322 -0.0271886 0.121135
-0.0212801 -0.0715582 0.569256
-0.0259686 -0.154246 0.569256
-0.251748 0.192553 0.0466737
0.179832 -0.183606 0.548202
0.267122 -0.236413 0.548202
-0.206614 -0.0647766 0.135317
0.192504 -0.166607 0.525588
-0.211535 -0.0413286 0.132983
-0.291267 -0.246037 0.56875
0.262377 0.254259 0.0184567
-0.0603804 0.290087 0.558536
0.233066 0.0512446 0.548202
0.146026 0.189245 0.569256
0.0898596 0.215685 0.569256
-0.0557444 -0.290087 0.549782
-0.0246432 0.28302 0.569256
-0.197447 -0.118738 0.548202
-0.131492 -0.0386643 0.548202
0.214237 -0.047373 0.548202
0.0409009 0.0710807 0.548202
-0.190572 -0.136648 0.536103
0.275539 0.241338 0.548202
-0.20048 0.110418 0.525588
0.202312 -0.0442414 0.548202
-0.206017 -0.0271204 0.490233
0.0754375 -0.0493377 0.548202
0.236814 -0.0699473 0.569256
0.0398748 -0.290087 0.556189
-0.278689 -0.293597 0.558797
0.0618702 -0.165886 0.548202
0.250156 -0.207825 0.0557785
0.140028 0.107453 0.569256
0.205018 0.277236 0.569256
0.236656 -0.267256 0.548202
0.198844 0.0229729 0.543076
0.23322 0.137076 0.104029
0.0182589 -0.0904334 0.548202
0.26562 -0.2609 0.0127534
-0.216316 0.0406732 0.406736
-0.142832 -0.111751 0.569256
-0.208151 0.0259783 0.328222
0.148232 -0.0951507 0.548202
0.255973 0.110227 0.569256
0.267684 -0.292669 0.561756
0.215917 -0.037775 0.421402
0.153922 0.0528738 0.569256
-0.187789 0.167658 0.530499
0.269885 0.0292978 0.569256
-0.253191 0.236106 4.96965e-19
0.291251 0.053097 0.558124
-0.173152 -0.123719 0.548202
0.284984 -0.0834761 0.548202
-0.168807 0.0434616 0.569256
0.279335 -0.0872458 0.569256
0.225537 0.122298 0.545736
-0.147439 0.21155 0.548202
-0.277186 0.290087 0.5674
-0.287081 -0.245409 0.569256
-0.0633844 -0.282498 0.548202
-0.176831 0.0576307 0.569256
-0.241109 0.127786 0.093793
-0.162371 -0.0273134 0.569256
-0.237048 0.293597 0.557304
-0.241728 -0.174202 0.548202
-0.227023 -0.131813 0.0869326
-0.245332 -0.143236 0.0724944
-0.201552 -0.0469017 0.370449
-0.209226 0.0701413 0.13945
-0.0887323 -0.197287 0.569256
0.0350568 -0.104979 0.569256
0.204553 0.054556 0.11929
0.165758 -0.118198 0.569256
-0.0984601 -0.246222 0.569256
-0.215291 -0.0334216 0.189353
-0.264409 0.218364 0.548202
-0.218052 0.2839 0.548202
-0.103613 0.163844 0.569256
0.249625 0.290962 0.566632
-0.292431 0.104284 0.555725
0.225015 0.0445572 0.569256
-0.154895 -0.128022 0.548202
0.126391 0.0832102 0.569256
-0.143106 0.143974 0.548202
0.292187 0.271381 0.563636
-0.254693 -0.132411 0.569256
0.222436 -0.286476 0.569256
0.00723732 0.118134 0.548202
-0.0902479 0.118681 0.548202
-0.120226 0.0698455 0.569256
0.254838 -0.209572 0.00523026
-0.292186 0.271986 -4.71799e-19
0.248051 -0.200911 0.0460595
-0.204364 0.0541514 0.139178
-0.0514041 -0.0182565 0.569256
0.184102 0.0266241 0.569256
-0.0108432 -0.258781 0.548202
0.291251 0.0202557 0.568533
-0.206799 -0.0267016 0.385161
0.0548144 -0.202344 0.569256
0.211633 -0.0552964 0.283907
-0.188847 -0.0487522 0.569256
0.243985 0.00614566 0.548202
-0.05459 -0.156961 0.548202
-0.201727 -0.0482156 0.397388
0.0906624 0.154486 0.569256
-0.21595 0.044683 0.232466
-0.227161 0.167658 0.541725
-0.247936 0.155762 0.0591579
-0.291267 -0.215095 0.564424
-0.291267 0.0387863 0.557074
-0.230265 -0.174408 0.548202
0.00105909 -0.081009 0.548202
0.217314 -0.0199369 0.525588
-0.221501 0.17911 0.548202
0.215767 -0.0460058 0.263448
-0.201793 -0.0339547 0.307182
0.0557921 0.290087 0.552187
-0.208856 0.0258689 0.371071
-0.198324 0.196676 0.548202
-0.23002 0.267166 0.548202
-0.218345 -0.0215405 0.530372
0.043107 0.124687 0.548202
0.282708 0.120086 0.569256
0.227501 0.133417 0.0884098
0.291251 -0.239981 0.560371
-0.262614 0.248353 0.0275288
-0.19028 -0.206247 0.548202
0.130746 -0.0915051 0.548202
-0.0611024 -0.159066 0.548202
-0.146245 -0.0350265 0.548202
0.209088 0.0258229 0.151282
-0.178984 -0.0476675 0.548202
-0.291267 0.180676 0.560462
-0.259997 -0.0272709 0.548202
0.25694 -0.291898 0.563825
-0.206966 0.111929 0.548202
-0.266185 0.276511 0.569256
-0.174357 -0.218113 0.548202
-0.0871479 0.247301 0.569256
-0.285092 0.220312 -1.67754e-18
0.0752223 0.115986 0.569256
-0.0922654 0.254255 0.569256
0.227926 -0.105316 0.0814517
0.214441 0.039456 0.133406
-0.213628 -0.0759257 0.0953667
0.260787 -0.206623 0.000518111
0.220466 0.16585 0.548202
0.235279 0.157152 0.525588
0.12622 0.290087 0.564074
-0.0891977 -0.21159 0.548202
0.0198374 -0.0489335 0.548202
0.130217 -0.214628 0.569256
-0.157648 -0.177144 0.569256
0.271879 -0.242167 0.0419514
0.246028 -0.172489 0.0547549
0.291251 0.275585 0.557709
-0.253394 0.0555454 0.548202
-0.200909 0.0405697 0.483737
-0.0518811 0.109033 0.548202
0.234824 -0.168032 0.569256
0.291251 -0.203838 0.561727
0.265499 -0.019302 0.569256
0.0641288 0.292427 0.556349
-0.0239892 0.187053 0.569256
0.201995 0.0496449 0.138399
-0.208186 0.0567015 0.428209
-0.0736565 0.23459 0.548202
-0.0271393 -0.194642 0.548202
-0.210438 0.14192 0.569256
0.0203048 -0.0482367 0.569256
0.21628 -0.0404979 0.413418
0.0146771 0.0556282 0.548202
0.22106 0.14148 0.569256
-0.0744988 0.23912 0.548202
0.0759676 0.28739 0.569256
0.204005 0.0534597 0.525091
-0.2427 -0.290087 0.557582
0.223362 0.288009 0.548202
0.219749 -0.0800792 0.13118
-0.267106 -0.234932 0.569256
-0.178021 -0.0525985 0.548202
0.214441 0.0029729 0.14896
0.0915379 0.0721264 0.548202
0.236163 0.231662 1.26371e-18
-0.0924595 0.157649 0.569256
-0.202597 0.0946435 0.525588
-0.074665 -0.292427 0.562017
-0.138503 -0.199219 0.548202
-0.0498611 -0.290087 0.557887
-0.208366 -0.282412 0.569256
0.220538 0.130454 0.548202
-0.259911 0.196571 0.0694213
0.158254 0.229058 0.569256
0.260911 0.26711 0.00998113
-0.201341 0.0453225 0.272546
-0.267044 0.179698 0.548202
0.0136987 -0.290763 0.550004
0.160758 0.290087 0.56649
-0.230276 0.177189 0.548202
-0.209306 0.0261096 0.490615
0.291251 -0.22407 0.562246
0.29242 -0.232489 0.559864
-0.253238 0.262716 1.30983e-18
-0.291267 0.183386 0.54962
0.241717 -0.195298 0.569256
0.272942 0.165597 0.548202
-0.205607 -0.0553189 0.244493
0.118818 0.292427 0.558552
-0.244776 -0.22915 7.3049e-19
-0.2054 0.290087 0.558353
-0.213379 0.115534 0.548202
-0.127469 0.232656 0.548202
0.202743 0.0280105 0.116847
0.13058 0.104992 0.569256
0.292592 0.0321395 0.561551
0.235972 -0.205459 0.548202
-0.0963939 0.0612863 0.548202
-0.236878 -0.112305 0.0763694
-0.155226 -0.167147 0.548202
0.200556 -0.0485171 0.569256
0.0813837 -0.0763018 0.569256
-0.267675 -0.230897 0.0155219
-0.291267 0.0602467 0.549894
-0.187754 -0.155961 0.526628
-0.0630555 0.0393785 0.569256
-0.13479 -0.157279 0.569256
0.144672 0.0851722 0.548202
0.134742 -0.0218879 0.569256
0.291251 -0.194034 0.56013
-0.245577 0.262034 0.569256
0.128155 0.183617 0.548202
0.29211 -0.102168 0.564097
0.0245416 -0.192224 0.548202
0.237212 0.147228 0.548202
0.125366 0.12375 0.569256
-0.0825994 -0.290087 0.564776
-0.00767598 -0.124146 0.548202
0.15694 0.0231664 0.569256
0.21834 -0.016056 0.539616
-0.257809 -0.119787 0.569256
-0.276498 -0.044423 0.548202
0.29242 0.0400689 0.558594
-0.0907316 0.248003 0.569256
0.0529981 0.0429685 0.569256
-0.207728 -0.0423336 0.125418
0.0185952 0.153935 0.569256
-0.291267 -0.0406044 0.552757
-0.223323 -0.119659 0.08252
0.256729 -0.0527803 0.548202
-0.218345 0.0131313 0.52676
-0.198623 -0.0302788 0.53951
-0.202749 0.0305161 0.135009
0.277495 -0.248595 0.569256
0.0145192 -0.0366251 0.569256
-0.216751 -0.0898048 0.0900668
0.0898014 0.0542537 0.569256
0.031301 -0.187119 0.548202
-0.193971 -0.0917344 0.530861
0.105738 0.163094 0.548202
0.160139 0.284117 0.569256
0.268809 0.267216 0.548202
-0.292431 0.259165 0.560182
0.0641157 0.206085 0.548202
-0.027737 -0.123522 0.548202
-0.151986 -0.14134 0.569256
-0.210991 0.122849 0.569256
-0.292535 -0.0576743 0.55486
-0.29153 0.239629 0.56767
0.16227 0.267954 0.548202
0.247635 0.155335 0.0909689
0.199095 0.0851497 0.548202
0.262349 0.269515 1.03398e-18
0.267082 0.290087 0.562718
-0.292218 0.0396546 0.563524
-0.214446 0.00604958 0.125631
0.201672 -0.0478907 0.501719
0.0490803 -0.195905 0.548202
-0.0536485 0.292427 0.5596
-0.21373 0.0175093 0.548202
-0.105716 0.290087 0.55914
0.123235 -0.28518 0.569256
0.0149664 -0.223876 0.569256
-0.0126218 0.125935 0.569256
0.0952654 -0.0315925 0.569256
0.253726 0.219551 0.0510136
0.0515871 0.0386802 0.548202
0.152011 0.0638024 0.569256
-0.223851 -0.0300333 0.569256
0.281673 0.253462 0.569256
0.232011 -0.157753 0.548202
-0.237445 -0.160115 0.548202
0.291251 0.0790274 0.563333
-0.137089 0.292427 0.556923
0.17935 -0.156271 0.53378
0.204251 -0.0413286 0.130012
0.212534 0.0547509 0.264716
0.137598 0.144976 0.569256
0.29242 -0.192044 0.55666
-0.185471 -0.018557 0.569256
0.210148 0.0866446 0.525588
0.286104 0.248143 -8.79891e-19
-0.291267 0.0985404 0.562929
-0.178856 0.290087 0.555025
-0.0700846 -0.151451 0.548202
-0.210571 -0.0777747 0.113768
-0.101741 0.0655134 0.569256
0.0258127 0.146339 0.548202
0.201403 0.0367796 0.410918
0.25905 -0.22876 0.0331414
0.19031 -0.166331 0.548202
-0.0839639 0.0122034 0.548202
-0.273127 -0.074519 0.548202
-0.189351 -0.0392492 0.569256
0.115152 0.0617016 0.548202
0.00991726 -0.0326475 0.548202
-0.212544 -0.0279018 0.459678
-0.201296 -0.0449822 0.371044
0.0494468 0.126323 0.548202
-0.0548466 -0.116374 0.569256
0.153726 -0.212098 0.548202
0.25378 -0.25701 0.0120303
-0.0672049 -0.0875258 0.569256
-0.229737 -0.115871 0.113472
-0.292431 0.108643 0.561738
-0.291267 -0.196186 0.561309
0.180068 -0.175068 0.569256
-0.124928 0.245766 0.548202
-0.27385 -0.018819 0.548202
-0.0976946 -0.234346 0.569256
0.290447 -0.254213 0.548202
-0.0912632 0.125186 0.548202
-0.208616 0.0257399 0.383126
0.266241 -0.231263 0.0298658
-0.0980446 0.241885 0.548202
0.19288 0.238185 0.548202
0.0534669 -0.0616175 0.569256
0.0421618 0.201345 0.569256
0.187948 -0.106388 0.548202
-0.257903 -0.240801 0.548202
0.216793 -0.05276 0.569256
-0.221938 -0.0843541 0.569256
-0.192608 0.264606 0.569256
0.291251 0.237186 0.549129
0.193671 0.0936648 0.548202
0.200986 0.0398951 0.197086
0.201597 0.0353287 0.342987
0.291251 -0.218109 0.5684
0.29166 -0.254336 0.550386
0.171594 0.0672717 0.569256
