0.214441 0.0351537 0.112453
-0.205682 -0.150759 0.525588
-0.0258327 0.222633 0.569256
0.246431 0.102015 0.569256
-0.162847 0.00963494 0.548202
0.019724 0.183553 0.569256
0.270113 0.129502 0.548202
0.200957 -0.0401088 0.174834
-0.0902105 -0.158627 0.569256
0.194462 -0.211666 0.569256
0.121353 0.227786 0.569256
-0.187881 -0.219066 0.548202
-0.264142 0.191916 0.569256
0.199869 -0.123031 0.569256
0.187861 0.0187528 0.548202
0.0512153 -0.230465 0.569256
-0.0306414 0.142397 0.548202
-0.207922 0.0690751 0.138956
-0.246325 -0.282374 0.569256
-0.238065 -0.133454 0.0693749
0.29242 -0.0612409 0.559147
-0.0755252 -0.261715 0.569256
0.150566 0.134649 0.548202
0.202736 0.184536 0.548202
0.259605 0.195453 0.0549792
0.210254 -0.0266237 0.495185
0.19473 -0.0575774 0.569256
0.265512 0.0105449 0.548202
0.191797 0.271829 0.569256
0.236002 -0.118615 0.0745947
-0.258614 -0.234396 0.0315895
0.0992282 0.0389073 0.548202
-0.0587516 -0.24689 0.548202
-0.173539 0.262477 0.548202
-0.141199 -0.131297 0.569256
-0.112803 -0.22386 0.569256
0.0604566 0.0413699 0.548202
0.235664 0.117205 0.0751401
0.116778 -0.194999 0.548202
0.0651467 0.144952 0.548202
-0.102784 -0.0760627 0.569256
0.210527 0.0772307 0.136231
-0.132739 0.228902 0.548202
0.286902 -0.190145 0.548202
0.255727 -0.110528 0.548202
0.202743 -0.00288971 0.150481
0.225996 -0.281817 0.569256
0.262965 -0.249524 0.0343431
0.131524 0.252438 0.569256
-0.165944 0.125917 0.548202
-0.043067 -0.0955791 0.569256
0.0134237 0.0794312 0.548202
0.116934 -0.136827 0.548202
-0.286828 -0.137745 0.548202
-0.0908086 0.0824327 0.569256
-0.122071 0.0256313 0.569256
-0.00551674 -0.218043 0.569256
-0.215916 -0.250407 0.569256
0.19183 -0.119895 0.53712
-0.183104 -0.160081 0.569256
0.207031 -0.0560889 0.411562
0.224076 0.120341 0.548202
-0.0796908 0.0397287 0.548202
0.00829682 0.0197381 0.569256
-0.11151 -0.0523873 0.548202
-0.206158 0.185614 0.548202
0.0825785 0.0891432 0.569256
0.214145 0.146176 0.569256
-0.224286 -0.0676112 0.133886
0.0190386 -0.0919694 0.548202
0.295437 -0.219024 0.00224673
-0.0652952 0.253893 0.569256
0.271264 -0.123848 0.569256
-0.206601 0.281259 0.569256
-0.203991 0.0534067 0.407388
-0.277449 -0.210988 0.569256
-0.264349 -0.0230491 0.548202
0.044389 -0.163136 0.548202
-0.202664 0.126071 0.525588
0.207809 0.00190619 0.525588
0.190455 0.0388637 0.569256
0.201561 0.0470601 0.386882
-0.223585 0.0808741 0.129227
0.048982 0.25855 0.569256
0.0971756 -0.19154 0.569256
-0.0466634 0.114038 0.569256
-0.130768 -0.165699 0.548202
0.106792 0.176687 0.569256
0.161541 -0.0951893 0.569256
0.266823 0.259537 0.569256
0.0895523 0.256646 0.548202
0.249913 -0.159991 0.082985
-0.0889842 0.195785 0.569256
0.00621909 0.271454 0.548202
0.201688 0.0346497 0.224098
0.0100563 -0.117898 0.569256
-0.00811252 0.172716 0.569256
-0.208862 0.0567893 0.216626
0.22743 -0.194659 0.548202
-0.177224 0.0967218 0.548202
0.0153501 -0.00258666 0.569256
-0.222378 -0.0804779 0.541063
0.192672 -0.265748 0.569256
0.206479 0.0557938 0.308573
-0.133362 0.130329 0.548202
0.148525 -0.290087 0.550851
-0.204376 -0.0263265 0.151282
-0.000228345 -0.170524 0.569256
-0.0775779 -0.0988915 0.548202
-0.237362 -0.0854031 0.569256
-0.182032 -0.0516257 0.548202
-0.162857 0.0919712 0.569256
-0.111699 -0.00299898 0.548202
-0.214446 0.0160302 0.134351
0.221705 -0.0717091 0.526065
-0.0755166 0.190912 0.548202
0.167806 0.0830754 0.548202
0.271631 -0.0247832 0.569256
-0.293797 -0.217376 0.00389774
0.241761 -0.266048 0.00631007
0.219809 -0.0373487 0.569256
0.0836968 -0.0936566 0.548202
0.0433252 0.248404 0.548202
-0.0869071 -0.159833 0.548202
0.274543 -0.263445 0.548202
-0.291267 0.127885 0.56817
0.292239 0.219279 -2.08896e-18
-0.235623 0.264436 2.29576e-18
0.289076 0.197072 0.548202
-0.218582 0.0304136 0.538211
-0.00713903 -0.0645608 0.569256
0.16899 -0.202898 0.548202
-0.0622223 -0.177615 0.548202
-0.230158 -0.142107 0.103199
0.221986 0.219718 0.569256
0.107855 -0.112948 0.569256
-0.180897 -0.0276917 0.569256
-0.289418 0.23348 -1.50425e-18
0.0359041 -0.229612 0.548202
-0.00233328 -0.255821 0.569256
0.217336 -0.10003 0.114565
0.195868 0.109568 0.525588
-0.234749 0.160917 0.525588
-0.269089 0.279813 0.548202
0.25081 0.290087 0.548943
-0.237746 -0.262652 0.00614243
0.0230573 0.154769 0.548202
-0.0258696 0.273308 0.569256
-0.225821 0.217885 0.569256
-0.0658021 -0.00817218 0.569256
0.084168 0.0674148 0.548202
-0.205941 -0.0554978 0.343576
-0.101224 -0.266673 0.548202
0.208079 -0.0260083 0.315836
-0.281338 0.00782672 0.569256
0.2698 0.0550057 0.548202
0.151851 -0.22864 0.569256
-0.016639 -0.0623902 0.548202
-0.0650238 0.091583 0.548202
-0.207431 -0.128166 0.548202
0.0307144 0.272438 0.569256
0.292946 0.0183163 0.560141
-0.213695 -0.0302146 0.498999
-0.212525 -0.0278631 0.274142
0.255468 0.23536 0.548202
0.119989 -0.038063 0.548202
-0.245579 0.144139 0.0654865
0.100275 0.176464 0.548202
0.14193 0.071461 0.569256
0.0437827 -0.0709951 0.569256
0.275064 -0.0710621 0.548202
-0.102889 0.282904 0.548202
-0.142979 -0.0622708 0.548202
-0.207144 -0.120019 0.569256
0.0353696 0.0947628 0.569256
0.192539 -0.175972 0.569256
-0.274381 0.221897 0.548202
-0.136719 -0.0127314 0.569256
0.246929 0.261543 0.00893776
0.256539 -0.219492 0.569256
-0.279712 -0.268582 0.569256
0.114166 0.226739 0.548202
-0.161657 0.183968 0.548202
-0.203309 0.011166 0.569256
-0.203433 0.0522925 0.317752
-0.091684 0.150024 0.569256
0.0151634 0.111959 0.569256
0.196355 -0.0601581 0.52886
0.0732021 0.190176 0.569256
-0.21505 0.0497231 0.471085
0.161459 0.190995 0.569256
-0.162039 -0.253928 0.548202
-0.266714 -0.0866587 0.548202
-0.19877 -0.214037 0.569256
0.199508 0.0827268 0.569256
-0.204411 -0.0542446 0.221327
0.0481089 -0.290087 0.568249
-0.269661 0.0875429 0.548202
-0.252685 0.0471539 0.569256
-0.258755 0.193283 0.0439985
-0.174484 -0.218627 0.569256
-0.0627836 0.230306 0.548202
0.127893 -0.155648 0.569256
-0.0689016 -0.143319 0.569256
-0.107739 0.266495 0.569256
-0.263638 0.162448 0.548202
-0.0402503 -0.189368 0.569256
0.107677 0.000903428 0.569256
-0.237842 -0.165518 0.542274
-0.0147006 0.196396 0.548202
-0.25925 -0.160182 0.569256
0.211749 -0.0552341 0.255024
-0.21562 -0.167657 0.548186
0.211832 -0.0551893 0.337657
0.12411 -0.254774 0.548202
0.268922 0.279248 0.00590641
0.291251 0.150092 0.565244
-0.195091 0.0769471 0.534404
-0.278783 -0.232243 0.548202
-0.286318 0.0527159 0.548202
-0.215429 -0.0341413 0.413877
0.220679 0.062366 0.0970074
-0.205148 0.238412 0.548202
0.235376 0.200569 0.569256
-0.0657296 -0.0740795 0.569256
-0.154339 -0.284638 0.569256
-0.211237 0.139352 0.548202
-0.14122 -0.216109 0.569256
0.0756662 -0.143391 0.548202
0.216051 0.0387825 0.141124
0.079002 -0.0871217 0.569256
0.000345826 -0.157366 0.548202
-0.223999 -0.0463846 0.569256
-0.016222 -0.188273 0.548202
0.0811607 -0.0428819 0.548202
0.291459 0.110913 0.56801
0.0508524 -0.182672 0.569256
0.11997 0.0901984 0.548202
0.269305 -0.197627 0.548202
0.218222 -0.0672085 0.136657
0.252905 -0.0633534 0.569256
-0.230105 0.251286 0.548202
-0.110754 0.0664251 0.569256
0.199255 -0.157274 0.548202
-0.0143525 -0.0349385 0.569256
0.190371 0.139154 0.543596
-0.0353832 -0.290087 0.566927
-0.228562 0.0608694 0.548202
0.217727 0.0714233 0.548202
0.0527409 0.110303 0.548202
-0.282752 -0.177333 0.569256
-0.118513 -0.109775 0.548202
0.170546 -0.150458 0.548202
0.218638 0.0062755 0.569256
-0.223344 -0.211446 0.548202
-0.291563 0.192654 0.549786
0.193326 -0.100137 0.53381
-0.137615 0.191498 0.569256
-0.198019 0.0852307 0.569256
0.202594 0.0320203 0.417814
-0.135446 0.272474 0.548202
-0.233544 0.177293 0.569256
-0.0527178 -0.0706018 0.548202
0.209344 0.0261379 0.293356
-0.177791 -0.10349 0.569256
0.0448669 0.217411 0.569256
-0.111861 -0.00971273 0.569256
-0.00123349 0.0418063 0.548202
0.0542005 -0.0702012 0.548202
-0.00496659 0.0635297 0.569256
-0.0522285 0.00923005 0.548202
0.157771 0.0439652 0.548202
0.120691 -0.0703836 0.569256
0.228894 -0.280896 0.548202
-0.176264 -0.141215 0.548202
0.211086 0.0270711 0.46336
-0.0131573 -0.139294 0.569256
0.214629 0.222847 0.548202
-0.0402953 0.0182373 0.569256
0.248725 0.155644 0.0609253
0.039355 -0.124346 0.548202
-0.291627 0.284177 0.567087
-0.16741 0.271964 0.569256
0.061388 0.191213 0.548202
0.176084 0.150441 0.569256
0.228975 0.0210167 0.548202
-0.249466 -0.195818 0.0464833
-0.0743201 0.287615 0.548202
0.211356 0.286031 0.548202
0.224083 -0.220603 0.569256
-0.204111 0.0290131 0.329664
-0.125385 -0.235893 0.548202
0.00829476 0.144152 0.569256
0.0635473 -0.0194178 0.569256
-0.150513 0.240633 0.569256
-0.207501 0.0296179 0.108393
0.249476 -0.0172864 0.569256
0.125863 -0.200724 0.569256
0.176925 -0.0392322 0.548202
-0.191673 0.0173944 0.548202
-0.201463 -0.0364201 0.118768
-0.03666 -0.111498 0.548202
0.0499901 0.0362782 0.569256
0.204192 -0.0538347 0.454266
-0.0889405 -0.119659 0.569256
0.103598 0.00013563 0.548202
0.250805 -0.19991 0.0729175
0.269529 -0.160486 0.569256
0.237835 0.160585 0.527592
0.129464 -0.259115 0.569256
0.174313 0.00202566 0.569256
0.215592 -0.0473176 0.201401
0.133878 0.290087 0.565576
-0.209769 -0.0263564 0.336838
-0.111668 -0.187578 0.569256
-0.20284 -0.0315513 0.436797
0.291251 -0.0994006 0.557813
-0.12342 0.136083 0.569256
0.058629 0.0722397 0.569256
-0.123498 -0.273556 0.569256
-0.234328 -0.102977 0.0980988
0.191333 0.231618 0.569256
0.129453 0.0312824 0.569256
0.228089 -0.146987 0.569256
0.267607 -0.255738 0.569256
0.0671251 -0.266302 0.569256
-0.291341 -0.0611452 0.548597
0.202 -0.25046 0.548202
-0.0646798 -0.20953 0.548202
-0.243386 -0.2244 0.569256
-0.0532026 0.127123 0.548202
0.0636691 -0.192452 0.548202
-0.126354 0.0975421 0.548202
-0.219519 0.0953216 0.0874261
-0.212629 -0.0545878 0.255863
-0.204194 0.0288476 0.49393
0.214441 0.0135714 0.12877
-0.268019 0.229206 0.569256
-0.160952 0.292427 0.557286
0.0636742 0.290087 0.556896
-0.187622 0.117961 0.569256
0.257776 0.064635 0.569256
-0.0591259 0.167368 0.569256
-0.192248 -0.270692 0.569256
0.237564 0.138221 0.569256
0.167068 -0.270687 0.569256
-0.085266 0.140351 0.548202
-0.229638 -0.27427 0.548202
0.203434 -0.0303411 0.38829
-0.273661 0.144291 0.569256
-0.271634 -0.290087 0.54913
-0.153008 0.0341382 0.569256
-0.225501 0.138255 0.569256
0.149192 -0.120438 0.548202
-0.230572 -0.143595 0.569256
0.23116 -0.258281 0.569256
-0.162522 -0.193093 0.548202
0.114802 0.140878 0.548202
-0.139228 0.0367666 0.548202
-0.00433171 -0.240665 0.548202
0.031103 -0.146319 0.569256
-0.0762557 -0.225662 0.569256
-0.233635 -0.113109 0.569256
-0.199834 -0.119202 0.525588
0.237433 -0.0750019 0.548202
-0.211662 0.00450483 0.548202
-0.220271 -0.103548 0.122176
-0.202013 -0.255859 0.548202
0.292324 -0.0112305 0.553926
-0.16731 -0.279077 0.548202
0.0914762 0.123455 0.569256
0.209756 0.0563026 0.356481
0.258557 -0.142968 0.548202
0.266865 -0.240901 -8.14433e-20
-0.206319 -0.0492086 0.525588
-0.264438 -0.220642 0.059268
-0.146607 0.154144 0.548202
-0.208144 -0.0259811 0.202578
0.0751384 0.235747 0.569256
0.220096 -0.115687 0.548202
-0.224598 -0.109755 0.533833
-0.215869 0.0452797 0.246693
0.214441 -0.0346111 0.150346
-0.261596 0.0540798 0.548202
0.205326 0.0551754 0.470571
0.218183 0.096979 0.525588
-0.221191 0.109024 0.548202
0.133135 0.0953879 0.569256
-0.23644 0.162743 0.087436
-0.0244657 0.0410224 0.569256
-0.0388526 0.182489 0.548202
0.0967368 -0.277135 0.548202
0.177682 -0.0778769 0.548202
0.265636 0.207743 0.00562561
-0.124739 0.111141 0.569256
0.0957766 0.0647971 0.569256
-0.211118 -0.0555797 0.400592
0.160943 0.105638 0.548202
-0.06067 0.0287178 0.569256
0.0125277 -0.189913 0.569256
-0.263721 0.233561 0.0190401
-0.105358 0.0699901 0.548202
-0.11195 0.189018 0.548202
-0.207165 0.0265069 0.386808
-0.0275771 0.0676619 0.548202
-0.146905 -0.076879 0.569256
0.253037 0.101169 0.548202
0.266669 -0.261045 0.0128042
-0.0288546 -0.242772 0.569256
-0.216309 0.0406244 0.15317
0.0822051 0.148395 0.569256
0.040351 0.018382 0.548202
-0.17626 0.036327 0.548202
-0.261241 0.107214 0.569256
-0.293389 -0.250365 -1.19768e-18
-0.251677 0.212789 0.0642489
-0.237425 -0.165979 0.0608112
-0.167531 0.0644051 0.548202
0.155107 0.232184 0.569256
0.203624 0.0355561 0.525588
0.176243 0.173496 0.548202
-0.213901 0.0306286 0.453794
0.00209665 0.285605 0.569256
0.00810471 0.123163 0.548202
0.195373 -0.0921581 0.569256
-0.0235367 0.24639 0.548202
0.214966 -0.0436707 0.548202
0.150152 0.251564 0.548202
-0.197645 0.0432041 0.531575
0.21604 0.0439584 0.211672
-0.207354 -0.0562548 0.495689
0.201785 -0.0223331 0.548202
0.221838 -0.00789773 0.548202
0.00593203 -0.0212563 0.548202
-0.292431 -0.0171617 0.560312
-0.211864 0.0551798 0.178214
0.29242 -0.288782 0.555943
-0.212757 -0.0375581 0.548202
-0.201018 0.0429003 0.294498
0.115172 0.0389251 0.569256
0.205179 -0.205742 0.548202
0.139322 -0.166007 0.548202
0.209805 0.108629 0.569256
0.0367984 0.190099 0.548202
0.268217 0.199491 0.569256
0.0197666 0.218394 0.548202
-0.0913108 -0.290087 0.566439
-0.214005 0.249259 0.569256
0.129194 -0.222339 0.548202
0.206874 -0.0560051 0.315955
0.199059 0.096821 0.548202
-0.263006 0.260622 7.2766e-19
-0.270725 -0.118272 0.569256
-0.042134 -0.0532418 0.569256
0.277087 0.291333 0.56552
0.0229997 -0.098575 0.569256
0.255016 0.220797 0.0632818
-0.136801 -0.200383 0.548202
-0.189994 0.166923 0.548202
-0.0929541 0.225782 0.569256
-0.207475 -0.0509234 0.105098
0.0874262 -0.0642779 0.548202
0.204537 -0.0281339 0.258799
-0.0355993 -0.123831 0.569256
0.0822003 0.266477 0.569256
-0.0727067 -0.0212188 0.548202
-0.0921733 -0.233928 0.548202
0.180482 0.26323 0.548202
0.0383179 -0.25321 0.569256
0.183201 0.292427 0.562183
-0.245437 -0.0281704 0.569256
-0.221585 -0.11395 0.0906466
-0.0270996 0.0888647 0.569256
-0.167206 -0.0060834 0.569256
-0.237191 -0.0744877 0.548202
-0.275585 0.188296 0.548202
0.290239 0.0670099 0.569256
0.213939 0.0307152 0.378252
-0.0995468 0.0988164 0.548202
0.190705 -0.146809 0.569256
-0.205925 -0.0554892 0.140796
0.269095 -0.230174 0.0520344
0.209244 0.0565772 0.239074
0.193949 0.0529021 0.548202
0.207244 0.0562042 0.157465
0.291251 0.257049 0.565841
0.155185 0.261262 0.569256
0.143857 0.221038 0.548202
-0.271758 -0.26648 0.548202
-0.0701996 -0.196553 0.569256
0.16024 0.0307499 0.569256
-0.248767 -0.160618 0.0885023
0.243326 -0.164907 0.548202
0.019276 -0.0482277 0.569256
0.285571 0.225701 0.548202
0.135331 0.277686 0.548202
0.12078 -0.290087 0.552048
-0.234683 0.104277 0.110489
0.0955272 0.203713 0.569256
0.245202 0.191555 0.0763827
0.0314355 0.157048 0.569256
-0.211026 0.0792701 0.10975
0.127996 0.194671 0.569256
-0.0444799 0.237235 0.548202
-0.265637 0.0663054 0.569256
0.289915 0.17912 0.569256
0.0571361 -0.251949 0.548202
0.231684 0.0821062 0.569256
-0.0961907 -0.0788871 0.548202
0.0947329 -0.211482 0.548202
0.233089 0.171013 0.569256
-0.0463515 0.0447694 0.548202
-0.266455 -0.232716 -3.09641e-19
-0.163252 0.141228 0.569256
-0.198849 -0.0227772 0.537537
-0.0929626 0.172126 0.548202
0.171408 -0.198066 0.569256
0.116061 -0.167416 0.548202
-0.158217 -0.039401 0.569256
-0.277402 -0.241977 0.569256
-0.013134 0.226826 0.548202
0.0713263 -0.292427 0.555562
0.119485 -0.111911 0.548202
0.233188 -0.152096 0.0675192
0.20626 -0.142615 0.525588
0.0299275 -0.211772 0.569256
0.0779321 0.0164494 0.548202
0.240093 0.267328 0.548202
-0.253764 0.292315 0.562575
0.28078 -0.012963 0.548202
0.217945 0.15636 0.548202
-0.203396 0.0304421 0.226289
0.237396 0.24452 0.569256
-0.231004 0.233089 0.00277538
-0.0881274 0.0467713 0.569256
-0.130369 -0.0175675 0.548202
0.183693 0.0651886 0.548202
-0.248812 0.243221 0.569256
-0.171138 -0.131331 0.569256
0.263973 -0.2196 0.548202
0.202544 -0.0514464 0.111754
-0.0957142 0.0204912 0.548202
-0.106929 -0.0401423 0.569256
0.29242 -0.157706 0.55511
-0.120272 -0.160806 0.569256
0.20711 -0.0561314 0.386447
-0.252626 0.169921 0.0557347
-0.113855 -0.179667 0.548202
0.176691 0.0645455 0.569256
-0.203739 -0.18952 0.569256
-0.105493 0.173524 0.569256
-0.126185 -0.0770918 0.548202
-0.0551721 0.141964 0.569256
-0.226006 -0.128323 0.530815
-0.200777 -0.0980515 0.548202
-0.159562 0.245795 0.548202
0.228212 0.0911512 0.0856458
0.213149 0.19275 0.569256
-0.208672 0.0568913 0.353072
0.273821 0.0876761 0.569256
-0.203217 0.0413298 0.131114
0.140297 -0.113614 0.569256
0.216338 0.131277 0.525588
-0.201739 0.0343524 0.424146
0.213564 -0.0895994 0.548202
0.213498 -0.0528265 0.48241
-0.0152442 -0.290424 0.568244
-0.160103 -0.164143 0.548202
-0.0434166 0.247419 0.569256
-0.0752743 -0.128083 0.548202
0.1884 0.205749 0.548202
-0.2766 -0.11224 0.548202
-0.0956185 0.290087 0.565542
-0.201269 0.191581 0.569256
0.214643 -0.0321203 0.413324
0.229978 0.289211 0.569256
0.236576 0.111192 0.103021
0.140801 -0.028023 0.569256
0.142968 -0.287608 0.569256
-0.236099 0.115875 0.0753911
-0.271499 -0.0588227 0.548202
0.210134 0.0561002 0.410732
0.00103164 -0.211411 0.548202
-0.244355 -0.057085 0.569256
-0.179888 0.0225682 0.569256
0.27738 0.0169403 0.569256
0.0881206 -0.179555 0.548202
0.265814 -0.226693 0.0314004
-0.149856 -0.091254 0.548202
0.19782 -0.29315 0.560795
-0.291267 0.0274896 0.556368
-0.204745 -0.0278019 0.472385
-0.0317109 -0.164729 0.569256
0.291019 -0.245937 0.0101122
-0.258251 0.260853 0.548202
-0.276346 0.249031 0.0202251
0.059793 0.109037 0.569256
-0.198849 0.0050915 0.530427
-0.241255 -0.103601 0.548202
0.161993 -0.0684025 0.569256
0.0179366 -0.142825 0.548202
0.220497 -0.144134 0.548202
0.29253 -0.252486 0.561802
-0.201013 0.281668 0.548202
-0.241938 0.275895 0.569256
0.201633 -0.047598 0.148554
0.0922699 0.284258 0.548202
-0.209206 0.167658 0.528003
0.0123995 0.247079 0.548202
0.128118 0.160582 0.569256
-0.30138 0.255571 0.00531095
-0.263554 0.21242 0.0365185
-0.0617276 0.262046 0.548202
0.22185 0.057313 0.124646
-0.20469 0.00314429 0.151282
-0.215197 -0.0332315 0.358171
0.280573 -0.0803234 0.569256
0.0497605 0.0879883 0.548202
-0.134844 0.0109515 0.548202
-0.143997 -0.188744 0.569256
-0.251427 -0.214764 0.548202
0.133319 0.160721 0.548202
0.0483537 -0.096602 0.548202
-0.201425 -0.0459516 0.278757
0.0198969 -0.061275 0.548202
0.244954 0.177859 0.0535035
0.237252 0.216038 0.548202
0.235702 -0.242927 0.00745416
0.0578729 -0.15602 0.569256
0.201051 0.0432481 0.333937
-0.209043 0.0566926 0.380026
0.214441 -0.0101591 0.115454
0.08034 0.171647 0.548202
0.203666 0.00738346 0.108393
-0.151749 0.0698704 0.569256
-0.098989 -0.028117 0.548202
-0.0758678 0.125169 0.569256
-0.202146 -0.0503786 0.569256
-0.216372 -0.0415722 0.163899
0.213442 0.0356381 0.548202
0.0457333 -0.0402488 0.569256
-0.226158 0.130323 0.534292
-0.00694579 0.200354 0.569256
-0.280059 0.0024865 0.548202
0.0462696 0.00256142 0.569256
0.151881 0.165111 0.569256
0.277838 0.168464 0.548202
-0.1957 0.11582 0.548202
-0.204241 0.211555 0.548202
-0.149605 -0.0348323 0.548202
0.136158 0.0275507 0.548202
0.151608 0.118758 0.569256
0.0164468 -0.0685096 0.569256
0.220288 0.0530102 0.532082
-0.057243 0.0809999 0.569256
-0.214446 -0.0143699 0.135436
0.170026 -0.293597 0.55721
-0.167658 -0.062186 0.569256
-0.162726 -0.229593 0.548202
0.0713306 -0.199197 0.569256
-0.292431 0.104229 0.55678
0.228887 -0.175731 0.569256
0.16124 0.19736 0.548202
0.183356 -0.2221 0.548202
-0.242975 0.0361086 0.548202
-0.147251 -0.281339 0.548202
-0.291267 0.230354 0.566013
-0.0861554 0.248931 0.548202
0.198705 0.165144 0.569256
0.103239 -0.148217 0.569256
-0.240598 0.184583 0.548202
0.214232 0.0312994 0.264492
0.215492 0.034592 0.166866
0.0187902 0.0306899 0.548202
-0.245982 -0.286327 0.548202
-0.253248 -0.198964 0.569256
-0.178326 -0.174036 0.548202
-0.181945 0.221886 0.548202
0.258896 -0.246139 0.548202
-0.285731 -0.155173 0.569256
-0.276628 -0.258474 0.0126521
0.232749 -0.0971901 0.0896034
-0.231206 -0.238483 1.73709e-18
-0.292588 -0.252265 0.555072
-0.0129687 0.249144 0.569256
0.251836 -0.142032 0.569256
0.252132 0.214315 0.0415537
-0.0241814 -0.0873946 0.548202
0.107304 0.267703 0.569256
-0.148686 -0.103603 0.569256
0.20144 -0.0461565 0.133365
-0.292431 -0.19955 0.562216
-0.209777 -0.0751669 0.117272
0.20593 -0.0271599 0.341932
0.110855 0.200848 0.548202
0.225985 -0.128437 0.110245
-0.195489 -0.152989 0.548202
0.263104 0.200568 0.548202
-0.202749 0.0159721 0.120656
-0.0692638 0.284592 0.569256
-0.0216741 0.00526401 0.569256
0.147011 -0.188104 0.548202
0.192623 0.2381 0.548202
0.243676 -0.290261 0.568735
0.273666 0.25452 0.548202
0.202743 0.0347781 0.125325
0.182509 0.15904 0.525588
-0.156536 -0.12038 0.548202
-0.200962 -0.0401764 0.314538
-0.263686 -0.250904 0.0426605
-0.291409 0.266246 0.548964
-0.265483 -0.206103 0.00500113
-0.0808444 0.000564486 0.548202
-0.178042 0.288346 0.548202
-0.210602 -0.0154399 0.569256
-0.0440576 -0.276768 0.569256
0.210419 -0.0773101 0.120559
-0.271711 0.211569 -1.23612e-18
0.215366 -0.0736912 0.569256
-0.132024 0.0870576 0.569256
0.0252606 0.0737413 0.569256
-0.0587195 -0.17165 0.569256
-0.245543 0.155118 0.569256
0.092684 -0.115905 0.548202
0.215561 -0.0475437 0.430259
-0.215451 0.0483577 0.122058
0.17941 -0.0106896 0.548202
0.126574 -0.0915637 0.569256
-0.22389 0.100414 0.529789
-0.13237 0.0498684 0.569256
-0.228239 0.0638684 0.569256
-0.20096 -0.0401867 0.173706
0.177842 -0.247496 0.569256
-0.215184 0.0332051 0.202586
0.212368 -0.0322054 0.525588
0.124772 -0.235192 0.569256
0.00948274 0.195758 0.548202
-0.192481 -0.240009 0.569256
0.266568 -0.222415 0.0111626
0.00932574 -0.278772 0.569256
-0.2054 0.263153 0.548202
-0.115271 0.258057 0.548202
0.0410269 0.133206 0.548202
0.207771 -0.0686379 0.548202
0.144895 -0.26905 0.548202
0.014252 -0.23736 0.569256
0.245767 -0.112138 0.569256
0.0821949 0.231603 0.548202
0.201929 0.0493102 0.10805
-0.228707 0.082411 0.105287
0.221793 -0.109994 0.569256
-0.161396 0.206083 0.548202
0.265309 -0.28647 0.548202
0.228693 0.0984717 0.548202
0.0776309 -0.00936338 0.548202
-0.195999 -0.0730108 0.548202
-0.0292785 -0.0154162 0.569256
0.248871 0.284176 0.569256
0.228045 0.180039 0.548202
0.291251 -0.0385403 0.564808
0.265222 -0.0855165 0.569256
0.203316 0.0520836 0.286053
-0.190131 0.142475 0.537388
0.29242 0.0455492 0.557503
0.291824 0.114592 0.551258
-0.117853 -0.121881 0.569256
0.123445 -0.133202 0.569256
-0.0740765 -0.0319194 0.569256
-0.0412846 -0.200478 0.548202
0.0780842 0.124298 0.548202
-0.102379 -0.127314 0.548202
0.262029 -0.0532244 0.548202
-0.207067 -0.0561008 0.42144
0.0660838 -0.119671 0.548202
-0.00576916 -0.272694 0.548202
-0.212935 0.0539719 0.281286
-0.0543378 -0.230789 0.569256
-0.0950654 0.214042 0.548202
-0.0326487 0.113011 0.548202
-0.268287 -0.150357 0.548202
0.0706327 0.0498754 0.569256
0.139902 0.0632616 0.548202
-0.146253 0.213304 0.569256
0.0515007 0.188486 0.569256
-0.218242 0.0832882 0.548202
0.113225 -0.0493247 0.569256
-0.223934 0.0248788 0.569256
-0.159897 -0.259685 0.569256
-0.115304 0.202348 0.569256
-0.120727 -0.250407 0.569256
0.167032 0.0163248 0.548202
-0.0815194 -0.0930628 0.569256
0.288174 0.283842 0.569256
-0.15836 0.175688 0.569256
-0.229529 -0.00730619 0.548202
0.00352567 0.00336054 0.548202
0.177292 -0.126256 0.569256
0.281585 -0.108016 0.548202
-0.292509 0.151225 0.554753
-0.214868 -0.233075 0.548202
0.0950162 0.0909432 0.548202
-0.145113 -0.143234 0.548202
-0.291267 -0.126739 0.567692
0.261208 0.120665 0.569256
-0.24005 -0.123909 0.0908282
0.205163 -0.0550881 0.218433
0.107319 -0.0234897 0.569256
-0.0757317 -0.264453 0.548202
-0.186103 0.16265 0.569256
-0.241881 0.0813438 0.548202
-0.224556 -0.292427 0.561869
-0.152656 0.0854701 0.548202
-0.227029 -0.157875 0.525588
0.0012244 -0.0864765 0.569256
-0.291387 0.0771457 0.548845
-0.133723 0.180148 0.548202
0.0641088 0.164888 0.569256
-0.095218 -0.267164 0.569256
-0.243545 0.136697 0.0880526
-0.221241 -0.0654869 0.529744
-0.107391 0.133624 0.548202
0.266496 -0.167385 0.548202
-0.25023 -0.243794 0.0129303
0.11254 -0.0609737 0.548202
-0.00213626 0.0910306 0.569256
0.0224996 0.248871 0.569256
0.104721 -0.221963 0.569256
0.0155677 0.0519892 0.569256
-0.202749 -0.0166264 0.112795
0.0356991 0.122901 0.569256
0.0675594 0.276066 0.548202
0.0245494 0.290087 0.55793
0.193634 0.13469 0.569256
0.220465 -0.167455 0.548202
-0.0293175 -0.0722108 0.569256
0.293006 0.0886092 0.557793
0.119067 0.112534 0.548202
-0.0592903 0.207307 0.548202
0.173134 0.087531 0.569256
-0.287147 -0.0579646 0.569256
-0.224311 -0.0663313 0.104045
-0.0106103 0.290087 0.553713
0.28557 -0.27218 0.569256
0.21361 -0.0152846 0.569256
-0.00750539 0.145862 0.548202
0.183081 0.118355 0.548202
-0.075878 -0.069884 0.548202
0.25484 0.142133 0.569256
-0.291267 0.204272 0.566753
-0.148777 -0.156811 0.569256
-0.157187 0.27834 0.548202
0.291251 -0.198549 0.569098
0.0896186 0.0370121 0.569256
-0.0728049 0.0616492 0.548202
0.291251 0.205101 0.566346
-0.277502 -0.236 0.0150913
0.162213 -0.0227101 0.569256
0.202743 0.0179799 0.144315
0.0262913 -0.290087 0.565809
0.0937454 -0.264659 0.569256
-0.220629 -0.221333 0.569256
0.111126 0.0819568 0.569256
-0.210944 -0.154701 0.569256
0.13495 -0.177426 0.569256
-0.261736 -0.25632 0.569256
-0.2335 -0.264447 0.569256
-0.120653 0.292427 0.557144
-0.0646667 0.214511 0.569256
0.228753 0.244077 2.03682e-18
0.215624 0.0293072 0.569256
-0.201366 0.0455068 0.153302
-0.252849 0.238755 5.96215e-19
-0.0607298 -0.122054 0.569256
0.117089 0.290087 0.550138
0.189842 -0.146138 0.53541
-0.247191 0.234871 0.548202
0.166036 0.213108 0.569256
-0.231944 -0.147973 0.0802155
-0.215418 -0.0340651 0.135977
-0.178984 -0.292427 0.559429
0.241129 0.154432 0.548202
-0.290576 0.0576206 0.569256
0.153899 -0.0923224 0.548202
0.10918 0.0709933 0.548202
0.20391 0.0559352 0.133247
-0.215479 -0.0481476 0.377242
0.1738 0.151545 0.548202
0.208668 0.0613975 0.569256
0.208593 -0.278786 0.548202
0.198844 0.000562496 0.547285
-0.208422 0.0258335 0.512888
-0.19864 0.0586575 0.525588
-0.0220797 -0.102647 0.569256
0.0531066 -0.048143 0.548202
-0.08048 0.175339 0.569256
0.244716 0.213027 0.00127733
-0.219819 -0.0467275 0.538458
-0.168202 -0.195709 0.569256
-0.10443 -0.290087 0.550083
0.215578 0.035241 0.398072
-0.291267 -0.164219 0.55219
0.114749 -0.237627 0.548202
-0.190891 -0.132437 0.540844
-0.0610462 -0.290481 0.568076
0.0549449 0.00205511 0.548202
0.0286702 0.207951 0.569256
0.151148 0.0516206 0.569256
-0.208925 0.0259054 0.287828
-0.201615 0.0352869 0.351546
-0.0796721 -0.19251 0.548202
0.15384 -0.0469985 0.569256
0.251947 -0.0415109 0.569256
0.26986 0.258225 2.90089e-19
-0.206223 -0.197869 0.548202
-0.0894222 0.253617 0.569256
0.122422 0.0617153 0.569256
0.0477946 -0.288118 0.548202
-0.221878 0.292427 0.561761
0.259662 -0.0847504 0.548202
-0.0446462 0.0812033 0.548202
-0.00964278 -0.0139377 0.548202
0.278313 0.230372 0.0124613
-0.263052 0.0280529 0.569256
-0.0250774 -0.267493 0.569256
0.210879 -0.0269586 0.200891
-0.186883 -0.240291 0.548202
-0.139172 0.00891101 0.569256
0.0702106 -0.227592 0.548202
0.242335 -0.267928 0.548202
-0.285746 0.238195 0.548202
0.027034 -0.249194 0.548202
-0.194593 -0.137448 0.569256
0.232697 -0.200933 0.569256
0.258541 0.218597 0.569256
-0.0474569 0.268497 0.569256
-0.191402 -0.27473 0.548202
-0.0241914 0.166831 0.548202
0.258083 0.0370661 0.548202
-0.109409 0.0443811 0.569256
0.291301 -0.232805 0.548471
0.207317 0.0264179 0.32242
-0.277105 0.048324 0.569256
0.0874233 -0.29054 0.54941
-0.22358 -0.139737 0.548202
0.07838 -0.142439 0.569256
0.201191 0.250439 0.569256
-0.0910716 -0.00540891 0.569256
-0.212226 0.044964 0.548202
-0.192776 0.107534 0.528556
0.02721 -0.272405 0.569256
0.197752 0.211402 0.569256
-0.0369773 0.18084 0.569256
0.174998 -0.125775 0.548202
0.19053 -0.17705 0.548202
-0.20122 -0.0382456 0.261539
0.2098 -0.188215 0.569256
0.040206 0.0546845 0.569256
-0.254715 -0.171243 0.548202
0.0769866 -0.240756 0.569256
-0.250359 -0.208459 0.0633904
0.25731 -0.275971 1.49891e-18
0.244418 -0.241902 0.569256
-0.292431 -0.21949 0.556664
0.278081 0.0498141 0.569256
0.155516 -0.249377 0.569256
0.20843 -0.0568389 0.166605
-0.197654 -0.0430762 0.536983
-0.0810229 -0.178549 0.569256
0.0201319 -0.164372 0.548202
0.241363 -0.178947 0.0808948
-0.0239988 -0.286842 0.548202
0.216025 -0.038589 0.167164
-0.271443 -0.287717 0.569256
0.283661 -0.140525 0.569256
0.203851 0.290087 0.563341
-0.0730796 0.121088 0.548202
-0.240691 0.110242 0.569256
-0.291267 -0.0413094 0.554113
0.0986262 -0.0937781 0.569256
-0.00546992 0.113866 0.569256
0.220145 0.0763637 0.525588
0.286804 -0.0451931 0.548202
0.214441 -0.00742733 0.135963
0.00812912 -0.02195 0.569256
-0.263336 -0.277434 0.00639096
-0.168437 0.116412 0.569256
-0.214519 -0.0644926 0.548202
0.109607 0.106603 0.569256
-0.0964592 -0.107206 0.548202
0.22807 0.0800699 0.10246
-0.205395 -0.0893836 0.569256
-0.219857 0.16183 0.569256
-0.254232 0.209847 0.569256
0.250609 0.135766 0.548202
-0.134713 -0.290087 0.566465
0.124898 0.244169 0.548202
0.21368 0.0228052 0.151282
-0.291267 0.170875 0.55034
0.206865 -0.0856773 0.525588
0.0912156 0.154429 0.548202
-0.14377 0.140313 0.569256
-0.0857481 -0.0649572 0.569256
0.0188054 -0.163382 0.569256
0.0659566 -0.0494903 0.569256
0.0765982 -0.107286 0.569256
-0.0932796 -0.23596 0.569256
0.0342819 0.0234486 0.569256
0.201541 0.0357478 0.244329
0.258316 -0.207285 0.00438079
-0.136763 -0.124695 0.548202
-0.049123 -0.290087 0.548851
-0.292431 -0.107344 0.559413
-0.214604 0.167235 0.548202
-0.272823 0.284896 0.569256
0.0975155 0.13039 0.548202
-0.100146 -0.102839 0.569256
-0.210438 0.12478 0.569256
0.274715 0.151185 0.569256
0.245797 -0.186322 0.548202
-0.225155 0.195591 0.569256
-0.215851 -0.0454096 0.511984
-0.130418 0.240485 0.569256
-0.00435251 0.0353529 0.569256
-0.175942 -0.0741172 0.548202
-0.235944 -0.110308 0.0771325
-0.202787 0.148808 0.525588
-0.0107975 -0.121552 0.548202
0.288491 0.145055 0.548202
-0.11164 -0.290624 0.567644
-0.284528 0.256532 -5.39328e-19
0.261238 0.270208 0.548202
-0.213082 -0.0536771 0.124928
0.142209 -0.206176 0.548202
-0.108582 -0.248087 0.548202
0.169367 0.246184 0.569256
0.247473 0.00197846 0.548202
-0.185742 0.128474 0.548202
0.215957 -0.0380773 0.450866
-0.234883 0.165471 0.548202
-0.207249 0.0996286 0.548202
-0.140631 -0.243184 0.569256
0.202743 -0.0177614 0.138789
0.214608 0.0320509 0.193468
-0.0433457 -0.03341 0.569256
0.0690788 -0.267805 0.548202
-0.0561884 -0.266162 0.569256
-0.291267 -0.0875459 0.553205
0.127107 0.0146324 0.569256
0.0611012 0.209717 0.569256
0.229367 -0.0848176 0.110474
0.291251 0.00050059 0.569237
-0.0939998 -0.139204 0.569256
0.207726 -0.122332 0.525588
0.0939147 0.241984 0.569256
0.210505 -0.224796 0.548202
0.0481989 -0.0902689 0.569256
0.165686 0.291625 0.564643
-0.203963 0.0533492 0.110124
-0.232924 -0.203983 0.569256
-0.117539 -0.0325342 0.548202
0.230867 0.0447364 0.548202
-0.224259 -0.0707041 0.569256
-0.249841 -0.139526 0.569256
0.00504249 0.0616236 0.548202
-0.153095 -0.211419 0.548202
0.213387 -0.0530469 0.368114
-0.266458 0.243036 0.548202
0.0514832 0.239137 0.569256
0.215717 -0.0463776 0.276161
0.301488 -0.254928 -1.4878e-18
0.29242 0.131644 0.560638
-0.193621 0.292427 0.561646
-0.197095 0.210652 0.569256
0.197389 0.167658 0.540008
-0.0396118 0.0240998 0.548202
0.263681 -0.210364 0.0588392
-0.201544 -0.0468415 0.387194
0.141497 0.104416 0.548202
0.00304449 -0.185421 0.548202
0.151485 0.290087 0.560642
0.203085 0.0310392 0.443338
-0.20052 -0.00902571 0.548202
-0.193315 0.063371 0.548202
0.210851 0.0557152 0.489193
-0.0542259 0.231279 0.569256
0.214912 0.0326564 0.518242
-0.265892 -0.226303 0.569256
-0.291267 0.132834 0.548834
0.291251 -0.118427 0.558835
0.190821 0.286418 0.548202
0.291251 -0.0816916 0.548785
0.236912 -0.129367 0.569256
-0.257309 0.231288 0.0370307
0.287145 0.276499 -6.70317e-20
0.272284 -0.20219 0.569256
-0.201815 0.048872 0.266346
0.243307 0.197733 0.548202
-0.0426785 0.157367 0.569256
-0.143319 0.212648 0.548202
0.225662 0.280034 0.548202
0.152192 -0.198022 0.569256
0.0388927 0.216731 0.548202
0.0931714 0.0134755 0.569256
0.194819 -0.0804347 0.53958
0.0911048 -0.0132219 0.569256
-0.260295 -0.209493 0.0385465
0.0921766 0.197578 0.548202
0.206252 -0.0556716 0.185522
0.21351 0.0528027 0.446601
0.164238 -0.221804 0.548202
0.254161 -0.240366 0.0142754
0.0628861 -0.071785 0.569256
0.194606 0.0832401 0.533702
-0.205782 0.102663 0.569256
-0.00654492 -0.19034 0.569256
0.201322 -0.0373828 0.24129
-0.0930329 -0.178968 0.548202
0.21902 -0.293597 0.557752
-0.224402 0.0162989 0.548202
-0.277191 -0.207618 0.548202
0.198786 -0.00341612 0.569256
0.145548 0.201914 0.569256
-0.276275 0.118798 0.569256
0.234086 -0.0656484 0.569256
0.214916 0.0499954 0.255908
0.168589 -0.169287 0.548202
0.0666954 -0.219614 0.569256
-0.0767785 0.0210437 0.548202
0.275652 -0.232137 0.569256
0.291251 0.222958 0.567097
-0.224886 -0.124793 0.108557
0.215374 -0.0489486 0.140513
0.248831 -0.156033 0.0645753
-0.206043 -0.0271065 0.520575
0.0651674 -0.000637919 0.569256
-0.121416 0.205297 0.548202
-0.216191 0.0429093 0.397624
0.222402 -0.116668 0.0960065
0.216141 -0.0414767 0.104928
-0.00777173 -0.0458208 0.548202
-0.227988 -0.0797817 0.117113
0.245607 -0.215942 0.548202
0.290725 0.00477737 0.548202
0.226938 0.10111 0.569256
-0.203577 0.0300809 0.368797
-0.229752 -0.237818 0.569256
-0.0418882 -0.000397593 0.569256
-0.145879 -0.244519 0.548202
0.29236 0.180641 0.554121
-0.184587 0.000102878 0.548202
0.203339 0.0200392 0.525588
-0.103063 0.135217 0.569256
-0.0590903 0.191276 0.569256
-0.179166 0.101131 0.569256
0.0809686 0.290087 0.566711
-0.209392 0.0565051 0.19798
-0.216375 0.0411084 0.304921
0.103192 0.220703 0.569256
0.169528 0.133005 0.569256
-0.159822 0.103343 0.548202
0.270103 -0.0062286 0.569256
-0.178748 0.290087 0.566629
0.0276738 0.235236 0.548202
-0.202368 -0.0324953 0.400729
-0.201801 0.0487682 0.484104
0.227619 0.133805 0.0775191
0.0601846 0.0726011 0.548202
-0.22302 0.272557 0.569256
0.226017 -0.12863 0.536269
-0.245256 0.136551 0.569256
-0.186052 0.066209 0.569256
0.0280222 -0.122567 0.569256
0.233241 0.272026 0.569256
-0.213802 -0.0522304 0.320385
-0.0843545 -0.213091 0.569256
-0.0423571 0.16316 0.548202
-0.20582 0.0272273 0.148134
-0.223625 -0.121051 0.548202
-0.213876 -0.0305768 0.220741
-0.0283701 0.290087 0.561896
-0.140498 -0.0341904 0.569256
0.0733586 0.127036 0.569256
0.265889 0.220119 0.548202
0.0819955 -0.19813 0.548202
-0.104667 0.0366189 0.548202
-0.247157 -0.149909 0.0699887
-0.256195 -0.293584 0.559926
-0.255377 0.196585 0.548202
-0.0563242 0.188326 0.548202
0.0414188 0.290087 0.559025
0.276863 -0.152163 0.548202
0.116293 0.146469 0.569256
0.044918 0.151195 0.548202
0.133339 0.128207 0.548202
0.0412772 -0.163927 0.569256
-0.135416 0.292427 0.554701
-0.084474 0.0652056 0.569256
-0.274515 -0.0228617 0.569256
0.2163 -0.0406447 0.323203
-0.254284 -0.272007 0.548202
0.0300573 -0.205221 0.548202
0.269117 0.111211 0.548202
0.107512 0.2531 0.548202
-0.0771983 -0.246211 0.548202
-0.134589 -0.0452574 0.548202
0.227332 0.145998 0.530902
0.252364 0.190402 0.569256
0.257434 0.231731 0.0399977
-0.178298 -0.202296 0.548202
-0.202198 -0.101077 0.525588
-0.0461985 -0.206604 0.569256
0.221517 0.167658 0.535306
-0.21729 0.00237302 0.525588
0.211683 -0.139107 0.569256
0.0699367 0.104374 0.548202
-0.238601 0.169842 0.0708423
-0.156677 0.0418583 0.548202
0.201019 -0.0396512 0.403943
0.246721 -0.159467 0.569256
0.206559 0.206062 0.548202
-0.214522 0.0507846 0.332057
-0.120945 0.117091 0.548202
0.25398 -0.174871 0.0675056
-0.201432 0.046007 0.459725
-0.29217 0.218332 0.553041
-0.254024 -0.0635052 0.548202
0.228626 -0.137111 0.0828667
-0.0451315 -0.250649 0.569256
-0.29185 0.184581 0.56574
0.0600011 0.272881 0.569256
-0.236115 0.109514 0.0932478
-0.07913 0.102881 0.548202
-0.184064 0.264957 0.569256
0.131555 -0.125289 0.548202
-0.187182 -0.182419 0.569256
0.109951 -0.178842 0.569256
0.224439 -0.0667879 0.116474
0.23008 -0.00804111 0.569256
-0.145203 0.257369 0.548202
-0.187586 -0.0110036 0.569256
0.0751653 -0.167122 0.548202
-0.216493 0.0536948 0.142462
-0.114925 0.0925229 0.569256
-0.215503 0.0939753 0.119019
0.290268 0.0299417 0.548202
-0.230737 0.227784 0.548202
0.159205 0.0987885 0.569256
0.216208 -0.039955 0.380222
-0.0144569 0.261825 0.548202
-0.216235 -0.0400787 0.47854
-0.212722 -0.0282581 0.451346
0.0940406 -0.0304753 0.548202
0.210444 -0.232131 0.569256
0.200949 0.0424891 0.482327
-0.232703 0.0404131 0.569256
-0.203738 0.0937832 0.525588
0.153283 0.0128741 0.569256
-0.137897 0.111121 0.548202
-0.200909 -0.0405744 0.244303
0.284992 0.248858 -7.99078e-19
0.0870651 -0.224042 0.569256
0.21802 0.128828 0.569256
-0.0580636 -0.132506 0.548202
0.0602415 0.0916472 0.569256
0.160999 0.163723 0.548202
-0.216082 0.0389489 0.503769
-0.271497 0.161864 0.569256
0.200788 -0.109418 0.548202
-0.0322426 0.224474 0.548202
-0.200879 0.040801 0.173622
0.271665 -0.240326 0.0217985
-0.149753 0.272504 0.569256
0.216557 0.164792 0.569256
-0.122823 -0.135528 0.548202
0.273794 -0.100939 0.569256
-0.226274 -0.256956 0.548202
0.163541 -0.107061 0.548202
0.201355 0.0371403 0.156679
-0.244549 0.189378 0.0639044
-0.253347 0.0788822 0.569256
-0.201204 -0.0442933 0.20719
-0.170073 0.0383083 0.569256
0.220265 0.248366 0.569256
0.240252 0.120873 0.569256
0.171104 -0.0534081 0.569256
-0.174716 -0.270888 0.569256
-0.0305395 -0.147236 0.569256
0.180241 0.018509 0.569256
-0.239603 -0.173132 0.0803645
0.216182 -0.0397597 0.468287
-0.206107 -2.59623e-07 0.129936
0.0803177 0.212351 0.569256
-0.215999 -0.0383422 0.387907
0.210104 0.0762788 0.0967479
0.21834 0.00797727 0.541784
0.222106 -0.0285749 0.548202
0.291806 0.248212 0.551164
0.212927 0.053965 0.373499
-0.232468 0.149696 0.0765356
0.252125 0.0855285 0.569256
-0.0956166 -0.0222334 0.569256
0.291251 -0.174572 0.557362
0.291251 -0.275611 0.552111
0.184246 -0.22575 0.569256
-0.254092 -0.0714896 0.569256
-0.217453 0.0726571 0.0950182
-0.268915 -0.235638 0.0517207
-0.282736 0.0251376 0.569256
-0.284682 -0.292427 0.56033
-0.216372 0.0415757 0.430017
-0.0923202 0.271055 0.548202
-0.226035 -0.128567 0.0817583
-0.182855 0.145678 0.569256
-0.171999 0.0773244 0.569256
-0.271585 0.239794 0.0330278
-0.247548 -0.102918 0.569256
-0.0450074 0.0359324 0.569256
0.0758643 0.105123 0.569256
-0.109105 0.151343 0.569256
-0.0253841 -0.0481493 0.569256
-0.0781256 0.217048 0.548202
0.00497922 -0.0698315 0.548202
-0.253333 -0.172505 0.061125
-0.116886 -0.0915284 0.548202
-0.251427 -0.153554 0.548202
0.202897 -0.0314151 0.514011
-0.216046 -0.043972 0.26946
-0.0359953 0.0960008 0.548202
0.240579 -0.291233 0.551258
0.112743 -0.21757 0.548202
-0.176903 -0.116768 0.548202
0.0743529 -0.251552 0.548202
0.213255 -0.168923 0.569256
0.272933 0.104699 0.569256
0.137067 -0.0750832 0.569256
0.0219824 0.133005 0.569256
-0.163591 0.152859 0.548202
-0.232862 -0.169077 0.569256
-0.207565 -0.067902 0.10143
0.20769 0.0262181 0.501701
-0.122207 -0.200927 0.569256
0.20708 0.0154139 0.548202
-0.216294 -0.0965706 0.10719
-0.0228325 0.0241087 0.569256
-0.0159474 -0.211882 0.548202
0.204681 -0.0548119 0.235398
-0.297496 -0.266778 0.00108648
0.213505 0.052811 0.272526
0.116433 0.162082 0.548202
-0.236093 0.293279 0.560537
-0.215954 -0.0380113 0.109949
0.210839 -0.0269371 0.178276
0.288354 0.262902 0.548202
-0.292235 -0.236341 0.563421
0.167296 0.123877 0.548202
0.214376 0.0903099 0.111413
-0.0892288 -0.287554 0.548202
-0.0133204 0.130037 0.548202
0.203106 0.0180216 0.569256
-0.20084 -0.0410922 0.499664
-0.194886 0.246658 0.569256
-0.156089 -0.292739 0.555065
0.132828 -0.0587215 0.569256
-0.203018 -0.0514626 0.480155
0.243735 0.154763 0.569256
-0.0694626 0.0430487 0.569256
-0.209927 -0.0562175 0.158766
-0.184204 -0.20083 0.569256
0.103574 -0.292312 0.554133
-0.215464 0.114305 0.525588
-0.247625 -0.0876216 0.548202
-0.0558476 -0.0222441 0.569256
0.143976 0.273725 0.569256
0.20127 0.0448837 0.365591
0.203635 -0.278401 0.569256
-0.280662 0.206407 0.548202
0.205646 -0.125411 0.548202
0.251727 0.0525134 0.548202
0.24737 0.252295 0.548202
-0.0212443 0.0598006 0.569256
-0.208901 0.0567686 0.299401
0.287757 0.0970589 0.569256
-0.20825 0.0567358 0.233276
0.252502 0.0445004 0.569256
0.183804 0.0876957 0.548202
-0.260544 0.198888 0.0620934
0.275966 0.167874 0.569256
0.184982 0.254126 0.569256
-0.201764 0.0341677 0.308742
-0.0695623 0.150265 0.569256
-0.126069 0.179559 0.569256
0.0609253 -0.175668 0.548202
-0.220577 -0.0960694 0.569256
-0.201823 0.0337256 0.407574
0.0162082 -0.13419 0.569256
0.0170991 -0.215547 0.548202
0.0141445 0.263167 0.569256
0.215493 -0.0480576 0.352482
-0.212681 -0.0281768 0.320659
-0.211311 0.0271839 0.436394
-0.0338524 0.259307 0.548202
0.191655 -0.237576 0.548202
0.217536 0.114799 0.525588
0.271606 0.0259007 0.548202
-0.229257 -0.0844251 0.0921254
-0.291267 -0.0718915 0.560611
0.183782 -0.290087 0.568862
0.0062696 -0.253309 0.548202
-0.152816 0.198167 0.569256
-0.147653 0.171312 0.548202
-0.146553 -0.0143842 0.548202
-0.260864 0.275456 0.00687917
-0.0699951 0.245666 0.548202
0.134299 0.0502878 0.569256
-0.264366 -0.248426 0.0257335
0.21834 -0.00983 0.532228
-0.0559729 -0.19305 0.548202
0.10403 0.0165818 0.548202
-0.131994 -0.172348 0.569256
-0.151101 0.0636214 0.548202
0.216148 0.039513 0.433831
0.255229 0.222775 0.0101684
-0.158068 0.159263 0.569256
-0.216823 -0.200727 0.569256
0.111974 0.0209994 0.569256
-0.262186 0.0116634 0.569256
-0.254704 -0.25281 9.28644e-19
0.01659 0.109205 0.548202
-0.20686 0.0715113 0.569256
0.0373607 -0.261796 0.548202
0.0971428 -0.133112 0.569256
-0.215869 -0.0452778 0.429836
0.140853 0.17709 0.569256
0.200748 0.150816 0.548202
0.215414 0.0486506 0.182958
0.216314 -0.0419044 0.398872
0.162992 -0.290703 0.567408
-0.0134997 0.290087 0.568121
-0.227852 0.134534 0.0843617
0.26632 -0.00569096 0.548202
0.201135 -0.0438757 0.328073
0.0422638 -0.0131771 0.569256
0.274751 0.217645 0.569256
0.205029 -0.255223 0.569256
-0.233158 0.134871 0.548202
0.127105 -0.290087 0.56563
0.279234 -0.23041 -1.05852e-18
0.109838 0.251705 0.569256
0.149974 0.0906189 0.548202
0.137544 0.227881 0.569256
0.161639 -0.267896 0.548202
0.197756 0.186865 0.569256
-0.171467 -0.0886117 0.569256
0.25225 -0.00136161 0.569256
0.261306 0.0155357 0.569256
-0.0620355 -0.0426842 0.569256
0.260359 -0.239313 0.569256
0.173217 -0.239567 0.548202
0.0100205 0.290087 0.550885
-0.19216 -0.115662 0.543043
-0.133989 -0.0941923 0.548202
-0.0579403 0.277727 0.548202
-0.216028 -0.0385523 0.308795
-0.0683667 -0.112108 0.548202
-0.218345 -0.0185415 0.545423
-0.0651909 -0.0901588 0.569256
0.275608 -0.276327 0.00632549
0.285626 -0.290133 0.569118
-0.279854 -0.248273 0.548202
0.0443223 -0.139621 0.548202
-0.0152464 -0.153514 0.548202
0.0206428 0.0319285 0.569256
0.200032 0.112691 0.548202
-0.0169573 0.186103 0.569256
0.128502 -0.275125 0.569256
0.095898 0.164917 0.569256
0.125873 -0.270702 0.548202
-0.25578 -0.238729 0.569256
-0.179353 -0.156176 0.543391
-0.12372 0.0407681 0.548202
0.214264 0.0313641 0.233454
0.291251 0.0705004 0.549329
-0.194058 -0.100681 0.569256
-0.185467 0.194099 0.569256
-0.279687 0.100013 0.548202
0.126118 0.205646 0.548202
-0.023601 0.287107 0.548202
0.21834 0.015628 0.528846
-0.0850441 0.211262 0.569256
-0.233832 -0.0520156 0.548202
0.171021 0.0425036 0.569256
-0.0267247 -0.197806 0.569256
-0.205749 -0.231171 0.569256
-0.0962274 0.114407 0.548202
-0.289875 -0.269728 0.548202
0.291251 0.163122 0.554932
0.0865175 -0.155953 0.548202
0.275796 0.185486 0.569256
0.138848 -0.20993 0.569256
-0.267926 0.225893 0.0475686
0.224549 0.0671889 0.111657
-0.172047 -0.24768 0.569256
-0.249503 0.0643841 0.548202
-0.00654832 -0.278168 0.569256
-0.221636 0.233207 0.569256
-0.0613728 -0.0588068 0.569256
-0.196491 -0.0584488 0.541963
0.198844 -0.0113845 0.536881
0.186832 0.0345605 0.548202
0.249538 -0.129967 0.548202
-0.180015 0.155962 0.5427
-0.273969 0.0934528 0.569256
0.0966771 0.225286 0.548202
0.0635969 -0.0924495 0.548202
-0.15966 -0.114968 0.569256
0.151182 0.23503 0.548202
-0.216265 0.0423607 0.108058
-0.214482 0.0317964 0.133949
0.175851 0.228663 0.569256
-0.112827 0.0838466 0.548202
0.245545 0.01287 0.569256
-0.0564967 0.0567856 0.548202
-0.292431 -0.141274 0.561821
0.112543 0.191323 0.569256
-0.00491011 0.208697 0.548202
-0.144159 -0.173933 0.548202
0.248641 0.268946 0.569256
0.202743 0.00275846 0.133582
0.19896 0.223448 0.548202
0.1517 0.269533 0.548202
0.240751 -0.115137 0.548202
0.106682 -0.254799 0.569256
0.278691 -0.251154 -3.94693e-19
0.229298 -0.155961 0.54047
0.216104 0.0391798 0.348408
0.0570764 0.0175386 0.548202
0.203956 -0.105216 0.569256
0.0113013 0.0807608 0.569256
-0.213948 -0.18429 0.548202
0.213022 0.0537767 0.199924
0.206418 0.064172 0.109625
0.102074 -0.0725483 0.548202
0.0720293 0.0309103 0.548202
0.280955 -0.249235 0.548202
-0.215044 -0.0303797 0.569256
-0.280548 -0.00849256 0.569256
-0.218345 0.0207394 0.526008
-0.0285302 0.203558 0.548202
0.228637 -0.0501721 0.569256
0.201835 -0.15835 0.569256
-0.25573 -0.226099 0.0443572
0.0486553 0.163092 0.569256
0.167505 -0.23587 0.569256
-0.111513 0.173475 0.548202
-0.0540638 0.0297791 0.548202
-0.061885 0.290087 0.557568
-0.200845 0.0196952 0.525588
-0.216351 0.040929 0.413004
0.254368 -0.221659 0.0537695
0.267653 0.224899 0.0553246
0.0318466 -0.239147 0.569256
-0.0389421 -0.0827442 0.548202
-0.0964521 -0.179702 0.569256
0.0038282 -0.0490716 0.569256
0.229519 0.186059 0.569256
0.227876 0.197024 0.548202
0.202592 -0.0521458 0.548202
0.216372 0.0414708 0.126778
0.202909 0.0512685 0.215092
-0.203511 -0.0302109 0.188502
0.101501 -0.228973 0.548202
0.215988 0.0383142 0.365037
-0.202603 -0.0320249 0.28516
-0.175813 0.0814245 0.548202
-0.266726 -0.00514245 0.548202
-0.0629121 -0.0943358 0.548202
0.291251 -0.238778 0.568593
-0.162079 0.027498 0.548202
-0.191288 0.0481664 0.548202
-0.0611056 0.111505 0.548202
-0.203098 -0.217203 0.548202
-0.292431 0.0133376 0.560254
-0.111745 0.29091 0.566788
-0.292385 0.0413465 0.562515
-0.203854 -0.168252 0.569256
0.106464 -0.125683 0.548202
-0.0918634 -0.00999433 0.548202
0.176102 0.136383 0.548202
0.201821 0.145301 0.525588
0.151141 0.1521 0.548202
0.0374132 0.24499 0.569256
0.214369 0.0860954 0.569256
-0.0862057 -0.0363838 0.548202
0.23695 0.222497 0.569256
0.0752353 0.197528 0.548202
0.165033 -0.211876 0.569256
0.104612 -0.0875417 0.548202
0.214143 -0.167657 0.530555
-0.230243 -0.0304855 0.569256
-0.21613 -0.0393058 0.242567
0.203653 0.0771728 0.548202
-0.017006 -0.0811071 0.569256
-0.00609002 0.0148687 0.569256
-0.263982 0.221569 0.0105914
-0.060016 0.121266 0.569256
0.243177 0.292427 0.559051
-0.0817009 -0.0838953 0.548202
0.00480074 0.220863 0.548202
0.110028 -0.290087 0.569168
-0.214446 -0.015011 0.150685
-0.213368 -0.0869608 0.126091
-0.0961984 0.082056 0.548202
-0.220511 0.110424 0.0879196
0.0322294 -0.0560494 0.569256
0.227899 -0.0794456 0.124539
-0.0419483 0.0629424 0.548202
-0.277087 -0.221961 -1.20253e-18
0.247812 0.152304 0.075644
-0.0741937 0.270599 0.548202
-0.203935 0.0293654 0.465082
0.253969 -0.223697 7.5689e-20
0.204383 -0.143067 0.548202
0.218741 0.292427 0.558025
-0.162663 -0.0424099 0.548202
0.238501 0.109929 0.548202
0.104778 -0.0480518 0.548202
0.0680145 0.162976 0.548202
0.080728 -0.290087 0.565201
-0.243411 0.290087 0.552619
-0.208587 -0.145584 0.548202
-0.0504499 -0.117514 0.548202
0.291251 0.0308987 0.567945
0.0927376 -0.028166 0.569256
0.267989 -0.119222 0.548202
-0.194094 -0.167657 0.545263
0.24977 -0.230376 0.548202
-0.0420234 0.0872015 0.569256
-0.0793622 -0.241587 0.569256
-0.28126 0.290087 0.557978
-0.291267 -0.032826 0.566087
0.131493 -0.003263 0.569256
0.00571853 0.152938 0.548202
-0.229514 0.139995 0.0989002
0.0828071 0.216647 0.548202
0.115762 -0.151741 0.548202
-0.194429 -0.255893 0.569256
0.186011 -0.0805096 0.569256
0.0463745 0.201571 0.548202
0.25538 -0.260656 0.548202
0.0511333 0.273592 0.548202
-0.0818481 0.293199 0.560696
0.282449 0.0414889 0.548202
-0.0743567 -0.290087 0.564266
0.246934 -0.196482 0.569256
-0.222804 -0.093566 0.548202
-0.2511 -0.268998 0.00804412
-0.193327 0.0822847 0.548202
0.201029 -0.0395737 0.457195
0.289488 0.290087 0.557585
-0.21528 0.122698 0.548202
-0.27993 -0.093533 0.548202
-0.281301 0.219085 0.00856416
0.265699 -0.183178 0.548202
0.209975 0.056185 0.521825
-0.244476 -0.140102 0.0818168
0.0526435 -0.262906 0.569256
-0.291267 0.281071 0.550139
-0.212835 0.0542411 0.525588
0.212785 0.0284109 0.307637
-0.11095 0.116685 0.569256
0.0197975 -0.0333849 0.569256
-0.190736 0.265508 0.548202
-0.160589 -0.0247505 0.569256
0.062459 0.224496 0.569256
0.277752 0.118731 0.569256
0.0788948 -0.128913 0.548202
0.125016 0.0767537 0.569256
0.216341 -0.041704 0.251046
-0.0971344 0.188345 0.548202
