0.260233 0.130775 0.396449
-0.362834 -0.0480538 0.381785
0.128257 -0.162107 0.381785
-0.185224 0.136692 0.381785
-0.0687453 0.0663274 0.381785
0.285746 0.179974 0.381785
-0.0584767 0.258763 0.396449
0.324794 -0.174959 0.396449
0.292999 0.1124 0.396449
0.0696467 -0.0075799 0.381785
0.336297 -0.142037 0.381785
0.0154776 0.0127493 0.396449
-0.0897625 -0.165732 0.396449
0.249302 0.037067 0.294824
-0.342209 -0.0118951 0.381785
-0.221271 0.263458 0.396449
0.237023 -0.12616 0.396449
-0.293065 -0.197158 0.396449
0.252155 -0.0269019 0.171622
-0.0213882 0.0827542 0.396449
-0.000617415 0.282625 0.381785
0.130632 -0.0501813 0.381785
0.0345658 0.21471 0.381785
-0.237034 0.195181 0.381785
-0.290283 0.288782 0.396449
-0.0208541 -0.124741 0.396449
0.244721 0.0516265 0.0949431
0.0474868 0.0329203 0.396449
0.0679667 -0.137023 0.381785
0.244811 0.260884 0.396449
-0.317705 0.0521156 0.381785
-0.16519 -0.024688 0.396449
0.0368484 0.302235 0.381785
0.151556 0.0040583 0.396449
-0.0617267 0.206826 0.381785
-0.119016 0.176168 0.381785
-0.241844 0.11036 0.0695635
0.18849 -0.133482 0.396449
-0.0516301 -0.165488 0.381785
0.296961 -0.0300836 0.381785
-0.236903 -0.0320806 0.272814
-0.217271 0.113307 0.366036
0.283288 -0.111647 0.396449
-0.101429 -0.292192 0.396449
0.0912882 0.110776 0.381785
0.313004 -0.305066 0.381785
-0.114973 -0.104109 0.396449
0.0127003 -0.202588 0.396449
-0.0962 -0.241705 0.381785
-0.202305 0.198754 0.396449
-0.268333 0.171362 0.381785
0.188663 -0.184566 0.396449
-0.140183 0.314836 0.396449
0.0700799 0.232094 0.396449
0.0255188 -0.119243 0.381785
0.176108 0.199298 0.396449
0.108081 -0.302228 0.396449
-0.046235 -0.0715554 0.396449
0.00882506 -0.15906 0.381785
0.122877 0.183265 0.381785
0.236651 0.0308285 0.218578
0.144782 0.318076 0.396449
0.0319135 -0.0518784 0.381785
-0.0793911 0.0267676 0.381785
0.0599728 0.181237 0.381785
0.160024 -0.0948888 0.396449
-0.308962 0.217538 0.381785
0.219957 0.136419 0.381785
-0.340663 -0.223644 0.396449
0.0409108 0.115611 0.381785
-0.161396 -0.147586 0.381785
0.122914 -0.268403 0.396449
-0.213669 -0.139844 0.396449
0.224298 0.193084 0.000948732
-0.0623598 -0.105088 0.396449
0.309179 0.273635 0.396449
-0.146492 0.183671 0.396449
0.215175 -0.0680529 0.396449
-0.248107 0.196242 0.0318804
0.0709949 -0.207856 0.396449
0.324171 0.00717477 0.396449
0.0638126 0.0666105 0.381785
-0.0840738 -0.120899 0.396449
0.254569 0.010215 0.373606
-0.136295 0.272397 0.396449
0.0813284 0.325848 0.386474
-0.0259038 0.325848 0.387002
0.35234 0.183895 0.393079
-0.254127 0.0376904 0.396449
0.238836 -0.0213475 0.0752811
0.116024 0.051635 0.396449
-0.0942741 0.326523 0.390211
0.246351 0.0807135 0.366036
0.240554 -0.0588793 0.0644115
0.364136 -0.0494228 0.384555
-0.247704 0.115307 0.366036
-0.154841 -0.207463 0.396449
0.197189 0.0606485 0.396449
-0.242249 -0.0394375 0.381785
0.221863 -0.112067 0.366036
0.27696 0.15822 0.381785
0.25995 0.196952 0.396449
0.363946 0.0571197 0.390074
0.337066 0.269288 0.396449
0.241469 -0.170584 0.381785
-0.252734 0.265365 0.381785
-0.247789 -0.0925627 0.396449
-0.253469 0.102379 0.396449
0.23788 -0.122481 0.0452062
-0.199941 0.0120631 0.396449
-0.281763 0.121349 0.381785
0.0618313 -0.276771 0.396449
0.156533 0.106566 0.381785
0.180591 -0.324219 0.387793
0.0115511 0.141146 0.381785
-0.220668 -0.182044 0.381785
-0.0261341 -0.253049 0.396449
-0.197637 -0.236389 0.396449
0.259721 0.0643419 0.371975
0.320573 0.127758 0.381785
0.340654 -0.230239 0.381785
0.225704 0.199268 0.381785
-0.0969087 0.156649 0.396449
0.273827 0.24843 0.381785
-0.317837 -0.255104 0.396449
0.0483801 -0.215594 0.381785
-0.132137 -0.0261134 0.381785
-0.271265 -0.248701 0.381785
0.0102174 0.237268 0.381785
0.0568254 0.265309 0.396449
-0.226945 -0.017152 0.396449
-0.336682 0.273131 0.386146
0.165309 -0.168428 0.396449
-0.31499 0.252256 0.381785
-0.311926 -0.0948596 0.396449
0.242784 0.0477262 0.0683149
0.148898 0.255249 0.396449
-0.0819764 0.182268 0.396449
-0.201744 -0.0507453 0.396449
-0.176948 -0.318111 0.396449
-0.252351 -0.0391402 0.0761935
0.285151 -0.235097 0.381785
0.167843 0.0503467 0.381785
0.275805 -0.313458 0.381785
0.308204 0.207599 0.381785
0.0242287 -0.324627 0.395225
-0.0539768 0.14775 0.396449
-0.300959 -0.306269 0.381785
-0.313148 0.124943 0.396449
-0.361031 0.102242 0.389263
-0.158142 -0.273462 0.381785
-0.231493 0.0802524 0.366036
-0.111459 0.121296 0.381785
0.341455 0.0883011 0.381785
0.238399 0.111221 0.0691914
0.0481557 0.320031 0.396449
0.198145 0.300215 0.396449
0.0168401 -0.0223859 0.381785
0.245944 0.0472067 0.396449
0.245855 -0.100786 0.381785
0.308583 0.0484671 0.396449
-0.0471633 0.243785 0.381785
-0.266996 -0.151525 0.381785
-0.0747195 -0.305813 0.396449
-0.338691 -0.1166 0.396449
-0.309497 -0.283813 0.381785
-0.141222 0.0607221 0.381785
0.176628 -0.29895 0.396449
-0.0643398 -0.0562818 0.396449
0.261089 0.00870092 0.396449
0.0494642 0.145717 0.396449
-0.00931105 -0.231258 0.381785
0.167863 -0.228335 0.396449
0.0342554 -0.272371 0.396449
-0.139848 0.224578 0.381785
-0.251111 0.0346539 0.162803
-0.256392 -0.18423 -9.80171e-19
0.0688297 -0.114417 0.396449
-0.209432 0.0789176 0.381785
0.193921 -0.255361 0.381785
0.0966914 0.263806 0.381785
-0.0165163 -0.0570186 0.396449
0.0971855 0.0417218 0.381785
0.238317 0.0355271 0.156672
0.248026 -0.042246 0.396449
0.0917294 0.165679 0.381785
-0.0803788 -0.265858 0.381785
0.204894 0.232908 0.396449
-0.19998 0.227613 0.396449
-0.0214672 0.194367 0.381785
0.226153 0.105819 0.366036
0.0050433 -0.0919363 0.396449
-0.1943 0.16177 0.396449
0.318041 -0.0325357 0.396449
-0.353796 0.044822 0.381785
0.145846 -0.301675 0.381785
0.321358 -0.285869 0.396449
0.308606 -0.195147 0.396449
0.310733 -0.254742 0.381785
0.263619 -0.0559733 0.396449
-0.158252 0.139393 0.396449
0.290792 -0.0865113 0.381785
-0.226159 0.28949 0.396449
0.114919 -0.325583 0.385421
-0.36067 -0.0775559 0.396449
-0.18514 -0.122173 0.396449
0.0149623 0.0807786 0.396449
0.0966807 -0.073827 0.381785
-0.126384 -0.0814533 0.381785
0.246811 -0.275097 0.381785
-0.244147 -0.271317 0.396449
-0.285056 0.0658261 0.381785
-0.251955 0.00254183 0.366036
0.242411 0.286625 0.396449
0.244902 -0.3 0.381785
0.249722 -0.189351 0.0269276
-0.252399 -0.0281207 0.336095
-0.127665 0.255391 0.381785
0.131177 0.0706157 0.381785
-0.250073 0.16937 0.0438332
0.099464 0.294866 0.396449
-0.0658261 0.284617 0.396449
-0.14163 0.038482 0.381785
-0.318637 -0.224779 0.381785
-0.323694 0.0874441 0.381785
-0.232712 0.0415127 0.366036
-0.0455706 0.0718627 0.396449
-0.120253 -0.168603 0.396449
0.146709 0.149828 0.381785
-0.201869 0.281321 0.381785
0.250845 0.125187 0.0438534
0.177937 -0.0825692 0.381785
-0.169579 0.0625755 0.381785
-0.0448221 -0.306062 0.381785
0.137103 -0.120222 0.381785
0.244371 -0.0396392 0.326061
0.231459 -0.0431623 0.366268
0.27994 -0.000747301 0.381785
-0.142059 -0.318621 0.396449
-0.166095 0.160491 0.381785
-0.331617 0.216437 0.396449
-0.0110967 -0.292103 0.396449
-0.202411 0.249158 0.381785
0.267053 0.324856 0.394538
0.208212 0.0121689 0.381785
-0.290477 -0.0532279 0.381785
-0.312373 0.0344176 0.396449
0.050873 0.196133 0.396449
0.221768 0.116452 0.396449
0.137755 -0.148097 0.396449
-0.276797 0.0143967 0.381785
-0.276848 0.234288 0.381785
-0.245919 -0.198065 0.0315958
-0.287126 -0.105519 0.381785
0.0373255 -0.251342 0.381785
-0.0903642 0.207152 0.381785
-0.240775 0.120753 0.0427554
-0.197178 -0.0164717 0.381785
-0.248742 -0.325849 0.386366
0.0525703 -0.06784 0.396449
0.337068 -0.120313 0.396449
-0.173943 -0.192819 0.381785
0.211244 -0.193044 0.381785
0.30675 -0.16021 0.381785
0.304477 0.0824369 0.381785
0.1455 0.0349801 0.396449
-0.252739 0.138581 0.381785
0.233431 -0.018563 0.396449
-0.321344 0.00209419 0.396449
0.330601 0.217898 0.396449
-0.251078 -0.111891 0.0546963
0.0852187 -0.0254319 0.396449
-0.321156 -0.177443 0.381785
-0.0712657 0.106919 0.396449
-0.0878758 -0.0293357 0.396449
-0.206076 -0.29951 0.396449
0.254867 -0.220669 0.381785
-0.177935 -0.0910631 0.396449
0.195908 0.249974 0.381785
-0.0230008 0.137068 0.396449
0.260733 0.206476 -1.33465e-18
0.125477 0.0953808 0.381785
-0.0218647 0.0573454 0.396449
-0.0980921 -0.0527606 0.381785
-0.247609 -0.178895 0.381785
-0.053173 -0.0213554 0.396449
-0.228994 -0.0752814 0.396449
0.0121293 0.298846 0.396449
-0.192747 -0.148155 0.381785
0.356366 -0.151609 0.395713
-0.0159734 0.234876 0.381785
0.227672 -0.0764839 0.36755
0.262341 0.0985914 0.396449
-0.278388 -0.183865 0.381785
-0.23998 -0.122809 0.396449
-0.132518 -0.28313 0.396449
-0.171077 0.204144 0.396449
-0.0397037 -0.273724 0.381785
0.362721 -0.0960275 0.386887
0.343874 0.03312 0.396449
-0.138351 0.108657 0.381785
0.0506843 -0.314385 0.396449
0.287807 0.13801 0.396449
0.0770994 -0.164674 0.396449
-0.357399 -0.0126755 0.396449
0.0581872 -0.0408979 0.381785
0.262794 0.220108 0.381785
-0.0496203 -0.232907 0.381785
0.0521892 -0.170996 0.381785
0.297144 -0.0688864 0.396449
0.23358 -0.140864 0.381785
-0.139476 -0.137132 0.396449
0.135417 0.283522 0.396449
-0.047086 -0.11667 0.396449
-0.250792 0.166113 0.396449
0.0980544 0.00819541 0.396449
-0.00774917 0.0222075 0.381785
0.227209 -0.187516 0.00445331
5.48827e-07 0.256263 0.387927
-0.258643 0.222111 0.396449
0.292086 0.265073 0.396449
-0.149217 0.288741 0.381785
-0.34936 -0.089099 0.396449
0.149845 -0.0742986 0.396449
0.353192 0.134635 0.381785
0.245408 -0.0795455 0.0828791
0.126047 -0.240964 0.396449
-0.259675 -0.0713533 0.381785
-0.256799 0.189036 -1.01339e-18
0.305557 0.326165 0.390926
0.00359172 0.175448 0.396449
0.169738 0.22267 0.381785
0.179164 0.169801 0.396449
0.200339 -0.163675 0.381785
0.220492 0.267936 0.381785
0.108857 -0.108328 0.381785
0.20513 -0.215853 0.396449
0.0158749 0.100481 0.381785
-0.329921 -0.279968 0.396449
0.315072 -0.120455 0.381785
0.240013 0.166117 0.0268782
0.280003 -0.163597 0.381785
-0.240405 0.0016633 0.105358
0.168802 0.306212 0.396449
0.0155084 -0.305213 0.396449
-0.355795 0.156171 0.385407
0.234204 -0.00556681 0.36945
-0.105885 -0.0757322 0.396449
-0.262401 0.324219 0.385216
-0.28712 0.0849735 0.381785
-0.164234 -0.173026 0.396449
0.034449 0.0171003 0.396449
-0.218515 -0.202114 0.381785
-0.0596182 0.0417476 0.381785
-0.358026 -0.138324 0.383724
-0.108846 0.0434914 0.381785
0.267247 -0.210055 0.396449
0.133449 0.205554 0.396449
-0.252431 0.0345703 0.10224
-0.00460514 -0.109159 0.396449
0.322399 0.0736536 0.396449
-0.329184 0.173522 0.396449
0.262456 -0.187767 0.381785
0.245974 0.220302 0.396449
0.112643 -0.0678549 0.396449
0.239893 0.0787728 0.0832128
0.0182994 -0.175866 0.396449
0.209454 -0.13276 0.381785
-0.306771 -0.136561 0.381785
0.0497362 0.239351 0.381785
0.256511 -0.0361002 0.368473
0.290693 0.202432 0.396449
-0.0215123 0.0353339 0.381785
-0.149581 6.2695e-07 0.382888
-0.134741 -0.303505 0.381785
-0.251711 0.0757052 0.0829623
-0.340606 0.198913 0.381785
-0.134694 -0.222046 0.381785
-0.0751143 0.257788 0.381785
0.128482 -0.00571248 0.381785
-0.0131146 -0.143137 0.381785
-0.262916 0.198651 0.381785
0.0422197 0.00130751 0.381785
0.248292 0.145332 0.381785
-0.220631 0.306597 0.381785
-0.249862 -0.0363186 0.12066
0.239824 6.2695e-07 0.0922295
0.204784 0.168387 0.396449
-0.102683 6.2695e-07 0.386224
0.171288 0.261476 0.381785
0.278091 0.0953498 0.381785
0.195109 0.109555 0.396449
-0.248009 0.0192164 0.349416
-0.0872455 0.105805 0.381785
0.307716 6.2695e-07 0.396069
0.24497 0.0287832 0.0955435
-0.252497 0.0286106 0.236413
-0.275689 0.297011 0.381785
-0.0840693 0.222521 0.396449
-0.118274 0.0407298 0.396449
-0.24212 -0.0120215 0.0754882
0.0630495 -0.0816703 0.381785
0.266745 -0.134631 0.381785
-0.101548 0.0255746 0.396449
0.0210671 0.277889 0.381785
-0.015146 0.302351 0.396449
-0.211459 -0.281931 0.381785
-0.0793852 -0.139786 0.381785
-0.285951 -0.224405 0.381785
0.067489 0.159531 0.396449
0.243067 -0.0183935 0.306331
0.265624 0.035356 0.381785
-0.344163 -0.155244 0.381785
-0.106226 0.299364 0.396449
0.0286294 0.0428522 0.381785
0.214921 0.0318871 0.381785
-0.200272 0.0654406 0.396449
0.240029 0.104172 0.381785
-0.0661524 0.324219 0.3833
0.0994433 0.138923 0.381785
5.48827e-07 -0.185443 0.383469
-0.0225644 0.281174 0.381785
0.110372 -0.285002 0.381785
-0.299649 -0.079712 0.381785
-0.113472 0.0921325 0.381785
0.0106536 -0.039521 0.396449
0.207837 -0.324219 0.393674
-0.0206602 0.124773 0.381785
-0.278904 -0.0252598 0.396449
-0.244213 -0.242899 0.381785
-0.150472 0.201873 0.381785
0.179075 -0.114657 0.381785
0.0714262 0.00277201 0.396449
-0.0312293 0.174773 0.396449
-0.259375 0.0613002 0.381528
-0.24387 -0.0394602 0.217455
0.245392 0.0182813 0.312105
0.261171 -0.205305 -1.37038e-18
0.00658953 6.2695e-07 0.382007
0.0781378 0.0778152 0.396449
-0.232511 -0.181168 9.69524e-19
0.127515 0.136289 0.381785
-0.0078525 -0.0331897 0.381785
0.0666678 0.021318 0.381785
0.290641 -0.289482 0.381785
-0.295959 0.165587 0.381785
0.12551 -0.20327 0.396449
0.198428 -0.0552117 0.381785
-0.242155 -0.293573 0.381785
-0.00150456 -0.247576 0.396449
0.0507143 -0.116011 0.381785
-0.230622 -0.166234 0.396449
0.303872 0.297276 0.396449
-0.224284 0.193018 0.000522076
0.226408 0.24267 0.396449
0.0157882 0.224781 0.396449
-0.330706 0.299141 0.384833
-0.245432 -0.0182958 0.175151
-0.0895341 -0.325849 0.386703
0.202924 0.278731 0.381785
-0.163764 -0.236243 0.396449
0.112608 0.199027 0.396449
0.179161 -0.0601468 0.381785
0.234714 -0.233799 0.396449
-0.096549 -0.112343 0.381785
0.270628 -0.0861623 0.396449
-0.155926 0.219454 0.396449
-0.103974 -0.226071 0.396449
-0.117262 -0.283998 0.381785
-0.317283 0.0698713 0.396449
-0.239812 -0.108756 0.366036
-0.225239 -0.237641 0.396449
-0.340998 0.0489673 0.396449
0.223928 -0.305814 0.396449
0.174693 6.2695e-07 0.393453
-0.160222 -0.097423 0.381785
-0.216846 -0.1034 0.396449
0.251459 0.0234404 0.138863
0.252243 -0.0302263 0.148971
-0.251579 -0.0240407 0.291095
0.190865 -0.0350315 0.396449
0.0300573 0.0573975 0.396449
-0.253392 -0.146427 0.396449
-0.31537 -0.324219 0.396055
0.275978 -0.0454481 0.381785
0.10317 -0.245627 0.396449
-0.246526 0.00752522 0.396449
0.110472 -0.164659 0.396449
0.097248 -0.0851718 0.396449
-0.254423 -0.0359095 0.366036
-0.0482536 0.272573 0.381785
-0.251765 0.0319405 0.074945
-0.182922 0.282093 0.396449
0.364871 -0.0196245 0.387812
-0.210761 0.138458 0.381785
-0.0554031 -0.271462 0.396449
-0.251505 -0.0236708 0.254227
-0.326206 0.276597 0.381785
-0.307004 0.145023 0.396449
0.321923 0.172301 0.381785
0.235377 -0.0929853 0.396449
0.273492 0.130861 0.381785
0.265234 0.30481 0.381785
0.339698 -0.0100796 0.381785
-0.245637 -0.145012 0.034265
-0.0709619 0.0124919 0.396449
-0.0728235 -0.0404733 0.381785
-0.155217 0.0913713 0.381785
-0.0944744 -0.304295 0.381785
-0.143903 -0.11479 0.396449
-0.190542 -0.25716 0.396449
-0.250892 0.195356 0.396449
0.028733 -0.131595 0.396449
-0.238069 0.133089 0.0597418
0.0311506 -0.0879752 0.396449
-0.0755466 0.302364 0.381785
-0.241513 0.0189482 0.12061
-0.138283 -0.0598572 0.381785
-0.173222 0.0146684 0.396449
-0.127962 0.234784 0.396449
0.0968879 -0.209944 0.396449
-0.202147 0.324219 0.395572
0.325559 -0.208567 0.381785
0.236668 0.026657 0.278939
0.251564 -0.0841155 0.0642579
0.199358 0.132328 0.396449
0.246446 -0.038909 0.10504
0.163709 0.0263131 0.396449
0.25725 -0.325849 0.390423
-0.189471 -0.309169 0.381785
0.0642606 0.107502 0.381785
-0.0652245 -0.156814 0.396449
-0.33854 0.00834822 0.381785
-0.200915 -0.0801442 0.396449
0.0128086 -0.220291 0.381785
0.172385 -0.142314 0.381785
0.185282 0.180337 0.381785
-0.186182 0.0983974 0.381785
-0.299451 0.310351 0.396449
-0.316169 -0.204305 0.396449
-0.246648 0.0892175 0.381785
0.262829 -0.266188 0.396449
0.219907 0.0722027 0.381785
0.0361704 0.282471 0.396449
-0.248737 -0.0611929 0.0636017
-0.221693 -0.272931 0.396449
-0.200918 0.125174 0.396449
0.0925045 0.219392 0.396449
0.0527696 -0.240474 0.396449
-0.231136 0.0893647 0.396449
0.0250072 0.124151 0.396449
-0.0565005 0.18618 0.396449
0.234189 0.17052 8.32585e-19
0.350761 0.207424 0.388974
0.171437 -0.188788 0.381785
0.107108 0.177863 0.396449
-0.22785 0.184296 0.396449
0.0540046 0.221673 0.396449
0.261544 -0.120102 0.396449
0.134879 0.170305 0.396449
-0.0432498 0.0181366 0.381785
-0.035872 0.0905772 0.381785
-0.119264 -0.127573 0.396449
0.25251 -0.0286712 0.271763
0.321494 0.024238 0.396449
0.239516 -0.15755 0.396449
-0.355483 0.0254184 0.396449
-0.0775602 -0.17918 0.381785
0.300607 -0.173074 0.396449
-0.352037 -0.103462 0.381785
0.0754585 -0.220938 0.381785
0.248917 -0.0176283 0.381785
0.23837 0.142999 0.396449
0.240596 -0.0192761 0.189571
0.130255 -0.185012 0.381785
0.00338128 -0.0665283 0.396449
-0.363434 0.0699915 0.381839
-0.254175 0.233711 0.381785
-0.261584 0.0815859 0.396449
0.0893702 -0.313668 0.396449
0.247717 0.0723349 0.396449
-0.0126562 -0.00529465 0.381785
0.327767 -0.311938 0.39399
0.364748 0.0245905 0.395493
0.306725 0.175778 0.396449
-0.00463524 0.0851805 0.381785
-0.316882 -0.0120634 0.381785
0.105257 -0.0502486 0.381785
-0.240055 -0.162749 0.0469259
0.143899 0.129445 0.396449
0.0470228 0.160683 0.381785
0.213021 0.324611 0.382831
0.214885 -0.0904004 0.381785
-0.231541 0.207922 0.396449
-0.0805122 -0.202609 0.381785
-0.323186 0.237978 0.396449
-0.124428 0.193235 0.396449
0.0237134 -0.186769 0.381785
-0.240157 0.0195849 0.155067
0.206619 0.0026462 0.396449
-0.118937 -0.235036 0.381785
0.247418 0.026502 0.366036
-0.0941756 0.174928 0.381785
-0.250496 -0.00833006 0.0884854
0.328826 0.280543 0.381785
0.362708 0.0797365 0.394399
0.176885 0.244163 0.396449
0.0998867 0.0990188 0.396449
0.289657 -0.0144866 0.396449
-0.204915 0.0328185 0.396449
0.268598 -0.239184 0.396449
-0.274481 -0.22913 0.396449
0.18442 0.221253 0.396449
0.133799 -0.0261482 0.381785
0.102679 0.122827 0.396449
0.330727 -0.254963 0.396449
0.297009 -0.129509 0.381785
0.312273 -0.10593 0.396449
-0.0973233 -0.144953 0.396449
-0.251861 0.0254446 0.270088
-0.192719 -0.210557 0.381785
0.00584243 0.148023 0.396449
0.243924 -0.0180872 0.21801
0.0256818 -0.00950677 0.396449
-0.147737 0.0742819 0.396449
0.122955 0.244569 0.381785
-0.0691602 -0.0657904 0.381785
-0.269653 0.138948 0.396449
-0.251645 -0.0795062 0.0753456
-0.185642 0.00960069 0.381785
-0.29513 0.048155 0.381785
0.187053 -0.277437 0.396449
0.205422 -0.234019 0.381785
-0.0394729 -0.325387 0.392946
-0.0173957 -0.215717 0.381785
0.23941 -0.0369847 0.241727
-0.183183 -0.0781063 0.381785
-0.259825 -0.129917 0.381785
0.153092 -0.0115506 0.381785
-0.122295 -0.306196 0.396449
-0.0829276 -0.237969 0.396449
-0.123185 0.324221 0.396443
-0.20991 -0.168224 0.381785
-0.252003 -0.0428319 0.0987435
-0.234203 -0.00721221 0.376947
-0.004003 -0.121784 0.381785
-0.233187 0.0477669 0.396449
0.290748 -0.214879 0.396449
0.0981901 0.235316 0.381785
-0.27016 0.0956298 0.381785
-0.248391 -0.038214 0.18382
0.0852462 0.245915 0.396449
-0.160076 0.274931 0.396449
0.00487894 -0.0520232 0.381785
0.109465 -0.188198 0.396449
-0.13582 0.162397 0.381785
-0.00385243 0.303487 0.381785
0.132149 -0.254549 0.381785
-0.00880173 -0.152935 0.396449
-0.268135 -0.170673 0.396449
-0.149467 0.0245441 0.396449
0.241487 0.126319 0.381785
-0.106237 -0.0303768 0.381785
-0.33605 -0.0185398 0.396449
0.26139 0.237706 0.396449
0.244871 0.0394712 0.178534
0.335419 0.202715 0.381785
-0.251549 0.0336756 0.195051
-0.320036 0.110902 0.381785
-0.00606647 0.00874436 0.396449
0.23718 0.0334563 0.240662
0.191851 -0.240663 0.396449
0.252414 -0.0355651 0.0814454
-0.265861 0.28688 0.396449
0.132451 0.0843595 0.396449
0.0289639 0.193978 0.381785
0.201674 0.216264 0.381785
0.0792031 0.0550807 0.396449
-0.161645 -0.320543 0.381785
-0.220193 -0.0026749 0.381785
0.250031 -0.162686 0.0280794
0.0621607 0.0419736 0.381785
0.0769765 0.113229 0.396449
-0.239931 0.0540859 0.0660891
-0.132884 -0.199349 0.396449
-0.275988 0.104192 0.396449
0.238226 0.0314189 0.381785
0.13251 -0.278478 0.381785
0.347626 -0.0595478 0.381785
-0.352197 -0.184947 0.386602
-0.11966 0.159305 0.396449
0.05426 0.314794 0.381785
-0.0230777 -0.0471592 0.381785
0.0357538 -0.11138 0.396449
-0.154982 0.0500984 0.396449
0.116243 -0.128733 0.381785
-0.286628 -0.129337 0.381785
-0.183646 -0.0366607 0.396449
0.141561 0.315472 0.381785
-0.0987158 0.193321 0.396449
-0.0400205 -0.184699 0.381785
0.16229 -0.32348 0.396449
0.143955 0.049953 0.381785
-0.20834 0.174487 0.396449
0.180144 0.0746241 0.396449
-0.0287515 -0.273086 0.396449
-0.0691797 0.084339 0.396449
0.22094 -0.00234717 0.381785
-0.244222 0.0993228 0.0502561
-0.104244 -0.093311 0.381785
-0.0232492 -0.0783616 0.396449
0.298315 0.275741 0.381785
-0.327017 -0.0952476 0.381785
-0.0539108 6.2695e-07 0.387356
-0.0941766 -0.187404 0.396449
0.0916914 0.0683994 0.381785
0.00288835 -0.225464 0.396449
0.242708 0.2001 0.0111662
0.0384589 -0.164144 0.396449
-0.0324621 0.308892 0.381785
0.167154 -0.245797 0.381785
0.243306 -0.116762 0.368794
0.0418936 -0.223265 0.396449
0.351829 -0.164075 0.381785
0.0782652 0.28276 0.396449
-0.0301125 -0.108042 0.381785
0.154247 -0.246846 0.396449
-0.363087 -0.0184677 0.381785
-0.299069 0.300786 0.381785
-0.32289 -0.265707 0.381785
0.243118 -0.0309311 0.381785
-0.323161 0.19622 0.396449
0.347545 0.00121409 0.396449
-0.169377 -0.262812 0.396449
-0.268577 -0.00520893 0.381785
-0.0603032 -0.177977 0.396449
-0.0961673 0.134672 0.396449
-0.239051 0.0545197 0.381785
-0.0670879 -0.222844 0.396449
0.364996 -0.0698796 0.390697
0.297081 0.164285 0.381785
-0.272224 -0.204721 0.381785
0.0537057 0.0533297 0.396449
-0.239829 0.187023 0.0132112
0.311431 0.249458 0.396449
0.168342 0.324219 0.383911
0.358706 -0.132893 0.386247
0.0840816 -0.143856 0.396449
-0.127787 0.292323 0.396449
-0.269503 -0.322093 0.381785
-0.287901 -0.1539 0.381785
-0.00739734 -0.2045 0.396449
-0.044156 0.324845 0.394572
-0.108001 -0.247018 0.396449
-0.300138 0.00271116 0.396449
-0.243424 0.316944 0.396449
-0.0419312 -0.050736 0.396449
0.319241 -0.281227 0.381785
0.345096 -0.171631 0.396449
0.320183 0.316402 0.396449
0.354859 0.163686 0.383701
0.154807 -0.224457 0.381785
-0.200824 -0.27843 0.396449
-0.268876 0.112617 0.366036
-0.239603 -0.0203238 0.228859
-0.350476 -0.205478 0.389508
0.0219007 0.157048 0.396449
-0.0954527 -0.218363 0.381785
0.281077 0.0134915 0.396449
-0.327478 0.130103 0.381785
-0.31929 0.307325 0.381785
-0.00176105 -0.0784577 0.381785
-0.00308072 -0.182075 0.396449
-0.231991 0.25245 0.381785
0.33524 -0.165142 0.381785
0.118254 0.279726 0.381785
0.251244 -0.102446 0.0533226
0.248054 0.0142888 0.105358
0.316012 -0.0069522 0.381785
-0.277059 0.272985 0.381785
0.238007 0.164488 0.381785
0.297061 0.0861008 0.396449
0.034824 0.324636 0.382896
-0.0343554 0.108995 0.396449
-0.346193 -0.128314 0.381785
0.185588 0.133669 0.381785
0.244348 6.2695e-07 0.386243
-0.0373301 -0.0833255 0.381785
0.0417553 -0.286659 0.381785
-0.249037 -0.0374192 0.320662
0.331445 0.29144 0.396449
-0.252042 0.0263446 0.311699
-0.120449 -0.213275 0.396449
0.338167 -0.194469 0.381785
-0.354945 0.134267 0.381785
0.252007 -0.0588537 0.0795577
-0.29172 0.240763 0.396449
-0.248351 0.0382281 0.29478
0.222194 0.17892 0.381785
-0.180056 -0.0103754 0.396449
0.261364 0.165427 0.396449
-0.297459 0.0788881 0.396449
-0.204838 -0.00795525 0.396449
-0.255459 0.0268401 0.378987
0.0304701 0.238311 0.381785
0.25458 -0.0496906 0.381785
0.250516 -0.144007 0.038706
-0.0849214 -0.279548 0.396449
0.237632 0.108345 0.048855
-0.211037 0.210192 0.381785
-0.125735 0.123064 0.396449
-0.293104 -0.118536 0.396449
-0.146484 -0.162781 0.396449
-0.212521 0.01457 0.381785
0.0525369 0.132471 0.381785
0.0337495 0.0905393 0.381785
0.182663 -0.153084 0.396449
-0.0322603 -0.135976 0.381785
0.138082 -0.106008 0.396449
-0.248026 -0.0516309 0.396449
-0.174962 0.174666 0.396449
0.0840819 0.00654234 0.381785
-0.006852 0.0259954 0.396449
-0.132583 -0.324219 0.382642
-0.225369 0.0967474 0.37513
-0.114541 0.260165 0.396449
0.148961 0.0588477 0.396449
-0.251836 -0.200021 0.381785
-0.294279 -0.264269 0.396449
0.284757 -0.324611 0.395274
0.0870911 -0.131309 0.381785
0.250932 0.0226744 0.230564
0.0937146 0.162015 0.396449
0.21408 0.116762 0.378286
-0.242665 -0.0390298 0.348971
0.0428842 0.265476 0.381785
-0.211364 0.0588675 0.381785
0.295897 -0.314809 0.381785
0.0509988 0.295973 0.396449
0.28333 -0.0320487 0.396449
-0.322349 -0.0351097 0.381785
0.0146221 0.0569648 0.381785
0.361878 0.0419258 0.381785
0.243492 -0.0182417 0.326399
0.256533 -0.0778011 0.381785
0.111228 0.000412828 0.381785
0.360177 0.122123 0.393941
0.0326278 -0.203546 0.381785
0.0749053 -0.178838 0.381785
0.144578 0.273514 0.381785
0.000686263 0.222523 0.381785
0.0303947 -0.220869 0.381785
0.238757 0.0287832 0.0793989
0.265743 0.25927 0.396449
0.258018 0.0816097 0.381785
0.0621607 0.203519 0.381785
5.48827e-07 -0.00742363 0.395768
-0.0657566 -0.0752825 0.396449
-0.18414 0.326077 0.391104
0.271692 -0.0995214 0.381785
0.096108 -0.308242 0.381785
0.321079 -0.323203 0.381785
-0.140794 -0.252472 0.381785
0.00674562 0.131862 0.396449
0.176692 0.286296 0.381785
0.153519 -0.136243 0.381785
-0.245903 0.172356 0.0246945
0.263511 0.0561242 0.396449
-0.269 -0.0939067 0.381785
0.248262 0.0237495 0.396449
0.0971398 0.187383 0.381785
-0.321835 0.0249293 0.381785
0.321614 0.0506457 0.381785
-0.161743 -0.0374333 0.381785
0.0824407 -0.0964307 0.381785
0.244904 -0.0394597 0.184994
0.153622 -0.106415 0.381785
0.248179 0.167802 0.0447421
-0.272372 0.253461 0.381785
-0.261892 -0.0834464 0.366574
-0.288448 0.132635 0.396449
0.299265 -0.204353 0.381785
0.25203 -0.0844922 0.366036
-0.146823 0.146045 0.381785
-0.233179 -0.185668 0.396449
-0.00349074 -0.310242 0.396449
-0.303388 -0.24978 0.381785
0.141904 -0.209655 0.381785
0.211971 -0.276279 0.381785
-0.23925 0.271278 0.396449
-0.132502 -0.0884337 0.396449
-0.0365543 -0.213919 0.381785
0.0973919 -0.28444 0.396449
0.237118 0.0244165 0.333849
-0.349082 -0.0331034 0.396449
-0.238829 0.025546 0.396449
-0.173388 0.12326 0.396449
-0.33234 0.118213 0.396449
0.105696 0.087584 0.381785
-0.257418 0.123799 0.396449
0.243608 0.206904 0.381785
0.331712 -0.0107891 0.396449
-0.201528 -0.265674 0.381785
0.0657862 -0.0253068 0.396449
-0.357305 -0.0594877 0.396449
-0.00253391 0.316932 0.396449
-0.0128489 -0.178323 0.381785
-0.257135 -0.228437 0.381785
0.239093 -0.136925 0.0580846
-0.332245 -0.138456 0.381785
0.111365 0.0640117 0.381785
-0.0398852 0.184791 0.381785
-0.302008 -0.0480834 0.396449
0.163745 0.204288 0.381785
0.342748 -0.242188 0.396247
0.142192 0.243097 0.381785
0.0912988 0.285389 0.381785
0.21996 -0.293954 0.381785
-0.0111 0.26317 0.396449
-0.179003 -0.22405 0.381785
-0.349573 0.213367 0.39029
0.280784 0.313163 0.396449
-0.239395 -0.191757 0.0146631
0.197754 -0.00477802 0.381785
-0.091671 -0.0633655 0.396449
-0.176202 0.271022 0.381785
0.163135 -0.0451127 0.381785
-0.0204783 -0.284046 0.381785
-0.230158 -0.0607797 0.381785
0.188018 -0.0687324 0.396449
-0.286253 -0.0932253 0.396449
0.245176 0.0182044 0.292955
0.118213 0.113093 0.381785
-0.238859 0.021316 0.32559
0.0773346 0.0900441 0.381785
0.0394687 -0.325849 0.386775
-0.0836535 6.2695e-07 0.387732
-0.0865173 0.269498 0.396449
0.17366 -0.281527 0.381785
0.223685 0.166114 0.396449
-0.356878 -0.0861085 0.381785
-0.354522 0.086238 0.381785
-0.00485733 0.230129 0.396449
-0.0858973 0.151647 0.381785
0.230161 -0.287121 0.396449
-0.22921 0.0629413 0.370045
0.0863815 0.308637 0.396449
-0.252377 -0.108695 0.381785
-0.0327242 -0.235675 0.396449
0.342008 0.100324 0.396449
-0.237458 0.0231842 0.364879
0.24918 0.104231 0.366036
-0.135799 0.130396 0.381785
-0.340407 -0.174405 0.381785
-0.137655 -0.0415052 0.396449
0.0853178 -0.237066 0.381785
0.345684 -0.0996671 0.381785
-0.0753213 0.174053 0.381785
0.262853 -0.186519 -1.50771e-18
0.227075 0.0817405 0.369617
-0.340035 0.257587 0.393769
0.34693 -0.220606 0.394971
-0.156629 0.176729 0.381785
0.224004 -0.122095 0.381785
0.203825 -0.117882 0.396449
-0.238021 -0.120313 0.0652629
-0.0508987 -0.257236 0.381785
0.136408 0.0318272 0.381785
0.134701 0.29521 0.381785
0.0398314 -0.0432536 0.396449
-0.25119 -0.203022 0.00783044
0.145144 -0.291532 0.396449
-0.0523323 -0.0599038 0.381785
0.342598 0.250107 0.386999
-0.184246 0.167612 0.381785
0.240507 0.134001 0.0593477
0.230266 -0.0413908 0.396449
-0.294461 0.27975 0.381785
-0.117114 0.202147 0.381785
-0.322282 0.276007 0.396449
0.248517 -0.126558 0.381785
0.178619 -0.0960394 0.396449
-0.276974 0.213346 0.381785
0.218005 0.147734 0.396449
-0.23152 0.113144 0.381785
-0.329103 -0.288683 0.381785
0.0817864 -0.197508 0.381785
0.0744 -0.0806028 0.396449
0.329051 -0.108227 0.381785
-0.189923 0.118726 0.381785
-0.22558 0.243125 0.396449
-0.0686161 -0.243824 0.381785
-0.198982 0.143588 0.396449
-0.236106 0.284139 0.381785
0.118786 0.040692 0.381785
0.252521 -0.285282 0.396449
-0.0930636 -0.0918227 0.396449
-0.335789 -0.249657 0.396449
0.329275 -0.0320374 0.381785
-0.17557 -0.0698345 0.396449
0.164337 0.240333 0.381785
0.110216 0.228706 0.396449
0.332639 0.0253475 0.381785
-0.147189 -0.271144 0.396449
0.316651 -0.0684945 0.396449
-0.266217 0.010882 0.396449
-0.0843864 0.0421782 0.396449
0.056094 -0.12772 0.396449
0.0321192 -0.0630156 0.396449
0.236865 0.0645212 0.0636611
-0.190581 -0.0612446 0.381785
-0.237285 0.0885327 0.0701903
0.306471 0.186837 0.381785
0.17019 0.0698001 0.381785
0.286522 0.167549 0.396449
0.25159 0.0334713 0.208238
0.0232193 -0.272051 0.381785
0.281423 -0.182194 0.381785
-0.299176 -0.188016 0.381785
-0.0648553 0.0514132 0.396449
0.195743 -0.0909992 0.381785
-0.236336 0.0342998 0.0843646
0.254141 -0.00782544 0.396449
-0.0991115 -0.159994 0.381785
0.0447347 0.0223039 0.381785
-0.33856 -0.270526 0.38618
-0.12169 -0.0292831 0.396449
-0.236955 -0.0252265 0.208322
0.076041 -0.299953 0.396449
-0.278216 -0.0396887 0.381785
0.126521 -0.13228 0.396449
0.303812 0.134974 0.381785
-0.231789 -0.324219 0.392728
-0.305329 0.324219 0.384604
0.242258 0.190286 1.73739e-19
0.00449334 0.0667458 0.396449
-0.151629 0.258627 0.381785
-0.0400015 -0.143449 0.396449
0.0513297 -0.29153 0.396449
0.242736 0.0574307 0.381785
-0.155389 -0.293561 0.381785
-0.0534671 -0.0991584 0.381785
0.236908 0.240787 0.381785
0.111042 -0.252312 0.381785
-0.0498188 -0.288706 0.396449
0.236475 -0.0422077 0.076327
-0.126838 0.211623 0.396449
0.225345 0.280635 0.396449
0.214 -0.0234044 0.396449
-0.0162805 -0.249211 0.381785
-0.237547 -0.0951257 0.381785
-0.237206 0.0287832 0.100781
-0.302508 0.115277 0.381785
-0.30178 -0.0694032 0.396449
-0.264615 0.152154 0.381785
0.252408 0.0358989 0.0906986
-0.109654 -0.265145 0.396449
0.00489968 -0.325849 0.387877
-0.201558 -0.182158 0.396449
0.0153672 -0.11683 0.396449
-0.175118 0.302265 0.381785
0.167143 -0.303219 0.381785
-0.0640391 0.16264 0.396449
-0.236635 0.0268158 0.138806
-0.275765 0.0704008 0.396449
-0.100518 -0.0165933 0.396449
0.158478 0.162709 0.396449
-0.271488 -0.114318 0.381785
-0.241038 -0.0287834 0.0814813
0.23665 -0.0671463 0.381785
0.248945 -0.254976 0.396449
-0.0677781 -0.113771 0.381785
-0.232785 -0.199346 9.47153e-19
0.190966 -0.317251 0.396449
-0.287862 0.195479 0.381785
0.180038 0.121296 0.396449
0.248265 0.310292 0.381785
0.037788 -0.101444 0.381785
0.251818 0.069642 0.0736294
-0.137604 0.0806678 0.381785
-0.264148 -0.0218531 0.381785
-0.200841 -0.0406759 0.381785
-0.242339 0.038913 0.343817
-0.072382 0.31589 0.396449
-0.159166 0.112338 0.381785
-0.276361 -0.147975 0.396449
0.340856 -0.24962 0.381785
-0.0483129 0.130941 0.396449
0.0164364 0.249505 0.396449
-0.219451 0.234617 0.381785
0.31104 0.217151 0.396449
-0.134555 0.323037 0.381785
-0.232213 -0.293602 0.396449
0.311236 0.231191 0.381785
-0.311881 -0.173892 0.396449
-0.222701 -0.211114 0.396449
0.0436513 -0.144759 0.381785
-0.322469 -0.158699 0.381785
-0.0307021 0.265459 0.381785
0.228429 0.208793 0.396449
0.0431104 -0.0707663 0.381785
0.247248 -0.0189442 0.136313
0.166564 0.288063 0.396449
0.15182 -0.284011 0.381785
0.125739 -0.301887 0.396449
0.305364 -0.29887 0.396449
-0.0622134 0.0168703 0.381785
0.00668443 0.118815 0.381785
-0.305676 0.0841266 0.381785
0.110083 -0.085166 0.381785
-0.305277 0.162813 0.396449
-0.189359 -0.11342 0.381785
-0.160483 0.228034 0.381785
0.161949 0.129495 0.381785
-0.119994 -0.112405 0.381785
-0.316633 -0.290369 0.396449
-0.364224 0.0457086 0.391689
-0.233334 -0.0332314 0.396449
0.00724924 -0.243471 0.381785
0.0689793 -0.270276 0.381785
0.00768021 -0.108699 0.381785
0.119836 0.324219 0.396396
-0.243998 0.0395057 0.277842
-0.236658 -0.0527323 0.0730683
0.263294 0.0803511 0.396449
-0.154216 0.324219 0.391783
0.248531 -0.315069 0.396449
0.0798803 0.0443614 0.381785
0.166481 -0.263243 0.381785
0.335535 -0.28369 0.387667
-0.295144 0.0615544 0.396449
0.189934 0.0544983 0.381785
-0.243555 -0.0393477 0.288526
-0.171747 -0.110545 0.381785
0.0551633 0.285229 0.381785
0.147379 0.0933751 0.396449
-0.214566 -0.0177805 0.381785
-0.13987 -0.0691418 0.396449
0.112285 -0.197146 0.381785
-0.237571 -0.313367 0.381785
0.275113 -0.138759 0.396449
0.0802871 -0.152363 0.381785
-0.159281 0.0371126 0.381785
-0.299189 -0.167093 0.381785
0.250496 -0.00405348 0.0820201
-0.23586 0.0738615 0.381785
-0.201161 0.000548426 0.381785
-0.0640479 0.215767 0.396449
-0.294606 -0.288334 0.396449
0.251665 -0.230234 0.396449
-0.0138157 0.321623 0.381785
-0.258613 0.258281 0.396449
0.321426 0.324219 0.382785
-0.132616 0.0575069 0.396449
0.204845 -0.048665 0.396449
-0.307134 0.226502 0.396449
0.158801 -0.0724461 0.381785
0.172906 0.0949047 0.396449
-0.0461012 0.234754 0.396449
0.0997332 0.0253676 0.396449
-0.294432 -0.0338084 0.381785
-0.00365871 0.169981 0.381785
-0.245446 0.0755098 0.396449
0.217266 0.07304 0.396449
0.214078 -0.230578 0.396449
0.240965 0.0851396 0.381785
0.0226286 0.0760431 0.381785
0.0697394 -0.237607 0.396449
-0.114878 0.101007 0.396449
0.0257185 -0.290504 0.396449
-0.142019 0.019588 0.381785
0.359985 0.0712532 0.381785
0.253135 0.191166 0.381785
0.105928 0.274951 0.396449
0.0480626 -0.232898 0.381785
-0.141492 -0.0895568 0.381785
-0.0237089 0.211355 0.381785
-0.0930345 0.0394598 0.381785
0.18741 0.271469 0.381785
0.0231573 -0.0285853 0.396449
0.135667 -0.0574474 0.396449
0.26422 -0.170212 0.381785
-0.309071 -0.219874 0.396449
0.248026 -0.189493 0.396449
-0.0140406 0.042136 0.396449
-0.219938 0.19519 0.381785
0.142159 0.11582 0.381785
-0.153761 -0.186538 0.396449
-0.225187 0.226034 0.396449
0.133806 -0.0173659 0.396449
-0.0976391 0.232902 0.396449
0.316016 -0.238504 0.381785
-0.0788595 0.242323 0.381785
-0.101632 0.306756 0.381785
-0.306315 0.180779 0.381785
-0.156149 0.1563 0.396449
-0.0473063 0.142213 0.381785
0.297367 -0.272809 0.381785
-0.0273669 -0.0135301 0.381785
0.236959 0.0323604 0.13887
-0.092545 -0.210258 0.396449
0.33076 0.0716162 0.381785
0.182026 0.0345169 0.396449
-0.0873073 -0.254388 0.396449
-0.277142 -0.270703 0.381785
-0.318747 -0.0804063 0.381785
-0.122487 0.0720129 0.381785
-0.223096 -0.0848567 0.381785
0.299336 0.118129 0.381785
-0.0242368 -0.220807 0.396449
-0.270313 0.179642 0.396449
-0.0159489 -0.0363751 0.396449
-0.0624984 0.0337478 0.396449
0.138703 -0.320436 0.381785
0.240214 0.0195091 0.161829
0.152557 0.278562 0.396449
-0.245853 -0.0184463 0.150121
-0.197455 -0.321578 0.396449
0.248224 -0.155109 0.381785
0.0529875 -0.0198442 0.381785
-0.245274 0.0705066 0.366036
0.290036 0.0478167 0.381785
0.0547853 6.2695e-07 0.396352
-0.0568169 -0.0413174 0.396449
0.30436 -0.188001 0.381785
0.111248 0.171071 0.381785
0.322513 -0.128781 0.396449
0.23728 -0.0236095 0.291416
0.213181 0.26415 0.396449
-0.314763 0.195318 0.381785
-0.134583 0.0342722 0.396449
0.0448984 0.129468 0.396449
0.0672276 -0.106373 0.381785
-0.14357 0.206296 0.396449
-0.180676 0.143504 0.396449
0.20218 -0.27014 0.396449
0.174091 -0.0441255 0.396449
-0.320754 -0.197617 0.381785
0.238277 -0.00654649 0.0779876
0.122084 -0.110918 0.396449
-0.251056 -0.0347276 0.147632
0.252507 -0.0289123 0.202278
0.180053 0.274838 0.396449
0.271265 0.209242 0.396449
0.196198 -0.32476 0.383227
0.121427 0.157619 0.381785
-0.190871 0.261224 0.381785
0.155849 0.027714 0.381785
0.286255 -0.296151 0.396449
0.0200602 0.313514 0.396449
-0.205258 -0.123363 0.381785
-0.203395 0.273545 0.396449
-0.111775 0.158664 0.381785
-0.253162 0.212145 0.381785
-0.324681 -0.229834 0.396449
-0.195448 -0.294111 0.381785
-0.243811 0.0629119 0.0900665
0.337067 0.125683 0.381785
0.0883112 -0.0052672 0.396449
0.0748186 -0.265082 0.396449
-0.176991 0.0650525 0.396449
-0.163838 0.192007 0.381785
0.289596 -0.241505 0.396449
-0.274355 0.0440026 0.381785
-0.171623 -0.290181 0.381785
-0.031447 -0.25868 0.381785
-0.247694 0.0169175 0.105358
-0.241899 -0.235537 0.396449
0.221284 -0.205619 0.396449
-0.365304 -0.00213315 0.387744
-0.131866 -0.13797 0.381785
-0.183447 -0.0963564 0.381785
0.298165 0.221066 0.381785
-0.3334 0.0572795 0.381785
-0.0544503 0.0119147 0.396449
0.237283 -0.0339688 0.170283
0.193694 0.197453 0.381785
0.315234 0.269067 0.381785
0.294547 0.25792 0.381785
-0.112511 0.136834 0.396449
0.238794 -0.174728 0.0287845
-0.335916 0.158971 0.381785
-0.238535 0.159947 0.0368021
-0.273944 0.313906 0.396449
0.0836658 0.227592 0.381785
-0.233825 -0.214915 0.381785
-0.349733 0.0307026 0.381785
0.211168 0.0520056 0.396449
-0.0252303 0.0764204 0.381785
-0.182736 -0.0242974 0.381785
0.28748 0.325848 0.388505
-0.324978 0.0455194 0.396449
0.330802 -0.0517754 0.381785
-0.156493 -0.236723 0.381785
-0.020947 0.250469 0.381785
0.23075 -0.0493999 0.381382
0.171069 0.172229 0.381785
0.177535 -0.158219 0.381785
-0.15522 -0.143774 0.396449
0.262051 0.112391 0.381785
-0.194489 0.154536 0.381785
-0.0944584 0.106271 0.396449
0.207886 -0.308949 0.396449
0.195879 -0.184736 0.381785
-0.27041 -0.265638 0.396449
0.3429 -0.210098 0.381785
0.158966 0.311718 0.381785
-0.0376956 -0.0298559 0.396449
0.284415 0.187003 0.396449
-0.0905746 -0.0219583 0.381785
-0.115155 -0.306504 0.381785
0.207386 0.322152 0.396449
0.242546 0.211393 1.50257e-19
-0.030227 -0.317478 0.396449
0.332975 0.185113 0.381785
0.0328312 0.231602 0.396449
0.221749 -0.10192 0.396449
0.0450617 0.167513 0.396449
0.190225 -0.283793 0.381785
-0.269851 0.197202 0.396449
0.22652 -0.0201107 0.381785
0.274379 0.0157847 0.381785
-0.226111 0.0515311 0.381785
0.0654367 -0.321253 0.396449
-0.0248797 -0.0309897 0.381785
0.349539 -0.0937679 0.396449
-0.241195 0.193633 2.60562e-19
-0.215238 0.311087 0.396449
0.250496 -0.00809478 0.0993857
-0.264306 0.12251 0.381785
0.0636535 0.16539 0.381785
0.146372 -0.0542181 0.381785
-0.0547611 0.314946 0.381785
0.110512 -0.157661 0.381785
-0.307624 -0.308403 0.396449
-0.364584 -0.0312843 0.391954
0.231969 0.00956632 0.381785
-0.252364 0.0444202 0.381785
-0.252512 0.0286825 0.214013
-0.217336 0.0512003 0.396449
-0.131358 -0.0452137 0.381785
-0.111662 0.183296 0.396449
-0.00838885 0.188838 0.396449
-0.143902 0.167711 0.396449
-0.181757 0.300794 0.396449
-0.253856 0.0585143 0.396449
0.103366 -0.269455 0.396449
0.154531 0.0100809 0.381785
0.14327 -0.151928 0.381785
-0.235842 -0.11225 0.381785
0.191468 -0.139467 0.381785
-0.236343 0.0292998 0.167338
-0.217383 0.0191108 0.396449
-0.242166 0.287975 0.396449
0.150573 -0.161998 0.396449
0.109006 -0.044839 0.396449
-0.0869851 0.0849682 0.381785
0.0408017 -0.31063 0.381785
-0.351791 -0.14239 0.396449
-0.296455 0.236287 0.381785
-0.253204 -0.0707051 0.396449
-0.107318 -0.0367766 0.396449
0.0975353 -0.230616 0.396449
0.348973 -0.0839875 0.381785
0.239231 -0.0208205 0.267529
0.258446 -0.261558 0.381785
0.307082 -0.0908065 0.396449
0.0161431 -0.0542059 0.396449
0.251398 0.0342714 0.0767091
-0.262542 -0.0305299 0.396449
0.189534 -0.235637 0.381785
-0.362076 -0.0988074 0.393297
-0.114016 -0.0540251 0.381785
-0.0256531 0.0523045 0.381785
0.272004 -0.073902 0.381785
0.105414 0.250452 0.381785
-0.296322 -0.27487 0.381785
5.48827e-07 -0.283461 0.388988
0.23817 0.139092 0.0415537
0.356823 0.147955 0.386802
-0.246128 -0.0114404 0.105358
-0.0867287 0.31368 0.381785
0.248133 0.183808 0.0206862
0.334211 0.235332 0.396449
-0.170089 0.13185 0.381785
0.0455543 0.0670923 0.396449
-0.043645 -0.260784 0.396449
0.294921 -0.00602154 0.381785
-0.20699 -0.0804484 0.381785
-0.121735 -0.0749646 0.396449
-0.318274 0.00730689 0.381785
-0.181468 -0.137004 0.381785
0.0692453 0.193664 0.396449
-0.237145 -0.0805266 0.0816799
0.221967 0.324219 0.392369
0.199331 -0.217439 0.381785
0.3101 0.153637 0.381785
0.237428 0.0967005 0.0595778
0.0566526 -0.153783 0.381785
0.315922 -0.0135265 0.396449
0.279445 -0.0559812 0.396449
-0.0325621 0.14796 0.381785
-0.148096 -0.291794 0.396449
0.104362 0.142224 0.396449
-0.0702642 -0.128619 0.396449
-0.236444 -0.165368 0.381785
-0.238506 -0.158313 0.0296191
-0.0551784 0.0582641 0.381785
-0.249274 -0.0371024 0.3049
-0.250923 0.160321 0.381785
-0.0107781 0.137056 0.381785
-0.175642 -0.187297 0.396449
-0.199671 -0.231025 0.381785
0.13536 -0.0979738 0.381785
-0.34658 0.0898278 0.396449
-0.0762837 0.136403 0.396449
-0.136591 -0.17887 0.396449
0.301849 0.129731 0.396449
0.158866 0.111649 0.396449
-0.216523 -0.0412162 0.381785
0.355292 0.0438814 0.396449
0.149475 0.20318 0.396449
0.250073 0.25913 0.381785
0.254755 -0.0206476 0.366498
0.226254 -0.166824 0.381785
0.315585 -0.0244261 0.381785
-0.31662 0.0170165 0.396449
0.144907 0.238354 0.396449
-0.251987 0.0260717 0.147146
-0.246453 -0.0621176 0.366036
-0.322694 0.069311 0.381785
-0.191125 0.060175 0.381785
-0.177175 -0.154053 0.396449
0.054948 -0.262734 0.396449
-0.0928691 0.191729 0.381785
0.0628083 0.247902 0.381785
-0.190406 0.027041 0.396449
5.48827e-07 0.0940841 0.393743
-0.308458 -0.324321 0.382056
-0.180114 0.222851 0.396449
-0.0997718 0.0448159 0.396449
-0.0049035 0.279472 0.396449
-0.190734 -0.276914 0.381785
0.286987 0.198685 0.381785
-0.343481 0.226539 0.396449
-0.149245 0.294006 0.396449
0.271397 0.300734 0.396449
0.352277 -0.143732 0.381785
0.362795 -0.0019416 0.396449
-0.0668673 -0.161792 0.381785
-0.246962 -0.173714 0.396449
-0.13805 0.299578 0.381785
-0.122501 -0.187758 0.396449
0.252209 -0.0271742 0.0938225
0.122458 -0.174541 0.396449
0.138194 0.190765 0.396449
0.320688 -0.17053 0.381785
-0.252289 -0.0275742 0.208699
-0.141028 -0.287686 0.381785
-0.340199 0.0130816 0.396449
0.131409 0.200991 0.381785
-0.0666611 -0.287566 0.396449
0.340389 0.217383 0.381785
-0.179564 -0.261391 0.381785
0.23664 -0.030772 0.223086
-0.17534 -0.107128 0.396449
0.186057 -0.223214 0.396449
0.0619327 -0.161654 0.396449
0.197086 -0.167333 0.396449
-0.315121 -0.0399239 0.396449
0.0286681 -0.187303 0.396449
0.251829 0.0322838 0.311314
-0.0964048 -0.0476861 0.396449
0.215603 -0.127843 0.396449
-0.119335 -0.217924 0.381785
0.152557 -0.115733 0.396449
-0.21446 0.292471 0.381785
-0.0644522 0.0839811 0.381785
-0.0395636 -0.0875056 0.396449
-0.315087 0.287959 0.381785
0.306168 -0.226656 0.381785
0.247038 0.0188693 0.197732
0.215982 -0.14671 0.381785
0.35088 0.108425 0.381785
0.296138 -0.14905 0.381785
0.323057 0.0582763 0.396449
-0.284641 0.174047 0.396449
-0.217508 0.324219 0.382402
-0.024548 0.190915 0.396449
0.254127 0.159546 0.381785
0.320484 -0.204882 0.396449
-0.33613 0.0964424 0.381785
0.250964 -0.118404 0.0521052
0.237152 0.182338 0.381785
-0.0741396 -0.0107825 0.396449
0.0317699 0.0865092 0.396449
0.0878799 -0.126926 0.396449
-0.253223 0.303712 0.396449
0.326854 -0.269781 0.396449
-0.0787848 -0.304079 0.381785
0.0613456 0.326663 0.388329
-0.287065 0.310261 0.381785
-0.302415 -0.105225 0.381785
-0.141574 6.2695e-07 0.396099
-0.276076 -0.168766 0.381785
0.0216383 0.273712 0.396449
-0.130452 0.0941446 0.381785
-0.0112682 -0.108369 0.381785
-0.175618 -0.226472 0.396449
0.0592363 0.283149 0.396449
-0.0710591 0.144779 0.381785
0.105645 -0.110965 0.396449
0.0865316 -0.325849 0.387742
-0.0649851 0.244987 0.396449
-0.0725249 0.101887 0.381785
0.219271 -0.0682337 0.381785
0.225664 0.0991672 0.381785
0.301403 0.290629 0.381785
0.261904 0.18922 0.0044541
-0.25161 0.0814774 0.0689057
-0.203487 -0.165269 0.396449
-0.191597 -0.305818 0.396449
-0.0498125 0.19982 0.396449
0.189272 -0.0852141 0.396449
-0.243826 0.0394443 0.117248
-0.361277 0.115392 0.387484
0.0487347 -0.194139 0.381785
-0.0322619 -0.231807 0.381785
0.030495 -0.137214 0.381785
-0.0822059 -0.14614 0.396449
0.0162487 0.0341037 0.381785
0.089973 -0.0607871 0.396449
0.171788 -0.00921675 0.381785
-0.224855 -0.270811 0.381785
0.35138 -0.0600121 0.396449
0.055285 -0.324842 0.383446
0.00572705 0.267385 0.396449
-0.251006 0.116036 0.0589373
-0.0337217 -0.107146 0.396449
-0.203746 -0.198843 0.381785
0.0901029 -0.258198 0.396449
0.0274718 0.0311737 0.396449
-0.259138 -0.323274 0.396449
-0.0792808 -0.189958 0.396449
0.226471 -0.272029 0.381785
-0.235291 -0.108447 0.396449
0.252212 -0.0471257 0.0700379
0.179139 0.247 0.381785
-0.230893 -0.193456 0.381785
-0.0937597 0.137358 0.381785
0.0744928 0.136178 0.381785
-0.196523 0.176404 0.381785
0.0228446 -0.153449 0.381785
-0.253586 -0.116271 0.396449
0.269902 -0.0216659 0.381785
0.0754132 0.21798 0.396449
5.48827e-07 0.150851 0.381921
-0.0675019 -0.0849829 0.381785
0.0842574 -0.0113333 0.381785
0.00255284 -0.0944397 0.381785
-0.0422227 -0.181984 0.396449
-0.0155083 0.158885 0.396449
0.218343 0.0313377 0.396449
0.134096 -0.215643 0.396449
0.094127 -0.283501 0.381785
-0.184914 -0.164719 0.381785
-0.0874105 -0.0777966 0.396449
0.223137 -0.20282 0.381785
-0.0356813 0.125582 0.381785
0.146584 0.131385 0.381785
-0.315639 0.102144 0.396449
-0.206405 -0.126447 0.396449
-0.0101527 0.144843 0.396449
-0.299073 -0.234297 0.381785
-0.248341 -0.0615018 0.381785
0.0336144 0.302247 0.396449
0.238326 -0.199932 0.381785
-0.00921994 0.248027 0.396449
-0.149689 -0.16265 0.381785
-0.0488635 -0.119314 0.381785
0.246869 0.0665773 0.0884826
0.224766 0.2496 0.381785
-0.252214 0.0469868 0.0938275
-0.100882 0.27436 0.396449
0.250084 0.0951315 0.0517231
0.248253 -0.0946386 0.0763571
-0.0247802 0.279174 0.396449
-0.241007 0.0191289 0.237746
-0.0962464 -0.289447 0.381785
-0.24999 0.204298 0.00791879
0.275629 -0.246618 0.381785
0.126494 0.324219 0.382076
-0.251827 -0.0252736 0.100855
-0.161942 -0.0996822 0.396449
0.252184 -0.0305185 0.21837
-0.341409 0.196263 0.396449
0.239388 -0.00488247 0.396449
-0.238297 -0.14582 0.396449
5.48827e-07 -0.0213284 0.386282
-0.205561 -0.25131 0.381785
0.0674177 0.232765 0.381785
-0.0521999 -0.231976 0.396449
0.209579 -0.196369 0.396449
0.101876 -0.137912 0.381785
-0.0717412 0.265552 0.396449
0.143853 -0.0922728 0.396449
0.0861008 -0.19968 0.396449
0.270303 -0.152302 0.381785
-0.211157 -0.140214 0.381785
-0.126067 -0.11434 0.396449
-0.108238 -0.192263 0.396449
-0.153564 0.0521209 0.381785
0.181809 -0.0217247 0.396449
-0.187447 -0.324219 0.386263
-0.339095 -0.199836 0.381785
-0.037158 0.291581 0.381785
0.256001 0.0988761 0.381785
0.0673566 -0.0270596 0.381785
0.283489 0.252977 0.396449
0.0204393 0.210171 0.381785
-0.132844 -0.267368 0.396449
-0.0354602 0.0927534 0.396449
0.243437 0.125328 0.396449
0.0307103 -0.204549 0.396449
0.139186 -0.247815 0.396449
-0.245033 0.227969 0.396449
-0.0817327 -0.236215 0.381785
-0.164603 -0.170937 0.381785
-0.0335811 0.237871 0.381785
0.266776 0.0371117 0.396449
0.0770601 0.26063 0.396449
-0.0697729 -0.00120628 0.381785
-0.243178 -0.273132 0.381785
0.28859 0.13617 0.381785
0.230223 0.115247 0.381785
0.0155675 0.0986707 0.396449
-0.256413 -0.0352367 0.381481
-0.0794656 0.0249495 0.396449
0.309672 0.249063 0.381785
-0.130542 -0.196521 0.381785
0.0727344 0.314276 0.396449
-0.120031 0.268028 0.381785
-0.261983 -0.189302 0.381785
-0.221545 0.037056 0.396449
-0.239234 -0.0208159 0.246544
0.0868808 0.245793 0.381785
0.184684 0.0490301 0.396449
-0.0348108 0.0502697 0.396449
0.0328791 -0.235411 0.381785
-0.0205912 -0.155849 0.381785
-0.345938 -0.22406 0.382886
-0.156296 0.0766691 0.381785
0.226424 0.226746 0.396449
0.00716286 0.267578 0.381785
-0.147109 -0.132685 0.381785
-0.177343 0.110169 0.381785
-0.209009 0.0777948 0.396449
0.0275138 0.00148583 0.381785
0.177117 0.155239 0.396449
0.247128 -0.0189017 0.156831
0.21749 -0.324219 0.382598
0.301121 -0.0607958 0.381785
0.228377 0.194106 0.396449
-0.220944 -0.152595 0.396449
0.0746009 -0.179413 0.396449
-0.160329 0.275468 0.381785
-0.19523 0.181079 0.396449
-0.236953 -0.0695922 0.0611658
-0.0603814 -0.318018 0.381785
-0.353976 0.170719 0.385637
-0.174441 0.214262 0.381785
0.349371 -0.204632 0.39376
-0.359697 -0.120105 0.383466
0.260471 -0.139587 0.396449
-0.146999 -0.256501 0.396449
-0.227114 0.178975 0.00355816
-0.251135 -0.0229451 0.320055
-0.293669 0.151027 0.396449
0.120107 -0.0315 0.396449
0.308394 -0.125001 0.396449
-0.325058 -0.0884467 0.396449
