-0.103112 -0.333462 0.322207
-0.0335664 0.334702 0.322923
-0.0355724 0.203844 0.0112188
-0.0963023 0.070246 0.327589
0.057293 -0.0774378 0.315472
-0.0252051 0.0180611 0.195189
0.239916 0.038941 0.327589
-0.127199 -0.192366 0.315472
0.0399159 -0.18663 0.327589
-0.0510702 -0.178234 0.315472
0.205362 0.331933 0.327589
-0.168593 -0.0339928 0.327589
-0.0846681 -0.119486 0.0112188
-0.336564 0.126506 0.326776
-0.183855 0.230649 0.327589
0.176703 0.173119 0.327589
0.239865 0.0917481 0.327589
-0.192874 -0.297287 0.315472
0.151447 0.112078 0.327589
0.0784835 0.292775 0.315472
-0.335215 -0.0872233 0.323219
0.134906 0.223605 0.327589
-0.317017 0.0425808 0.315472
-0.150102 0.135854 0.315472
-0.115164 0.145301 0.0112188
-0.266037 -0.126262 0.327589
0.149935 0.292929 0.327589
0.0256972 -0.0381143 1.96253e-18
-0.103354 -0.0818909 0.327589
0.299736 -0.202592 0.327589
0.162313 -0.0258947 0.327589
-0.0345885 -0.185072 -2.79227e-18
-0.045914 0.0765294 0.327589
-0.0283657 -0.0603295 0.327589
-0.020984 0.0923564 -1.32609e-18
0.336564 -0.000172883 0.325073
0.278082 -0.144681 0.327589
-0.0994008 0.028721 0.0112188
0.192264 -0.255797 0.315472
0.0794982 0.0389377 0.327589
0.0211203 0.103171 0.327589
-0.170063 0.0559081 0.0112188
0.0189418 -0.0165871 0.327589
0.212871 -0.153688 0.327589
-0.00661939 0.204238 0.315472
0.224167 0.141368 0.315472
0.0938933 -0.154362 0.327589
0.287635 0.194062 0.327589
0.0138448 0.00846061 1.11759e-18
0.116346 0.108066 7.38314e-18
0.188528 -0.113676 1.21908e-17
-0.273668 0.110487 0.327589
0.0654689 0.0686354 0.327589
0.0537641 -0.165348 0.0112188
-0.165966 -0.147607 0.315472
0.0706577 0.157883 0.327589
0.0597956 0.241763 0.315472
-0.0345582 0.287789 0.315472
-0.137173 -0.284464 0.315472
0.329218 0.161315 0.327589
0.106129 -0.0144441 0.327589
-0.209895 -0.0645939 0.327589
-0.00963402 -0.100986 0.327589
0.231456 0.193854 0.315472
0.0875173 -0.000153393 0.315472
0.10193 -0.218731 0.327589
0.125539 0.15124 7.8578e-18
0.279053 -0.296173 0.327589
-0.0209367 -0.328233 0.327589
-0.0116134 0.0290219 0.155231
-0.292743 -0.231465 0.315472
-0.262942 -0.30007 0.327589
-0.0920326 -0.0111805 0.327589
0.101465 -0.0995349 6.23073e-18
0.231937 0.300598 0.327589
0.0611919 0.328406 0.327589
-0.0278776 -0.0142164 0.0932698
0.320968 0.248072 0.315472
-0.336564 0.19065 0.325901
-0.257135 0.276055 0.327589
-0.302071 0.303456 0.315472
-0.0656364 -0.0608122 0.0112188
-0.218757 0.163701 0.327589
-0.0280755 -0.0287367 -2.03238e-18
-0.063689 -0.283638 0.327589
-0.0661158 0.212477 0.327589
0.0053313 0.173959 3.87686e-19
0.165714 -0.153171 0.315472
-0.021789 -0.120058 -1.75901e-18
0.170839 0.1052 0.0112188
0.0225455 -0.119983 0.327589
-0.105408 0.179019 0.315472
-0.262531 0.0482666 0.315472
0.272087 -0.0691302 0.327589
0.285712 0.106175 0.327589
0.230635 0.243125 0.315472
-0.336418 0.290762 0.327589
0.125535 -0.111318 0.315472
-0.0143739 0.0276202 0.115458
-0.0259021 0.0171654 0.0291505
0.184001 0.240421 0.327589
0.126014 0.0545622 0.0112188
0.101422 0.193114 5.90017e-18
0.121926 0.0581791 0.315472
-0.179286 -0.193819 0.315472
0.170052 0.0103042 0.315472
-0.118899 -0.242506 0.327589
0.164404 -0.0809041 1.06136e-17
0.199324 0.0863324 0.315472
-0.0303155 0.00711545 0.291726
0.0947688 0.225271 0.327589
-0.199904 0.0829344 0.00563166
0.167847 0.336564 0.324648
-0.131682 0.315068 0.327589
0.123799 -0.291914 0.315472
-0.30576 -0.0598067 0.315472
0.306733 0.312619 0.327589
-0.0768667 0.105679 0.315472
0.124583 -0.0346501 7.99668e-18
-0.129274 0.045736 0.327589
0.0308401 -0.214234 0.00571019
-0.171376 0.256694 0.327589
-0.290752 -0.033946 0.315472
-0.236061 0.071063 0.315472
-0.0457113 -0.226506 0.327589
0.155132 -0.217338 0.327589
-0.104873 -0.177327 0.0112188
-0.0493565 -0.0838437 -3.1215e-18
0.201072 -0.120126 0.315472
-0.224255 -0.271911 0.327589
-0.0226775 0.0540788 0.327589
-0.160873 -0.106201 0.327589
0.300666 -0.0948794 0.315472
-0.012802 0.0286473 0.303071
0.141036 0.137095 0.327589
-0.223002 0.300709 0.327589
0.312488 0.0876225 0.327589
0.260434 -0.214556 0.315472
-0.137009 0.169539 0.00480228
-0.0928156 0.0816701 0.0112188
0.0640493 -0.038247 0.327589
0.0132724 0.102827 9.63116e-19
0.03075 0.00397246 0.300308
0.158685 -0.0725959 0.315472
-0.265732 0.311486 0.327589
0.116249 -0.0827953 0.0112188
0.0908493 -0.0059163 5.89446e-18
-0.186108 -0.00189831 0.0112188
-0.259793 -0.230824 0.327589
0.285941 -0.0117917 0.327589
-0.234354 0.0191475 0.327589
0.0867835 -0.191521 0.315472
-0.167099 -0.00587264 0.315472
-0.0104759 0.151615 0.327589
0.0544222 -0.0213581 0.0112188
-0.166677 0.108574 0.315472
-0.105002 -0.0482599 0.315472
-0.301979 -0.307817 0.327589
0.138164 0.193748 0.327589
-0.294852 -0.158953 0.327589
0.00740196 0.142409 5.8119e-19
-0.152653 -0.242186 0.315472
-0.235663 0.132383 0.315472
-0.0629159 0.0167374 0.0112188
0.293508 0.14216 0.315472
-0.200401 0.0808814 0.315472
0.293004 0.0433531 0.315472
0.0798229 0.188959 0.315472
0.336564 -0.0447789 0.325515
-0.0201315 -0.183248 0.315472
0.201727 -0.0249553 0.0112188
0.034711 -0.152189 0.315472
0.0224625 -0.317172 0.327589
0.336564 -0.208484 0.326077
-0.104332 0.25207 0.327589
-0.243538 -0.152596 0.315472
-0.0818417 -0.165093 0.315472
0.336564 -0.289232 0.324725
0.215508 -0.180305 0.315472
0.0425573 0.288756 0.315472
-0.0660088 0.307343 0.327589
0.101614 0.146605 0.327589
0.0396722 -0.0635303 0.0112188
-0.236682 -0.0838513 0.315472
-0.0569513 -0.02031 0.315472
0.0546114 0.0385736 0.0112188
0.0116329 -0.0287312 0.171308
0.0303686 0.00625858 0.0274103
-0.126834 -0.115652 0.0112188
-0.188141 0.137269 0.327589
0.171299 0.0445483 1.08375e-17
-0.202793 -0.330935 0.327589
-0.0963354 0.0171723 0.327589
-0.0293875 -0.00981842 0.0500672
-0.0761042 0.130079 0.0112188
0.0550339 -0.134711 0.0112188
-0.0517688 0.166632 0.315472
0.0143502 -0.103146 1.15839e-18
-0.162318 -0.178192 0.327589
0.300678 -0.166504 0.327589
-0.0300961 -0.00775439 0.195209
0.24875 -0.0636649 0.315472
0.0497842 0.21526 0.00256286
0.177112 0.300993 0.315472
-0.0198973 -0.032063 0.315472
0.156987 0.0383615 0.327589
-0.105082 0.120713 0.315472
0.330472 -0.0851236 0.320481
-0.0112037 0.236838 0.327589
0.00814726 0.0302612 0.0382147
0.0253777 -0.0182067 0.245851
-0.217913 0.211653 0.315472
0.0305647 -0.221872 0.315472
-0.21494 0.0521058 0.315472
-0.0782895 -0.249021 0.315472
0.0902889 0.109054 0.327589
-0.00183532 0.0874001 0.315472
0.0529231 0.0709139 0.0112188
0.27123 -0.332176 0.321465
0.236064 -0.265246 0.327589
0.118724 0.0233365 7.57272e-18
0.0335951 0.0439954 0.327589
-0.214603 0.333715 0.322353
-0.287838 -0.267651 0.327589
-0.333985 -0.293886 0.322509
-0.00551373 0.029085 -4.4516e-19
0.0348029 -0.0500361 0.315472
-0.287545 -0.202183 0.327589
-0.142512 0.105933 0.0112188
0.17116 0.136989 0.00392225
0.0461387 -0.332167 0.32146
0.093703 -0.317391 0.315472
-0.161689 0.288922 0.315472
-0.218303 -0.305238 0.315472
0.015407 0.0270761 0.0949835
-0.322338 -0.235239 0.327589
0.117054 -0.135952 0.0112188
0.241013 0.0595417 0.315472
-0.046727 0.160957 0.0112188
0.254515 0.0215766 0.315472
-0.232639 0.253784 0.315472
0.144612 0.0870305 0.327589
0.253549 0.12094 0.315472
-0.11914 0.143284 0.315472
0.0830423 0.161332 0.0112188
0.178066 0.00312997 0.0112188
-0.0119472 -0.0064899 0.327589
-0.0309831 -0.000890662 0.255328
0.308527 -0.275376 0.315472
0.166078 0.149448 0.315472
0.027801 -0.0137291 0.166908
0.00111267 0.290404 0.315472
0.173901 -0.279065 0.327589
-0.174944 -0.0581123 0.0112188
0.293547 -0.22954 0.327589
-0.283849 -0.336564 0.326315
0.015427 0.0270674 0.235665
-0.0467308 -0.090256 0.315472
0.260871 -0.115215 0.327589
-0.310753 -0.0973737 0.315472
-0.0282064 -0.149782 -2.27706e-18
-0.262961 -0.0273536 0.315472
0.147931 0.250837 0.315472
0.0958116 0.109812 0.0112188
-0.114347 -0.10309 0.327589
0.000991434 -0.248636 0.315472
-0.00486709 -0.0382977 0.0112188
-0.142256 -0.212071 0.327589
0.209599 0.0274892 0.327589
0.0366115 -0.280099 0.315472
0.0273619 -0.0145405 0.127287
0.00433171 -0.0445216 0.327589
0.239212 -0.141618 0.315472
0.164556 0.265093 0.315472
-0.137198 -0.163072 0.327589
-0.0698349 0.208264 0.00361175
0.0984925 -0.18456 0.0105384
0.198418 -0.304158 0.315472
-0.00416557 -0.18383 0.0112188
0.218333 -0.0355054 0.327589
-0.0347314 -0.144728 0.315472
-0.00670618 0.178314 0.327589
-0.240086 -0.120103 0.327589
-0.0338466 -0.304046 0.315472
-0.278039 0.234 0.315472
-0.21215 -0.136496 0.327589
0.0566191 -0.106253 0.315472
-0.199536 -0.227018 0.315472
0.107894 0.303513 0.327589
-0.147062 0.0371979 0.0112188
0.205136 -0.214307 0.327589
0.304639 -0.0235542 0.327589
-0.276985 0.185729 0.315472
0.0861098 -0.0907371 0.327589
0.011626 0.0287349 0.278227
0.197093 0.190699 0.327589
-0.311947 0.171492 0.315472
0.00366482 -0.0307862 0.0642234
-0.227633 -0.0399979 0.315472
-0.180131 -0.0594971 0.315472
-0.142142 0.230678 0.315472
0.270196 0.215378 0.327589
-0.242342 0.103508 0.315472
-0.0401119 0.123788 0.315472
0.152929 -0.33506 0.32313
-0.0479403 0.0460572 0.315472
0.075594 -0.278414 0.315472
0.161012 -0.114988 0.0112188
-0.161611 -0.2787 0.315472
0.190099 -0.031886 0.315472
-0.263841 -0.0788281 0.327589
-0.138331 -0.0426833 0.0112188
0.110013 0.031887 0.315472
0.078172 -0.0799764 4.41212e-18
0.20909 0.0480696 0.00684846
-0.137052 -0.122868 0.315472
0.236904 0.168312 0.327589
0.00680533 0.336564 0.324161
0.00511807 0.0106744 0.315472
-0.130064 -0.0152918 0.327589
0.0759317 -0.119133 0.0112188
0.0804865 -0.24615 0.315472
-0.239743 0.184385 0.315472
-0.217767 -0.00923099 0.00461478
-0.172279 0.027998 0.327589
0.266004 0.293485 0.315472
-0.0858723 -0.135893 0.327589
0.216796 0.101501 0.315472
0.0325992 0.23788 0.327589
-0.191283 0.202632 0.315472
0.248321 -0.302668 0.315472
0.0568069 0.0927982 3.65542e-18
-0.254115 -0.00069046 0.315472
0.24216 0.266213 0.315472
-0.0710839 0.242269 0.315472
-0.312052 0.0103422 0.315472
0.206746 0.0495357 0.327589
-0.0957315 0.22775 0.327589
-0.0328158 0.229571 0.315472
0.158125 0.165572 0.327589
-0.230352 -0.178634 0.315472
0.138636 -0.13017 0.327589
0.206937 0.143133 0.327589
-0.134508 0.174779 0.315472
0.304542 0.219573 0.315472
-0.0571515 -0.170349 -3.7421e-18
0.138031 -0.0302689 0.315472
-0.0582446 0.286545 0.315472
0.100747 -0.0475891 0.315472
-0.112417 -0.17163 0.315472
-0.225899 -0.237813 0.327589
0.0261352 0.016808 0.174376
0.0750611 -0.172359 0.327589
-0.0114433 0.310601 0.315472
0.173111 0.0796444 0.315472
-0.0102112 0.065985 0.0112188
0.187436 -0.144508 0.315472
0.274863 -0.028765 0.315472
-0.117348 -0.00548302 0.0112188
-0.00770603 -0.0300102 0.19412
0.146157 -0.0556396 0.0112188
-0.289762 0.0440035 0.327589
-0.174269 0.0888355 0.0112188
0.092847 0.335079 0.327589
0.109128 -0.131832 0.327589
0.117159 0.112124 0.327589
0.307171 -0.302546 0.315472
0.0812418 0.0929675 0.327589
0.0371732 0.152044 0.0112188
0.293182 -0.336564 0.32708
0.221021 -0.0948471 0.315472
0.184502 -0.0610539 0.0112188
-0.145201 0.0710937 0.315472
-0.0979837 -0.299836 0.315472
0.0088362 0.198972 5.75511e-19
0.147716 -0.183661 0.327589
-0.170899 0.173383 0.315472
0.0261982 -0.188475 2.11484e-18
0.319292 0.0213046 0.327589
-0.184745 0.0509577 0.327589
0.128918 -0.00449909 0.0112188
-0.0614071 0.192226 0.327589
-0.0271922 0.0357179 0.0112188
-0.115915 0.285604 0.315472
0.138683 0.127792 0.0112188
-0.16919 -0.307515 0.327589
-0.0497655 0.0172162 0.327589
-0.200004 0.251208 0.315472
0.0379544 0.079002 0.315472
0.179347 0.0726387 0.0112188
-0.0730316 0.0527652 0.0112188
-0.186431 -0.133437 0.315472
0.0344728 -0.124691 0.0112188
-0.0248291 -0.247326 0.327589
-0.130823 -0.324414 0.327589
-0.30056 0.104749 0.327589
0.131938 -0.176092 8.29253e-18
0.126946 -0.228472 0.315472
0.241445 0.216491 0.327589
0.0964275 0.0592172 0.327589
0.267042 0.187471 0.315472
-0.321478 0.215788 0.315472
-0.294552 0.284564 0.327589
-0.0402003 -0.212216 0.00618981
0.25427 0.317148 0.327589
-0.105626 0.0883963 0.315472
-0.134348 -0.0893069 0.315472
-0.194234 -0.0868174 0.315472
0.133638 0.27781 0.327589
-0.320643 0.0728255 0.315472
-0.0309831 0.00490092 0.158089
0.265753 0.0379829 0.315472
-0.0197604 0.259377 0.315472
0.180859 -0.0839913 0.327589
-0.0842196 -0.0839006 0.315472
0.0450431 0.136688 0.327589
-0.282358 0.0266066 0.315472
0.21347 0.225594 0.315472
-0.173262 -0.085606 0.0112188
0.210515 0.313109 0.315472
0.0312726 0.17426 1.91966e-18
-0.0557159 -0.0150336 0.0112188
-0.0717004 0.0778821 0.315472
-0.309371 0.134013 0.327589
0.236066 -0.199137 0.327589
-0.161206 -0.124533 0.0112188
-0.042077 -0.0473686 -2.69004e-18
0.100492 0.150995 0.0112188
0.211523 -0.273737 0.327589
-0.0573889 -0.107383 0.0112188
0.0175477 -0.0259605 0.0458693
0.282735 -0.0995612 0.327589
0.00987172 0.130127 0.315472
0.0400811 0.175693 0.327589
-0.0622075 0.0920296 0.0112188
-0.264912 0.0826995 0.315472
0.0834493 0.241027 0.315472
0.0897113 0.0472059 5.7753e-18
0.307208 -0.0405779 0.315472
-0.110121 0.108239 0.0112188
0.0606179 0.271142 0.327589
0.127547 -0.0407934 0.327589
-0.111288 0.00137314 0.315472
0.192444 -0.229429 0.327589
-0.0862467 -0.0851558 0.0112188
0.147639 -0.300224 0.327589
0.207034 -0.333185 0.322048
-0.0295529 0.00933659 0.227642
0.190317 -0.0917549 1.20593e-17
0.302874 -0.141561 0.315472
0.175098 0.116138 0.327589
0.164521 0.199987 0.315472
0.059696 -0.0470551 0.0112188
0.290384 0.168181 0.327589
0.0472692 0.00852475 0.0112188
-0.0174969 -0.123376 0.315472
0.14414 0.105584 0.0112188
-0.202168 -0.25744 0.315472
-0.140639 0.113969 0.327589
-0.280237 -0.293552 0.315472
-0.0377524 -0.205817 0.315472
-0.205349 -0.0413322 0.315472
0.0342355 -0.0848822 0.327589
0.00396542 -0.0570837 0.0112188
-0.236129 -0.0200905 0.327589
0.289028 -0.257655 0.327589
0.311235 0.195779 0.327589
0.0767615 0.136904 0.327589
-0.250755 -0.106071 0.315472
0.104802 0.205624 0.315472
-0.134123 -0.037591 0.315472
-0.110819 -0.227272 0.315472
0.216622 -0.250248 0.315472
-0.200476 0.0506263 0.0112188
-0.0279728 0.0139392 0.110518
-0.319103 0.267975 0.327589
0.00890371 -0.160789 0.315472
-0.0100007 0.154864 0.0112188
-0.260567 -0.15689 0.327589
0.112436 -0.303254 0.327589
-0.0798461 0.302985 0.315472
0.0576701 -0.267671 0.327589
-0.250288 0.300715 0.315472
-0.261237 0.254457 0.327589
-0.301428 -0.0017902 0.327589
0.0465465 0.0978761 0.315472
-0.00199941 -0.309581 0.315472
0.0590335 -0.184405 3.86905e-18
0.177214 -0.0450084 0.315472
0.306307 0.122355 0.315472
0.313292 0.0685278 0.315472
-0.0746593 0.157575 0.0112188
0.059682 0.0474635 0.327589
-0.134905 0.0309155 0.315472
-0.251582 0.205772 0.327589
0.0208338 0.200849 0.315472
0.10343 -0.0600832 6.76234e-18
0.310589 0.28291 0.315472
-0.0830075 0.188367 0.327589
-0.114217 0.0312017 0.315472
-0.195884 0.103329 0.315472
-0.121331 -0.302219 0.315472
-0.278858 -0.0650284 0.315472
-0.190714 0.291105 0.315472
-0.177746 0.0285797 0.0112188
0.133579 0.311146 0.315472
-0.26684 0.134688 0.315472
0.165919 -0.0499221 1.04867e-17
0.00891721 0.032037 0.327589
0.185331 0.137967 0.315472
0.189678 -0.17171 0.327589
0.312825 0.267998 0.327589
-0.16292 -0.0252179 0.0112188
0.0620323 0.0202056 0.315472
0.095459 0.169524 0.315472
-0.0468162 -0.0544736 0.315472
0.083546 -0.0387855 0.327589
0.161046 0.0246208 1.0212e-17
0.142636 0.0544248 9.12472e-18
0.23874 0.32858 0.319388
-0.000692414 -0.0311474 0.145684
-0.00727931 -0.0701247 0.327589
0.0530231 0.308497 0.315472
-0.0344629 -0.114508 0.327589
0.182967 0.280313 0.327589
0.195905 -0.00341871 0.327589
-0.298295 -0.123004 0.315472
-0.0681607 -0.0407574 0.315472
-0.0936766 0.204192 0.315472
0.000384498 -0.130777 3.09847e-20
0.12938 0.119687 0.315472
0.215545 -0.0342265 1.38037e-17
-0.148941 0.244479 0.327589
0.00387453 0.0307701 0.185202
0.0169801 -0.0547484 1.37069e-18
0.279377 -0.202703 0.315472
-0.0431949 -0.128231 0.0112188
0.329435 -0.180346 0.327589
-0.328639 -0.118973 0.327589
-0.0693286 -0.0338444 0.0112188
0.274944 0.0101312 0.315472
-0.308156 -0.170663 0.315472
-0.330596 -0.00524148 0.327589
-0.145231 -0.0024882 0.315472
0.169163 -0.137643 0.327589
0.0751709 -0.336564 0.325769
-0.334653 0.161563 0.327589
0.319139 -0.220145 0.315472
-0.32969 0.0218876 0.327589
0.0340646 -0.159772 2.72497e-18
0.235416 -0.0059531 0.327589
0.030311 0.0305285 1.92929e-18
-0.0130816 -0.00898027 0.0112188
-0.328376 -0.06115 0.327589
-0.190253 0.156389 0.315472
-0.221179 -0.101945 0.315472
0.211777 0.195619 0.315472
-0.128148 -0.0638378 0.327589
0.323402 0.226588 0.327589
0.113421 -0.0866236 0.315472
-0.0241191 -0.282064 0.327589
-0.0223262 0.0807419 0.327589
0.145119 -0.157451 0.327589
0.186185 0.0297076 0.315472
0.0231059 -0.0208435 0.302103
0.0225248 -0.257837 0.327589
0.123057 0.0787368 7.86567e-18
-0.0339999 0.0962477 0.315472
-0.14811 0.137376 0.0112188
-0.165414 -0.260194 0.327589
0.295053 0.334063 0.322554
0.0968596 -0.10975 0.315472
0.262637 -0.0453168 0.327589
0.28976 -0.121112 0.327589
0.0604016 -0.0118957 0.315472
0.0654516 -0.197429 0.327589
-0.244322 0.0400268 0.327589
0.0228795 -0.0872148 0.0112188
0.171889 -0.138138 1.1023e-17
-0.25141 -0.317734 0.315472
0.111848 -0.164982 0.315472
-0.0697202 0.00351354 0.315472
0.0789141 -0.300705 0.327589
-0.0892319 -0.202553 0.00198623
0.0234756 -0.0205032 0.0777648
0.191689 0.100338 1.16393e-17
-0.158345 -0.124465 0.315472
0.00957754 -0.106087 0.315472
0.0791552 0.272659 0.327589
-0.12037 0.235948 0.315472
0.252015 0.00272503 0.315472
0.276224 0.312738 0.327589
0.0620298 0.208865 0.315472
-0.061065 0.324386 0.316967
0.0157625 0.0269202 0.304064
0.224369 0.261721 0.327589
-0.0149912 -0.216188 0.315472
-0.0613597 0.123405 0.327589
0.158808 -0.24437 0.327589
0.167578 -0.0104021 0.315472
-0.304105 -0.215109 0.327589
-0.319256 -0.0378749 0.315472
-0.090553 -0.109234 0.315472
0.209071 0.173505 0.315472
0.107818 0.170399 6.76405e-18
-0.149567 -0.311778 0.315472
-0.0796815 0.17119 0.315472
-0.0114794 0.112683 0.327589
0.0101273 -0.0293916 0.265923
0.0718066 0.104664 0.0112188
0.246912 -0.243277 0.315472
0.00217608 -0.016804 1.75613e-19
0.146472 -0.131183 0.0112188
0.0665951 0.00879687 4.06842e-18
0.206602 -0.0880865 0.327589
-0.11548 -0.154731 0.327589
-0.185692 0.0766002 0.327589
0.0201762 0.226397 0.315472
-0.283013 0.321385 0.315472
0.314456 -0.187151 0.315472
0.0512086 0.114909 0.327589
0.321483 -0.064567 0.315472
-0.295837 0.17807 0.327589
0.126472 0.246441 0.327589
0.133071 -0.315708 0.327589
0.242325 0.139446 0.327589
-0.254207 0.0198009 0.315472
-0.100698 -0.141446 0.0112188
-0.121606 0.0465016 0.0112188
-0.0766614 -0.187387 0.315472
-0.192823 -0.281764 0.327589
0.145641 0.335311 0.323275
0.0136772 -0.200786 0.315472
0.298776 0.0236514 0.315472
-0.016225 -0.02641 0.171893
-0.214972 0.0224588 0.327589
-0.201321 -0.187101 0.327589
-0.179879 -0.215788 0.327589
0.103402 0.24917 0.327589
-0.279483 0.274414 0.315472
0.336564 0.0965345 0.324176
0.184644 0.0288053 0.0112188
0.336564 -0.108348 0.326624
-0.0698118 -0.169974 0.327589
0.161483 -0.181694 0.315472
-0.0644765 -0.21744 0.327589
-0.0476731 -0.328854 0.327589
-0.0974441 0.0444524 0.327589
-0.0390618 -0.0280593 0.327589
0.0410914 0.266457 0.327589
-0.136672 0.159594 0.327589
0.21572 -0.0708435 0.327589
-0.0316736 0.212163 0.327589
-0.196766 -0.0254183 0.327589
-0.0780739 -0.16903 0.0112188
0.000857148 0.00346197 0.0148088
-0.238484 -0.0577659 0.327589
0.125948 -0.00722793 0.315472
-0.154749 -0.0449936 0.315472
-0.190572 0.269327 0.315472
-0.15774 0.302856 0.327589
-0.0706823 -0.148366 0.315472
0.234508 0.0223139 0.315472
-0.0927531 -0.03765 0.327589
0.124721 0.14556 0.315472
-0.0820989 -0.288707 0.315472
-0.00814019 0.205375 0.0112188
0.104964 0.0105766 0.327589
-0.153707 0.0224294 0.315472
0.177304 -0.108944 0.315472
0.110523 0.0662745 0.0112188
0.141813 -0.195224 0.315472
-0.298157 -0.191906 0.315472
-0.238982 0.320386 0.327589
0.0600673 0.224732 0.327589
0.0051282 -0.17072 4.13928e-19
-0.314982 0.316581 0.327589
0.0627151 -0.152345 0.315472
-0.124741 0.0239529 0.0112188
0.1091 -0.201649 0.315472
0.0214865 0.0047147 0.327589
0.273753 0.125111 0.327589
-0.118306 -0.262634 0.315472
0.0554297 0.144341 3.33289e-18
0.0672173 0.0587339 4.34899e-18
-0.287471 0.129163 0.327589
-0.186604 -0.104327 0.315472
-0.151285 0.0513249 0.327589
0.0800892 0.0201099 0.315472
-0.311431 -0.0764773 0.327589
0.0167642 0.276632 0.327589
0.152866 0.226204 0.315472
-0.148795 0.333854 0.327589
-0.172365 0.222653 0.315472
-0.212986 0.228202 0.327589
-0.105073 0.162503 0.327589
0.138101 0.0318787 0.0112188
-0.276826 -0.318255 0.315472
0.148944 -0.0167416 0.327589
0.038955 -0.0246706 0.315472
-0.027799 0.0144456 0.0581884
0.125157 -0.249191 0.327589
-0.00975938 -0.0946676 -7.87898e-19
0.260557 0.0970187 0.315472
0.184525 -0.0190929 1.14242e-17
0.10084 0.192561 0.327589
0.328329 0.184688 0.319244
-0.183633 -0.168935 0.315472
-0.335601 -0.256698 0.323442
0.222881 -0.13039 0.327589
0.122925 0.0399734 0.327589
0.148956 -0.104216 0.315472
-0.0189849 -0.081232 0.315472
0.129173 0.0751466 0.327589
0.0976595 -0.12762 5.61567e-18
-0.0356238 0.30668 0.327589
-0.333948 0.0537178 0.327589
0.217687 0.0818729 0.327589
-0.0495111 -0.15255 0.0112188
-0.108401 0.315687 0.327589
0.25254 0.195531 0.327589
-0.309557 0.231119 0.315472
0.0313775 0.000210896 0.229474
-0.141342 0.297744 0.315472
-0.0158458 0.00977735 0.315472
-0.118094 0.336564 0.327521
0.00681356 0.239173 0.327589
-0.0700302 -0.0867962 0.327589
0.10418 0.00447565 0.0112188
-0.228093 -0.160556 0.327589
-0.187915 -0.00316998 0.327589
-0.148647 0.0706795 0.0112188
-0.15044 0.160794 0.315472
0.00143975 0.0810727 1.16172e-19
0.303969 0.0602382 0.327589
0.0761046 0.318544 0.315472
0.251403 -0.152934 0.327589
-0.159934 -0.0881692 0.315472
0.0786012 -0.169945 0.0112188
-0.138561 0.21095 0.315472
0.206805 0.289081 0.327589
0.104416 -0.0307656 6.75367e-18
0.18105 -0.328784 0.327589
0.101419 0.0302873 0.0112188
-0.0537227 -0.306677 0.327589
0.157578 0.213455 0.327589
0.0496862 0.163113 0.315472
0.221668 0.121298 0.327589
0.290444 0.0884977 0.315472
-0.193746 -0.0757746 0.0112188
0.222332 -0.112013 0.327589
-0.027062 -0.015675 0.117333
-0.303095 -0.243782 0.327589
-0.101567 -0.103019 0.0112188
0.0914297 -0.0720602 0.315472
0.0698993 0.00173748 0.327589
0.0324486 0.198798 2.22307e-18
-0.192926 -0.0344324 0.0112188
0.149169 0.261913 0.327589
-0.0236962 -0.0867745 0.0112188
0.108405 0.277694 0.327589
0.237984 -0.0448818 0.327589
0.252775 0.0508186 0.327589
-0.0339068 0.164044 0.327589
-0.238037 -0.291557 0.327589
0.0132704 0.0280135 0.159487
-0.0821878 -0.022734 0.315472
0.221632 -0.21692 0.315472
-0.15385 0.26855 0.327589
0.0645401 -0.0634713 3.74358e-18
-0.0115477 -0.0290373 0.0851301
0.036538 0.0883431 0.0112188
0.0808179 0.179959 5.58022e-18
-0.026303 0.122715 0.0112188
-0.0303251 0.00708738 0.135261
0.286449 -0.0486456 0.315472
-0.0148928 -0.198864 -1.2023e-18
0.00631458 0.110339 0.315472
0.175901 0.313955 0.327589
-0.218965 0.0850939 0.327589
0.250101 -0.278607 0.315472
0.126842 -0.158412 0.0112188
0.327591 -0.26797 0.327589
0.227507 -0.020243 0.315472
-0.258214 0.182378 0.327589
0.11488 0.129027 0.0112188
-0.0165206 0.0172835 0.0112188
-0.026214 -0.0167647 0.270934
-0.144662 -0.268167 0.327589
-0.0283073 -0.012965 0.0263486
-0.0864081 0.131668 0.315472
0.0235057 0.164081 0.327589
0.000239329 -0.0166974 0.315472
0.307117 -0.251184 0.315472
0.153236 0.0697374 0.315472
0.18602 0.0121138 0.327589
0.0200389 -0.301892 0.315472
0.13889 0.0502745 0.315472
-0.121214 0.0654203 0.327589
-0.200145 0.322546 0.315905
0.130887 -0.0575612 0.315472
-0.0184054 0.167121 0.315472
-0.176891 -0.0810492 0.327589
0.318742 0.0470918 0.315472
0.248224 -0.190519 0.315472
0.0925609 0.14297 0.315472
-0.0794023 0.0450485 0.315472
0.00904408 -0.0803954 0.327589
-0.14653 -0.0997584 0.0112188
0.114821 0.0469913 7.0378e-18
0.0685032 0.0322669 4.46601e-18
0.00818769 0.0302434 0.118442
-0.306046 0.0232448 0.327589
-0.0730365 0.231022 0.327589
0.162811 -0.0532108 0.327589
-0.212881 0.141211 0.327589
-0.334945 -0.170235 0.327589
-0.203558 -0.301994 0.327589
0.0282396 -0.00626265 0.0112188
0.145016 -0.277478 0.327589
-0.0521225 0.183274 0.0112188
0.0129764 -0.117724 0.0112188
-0.247 0.118353 0.327589
-0.25315 -0.274694 0.315472
0.126325 0.213438 0.315472
0.164794 -0.19686 0.327589
-0.300763 -0.325261 0.317473
-0.214921 -0.198912 0.315472
-0.212116 0.00475454 0.315472
0.13919 -0.0334154 0.0112188
-0.0283418 -0.0128645 0.226324
0.178075 -0.0362696 0.0112188
-0.0255164 -0.0118458 0.315472
0.000315589 0.031065 0.219341
-0.211134 -0.280565 0.315472
0.192212 0.308316 0.327589
-0.137258 -0.173235 0.00268004
0.0587235 -0.243886 0.315472
-0.183895 -0.317177 0.315472
-0.139254 -0.101329 0.327589
-0.314302 -0.200111 0.327589
-0.124429 0.180118 0.327589
0.303943 -0.00036037 0.315472
0.320769 -0.296686 0.327589
-0.161804 -0.202856 0.327589
0.194431 0.0598759 1.25233e-17
0.160179 -0.289357 0.315472
0.0767197 -0.0212029 4.71008e-18
-0.220215 0.18768 0.315472
0.103974 0.111543 0.315472
0.122426 -0.148863 0.327589
-0.153029 -0.015762 0.327589
0.269658 -0.308567 0.315472
0.0418967 0.327741 0.318904
0.199794 -0.0240581 0.327589
-0.00641668 0.222959 0.315472
0.221461 -0.00767995 0.00172911
-0.243461 -0.170552 0.327589
0.170601 -0.22119 0.315472
-0.0634329 0.0582826 0.315472
0.16126 0.127991 0.315472
0.0695485 0.102265 0.315472
-0.276261 0.060765 0.327589
0.0625823 0.292506 0.327589
-0.0146414 0.0274454 0.28128
0.0223826 -0.180768 0.315472
-0.331614 -0.213836 0.32114
0.312143 -0.112534 0.327589
-0.0920787 -0.225956 0.327589
-0.0798267 0.104108 0.0112188
-0.244081 0.153127 0.315472
-0.0744866 -0.309575 0.327589
0.134288 0.0937144 0.315472
-0.262686 -0.33178 0.327589
-0.188329 0.187033 0.327589
0.301626 -0.116574 0.315472
0.22974 0.0456969 0.315472
0.0466373 -0.311359 0.327589
-0.0200666 -0.173516 0.0112188
-0.0318299 0.136014 0.327589
0.0559268 -0.118565 3.51688e-18
0.0982984 -0.175564 0.327589
0.201803 0.0151352 0.315472
0.318149 0.142155 0.327589
0.0181954 -0.138638 0.315472
-0.0445086 -0.240391 0.315472
-0.131812 0.135752 0.327589
0.181925 0.0989945 0.315472
0.305492 -0.316764 0.327589
-0.30024 0.0548931 0.315472
-0.118309 -0.0973906 0.0112188
0.046441 -0.0379552 2.84592e-18
0.138071 -0.0827746 0.0112188
0.0857075 -0.122499 0.327589
0.193057 0.255704 0.315472
0.278069 0.173363 0.315472
-0.222569 -0.151079 0.315472
0.015917 -0.273115 0.315472
0.0526479 0.0367536 0.315472
-0.199426 0.129026 0.315472
-0.323335 0.306765 0.316361
-0.0941313 -0.156497 0.327589
0.0108358 0.0251104 0.0112188
-0.309166 -0.0244595 0.327589
0.271252 -0.234834 0.327589
-0.102219 -0.246309 0.315472
-0.272275 0.290927 0.327589
-0.18751 -0.235683 0.327589
-0.16313 0.0777106 0.327589
-0.0644675 -0.266187 0.315472
-0.313137 -0.289776 0.327589
-0.239084 0.282709 0.315472
-0.192446 -0.0470775 0.327589
0.195842 0.164598 0.327589
0.251102 0.237778 0.315472
-0.00669783 0.0660416 0.315472
0.123847 0.183389 0.00226246
-0.0972198 -0.185819 0.327589
-0.111812 -0.288155 0.327589
-0.263407 0.0338311 0.327589
0.0487482 -0.204865 3.50007e-18
0.0212161 -0.230486 0.327589
0.0123445 0.146645 0.327589
0.125313 -0.0675642 8.07374e-18
-0.332097 -0.316331 0.327589
-0.079833 0.218133 0.315472
-0.0461585 0.148092 0.315472
-0.0914403 0.145208 0.0112188
0.0643159 -0.0619098 0.327589
0.324099 0.316967 0.316802
-0.305163 0.190994 0.315472
-0.242817 -0.243914 0.315472
-0.262065 0.215787 0.315472
-0.0108351 0.029219 0.0272368
0.0365151 0.13037 2.36937e-18
-0.0285673 -0.0122074 0.0707758
0.0297668 0.00986597 0.102013
0.336564 0.0325051 0.325194
-0.311534 0.336564 0.325874
-0.278408 -0.178155 0.327589
-0.312023 0.157873 0.327589
0.0274056 0.29619 0.327589
0.0969142 -0.282147 0.315472
0.137912 0.160846 0.327589
-0.131799 -0.139723 0.0112188
-0.00267757 0.0312847 0.0857653
-0.0190509 0.295607 0.327589
0.0575108 -0.182627 0.315472
-0.284275 -0.082237 0.327589
0.145562 0.00864232 0.327589
-0.279381 -0.0239867 0.327589
-0.106035 0.276964 0.327589
-0.220301 -0.0617393 0.315472
-0.247271 -0.22199 0.315472
-0.28161 -0.135195 0.315472
-0.218914 -0.124053 0.315472
-0.179307 -0.334554 0.322838
0.111299 0.227738 0.315472
-0.336564 0.0811268 0.325653
-0.151958 -0.292156 0.327589
0.284223 -0.317403 0.327589
0.0840671 0.207674 0.327589
0.0213137 -0.0224935 0.222305
-0.00845414 -0.146258 0.0112188
-0.316268 0.0928959 0.315472
-0.0890221 -0.0011352 0.315472
0.148309 0.239143 0.327589
0.0951932 -0.0779892 0.0112188
-0.0763337 0.001286 0.0112188
0.28609 0.302451 0.315472
-0.277036 0.22135 0.327589
-0.174198 0.30352 0.315472
0.181761 0.190536 0.315472
0.0107293 -0.0281607 0.0127086
0.307324 0.107352 0.327589
0.0283966 0.0174161 0.0112188
0.308273 0.0373928 0.327589
0.012604 -0.0283053 0.130081
0.299592 0.258347 0.315472
0.028514 -0.0985917 0.315472
0.0624907 0.152692 0.0112188
-0.0105127 0.185257 0.0112188
-0.119361 -0.186563 0.000577272
0.234397 -0.0710973 0.327589
0.19002 0.324286 0.316909
-0.14355 0.0914417 0.315472
0.0643205 -0.321639 0.315472
0.32469 -0.0213026 0.327589
-0.12503 0.108768 0.315472
-0.133921 -0.150102 0.315472
-0.181133 -0.0215782 0.315472
-0.102161 0.104908 0.327589
-0.120436 0.0119534 0.327589
0.100598 -0.246621 0.315472
-0.0629923 0.0701809 0.0112188
-0.0922434 0.155508 0.315472
-0.303394 -0.0439593 0.327589
0.144771 -0.00949487 9.05399e-18
0.197755 -0.0445907 0.0112188
-0.198254 0.116206 0.327589
0.0191482 -0.0387645 0.315472
-0.0395524 -0.066099 -2.64529e-18
-0.0364316 0.0619377 0.315472
0.257349 -0.319232 0.327589
0.115164 0.091624 0.0112188
-0.165738 0.138321 0.327589
-0.0828409 0.285957 0.327589
0.158166 -0.265674 0.315472
-0.0293336 0.248066 0.327589
0.0298652 0.212363 0.0070149
-0.00178078 0.117456 0.0112188
-0.0608301 -0.184961 0.0112188
-0.136753 -0.230316 0.315472
-0.127324 -0.026181 0.0112188
-0.267887 -0.250295 0.315472
0.0617738 0.0855998 0.315472
-0.248157 -0.134454 0.315472
-0.00716184 -0.0202098 0.0148088
-0.298749 0.235353 0.327589
0.256871 0.271515 0.327589
0.0468739 0.250126 0.327589
-0.319707 -0.248076 0.315472
0.205991 0.026649 0.0112188
0.247994 -0.123987 0.315472
0.186405 0.0504439 0.0112188
-0.307151 -0.336564 0.325872
0.0310987 0.00188239 0.14578
0.178653 0.153558 0.327589
-0.0893788 -0.0601647 0.315472
-0.0121471 -0.291839 0.315472
-0.142032 -0.173626 0.315472
-0.120407 0.179931 0.0054783
0.166844 0.245856 0.315472
0.235765 0.112839 0.315472
0.331103 0.276924 0.320846
0.175996 -0.244989 0.315472
0.0563969 -0.0772136 0.0112188
-0.215912 0.196838 0.327589
0.200242 0.0067076 0.0112188
0.0608037 0.18465 0.315472
-0.0274337 0.0151975 0.265756
0.0184623 0.186284 0.0112188
-0.0519618 -0.10794 0.327589
0.320756 -0.00625756 0.315472
0.122665 0.295064 0.315472
0.0224772 0.0810646 1.42727e-18
0.0118985 -0.330935 0.327589
0.0104045 0.214886 0.327589
0.0809034 0.173902 0.327589
-0.0447764 0.241795 0.315472
-0.227123 -0.318719 0.327589
0.0190391 0.0245879 0.0232688
0.158186 0.322342 0.315787
0.296463 -0.284391 0.327589
0.135059 0.0885349 0.0112188
0.111285 -0.174658 6.41588e-18
0.251595 -0.0827596 0.315472
-0.185752 -0.118427 0.327589
0.0352758 -0.0187647 0.0112188
-0.060936 0.035913 0.0112188
-0.134385 0.0884684 0.0112188
0.203414 -0.04429 0.315472
-0.322583 0.204364 0.327589
-0.314027 -0.224738 0.315472
0.074055 -0.0169966 0.327589
0.0247864 -0.0192964 0.186405
0.15369 -0.0389886 9.86605e-18
0.244706 0.286314 0.327589
-0.10919 -0.198836 0.315472
0.271501 -0.190168 0.327589
-0.203185 0.0223062 0.0112188
0.0458982 0.22 0.315472
-0.146847 -0.133892 0.327589
-0.0906083 0.0884633 0.327589
0.158373 0.0675162 0.0112188
0.0408731 0.0598214 2.31904e-18
-0.108631 -0.121119 0.327589
-0.157314 -0.0443606 0.0112188
-0.0672261 -0.0862411 0.0112188
0.191222 -0.0528644 0.327589
-0.0689978 -0.105292 0.315472
0.162098 -0.164927 0.327589
0.266318 0.256756 0.315472
0.114347 -0.00927673 7.34696e-18
0.0810036 -0.191955 0.0110001
0.0675303 0.208629 0.00377523
0.197133 -0.276074 0.315472
0.270193 0.167389 0.327589
-0.0516887 -0.153107 0.315472
-0.204594 0.21191 0.327589
0.105872 -0.145969 0.315472
0.0511435 -0.230996 0.327589
0.292382 0.212356 0.327589
-0.123465 0.298054 0.327589
-0.274107 -0.207571 0.315472
-0.253293 0.0557865 0.327589
-0.0847917 -0.270054 0.315472
0.214473 -0.136995 0.315472
-0.31971 -0.137042 0.327589
0.00680491 0.0758832 0.327589
-0.193454 -0.206162 0.315472
-0.250904 0.262973 0.315472
0.228243 -0.166516 0.315472
0.0917242 -0.0204587 0.0112188
-0.0440215 -0.00674665 0.315472
-0.0644814 0.0452321 0.327589
0.157551 0.112245 9.982e-18
0.295754 -0.186668 0.315472
0.00278682 -0.118606 0.327589
-0.197149 0.100822 0.000976367
0.106415 -0.034558 0.327589
-0.053236 0.143455 0.0112188
-0.0604178 0.0873801 0.327589
-0.321141 -0.0052835 0.315472
0.0708396 0.113819 0.327589
-0.0223435 0.021738 0.168591
-0.125308 -0.222019 0.327589
0.257273 -0.0143375 0.327589
0.0866414 -0.228598 0.315472
-0.269292 0.200088 0.327589
-0.122316 -0.0453183 0.327589
-0.0251253 -0.0432715 0.0112188
-0.114415 0.0476044 0.315472
0.0816713 0.0620053 0.0112188
-0.334188 -0.0416197 0.327589
-0.212753 -0.177152 0.315472
-0.231856 -0.00672141 0.315472
0.144919 -0.226961 0.315472
-0.13616 0.27687 0.327589
0.00135437 0.144141 0.315472
0.0150525 0.0272317 0.260106
-0.0100375 -0.231514 0.327589
0.121503 -0.208036 0.327589
0.202803 0.129831 0.315472
0.0365761 0.0622084 0.327589
-0.0356251 -0.0732526 0.315472
0.0496734 -0.157208 0.327589
0.00230851 0.0456554 1.86304e-19
0.220497 0.213591 0.327589
0.0315838 -0.0732454 2.33027e-18
-0.030794 0.113501 0.327589
0.245504 0.303504 0.315472
-0.0283195 -0.0129293 0.168538
0.268309 -0.0881149 0.327589
-0.0257262 0.0173915 0.0926138
0.121389 0.264386 0.315472
-0.121481 -0.050351 0.0112188
-0.2621 0.096104 0.327589
0.205146 0.0687409 0.327589
-0.0723602 -0.23175 0.315472
-0.177181 -0.110345 0.0108469
0.181107 -0.126787 0.315472
-0.00768214 -0.0300162 0.262024
-0.0909949 0.0297156 0.315472
0.020749 -0.129808 1.67494e-18
0.283161 -0.241408 0.315472
-0.15675 0.210816 0.315472
-0.0324622 -0.110525 0.0112188
-0.0219865 0.0221968 0.129572
0.0317811 -0.322532 0.315897
0.146899 -0.0731064 9.44194e-18
-0.299651 -0.261122 0.315472
0.0248453 0.333971 0.327589
-0.301298 -0.140889 0.315472
0.0337548 -0.110479 2.54704e-18
-0.326722 0.14169 0.327589
-0.0288547 -0.198076 0.0112188
-0.0403252 -0.127509 0.315472
0.23978 0.152651 0.315472
-0.126507 -0.0798575 0.327589
-0.0868007 0.323578 0.316501
0.164815 0.182023 0.315472
-0.318962 0.118678 0.327589
-0.237239 0.0530297 0.315472
-0.0088076 0.260637 0.327589
-0.0152993 0.00137517 -1.23511e-18
-0.105874 -0.124145 0.0112188
0.165338 0.231075 0.327589
0.121306 0.166125 0.0112188
0.13722 -0.0977748 0.327589
0.283254 -0.282311 0.315472
0.00642802 -0.0305572 0.0852659
-0.282922 -0.164963 0.315472
-0.0479207 0.193371 0.315472
-0.156672 -0.190543 0.315472
-0.130244 -0.295856 0.327589
0.158165 -0.314825 0.327589
-0.0351555 0.174741 0.0112188
-0.153758 0.224201 0.327589
-0.290947 0.310712 0.327589
0.196905 -0.159795 0.315472
-0.167937 -0.0720776 0.315472
-0.134141 -0.181076 0.327589
0.32012 0.210658 0.315472
0.14765 -0.0798859 0.327589
-0.281105 -0.250003 0.327589
-0.030782 0.00575642 0.175991
0.0336974 0.0471066 0.0112188
0.265498 0.0745009 0.327589
-0.0109328 0.279664 0.327589
-0.0115131 0.0290473 0.233933
-0.336564 0.264733 0.325568
0.0133822 -0.00517184 0.315472
-0.226676 0.0373197 0.327589
-0.184776 -0.257485 0.315472
-0.268043 0.01229 0.327589
0.0705427 -0.255307 0.327589
-0.175145 -0.295847 0.315472
0.148919 -0.122052 0.315472
0.00716352 0.0619711 0.0112188
-0.0874234 -0.157093 0.0112188
-0.235394 0.172067 0.327589
0.0966486 0.296888 0.315472
-0.175954 0.0852801 0.315472
0.327824 -0.310785 0.327589
-0.330318 -0.104098 0.320392
-0.0213999 0.074071 -1.40489e-18
0.192398 -0.0995382 0.315472
0.0299121 -0.247122 0.315472
-0.138746 0.0559184 0.0112188
0.0867938 -0.146612 0.0112188
-0.245401 -0.0300362 0.315472
0.0144907 -0.149071 0.327589
-0.00421778 -0.208545 0.011056
-0.0528826 -0.2151 0.315472
-0.247539 -0.0935131 0.327589
-0.27264 -0.0920478 0.315472
0.317662 0.155525 0.315472
-0.0266359 -0.199229 0.327589
0.134328 -0.333363 0.327589
-0.208766 0.311214 0.327589
0.230077 0.0854246 0.315472
-0.285184 -0.0114857 0.315472
0.0371758 -0.17309 0.0112188
-0.0869279 0.0418368 0.0112188
-0.064929 -0.30037 0.315472
0.00584048 0.190701 0.327589
-0.11089 -0.160721 0.0112188
-0.106311 0.143421 0.327589
-0.30206 -0.283369 0.315472
0.0295657 0.109536 1.66406e-18
0.147519 -0.0387945 0.327589
-0.12927 -0.134158 0.327589
-0.235459 0.196376 0.327589
-0.0193768 0.140012 0.0112188
0.0518005 -0.0544432 0.315472
0.190177 0.0828535 1.17806e-17
0.0831438 0.143688 0.0112188
0.287405 -0.0306888 0.327589
0.315027 -0.0505698 0.327589
-0.0152867 0.0270238 0.0503172
0.00442523 -0.260834 0.327589
0.318596 0.300391 0.315472
0.0091804 -0.0613472 0.327589
0.163118 -0.0895324 0.315472
-0.0105364 -0.0292934 0.0540949
-0.228769 -0.141987 0.327589
-0.104692 0.217793 0.315472
-0.0694561 -0.0188803 0.327589
0.3072 0.248332 0.327589
-0.0368853 0.137371 0.0112188
0.167229 0.0681569 0.327589
-0.175295 0.161643 0.327589
0.179703 -0.157425 0.327589
0.21972 -0.193108 0.327589
0.108274 -0.00213569 0.315472
-0.292625 -0.291951 0.327589
0.15532 0.0366217 0.0112188
-0.226665 0.242833 0.327589
-0.212917 -0.23649 0.315472
0.0718531 0.0462903 0.0112188
-0.202788 0.271789 0.327589
0.0609515 0.258809 0.315472
0.155745 0.129994 9.32068e-18
-0.0115825 0.0290297 0.192946
-0.0219371 -0.0222602 0.200326
0.00615638 -0.0305797 0.249075
-0.154479 0.0100673 0.327589
-0.242022 0.00193191 0.327589
0.000262618 0.249665 0.315472
0.128447 -0.145327 8.26522e-18
-0.140701 -0.0519504 0.327589
0.0464936 -0.147776 3.21339e-18
0.105455 0.0994364 0.327589
-0.191 -0.0652361 0.327589
0.234307 -0.22015 0.327589
-0.201106 -0.314018 0.315472
-0.0230642 -0.21405 0.00628667
0.00654712 0.161027 0.327589
0.280387 -0.0860897 0.315472
-0.171997 0.00533432 0.327589
0.114585 0.138256 0.327589
-0.0876496 -0.258171 0.327589
-0.177129 0.071866 0.0112188
-0.167124 -0.227701 0.315472
-0.0237639 0.0199129 0.147144
-0.191658 0.013616 0.327589
-0.0495649 -0.166124 0.327589
-0.0522521 0.336564 0.325294
-0.255915 -0.213414 0.327589
0.0308373 -0.201327 0.315472
-0.0317404 -0.156499 0.327589
-0.218853 0.12899 0.315472
-0.257977 0.0669714 0.315472
0.204127 0.155749 0.315472
-0.162055 0.145129 0.00497016
0.185247 -0.207931 0.327589
0.241554 -0.209922 0.315472
0.17087 -0.0921097 0.0112188
0.209282 -0.298835 0.327589
0.0637217 0.114756 4.07575e-18
-0.245126 0.335855 0.323589
-0.020795 0.318247 0.327589
-0.0516844 0.00157899 0.0112188
0.144968 -0.173436 0.315472
0.187916 -0.267035 0.327589
0.0697043 -0.225034 0.327589
-0.180504 0.0367843 0.315472
0.225937 0.176126 0.315472
0.0930483 0.285125 0.327589
0.104771 -0.0473017 0.0112188
-0.16371 0.121392 0.327589
0.126669 -0.129761 0.315472
-0.00678465 0.0254491 0.327589
-0.0958039 0.243689 0.315472
-0.210073 -0.0806092 0.315472
-0.240683 -0.260777 0.315472
-0.165331 0.32641 0.318136
0.293755 0.066378 0.315472
0.108829 -0.281932 0.327589
-0.0783513 -0.103711 0.0112188
-0.0664802 0.145714 0.315472
-0.135359 -0.246702 0.327589
0.200885 -0.141666 0.327589
0.036101 0.307225 0.315472
-0.151144 -0.221333 0.315472
0.0770549 -0.152323 0.327589
-0.274979 -0.189516 0.315472
0.0211366 0.166595 0.0112188
0.0936711 0.131171 5.96117e-18
0.270913 0.232319 0.315472
0.269522 -0.0998464 0.315472
0.0452176 -0.109243 0.327589
0.273406 0.275472 0.315472
-0.0312951 0.0137946 -2.02713e-18
0.296602 -0.218189 0.315472
-0.31719 -0.163185 0.327589
0.0307683 0.0715906 0.0112188
0.197701 0.0361098 1.26022e-17
0.251837 0.0724581 0.315472
0.304855 -0.1286 0.327589
0.0655077 0.192333 4.72983e-18
-0.325556 0.180945 0.317643
0.287971 -0.150917 0.315472
-0.0191526 0.104763 0.0112188
-0.245674 0.138342 0.327589
-0.214555 0.152837 0.315472
0.0976003 -0.234964 0.327589
-0.174746 -0.0969692 0.327589
-0.00353733 -0.180655 0.315472
0.162869 0.0851516 0.327589
-0.175336 -0.140735 0.327589
0.0694351 0.0734802 0.0112188
0.174375 0.0612532 1.12018e-17
-0.0886904 0.114845 0.327589
-0.130745 0.139199 0.0112188
0.0118808 -0.0814638 9.59042e-19
0.144314 -0.117291 9.3112e-18
0.0853848 -0.111105 4.82829e-18
0.280833 0.0208338 0.327589
-0.263153 0.243101 0.315472
0.0700994 -0.0284585 0.315472
-0.284402 -0.309602 0.327589
-0.254176 -0.166423 0.315472
0.0274058 -0.0144592 0.150244
0.0721954 0.306136 0.327589
0.139339 -0.211982 0.327589
-0.292769 -0.113022 0.327589
-0.172983 -0.279548 0.327589
-0.246077 -0.299639 0.315472
-0.0291189 -0.0106008 0.13304
0.134058 0.0686885 0.0112188
-0.286718 -0.0568126 0.327589
0.100939 0.312939 0.315472
-0.21941 -0.0215336 0.315472
-0.114096 0.224133 0.327589
-0.232063 0.153798 0.327589
0.09873 0.0327748 0.327589
-0.282954 0.118795 0.315472
-0.217011 -0.0257739 0.00415412
-0.117914 0.0867301 0.0112188
0.250895 -0.291692 0.327589
0.175582 0.0939979 1.10469e-17
0.121499 -0.0309982 0.315472
-0.279665 -0.217374 0.327589
-0.0127839 -0.0545201 0.327589
0.161532 0.107059 0.315472
-0.0933613 -0.288757 0.327589
0.239245 0.254487 0.327589
0.0841482 0.118484 0.315472
-0.291764 0.139563 0.315472
0.14182 -0.290599 0.315472
-0.0947539 0.175421 0.327589
-0.196764 -0.014527 0.0112188
0.0666513 -0.0371194 3.76652e-18
0.0109296 -0.243436 0.327589
0.191945 0.20697 0.315472
0.031235 0.188033 0.315472
0.14714 0.145141 8.64119e-18
0.0311717 0.00144456 0.126015
0.14297 0.284215 0.315472
0.115669 0.210163 0.327589
-0.123439 -0.113613 0.315472
0.212136 -0.0509295 0.0043837
0.327997 0.0749673 0.319052
-0.156701 0.252446 0.315472
-0.0380946 -0.315489 0.327589
0.134007 0.0278288 0.327589
-0.0318551 -0.266869 0.327589
0.257197 -0.198267 0.327589
-0.0415678 -0.161557 -3.05005e-18
0.0613771 0.197797 0.327589
-0.11704 -0.181705 0.327589
-0.0568266 0.218514 0.315472
0.114773 -0.217457 0.315472
-0.227527 -0.249877 0.315472
-0.0618291 0.16202 0.327589
-0.110849 -0.0900143 0.315472
-0.170494 -0.113448 0.315472
-0.210579 0.0710048 0.327589
0.17457 -0.0266658 0.315472
0.0903666 -0.327899 0.327589
0.113972 0.125248 0.315472
0.0493507 -0.0107599 0.327589
0.164763 -0.299847 0.327589
0.230057 0.060505 0.327589
-0.0604661 -0.183946 0.327589
0.269419 0.198202 0.327589
0.180553 0.0147712 1.15254e-17
0.18154 -0.286949 0.315472
0.279444 -0.117444 0.315472
-0.143074 -0.117169 0.0112188
0.190636 -0.296548 0.327589
-0.225537 0.0543981 0.327589
0.0746766 0.219066 0.315472
-0.00339242 -0.0311025 0.296972
0.256107 0.0331327 0.327589
0.321366 -0.166265 0.327589
-0.044782 0.0963241 0.327589
-0.173477 -0.165324 0.327589
0.296001 0.103719 0.315472
0.113215 -0.230639 0.327589
-0.0311292 -0.134595 0.327589
-0.213177 -0.218317 0.315472
-0.263578 0.114149 0.315472
0.0164283 0.121679 0.327589
0.04909 0.106983 3.16658e-18
-0.0778905 0.0882034 0.0112188
0.116538 -0.026283 0.0112188
0.149823 -0.14792 0.315472
-0.0624641 -0.00436246 0.327589
-0.0814842 0.0167162 0.315472
0.322319 0.092413 0.315774
0.0200973 0.0731604 0.315472
0.183885 0.00177082 0.315472
0.0306402 0.0866186 0.327589
-0.00517732 -0.325075 0.327589
-0.139668 0.123703 0.0112188
0.133346 0.109907 0.327589
0.243024 0.1769 0.315472
0.10182 0.046344 0.0112188
-0.0493293 0.313529 0.315472
-0.312904 -0.122169 0.327589
0.132444 0.0587101 0.327589
0.306434 0.168486 0.327589
-0.226013 0.261964 0.327589
-0.046726 -0.117315 -3.12152e-18
-0.191877 0.0936259 0.327589
-0.0223908 -0.0216772 0.303523
0.191606 -0.0129697 0.315472
-0.0530024 0.0573346 0.327589
-0.0255171 0.0612869 0.0112188
-0.202962 -0.122685 0.315472
0.024797 0.26008 0.327589
0.22221 0.189012 0.327589
-0.0143344 -0.139998 0.315472
-0.201096 0.290546 0.327589
-0.0161916 0.103418 0.315472
-0.196332 0.167926 0.327589
0.0162451 -0.172986 0.0112188
0.275546 0.108251 0.315472
-0.00602148 0.0304379 0.268196
0.0270228 0.0151676 0.0402038
0.0994631 -0.197855 0.327589
-0.145686 0.280814 0.315472
0.0638526 0.0303521 0.327589
0.0520602 -0.28388 0.315472
0.209079 0.297271 0.315472
-0.0312443 -0.00722933 0.327589
-0.142443 -0.0829417 0.327589
0.134295 0.295775 0.327589
0.20318 0.26399 0.327589
0.282973 0.138049 0.327589
0.22749 0.320937 0.327589
-0.307594 -0.149474 0.327589
-0.0542931 0.277084 0.327589
0.170316 0.191533 0.327589
-0.0309831 -0.00095654 0.209519
0.229223 0.150272 0.327589
0.178251 -0.263231 0.315472
0.0435067 -0.0446595 0.327589
0.318647 -0.236186 0.327589
-0.0142412 -0.027706 0.0694252
0.0002321 0.101736 0.0112188
0.126074 -0.307601 0.315472
-0.0058707 -0.0440482 0.315472
0.0945697 0.0882284 0.315472
0.082195 -0.0678229 0.327589
0.0310469 -0.0679843 0.327589
0.16183 0.274859 0.327589
0.238128 -0.111795 0.327589
0.257697 0.225003 0.327589
-0.0519982 0.176725 0.327589
0.0231575 0.020797 0.111257
-0.245536 0.0745142 0.327589
0.290792 0.119576 0.315472
-0.0363926 -0.291926 0.327589
0.291028 0.0328289 0.327589
0.15947 0.305453 0.327589
0.24979 0.0409448 0.315472
-0.295667 0.0182059 0.315472
0.269593 0.0896767 0.327589
0.0333297 -0.0906526 2.46269e-18
-0.255266 -0.0484689 0.315472
0.0260845 0.215536 0.327589
-0.228859 0.336038 0.327589
-0.0299266 -0.0082481 0.294863
0.0603246 0.00446972 0.315472
0.148164 -0.00681591 0.315472
-0.261143 -0.315721 0.327589
0.310513 -0.00781435 0.327589
-0.0159614 0.220203 0.327589
0.015281 0.0271314 0.216884
0.0156311 0.15446 0.315472
0.0461925 0.138502 0.0112188
0.175883 0.134941 0.327589
-0.0650351 0.109248 0.0112188
-0.223659 0.226211 0.315472
0.0270415 0.0129167 0.315472
0.274219 0.000258267 0.327589
0.0108973 -0.0079809 0.0112188
0.254822 0.105066 0.327589
-0.28594 0.0121022 0.327589
0.0965723 -0.133412 0.315472
-0.108831 0.00761371 0.0112188
-0.261728 -0.173024 0.327589
-0.292292 -0.130812 0.327589
-0.245417 -0.0437744 0.327589
-0.119388 0.158893 0.315472
0.153069 -0.054601 0.315472
-0.224041 -0.05182 0.327589
0.25975 -0.139765 0.327589
-0.0443262 -0.0427307 0.327589
-0.109333 -0.0846518 0.0112188
-0.119404 -0.0682467 0.315472
-0.0295283 0.0094083 0.243742
0.035569 -0.300453 0.327589
-0.237852 -0.277418 0.315472
0.110008 -0.186139 0.315472
-0.0224635 -0.130778 0.0112188
0.310251 -0.154281 0.327589
-0.147692 -0.0300477 0.315472
0.0742136 0.072838 0.315472
0.0293111 0.00721253 1.96471e-18
-0.0151602 -0.0639109 0.315472
0.308694 -0.336564 0.327008
-0.25209 0.174876 0.315472
-0.0786666 -0.155444 0.327589
0.245997 -0.160946 0.315472
0.0249185 0.137985 0.327589
-0.0610034 0.198067 0.0112188
-0.277093 0.043 0.315472
-0.228876 0.0969889 0.327589
0.0110113 -0.0290039 0.186774
-0.00291102 -0.0864963 0.0112188
0.196822 -0.0772095 1.20493e-17
0.224594 0.031289 0.327589
-0.0522688 0.00793162 0.315472
-0.101091 -0.143759 0.315472
0.0101534 0.0871812 0.0112188
-0.243562 0.0880963 0.315472
0.0981731 -0.0891354 0.315472
0.150386 0.193752 0.315472
-0.0638572 0.255917 0.315472
0.0284243 0.0125776 0.0662956
-0.321604 0.0269881 0.315472
0.171278 -0.0643957 1.09204e-17
-0.333118 -0.27186 0.322009
-0.0755466 -0.272357 0.327589
0.210897 -0.196685 0.315472
-0.0203374 -0.0237235 0.28798
-0.0128989 -0.0198779 -1.04134e-18
0.298315 0.0747117 0.327589
0.212289 0.117714 0.315472
-0.129213 0.0155447 0.315472
-0.118645 -0.317363 0.315472
0.0520822 0.275229 0.315472
0.186524 -0.217307 0.315472
-0.0082056 -0.0298837 0.159246
-0.143517 -0.202696 0.315472
-0.209881 -0.0956967 0.327589
0.0443035 0.121347 0.315472
-0.00301697 -0.0661655 -2.43605e-19
-0.189288 -0.309436 0.327589
-0.21549 0.0318773 0.315472
-0.257425 0.315952 0.315472
0.203515 0.0346682 0.315472
-0.104832 0.030541 0.327589
-0.0428543 -0.105631 0.315472
0.0782985 -0.163539 0.315472
0.129226 -0.0928584 0.315472
-0.287098 -0.102527 0.315472
0.119219 -0.0489981 7.67089e-18
0.242055 -0.228752 0.315472
0.20976 -0.0124342 0.327589
-0.315764 -0.326425 0.318145
0.129323 0.196777 0.315472
-0.041079 -0.0967151 -2.81253e-18
-0.318917 0.0565099 0.327589
0.321618 0.286833 0.327589
0.0907697 0.085232 0.0112188
-0.209548 -0.159068 0.315472
-0.0677845 0.0665012 0.327589
0.0890064 0.255252 0.315472
0.298857 -0.0446077 0.327589
-0.00368058 0.0233311 0.0148088
-0.129425 -0.267713 0.327589
0.0692291 -0.111293 4.09104e-18
-0.0278723 0.0142321 0.0734238
-0.202416 0.00147346 0.327589
-0.00284691 0.218107 0.00476079
-0.0352487 0.180569 0.327589
0.108332 0.0513403 0.315472
-0.295602 -0.183065 0.327589
0.159433 -0.138884 0.00916689
0.0985257 -0.0995244 0.327589
-0.181137 0.0996089 0.315472
-0.0353779 -0.228228 0.315472
0.233049 -0.256575 0.315472
0.0238134 0.0201933 0.275138
0.0242633 -0.105726 0.0112188
0.261136 0.168776 0.315472
0.2099 -0.0779119 0.315472
