-0.133101 0.116773 0.315472
-0.27626 0.0258612 0.315472
-0.00774851 0.192979 0.315472
0.25133 -0.0797602 0.315472
0.32396 0.207607 0.316721
0.317988 -0.0803691 0.315472
0.185875 0.101936 1.1032e-17
-0.00340328 0.0689518 0.0112188
0.328487 -0.308028 0.319335
0.145658 0.150384 0.0102431
-0.14113 -0.19559 0.315472
0.330786 0.0823037 0.320662
0.168648 0.128217 0.00866578
-0.157942 0.299685 0.327589
0.1284 0.221942 0.315472
0.0766154 -0.279409 0.327589
-0.0888388 0.0242475 0.327589
0.251366 -0.231694 0.327589
-0.0264693 -0.0164366 0.0689179
0.260617 -0.232339 0.315472
-0.155514 -0.206407 0.315472
0.226377 -0.229365 0.327589
-0.307666 0.212767 0.315472
-0.137408 -0.290145 0.315472
0.330637 0.159298 0.320577
-0.125014 -0.263161 0.327589
0.0572693 -0.21014 0.00457668
-0.0613965 -0.0164009 0.0112188
0.154105 -0.257581 0.327589
0.217137 -0.302853 0.315472
-0.267113 -0.190025 0.327589
0.0101217 -0.245986 0.327589
0.09065 -0.00185008 5.87339e-18
0.0281463 -0.0924898 0.327589
-0.331586 0.306762 0.327589
-0.312105 -0.296945 0.315472
-0.151011 -0.0450168 0.0112188
-0.0709222 -0.229683 0.327589
-0.147578 -0.287062 0.327589
0.151759 -0.202434 0.315472
0.190817 0.105196 0.315472
0.248725 -0.0279049 0.327589
-0.205419 0.0401371 0.0105935
0.212187 0.279496 0.315472
0.282752 0.213768 0.327589
-0.274215 0.17634 0.315472
0.192767 -0.336564 0.326106
-0.124381 -0.214772 0.315472
0.01785 0.217178 0.327589
-0.276338 -0.209719 0.327589
0.141804 0.0557719 0.0112188
-0.186287 -0.303926 0.315472
-0.0106071 -0.164965 0.315472
-0.264983 0.234372 0.315472
-0.218686 0.122406 0.315472
0.247838 0.278339 0.315472
0.260949 0.206973 0.327589
-0.271161 -0.123152 0.327589
-0.162762 0.198809 0.315472
-0.103345 0.0547426 0.0112188
-0.113711 0.0686853 0.0112188
0.0131915 -0.0280476 0.217551
0.0562096 -0.059825 0.0112188
0.0917245 -0.0809048 0.0112188
0.113344 0.28295 0.315472
0.318398 -0.312328 0.315472
0.247096 -0.33554 0.327589
-0.169936 -0.0612289 0.315472
0.316313 -0.292252 0.315472
-0.225652 0.287071 0.315472
-0.324288 -0.285069 0.316911
-0.0428215 0.333298 0.322113
-0.178178 0.186201 0.315472
-0.0923468 0.10145 0.327589
0.210153 0.274586 0.315472
-0.294341 0.294893 0.315472
-0.0305262 0.00650175 0.291014
0.0242721 -0.0197699 0.243036
-0.282959 -0.234056 0.315472
0.0725154 -0.049602 0.315472
0.00954012 0.161977 6.06708e-19
-0.208895 -0.109427 0.327589
0.265233 0.315691 0.315472
-0.100535 -0.21642 0.315472
0.0980921 -0.236392 0.327589
0.138989 0.170356 0.00359455
0.234975 -0.0427205 0.327589
0.2154 0.220508 0.327589
0.095157 0.15679 0.327589
-0.0587858 -0.144652 -3.72571e-18
0.0746063 -0.0133904 0.0112188
0.0577824 0.0950182 0.0112188
-0.07454 0.253597 0.315472
0.00856557 0.0756757 6.91416e-19
0.156599 0.205684 0.327589
0.207938 0.177994 0.315472
-0.19612 0.0715661 0.327589
-0.244186 0.201863 0.315472
-0.299866 -0.0576417 0.327589
0.29622 -0.115156 0.327589
-0.331071 -0.316946 0.327589
-0.00696972 0.0263144 0.0112188
0.0502202 0.0874268 3.27811e-18
0.0086818 0.18343 0.315472
-0.0337806 0.0452359 0.327589
0.0253952 -0.0181745 0.0416109
0.0960273 0.15257 0.327589
-0.00123938 0.0311939 0.146705
-0.165312 -0.165726 0.315472
0.217222 -0.0615485 0.315472
-0.312405 0.156394 0.315472
0.0475584 -0.184491 0.315472
0.215004 0.336564 0.325546
0.111087 0.0117964 0.315472
0.186382 -0.336138 0.327589
0.26292 -0.221878 0.315472
0.133477 -0.12946 0.0112188
0.103817 0.022812 0.0112188
0.308744 0.170907 0.327589
0.240311 -0.2967 0.315472
0.201791 0.292356 0.315472
0.113255 -0.0790782 0.0112188
-0.149771 0.0345108 0.0112188
-0.263636 -0.317701 0.315472
-0.318807 0.00977993 0.327589
0.311703 0.135217 0.315472
0.0851716 -0.198688 0.327589
-0.323731 -0.111795 0.316589
-0.238145 -0.181582 0.315472
-0.310496 -0.0379708 0.327589
0.176805 0.149321 0.315472
-0.230176 -0.0183789 0.315472
0.115827 0.262454 0.327589
-0.173541 -0.326905 0.318422
0.265934 0.188552 0.315472
0.21151 -0.181601 0.327589
-0.0216968 -0.0819373 -1.75157e-18
-0.329878 0.306841 0.320139
-0.283935 -0.197369 0.327589
0.221897 -0.000959214 0.00234521
0.0600457 -0.0667306 0.315472
-0.0198916 0.28194 0.327589
0.238092 -0.329894 0.320148
-0.20318 -0.280469 0.315472
0.282521 -0.175079 0.327589
0.25738 0.162687 0.315472
-0.100087 0.0266048 0.0112188
-0.0146329 0.113804 0.0112188
0.28847 0.142895 0.315472
0.026335 0.0164387 0.127186
-0.0900435 -0.23448 0.315472
0.148222 0.107816 0.327589
0.0502604 0.0875772 0.315472
0.00960669 -0.0599643 0.315472
-0.0644612 0.15219 0.315472
-0.168996 -0.14637 0.327589
0.299799 -0.159995 0.327589
-0.118076 0.281626 0.315472
-0.013081 0.314188 0.315472
-0.0387479 0.25002 0.315472
0.179516 0.116585 0.327589
0.123294 0.264786 0.315472
-0.118509 0.102491 0.0112188
0.186425 0.200768 0.327589
0.196455 0.0275247 0.315472
-0.026496 -0.210555 0.315472
0.324716 0.318986 0.327589
-0.128557 0.320542 0.315472
0.108852 0.137519 7.30103e-18
0.18765 0.0736817 0.0112188
-0.30145 -0.0265876 0.327589
-0.132573 0.293269 0.327589
-0.239419 0.121884 0.327589
0.124231 -0.207496 0.315472
-0.0521958 0.0541293 0.327589
-0.283077 0.319842 0.315472
0.114362 0.186298 0.327589
-0.204773 0.0987038 0.327589
0.0593933 0.0758321 0.327589
-0.229071 -0.282717 0.327589
0.0467245 0.0684177 0.0112188
0.0310752 0.00202335 0.162263
-0.0865878 0.23597 0.315472
0.190026 -0.0626317 0.327589
-0.212396 -0.098276 0.327589
-0.187473 -0.100646 0.315472
0.193437 0.160932 0.315472
0.255457 0.26135 0.327589
0.0947257 -0.0856889 0.327589
-0.197245 0.3004 0.327589
0.187369 -0.0866557 0.327589
-0.0639483 -0.194174 0.0112188
-0.290539 -0.134247 0.315472
-0.0358846 0.0657756 0.0112188
-0.204601 -0.136623 0.315472
0.159339 0.310493 0.327589
-0.0078845 0.176896 0.0112188
0.24424 0.305749 0.315472
0.0153171 -0.0261483 0.0142213
0.257998 0.0506967 0.315472
0.0898673 0.184727 0.315472
0.279802 -0.156315 0.315472
0.230181 -0.255581 0.327589
-0.0119826 0.146817 0.315472
0.101377 0.180267 6.26881e-18
-0.192435 -0.274433 0.315472
-0.336564 -0.108419 0.326178
0.0471715 0.00360137 0.315472
0.0679319 -0.101339 0.0112188
-0.330306 -0.0869549 0.327589
0.00624645 -0.0227876 0.0148088
0.0302675 0.00686494 0.186247
-0.177318 -0.194635 0.315472
0.173966 -0.00244021 1.08233e-17
0.328701 -0.224657 0.327589
-0.302061 -0.111353 0.327589
0.12355 -0.0426843 0.327589
-0.00984375 0.02947 0.157466
0.0788154 0.159372 0.0112188
-0.289128 0.269701 0.315472
0.265226 0.171713 0.315472
-0.176063 0.0595733 0.0112188
-0.163897 0.0396216 0.315472
-0.0147103 0.0274004 0.146002
-0.171017 -0.111045 0.327589
0.0992818 -0.0939812 0.327589
-0.0179476 -0.0184887 0.327589
-0.322036 -0.110783 0.327589
0.336564 -0.00692764 0.326585
-0.0664109 -0.205404 -4.253e-18
0.098804 -0.0265442 0.327589
0.169906 0.328688 0.319451
-0.093481 0.0214179 0.315472
-0.0975728 0.335651 0.323471
-0.170745 0.188436 0.315472
0.0712132 0.0432316 0.327589
0.0308753 0.00322132 0.274665
0.094009 0.249466 0.315472
0.0879949 -0.0253139 0.0112188
-0.123271 -0.10722 0.0112188
0.243988 0.244688 0.327589
0.200035 0.279192 0.327589
0.0632254 0.0107465 0.327589
0.323914 0.105595 0.327589
-0.0487164 0.182263 0.327589
0.0198177 -0.140465 0.0112188
-0.264139 0.277229 0.327589
0.274704 0.00290558 0.315472
0.0308841 0.00316843 0.127379
0.325496 -0.29129 0.327589
-0.0929088 0.0164865 0.315472
-0.0596058 0.00790477 0.315472
0.12179 -0.00609065 0.0112188
-0.044718 -0.274296 0.315472
0.156698 -0.0473222 0.0112188
0.18388 -0.113692 0.00589121
-0.191629 -0.307515 0.327589
0.0422091 0.0107612 0.0112188
-0.0736 0.0359759 0.0112188
0.185621 -0.274351 0.327589
0.112836 -0.23837 0.327589
0.0641719 -0.197129 0.315472
-0.169376 -0.197842 0.315472
-0.276604 0.114408 0.315472
0.0469894 0.220165 0.327589
0.173517 0.143577 0.315472
0.0278612 0.316218 0.315472
-0.115263 0.0253805 0.315472
0.101574 0.179679 6.2942e-18
-0.145593 -0.222936 0.315472
-0.158631 0.288061 0.327589
0.0279629 0.0375815 0.327589
0.11959 0.00173587 0.0112188
-0.143271 -0.131579 0.327589
0.103269 0.183346 0.315472
0.0122118 -0.174243 0.0112188
0.0292062 -0.0111327 0.0876093
0.208994 0.0716578 0.327589
0.239867 0.188695 0.315472
0.00632209 -0.030566 0.0230722
-0.0421376 -0.289069 0.327589
0.131017 -0.0853165 0.0112188
-0.126403 0.255901 0.327589
-0.111309 0.132203 0.315472
0.00932354 0.277476 0.327589
-0.283371 0.223168 0.327589
-0.313302 0.336136 0.323751
0.0267293 0.0157101 0.275749
-0.160832 -0.189805 0.327589
0.129227 -0.154389 8.2506e-18
-0.336114 -0.093917 0.327589
-0.144074 0.00973088 0.315472
0.102031 0.297087 0.315472
-0.0470278 -0.185809 0.315472
0.220115 0.0217267 0.315472
-0.316658 0.257206 0.327589
-0.0133318 0.086515 0.0112188
-0.153019 -0.125609 0.327589
0.217013 -0.00418629 1.37365e-17
-0.187501 0.0368026 0.315472
-0.0576928 -0.00874477 0.0112188
-0.089445 0.288318 0.315472
-0.241829 -0.274306 0.327589
0.056472 0.128414 0.0112188
-0.134551 0.106353 0.315472
0.122137 -0.209573 0.315472
0.271343 0.0183796 0.315472
-0.303521 0.0632665 0.327589
0.121991 0.315351 0.327589
-0.198863 0.134592 0.327589
-0.328368 0.273141 0.319267
0.019096 -0.18535 0.0112188
-0.162798 -0.0514664 0.315472
-0.181138 0.0961889 0.315472
-0.123548 0.288592 0.315472
-0.236907 0.278257 0.315472
-0.0616716 -0.105848 0.327589
0.0921552 0.113884 0.327589
0.248664 0.324702 0.31715
0.316474 -0.20558 0.315472
0.321968 -0.0835033 0.327589
-0.192958 0.315929 0.327589
0.175407 0.0346714 1.11259e-17
0.00560067 -0.0123446 0.315472
-0.218246 0.30748 0.327589
0.16906 -0.0203389 0.315472
0.270797 -0.280173 0.315472
0.219919 0.0242652 0.00230451
-0.0250649 -0.0856307 0.315472
-0.192191 -0.298295 0.327589
-0.324169 0.262107 0.327589
-0.0488452 0.0870395 0.315472
-0.0234808 -0.00589918 0.0148088
0.0245175 0.155733 0.327589
-0.31051 0.259164 0.327589
-0.0309831 -0.00464595 0.0494555
-0.266017 -0.0903928 0.327589
-0.0430928 -0.0950439 0.0112188
0.254289 0.0549882 0.327589
0.321913 -0.0777455 0.31554
0.129941 0.0467527 0.327589
-0.213858 -0.121919 0.327589
-0.243244 0.258684 0.327589
-0.0256011 0.195112 0.315472
-0.280109 0.302113 0.315472
-0.307992 0.321397 0.315472
-0.0760167 0.182592 0.327589
-0.251668 -0.103931 0.327589
0.031652 -0.283853 0.327589
0.0410649 -0.279585 0.315472
0.0930597 0.138913 0.0112188
0.173537 0.135351 0.315472
-0.184206 0.00977364 0.327589
0.0276451 -0.0140172 0.275154
0.155921 -0.317366 0.315472
-0.0136352 -0.00972918 0.327589
0.297782 -0.0706913 0.327589
-0.146329 -0.145813 0.315472
0.160062 -0.114939 0.315472
0.0600708 -0.0499535 3.50179e-18
-0.286139 -0.187516 0.327589
0.156496 0.198011 0.327589
-0.326715 -0.184448 0.318312
-0.049476 -0.171247 0.0112188
-0.00721076 0.218793 0.315472
0.158696 0.230809 0.327589
0.172983 -0.330508 0.320503
-0.281509 0.266925 0.315472
0.0411651 -0.054924 0.0112188
-0.121851 -0.0406678 0.315472
0.0776072 -0.00267501 0.0112188
-0.0650564 0.0807009 0.315472
0.0394631 0.21586 0.315472
0.127697 -0.174447 0.00568621
0.226533 0.108175 0.327589
-0.281642 0.184992 0.315472
-0.336564 0.204927 0.324798
-0.204644 -0.0560208 0.327589
-0.0168344 -0.0719719 0.0112188
0.258257 0.171408 0.315472
-0.0211974 0.096381 0.0112188
0.235033 -0.230935 0.315472
0.0605792 -0.16871 0.315472
0.311964 -0.196033 0.327589
0.150583 -0.335568 0.323423
0.318571 -0.310679 0.315472
-0.0135704 0.096857 0.315472
-0.0120797 -0.0163731 0.327589
0.126674 0.172917 7.2457e-18
0.28382 -0.0879228 0.327589
-0.102013 0.170122 0.315472
0.137005 0.133833 8.71949e-18
0.0286966 -0.171844 0.0112188
0.23757 -0.130256 0.315472
-0.00772518 -0.299806 0.315472
0.312456 -0.10286 0.327589
-0.234205 0.0718145 0.315472
0.230172 0.0617348 0.327589
0.214134 0.0808298 0.327589
0.226131 0.0158599 0.315472
-0.0597942 0.0662094 0.0112188
0.129813 0.303421 0.327589
-0.173275 0.164663 0.315472
-0.20242 -0.192425 0.327589
0.301053 0.148927 0.327589
0.00884698 -0.0299531 0.0492286
0.20237 -0.195366 0.327589
0.109079 -0.287083 0.327589
-0.0409432 0.30149 0.315472
-0.0135123 0.0281832 0.111391
-0.0583625 -0.306735 0.327589
-0.0309831 -0.00124605 0.102684
0.091136 -0.11384 0.327589
-0.0578976 0.0895421 0.315472
0.154713 0.141596 0.315472
-0.125739 -0.2357 0.315472
0.146336 0.19397 0.315472
0.188687 0.176618 0.315472
0.330291 0.108358 0.327589
0.160609 0.0370045 0.315472
-0.0700866 -0.327526 0.31878
-0.0167152 -0.0260898 0.290509
-0.327229 0.00218913 0.318609
-0.122887 -0.0675255 0.0112188
0.176733 -0.0222047 0.315472
-0.319948 -0.201848 0.327589
0.257504 0.0748179 0.315472
-0.153174 -0.0438156 0.327589
0.00196354 -0.197592 1.58455e-19
-0.284055 -0.120066 0.315472
-0.0538742 -0.207488 0.00687781
0.0336781 -0.319797 0.315472
-0.0366281 0.213517 0.00585104
-0.0463495 -0.0723355 -2.95517e-18
-0.1257 0.018446 0.315472
-0.255447 -0.0863266 0.327589
-0.328029 -0.193862 0.319071
0.1577 -0.320694 0.327589
0.143237 -0.0667955 9.20478e-18
-0.018016 -0.208643 0.327589
0.225564 -0.109303 0.315472
0.0783353 0.252874 0.315472
0.0820054 -0.0664727 0.315472
0.261845 0.135083 0.315472
0.273001 -0.29122 0.327589
0.0463807 -0.0190606 0.327589
-0.33355 0.314988 0.322258
0.0856965 0.0219534 0.0112188
-0.0296338 -0.0091011 0.126077
-0.329822 0.00857654 0.320106
-0.216778 -0.328775 0.319502
-0.0292855 -0.284617 0.315472
-0.160454 -0.160797 0.315472
-0.162986 -0.318762 0.315472
0.148428 -0.228772 0.315472
0.328445 0.212426 0.319311
-0.0933078 0.03393 0.327589
0.179111 0.269447 0.327589
0.0664859 -0.135116 0.315472
-0.0997387 0.124995 0.315472
0.336564 -0.111363 0.32627
0.280538 -0.298143 0.327589
-0.109521 0.069101 0.0112188
0.0272465 -0.0147536 0.141604
0.0207932 0.0229732 0.0792232
-0.148665 -0.26459 0.315472
-0.147252 -0.128209 0.327589
0.154636 0.0130222 0.315472
-0.111351 -0.267515 0.327589
0.153848 0.0398985 9.8488e-18
0.321085 0.126693 0.315472
0.0460123 -0.289958 0.315472
0.149045 -0.157284 0.00537537
0.064352 0.162346 0.327589
0.0369634 -0.0690144 0.327589
-0.15473 -0.0260941 0.327589
-0.0999567 0.131238 0.0112188
-0.0863381 -0.0377159 0.327589
-0.14641 -0.202346 0.327589
-0.198422 0.0244115 0.315472
0.0013971 0.00513818 0.0112188
0.319396 0.198423 0.315472
0.089263 -0.052045 5.56511e-18
0.227115 -0.334774 0.327589
-0.12499 -0.0170639 0.327589
-0.00553569 0.0915777 0.315472
0.189781 -0.185288 0.315472
-0.0207352 -0.107741 0.327589
0.0703839 -0.00674529 0.0112188
-0.0749466 0.107954 0.0112188
0.140211 0.0839059 0.0112188
-0.145863 -0.241465 0.315472
-0.0222211 -0.168409 0.0112188
-0.0292215 0.137368 0.327589
-0.263026 0.266138 0.315472
0.0083164 0.0234369 0.327589
0.061193 0.0906711 0.327589
0.0344118 -0.0176884 0.0112188
-0.0289267 0.100046 0.327589
0.282843 0.336564 0.325346
0.145459 0.224226 0.327589
-0.0827325 -0.169553 0.327589
-0.163924 -0.142614 0.315472
0.106144 0.331565 0.321112
-0.222008 -0.0739945 0.327589
0.0371693 -0.301239 0.327589
0.0289142 -0.0732017 0.0112188
0.079753 0.169979 5.5605e-18
-0.124238 -0.105402 0.315472
0.094161 0.176812 0.315472
-0.0209834 -0.0233015 0.131112
-0.222696 -0.257384 0.315472
0.0645518 -0.0172868 3.63363e-18
0.0153825 -0.141742 0.0112188
0.328821 -0.237835 0.319528
0.126988 -0.190298 0.315472
0.253577 0.0567057 0.327589
0.0784029 -0.158303 4.64104e-18
0.197206 -0.0966974 0.315472
0.0114551 -0.112997 0.327589
-0.0997409 -0.00249633 0.315472
0.143396 -0.158247 9.35048e-18
0.222978 0.31362 0.315472
-0.0179989 0.15639 0.315472
0.0853663 -0.291292 0.327589
0.158553 0.0746687 0.315472
0.137793 0.101253 9.00903e-18
-0.174291 -0.0148917 0.0112188
0.172116 0.236922 0.327589
-0.00767037 -0.202565 0.315472
0.0177841 0.025743 0.304455
0.286981 -0.218911 0.327589
-0.0246833 0.0840177 0.0112188
-0.0651682 0.194763 0.315472
0.0695251 0.050703 0.315472
-0.212581 0.0082233 0.00813174
-0.142975 0.137307 0.0112188
0.0160329 -0.156546 0.315472
-0.0855589 -0.204443 0.327589
-0.175517 0.118946 0.327589
0.00363013 0.242762 0.327589
-0.0357598 -0.319809 0.315472
0.165676 -0.00660092 0.327589
-0.327685 -0.0213298 0.327589
-0.108456 -0.170182 0.327589
0.0980973 0.0104405 0.327589
-0.16705 -0.210645 0.315472
0.0254644 -0.273114 0.327589
-0.094534 -0.051394 0.0112188
-0.102185 -0.323567 0.316495
-0.252599 0.190229 0.315472
-0.313361 -0.277999 0.327589
-0.0696149 -0.059159 0.327589
0.0940915 0.0474582 6.0722e-18
-0.260153 0.321311 0.315472
0.307099 0.241805 0.327589
-0.0221301 0.0220122 0.299632
0.0450073 0.189491 0.0112188
0.282051 0.313848 0.315472
-0.331006 -0.0484218 0.320789
0.302852 -0.0396678 0.327589
0.000580651 0.211622 4.68195e-20
0.073809 0.155016 0.327589
-0.327647 0.285362 0.327589
0.0797919 0.203473 0.00435633
-0.31821 -0.0614609 0.327589
0.243143 0.28084 0.327589
-0.311881 0.147273 0.327589
-0.309042 -0.067626 0.327589
0.139707 0.140672 0.315472
-0.0658405 -0.106851 0.315472
0.226693 0.210276 0.327589
-0.0237925 -0.195584 0.327589
0.121132 -0.273963 0.315472
-0.15059 -0.165085 0.327589
-0.0410405 0.313426 0.327589
0.02589 0.0736078 0.0112188
0.324246 -0.217583 0.327589
0.183385 0.249276 0.327589
-0.133538 0.0547143 0.315472
-0.0779692 0.262804 0.315472
-0.20997 -0.217005 0.327589
-0.00870785 0.283323 0.327589
-0.163914 -0.226606 0.327589
-0.238151 0.303989 0.315472
0.31502 -0.21214 0.315472
-0.266013 -0.192327 0.327589
0.254198 -0.319973 0.315472
0.0196268 0.322965 0.316147
0.112681 0.138754 7.56203e-18
-0.0883214 -0.189865 0.327589
-0.160962 0.0359859 0.315472
-0.0989631 0.233655 0.315472
0.0376681 0.178663 2.40552e-18
0.188535 -0.225725 0.327589
0.0690277 -0.202568 4.35475e-18
0.131818 0.112272 0.315472
0.090565 0.0624926 0.327589
-0.262784 -0.000831991 0.327589
-0.0293949 -0.0097968 0.0635069
0.203379 -0.0710924 0.315472
-0.128135 -0.148882 0.315472
-0.154635 0.264227 0.327589
-0.1085 -0.308391 0.315472
0.0179052 -0.217118 1.44537e-18
-0.00892526 -0.328349 0.327589
-0.126062 0.0725081 0.0112188
-0.0957741 -0.0631365 0.315472
0.311879 0.17047 0.315472
-0.322217 -0.0870231 0.327589
-0.102784 0.33109 0.327589
-0.201714 0.224061 0.315472
0.022534 0.0213709 0.227452
0.0991886 -0.0521329 0.327589
-0.252471 -0.317642 0.315472
0.0177694 -0.119199 0.327589
-0.330553 -0.316561 0.327589
-0.222939 -0.124523 0.315472
-0.0209603 0.0719369 0.0112188
-0.250258 0.0668 0.327589
-0.0102967 0.0595868 -8.31273e-19
0.103813 -0.100661 0.315472
-0.0670629 -0.334497 0.322805
0.112684 0.233684 0.327589
-0.164062 0.0777791 0.315472
0.139529 -0.104846 0.315472
-0.101348 -0.330165 0.327589
0.171483 0.314842 0.327589
-0.13392 -0.11967 0.327589
0.0739971 -0.203517 0.327589
0.108125 -0.0939762 0.327589
0.129989 -0.00545673 8.41217e-18
0.195343 0.232139 0.327589
0.106035 -0.00434434 0.327589
0.0365321 -0.116871 0.327589
-0.16276 0.107938 0.0112188
0.266289 0.137988 0.315472
0.0729785 -0.167797 4.4198e-18
-0.0297194 -0.00885173 0.0275851
0.134714 -0.322528 0.327589
0.00185326 -0.173263 1.49553e-19
0.205242 0.0118271 0.315472
0.31937 0.134952 0.315472
-0.154809 -0.221592 0.327589
0.0353147 -0.000432462 0.327589
-0.304184 0.17005 0.315472
0.0297131 -0.0550694 0.327589
-0.00593147 0.210314 0.315472
0.211407 0.102001 0.327589
-0.118625 0.128792 0.327589
0.329777 -0.214985 0.327589
0.164054 -0.263648 0.315472
0.157168 0.116827 9.81091e-18
-0.262467 0.271335 0.315472
-0.0113492 0.274945 0.327589
-0.32628 0.220317 0.318061
-0.113044 -0.160011 0.327589
0.0157779 0.0826447 1.13711e-18
0.285411 -0.171978 0.327589
0.267136 -0.153721 0.315472
0.0332399 0.0587272 0.0112188
0.317119 0.318082 0.327589
-0.0814712 -0.00424767 0.327589
-0.32724 -0.230062 0.327589
0.204329 0.0398415 0.315472
0.0761778 0.117594 0.315472
-0.147863 0.202261 0.315472
-0.0103146 -0.160611 0.327589
-0.1005 -0.308748 0.315472
-0.128958 -0.116777 0.327589
-0.0236196 -0.0200983 0.274248
-0.299 -0.322318 0.327589
0.179477 0.1682 0.327589
0.1762 -0.115402 1.13534e-17
-0.101154 0.121682 0.315472
0.0634556 -0.0534859 0.0112188
-0.204495 -0.0628621 0.315472
-0.0314016 -0.217443 0.327589
0.188816 -0.0163867 0.0112188
0.0260512 0.0169632 0.0252857
-0.1391 -0.0825748 0.327589
0.266084 0.116532 0.315472
-0.144409 -0.262527 0.327589
0.0435804 -0.242298 0.327589
0.171565 0.101338 0.327589
-0.0269661 0.0157982 0.0357877
0.123711 0.129073 0.327589
0.249786 0.252845 0.327589
0.0852737 -0.0846999 0.327589
0.0588991 0.203043 0.0088809
0.0280966 0.0131833 0.294312
-0.328045 -0.197048 0.327589
0.132636 -0.330855 0.327589
-0.214298 0.303202 0.315472
-0.0116073 -0.316058 0.315472
-0.0820617 -0.33306 0.321975
-0.225598 -0.0724103 0.327589
0.0521901 0.172453 3.34068e-18
0.14246 0.154528 0.00979616
-0.218306 -0.0245053 0.00336493
0.0517729 0.0425529 0.327589
-0.270139 -0.10355 0.327589
-0.155694 0.0123442 0.315472
0.227618 -0.1165 0.315472
-0.149648 0.227485 0.327589
0.150125 0.0507631 0.315472
0.101848 -0.12638 6.01078e-18
0.283144 -0.280078 0.315472
0.243049 0.205167 0.327589
0.267994 -0.0149606 0.315472
-0.257037 -0.0281119 0.327589
0.310748 -0.0276102 0.327589
0.0467378 0.283589 0.315472
0.133422 0.326341 0.318096
-0.193426 -0.0220041 0.315472
0.0169125 0.311984 0.315472
-0.0249345 -0.0961952 -2.01293e-18
0.0595604 0.0309734 0.0112188
-0.235237 0.226047 0.327589
0.195703 0.121593 0.327589
-0.322418 -0.138007 0.327589
0.217798 -0.231614 0.315472
-0.0076192 0.24881 0.315472
-0.0946161 0.170903 0.315472
0.0696081 -0.108706 0.315472
-0.0663047 0.0720304 0.0112188
0.288387 0.209522 0.327589
-0.0902423 0.15603 0.327589
-0.225637 0.237843 0.315472
0.0961405 -0.256662 0.327589
0.241013 0.165594 0.315472
0.229139 0.139105 0.327589
-0.168956 0.00959486 0.0112188
-0.240242 -0.199148 0.327589
-0.0292472 0.240048 0.327589
-0.0313205 0.109942 0.315472
-0.288661 0.223883 0.327589
0.0768015 0.0131909 5.01993e-18
-0.153149 0.145834 0.315472
0.0186368 0.0697854 1.30166e-18
0.213161 0.170245 0.315472
-0.111463 0.305307 0.315472
0.0557173 0.281659 0.327589
0.229039 0.14785 0.327589
-0.191914 0.258317 0.315472
-0.144402 0.00698974 0.0112188
-0.129405 0.234953 0.327589
-0.0253972 0.0178143 0.239665
0.0565783 -0.0382787 0.0112188
-0.189454 -0.0349926 0.0112188
-0.0431472 -0.275603 0.315472
0.275389 -0.162729 0.315472
-0.224958 0.168995 0.327589
-0.274688 -0.260637 0.327589
0.0392474 0.0871463 0.0112188
0.131951 -0.271927 0.315472
-0.0308904 0.0826548 0.315472
0.286589 -0.168715 0.327589
0.181323 0.10201 0.0112188
0.00640356 0.0221475 0.0148088
-0.282719 -0.0696917 0.327589
-0.027577 0.0150133 0.268026
0.221749 0.162768 0.327589
0.0552453 -0.185377 0.315472
-0.14324 0.0112014 0.315472
0.150746 -0.324135 0.327589
0.318323 0.291123 0.327589
-0.0980193 0.100027 0.327589
-0.224095 -0.163772 0.327589
0.143484 -0.156437 0.00840771
-0.0327725 0.222989 0.315472
0.184089 0.0600696 0.327589
-0.108514 0.116107 0.0112188
0.0541895 -0.112718 0.0112188
0.176197 0.0550953 0.327589
0.167977 -0.0904348 1.08392e-17
-0.330907 -0.203378 0.327589
0.178335 -0.152816 0.315472
-0.232358 -0.0392148 0.327589
0.178097 -0.0570965 1.10427e-17
-0.177181 -0.336203 0.327589
0.0263219 -0.0164622 0.138877
-0.22973 0.270517 0.315472
-0.322354 0.106691 0.315794
-0.276044 -0.0047411 0.315472
0.0833542 0.0781693 0.0112188
0.0530237 -0.153573 0.327589
-0.193393 0.259216 0.327589
0.27363 0.293585 0.327589
-0.186882 -0.0962332 0.315472
-0.134311 0.080772 0.0112188
0.300261 -0.18647 0.315472
-0.0130173 0.191144 0.327589
-0.0691124 -0.100718 0.0112188
-0.180207 -0.0057527 0.0112188
-0.13898 -0.336094 0.327589
-0.0309831 -0.00368648 0.273872
-0.102333 -0.0101737 0.0112188
0.150136 0.146377 0.0100208
-0.155122 0.163157 0.327589
0.071898 -0.127075 4.25692e-18
0.228391 0.0828345 0.315472
0.324796 0.107492 0.327589
-0.0636864 -0.307887 0.327589
-0.305216 -0.27816 0.327589
0.0316274 -0.254993 0.315472
0.322796 -0.07644 0.316049
-0.298405 0.0137776 0.315472
-0.315948 -0.180142 0.315472
-0.270147 0.231535 0.315472
0.0090293 -0.000797781 0.0112188
0.306876 0.301927 0.315472
-0.240303 0.146764 0.327589
0.301846 0.00829428 0.315472
0.036452 -0.0398467 0.327589
-0.135224 -0.141614 0.327589
0.0195837 -0.132022 0.315472
-0.0675522 -0.0278476 0.327589
-0.0249916 0.0183354 0.163453
0.140884 0.305908 0.315472
0.254416 0.0688106 0.315472
0.265083 -0.106613 0.327589
0.133776 0.0797179 0.315472
0.0460756 0.0631256 2.70649e-18
0.201444 0.136586 0.327589
-0.204348 -0.157273 0.327589
-0.0037096 0.0310234 0.0612633
-0.0259474 -0.180711 0.0112188
-0.0539209 -0.144378 -3.51792e-18
-0.173491 -0.0627479 0.315472
0.135808 0.122973 0.327589
0.10606 0.171266 0.315472
0.29675 0.255132 0.327589
0.274764 0.261172 0.327589
0.231949 -0.276892 0.327589
0.17478 -0.0818225 0.0112188
0.289249 -0.108233 0.315472
0.058333 0.2899 0.315472
-0.15994 -0.323334 0.316361
-0.0170394 -0.216165 -1.37559e-18
0.18507 -0.179915 0.315472
0.245315 -0.0104943 0.327589
-0.0538327 0.0979038 0.327589
0.0182436 0.131698 0.315472
0.00714312 0.0969131 0.0112188
0.0347363 -0.325919 0.327589
0.16328 -0.143407 1.04927e-17
0.149816 0.098581 0.327589
0.114483 0.0542214 0.0112188
-0.309467 0.295241 0.315472
0.0150113 -0.014263 0.0148088
-0.154205 -0.129527 0.0112188
0.170342 -0.32737 0.31869
0.0305365 0.00525261 0.0922713
0.0824645 0.164353 0.327589
0.0520378 -0.0679388 3.1851e-18
-0.156411 0.0825865 0.0112188
-0.0138043 0.0279924 0.105688
-0.243418 -0.124802 0.327589
-0.0901492 -0.157376 0.327589
-0.210657 -0.0689393 0.327589
0.0744116 -0.197853 0.327589
-0.0354429 -0.0845454 0.0112188
0.231308 0.0706619 0.327589
0.103206 -0.120048 6.19526e-18
0.128051 0.0229078 0.315472
0.156776 0.125632 0.327589
0.203833 -0.258929 0.327589
0.277456 0.254279 0.327589
-0.32697 0.245173 0.31846
0.2381 0.224531 0.315472
-0.0593981 0.106065 0.327589
-0.184035 0.212533 0.327589
0.0820333 -0.057418 0.315472
-0.0264945 -0.310962 0.315472
-0.188365 -0.0491261 0.315472
0.23655 0.319652 0.327589
0.0461597 0.174838 0.0112188
0.116571 0.129564 7.76654e-18
0.322177 -0.129114 0.327589
0.245087 -0.270079 0.327589
-0.267242 0.309488 0.315472
0.308068 -0.218867 0.315472
-0.210032 0.265573 0.315472
-0.07559 0.276426 0.327589
0.160913 -0.141951 1.03493e-17
0.026101 0.0932619 0.327589
0.0962465 0.0727253 5.94271e-18
0.209783 0.044617 0.327589
0.0530112 0.148939 3.2098e-18
-0.229585 -0.0851812 0.315472
-0.282382 -0.126244 0.327589
-0.110735 0.164345 0.327589
-0.201218 -0.0510091 0.315472
-0.206046 0.208899 0.327589
-0.114034 -0.102015 0.0112188
-0.299577 0.19549 0.315472
0.124948 0.246806 0.315472
0.245712 -0.0639348 0.327589
0.125505 -0.246145 0.315472
0.319322 0.142207 0.327589
0.158979 0.0187737 0.315472
-0.256014 0.322201 0.327589
0.087899 -0.137803 0.315472
-0.0516742 -0.31948 0.315472
0.021619 0.0178427 0.315472
0.268438 -0.217591 0.315472
0.00826487 -0.276062 0.327589
0.0591482 0.112661 0.315472
0.334518 0.144179 0.322817
0.0818653 -0.0234438 0.0112188
-0.0232791 0.0205358 0.23677
0.272854 0.00689253 0.327589
-0.0222441 0.0218658 0.25329
-0.3031 0.327901 0.327589
0.101444 -0.288461 0.315472
-0.26552 0.118786 0.327589
-0.028771 0.0116142 0.238864
-0.111382 0.164258 0.327589
-0.0691397 -0.286139 0.327589
0.310756 -0.189969 0.315472
0.199235 -0.29069 0.315472
0.0414994 0.0471087 0.0112188
0.0738341 -0.0812824 0.315472
-0.0831978 0.192764 0.00988748
-0.227068 0.221215 0.315472
-0.0860642 0.303645 0.327589
0.0178392 0.29512 0.315472
0.102345 0.163305 0.315472
-0.243355 -0.258113 0.327589
0.320594 -0.19685 0.315472
-0.270973 -0.220448 0.327589
0.0301139 0.00243677 2.01481e-18
0.090659 0.193678 5.545e-18
0.0455212 0.156692 0.327589
0.190453 -0.306232 0.327589
0.0988573 0.0700023 0.315472
0.170989 -0.0465249 0.315472
0.19921 -0.0630161 1.18978e-17
0.174322 -0.128428 1.12042e-17
0.279753 0.00872087 0.315472
-0.056918 -0.233126 0.327589
0.195259 -0.280352 0.315472
-0.00596005 -0.332937 0.327589
0.0485885 0.0431044 0.0112188
-0.324961 0.00295782 0.327589
0.328558 0.12774 0.319376
-0.0563967 0.0663068 0.0112188
0.240663 0.0549576 0.315472
-0.301138 0.0213174 0.327589
0.072956 0.0255151 0.315472
0.287481 -0.161101 0.327589
-0.234306 -0.305468 0.327589
0.0743164 0.277553 0.327589
0.162856 -0.00407064 0.0112188
0.151422 -0.0122974 0.327589
-0.236349 0.297943 0.327589
-0.0302369 -0.0440153 0.327589
-0.0106279 0.0557358 0.315472
0.111717 -0.0533353 7.23706e-18
-0.080384 0.0311936 0.315472
0.30163 0.113384 0.315472
-0.222464 -0.122793 0.327589
0.00950577 0.0296651 0.0832092
0.0174636 0.026038 0.201368
0.0832102 0.259987 0.315472
-0.336564 0.255751 0.324687
0.18666 -0.17094 0.327589
-0.0115337 -0.0812991 -9.31135e-19
0.130185 0.00758868 0.327589
-0.0612532 -0.169417 0.315472
-0.00246544 -0.0312943 0.0482311
0.0855618 -0.138773 0.315472
0.05822 -0.075695 0.0112188
0.0992235 -0.14686 0.315472
-0.103283 -0.165607 0.327589
0.23774 0.00966844 0.315472
0.266708 -0.241727 0.327589
0.0947227 -0.252873 0.315472
0.303686 -0.0794443 0.315472
0.333978 0.193702 0.322505
-0.0209348 0.162729 0.0112188
0.0270164 0.0715036 0.0112188
-0.00199744 0.0138465 0.0112188
0.27761 -0.0808348 0.315472
-0.231778 -0.335115 0.327589
-0.100737 0.0697831 0.0112188
-0.306924 0.20251 0.315472
-0.321124 0.273938 0.315472
0.180352 -0.0798275 0.0112188
0.0476441 0.0807157 0.0112188
0.28882 -0.0295832 0.327589
0.289587 -0.122043 0.327589
0.137527 -0.0582751 0.327589
-0.0235196 -0.141848 -1.89872e-18
0.0445526 -0.106006 2.99124e-18
0.0051237 0.00840071 0.327589
0.0581551 0.122696 0.0112188
-0.0124094 0.0288203 0.0317525
0.231376 -0.109728 0.315472
-0.199626 -0.278789 0.315472
0.116243 0.106033 7.33542e-18
0.264674 0.225576 0.315472
-0.131141 -0.0212182 0.0112188
0.321582 -0.0197268 0.315472
-0.2874 0.104257 0.315472
-0.0317635 -0.0793328 0.0112188
-0.0108921 0.0292046 0.192017
0.189454 -0.0541373 0.315472
-0.1547 -0.216307 0.315472
-0.0552779 -0.297732 0.327589
-0.123652 -0.0106175 0.315472
-0.12346 -0.0822914 0.327589
-0.30914 0.123627 0.315472
0.126371 0.0625127 0.0112188
0.266185 -0.254865 0.327589
-0.297273 0.0623839 0.315472
0.305278 -0.0842797 0.327589
0.309345 -0.0743342 0.315472
-0.03663 -0.0139576 0.327589
-0.175545 -0.170206 0.327589
-0.284841 -0.0305899 0.327589
-0.156127 0.0876953 0.327589
-0.0191135 -0.114539 0.315472
0.128723 -0.128873 0.315472
-0.0084447 -0.234512 0.315472
0.0838678 -0.0113571 0.0112188
0.0473659 -0.0713667 0.327589
-0.198959 0.0778014 0.315472
0.116603 -0.336564 0.326638
0.227802 -0.173969 0.315472
0.182578 -0.270818 0.327589
0.0306507 -0.158574 2.47428e-18
0.165498 0.275981 0.315472
0.0131174 0.271379 0.327589
0.103722 0.0588626 0.0112188
0.150896 -0.0940593 0.327589
0.296053 -0.133105 0.315472
0.0109453 -0.0373719 0.315472
0.108646 0.025787 0.0112188
0.0328059 0.177707 0.315472
0.0854611 0.254515 0.327589
-0.145422 0.0530753 0.0112188
-0.0166396 0.204739 0.327589
-0.318994 0.193098 0.315472
0.26187 0.083953 0.315472
0.151119 0.000209566 0.0112188
0.200083 0.113972 0.327589
-0.0386157 -0.21591 0.00407683
0.123153 -0.292594 0.315472
0.0721589 -0.0258159 4.24884e-18
0.231785 0.0771887 0.315472
0.0410597 -0.236228 0.327589
-0.0932474 0.257143 0.315472
-0.08672 0.157179 0.315472
0.0580481 -0.10169 0.315472
-0.0816076 -0.0213943 0.327589
0.168674 0.176936 0.327589
-0.297759 0.0953259 0.327589
0.295857 0.136032 0.315472
-0.0155377 0.167276 0.315472
-0.0175659 -0.322987 0.31616
-0.0350631 -0.021082 0.315472
0.291162 -0.201775 0.315472
-0.178821 -0.130418 0.00198426
-0.0477705 -0.168458 0.0112188
0.0553853 -0.10002 0.0112188
-0.210541 -0.214223 0.327589
0.108413 0.0734191 6.58244e-18
0.0536876 0.149405 0.327589
0.224144 -0.0821438 0.315472
-0.109458 -0.328975 0.327589
-0.0333825 0.0682762 0.0112188
0.164599 -0.110757 1.05761e-17
0.117751 -0.0762354 0.0112188
-0.240468 -0.327861 0.327589
0.272575 0.0766389 0.315472
-0.185864 -0.109321 0.315472
-0.12008 0.148093 0.0112188
0.0997594 0.0415088 0.315472
0.0433009 -0.147153 0.0112188
0.0361726 0.198621 0.0112188
0.125127 -0.03648 0.315472
0.147745 -0.103984 0.327589
0.0923253 0.242853 0.327589
0.00737288 0.000479355 5.95134e-19
0.0546634 -0.264356 0.315472
0.0575545 -0.23739 0.327589
-0.219595 0.0290068 0.000418986
0.0663106 -0.172824 0.315472
0.168029 -0.0331982 1.0283e-17
0.307311 -0.171849 0.315472
0.212837 0.207762 0.315472
-0.156524 -0.0670658 0.0112188
0.00571391 -0.0146981 0.315472
0.0562394 0.287814 0.315472
0.180385 0.0477633 0.315472
0.26595 0.249402 0.315472
-0.250108 0.0992025 0.327589
-0.0349582 0.263103 0.327589
-0.270101 -0.153228 0.315472
0.180534 0.220961 0.327589
0.176961 0.32984 0.320116
0.277955 -0.261573 0.327589
-0.0114954 -0.00139528 0.315472
0.212268 -0.19872 0.327589
0.00460249 -0.256948 0.327589
0.0934169 0.0689141 0.315472
-0.0913675 -0.159324 0.315472
0.073055 0.124258 0.315472
-0.0532133 -0.0947355 0.315472
-0.0900822 -0.286657 0.315472
-0.254816 -0.296005 0.315472
-0.0801166 0.159763 0.327589
0.0686381 0.165571 4.56321e-18
-0.276194 0.164369 0.315472
0.0264331 -0.0162566 0.315236
0.301151 -0.16674 0.315472
-0.119634 -0.195993 0.315472
0.147252 0.0618161 0.327589
-0.149998 -0.180148 0.315472
-0.314381 -0.133748 0.327589
0.000565112 0.0548956 0.315472
0.27191 -0.296367 0.327589
-0.093126 -0.198904 0.327589
0.250459 -0.199476 0.315472
0.101793 0.128352 6.57606e-18
0.0552785 -0.163271 0.0112188
0.148165 -0.0703244 9.53233e-18
0.220471 -0.221343 0.315472
-0.0720707 -0.129192 0.315472
-0.27766 -0.009547 0.315472
0.153778 -0.139165 0.0112188
0.140347 0.116944 9.26933e-18
-0.00292405 0.0312223 0.214839
-0.253171 -0.0713237 0.315472
0.278205 0.197079 0.315472
-0.0528507 -0.329717 0.320045
0.156307 -0.133609 1.00578e-17
0.159279 0.0819247 0.0112188
0.0731341 -0.294386 0.327589
0.0355168 0.284564 0.327589
-0.130719 -0.124252 0.327589
-0.0201083 -0.193762 0.315472
0.0258335 -0.153251 0.315472
-0.0585588 0.117646 0.315472
0.327599 0.136586 0.318823
-0.079256 0.20366 0.327589
0.239997 0.276535 0.315472
0.11436 -0.0779325 0.315472
-0.0343713 -0.205581 0.327589
-0.0601174 -0.156364 0.327589
-0.303795 -0.15572 0.327589
0.179957 0.133428 0.315472
-0.0774581 -0.0664776 0.0112188
0.19969 0.335995 0.327589
-0.0716184 -0.0526233 0.0112188
0.111654 0.140554 7.50438e-18
0.0188019 0.0248061 0.12383
-0.156657 0.129511 0.0112188
0.325036 0.151859 0.327589
0.269637 -0.0828918 0.327589
-0.331012 0.0841923 0.327589
-0.075866 -0.0451767 0.315472
0.250788 -0.189564 0.327589
-0.250407 -0.166453 0.327589
0.088265 -0.0737892 5.26721e-18
-0.0365804 -0.0813699 0.0112188
0.0328686 0.0537761 1.97035e-18
0.160769 0.166052 0.327589
-0.299067 0.25531 0.315472
0.00316986 0.0614087 0.327589
-0.0291128 0.0174959 0.315472
0.127304 0.152362 7.85909e-18
-0.321338 -0.146262 0.327589
0.289335 -0.155112 0.327589
0.0149668 0.0907791 0.315472
-0.0860194 0.0894849 0.0112188
0.137792 0.130698 8.82758e-18
-0.222513 0.0707043 0.315472
-0.145267 0.205698 0.315472
0.117644 -0.0455078 0.315472
-0.292901 -0.0372466 0.315472
0.0275041 -0.0871858 0.327589
0.144095 -0.0238582 0.0112188
-0.226379 0.0860268 0.315472
0.247757 -0.0973248 0.315472
0.195157 0.0606194 1.25757e-17
-0.218874 0.290477 0.315472
-0.12973 -0.0251267 0.315472
0.213213 -0.264922 0.327589
0.0361449 -0.0823806 0.315472
0.00498396 0.0939363 0.315472
-0.302348 0.228596 0.315472
0.195895 0.312232 0.327589
-0.0169058 -0.0940962 0.327589
0.30697 0.106517 0.315472
0.146951 -0.0666332 0.315472
0.0884683 0.0243708 0.327589
0.24797 0.0738243 0.327589
-0.184685 -0.140403 0.315472
0.14886 0.0420905 0.327589
-0.118275 -0.117671 0.315472
0.235625 -0.268684 0.315472
-0.192567 0.135532 0.327589
0.310235 0.0976646 0.327589
0.0394454 -0.179182 0.327589
0.0756024 -0.14125 4.46561e-18
0.262573 0.295107 0.315472
0.187433 0.0259406 0.0112188
0.329246 0.301228 0.319774
0.202481 0.0193252 0.327589
-0.237037 0.139347 0.327589
-0.194309 0.0108382 0.0112188
-0.236577 0.0344452 0.327589
-0.000383094 -0.0052672 0.315472
0.26728 -0.159164 0.327589
-0.162023 -0.184789 0.327589
0.0264328 0.0162579 0.241047
0.0327893 -0.149579 2.63667e-18
-0.239979 0.0686537 0.327589
-0.0224144 -0.295989 0.327589
0.33041 -0.271949 0.327589
-0.0196854 0.0516368 0.327589
-0.23559 0.192365 0.315472
0.0653269 -0.166781 0.327589
-0.0728764 -0.160509 0.327589
-0.0768313 0.264534 0.327589
-0.0931792 0.0018762 0.0112188
0.184288 0.141932 0.327589
-0.213913 0.122278 0.327589
-0.171419 -0.00555345 0.315472
0.309571 -0.0141858 0.327589
-0.280444 0.148209 0.315472
0.00182796 -0.0187482 0.0112188
0.0639943 -0.0678925 0.0112188
0.177546 0.0181573 0.0112188
-0.323252 0.044133 0.316313
-0.166521 0.0357879 0.0112188
0.0324825 -0.200651 0.327589
0.0778817 -0.107716 0.315472
-0.193147 -0.130665 0.327589
0.242005 0.270769 0.327589
0.0947443 -0.336564 0.324998
-0.098688 -0.184456 0.327589
0.0785788 -0.107633 0.327589
-0.0555075 -0.175663 0.315472
-0.257723 -0.325104 0.327589
-0.257394 0.249547 0.327589
-0.135726 0.0133811 0.327589
0.0210371 0.0987125 0.0112188
-0.193022 0.0412771 0.0112188
-0.268609 0.0949641 0.327589
-0.0309831 -0.00503747 0.193108
0.0920649 -0.274705 0.315472
-0.147526 -0.0650593 0.0112188
-0.303807 -0.0064283 0.315472
-0.262736 -0.0205604 0.315472
-0.301695 -0.314866 0.315472
0.0656443 -0.257814 0.315472
0.132883 -0.0764775 0.327589
-0.0434146 -0.228159 0.327589
-0.27064 0.325096 0.317377
0.198289 -0.289421 0.315472
0.211604 0.135412 0.327589
0.128732 -0.29285 0.315472
-0.153542 -0.263725 0.315472
-0.303851 -0.214403 0.315472
0.0157828 0.132513 0.0112188
0.166379 0.0336 0.327589
-0.238982 -0.284251 0.315472
-0.00388646 -0.0298406 0.0112188
0.000799953 -0.0310237 0.0655557
0.107485 -0.111057 0.315472
-0.219755 -0.29585 0.315472
-0.0767684 0.0288218 0.315472
-0.267191 -0.141274 0.315472
-0.0327145 0.332458 0.321628
-0.0252177 0.0180449 0.0439752
0.194546 -0.198703 0.327589
-0.124875 0.19928 0.315472
-0.107614 -0.0304877 0.0112188
-0.0804641 0.1386 0.0112188
-0.0582927 0.177205 0.315472
0.103084 -0.0246429 6.66089e-18
0.254131 0.279887 0.327589
-0.220045 0.0545837 0.315472
-0.315458 -0.239005 0.315472
0.0916533 0.21014 0.327589
0.151037 -0.0344696 0.327589
0.0490665 0.0283804 0.0112188
0.00616724 -0.0305788 0.145344
-0.0231944 -0.0206447 0.276526
0.190111 -0.25744 0.315472
-0.127529 -0.0131058 0.0112188
0.199268 0.0549845 0.327589
0.168804 0.00134805 0.315472
0.0907025 0.167961 0.327589
0.166708 0.291654 0.327589
-0.298585 -0.276522 0.327589
-0.155852 0.0477239 0.327589
0.00146705 0.0592833 0.327589
-0.2774 0.306625 0.327589
-0.115615 0.282651 0.315472
-0.246994 -0.16043 0.327589
0.156795 -0.131522 1.00819e-17
-0.141149 0.283205 0.315472
0.109027 0.140925 0.0112188
-0.310778 0.114163 0.315472
-0.0595832 -0.173834 0.0112188
0.0369039 -0.198075 0.327589
-0.298981 0.0514056 0.315472
0.117827 0.0621473 0.315472
0.106451 -0.190505 0.327589
0.103902 0.250499 0.327589
-0.00178853 0.307215 0.327589
0.129593 0.044465 0.315472
0.0025896 -0.167017 2.08995e-19
-0.0342313 0.0934618 0.327589
0.209399 -0.00569274 1.33024e-17
-0.155939 0.277408 0.315472
-0.161412 -0.0328945 0.0112188
0.0354777 0.137016 0.315472
0.0157947 -0.171471 1.275e-18
0.239461 0.0363376 0.327589
-0.0200059 -0.00176559 0.315472
-0.205972 0.0780722 0.315472
-0.0301518 -0.00328152 0.315472
-0.285443 0.0091913 0.315472
0.215713 -0.0558608 0.315472
0.0676326 -0.122735 4.05004e-18
-0.25526 0.0684281 0.327589
-0.014685 -0.311259 0.315472
-0.257873 0.195965 0.327589
0.0769387 -0.110318 0.315472
0.0714539 -0.24148 0.327589
0.105155 0.0203494 0.327589
0.0350925 -0.0798466 0.0112188
-0.226851 0.130456 0.315472
-0.315058 -0.089172 0.315472
-0.321726 0.273005 0.315472
-0.297697 -0.0935456 0.327589
0.185172 -0.0193647 1.14749e-17
0.205088 0.219622 0.315472
0.25251 -0.143572 0.315472
-0.123145 -0.192875 0.315472
0.251287 0.240744 0.327589
0.0963299 0.0594321 0.0112188
-0.130221 0.103883 0.315472
-0.333913 0.209151 0.322468
-0.124026 0.227945 0.315472
-0.262801 0.180624 0.327589
-0.00816711 0.0298946 0.268109
0.203432 -0.302529 0.315472
-0.334633 -0.0584823 0.327589
0.193106 0.0149827 0.0112188
-0.225735 -0.139465 0.315472
0.276645 -0.0633332 0.327589
0.193195 0.0711978 1.22633e-17
-0.0538983 -0.0113575 0.0112188
0.0161172 0.054684 0.0112188
-0.228232 -0.259206 0.327589
-0.286652 0.183257 0.327589
0.135286 0.0962015 0.315472
0.106196 0.233327 0.327589
0.275532 -0.127864 0.315472
-0.240578 -0.173934 0.315472
-0.146867 0.293268 0.315472
0.307121 -0.14301 0.327589
0.000645046 0.216867 4.49985e-20
0.264563 -0.2503 0.315472
0.0455296 0.237847 0.315472
-0.0792958 0.0621615 0.0112188
0.102642 -0.204264 0.315472
-0.319363 -0.161319 0.327589
-0.0787574 -0.0113608 0.327589
-0.300671 -0.0061639 0.327589
0.000405905 0.207396 0.0112188
-0.0458379 0.20223 0.327589
0.0301509 0.00756349 0.26116
-0.0384735 -0.0458342 0.315472
-0.210152 0.0495223 0.327589
0.190815 0.140983 0.327589
-0.000656545 -0.044896 0.327589
-0.336564 0.308471 0.327374
-0.232432 0.074663 0.327589
-0.128982 -0.101038 0.327589
-0.173368 0.308874 0.327589
0.0163805 0.149909 9.49373e-19
0.0474354 0.190852 3.3046e-18
-0.236453 -0.0220047 0.315472
-0.210336 -0.135552 0.327589
0.0606924 0.117486 0.315472
0.0184691 -0.0251123 0.248792
-0.0551076 -0.142241 0.327589
-0.0806133 0.29841 0.315472
0.164259 0.27988 0.327589
-0.0585603 0.165055 0.327589
0.184794 -0.119421 0.00319112
-0.190447 0.101282 0.00617836
-0.207291 -0.113853 0.327589
-0.100518 -0.310687 0.315472
0.319306 -0.00132152 0.315472
-0.0949537 0.184523 0.327589
0.336564 -0.25772 0.324827
0.259349 0.231264 0.315472
-0.0582951 0.220409 0.327589
0.0930941 0.252003 0.315472
0.0437599 0.126499 2.80673e-18
0.158553 0.207469 0.327589
0.262829 0.19753 0.327589
0.0364341 0.104297 0.315472
-0.0155589 0.272424 0.315472
0.0904529 0.0520612 0.315472
-0.0871186 -0.322945 0.316136
0.254516 -0.256678 0.315472
0.149283 0.0327499 0.327589
0.1632 -0.18297 0.315472
0.0989987 -0.089079 0.315472
0.147701 0.313839 0.327589
-0.0297482 0.0741966 0.0112188
-0.170208 0.0624795 0.327589
-0.291455 -0.281126 0.315472
0.00481795 0.0306919 0.111047
-0.195609 -0.00956038 0.0112188
-0.151733 0.182107 0.315472
-0.299458 -0.23394 0.327589
0.0376657 0.0976235 0.315472
0.146728 -0.161846 0.327589
-0.047983 0.127097 0.0112188
0.0563392 -0.151373 0.327589
0.0822703 -0.318876 0.327589
0.0311799 -0.00139561 0.159778
-0.0538178 -0.105429 0.315472
-0.0243019 -0.0811644 0.327589
-0.191866 0.323995 0.316741
0.289648 -0.013298 0.327589
0.131385 -0.193236 0.315472
-0.131574 0.280001 0.327589
0.215989 -0.207045 0.327589
-0.00266108 -0.0689107 0.327589
-0.183726 -0.278776 0.327589
-0.205233 -0.141518 0.327589
-0.305189 0.241318 0.315472
-0.0605635 -0.289333 0.327589
0.317469 -0.184714 0.315472
0.120956 0.0926963 0.327589
0.214316 0.324274 0.316903
-0.00406597 0.0309331 0.0151129
-0.0225639 0.286756 0.327589
-0.313809 -0.22927 0.315472
0.197493 0.30714 0.315472
-0.00915024 -0.168193 0.0112188
0.216502 0.281868 0.315472
0.0392788 0.249293 0.315472
-0.109442 -0.12709 0.0112188
-0.135487 -0.147045 0.0112188
0.0498848 0.0859793 0.0112188
0.237516 0.210531 0.315472
-0.113574 -0.0597595 0.327589
0.0748933 0.0605489 0.0112188
0.317676 -0.220998 0.315472
0.202383 0.278936 0.315472
0.249673 -0.00203913 0.327589
-0.0238296 -0.0198285 0.050846
-0.221226 -0.314543 0.327589
-0.237888 0.0244388 0.327589
0.262017 0.332353 0.321567
-0.00502825 -0.146559 0.315472
-0.0728626 0.335275 0.327589
0.0787154 -0.320424 0.315472
-0.0218643 0.0223537 0.0516906
0.184228 -0.178607 0.327589
0.179764 -0.00648315 1.12479e-17
-0.0333714 0.113313 0.315472
0.129738 0.333005 0.321944
-0.33301 -0.239182 0.321946
0.107156 -0.159333 6.18354e-18
-0.0753104 -0.32698 0.318465
-0.336564 -0.119706 0.324717
-0.170426 0.0706049 0.327589
0.155154 0.319703 0.315472
0.0474918 0.0116349 0.0112188
0.244837 0.169744 0.315472
0.0280046 -0.220982 0.315472
0.143341 0.090649 0.0112188
0.0602761 0.160058 0.327589
-0.180438 -0.274144 0.327589
-0.0315616 0.250913 0.315472
-0.269892 -0.0263124 0.327589
-0.274807 0.182858 0.315472
-0.0130501 -0.028484 0.0975974
-0.159792 0.117392 0.0112188
-0.17754 -0.188624 0.315472
0.327956 0.245077 0.319029
0.332999 -0.280374 0.32194
-0.122138 -0.288403 0.315472
0.298188 -0.182001 0.327589
-0.184105 -0.145795 0.327589
-0.089249 0.0896954 0.0112188
0.0734468 -0.119507 0.315472
-0.0134787 0.0443109 0.315472
0.229381 -0.0284517 0.327589
-0.0575015 0.23611 0.327589
0.014862 -0.274441 0.315472
0.0421253 0.00520679 0.327589
-0.243596 -0.0361919 0.315472
0.165728 -0.0355012 0.315472
-0.318423 -0.263148 0.315472
0.0255088 -0.0891564 2.05919e-18
0.162356 -0.232092 0.315472
0.193227 -0.0682224 0.0112188
-0.241823 -0.188387 0.315472
-0.161849 0.268381 0.327589
-0.245479 0.109687 0.327589
-0.275908 -0.203021 0.327589
-0.124813 0.336564 0.32406
0.247753 -0.320394 0.315472
0.331431 0.306751 0.321035
0.160205 0.0177588 1.00123e-17
0.302364 -0.240753 0.327589
0.0378493 -0.137021 0.327589
-0.0518886 0.0198216 0.0112188
-0.0170269 -0.253592 0.315472
0.263316 -0.0601829 0.315472
-0.0818468 0.311488 0.315472
0.233425 -0.203876 0.315472
0.171328 -0.060122 0.0112188
0.0438091 -0.0119291 2.65316e-18
0.263732 0.0458189 0.327589
0.194561 -0.0411593 0.327589
-0.0112209 -0.268902 0.327589
0.134933 0.174617 0.00281589
0.3187 -0.16674 0.315472
0.14187 -0.0413961 9.15537e-18
0.0843895 0.173326 0.315472
0.0581544 0.174971 0.327589
0.170204 0.196736 0.327589
0.221578 0.0696267 0.327589
0.276844 -0.108537 0.327589
-0.0250019 -0.0183221 0.288866
0.261023 0.286543 0.315472
0.0351093 0.203343 0.315472
0.0360802 -0.0973294 0.315472
-0.327951 0.248056 0.319026
-0.171092 -0.101404 0.327589
-0.0619694 0.0763264 0.0112188
0.171622 0.0394886 0.0112188
0.180532 -0.28103 0.315472
-0.315802 0.0926895 0.315472
0.200117 -0.0591187 1.20254e-17
0.279987 0.333946 0.322486
0.244754 -0.269028 0.327589
0.12975 -0.22202 0.327589
0.157122 -0.271007 0.315472
0.0624795 0.140854 3.87558e-18
0.222232 -0.232611 0.327589
0.100744 0.246617 0.315472
0.159022 0.0839958 0.327589
-0.106573 0.0858985 0.327589
-0.108784 0.187685 0.315472
0.212969 -0.223421 0.315472
0.201209 -0.326193 0.327589
0.132608 -0.122304 8.63031e-18
0.0569466 0.26768 0.315472
0.120073 -0.151421 0.0112188
0.329471 0.249833 0.319904
-0.267484 -0.0217071 0.315472
0.0996879 -0.324475 0.327589
-0.250992 0.221049 0.327589
-0.21183 -0.251079 0.315472
-0.27451 -0.0757074 0.327589
-0.264793 -0.125735 0.327589
0.0572853 -0.204102 0.327589
0.118549 0.274076 0.327589
0.117122 -0.0544493 0.315472
-0.00430927 -0.216831 0.315472
-0.205447 0.071165 0.00520275
0.00349861 -0.0244548 0.315472
-0.0576691 0.188825 0.315472
0.182668 0.0736627 1.18235e-17
0.0323395 0.0959808 0.315472
0.261481 0.124301 0.327589
0.106513 -0.0686295 6.9642e-18
-0.0636232 0.0607374 0.327589
-0.0925237 0.12735 0.315472
0.177284 -0.272781 0.327589
-0.0563226 0.297249 0.315472
0.0452269 -0.0477626 0.315472
0.0221161 0.0217556 0.108369
0.156734 -0.266625 0.315472
-0.176881 0.116072 0.327589
-0.173546 0.084464 0.0112188
-0.165314 0.289107 0.315472
0.0295383 -0.010519 0.208883
0.210654 0.189614 0.315472
0.189194 0.016734 1.20167e-17
-0.0111346 -0.074461 0.0112188
-0.0216016 0.0193908 0.0148088
0.0325257 0.0127225 0.0112188
0.270317 -0.239093 0.315472
0.210141 0.307259 0.327589
0.0863221 -0.329177 0.319734
-0.106655 -0.180053 0.315472
0.104957 -0.287392 0.315472
-0.0272979 0.015372 0.0229807
0.284505 0.248256 0.327589
-0.197716 0.291467 0.315472
0.333018 -0.235011 0.321951
-0.334361 0.0772351 0.327589
0.286884 0.0823392 0.315472
0.187618 0.00930187 0.315472
-0.0545271 -0.0318689 0.327589
0.0128063 0.336564 0.326188
-0.18801 0.313274 0.327589
-0.177212 0.0345095 0.315472
-0.0852777 -0.125274 0.315472
-0.0451131 0.0189584 0.327589
-0.102315 0.160285 0.315472
0.0783818 -0.222676 0.327589
0.3052 -0.294067 0.315472
0.0608836 -0.0870646 0.0112188
0.0289891 -0.0435449 0.0112188
-0.00989803 -0.0294551 0.18169
-0.227434 -0.135583 0.327589
0.0909353 -0.205438 0.327589
0.3228 -0.142834 0.327589
0.331497 0.0649804 0.321073
0.0439541 0.189697 0.315472
0.0729926 0.222427 0.327589
-0.310055 -0.283809 0.327589
-0.129419 0.102995 0.0112188
-0.000584066 0.242266 0.315472
-0.274977 0.000440955 0.315472
0.184516 -0.129896 0.327589
0.00342423 -0.0747476 0.327589
0.097034 -0.0838861 0.315472
-0.211971 -0.132908 0.327589
0.32846 -0.130227 0.327589
0.190389 -0.243529 0.327589
0.276985 -0.250534 0.315472
-0.273785 -0.330299 0.320381
-0.233115 0.263244 0.315472
0.0204377 0.0233004 0.20715
-0.0433527 0.0696137 0.0112188
-0.197645 0.318292 0.315472
-0.247467 -0.157972 0.315472
0.219691 -0.0279038 0.00139571
-0.0477691 0.0217299 0.327589
-0.071752 0.13993 0.327589
-0.0112309 0.0291188 0.15275
-0.00480024 0.0241752 0.315472
0.298941 0.0882266 0.327589
-0.277225 -0.0965715 0.315472
0.184567 0.231501 0.327589
-0.277965 0.201222 0.327589
-0.156017 0.116182 0.327589
-0.105463 -0.240405 0.315472
0.268076 -0.150904 0.315472
