0.141326 0.186154 0.390465
-0.012162 0.090438 0.390465
0.291155 0.243637 0.40604
0.315981 0.271478 0.158491
-0.295277 0.245103 0.254541
-0.263901 -0.275672 0.40604
-0.186988 0.257268 0.390465
0.317214 -0.284151 0.0967035
0.301703 -0.24133 0.243991
0.11179 -0.235611 0.390465
-0.197152 -0.148715 0.35372
-0.201735 -0.236566 0.40604
-0.241912 -0.311346 0.40604
-0.0384414 -0.203372 0.390465
-0.0181188 -0.256533 0.390465
0.231282 0.189051 0.390465
-0.267639 0.20283 0.329258
-0.305687 0.0334781 0.40604
-0.133466 -0.223775 0.390465
-0.212957 0.163349 0.40604
0.236922 -0.12083 0.390465
0.290912 -0.231689 0.227548
-0.288926 0.221484 0.299464
-0.0289073 -0.111037 0.40604
-0.0532388 -0.0124627 0.362917
-0.257532 -0.260403 0.390465
-0.0958261 0.246024 0.390465
0.298916 0.233282 0.221677
0.0157948 -0.31154 0.395136
0.115572 0.012461 0.375151
-0.0778933 0.012461 0.380642
-0.314993 0.285162 0.056077
-0.299689 -0.280838 0.00782876
-0.230026 0.15366 0.357606
-0.268913 0.232801 0.321841
-0.0209095 -0.28158 0.40604
-0.196768 0.0573387 0.40604
0.28401 0.214999 0.345809
-0.300244 -0.263634 0.220898
-0.267601 -0.228434 0.309533
-0.318849 -0.289548 0.0510838
-0.273656 0.235923 0.40604
0.234905 0.19415 0.378708
-0.0189622 -0.181298 0.40604
0.124676 -0.124776 0.390465
-0.271872 0.235911 0.390465
0.219718 0.176891 0.359007
-0.104968 -0.0686043 0.390465
0.304701 0.205112 0.390465
-0.319848 0.256582 0.400188
-0.195383 0.31154 0.39236
0.311839 -0.27111 0.16955
-0.0733237 0.0770662 0.390465
0.163883 -0.240839 0.40604
0.0189883 0.141105 0.390465
-0.175197 -0.109675 0.385272
0.296478 -0.233666 0.246668
0.311974 -0.104217 0.40604
0.165987 -0.115834 0.366397
-0.28303 -0.247775 0.307308
-0.230622 -0.173083 0.360322
0.284626 -0.250657 0.230206
-0.161054 -0.110231 0.374417
-0.135089 -0.00733381 0.385272
0.31065 -0.0768548 0.390465
-0.0812489 -0.0195421 0.38331
0.217194 -0.195559 0.390465
-0.219414 0.289884 0.40604
-0.185137 -0.202201 0.40604
0.295833 -0.228436 0.27883
0.298501 0.254371 0.390465
-0.1101 -0.000136942 0.390465
-0.00944608 0.0876525 0.390465
0.184103 -0.306604 0.390465
-0.12448 -0.292047 0.390465
0.26194 -0.179065 0.358963
0.0341233 0.295838 0.390465
0.00911096 0.26976 0.390465
0.063216 -0.280041 0.390465
-0.316237 0.288707 0.00519235
0.111114 -0.0891557 0.390465
-0.0805303 0.239677 0.390465
-0.293131 -0.216107 0.390465
-0.291215 0.223193 0.31576
-0.170236 -0.0176669 0.40604
0.113218 -0.170301 0.40604
0.321938 0.27964 0.0579997
-0.285789 -0.219146 0.364423
0.263841 0.229122 0.40604
-0.269941 -0.0752205 0.390465
0.291134 -0.253752 0.241298
0.238525 -0.142986 0.390465
-0.318899 -0.262821 0.166292
0.122431 -0.272453 0.390465
0.0514037 -0.304716 0.40604
-0.293461 -0.170457 0.40604
-0.237194 0.145097 0.40604
0.282769 0.234388 0.329106
-0.179849 0.302798 0.390465
-0.24063 -0.257094 0.390465
-0.170265 0.259269 0.40604
-0.239929 -0.0740395 0.390465
0.253503 0.143416 0.390465
0.15699 -0.168664 0.390465
0.141624 0.24497 0.390465
-0.148772 -0.0648098 0.35256
0.211802 0.293506 0.390465
-0.273415 0.287638 0.390465
-0.0158925 -0.273998 0.40604
-0.242134 -0.196709 0.35667
0.0142825 0.178996 0.390465
-0.319848 0.128955 0.401866
0.0195224 0.0922322 0.40604
0.274069 -0.234723 0.277695
-0.300517 0.265297 0.126594
-0.177106 -0.202371 0.390465
0.162454 0.25824 0.390465
-0.0198392 -0.0142597 0.390465
-0.00705358 0.16559 0.390465
0.333208 -0.287507 0.0526239
-0.244913 -0.210402 0.40604
-0.305799 0.235002 0.40604
-0.142281 -0.0201881 0.390465
-0.180872 -0.0124627 0.349774
-0.298805 -0.150239 0.390465
-0.011698 0.142133 0.40604
-0.283339 -0.186331 0.40604
0.200036 0.175883 0.40604
-0.280171 -0.245562 0.250505
-0.235154 -0.1038 0.40604
-0.223218 -0.21597 0.40604
-0.0899774 -0.0143222 0.40604
-0.166738 -0.0170185 0.40604
-0.0910401 0.012461 0.371468
0.327183 -0.264062 0.0879428
0.0987683 0.180762 0.390465
0.0700747 0.00684206 0.383673
0.280183 0.245095 0.249451
-0.226073 0.0232588 0.390465
-0.0396588 0.0288113 0.40604
0.261927 -0.24241 0.390465
-0.252508 0.1865 0.390465
0.26817 0.202067 0.342909
0.187835 -0.308001 0.390465
0.206774 -0.129707 0.40604
0.056203 0.23458 0.40604
-0.196693 -0.115777 0.368932
0.247451 -0.132845 0.390465
-0.13105 0.076135 0.360507
-0.211877 0.138345 0.360349
0.290045 0.134751 0.40604
0.00646994 0.27297 0.390465
-0.223697 -0.194926 0.40604
-0.155413 0.0728396 0.351969
0.29497 0.232318 0.332015
-0.290281 0.230906 0.271337
-0.301863 0.279627 0.390465
-0.341241 -0.261317 0.000264158
-0.307742 -0.126514 0.40604
0.328682 -0.292523 0.0357481
0.270269 -0.23434 0.346261
0.316785 0.00777701 0.40604
-0.332815 -0.273407 0.0217229
-0.0282302 0.00892018 0.347886
-0.119493 0.226674 0.390465
-0.240114 -0.179447 0.390465
-0.144631 -0.193692 0.390465
-0.132625 -0.051378 0.360349
0.198197 0.0588587 0.390465
0.292433 -0.170547 0.390465
0.0947532 -0.170889 0.40604
-0.199656 -0.20677 0.390465
-0.222916 -0.180528 0.357984
0.114471 0.143197 0.390465
-0.12374 0.0328751 0.358722
-0.313815 0.273692 0.15459
-0.0181068 -0.0896569 0.390465
0.316727 0.255872 0.183281
-0.261457 -0.0566811 0.40604
0.0460934 0.0751987 0.390465
0.230275 -0.111757 0.390465
0.241333 0.201454 0.378513
-0.16461 0.220877 0.390465
0.147668 -0.0834835 0.360349
0.0837918 0.0217874 0.356043
-0.0271941 -0.0293522 0.390465
0.0642199 0.1503 0.390465
-0.277232 -0.121153 0.40604
0.120529 0.109951 0.40604
0.296428 0.238644 0.234269
-0.255197 0.0397665 0.40604
0.28639 0.31154 0.405851
0.0568769 0.297381 0.40604
-0.271396 -0.101331 0.40604
0.292129 0.0363855 0.390465
0.132106 0.210494 0.40604
0.214701 0.0552264 0.40604
0.151963 0.298389 0.40604
-0.230958 -0.114303 0.360349
-0.28476 0.290724 0.390465
-0.0318696 0.00820985 0.390465
0.00450873 0.0934107 0.40604
-0.265996 -0.0253836 0.390465
-0.263944 0.0675506 0.390465
-0.303816 -0.254899 0.196208
0.244889 -0.187704 0.344771
0.300873 0.267814 0.40604
0.06916 -0.0160445 0.390465
0.30841 0.250763 0.237356
0.205049 -0.155901 0.360349
-0.220749 0.238852 0.40604
0.313827 -0.270081 0.00519235
-0.069201 0.00394771 0.40604
0.18704 0.216047 0.390465
-0.331216 0.29192 0.00519235
-0.118655 -0.285809 0.40604
-0.0184776 0.215461 0.40604
-0.261973 0.0773657 0.40604
-0.0797957 0.118652 0.390465
-0.195339 0.149738 0.390465
-0.12742 -0.0429586 0.390465
0.00561413 0.142341 0.390465
0.219676 0.110728 0.40604
0.240256 -0.200231 0.372111
-0.255868 -0.18392 0.350408
0.147857 -0.0655097 0.350958
-0.31748 0.287989 0.0639147
0.30543 -0.266601 0.155736
0.181968 -0.0728228 0.390465
0.0863848 -0.108617 0.40604
-0.0791311 -0.00685816 0.348894
-0.216241 0.161412 0.40604
0.29103 0.228632 0.318247
0.155207 0.187804 0.40604
-0.0147146 0.0690898 0.40604
0.266692 -0.0302641 0.40604
0.156796 0.0877202 0.390465
-0.257662 0.223754 0.40604
-0.291616 0.246753 0.312728
0.191985 0.214828 0.40604
-0.27528 0.240033 0.336226
0.203294 -0.214276 0.390465
0.0816049 0.0603332 0.390465
0.15674 -0.0395361 0.40604
0.170111 0.213458 0.40604
0.139962 0.0527633 0.35505
0.27882 -0.243868 0.312301
0.212314 0.132084 0.40604
0.138429 -0.0762332 0.34971
0.203448 -0.131785 0.385272
-0.321055 0.27358 0.135101
-0.164142 -0.0787861 0.377716
0.331578 -0.272139 0.0485644
-0.282789 -0.243561 0.299794
-0.157103 -0.0252882 0.40604
-0.242376 0.184342 0.390465
-0.317161 0.134397 0.390465
0.0151376 -0.112672 0.40604
0.172068 0.122743 0.373583
-0.273115 -0.153646 0.40604
-0.00548287 -0.0124627 0.384939
-0.223629 0.000200272 0.40604
-0.259482 -0.187417 0.40604
0.152996 0.211743 0.40604
0.0809175 -0.198116 0.390465
0.31985 -0.159286 0.404786
0.0421063 0.161998 0.40604
-0.120323 0.170007 0.40604
0.0219557 -0.0779912 0.390465
0.297262 -0.235468 0.240104
-0.28995 -0.122584 0.390465
0.0361905 -0.30977 0.40604
-0.275878 -0.286316 0.390465
0.30712 -0.255613 0.181743
0.11082 -0.199719 0.390465
0.176062 -0.123407 0.352079
0.115059 0.273218 0.40604
0.0654945 -0.240588 0.40604
0.24152 0.103651 0.390465
-0.225749 0.0690801 0.40604
0.231277 0.178629 0.359716
-0.0838081 0.00560062 0.360349
-0.134846 0.305179 0.390465
-0.0518418 -0.125001 0.40604
-0.0709517 0.232864 0.40604
-0.303421 0.247497 0.268157
0.126313 -0.0421752 0.40604
0.199778 -0.125885 0.390465
0.232659 -0.0812405 0.40604
0.209589 -0.311522 0.40604
0.175835 -0.139772 0.40604
-0.00477973 -0.28708 0.390465
-0.163446 0.180708 0.390465
-0.322318 0.2947 8.09348e-19
-0.0191009 -0.143293 0.40604
0.230529 0.175993 0.385272
0.106846 -0.151959 0.40604
0.0828241 -0.263303 0.40604
0.325381 0.263626 0.0962149
-0.00831077 -0.222793 0.40604
0.19793 0.143887 0.40604
0.0239704 0.012461 0.358918
0.122163 0.101298 0.40604
0.294652 0.0779712 0.390465
-0.139039 -0.0502607 0.357267
0.208392 -0.0251459 0.40604
0.315889 -0.260948 0.137096
0.148465 -0.219317 0.40604
-0.0859741 -0.070601 0.390465
-0.00510311 -0.142529 0.40604
0.171428 -0.0870682 0.360082
-0.191131 -0.00974786 0.40604
0.235863 0.0354982 0.390465
0.339544 -0.262462 -1.4341e-18
0.310074 -0.245867 0.222563
-0.0754668 0.00548116 0.385272
0.229405 -0.287343 0.390465
0.146942 -0.300668 0.40604
-0.0753943 1.80232e-07 0.352806
-0.015249 -0.0069491 0.40604
0.213524 -0.14734 0.348016
0.149571 -0.0682097 0.385272
-0.272452 -0.269329 0.40604
0.320766 0.272164 0.140285
-0.207312 -0.150769 0.390465
-0.332652 0.270277 0.0281241
0.308977 -0.271807 0.170178
0.213885 0.185973 0.40604
-0.159038 0.231474 0.390465
-0.263391 0.196034 0.34793
-0.0745817 0.012461 0.376642
0.221147 -0.00394347 0.390465
-0.273345 -0.133222 0.390465
-0.301364 0.250482 0.143977
-0.319337 0.281388 0.060349
-0.196183 -0.198442 0.390465
-0.322648 0.273081 0.0778164
0.321229 0.268292 0.147142
0.202444 0.192932 0.390465
-0.272912 -0.0205504 0.40604
0.224109 -0.15725 0.34888
-0.0496784 0.030303 0.40604
-0.210851 0.290545 0.40604
-0.256426 0.00515857 0.40604
0.286289 0.251856 0.40604
0.108928 -0.0003934 0.385272
0.0761464 0.261326 0.40604
0.0613132 0.0943047 0.390465
-0.277927 -0.0894105 0.390465
-0.141959 0.0615933 0.390465
-0.321989 0.286282 0.0837166
0.0304348 0.236373 0.390465
-0.107127 -0.18434 0.40604
0.300535 -0.062109 0.390465
-0.251514 -0.213026 0.378101
-0.208229 -0.150211 0.390465
0.0904534 -0.00914585 0.385272
-0.304187 0.116775 0.390465
0.190152 0.228993 0.40604
0.341748 0.281708 0.00519235
0.23132 -0.0274725 0.40604
-0.138711 -0.179269 0.40604
-0.0259665 0.222567 0.390465
-0.311964 -0.241758 0.390465
0.143693 -0.0905007 0.372256
0.149229 -0.203353 0.40604
0.125905 0.0104642 0.40604
-0.323867 -0.309544 0.00519235
0.286261 -0.217559 0.34687
0.177989 -0.127842 0.354831
0.0916305 0.184301 0.390465
-0.238632 0.122032 0.360349
-0.301982 -0.198568 0.390465
0.213862 0.26282 0.40604
-0.0796345 -0.0124627 0.360471
0.29904 0.255585 0.40604
-0.193773 0.146358 0.355539
-0.315737 0.258501 0.188531
0.179044 -0.0957227 0.362872
0.307509 -0.276659 0.116883
-0.127322 0.137838 0.40604
-0.172764 -0.0826303 0.40604
-0.0553493 0.293469 0.390465
-0.0719655 0.00899296 0.363378
0.321289 0.257363 0.138049
0.0934441 0.197647 0.390465
0.278636 0.277468 0.40604
0.15032 0.0869959 0.360349
-0.110675 -0.305985 0.390465
-0.0981425 -0.0153575 0.40604
-0.0878782 0.012461 0.366366
-0.138645 0.0788774 0.360349
0.2992 -0.247314 0.233178
-0.0410223 0.0226139 0.40604
-0.284986 0.148996 0.390465
0.31985 0.154186 0.403497
-0.0935266 -0.247558 0.40604
0.0602717 0.155122 0.390465
0.331851 0.275164 0.0816351
-0.168228 0.138613 0.40604
-0.264664 -0.0726286 0.40604
0.286607 0.242115 0.292949
0.194468 -0.16254 0.390465
0.312995 -0.306729 0.395514
0.183435 0.00603016 0.385272
-0.294971 -0.209811 0.390465
0.189231 0.166985 0.390465
0.352655 0.280335 0.00926417
0.0974708 -0.00302391 0.37083
-0.0225259 -0.0389261 0.40604
-0.303537 0.262326 0.173879
0.107994 -0.00613433 0.40604
0.186418 0.012461 0.379953
0.244814 -0.193684 0.40604
0.31284 -0.262328 0.127648
-0.0448899 -0.141133 0.40604
0.0898489 -0.150686 0.40604
0.0590464 0.0071373 0.385272
-0.170404 0.117641 0.390465
-0.113385 -0.254062 0.40604
0.246713 0.15443 0.40604
0.0482782 -0.00479969 0.390465
0.0889274 0.0280655 0.40604
0.276045 -0.088563 0.390465
0.0292336 -0.0680732 0.390465
-0.0403799 -0.236614 0.390465
0.291697 -0.244749 0.186303
0.27792 0.239017 0.366224
-0.285194 0.247827 0.280663
0.275521 0.124004 0.390465
-0.281324 0.31154 0.400482
0.303342 -0.264655 0.167623
-0.311944 -0.124529 0.390465
0.0319432 0.000439078 0.40604
-0.0459789 0.125722 0.390465
0.328628 0.277592 0.0318784
-0.0101471 0.222864 0.390465
0.217937 -0.00449002 0.390465
0.294664 0.232871 0.253859
0.234383 -0.0159549 0.390465
-0.280834 0.24635 0.274478
0.208201 -0.188655 0.390465
0.157018 0.137413 0.40604
0.3137 -0.305658 0.395413
-0.081118 -0.271299 0.390465
0.20751 0.277353 0.390465
0.0585336 0.277704 0.40604
-0.346715 0.290106 0.00473853
0.282286 -0.220226 0.283893
0.0365028 -0.175275 0.390465
-0.174079 -0.00800034 0.347886
-0.266453 0.185298 0.390465
-0.00660852 0.0117092 0.40604
-0.0856508 0.0138555 0.390465
0.262017 -0.00171062 0.390465
0.290486 -0.211111 0.390465
0.320109 -0.264157 0.0119534
0.0811232 -0.157803 0.40604
-0.0188965 -0.25209 0.40604
-0.333019 -0.273754 0.0207694
0.225275 0.128053 0.40604
0.110774 0.00335023 0.390465
0.32334 0.259694 0.111028
0.239593 0.212337 0.40604
0.0656851 0.0247681 0.390465
-0.319328 0.25533 0.112383
-0.332321 -0.277693 0.0760415
-0.307177 -0.269082 0.185559
0.31015 -0.240677 0.40604
-0.177355 0.112721 0.385272
0.0417524 0.0933019 0.390465
-0.279731 0.242051 0.390465
-0.306538 0.134087 0.40604
-0.309954 -0.26612 0.125987
-0.322813 0.282558 0.0207694
0.25764 -0.185038 0.357844
-0.280599 -0.24402 0.307671
-0.0474786 0.0173402 0.390465
-0.143453 0.0924158 0.40604
0.0417673 -0.218033 0.390465
0.209357 -0.0491104 0.40604
0.248517 -0.195909 0.385272
0.306119 -0.240125 0.231236
-0.265683 0.194209 0.343616
0.296454 0.31154 0.403387
0.0862503 -0.0252235 0.374077
0.0159255 -0.0424719 0.390465
-0.253579 -0.150779 0.40604
0.289176 0.120537 0.40604
-0.202024 -0.0567434 0.390465
0.0948728 -0.281491 0.390465
-0.207228 -0.0900532 0.390465
0.317736 -0.28828 0.0274963
-0.0849141 -0.0234847 0.356558
-0.283243 0.234884 0.23558
0.257014 -0.0991213 0.390465
0.287596 0.25087 0.293744
-0.232734 -0.272885 0.40604
-0.279577 -0.227544 0.360422
-0.30502 0.243687 0.225659
0.0967392 0.133802 0.390465
0.05827 -0.0586164 0.390465
0.324773 0.30158 0.0111888
0.226702 0.191467 0.40604
-0.0597824 0.241201 0.40604
-0.100937 0.223412 0.390465
-0.0724931 -0.150286 0.390465
-0.135811 0.0465912 0.371312
0.22317 -0.152417 0.390465
-0.230292 0.187985 0.354222
0.168454 -0.0791769 0.40604
0.257356 0.219663 0.33503
-0.210009 -0.00259876 0.390465
0.29175 -0.252337 0.244898
-0.330148 -0.274541 0.0476408
0.252219 -0.1693 0.390465
0.277034 0.174881 0.390465
0.124561 0.2094 0.40604
-0.134938 -0.183072 0.40604
0.301134 0.238274 0.253527
0.260554 0.178255 0.390465
-0.274069 -0.213733 0.390465
0.0158029 0.0955286 0.40604
0.28988 0.241117 0.247034
0.140138 -0.216474 0.40604
-0.299005 -0.00107619 0.40604
-0.319454 -0.250295 0.00912816
-0.328852 0.289424 0.0593976
-0.07366 -0.0109182 0.357689
0.341207 -0.302862 0.00519235
0.207659 0.145781 0.390465
0.273438 0.233158 0.362332
0.229041 0.31154 0.397292
-0.0578194 -0.0957651 0.40604
0.231552 0.0896317 0.40604
0.259543 -0.092519 0.40604
-0.189326 -0.271322 0.40604
0.153124 0.00769453 0.385272
-0.300743 -0.263213 0.180686
-0.1913 0.128537 0.385272
-0.308213 -0.261473 0.214486
-0.0534863 0.144775 0.40604
0.184163 -0.188071 0.40604
0.18801 -0.0693924 0.40604
0.084176 0.138952 0.40604
-0.325591 0.279162 0.0496216
0.300814 -0.100073 0.40604
-0.331811 0.273972 0.025433
-0.287532 -0.252743 0.278108
0.140525 0.0802229 0.350367
0.10331 0.00475937 0.385272
-0.314801 0.283857 0.0927722
-0.139756 0.109078 0.390465
0.123917 -0.103569 0.390465
-0.202819 0.0308787 0.360349
-0.307048 -0.251255 0.24409
-0.133426 -0.235098 0.40604
0.109576 0.0735417 0.40604
-0.231981 -0.237125 0.390465
0.0826977 -0.0180802 0.385272
0.0490125 -0.257665 0.40604
0.278742 0.230324 0.260078
0.0557019 0.168471 0.40604
-0.270533 -0.208429 0.385272
-0.138402 0.281098 0.40604
-0.168951 -0.224555 0.40604
-0.0487911 0.0721813 0.390465
0.307051 0.276134 0.130007
0.324442 -0.271452 0.0766072
0.319506 0.213179 0.40604
0.00238168 -0.115919 0.40604
0.31985 -0.127911 0.405321
-0.223264 -0.300459 0.40604
0.309736 0.244234 0.219964
-0.284787 0.23485 0.320863
0.262071 0.220506 0.322868
-0.275584 0.225879 0.378977
-0.3147 -0.249874 0.17352
0.177519 0.31154 0.400032
0.0155852 -0.123154 0.40604
0.302938 0.10971 0.390465
-0.191761 -0.00285199 0.40604
0.32537 -0.272813 0.0689319
0.2769 0.0904106 0.40604
-0.298205 0.0808063 0.40604
0.290548 -0.228909 0.275623
-0.301447 0.291183 0.00519235
-0.273603 0.234996 0.385272
0.278382 0.208603 0.348819
-0.205379 -0.182106 0.390465
0.166726 -0.255935 0.40604
-0.223273 -0.31154 0.397692
0.119174 0.212586 0.40604
-0.317576 -0.120025 0.390465
-0.236043 0.0725676 0.390465
0.0212724 -0.172904 0.40604
0.0594591 -0.297727 0.390465
0.142921 -0.28878 0.40604
-0.270471 -0.225777 0.324416
0.126982 0.101493 0.390465
-0.0757368 0.125609 0.40604
-0.227405 0.150677 0.374675
0.0936211 -0.245072 0.40604
-0.301513 0.257437 0.172249
0.309804 0.296235 1.49155e-18
-0.28583 -0.123588 0.390465
0.306949 -0.270866 0.0878498
-0.225581 -0.0954427 0.360349
0.33722 0.281674 0.0387841
0.250567 0.198384 0.40604
0.343633 0.266739 0.010606
0.0341382 -0.268448 0.390465
0.15056 0.0621326 0.40604
0.157727 0.0852151 0.360349
-0.158345 -0.0124627 0.350564
-0.213952 0.242808 0.40604
-0.197039 0.145499 0.385272
0.300398 -0.233624 0.222742
-0.219112 0.0499723 0.390465
-0.201145 -0.0184262 0.40604
0.282925 -0.234676 0.325759
-0.243763 -0.286957 0.40604
0.326415 -0.264374 0.111978
0.256705 -0.308531 0.40604
-0.296046 0.00736064 0.40604
0.0895465 0.00298926 0.385272
0.0224177 0.284018 0.40604
-0.281918 -0.227322 0.258539
-0.247897 -0.0236609 0.390465
0.295247 0.0487145 0.40604
0.3195 -0.0235079 0.390465
-0.259443 0.187083 0.367017
-0.106206 -0.0479026 0.368075
0.29821 -0.249069 0.156631
-0.238852 0.0723094 0.40604
-0.261427 -0.201525 0.390465
0.0188068 -0.0997078 0.390465
0.160277 0.101378 0.385272
0.284831 0.249313 0.390465
0.31985 0.0611402 0.390819
-0.0297573 0.12412 0.40604
0.163295 0.170502 0.40604
0.330696 0.275242 0.0262946
0.0192183 -0.245905 0.40604
0.276503 0.241422 0.315579
0.00640476 0.0166021 0.390465
-0.23594 -0.0362416 0.390465
0.207616 -0.0985862 0.40604
-0.305138 -0.127326 0.390465
-0.0325546 -0.117416 0.390465
-0.171558 0.106572 0.385272
0.0512095 0.012461 0.352235
-0.197897 0.110723 0.40604
0.0417587 -0.277082 0.390465
-0.31856 0.0916039 0.390465
-0.103475 0.31154 0.395679
-0.117875 -0.145485 0.390465
0.19632 -0.230284 0.40604
-0.291415 -0.255644 0.264374
0.312019 -0.258392 0.208692
-0.296592 0.23444 0.244616
-0.084019 0.197363 0.40604
0.269111 0.177578 0.390465
-0.296003 -0.100909 0.40604
0.0943188 -0.270638 0.40604
0.28868 -0.240386 0.252063
0.207392 0.0659481 0.390465
0.315471 -0.283155 0.0306448
0.289673 0.233942 0.358564
0.0272362 0.181163 0.390465
0.0790235 0.118321 0.390465
-0.291897 0.168163 0.40604
0.226606 -0.0074611 0.390465
-0.0709891 -0.239703 0.40604
0.199275 -0.233377 0.390465
-0.268164 -0.204319 0.327377
0.13702 0.0813033 0.354853
0.265809 0.127456 0.390465
0.199614 -0.105609 0.40604
-0.000866771 -0.00901961 0.390465
0.179214 -0.122424 0.349647
0.321638 -0.257761 0.13137
-0.080668 -0.28868 0.390465
0.00724202 0.31154 0.4051
-0.0731737 0.012461 0.374786
-0.237946 -0.149213 0.390465
-0.23589 0.164297 0.40604
0.168214 0.24131 0.390465
0.197987 0.0678612 0.390465
0.311259 0.242625 0.40604
0.290686 -0.26628 0.390465
-0.0669477 -0.279834 0.390465
-0.34824 -0.277813 0.000250936
0.284359 -0.215397 0.380457
-0.0602886 -0.0124627 0.379521
0.240223 0.200193 0.380363
-0.243514 -0.181601 0.358089
-0.317858 0.219621 0.390465
-0.225282 0.13677 0.390465
-0.298477 -0.290243 0.40604
0.317539 0.269238 0.0967909
0.0139872 -0.307835 0.390465
0.26281 -0.173845 0.390465
-0.172014 0.124232 0.390465
-0.270348 0.0953531 0.390465
0.271401 -0.208684 0.385272
0.163257 -0.022164 0.40604
-0.00868827 -0.190206 0.390465
0.0593705 -0.0640784 0.40604
-0.292685 -0.149341 0.40604
0.302978 0.0305068 0.390465
-0.24307 -0.0274186 0.390465
-0.111703 -0.149201 0.390465
-0.161349 -0.31154 0.403082
-0.304921 -0.253069 0.197927
-0.318988 -0.279669 0.0657053
-0.18734 -0.00733209 0.36424
0.118683 -0.308062 0.40604
0.194169 0.127529 0.360349
0.317604 -0.261671 0.174657
0.171173 0.0867763 0.366466
0.0435043 0.205397 0.40604
-0.156519 -0.0907983 0.390465
0.128687 -0.0124627 0.351391
0.0689597 0.0977396 0.390465
0.232359 -0.130454 0.390465
-0.278358 0.243532 0.31262
-0.0146309 -0.107635 0.390465
-0.297327 -0.0709446 0.390465
0.256002 -0.183174 0.372534
0.31985 -0.213251 0.40466
-0.304877 -0.273307 0.153835
-0.315045 -0.233035 0.40604
-0.0573457 0.0303904 0.390465
-0.146487 -0.150976 0.40604
-0.291679 0.223719 0.283202
-0.331396 -0.278079 0.0805659
-0.0240111 0.147105 0.390465
-0.0150927 -0.222305 0.40604
0.307478 -0.217331 0.40604
-0.24601 0.10725 0.40604
0.0997034 0.13724 0.40604
-0.0204053 0.294508 0.390465
-0.198301 -0.14882 0.40604
-0.312203 -0.0605248 0.390465
-0.248902 0.210059 0.359128
0.312387 -0.264271 0.192069
-0.051796 0.271137 0.40604
0.230199 -0.120562 0.40604
0.0678433 -0.0727716 0.390465
0.0464055 -0.0677215 0.40604
0.00874162 0.0981112 0.390465
0.301982 0.235424 0.241051
0.107167 0.28223 0.390465
0.00616947 -0.0429699 0.40604
-0.315603 -0.283721 0.0306201
0.308975 -0.259244 0.40604
0.239905 0.147006 0.40604
0.0475355 -0.00332261 0.347886
-0.15828 -0.261583 0.390465
-0.289704 0.225857 0.253107
-0.311012 0.0343421 0.40604
0.093009 -0.109099 0.390465
-0.228387 -0.154018 0.385272
-0.0446449 -0.0285194 0.390465
0.259985 -0.199351 0.334412
0.020739 -0.260115 0.40604
-0.320617 -0.269636 0.094432
-0.251201 0.168685 0.360349
-0.311378 -0.265069 0.40604
0.318628 0.258725 0.120153
0.131906 0.241326 0.390465
-0.264731 0.300899 0.40604
-0.0899459 0.0585228 0.390465
0.0996928 0.157316 0.390465
0.306438 -0.256069 0.161559
0.0598855 -0.137798 0.40604
-0.0188727 -0.127652 0.40604
0.201371 0.0576775 0.390465
-0.232609 0.158037 0.40604
-0.178562 -0.108006 0.360349
0.108988 0.0380344 0.385272
-0.10829 -0.0124627 0.35148
-0.273585 0.224715 0.320912
0.313217 0.295804 0.390465
0.31985 -0.221825 0.395712
0.13244 -0.0640248 0.347886
0.239463 0.0810069 0.40604
0.145292 -0.267405 0.390465
0.0986188 0.0285309 0.385272
0.299623 -0.198599 0.40604
0.281575 0.148087 0.390465
-0.308395 0.242716 0.191371
0.314002 0.283329 0.0707939
0.251779 -0.184467 0.390465
-0.282307 0.215788 0.3042
0.154412 -0.291491 0.40604
0.245204 -0.168644 0.390465
0.220467 0.143832 0.360349
0.31985 0.2677 0.393734
-0.300427 0.193896 0.40604
0.0521353 -0.0604804 0.390465
-0.139058 -0.236852 0.390465
0.249226 0.0435632 0.40604
0.178787 0.148159 0.390465
-0.183732 -0.288589 0.390465
-0.106315 -0.0826485 0.390465
0.275494 0.0250138 0.40604
-0.285214 -0.216373 0.31926
0.206411 0.161771 0.384486
0.323833 0.26974 0.0769149
0.0419481 -0.19927 0.40604
-0.213961 0.0380881 0.40604
0.165161 -0.0124627 0.381066
0.053437 0.012461 0.367297
-0.192146 -0.283779 0.390465
-0.0810433 0.010476 0.360349
0.182135 0.0992338 0.368825
0.295476 0.249971 0.208468
0.262084 -0.190083 0.384587
0.245217 -0.140318 0.390465
-0.0993763 -0.147987 0.40604
-0.0900601 0.0851674 0.390465
0.0717366 0.00316289 0.385272
0.229806 -0.200397 0.40604
0.311185 -0.233179 0.390465
-0.244936 -0.0514054 0.40604
0.130203 0.0305821 0.40604
0.282063 0.107328 0.390465
-0.185688 -0.066816 0.40604
-0.234548 0.0337825 0.40604
0.0817693 0.0144788 0.40604
0.145488 0.311438 0.40604
0.180846 0.118015 0.40604
0.207207 0.189928 0.40604
-0.0978227 0.013063 0.390465
-0.31866 0.285669 0.0205797
0.281846 -0.231878 0.293054
-0.278973 -0.198012 0.390465
-0.314961 -0.279756 0.0260021
-0.0532371 -0.060222 0.40604
-0.169729 -0.18994 0.390465
-0.0873162 0.221048 0.40604
-0.060208 -0.0809953 0.40604
0.330897 0.268282 0.0624738
-0.079603 0.110279 0.40604
0.322429 -0.281961 0.0507532
0.0767495 0.212504 0.40604
0.154863 -0.277974 0.390465
-0.255946 0.261794 0.390465
-0.187033 -0.235329 0.40604
-0.318365 -0.257734 0.123395
0.0913801 0.025787 0.385272
-0.236571 -0.31154 0.39885
-0.202657 0.0912989 0.390465
0.271364 -0.20063 0.357408
0.0232479 -0.177271 0.40604
0.310879 0.260175 0.209341
-0.166122 -0.0810359 0.374406
0.0362941 0.194529 0.390465
0.00996467 0.261339 0.40604
-0.140969 0.0524542 0.359573
-0.280085 -0.226432 0.385272
0.100797 0.138813 0.40604
0.300393 -0.245405 0.40604
-0.310471 0.00496057 0.40604
0.156443 -0.10361 0.355139
-0.0712657 0.299095 0.40604
-0.300888 0.0876185 0.40604
-0.164086 0.2255 0.390465
-0.33559 -0.294909 0.0118646
-0.337779 -0.303361 0.00519235
-0.260354 0.0905898 0.40604
-0.265631 -0.22907 0.340036
0.038523 -0.31154 0.403959
-0.287398 0.00132325 0.40604
0.0658979 0.012461 0.361806
0.129975 -0.132324 0.40604
0.31985 -0.0242658 0.390775
-0.310335 0.255819 0.220871
-0.243912 -0.107837 0.40604
-0.291754 0.0642488 0.40604
0.106267 0.00176695 0.40604
0.165693 -0.107964 0.360349
0.213922 0.302233 0.390465
0.219947 -0.153482 0.390465
-0.185061 0.257485 0.40604
-0.0964033 -0.0351494 0.354851
-0.169218 -0.238693 0.40604
-0.281787 0.243271 0.40604
0.0300231 0.235398 0.390465
-0.274255 -0.203918 0.344846
-0.291182 0.227603 0.277486
0.177152 -0.11538 0.347886
0.303771 0.268835 0.107566
-0.272261 -0.234022 0.290839
0.072605 0.17854 0.40604
-0.238126 0.258622 0.40604
0.321682 0.285485 0.0279976
0.249095 -0.0966327 0.390465
-0.15283 0.100734 0.385272
0.155316 -0.16034 0.40604
0.319754 -0.286419 0.0471823
-0.212749 -0.161623 0.385272
0.279323 0.209672 0.326814
0.336339 -0.285415 0.0227128
0.117172 -0.121996 0.390465
0.261285 0.293423 0.40604
0.0224001 0.012461 0.359429
-0.240334 0.0153664 0.390465
-0.231074 0.164023 0.385272
0.203797 -0.034754 0.40604
-0.0993955 -0.00153572 0.385272
0.0760638 -0.31154 0.3939
-0.254188 0.0156066 0.390465
-0.283121 -0.24822 0.232122
0.025021 0.132207 0.390465
-0.143397 0.169457 0.390465
0.121616 0.0313502 0.40604
-0.241943 0.0901048 0.40604
0.314173 0.231369 0.390465
-0.188817 -0.18571 0.390465
-0.269714 0.233709 0.362585
-0.142907 0.0546552 0.384596
0.0736772 0.260723 0.390465
-0.29888 -0.0329129 0.390465
-0.00678071 -0.205443 0.390465
0.0263214 0.268146 0.40604
-0.141573 -0.0120238 0.347886
0.243301 0.150129 0.390465
0.314333 0.285866 0.40604
0.0566173 0.205591 0.390465
0.138014 -0.100552 0.390465
-0.217438 -0.239752 0.40604
0.000328034 -0.0712711 0.390465
-0.20371 0.15623 0.353797
0.186298 0.00936292 0.360349
-0.341505 -0.281592 0.0119696
-0.138131 0.208919 0.40604
-0.188564 0.018088 0.40604
-0.246573 0.239971 0.40604
-0.319638 -0.28238 0.0602298
0.267071 0.16517 0.40604
-0.0122496 0.248981 0.390465
-0.114437 0.209738 0.390465
0.165851 0.113048 0.390465
0.261904 0.158862 0.390465
0.182051 -0.101393 0.354068
-0.217885 -0.202415 0.390465
-0.294405 -0.259795 0.213559
-0.344637 0.272954 -1.23027e-18
0.114159 0.208503 0.40604
0.168634 -0.101213 0.40604
-0.202534 0.177083 0.390465
-0.24695 0.177192 0.358137
0.298791 -0.295371 0.40604
-0.20433 0.157238 0.390465
-0.00968128 -0.122692 0.390465
0.0653324 0.186199 0.390465
0.106828 -0.0860485 0.390465
0.289271 0.226195 0.370103
-0.274334 -0.231084 0.385272
-0.0169328 0.122866 0.390465
0.142897 -0.245103 0.390465
0.183102 -0.0678098 0.390465
-0.0554553 0.0844835 0.390465
0.0459307 -0.299198 0.40604
0.0637106 -0.0549451 0.40604
-0.0992021 -0.271296 0.40604
0.102854 -0.111234 0.390465
0.0316795 -0.0236195 0.40604
0.318264 -0.276921 0.0753667
-0.29297 0.225186 0.321711
-0.300183 -0.144919 0.40604
0.191952 -0.0533944 0.40604
0.146311 -0.239922 0.390465
0.0182846 -0.192462 0.40604
-0.0287129 0.221508 0.390465
-0.0448519 0.290685 0.390465
0.0390397 -0.279502 0.40604
0.27348 0.0494974 0.390465
0.196502 -0.175271 0.390465
-0.316801 0.256526 0.147214
0.071062 0.271431 0.390465
-0.174673 0.00885623 0.385272
-0.257457 0.246119 0.40604
-0.240691 -0.273949 0.390465
0.226821 -0.0775105 0.40604
0.309927 0.270479 0.0745438
-0.0968243 -0.27041 0.390465
0.210965 0.31154 0.400248
-0.177571 -0.197687 0.390465
0.154747 0.0887272 0.385272
-0.0786358 0.0477346 0.390465
0.337514 0.280346 0.0379273
-0.21957 0.0629791 0.40604
-0.0765559 -0.0325975 0.40604
0.0713027 0.102712 0.40604
0.0256847 0.258577 0.390465
-0.309456 0.25116 0.23122
0.0582285 0.0177532 0.390465
-0.0526784 0.116165 0.40604
-0.0021188 0.0224659 0.40604
-0.239879 0.296022 0.390465
0.322476 0.261648 0.101778
0.0138869 -0.169132 0.390465
0.093343 0.033283 0.365484
0.25924 -0.186853 0.373137
-0.310717 0.277344 0.104952
-0.0960874 0.00374885 0.354018
0.187342 -0.0111713 0.364353
0.303741 -0.239025 0.266192
-0.13312 0.104215 0.40604
0.285337 0.22715 0.252348
-0.0330742 0.0284594 0.390465
0.205129 -0.0608534 0.390465
0.133046 -0.0758846 0.390465
0.139057 -0.129491 0.40604
-0.244621 0.125148 0.40604
-0.102489 -0.164002 0.390465
0.328016 -0.250295 0.00575692
0.0945135 0.012461 0.348085
-0.0431872 -0.245831 0.40604
-0.293135 -0.0629888 0.390465
-0.299991 -0.265069 0.178794
0.125091 0.0331308 0.40604
0.310918 0.274884 0.0655146
-0.156007 0.017088 0.390465
-0.00567386 0.293104 0.40604
-0.0970357 -0.0418501 0.390465
-0.256431 0.189276 0.342599
0.326973 0.255527 0.00519235
-0.180192 -0.261641 0.40604
-0.144347 -0.258301 0.40604
0.0373066 0.31154 0.403299
0.175447 0.012461 0.377861
0.150554 -0.156471 0.390465
0.182185 -0.0992929 0.361713
-0.263953 0.205561 0.385272
-0.00489554 -0.0677333 0.40604
-0.10282 -0.0786517 0.390465
-0.116836 -0.0529901 0.390465
0.302059 -0.306342 0.40604
0.253416 -0.104475 0.40604
0.05658 0.287839 0.390465
0.204636 -0.208236 0.40604
0.133568 0.078995 0.358203
-0.122789 -0.137596 0.390465
-0.0617791 0.225312 0.390465
0.305994 0.288251 1.33328e-18
-0.146699 0.277973 0.390465
0.275718 0.233202 0.40604
0.247916 -0.133304 0.360349
-0.0488579 -0.240652 0.390465
-0.00456509 0.101479 0.390465
-0.102763 0.0204954 0.385272
0.162458 -0.234094 0.40604
-0.184312 0.178687 0.40604
-0.237911 -0.113571 0.390465
-0.0280216 -0.198701 0.390465
-0.17597 -0.0861961 0.40604
-0.0926807 -0.156482 0.390465
0.271882 -0.229586 0.291029
0.114498 -0.2686 0.390465
-0.217144 -0.139016 0.362767
0.281226 0.222333 0.276584
-0.27536 -0.240127 0.349912
-0.205543 -0.30429 0.40604
-0.27424 0.211763 0.390465
0.00931567 0.0959882 0.390465
-0.0712423 1.80232e-07 0.37561
-0.319415 0.00492531 0.40604
-0.305886 0.258297 0.177924
0.324029 0.269445 0.0776943
0.0933488 0.0220122 0.385272
0.31985 0.058111 0.397839
0.231804 -0.183247 0.390465
-0.319848 0.0795705 0.39859
0.122436 -0.0313939 0.381713
0.302558 0.26577 0.166956
-0.0612857 -0.0722272 0.390465
0.0507176 0.0547155 0.40604
-0.226887 0.283822 0.40604
0.298519 -0.265349 0.161027
-0.0244662 -0.158326 0.40604
0.113519 -0.292399 0.40604
-0.319848 0.26868 0.405073
-0.195627 0.101308 0.390465
0.0415015 0.146295 0.40604
0.318275 0.0157403 0.40604
0.0235609 0.0317416 0.390465
-0.317966 0.252745 0.00519235
-0.274578 0.296805 0.390465
0.0888859 -0.0353168 0.390465
-0.194992 0.0776085 0.390465
-0.34322 -0.283818 -6.90282e-19
-0.295051 -0.249217 0.24154
0.164241 0.0379739 0.40604
-0.269033 -0.156285 0.40604
-0.309534 -0.244606 0.206317
-0.299793 -0.268051 0.390465
0.309952 0.0914753 0.390465
-0.208061 0.128693 0.36041
-0.335342 -0.252734 0.00519235
0.0824395 0.167511 0.390465
-0.237533 -0.276853 0.390465
-0.308449 0.243373 0.172099
-0.295022 -0.278564 0.390465
-0.291534 0.151168 0.40604
0.210764 -0.208041 0.390465
-0.194882 0.270517 0.40604
-0.292801 0.114013 0.390465
0.12949 0.0237228 0.390465
-0.255795 -0.31154 0.394858
-0.277372 0.229826 0.358943
0.201042 -0.199155 0.390465
0.060385 0.132136 0.40604
0.218819 0.253215 0.390465
-0.0811833 -0.0652951 0.390465
-0.157964 -0.0530146 0.40604
-0.176184 -0.127423 0.381131
-0.0462402 0.0971896 0.40604
-0.2125 0.144856 0.40604
0.181655 -0.280241 0.390465
-0.264382 0.286772 0.390465
0.246826 -0.292918 0.390465
0.0951765 -0.303571 0.390465
-0.289075 0.220762 0.320043
0.230406 -0.07523 0.40604
0.0826939 0.284073 0.40604
0.193056 0.0598449 0.40604
0.304989 0.31154 0.403919
0.290198 0.226161 0.252088
-0.0504908 -0.0124627 0.369617
0.328133 0.27486 0.102027
0.149191 0.10786 0.40604
0.311315 -0.279297 0.0679979
-0.319848 0.272562 0.398297
-0.283275 0.214167 0.375702
0.21268 0.0948833 0.390465
0.108851 -0.0460039 0.360349
0.269559 -0.31154 0.400346
-0.283612 -0.241453 0.305107
-0.32685 0.29308 0.0273836
0.193793 -0.109315 0.390465
-0.25006 -0.100069 0.40604
0.237745 0.0887012 0.390465
0.0501043 0.225915 0.40604
0.26789 0.095069 0.390465
0.0213274 0.0518824 0.40604
-0.00157711 -0.0893236 0.390465
-0.0651231 0.0133191 0.390465
0.309427 -0.250256 0.390465
0.319527 0.30269 1.29258e-18
-0.0405571 -0.000240266 0.40604
-0.305746 -0.261024 0.150994
-0.0329354 -0.0480043 0.390465
-0.0426049 0.194357 0.40604
-0.0881782 -0.264175 0.40604
-0.288174 -0.241139 0.251595
-0.179464 -0.093043 0.390465
-0.204872 0.187186 0.390465
-0.0168058 0.0293588 0.40604
0.239415 -0.286844 0.40604
0.304117 -0.237849 0.244256
-0.252066 -0.0795471 0.390465
-0.0713911 0.099657 0.390465
-0.324131 -0.269496 0.0772662
0.151576 0.0994563 0.360407
-0.0967412 0.012461 0.37239
0.292896 -0.260054 0.204527
0.15961 0.0833824 0.390465
0.262365 0.15711 0.40604
0.111318 0.00187074 0.347886
-0.333181 0.272415 0.0330536
0.322971 -0.271075 0.0766174
0.100403 -0.244986 0.390465
0.286726 0.244437 0.2477
0.178581 -0.0289739 0.40604
0.261389 -0.265061 0.40604
-0.319848 0.0305935 0.391536
-0.0852521 -0.18983 0.40604
0.16425 -0.0259105 0.390465
0.218184 0.0547406 0.40604
-0.21874 -0.16362 0.390465
0.171417 0.161569 0.390465
-0.0935194 1.80232e-07 0.379131
0.22821 -0.167364 0.360349
-0.0155019 0.17573 0.40604
0.080141 -0.00258414 0.385272
0.185534 0.138049 0.357302
0.156649 0.30168 0.390465
-0.251925 0.123012 0.40604
-0.133078 0.077062 0.355141
-0.296341 0.129023 0.390465
0.0995814 0.301608 0.390465
0.322407 0.284942 0.0894928
0.0246253 -0.108638 0.390465
-0.0134091 -0.0467383 0.390465
-0.0857124 0.281025 0.390465
0.310836 -0.254816 0.152304
0.091544 -0.0242493 0.385272
0.127552 0.210986 0.390465
-0.277555 0.0477165 0.390465
-0.280631 0.235924 0.244349
-0.282187 -0.238558 0.318611
0.114724 -0.0341724 0.348381
0.271267 0.2317 0.294141
0.311416 0.255875 0.214991
-0.150371 -0.073298 0.348946
0.0398495 0.00931609 0.40604
-0.252246 -0.213858 0.375576
-0.300918 -0.0864005 0.390465
0.236648 0.246715 0.40604
0.0345424 0.31154 0.390536
-0.0505885 0.222381 0.40604
0.173336 0.0977985 0.385272
-0.199124 0.264142 0.390465
-0.274815 -0.22729 0.315291
-0.261659 -0.030635 0.390465
0.323867 -0.283003 0.0208898
0.212232 -0.287567 0.40604
-0.319848 -0.108399 0.39533
0.315301 0.256171 0.136107
0.21132 -0.171154 0.40604
-0.160308 0.276952 0.40604
0.238639 -0.00505978 0.40604
0.28261 -0.213408 0.350009
0.00265151 0.111108 0.40604
0.298057 -0.24905 0.203404
-0.304559 -0.25954 0.158166
0.280176 0.212101 0.316295
-0.31469 -0.0380915 0.40604
-0.0998428 0.0425152 0.390465
0.0706708 -0.219478 0.390465
0.0931914 -0.080538 0.40604
-0.20524 -0.231294 0.390465
-0.179481 0.256605 0.40604
-0.277388 0.283529 0.390465
-0.148522 -0.18924 0.40604
-0.180737 -0.284542 0.390465
0.294 0.236118 0.247582
0.140237 -0.128678 0.40604
0.301418 0.268202 0.163579
0.308142 0.219031 0.40604
-0.216268 0.128049 0.390465
0.220279 0.171315 0.360349
-0.105726 0.029056 0.347886
0.164022 -0.301944 0.390465
-0.0794989 0.0125536 0.351048
0.264001 -0.197715 0.335939
0.199707 0.0419519 0.360349
-0.243234 0.159543 0.40604
-0.326407 -0.276133 0.0555459
-0.133516 -0.0124627 0.365857
-0.289283 0.22681 0.369277
-0.00280949 -0.0297193 0.40604
-0.273776 -0.290327 0.40604
-0.203204 -0.00799766 0.390465
-0.12998 0.224155 0.390465
-0.0241257 0.268729 0.390465
0.29587 0.199681 0.390465
0.303125 -0.173351 0.40604
0.0320944 -0.0709281 0.390465
-0.133413 -0.262752 0.40604
0.253567 -0.180406 0.379923
-0.208051 0.10358 0.40604
0.31985 0.0661979 0.39266
0.0989472 0.219332 0.40604
-0.0718137 0.285235 0.390465
-0.255731 0.30642 0.390465
-0.217051 0.138911 0.374775
-0.221409 -0.176236 0.353666
-0.265812 -0.203031 0.390465
0.276928 -0.212952 0.310478
0.151951 0.0692764 0.351508
0.139029 -0.131825 0.40604
0.166364 -0.081313 0.359177
0.290982 -0.225762 0.326993
0.110618 0.0342509 0.347886
0.284559 0.264937 0.390465
0.306772 0.0227601 0.40604
-0.291448 -0.233216 0.262181
0.219387 0.141564 0.380844
0.31985 0.234226 0.40262
0.274296 0.254237 0.390465
-0.194077 -0.207744 0.390465
-0.274987 -0.239702 0.35012
-0.00331697 -0.26204 0.390465
0.197631 -0.224564 0.40604
0.105318 -0.191576 0.40604
0.203924 0.271425 0.390465
-0.162182 -0.111512 0.374225
0.0101191 -0.237055 0.390465
0.0418221 0.252416 0.40604
-0.18926 -0.110232 0.385272
-0.0152446 0.0532747 0.390465
0.143934 0.0911004 0.390465
-0.304869 0.273196 0.137047
0.227003 0.151719 0.385272
-0.0406011 0.164751 0.390465
0.0468535 -0.289548 0.390465
0.00594342 -0.0937298 0.40604
-0.0340255 -0.0391015 0.390465
0.311964 -0.27129 0.00519235
-0.0322529 0.184598 0.40604
0.290537 -0.24588 0.266723
0.0270791 -0.22356 0.390465
0.314128 0.192094 0.40604
-0.128868 -0.167272 0.390465
-0.231622 -0.151541 0.390465
-0.236033 0.279792 0.390465
-0.136994 -0.0124627 0.351351
0.318637 -0.286157 0.0510359
-0.100504 0.15569 0.40604
0.109285 0.100175 0.390465
-0.0221691 -0.271362 0.390465
-0.156622 -0.0725192 0.360349
0.232087 0.127048 0.360349
0.156606 -0.0702235 0.383073
-0.264597 -0.149408 0.40604
0.185667 -0.297886 0.390465
-0.0998958 -0.124026 0.390465
0.158275 -0.106336 0.35593
0.283553 -0.234399 0.378319
0.0292641 -0.0124627 0.374584
0.180337 0.132139 0.366394
-0.097395 -0.0348747 0.40604
0.281137 0.211734 0.372449
-0.31062 0.264218 0.390465
0.305469 0.261133 0.170911
0.174261 -0.250796 0.40604
0.0742328 0.31154 0.391504
0.276432 -0.206389 0.344538
0.331546 -0.274276 0.0413544
0.292408 0.276937 0.40604
0.0295084 -0.0124627 0.36793
-0.274887 0.279989 0.40604
0.0655097 0.00158247 0.385272
-0.1734 -0.117986 0.390465
-0.317554 0.277731 0.0812189
-0.32216 -0.260372 0.105433
0.295719 -0.056613 0.390465
-0.190576 0.112979 0.385272
-0.298353 -0.0107629 0.390465
-0.241805 -0.201993 0.357894
0.283347 -0.262212 0.390465
0.135963 0.198829 0.390465
-0.0842605 0.012461 0.356399
0.286882 0.229184 0.330697
-0.135949 0.0651792 0.360349
0.194396 0.274202 0.40604
-0.0986848 0.00673477 0.353976
-0.148919 0.0781392 0.385272
-0.0404683 0.00408604 0.347886
0.312559 0.282397 0.0779597
0.279922 0.215372 0.40604
0.109618 -0.253683 0.390465
-0.300328 0.255328 0.205535
-0.00119504 -0.16541 0.40604
-0.295196 0.231217 0.256794
-0.218728 0.140818 0.35938
-0.283522 -0.235558 0.374963
-0.314997 0.281833 0.0434567
0.283321 -0.00774112 0.390465
-0.227263 0.116175 0.360349
-0.20322 -0.063282 0.40604
-0.244966 -0.177071 0.348391
0.223 0.134693 0.40604
-0.243663 0.0408812 0.390465
0.285917 -0.2415 0.257166
0.305577 -0.250569 0.20319
-0.262483 -0.0386366 0.390465
0.301036 0.244658 0.205982
0.254872 -0.102143 0.390465
0.221893 -0.190982 0.390465
0.0561128 0.202253 0.40604
-0.221922 0.0175636 0.40604
0.273719 -0.205241 0.385272
-0.255113 0.31154 0.395871
0.303845 -0.265758 0.144492
-0.334471 0.272345 0.0344823
-0.126404 0.196387 0.390465
0.205903 0.218677 0.40604
0.285289 0.31154 0.396438
0.274265 0.277411 0.390465
-0.134211 0.179076 0.40604
-0.174779 -0.0124627 0.384424
-0.2384 0.0600125 0.40604
-0.333387 0.280547 0.00519235
-0.318841 -0.284196 0.0553789
0.0986998 0.0661048 0.40604
0.20701 -0.0837893 0.40604
-0.0659265 0.221072 0.40604
0.280489 0.229268 0.40604
-0.211532 -0.135785 0.360349
-0.158909 -0.175589 0.390465
-0.19322 -0.223675 0.390465
-0.0128843 0.012461 0.38208
0.0891812 0.176434 0.40604
-0.109289 -0.028895 0.390465
0.301885 0.151285 0.390465
0.0305931 0.0491434 0.390465
0.0131277 0.185827 0.390465
-0.278228 -0.22367 0.374361
-0.23679 -0.0761694 0.390465
0.0414207 0.158663 0.390465
-0.180232 -0.103971 0.390465
0.22875 0.175303 0.390465
-0.102272 0.223224 0.390465
0.0141689 0.186659 0.390465
-0.0486465 -0.203496 0.390465
-0.295739 -0.254884 0.268539
-0.202819 0.0430072 0.390465
-0.177844 -0.101353 0.385272
-0.249339 -0.124473 0.390465
0.17869 -0.176976 0.40604
-0.314711 -0.0196134 0.40604
0.191615 0.0617217 0.40604
0.198871 -0.148813 0.35145
-0.304788 -0.272084 0.141507
0.0662423 -0.0507724 0.390465
-0.271821 0.207992 0.322456
-0.155435 -0.109802 0.40604
-0.192793 -0.233045 0.40604
-0.317688 -0.277014 0.0171569
0.302349 -0.265148 0.170555
-0.11661 0.0247711 0.364681
0.0432598 0.0809353 0.40604
0.315016 -0.295267 1.19323e-18
-0.133381 -0.123095 0.390465
0.130662 0.1933 0.40604
0.256469 0.206745 0.346872
0.288352 0.233349 0.311365
0.0138173 0.30927 0.40604
0.323855 0.275126 0.00519235
0.269593 0.0989552 0.40604
-0.310949 0.260356 0.137722
-0.318472 -0.28401 0.0562005
0.124384 -0.301128 0.40604
-0.288423 0.247376 0.196887
0.126276 0.291713 0.390465
-0.254536 -0.0860209 0.40604
0.149909 0.145245 0.40604
0.287577 -0.243947 0.246251
0.162042 -0.164633 0.40604
-0.213877 0.135348 0.390465
-0.265872 -0.027033 0.40604
-0.231834 0.155711 0.381374
0.343425 0.270249 0.00519235
0.108873 0.0475567 0.352695
0.206508 -0.2482 0.390465
0.334704 -0.277122 0.024773
0.121399 0.012461 0.383147
-0.0880626 0.0363593 0.390465
0.0409672 0.157512 0.40604
-0.201 0.0928469 0.40604
-0.313208 -0.25448 0.207012
-0.217792 -0.267986 0.40604
-0.268351 0.204794 0.340962
0.0668679 0.0366648 0.40604
-0.31273 0.247861 0.150145
-0.295179 -0.25606 0.222097
-0.178072 0.186446 0.390465
0.181909 0.304 0.40604
0.299118 0.31154 0.400532
0.315583 -0.285281 0.0457352
0.274565 -0.221779 0.293732
-0.204165 0.295951 0.40604
-0.261189 -0.00214383 0.40604
0.158088 -0.0967841 0.390465
0.101618 0.012461 0.374174
-0.130474 -0.282292 0.40604
0.0316093 -0.238688 0.40604
-0.0608723 -0.217434 0.40604
-0.307764 0.272633 0.1158
-0.13766 0.28763 0.390465
-0.193693 0.123804 0.360349
0.288503 -0.253856 0.21875
-0.0140796 0.0815189 0.40604
0.328149 -0.270357 0.0208831
0.173261 0.203419 0.40604
-0.269806 -0.198862 0.384661
0.281656 -0.24355 0.305492
0.257961 -0.0104113 0.390465
0.26822 0.188395 0.390465
0.225594 -0.146188 0.390465
0.148673 0.151052 0.390465
-0.161169 -0.0754075 0.378011
-0.137179 0.012461 0.375435
-0.250321 -0.181013 0.40604
-0.238469 0.307837 0.40604
0.032252 0.073703 0.40604
0.114387 0.00241798 0.40604
-0.311976 -0.246785 0.176856
-0.319848 -0.210461 0.396508
0.282605 -0.107229 0.390465
0.296829 0.254186 0.193977
0.0531901 -0.129228 0.390465
-0.227203 -0.31154 0.403231
-0.0628376 -0.103333 0.390465
0.13445 0.115834 0.40604
0.059099 -0.31154 0.394768
-0.146493 0.00404432 0.40604
-0.315555 -0.222158 0.40604
-0.159644 0.288216 0.390465
0.233571 -0.192635 0.368349
0.314757 -0.265052 0.18174
0.0106031 -0.310378 0.40604
-0.297883 0.2652 0.163038
0.153502 -0.286273 0.40604
-0.31957 -0.270263 0.0290444
0.288649 0.25246 0.255065
-0.114539 -0.00721848 0.390465
-0.260683 0.0340978 0.40604
-0.240568 -0.0589322 0.40604
-0.308058 -0.276327 0.117697
0.0595075 0.0804292 0.390465
-0.283757 0.0472186 0.40604
-0.0328333 -0.0256012 0.40604
0.249165 -0.279806 0.40604
0.259017 -0.240408 0.390465
0.317038 0.271602 0.0922708
-0.289874 0.229267 0.390465
-0.0433411 0.257055 0.40604
0.293841 0.0605192 0.390465
-0.0179331 -0.296271 0.390465
0.31985 -0.0634087 0.402572
-0.0212383 0.235379 0.390465
0.150209 -0.0183356 0.40604
0.207844 -0.27042 0.390465
-0.105432 -0.0445131 0.385272
-0.18407 -0.182823 0.40604
-0.283696 0.236283 0.230735
-0.158379 -0.171064 0.40604
0.053747 -0.107628 0.40604
0.319274 -0.286977 0.402256
-0.207219 0.127737 0.370406
-0.297341 0.279437 0.390465
-0.286599 -0.244532 0.285742
0.284295 0.245244 0.329937
0.0476167 -0.31154 0.394387
0.114663 0.0172762 0.40604
-0.0506293 0.202781 0.40604
-0.13096 0.0760318 0.384202
-0.171038 -0.103788 0.360349
-0.313241 0.253182 0.168288
-0.138706 -0.0588715 0.390465
0.0544981 0.307503 0.390465
0.208652 0.227669 0.390465
0.126225 -0.123162 0.390465
-0.0874155 -0.0166325 0.390465
0.151942 0.132945 0.40604
-0.163806 0.272965 0.40604
0.275875 -0.205756 0.368598
0.148643 -0.0746583 0.360349
0.205909 -0.274755 0.390465
-0.00236952 -0.0203888 0.390465
0.122098 0.304825 0.40604
0.198314 -0.11762 0.371173
-0.232386 0.139161 0.390465
0.0871295 0.140276 0.390465
-0.309564 -0.247355 0.230795
-0.0400978 -0.283837 0.40604
0.301073 -0.253957 0.182411
-0.289453 0.248895 0.305543
-0.309333 0.249648 0.233707
-0.292301 0.164496 0.390465
-0.145803 0.0957117 0.390465
0.0889644 1.80232e-07 0.361737
-0.312233 -0.270626 0.119814
-0.138659 0.0589445 0.40604
-0.115246 -0.020465 0.40604
0.247004 0.021376 0.40604
0.135586 0.140314 0.40604
0.115834 -0.0368004 0.360349
-0.20033 0.142919 0.348214
-0.0678216 -0.274909 0.40604
0.0921714 0.000436957 0.347886
-0.30259 -0.173414 0.390465
0.268317 0.220653 0.308437
-0.0758302 -0.276363 0.40604
0.142704 -0.0788438 0.385272
0.279471 -0.240248 0.320865
0.209622 -0.0779673 0.390465
-0.329399 0.280552 0.00519235
0.123048 0.293595 0.390465
-0.00022018 0.192205 0.40604
0.273954 0.209806 0.333421
-0.148475 -0.267679 0.390465
-0.248465 0.22625 0.390465
0.30741 0.247611 0.205806
0.280039 -0.218776 0.385087
-0.139452 -0.0848234 0.360349
0.0506202 -0.00569073 0.385272
0.171776 -0.0916837 0.360349
-0.148427 0.308856 0.390465
-0.117573 -0.22453 0.40604
0.231155 -0.186591 0.358962
0.266549 -0.27242 0.390465
0.134101 0.302577 0.40604
-0.294517 -0.227116 0.309078
0.0455595 -0.142487 0.390465
-0.296356 -0.310267 0.40604
-0.270389 0.306014 0.40604
-0.289325 -0.238753 0.254605
0.11195 -0.0194782 0.364698
0.271071 0.100457 0.390465
0.315893 -0.284941 0.0338354
0.281494 0.212139 0.320736
-0.0661551 0.012461 0.348491
-0.156448 0.188425 0.40604
0.134478 0.00280294 0.40604
-0.164788 -0.0795199 0.37192
-0.186789 -0.195682 0.390465
0.0596122 0.019029 0.40604
-0.0251816 0.299375 0.40604
0.193549 0.121679 0.40604
0.157605 -0.106308 0.362008
-0.0618494 -0.228651 0.40604
0.295586 0.234115 0.212335
-0.0450085 0.0811186 0.390465
-0.305636 0.185107 0.40604
-0.253774 -0.264126 0.40604
0.21743 0.020948 0.40604
0.0730374 -0.0807736 0.40604
-0.132891 0.0157902 0.390465
0.293329 0.250294 0.171371
-0.0987667 -0.148306 0.390465
-0.206481 0.128075 0.355399
-0.186949 -0.102321 0.40604
-0.327043 -0.282209 0.00519235
-0.0256903 -0.207963 0.390465
0.174024 -0.034865 0.40604
-0.303952 0.258619 0.184627
0.0838999 -0.20323 0.40604
-0.0954619 0.101547 0.390465
0.114615 -0.153089 0.40604
0.277575 -0.277012 0.40604
0.0292641 -0.271488 0.390465
-0.306326 0.240365 0.205118
-0.229147 -0.139735 0.390465
-0.275019 0.239741 0.314444
-0.0353337 0.012461 0.355398
-0.196878 0.279494 0.40604
0.183863 -0.10902 0.40604
0.206127 -0.0251988 0.40604
-0.329534 -0.270958 0.0979293
0.193485 0.0121403 0.360349
-0.167435 0.0333138 0.40604
-0.0768901 0.215536 0.40604
-0.283695 -0.227577 0.252784
-0.300264 -0.254323 0.262603
0.199027 0.0438301 0.390465
0.307507 -0.0329408 0.390465
0.30634 0.0543897 0.40604
-0.0265853 -0.0853666 0.40604
0.113483 0.244385 0.40604
-0.0865021 0.0977063 0.40604
-0.282604 -0.172423 0.40604
0.0973362 -0.191301 0.390465
0.144687 0.112667 0.40604
0.30226 -0.254473 0.255418
0.0752581 1.80232e-07 0.362025
0.138463 -0.136522 0.40604
0.0756342 1.80232e-07 0.357074
-0.180462 -0.0973316 0.364794
0.310802 0.260794 0.153898
-0.186368 0.19634 0.40604
-0.0769163 0.0998228 0.390465
0.110263 -0.298756 0.40604
-0.275887 -0.185009 0.390465
-0.104415 0.267543 0.40604
-0.257066 0.199703 0.40604
-0.290826 -0.222753 0.305538
0.31985 0.0532057 0.40175
-0.322602 -0.279478 0.0584557
0.0657099 -0.168755 0.40604
0.054996 -0.070667 0.390465
0.143587 -0.0837237 0.360349
-0.134251 0.0544575 0.385272
-0.282023 0.238423 0.365372
-0.168395 0.100908 0.390465
-0.319848 0.253653 0.393554
-0.122714 -0.0525248 0.360349
0.125139 0.0379023 0.385272
0.241348 -0.124366 0.40604
-0.153812 0.244921 0.40604
0.264702 -0.279356 0.40604
0.160278 0.0801398 0.390465
0.0573237 -0.116947 0.40604
-0.240058 0.108406 0.40604
-0.111351 -0.0537486 0.358044
0.162377 -0.31154 0.395152
-0.319848 0.278391 0.395409
-0.179929 -0.0735322 0.40604
-0.075612 0.0597308 0.390465
-0.29234 0.259424 0.216281
0.00131723 -0.086706 0.40604
-0.0705313 -0.220402 0.390465
0.250239 0.0469425 0.40604
-0.104626 0.258353 0.390465
0.112421 -0.201601 0.390465
-0.068804 0.0191975 0.390465
0.171651 0.112695 0.349184
-0.0776644 0.266137 0.390465
-0.121668 -0.0214791 0.390465
0.142288 0.136651 0.40604
0.282975 0.244221 0.258727
