0.0228302 -0.298561 0.40604
0.209559 -0.185745 0.40604
0.130565 0.295928 0.40604
0.31985 0.161939 0.400809
-0.305017 0.263084 0.104624
-0.116511 0.0520222 0.349991
0.277164 -0.241566 0.34315
-0.14704 -0.0688752 0.349207
-0.276244 -0.220447 0.292262
-0.318472 0.124682 0.40604
0.303051 0.31154 0.399982
-0.0268785 -0.0687125 0.390465
-0.317385 -0.156538 0.390465
0.31406 -0.108041 0.40604
-0.176084 0.207116 0.40604
-0.211229 -0.233326 0.40604
0.120348 -0.0089789 0.347886
0.0557487 0.189624 0.40604
0.125014 -0.172338 0.390465
0.26854 -0.301656 0.390465
-0.330442 -0.282324 0.0773903
0.0907591 -0.243845 0.40604
-0.152216 -0.00636408 0.40604
0.207599 0.0185998 0.40604
0.202343 0.139113 0.40604
-0.0191353 -0.0455807 0.40604
-0.294404 0.240804 0.322614
0.326285 0.278817 0.101857
-0.0595582 0.209892 0.40604
0.281559 0.225747 0.263563
0.152883 0.012461 0.364311
-0.0493068 -0.249249 0.390465
-0.0535164 0.0446146 0.40604
-0.319848 0.249989 0.399546
0.235528 0.00838935 0.40604
0.317854 0.29555 0.405812
0.00808528 0.0892483 0.390465
-0.207546 -0.310544 0.40604
0.0682473 -0.100025 0.390465
-0.141547 0.121058 0.390465
-0.22925 -0.0206513 0.40604
-0.172936 0.00903254 0.347886
0.329794 -0.274131 0.093959
0.266219 -0.156027 0.40604
0.225895 0.285778 0.40604
-0.253539 -0.127403 0.40604
-0.238615 0.222525 0.40604
-0.101319 0.310714 0.40604
0.154753 -0.0692368 0.355459
0.163535 0.0902289 0.34814
0.299286 -0.254958 0.26332
-0.179764 -0.131492 0.368911
-0.28889 -0.229489 0.368166
0.27528 0.0876108 0.40604
0.188695 -0.113472 0.40604
-0.109952 -0.0766432 0.40604
-0.254816 -0.21678 0.371328
0.213567 -0.238605 0.40604
0.0854916 0.00625271 0.40604
-0.18753 0.140317 0.358039
0.163532 -0.0136411 0.40604
-0.0188579 0.280504 0.390465
-0.275108 0.0547794 0.40604
0.0797447 -0.270029 0.40604
0.0014087 0.247779 0.390465
-0.0632419 -0.0124627 0.353812
0.275075 -0.204847 0.371846
-0.170942 0.0657611 0.390465
0.0742963 0.213932 0.40604
-0.0109988 0.15636 0.390465
-0.0456073 -0.169032 0.390465
0.214177 0.179397 0.40604
-0.316698 0.192339 0.390465
0.135505 0.162749 0.40604
0.0297128 -0.0214681 0.40604
0.275395 0.24016 0.338143
-0.319848 -0.225064 0.391755
-0.216858 0.148196 0.40604
-0.323103 -0.266152 0.139625
-0.313123 0.251064 0.174985
-0.120435 0.250414 0.390465
0.152407 0.072466 0.40604
0.261141 -0.0656936 0.40604
-0.0947777 -0.0352536 0.40604
-0.31744 0.267993 0.0534111
-0.205804 0.284154 0.390465
-0.131062 -0.239526 0.40604
-0.305845 -0.0894826 0.40604
0.224738 -0.154148 0.350438
0.0762378 0.122984 0.390465
-0.110376 0.174258 0.390465
-0.0495978 -0.310866 0.40604
0.0497235 -0.223428 0.40604
0.069075 -0.168705 0.390465
0.281701 0.231847 0.40604
0.00366947 0.0305381 0.40604
0.144885 -0.23524 0.40604
0.00174522 -0.0750302 0.390465
-0.156741 0.105329 0.368367
-0.169112 -0.0703918 0.390465
0.121948 -0.0382617 0.40604
-0.0653055 -0.115201 0.40604
-0.263783 -0.273424 0.40604
-0.0871191 0.0035736 0.40604
-0.253287 0.285052 0.40604
-0.300444 -0.233683 0.235504
-0.232207 0.0371786 0.40604
-0.120311 0.0668947 0.40604
-0.178199 -0.179862 0.390465
0.106596 0.0483433 0.3681
0.260637 0.14446 0.390465
0.172761 -0.123532 0.369121
0.318778 -0.0392137 0.390465
0.067036 0.0543571 0.40604
-0.258136 0.105802 0.390465
0.31985 0.193643 0.391672
-0.184627 -0.148947 0.40604
0.109189 -0.301424 0.40604
0.33007 -0.287582 0.0630036
0.202545 0.220927 0.390465
0.313522 -0.285101 0.390465
0.262639 -0.251659 0.390465
-0.19536 0.230091 0.390465
0.217908 0.163053 0.348283
0.31985 -0.167137 0.391417
-0.174829 0.012461 0.377266
0.31985 0.0844738 0.404568
0.211917 0.0691789 0.390465
0.000759512 -0.24982 0.40604
0.142277 -0.0124627 0.365817
-0.0687702 0.0980975 0.390465
0.335523 0.283874 0.0513408
-0.136849 0.012461 0.357888
0.308779 -0.248877 0.137371
0.309894 0.255206 0.223988
-0.180923 -0.0532702 0.390465
-0.281085 0.236891 0.373916
0.264142 0.280263 0.40604
0.241801 -0.132409 0.360349
0.111601 -0.123305 0.40604
0.204094 -0.290228 0.40604
-0.00719732 0.17416 0.40604
-0.22987 -0.165888 0.40604
0.163723 -0.15105 0.390465
0.233683 -0.0961201 0.40604
0.32069 0.252804 0.00986585
0.284533 -0.0528794 0.40604
-0.2714 -0.194134 0.40604
-0.273761 -0.203357 0.373203
-0.0850292 -0.233104 0.390465
-0.161851 -0.19475 0.390465
-0.00245118 -0.129285 0.40604
-0.316308 0.257899 0.00173796
-0.134325 -0.120563 0.40604
-0.0892132 0.278483 0.40604
-0.27505 0.238273 0.27699
-0.261827 -0.218611 0.323339
0.0885122 0.183516 0.40604
0.210946 -0.0338571 0.390465
-0.333275 -0.286463 0.0219779
0.112177 0.253528 0.390465
-0.264107 -0.169042 0.40604
-0.266516 0.147196 0.390465
0.311148 0.265148 0.140644
-0.319848 0.0881708 0.402414
0.268544 -0.128903 0.390465
-0.143701 0.186135 0.390465
0.177104 0.271336 0.40604
-0.195458 -0.0985983 0.40604
0.236213 -0.221437 0.40604
0.0665965 0.262784 0.390465
0.278481 0.0469378 0.390465
0.138221 -0.0493318 0.371037
-0.0155577 0.0651068 0.390465
-0.103382 0.243316 0.40604
0.240783 0.172341 0.40604
-0.100775 0.122345 0.40604
-0.211675 -0.273693 0.40604
-0.270261 -0.0753405 0.390465
-0.0278487 0.111259 0.40604
0.0163797 0.275005 0.390465
-0.271182 -0.0514989 0.40604
0.288408 -0.235872 0.218234
-0.10536 -0.0387315 0.349739
0.342444 -0.303824 0.00519235
-0.208305 0.107229 0.40604
0.162438 -0.191759 0.390465
0.0712546 -0.0591457 0.40604
-0.156595 0.293548 0.40604
-0.312361 0.307687 0.40124
-0.272132 0.00901243 0.390465
0.208511 0.0964683 0.40604
0.0732689 -0.0124627 0.350797
0.243031 -0.202509 0.354131
-0.158353 0.261554 0.40604
-0.17531 -0.282296 0.390465
-0.271209 0.18978 0.390465
-0.0481162 0.012461 0.373657
-0.264329 0.196959 0.337107
0.0889962 0.265613 0.390465
-0.00144148 -0.0124627 0.376257
-0.0174352 -0.192317 0.40604
-0.0321187 -0.0124627 0.367177
0.200505 0.120109 0.364488
0.193257 -0.0859856 0.40604
0.271742 -0.225332 0.296001
0.0257223 -0.113304 0.40604
-0.0492631 0.265598 0.390465
0.200045 -0.154538 0.380971
-0.308706 0.0312361 0.40604
0.146749 0.122831 0.390465
-0.0187379 -0.109186 0.40604
0.271391 0.229611 0.293262
0.0848796 0.29036 0.390465
-0.09372 -0.144677 0.40604
0.138699 0.0498737 0.373508
0.244374 0.0882341 0.390465
0.10946 -0.0515978 0.35757
-0.209867 -0.165701 0.361186
-0.270725 -0.222292 0.40604
0.18696 0.310524 0.390465
0.209718 -0.0123446 0.40604
-0.17109 0.140287 0.390465
0.199175 -0.0226345 0.360349
0.0289784 -0.201379 0.40604
0.298458 -0.237962 0.306408
0.320334 -0.273719 0.137123
-0.0814138 -0.277973 0.40604
0.139506 0.188505 0.40604
-0.107884 -0.275872 0.40604
0.31985 0.241377 0.405275
-0.180886 0.0978136 0.379344
-0.139851 0.0239412 0.40604
0.0330511 0.131433 0.40604
0.159674 -0.0619565 0.40604
-0.0159839 -0.285783 0.390465
-0.245341 0.184294 0.40604
0.139522 0.0427127 0.40604
0.0748738 -0.0124627 0.378182
-0.107682 -0.00288257 0.385272
-0.199046 -0.118451 0.370555
0.000259757 0.00450459 0.40604
0.170349 -0.08584 0.357995
0.234506 0.193696 0.37063
0.0663421 -0.309336 0.390465
-0.186631 0.26884 0.390465
0.316448 0.269704 0.162188
-0.0594602 -0.0558535 0.40604
0.276742 -0.0101993 0.390465
0.0489049 0.0264778 0.40604
-0.290833 -0.244184 0.40604
-0.212777 0.169006 0.379026
-0.136435 -0.0358325 0.40604
0.115818 0.0238726 0.380276
-0.284428 0.171452 0.40604
0.29683 -0.249541 0.159406
-0.221833 -0.0674072 0.40604
0.232593 0.240621 0.40604
0.298395 -0.259037 0.40604
-0.286716 -0.139854 0.390465
-0.312752 0.260962 0.0846938
0.27002 -0.207269 0.323553
0.084495 -0.210245 0.390465
-0.325489 -0.267691 0.0389625
-0.0540684 -0.0274348 0.40604
-0.326605 -0.308061 0.00519235
-0.284329 0.216347 0.40604
0.151526 -0.110845 0.40604
-0.221009 -0.206924 0.390465
0.184572 -0.268826 0.390465
-0.160377 -0.107473 0.354393
-0.172473 -0.24745 0.40604
-0.280892 0.109785 0.390465
0.311955 -0.259084 0.092387
-0.301926 0.264517 0.214396
-0.296848 -0.238624 0.19263
-0.301936 0.249381 0.145117
0.0812853 0.0533993 0.390465
0.289993 0.1386 0.40604
-0.229192 -0.162919 0.348925
0.177153 0.189272 0.390465
0.250241 0.0610144 0.390465
0.27189 0.206243 0.324586
0.31985 0.052663 0.400366
0.0368351 0.222409 0.390465
-0.179268 0.170535 0.40604
0.174133 0.156784 0.40604
-0.238312 0.00472826 0.40604
0.000362843 0.31154 0.402598
-0.078087 -0.199569 0.40604
-0.22376 0.246835 0.40604
-0.199895 -0.0225794 0.360349
0.0204189 0.0559488 0.40604
-0.248007 -0.187562 0.343506
-0.0340609 -0.221918 0.40604
0.116144 -0.198281 0.390465
-0.0897523 0.0292052 0.375975
-0.24002 -0.300503 0.390465
-0.307546 -0.261767 0.0976304
-0.108374 0.205738 0.40604
0.260513 0.160672 0.360349
0.0351617 -0.0124627 0.3612
0.10637 -0.0192586 0.390465
-0.294912 -0.25475 0.159559
-0.285723 0.270725 0.390465
0.107862 -0.261749 0.40604
0.137876 -0.0838896 0.37895
0.00981793 0.198855 0.390465
0.222034 0.256527 0.390465
-0.31895 -0.190875 0.390465
-0.324913 0.292905 0.0288761
0.251102 -0.180607 0.40604
0.291118 -0.193574 0.40604
0.296714 -0.237173 0.198658
-0.313002 -0.0579562 0.390465
-0.106527 0.136893 0.390465
0.0723165 0.149238 0.390465
-0.13738 0.0923637 0.390465
0.263982 0.227193 0.369787
-0.278633 -0.208892 0.354789
-0.288514 0.241268 0.204259
-0.184921 0.0259457 0.40604
-0.0756462 0.169204 0.390465
-0.116168 -0.206652 0.390465
-0.317474 -0.269233 0.40604
0.298461 -0.0696366 0.40604
0.21276 -0.146722 0.40604
-0.298818 -0.249392 0.282158
-0.303306 0.252954 0.256404
0.293187 0.0235942 0.40604
-0.143533 0.0743705 0.347886
0.178512 0.10909 0.390465
0.243434 0.118226 0.40604
0.163231 0.244862 0.390465
-0.112244 -0.0165071 0.40604
-0.241389 -0.243956 0.390465
0.179782 0.0502425 0.390465
0.0521171 0.0876156 0.390465
0.297432 0.112139 0.390465
0.323757 -0.268219 0.0357604
-0.247613 -0.101926 0.40604
-0.217984 -0.131327 0.390465
0.127616 0.0722298 0.376952
0.291413 0.228269 0.240811
-0.0325646 0.0273202 0.40604
0.148032 -0.274584 0.40604
-0.2454 0.0642305 0.390465
-0.281918 -0.244927 0.32793
0.272451 0.200103 0.40604
0.249491 -0.175777 0.36652
-0.131586 0.153123 0.40604
-0.13741 -0.0124627 0.3611
0.239051 -0.142347 0.390465
0.044546 -0.268897 0.390465
0.0532676 -0.080122 0.390465
-0.328781 0.277846 0.0949389
0.194617 -0.205069 0.40604
-0.0274493 0.209938 0.390465
0.0844477 -0.132228 0.390465
-0.0875571 -0.174379 0.390465
-0.128526 -0.0567263 0.40604
-0.155599 -0.0709974 0.40604
-0.204924 0.0656914 0.40604
0.0531337 0.012461 0.36282
0.226984 -0.261572 0.390465
0.299689 0.278615 0.00844602
0.336873 -0.259481 -1.43174e-18
0.280634 0.177012 0.40604
-0.0295242 0.012461 0.350864
-0.243032 -0.144281 0.390465
0.0477899 -0.141627 0.40604
0.109225 0.159015 0.390465
0.0879437 -0.0433519 0.390465
-0.0466986 -0.13112 0.390465
0.0196065 -0.0385337 0.390465
-0.249542 0.210785 0.363821
0.328793 0.266031 0.0780326
-0.0608746 -0.0913241 0.390465
-0.19569 -0.0184926 0.390465
-0.149565 -0.158673 0.390465
0.297649 0.245299 0.167783
-0.0470383 0.225741 0.390465
-0.0130147 0.105622 0.390465
0.290952 0.276943 0.390465
0.122183 0.226472 0.40604
0.246508 0.305974 0.40604
0.107762 0.309019 0.390465
-0.216041 0.137765 0.359037
0.00800914 -0.220591 0.390465
-0.281133 0.212944 0.314244
-0.302459 -0.270141 0.120772
-0.0826452 -0.31154 0.391032
0.301956 0.248018 0.275415
0.284073 -0.0928789 0.390465
0.270069 -0.281004 0.40604
-0.285317 -0.0252707 0.390465
0.133223 -0.143299 0.40604
-0.120226 0.282598 0.390465
-0.232081 0.186056 0.349572
0.0631173 -0.241254 0.40604
-0.204162 0.128476 0.385272
0.188491 -0.114311 0.349886
-0.261766 0.247571 0.40604
0.208886 0.0746742 0.360349
0.175839 -0.0306254 0.390465
-0.0321991 -0.267344 0.40604
0.0190805 0.111091 0.40604
0.173135 0.217016 0.40604
-0.0990157 0.0659357 0.390465
0.181669 0.013373 0.40604
-0.260548 -0.0157253 0.390465
-0.168371 -0.083592 0.366196
0.10798 0.0482036 0.40604
0.258586 0.248971 0.390465
0.296998 0.237785 0.195853
0.200962 0.155577 0.373834
-0.28018 0.229732 0.349736
0.114826 0.129845 0.40604
-0.349467 0.267666 0.00951332
0.288369 -0.310585 0.390465
-0.0919528 0.0412564 0.40604
-0.173969 -0.309581 0.40604
-0.136456 0.229525 0.40604
-0.229061 0.207542 0.390465
-0.0036207 -0.0124627 0.354581
0.229979 -0.294684 0.390465
-0.271242 0.0863352 0.390465
-0.286576 -0.297901 0.390465
0.180848 -0.224829 0.390465
0.308538 0.269464 0.0819622
-0.319778 -0.113787 0.390465
-0.307067 0.153089 0.390465
-0.294237 -0.258646 0.217563
-0.102829 -0.104045 0.40604
0.0403515 0.274488 0.390465
0.159037 0.184934 0.40604
-0.149577 0.0723858 0.40604
-0.21778 0.0183889 0.390465
0.0458721 0.163446 0.390465
0.308716 -0.01752 0.40604
0.313223 0.109372 0.40604
0.111253 0.201886 0.390465
0.105358 -0.0590651 0.390465
-0.199352 0.187136 0.390465
-0.0996185 0.0139363 0.349637
0.13102 0.268606 0.390465
0.194557 -0.113352 0.3686
0.0938608 0.0139148 0.360349
-0.194839 -0.0630389 0.40604
-0.0624519 -0.285509 0.390465
0.10513 -0.160556 0.390465
0.254173 -0.0205907 0.390465
-0.299689 0.279422 0.00893531
0.348847 0.271586 0.00519235
-0.123171 -0.0671809 0.360207
0.294775 0.250805 0.289193
0.29673 -0.144356 0.390465
-0.250976 -0.177464 0.375072
-0.236365 -0.115977 0.360349
-0.0721739 0.0709292 0.40604
-0.0818749 0.202675 0.390465
-0.189052 -0.209888 0.390465
0.0664105 -0.00618058 0.40604
0.134176 0.00814834 0.40604
0.0527315 -0.201881 0.390465
0.0283969 0.31154 0.39828
-0.29349 -0.257602 0.253653
-0.246884 0.133614 0.40604
-0.279863 -0.104267 0.390465
-0.0882452 -0.0274926 0.376102
0.139239 0.102328 0.40604
0.0504017 -0.0414495 0.390465
0.240838 -0.0760894 0.390465
0.291725 -0.22766 0.275401
0.0281788 0.254934 0.40604
-0.0883898 -0.0697987 0.390465
-0.109265 -0.183253 0.40604
0.292153 -0.219627 0.390465
-0.147878 -0.0950676 0.385272
0.149033 -0.011777 0.390465
0.246969 0.21211 0.390465
0.271215 -0.227033 0.40604
-0.070296 -0.171157 0.40604
-0.136961 -0.262969 0.390465
0.0281446 0.00315931 0.390465
-0.294544 -0.12681 0.40604
-0.163792 -0.113342 0.383135
-0.00628898 -0.155566 0.40604
0.28619 0.246094 0.208467
0.296719 0.147833 0.390465
-0.292082 -0.26885 0.390465
-0.298283 -0.164212 0.40604
-0.250325 -0.0354101 0.390465
-0.0496175 -0.214836 0.390465
-0.141878 0.31154 0.397515
-0.282708 0.29815 0.40604
-0.167997 0.0981577 0.347886
-0.296037 -0.228794 0.260189
-0.142529 -0.207595 0.40604
-0.0386792 0.0512505 0.390465
-0.157173 -0.225187 0.390465
0.272409 0.106773 0.390465
0.136492 -0.299625 0.390465
0.164471 0.114109 0.372996
-0.0339291 0.31154 0.393004
0.0821893 0.104818 0.40604
0.302286 0.269039 0.119933
0.216674 -0.173435 0.377582
0.0338764 -0.239966 0.40604
-0.0921628 -0.00980985 0.347886
-0.300293 0.24022 0.293785
0.187342 -0.00735646 0.382581
0.0270421 -0.152935 0.390465
0.310653 0.265542 0.194145
-0.204198 0.0387785 0.40604
-0.154639 0.230531 0.40604
-0.20768 -0.000550389 0.40604
-0.233041 -0.195174 0.40604
-0.171232 -0.0124627 0.36359
0.188845 -0.31154 0.395061
0.302396 -0.263965 0.216374
-0.315539 0.277769 0.13291
0.228831 -0.103206 0.360349
-0.119798 -0.0283944 0.367894
-0.221563 0.0872773 0.390465
0.223694 0.036605 0.390465
0.165082 0.0286691 0.390465
-0.168721 -0.126379 0.40604
0.284301 -0.216026 0.315981
-0.176045 0.0987954 0.40604
0.298151 -0.266024 0.149673
0.163191 -0.0887698 0.390465
0.157848 0.286574 0.390465
-0.0880268 0.0995764 0.40604
-0.161968 0.116869 0.40604
0.337174 0.281868 0.0246336
0.132502 0.012461 0.37621
0.0932221 -0.181895 0.40604
0.117024 -0.0974174 0.390465
0.113559 -0.23132 0.390465
-0.019117 0.012461 0.374382
0.250478 -0.211849 0.381965
0.00157514 -0.0203935 0.40604
-0.297247 -0.0043751 0.40604
0.177379 0.00145735 0.360349
-0.205521 0.210803 0.40604
-0.0321384 0.164961 0.390465
-0.0204051 0.237978 0.40604
-0.248947 0.138421 0.360349
0.077155 0.0298726 0.390465
-0.302978 0.0542413 0.390465
0.0821796 0.241828 0.40604
-0.0523027 0.012461 0.350469
0.00682315 0.223099 0.40604
-0.0584851 0.0044215 0.40604
-0.156509 -0.288967 0.40604
-0.00748622 -0.304228 0.40604
0.142837 0.0895257 0.369258
-0.233719 -0.192805 0.372172
-0.120169 0.10628 0.40604
-0.0165766 -0.249764 0.390465
0.292335 -0.226206 0.256689
0.241475 0.15069 0.40604
0.324507 0.268641 0.12907
0.221722 -0.165533 0.40604
0.306628 -0.302105 0.00766381
-0.195521 0.114449 0.358082
0.0124001 -0.270679 0.40604
-0.298511 -0.207024 0.40604
-0.0658432 0.126572 0.40604
-0.22635 0.29782 0.40604
0.262557 -0.105586 0.40604
0.274016 0.0764738 0.390465
0.181211 -0.138453 0.40604
0.0485504 -0.176814 0.40604
-0.166456 -0.0241185 0.390465
0.18682 0.0723225 0.40604
-0.115475 -0.145036 0.390465
-0.228028 -0.283434 0.390465
-0.123786 0.208108 0.390465
-0.121685 0.263819 0.40604
0.097068 -0.0265917 0.360349
-0.263792 0.0327563 0.390465
-0.323795 0.27036 0.0268399
-0.131087 -0.0114006 0.390465
0.23491 -0.0460696 0.390465
0.245981 -0.27756 0.390465
-0.132804 0.00800353 0.390465
0.28534 0.250429 0.23652
-0.100346 -0.248918 0.390465
-0.19495 -0.186796 0.40604
0.247054 -0.303084 0.40604
-0.197718 0.151893 0.381323
-0.236864 0.161426 0.375293
0.285473 -0.251243 0.233896
0.285845 0.21765 0.368719
-0.0694728 -0.144724 0.390465
-0.125135 -0.287613 0.390465
-0.274482 0.204176 0.358181
0.213257 -0.107628 0.390465
-0.332735 -0.269212 -8.06963e-19
0.292906 0.206056 0.390465
0.12313 -0.0671325 0.371166
0.171438 -0.0124627 0.352457
0.222 0.311233 0.390465
-0.0290454 -0.0934789 0.390465
-0.142572 0.050622 0.390465
-0.1418 -0.0533972 0.369076
0.314157 0.133473 0.390465
-0.20626 -0.146709 0.40604
0.119125 0.0302973 0.353564
-0.0409904 -0.0161404 0.390465
-0.196581 -0.2488 0.390465
0.296423 0.0756372 0.40604
0.29072 -0.22737 0.360883
-0.159977 -0.101204 0.40604
-0.135258 -0.225065 0.390465
0.287933 -0.031306 0.40604
0.0898791 -0.0959956 0.40604
0.140537 0.246853 0.40604
0.0271193 0.178238 0.40604
0.252189 0.206247 0.348867
0.299398 -0.112134 0.390465
-0.288566 0.144084 0.40604
-0.292923 0.243182 0.40604
0.264895 0.0156262 0.40604
0.225475 0.124292 0.40604
0.09614 0.223861 0.390465
0.16831 -0.2514 0.40604
-0.171739 0.30841 0.390465
-0.189143 0.0510566 0.390465
-0.241112 -0.0786664 0.390465
-0.318234 -0.288122 0.0464743
0.31985 -0.256798 0.392465
0.318575 -0.265928 0.164284
-0.0300001 -0.154827 0.40604
0.0332197 -0.0948811 0.390465
0.229513 -0.280607 0.40604
0.22657 0.170565 0.385272
-0.184549 0.247499 0.40604
-0.0458894 -0.188683 0.40604
-0.196699 -0.148289 0.35383
0.100864 3.59714e-05 0.390465
-0.0161981 0.0305865 0.390465
-0.21583 -0.0332923 0.390465
0.312245 -0.272879 0.0614498
-0.080705 1.80232e-07 0.373966
0.0101266 0.127101 0.390465
0.173259 -0.293147 0.390465
0.191481 -0.174536 0.390465
0.145244 -0.16621 0.40604
0.095367 -0.279879 0.390465
-0.0201558 -0.141772 0.390465
-0.10502 0.0465543 0.375055
0.31985 -0.0659817 0.402777
-0.0240602 -0.0290265 0.390465
-0.158013 0.153764 0.40604
0.302119 0.253282 0.13472
0.0723593 0.19035 0.390465
-0.262962 0.226036 0.358699
0.261594 -0.224481 0.340949
0.310952 0.275013 0.0652312
0.0497118 0.230841 0.40604
0.212201 -0.0746092 0.390465
0.307448 -0.273352 0.115316
0.275078 -0.0714576 0.390465
0.292159 0.22426 0.312746
0.143582 -0.0861944 0.40604
-0.227375 0.114842 0.390465
-0.293573 0.210435 0.390465
-0.319848 0.0692669 0.391712
0.202882 0.246577 0.40604
-0.127669 0.0722922 0.365975
-0.18734 0.145977 0.40604
0.125215 -0.0345518 0.380173
0.292164 -0.17532 0.390465
-0.319848 0.225605 0.399486
-0.290498 -0.257329 0.234638
-0.222782 0.16844 0.40604
-0.126481 0.296276 0.40604
0.232029 0.0564398 0.40604
-0.165153 0.0298355 0.390465
0.137321 -0.187811 0.40604
-1.32322e-05 0.0732891 0.40604
-0.251391 -0.212887 0.343108
-0.315719 0.270216 0.163127
-0.279471 -0.176196 0.390465
0.130093 -0.0545852 0.347886
-0.315037 0.280091 0.40604
-0.243005 -0.22866 0.40604
0.0804364 -0.0711104 0.390465
0.159654 0.16304 0.390465
0.11158 0.0159053 0.40604
0.121946 0.0647514 0.355562
0.162288 0.31154 0.405325
-0.204716 -0.0588958 0.360349
0.0877981 0.0692711 0.40604
-0.191842 -0.286514 0.40604
-0.0512385 0.0827319 0.390465
-0.327291 0.289895 3.56508e-19
-0.0612636 0.241965 0.40604
-0.326602 0.265169 0.112055
0.292113 0.224206 0.338537
0.0882843 -0.307504 0.390465
0.185929 -0.0421966 0.40604
-0.234481 0.138517 0.390465
0.0489361 -0.0106358 0.385272
0.0630634 0.106099 0.40604
-0.304802 0.00918952 0.390465
-0.225988 -0.257632 0.40604
-0.296439 -0.232038 0.318563
-0.0599929 0.292285 0.390465
0.0406044 0.0617999 0.390465
-0.204531 0.252487 0.390465
0.295824 -0.22862 0.40604
0.22666 -0.184465 0.359659
-0.247284 0.238597 0.390465
0.28025 0.301785 0.390465
0.225829 0.109301 0.390465
0.154099 -0.246135 0.390465
-0.217859 -0.13983 0.37061
0.186264 0.287914 0.390465
-0.00576752 -0.182138 0.390465
-0.115539 -0.118812 0.390465
-0.0349496 0.276706 0.40604
-0.263289 0.20092 0.40604
0.190808 -0.138867 0.360349
-0.033102 0.244979 0.390465
-0.204553 -0.0753043 0.390465
-0.274269 -0.256752 0.390465
-0.0937072 0.175964 0.40604
0.0901872 0.0296979 0.357274
0.203024 0.272431 0.390465
0.193689 0.115347 0.40604
-0.141205 0.206959 0.40604
-0.248577 -0.189476 0.390465
-0.145733 -0.177874 0.40604
0.18052 0.121967 0.348854
0.251222 -0.124493 0.40604
0.0166928 0.160767 0.390465
0.30651 0.0304869 0.390465
-0.133735 -0.0812722 0.390465
0.153517 0.0667139 0.361093
0.225005 -0.198094 0.390465
0.3023 0.244123 0.390465
0.326025 -0.282952 1.18293e-19
-0.00178686 0.28071 0.40604
0.0889944 0.0784582 0.390465
-0.00413138 0.126249 0.40604
-0.256963 0.184266 0.374808
-0.0781623 -0.0839862 0.40604
0.0156472 -0.118716 0.390465
-0.0660447 -0.189767 0.390465
0.0193032 0.0243049 0.390465
-0.288894 0.0768776 0.40604
-0.0475979 0.133184 0.390465
0.329107 -0.292393 0.023701
0.00374818 -0.0957869 0.40604
-0.183852 0.291785 0.40604
-0.294262 -0.284268 0.40604
0.0579958 0.27713 0.40604
0.268496 -0.232325 0.372604
0.188 -0.068872 0.390465
-0.173964 0.236157 0.390465
-0.0657423 -0.236831 0.40604
0.0735981 -0.14873 0.40604
-0.116395 -0.0449921 0.385272
-0.0434109 -0.293838 0.390465
0.140755 -0.207709 0.390465
0.203923 -0.25091 0.390465
0.266396 0.044871 0.40604
-0.0162741 -0.228238 0.390465
0.126237 0.0686511 0.40604
-0.154269 0.0675661 0.368032
0.0319831 -0.0501545 0.40604
-0.103844 0.261002 0.390465
0.179183 -0.159709 0.40604
-0.0780014 -0.0191273 0.390465
0.29609 0.180332 0.390465
0.261761 0.182382 0.390465
0.136995 0.209971 0.390465
0.22984 -0.118704 0.40604
0.146938 -0.0925313 0.354799
-0.149292 -0.139852 0.40604
0.0338412 -0.222226 0.390465
0.257941 0.223305 0.40604
-0.156213 -0.0513869 0.390465
-0.0227481 -0.00818375 0.40604
-0.316923 -0.284142 0.0960201
0.106888 -0.00608328 0.40604
0.163215 0.107258 0.40604
-0.18064 -0.10953 0.360349
-0.250044 0.0503691 0.40604
-0.206984 0.160282 0.354204
-0.297003 0.236039 0.274138
0.31985 0.273465 0.391734
0.16119 -0.21386 0.40604
-0.284456 0.21551 0.334178
0.299312 -0.299827 0.40604
0.277858 -0.242964 0.277501
-0.271589 0.235839 0.30217
0.307966 -0.242223 0.233841
0.115013 -0.141098 0.390465
0.0688471 -0.258056 0.390465
-0.284748 0.0233739 0.40604
-0.0900329 -0.128068 0.390465
0.315033 0.281299 0.0398424
0.324149 0.287256 0.076137
0.216477 0.218694 0.40604
0.0414377 0.115069 0.390465
0.151489 0.0917399 0.390465
-0.305313 0.239213 0.220657
-0.280597 0.246075 0.306739
-0.303477 0.123704 0.390465
0.245764 -0.234424 0.390465
0.150917 -0.0472619 0.390465
0.0661682 0.236216 0.390465
0.283488 -0.121788 0.40604
-0.210568 -0.105913 0.390465
-0.322144 0.263046 0.148529
-0.0324691 0.182062 0.40604
-0.0329528 -0.292089 0.40604
-0.289261 0.255925 0.232042
0.290298 0.00176194 0.40604
0.105199 0.0830977 0.40604
0.0357585 0.0348196 0.390465
0.247011 0.262329 0.40604
0.185855 0.138411 0.381143
-0.262861 0.217458 0.390465
-0.245451 0.017962 0.390465
-0.187021 -0.119512 0.390465
0.101832 0.279051 0.40604
0.191158 0.0879937 0.390465
-0.256784 0.161168 0.40604
0.00645295 0.0485321 0.390465
-0.180188 0.117543 0.390465
0.0640831 -0.116946 0.40604
0.0321183 -0.186585 0.390465
0.189607 0.256142 0.390465
0.283526 0.239175 0.35975
-0.226182 0.0961484 0.360349
0.0237588 0.082759 0.40604
-0.0525646 -0.0820734 0.40604
0.155005 0.00659776 0.385272
0.316481 0.301133 0.00519235
-0.319063 0.288574 0.0650196
0.14249 0.176076 0.390465
-0.114949 0.0200812 0.40604
-0.0309966 0.145657 0.40604
-0.195213 0.0839708 0.390465
-0.327998 -0.273018 0.104973
-0.27546 -0.234559 0.35344
0.28734 -0.24604 0.321989
-0.0775218 0.149698 0.40604
0.314296 -0.250676 0.194055
-0.328662 0.267618 0.0737243
0.294334 0.261759 0.40604
-0.126908 0.190314 0.40604
-0.243708 -0.219814 0.390465
0.0795813 0.012461 0.373904
0.209903 -0.141668 0.360349
0.332227 -0.269794 0.0537516
0.287621 0.254054 0.259911
-0.143121 0.286961 0.390465
0.256485 -0.183722 0.379822
0.218409 0.175403 0.368075
-0.121001 0.0508479 0.390465
-0.237901 0.275446 0.390465
-0.115419 -0.255098 0.40604
0.299023 0.234211 0.215345
-0.297331 0.106948 0.40604
0.0931404 -0.0265903 0.40604
0.306387 -0.255923 0.115755
-0.144719 -0.0910867 0.356119
0.262557 -0.192777 0.342534
0.293091 0.22532 0.286226
-0.312131 -0.284387 0.390465
-0.275593 -0.23124 0.390465
-0.0795674 0.222495 0.40604
0.13905 0.00495876 0.347886
0.291542 -0.258515 0.204532
0.161526 -0.13494 0.40604
-0.279688 -0.245048 0.294332
-0.0747104 0.0157787 0.390465
-0.280691 0.126435 0.40604
-0.317565 -0.250123 0.390465
0.0613941 -0.287221 0.40604
-0.174417 -0.0217286 0.40604
-0.101557 -0.299821 0.40604
0.351651 -0.280505 0.00519235
-0.152983 0.205788 0.390465
-0.137595 0.0325558 0.390465
-0.227474 -0.11532 0.40604
-0.195374 -0.2745 0.390465
0.228986 -0.0148553 0.390465
-0.311111 -0.271371 0.0681801
0.205182 -0.131523 0.385272
0.26405 -0.201729 0.40604
-0.350687 -0.281904 0.00519235
-0.266931 -0.1885 0.356959
-0.270479 -0.23458 0.308088
-0.314611 0.253908 0.198572
0.2373 0.167588 0.350462
0.322247 0.275141 -3.39935e-20
-0.300872 0.261263 0.186044
-0.254334 -0.296209 0.40604
0.223568 0.196825 0.390465
0.0975343 0.164897 0.40604
-0.301268 -0.256286 0.199513
0.0477999 -0.126522 0.390465
-0.0476955 0.0682958 0.40604
-0.210876 -0.165507 0.390465
-0.157116 -0.263079 0.40604
0.248087 0.075018 0.40604
-0.0621069 -0.00415938 0.385272
0.303097 0.204374 0.40604
-0.24122 0.110817 0.40604
0.270721 0.15359 0.40604
0.0149876 -0.309526 0.390465
0.190045 0.197215 0.40604
0.259562 -0.222171 0.362425
0.154495 0.270611 0.40604
-0.0232515 -0.16854 0.390465
0.284935 -0.23292 0.37805
-0.319848 -0.0363308 0.398493
0.0399435 -0.31154 0.400593
0.253985 0.291976 0.390465
0.316095 -0.285799 0.0417144
0.122938 -0.121661 0.390465
0.319578 0.0274186 0.40604
0.180506 0.0973824 0.370104
-0.304596 -0.247925 0.261318
-0.252945 0.211687 0.338195
0.106223 0.177666 0.390465
-0.0617283 0.0612255 0.390465
-0.232072 -0.155981 0.37372
-0.0713022 0.0292851 0.40604
0.0469876 -0.0698962 0.40604
0.101365 -0.0840943 0.390465
0.278404 0.128827 0.390465
0.222378 0.144967 0.361811
0.250048 0.037925 0.390465
0.112192 -0.0124627 0.368673
0.151638 0.0524454 0.390465
0.00437412 -0.0418482 0.40604
0.301018 0.265863 0.205188
-0.301047 0.176007 0.390465
-0.0425154 -0.112937 0.40604
0.278339 0.241548 0.27873
0.0389293 0.199029 0.390465
0.235863 -0.160288 0.378104
-0.308843 0.254949 0.229961
-0.0130681 0.19712 0.40604
-0.0655754 -0.0705531 0.390465
0.227532 -0.0562953 0.40604
-0.279723 -0.242518 0.27231
0.0323161 0.012461 0.37695
0.315745 0.251063 0.15504
-0.103666 0.0100615 0.370294
-0.333528 0.289648 0.0375358
0.184778 -0.12873 0.385272
0.129291 -0.281675 0.390465
-0.314888 -0.280068 0.0275465
0.0536508 -0.0243761 0.40604
0.0027298 0.012461 0.37914
0.281153 0.246704 0.304836
-0.0968823 0.220225 0.390465
0.125018 0.119587 0.390465
0.204492 -0.226734 0.390465
0.160221 0.138789 0.40604
0.0980012 -0.141785 0.40604
-0.266716 -0.0272847 0.40604
-0.304985 0.0934425 0.390465
-0.158364 0.0922374 0.385272
-0.296177 -0.0735492 0.390465
0.294867 0.295779 0.40604
0.206972 -0.273074 0.390465
0.129916 0.0860317 0.390465
-0.313043 -0.253216 0.149773
-0.304715 -0.273338 0.153152
-0.100851 -0.204585 0.40604
-0.312306 0.281284 0.0884242
0.120235 -0.252998 0.390465
0.305397 -0.25454 0.244624
0.326688 0.266488 0.050238
0.198338 0.162897 0.40604
0.323379 0.262002 0.108481
0.0214996 0.0107597 0.40604
0.276655 -0.259228 0.40604
-0.311817 -0.29625 0.00519235
-0.285957 -0.19426 0.390465
0.277615 -0.241151 0.262146
0.288927 -0.220589 0.293341
0.288852 -0.158629 0.40604
-0.103028 -0.0442916 0.374499
0.32868 -0.266841 0.0759941
-0.284828 0.250509 0.390465
-0.190032 -0.230285 0.40604
0.0943626 0.143873 0.390465
0.12507 0.0472961 0.390465
0.139764 0.309622 0.390465
-0.281781 0.308658 0.390465
-0.19141 0.0134436 0.390465
-0.190849 -0.31154 0.3909
0.31985 0.22218 0.393882
0.209202 -0.0520827 0.360349
-0.310816 -0.245467 0.174036
-0.0173993 0.0870297 0.40604
0.055306 0.0101891 0.385272
-0.206853 -0.13036 0.353114
-0.2585 -0.241194 0.40604
-0.0240457 -0.0802089 0.40604
0.30965 -0.278273 0.0961163
-0.29447 0.234614 0.250282
0.312935 -0.282826 0.0731988
-0.290392 0.253388 0.280308
-0.0926007 -0.275202 0.390465
0.180656 -0.187969 0.40604
0.147864 -0.135367 0.390465
-0.112179 0.158783 0.40604
-0.167664 -0.145757 0.390465
0.0568174 0.0383974 0.390465
0.269639 -0.233624 0.318097
-0.251633 0.187693 0.356007
-0.139402 -0.303133 0.40604
-0.151156 0.0387756 0.40604
-0.152518 -0.237229 0.40604
0.206893 0.298059 0.390465
-0.151611 -0.000691967 0.347886
0.0286024 0.292759 0.390465
-0.297672 0.241056 0.18183
0.261814 0.22473 0.349257
-0.299073 0.267069 0.144081
-0.284256 -0.241727 0.22179
0.311507 -0.248675 0.215624
0.123376 -0.0124627 0.37698
-0.286617 0.227081 0.291454
0.159592 0.202056 0.390465
0.325435 -0.263518 0.119205
0.0857435 0.31154 0.396234
-0.020218 0.124694 0.390465
-0.319848 0.17129 0.393281
-0.123991 -0.099301 0.390465
0.28342 -0.249281 0.294539
0.310245 -0.246781 0.174118
-0.250499 -0.208101 0.40604
-0.234815 -0.310872 0.40604
-0.196385 -0.137662 0.385272
0.284422 -0.215468 0.337025
0.23383 -0.193654 0.40604
-0.249222 0.197335 0.385272
-0.125118 0.305147 0.390465
-0.34314 0.285219 0.0115849
-0.281398 -0.235389 0.241366
-0.176929 -0.0974592 0.385272
-0.258555 -0.113454 0.390465
-0.329837 -0.267917 0.0649151
0.075071 -0.0390024 0.40604
0.0577643 0.12671 0.40604
-0.0967197 -0.0142424 0.390465
-0.241008 -0.0468643 0.40604
-0.136647 0.0697616 0.385272
-0.244589 0.0853455 0.390465
0.135073 -0.0770651 0.35237
0.248322 0.109228 0.390465
0.0502637 0.306726 0.390465
0.195673 0.0528873 0.40604
0.152316 -0.0653493 0.3763
0.15212 0.213442 0.40604
-0.0980873 -0.0509083 0.390465
0.0711908 -0.0857281 0.40604
-0.0306911 -0.205995 0.390465
0.317935 0.259204 0.175863
-0.0064815 0.217308 0.390465
0.316314 -0.0937509 0.390465
-0.0994107 0.28469 0.390465
-0.241407 0.307157 0.390465
-0.0695227 -0.268465 0.390465
0.262066 0.104195 0.40604
-0.0300842 0.0812461 0.390465
0.230284 0.223848 0.390465
-0.291373 -0.22524 0.35038
0.318231 0.288842 0.0228035
-0.260829 -0.210785 0.390465
0.0513263 -0.00954618 0.347886
0.0203849 -0.0596431 0.390465
0.318345 -0.259629 0.00519235
-0.202171 -0.0508071 0.390465
0.205306 -0.127302 0.40604
-0.0507421 0.111822 0.40604
0.127632 -0.213247 0.40604
-0.166093 -0.0411488 0.40604
0.273987 -0.0341209 0.390465
0.254099 -0.0924906 0.390465
-0.241345 -0.00974765 0.390465
0.187342 0.0104737 0.352733
-0.0545798 0.0305658 0.390465
-0.115721 0.0258706 0.354251
-0.166996 -0.171347 0.40604
-0.0384716 -0.0560354 0.40604
-0.100316 0.0347318 0.360349
-0.167616 0.195965 0.390465
0.124276 -0.0334848 0.359287
0.233449 0.157544 0.374358
0.095106 0.00337239 0.347886
-0.279884 -0.215908 0.323245
-0.248237 -0.174353 0.356787
0.161564 -0.0411649 0.40604
-0.311523 -0.136509 0.390465
0.17804 0.0364912 0.40604
0.202462 0.150544 0.350341
-0.219644 -0.0954605 0.40604
-0.322161 -0.271669 0.0831693
0.273159 0.230107 0.313973
0.00807738 -0.199774 0.390465
-0.0619106 0.16787 0.40604
-0.241758 0.262204 0.40604
0.295787 0.262045 0.158109
-0.27192 -0.116829 0.40604
-0.219026 -0.244688 0.390465
-0.284719 0.217728 0.370099
-0.176706 -0.261629 0.390465
0.183987 0.304499 0.40604
-0.24835 -0.263285 0.390465
-0.175968 0.115421 0.34829
0.31184 -0.12861 0.40604
0.0903136 -0.116671 0.40604
-0.127534 -0.138754 0.40604
-0.149916 0.0936069 0.351965
0.301477 0.23563 0.261805
0.263904 -0.0861693 0.40604
-0.230234 -0.18701 0.3532
-0.0218862 0.000844121 0.390465
0.203431 -0.154443 0.351999
-0.232363 0.0610279 0.40604
0.305498 0.0889359 0.390465
0.242417 -0.161922 0.40604
-0.141136 0.0875955 0.368894
0.066117 -0.20263 0.40604
-0.260053 0.0198836 0.40604
0.310641 -0.192116 0.40604
0.183394 0.21352 0.390465
0.306088 0.240088 0.244763
-0.0251281 -0.0120713 0.347886
0.0120551 0.0691372 0.390465
0.077796 0.170607 0.390465
-0.21629 0.0588086 0.390465
0.242322 0.124211 0.360349
-0.00674468 0.0490521 0.40604
0.0193162 0.147847 0.40604
-0.0572373 -0.139821 0.40604
0.0293192 0.231238 0.40604
0.305614 0.250906 0.202055
-0.174647 -0.00629101 0.385272
0.0968231 -0.00228783 0.365158
-0.152925 0.243568 0.390465
-0.144176 0.133941 0.40604
0.0764168 -0.225823 0.40604
0.0517879 0.0744926 0.40604
0.254368 -0.000222623 0.390465
-0.10757 -0.0124627 0.371196
0.00670999 -0.15288 0.390465
-0.216994 0.150133 0.385272
0.0912808 0.0257125 0.40604
0.192649 0.229387 0.40604
-0.064385 0.145016 0.390465
0.097828 0.219791 0.40604
-0.265266 -0.087343 0.40604
-0.0987353 0.10952 0.390465
-0.0805371 -0.253177 0.390465
0.136173 0.142524 0.40604
0.266888 -0.0227852 0.40604
0.127617 -0.0630985 0.390465
0.159701 -0.105704 0.360349
-0.272606 0.234547 0.390465
0.222082 0.149566 0.40604
-0.189311 -0.160896 0.390465
-0.07309 -0.302055 0.40604
0.223255 -0.145963 0.37161
-0.0261062 -0.31154 0.403559
-0.27459 0.276902 0.40604
-0.329624 -0.251879 0.00967425
-0.0853524 0.0143227 0.360349
0.121599 0.179511 0.40604
0.0278918 0.10027 0.390465
-0.231299 -0.139597 0.40604
0.265923 0.0677071 0.40604
-0.227076 0.199149 0.40604
-0.0275841 0.0614281 0.40604
0.258911 0.180602 0.359478
0.139791 -0.154908 0.390465
0.0164072 -0.0120141 0.385272
-0.211672 -0.0501811 0.40604
-0.104741 0.0794172 0.40604
-0.183579 -0.0122825 0.347886
-0.302306 -0.269852 0.175617
0.324732 -0.310479 0.00730511
-0.12461 -0.197475 0.40604
0.307886 0.277086 0.106094
0.116237 0.265309 0.40604
-0.08363 -0.109386 0.40604
-0.20796 0.0853804 0.40604
0.178756 -0.279798 0.40604
-0.0828238 0.0840071 0.390465
0.0661584 -0.0205046 0.390465
-0.253285 0.173006 0.390465
-0.148784 0.269279 0.390465
-0.312115 -0.180704 0.40604
-0.308231 -0.242528 0.211825
0.189934 -0.0128738 0.40604
-0.149349 -0.279118 0.390465
0.257998 0.1283 0.40604
0.167952 -0.0093941 0.385272
-0.210292 -0.292135 0.390465
-0.0104679 0.012461 0.356068
0.0708755 0.0714048 0.390465
-0.221139 -0.17851 0.377166
0.198108 0.283507 0.40604
-0.284787 0.250841 0.255466
0.204155 0.193301 0.390465
-0.068935 0.266977 0.390465
-0.10794 0.0365506 0.390465
-0.319848 0.0440926 0.390899
-0.0518482 -0.266266 0.40604
-0.229056 0.257623 0.390465
-0.119514 0.012461 0.348605
-0.165456 0.0839595 0.40604
0.156971 0.233799 0.40604
0.138577 0.0555104 0.350735
0.279847 0.027357 0.390465
-0.268071 -0.145962 0.390465
-0.270997 -0.0386692 0.390465
-0.0446512 -0.0124627 0.349506
-0.247864 0.153186 0.390465
-0.106692 -0.126715 0.40604
0.0967994 0.254846 0.40604
0.30149 -0.245886 0.280501
-0.318588 0.30523 0.00519235
0.261035 0.268367 0.390465
-0.099772 -0.156676 0.390465
-0.14328 -0.0861645 0.40604
-0.200147 0.240837 0.40604
-0.0840693 -0.0893548 0.390465
-0.0768231 -0.054094 0.390465
-0.178333 -0.231248 0.390465
-0.139527 0.256056 0.40604
-0.0444428 0.254919 0.40604
0.13664 -0.0681067 0.40604
0.0294003 0.278517 0.40604
0.16513 -0.269595 0.390465
-0.278933 -0.224798 0.273513
-0.285436 -0.214642 0.390465
-0.228616 0.178304 0.385272
0.27545 0.215468 0.305466
-0.200547 -0.205329 0.40604
0.047934 0.0511818 0.40604
0.0809088 1.80232e-07 0.355017
-0.288241 -0.309219 0.40604
0.268561 0.254564 0.40604
-0.196602 -0.260222 0.40604
-0.315486 0.108738 0.390465
0.29586 -0.0516077 0.390465
0.101697 -0.246949 0.390465
0.300992 -0.268543 0.129348
-0.230568 -0.0601669 0.390465
0.241725 -0.174222 0.390465
-0.00264895 0.101054 0.40604
0.0902308 -0.179085 0.390465
-0.270765 -0.00221753 0.40604
0.118768 -0.181747 0.40604
0.321788 -0.260422 0.146282
0.204966 -0.200581 0.390465
0.0332816 -0.269458 0.40604
-0.12248 0.118761 0.390465
0.110767 0.0733499 0.390465
-0.00571635 -0.118556 0.390465
0.145964 0.0270298 0.390465
-0.152139 0.15026 0.390465
-0.294811 0.227461 0.308884
0.226829 -0.231642 0.390465
-0.319848 -0.126489 0.404773
0.296641 0.0529374 0.390465
-0.188497 0.18938 0.40604
-0.313833 0.143212 0.40604
0.278277 -0.179988 0.40604
-0.193696 -0.117732 0.350906
0.241871 0.183939 0.385272
0.136081 0.120375 0.40604
-0.263947 -0.227156 0.34184
0.106305 -0.0277975 0.347886
-0.205855 0.178325 0.40604
0.2123 -0.0855356 0.40604
-0.102873 -0.310659 0.390465
0.0977647 0.0271529 0.385272
-0.289666 0.16078 0.390465
-0.265697 0.114753 0.40604
0.183744 -0.204392 0.390465
0.309566 -0.230658 0.390465
0.307396 -0.307107 0.390465
-0.125632 -0.0055098 0.347886
-0.00283322 -0.221438 0.40604
-0.0526268 0.162212 0.390465
0.114975 0.012461 0.348544
-0.294988 0.0269853 0.390465
0.33358 0.289312 0.00519235
0.281152 0.166171 0.390465
-0.0883673 0.149474 0.390465
-0.117017 -0.230299 0.390465
-0.111934 -0.0433655 0.40604
-0.333916 0.264732 -1.05898e-18
0.000316232 -0.276119 0.390465
0.333119 0.27888 0.0703225
-0.183417 -0.0781424 0.40604
-0.0663634 -0.163395 0.390465
-0.288158 -0.0974419 0.40604
0.191663 -0.288769 0.390465
-0.284663 0.0495141 0.390465
0.305041 0.256717 0.117618
0.153499 -0.227242 0.390465
0.11267 0.23134 0.390465
0.136752 0.0750468 0.350004
-0.0845941 0.241633 0.40604
0.219618 0.0185833 0.390465
-0.0185276 0.300964 0.390465
0.0569413 -0.154283 0.390465
0.150246 0.260893 0.390465
-0.0601862 -0.215701 0.40604
0.291662 0.228267 0.390465
0.210392 -0.259284 0.40604
-0.209314 0.274176 0.40604
-0.22697 0.167143 0.360349
-0.0786294 0.262829 0.40604
0.277367 -0.31154 0.405689
0.245921 0.0282499 0.40604
0.178074 -0.243412 0.390465
-0.185434 0.0608853 0.40604
0.270443 0.298023 0.40604
-0.26654 0.216139 0.334806
-0.186324 0.127246 0.40604
-0.281667 0.0969586 0.40604
-0.239011 -0.271131 0.40604
0.0254533 -0.246145 0.390465
-0.0113803 -0.099743 0.390465
0.170196 -0.31154 0.392362
-0.180352 0.13216 0.376357
-0.274568 -0.283544 0.390465
0.293813 -0.0963791 0.40604
-0.204772 -0.183155 0.390465
0.183821 -0.10441 0.390465
-0.144947 -0.0300849 0.390465
0.250076 0.2324 0.390465
0.0182266 -0.220426 0.40604
-0.137242 -0.141942 0.390465
-0.101803 -0.093891 0.390465
-0.125192 -0.216079 0.40604
0.272814 -0.110801 0.390465
0.0166757 -0.156411 0.40604
0.146256 -0.264581 0.390465
-0.0802924 -0.00881557 0.360349
-0.304309 -0.267376 0.139048
0.164148 0.0580897 0.40604
-0.332253 0.272861 0.0455438
0.275816 -0.205689 0.343756
0.25449 -0.270949 0.40604
0.118664 -0.28551 0.40604
-0.280427 -0.245886 0.256436
-0.266008 0.27178 0.390465
-0.323172 -0.275352 0.122682
0.0272572 0.13955 0.390465
0.144431 -0.305637 0.40604
-0.027402 0.293566 0.40604
0.0380838 0.254978 0.390465
0.196914 0.105992 0.390465
0.0929652 0.199467 0.390465
0.0354282 0.079767 0.390465
0.208661 0.31154 0.40315
-0.213503 -0.0138971 0.390465
-0.094026 -0.293577 0.390465
0.18714 0.0981637 0.40604
0.172083 0.012461 0.370863
0.0177282 0.180765 0.390465
0.0532967 -0.296419 0.390465
0.153275 -0.0124627 0.349815
-0.25854 0.130666 0.390465
-0.199606 0.0302415 0.390465
0.24525 -0.00716674 0.40604
0.286835 0.0518467 0.40604
-0.276317 0.207056 0.385272
0.193367 -0.0483755 0.390465
-0.147176 -0.00212366 0.385272
0.231513 -0.31154 0.401243
0.113245 0.274475 0.390465
-0.098598 -0.195337 0.390465
-0.223181 0.0966543 0.40604
-0.184929 -0.0354656 0.390465
-0.134008 -0.0502702 0.385272
0.296821 0.157314 0.40604
0.283049 0.245925 0.322636
-0.227265 0.00181118 0.390465
-0.0606661 0.118679 0.390465
0.0865461 -0.263543 0.390465
-0.259977 -0.19978 0.333887
-0.0512832 -0.109635 0.390465
-0.298586 -0.0468923 0.390465
0.31985 -0.185782 0.391737
0.139764 -0.0108105 0.40604
0.0831083 0.129276 0.40604
0.130844 0.191773 0.390465
-0.200364 0.0164776 0.40604
-0.256284 -0.0894787 0.390465
-0.24643 -0.283572 0.390465
-0.149248 0.168908 0.390465
0.0735252 0.00958821 0.390465
-0.0343379 0.203909 0.40604
0.295763 -0.281847 0.390465
0.286573 -0.128722 0.390465
0.0519277 0.156683 0.40604
0.0395105 0.010005 0.40604
0.172714 0.012107 0.390465
-0.170734 -0.29969 0.390465
-0.276258 0.241145 0.336441
-0.298208 -0.241551 0.303417
0.11766 -0.298556 0.390465
0.0866697 -0.0159589 0.360349
0.020137 0.251073 0.390465
0.304287 0.261945 0.390465
0.186973 -0.260283 0.40604
-0.298607 -0.173077 0.390465
0.165769 0.218878 0.390465
-0.319055 0.281383 0.110956
0.306549 0.128952 0.40604
-0.275159 0.220176 0.296066
0.0844498 -0.150138 0.390465
0.105166 0.148696 0.40604
0.00794926 0.145143 0.390465
-0.0431781 -0.267888 0.390465
0.201465 0.035955 0.40604
0.131365 0.250717 0.390465
-0.0262681 0.188309 0.390465
0.134524 -0.0937108 0.390465
0.244095 -0.187233 0.344904
0.324991 -0.261677 0.103326
0.205176 0.0526466 0.390465
0.100082 -0.0409413 0.368386
-0.326276 -0.285848 2.31224e-19
0.0439971 -0.236884 0.390465
0.0584773 -0.0467098 0.40604
-0.0571508 -0.230996 0.390465
-0.195584 0.114516 0.378252
0.222712 0.091554 0.360349
-0.122853 -0.0631767 0.390465
-0.0669749 0.214184 0.390465
-0.288735 -0.00364631 0.390465
-0.0699633 0.089644 0.40604
-0.296238 0.202328 0.40604
0.0118687 -0.0983579 0.390465
0.295382 0.0153657 0.390465
0.094425 -0.230758 0.390465
-0.105743 0.0567671 0.40604
0.320829 0.267393 0.0914958
-0.0778514 -0.00282371 0.390465
-0.315012 0.0146675 0.40604
0.162221 0.0784756 0.390465
0.18355 -0.100843 0.362596
-0.0734721 -0.117151 0.390465
-0.231015 0.125798 0.40604
0.288847 -0.241616 0.248488
-0.0170753 0.00856048 0.40604
-0.312996 -0.108896 0.40604
-0.319848 -0.0961443 0.391559
0.151214 0.0128191 0.40604
0.0997437 0.306733 0.40604
0.0427377 0.206446 0.40604
0.0542865 -0.0908075 0.40604
0.214066 -0.159513 0.390465
0.24959 0.157487 0.390465
-0.0308452 -0.238166 0.390465
-0.138298 -0.103046 0.40604
0.115082 0.102725 0.40604
0.0434084 -0.11961 0.40604
-0.285995 0.136311 0.390465
0.27687 0.222287 0.383055
0.273143 -0.237565 0.390465
-0.143309 0.0979483 0.40604
-0.110274 -0.0219496 0.351473
0.298547 0.0931634 0.40604
-0.129587 0.225206 0.390465
-0.0996795 -0.240839 0.40604
0.295526 -0.229635 0.321585
0.00581637 0.300083 0.390465
0.236569 0.049743 0.390465
-0.247997 -0.0828588 0.40604
-0.292469 -0.147671 0.40604
-0.255878 -0.233584 0.390465
-0.278501 0.255461 0.40604
0.25728 0.191332 0.40604
0.0983369 -0.0691781 0.40604
-0.281238 -0.260706 0.40604
-0.194259 -0.147964 0.371168
0.289997 0.109209 0.40604
0.275309 0.207534 0.390465
-0.217195 0.220393 0.390465
-0.29533 0.31154 0.402054
-0.25587 0.225307 0.40604
0.179018 0.0754294 0.390465
-0.319848 -0.199424 0.405674
0.0611178 -0.259423 0.40604
0.199779 -0.127581 0.349705
0.0454914 0.292318 0.40604
0.0533191 0.182229 0.390465
0.167652 0.285958 0.40604
-0.0413119 -0.0784404 0.390465
-0.210025 -0.113663 0.40604
0.27114 -0.198678 0.390465
0.217301 -0.301526 0.40604
0.318317 0.103605 0.390465
0.171135 -0.1136 0.349792
-0.306235 0.0758805 0.40604
-0.317223 -0.29768 0.400413
-0.198196 0.212952 0.390465
-0.0412902 0.128908 0.40604
0.0584302 0.284737 0.390465
-0.313192 -0.217852 0.40604
0.185495 0.231899 0.390465
0.2746 -0.233863 0.358446
-0.0212401 0.0487614 0.390465
-0.234156 0.14781 0.40604
0.244799 -0.0552608 0.40604
0.138175 0.0850672 0.40604
-0.247417 0.0383084 0.390465
0.0439801 0.108004 0.40604
0.170347 0.09151 0.40604
0.123928 -0.269045 0.40604
0.0662954 -0.124107 0.390465
0.301523 0.185484 0.40604
-0.170873 -0.0914834 0.351034
-0.0128633 -0.0126522 0.390465
0.294868 -0.00407371 0.390465
-0.319848 -0.0716582 0.398395
0.2047 0.0708109 0.40604
-0.0444807 0.0136999 0.390465
0.26064 -0.188446 0.35911
-0.0971327 0.0119695 0.385272
-0.31514 0.286013 0.0127477
0.301548 -0.269881 0.166107
0.27909 0.23927 0.248047
0.33771 0.25321 0.00735549
-0.12535 -0.00535512 0.40604
-0.148388 -0.0722357 0.390465
0.144272 -0.111658 0.390465
-0.200393 -0.0422514 0.360349
-0.299735 0.223976 0.40604
0.301204 -0.0855557 0.390465
-0.286302 0.252559 0.21883
-0.289269 -0.121844 0.390465
-0.293836 0.285075 0.40604
-0.19298 -0.293644 0.390465
-0.0851131 -0.225889 0.40604
-0.0600833 -0.302507 0.390465
0.0636969 0.0177771 0.40604
0.197345 0.133599 0.360349
0.0892251 0.103364 0.390465
0.293954 0.259662 0.215493
-0.13491 0.0579201 0.40604
-0.26055 -0.178577 0.390465
-0.160378 0.0462732 0.390465
0.251138 -0.293865 0.390465
0.0731894 0.090281 0.40604
-0.0394083 -0.129747 0.40604
-0.0403962 0.281174 0.390465
0.21006 -0.293932 0.390465
-0.253984 -0.013279 0.40604
-0.226451 -0.21132 0.40604
0.255998 0.208935 0.332442
-0.0813521 -0.243741 0.40604
0.143943 -0.0473723 0.40604
-0.0663786 0.296302 0.40604
-0.310164 0.190095 0.40604
-0.300404 0.129889 0.40604
0.0614351 0.258217 0.40604
0.0573431 0.141143 0.390465
0.270499 0.202564 0.340825
-0.0204844 -0.175579 0.40604
-0.176315 -0.105942 0.40604
-0.117041 -0.0513148 0.360349
-0.0579851 -0.0330191 0.390465
0.0583693 0.113521 0.390465
0.158138 -0.0727291 0.390465
0.0141971 0.302294 0.40604
0.156672 0.0428361 0.40604
-0.20266 0.157521 0.40604
-0.128357 0.265425 0.390465
0.0748054 0.274849 0.40604
-0.215289 0.0259461 0.40604
0.139458 0.157361 0.390465
-0.191412 0.105964 0.40604
0.0216791 0.229964 0.390465
-0.295477 0.0777874 0.390465
-0.298834 -0.232633 0.279744
0.318938 0.284734 0.0552146
-0.214657 0.232144 0.40604
-0.240693 0.0225494 0.40604
-0.0536632 -0.0527283 0.390465
0.202009 0.240108 0.390465
0.301302 0.266538 0.16892
-0.305796 0.256611 0.162186
-0.155214 -0.103595 0.369966
0.104723 0.116016 0.40604
-0.24781 0.260023 0.390465
-0.314809 0.136857 0.390465
-0.243059 -0.138315 0.360349
0.28465 0.0895313 0.390465
-0.0535677 -0.100237 0.40604
0.297603 0.263108 0.14564
0.13996 0.0633926 0.385272
0.19192 0.18121 0.390465
-0.132499 -0.11447 0.390465
0.298167 0.266039 0.184643
0.153472 0.120959 0.40604
0.22064 -0.167092 0.360349
-0.328855 -0.270567 0.0206601
-0.248973 0.0693944 0.40604
-0.0836547 0.00439148 0.347886
0.238928 -0.0996816 0.390465
0.00996166 0.268721 0.40604
-0.165202 0.0235816 0.40604
-0.1858 0.0851391 0.40604
-0.148087 0.0149324 0.390465
0.113239 -0.148737 0.40604
-0.0877163 0.132862 0.40604
0.114246 0.012461 0.365295
0.181027 0.255039 0.40604
-0.258037 0.306762 0.40604
-0.16311 0.174952 0.40604
0.160012 0.112607 0.390465
-0.0562483 0.0219503 0.40604
-0.00695604 -0.310356 0.390465
0.291449 -0.237447 0.288714
-0.0983808 0.0224397 0.40604
0.155725 0.168531 0.40604
0.278468 -0.0535014 0.390465
-0.102638 0.159433 0.390465
0.0418682 0.23869 0.390465
0.0926833 0.127251 0.390465
0.049718 -0.0061413 0.40604
0.0328991 0.0400258 0.40604
-0.131746 0.169786 0.40604
0.131206 -0.137282 0.390465
-0.183006 0.264323 0.40604
-0.269852 0.0807325 0.40604
-0.276982 -0.207015 0.336963
0.326158 0.270529 0.0207694
-0.303906 0.171069 0.40604
0.0362051 -0.13911 0.390465
0.107979 0.235008 0.40604
0.0269007 0.0488188 0.390465
0.31985 -0.240022 0.399445
-0.311867 -0.280621 0.111799
-0.18734 0.00164738 0.376828
-0.0593211 0.247182 0.390465
0.0463606 0.31154 0.405796
0.223966 0.202356 0.40604
-0.317595 0.272507 0.0366409
-0.198526 -0.0232576 0.40604
0.199043 -0.097962 0.390465
-0.0133398 0.268932 0.40604
-0.304826 0.241911 0.201991
0.12852 0.0213491 0.390465
0.0649393 -0.190814 0.390465
0.238531 -0.0712354 0.40604
-0.256544 0.218741 0.376427
0.122119 -0.0990543 0.40604
0.0852624 -0.000850759 0.385272
0.197147 -0.239469 0.40604
-0.288487 0.0952059 0.390465
0.302141 0.165049 0.390465
-0.31756 -0.255248 0.108911
0.0359814 0.0642462 0.40604
-0.278971 -0.162049 0.40604
-0.166532 0.221516 0.390465
0.0346504 -0.116698 0.390465
0.111055 0.196715 0.40604
-0.346953 -0.29725 0.00959624
0.241668 0.221303 0.40604
0.023939 0.215754 0.40604
0.263485 -0.302288 0.40604
0.303297 -0.237278 0.250694
-0.301108 0.248819 0.390465
-0.011391 0.0241721 0.40604
0.310066 -0.0811535 0.40604
-0.0965905 -0.0208428 0.360349
-0.113511 0.0153418 0.390465
-0.224527 -0.0400889 0.40604
-0.175996 -0.266518 0.40604
-0.0885544 -0.169576 0.40604
0.288005 0.0680568 0.390465
0.0932926 -0.226052 0.40604
-0.201687 0.165528 0.390465
0.303957 -0.163624 0.390465
0.0975659 0.0994297 0.40604
-0.136073 -0.299697 0.390465
0.141101 0.281405 0.390465
-0.27636 0.237371 0.40604
0.257953 0.0792758 0.390465
-0.302514 -0.0168003 0.390465
0.0144585 0.198148 0.40604
0.213904 -0.183999 0.390465
0.210983 0.166966 0.382335
0.177419 -0.166386 0.390465
-0.221553 -0.151513 0.385272
0.134178 -0.0051915 0.390465
