-0.0832461 -0.138345 0.19598
0.140379 -0.0877648 0.475714
0.376143 -0.00748063 0.475714
-0.056563 0.115982 0.487685
-0.360479 0.114968 0.487685
0.0734735 -0.135128 0.207201
-0.117359 0.227516 0.475714
0.0835015 0.207819 0.487685
0.307876 -0.188783 0.475714
-0.155176 -0.162634 0.475714
0.200644 -0.0625263 0.475714
-0.264983 0.0952275 0.487685
-0.135474 0.169491 0.179628
0.229582 -0.180139 0.475714
-0.0567917 0.143827 0.327378
-0.167642 0.14215 0.422995
0.184876 0.0878979 0.475714
-0.280935 0.255067 0.0235173
0.00386322 -0.118715 0.487685
0.166501 0.168243 0.475714
-0.209663 0.108666 0.451392
0.197218 -0.220513 0.130098
0.190015 0.142787 0.475714
0.030864 -0.276035 0.487685
0.0617512 0.130342 0.311679
0.12666 0.114602 0.475714
-0.188482 -0.12366 0.437307
-0.134072 0.127638 0.369411
-0.0313205 -0.115565 0.289314
-0.188469 -0.185179 0.475714
-0.153124 -0.0682899 0.487685
-0.159201 0.123873 0.487685
-0.273476 -0.108311 0.475714
0.058354 -0.195482 0.487685
0.289274 -0.0418699 0.475714
0.246621 0.144219 0.469381
-0.19013 0.22067 0.105828
0.344198 0.0177338 0.475714
0.130472 0.165956 0.155899
-0.0925485 -0.237838 0.475714
0.202046 -0.134279 0.487685
0.282134 0.0367576 0.487685
0.03047 -0.112664 0.292251
-0.194975 -0.189611 0.106511
0.162193 -0.177844 0.475714
-0.283541 -0.217023 0.484888
-0.0625192 -0.00184631 0.487685
-0.0845914 0.0816267 0.475714
-0.231832 -0.131164 0.487685
0.244082 0.226993 0.0716012
-0.190925 0.250144 0.487685
-0.138206 0.199568 0.145357
-0.107381 0.182186 0.487685
-0.0879775 0.114842 0.369215
-0.315917 -0.0429059 0.487685
0.00859371 0.0624077 0.475714
0.14027 -0.0100606 0.475714
-0.349733 0.0609852 0.487685
-0.213874 0.097309 0.487685
-0.169082 -0.0336797 0.487685
0.194474 0.218028 0.487685
-0.0256989 0.185328 0.475714
-0.182056 0.136665 0.487685
-0.133312 0.0462683 0.487685
-0.221284 -0.221924 0.11801
0.0552028 -0.0380482 0.487685
0.221682 0.037098 0.475714
0.268877 0.178484 0.487685
-0.0869227 -0.0804858 0.487685
-0.277187 0.21599 0.000952056
-0.0808846 0.147835 0.188994
-0.31062 -0.234512 0.0150521
-0.155006 -0.201177 0.170427
0.242376 -0.102425 0.487685
0.0638594 -0.118297 0.353334
-0.233068 -0.136908 0.463609
-0.0787933 -0.125755 0.487685
0.0893122 0.256919 0.475714
0.0379566 0.123642 0.245506
0.197384 0.223531 0.124163
0.364481 0.0111554 0.487685
-0.229837 0.224765 0.0756006
0.0257789 0.236317 0.475714
-0.184479 -0.114502 0.399026
0.126485 0.14123 0.385995
-0.205497 -0.103652 0.475714
-0.244031 0.202382 0.487685
0.108205 -0.151352 0.475714
0.0971701 0.149906 0.183217
0.182629 -0.275445 0.481887
0.00228755 -0.133968 0.298669
0.04034 0.188639 0.487685
-0.0628253 -0.164338 0.212226
0.00904053 0.108052 0.290134
0.228829 0.223201 0.487685
0.154939 -0.133035 0.475714
0.350033 -0.0408496 0.487685
0.187543 -0.192419 0.107382
0.181597 -0.134052 0.43425
-0.192293 -0.0150752 0.487685
-0.294122 0.263251 0.0530666
0.0678881 -0.167302 0.237251
0.288544 -0.23212 0.0162046
-0.0170012 0.143984 0.298363
-0.187507 0.041112 0.475714
0.098174 -0.105126 0.348816
-0.303225 -0.123946 0.475714
0.372889 -0.101334 0.475714
-0.358911 0.079731 0.487685
0.312329 0.114451 0.487685
-0.28121 0.283575 0.000952056
-0.212404 -0.219252 0.093583
0.259729 -0.174758 0.487685
-0.112293 -0.0871522 0.487685
-0.0762705 0.303843 0.484028
0.167774 0.215472 0.475714
0.10884 -0.02718 0.487685
0.319156 0.0324401 0.475714
-0.141243 -0.190864 0.487685
-0.209138 -0.175758 0.487685
-0.253909 -0.0036124 0.475714
0.166642 -0.0102241 0.475714
-0.282853 0.0664956 0.475714
-0.00573368 0.26623 0.475714
-0.136219 -0.193669 0.173878
-0.0661736 -0.115073 0.314464
0.187209 -0.240817 0.475714
-0.0619592 0.0517614 0.487685
0.0213152 0.309569 0.477826
0.293415 -0.256421 -2.77556e-17
-0.194031 0.196557 0.102859
-0.106711 0.148937 0.475714
0.21363 -0.138128 0.449251
0.286283 0.233787 0.0468067
0.237835 -0.231722 0.0984807
-0.0173005 0.150004 0.475714
-0.00629923 -0.00848023 0.487685
-0.287369 0.150966 0.475714
0.0332759 -0.0677072 0.487685
-0.0868597 -0.146053 0.487685
0.0798397 0.176556 0.22924
0.113721 0.154585 0.487685
0.306356 -0.112567 0.475714
-0.164616 0.243224 0.487685
-0.194656 -0.10361 0.432863
-0.355294 -0.10328 0.475714
-0.0502404 -0.183416 0.475714
-0.263527 -0.194592 0.487685
-0.105587 -0.208428 0.487685
0.109546 0.260125 0.475714
0.073455 0.286038 0.487685
0.319231 -0.062857 0.487685
0.0965241 0.0379598 0.475714
0.13746 -0.230974 0.487685
-0.248841 -0.241632 0.48693
0.243264 0.0721586 0.475714
-0.0487357 -0.239492 0.487685
0.383448 0.0812986 0.479048
0.251793 -0.216557 0.0610244
0.0319402 0.149109 0.229009
0.159675 -0.205067 0.131575
-0.0516429 0.113123 0.313434
0.0777197 0.106903 0.340708
-0.122305 -0.260995 0.487685
0.121162 -0.29513 0.487685
-0.057434 -0.21788 0.487685
-0.301352 -0.286399 -2.77556e-17
-0.273714 -0.0680601 0.475714
-0.321547 -0.184104 0.480308
-0.136057 -0.166868 0.150213
0.229734 0.118274 0.473581
0.244619 -0.226595 0.475714
0.202188 -0.187801 0.475714
0.169346 -0.0502208 0.487685
-0.068405 0.151029 0.239788
-0.120386 0.296532 0.477182
-0.250748 0.248555 0.0843923
0.191933 0.162832 0.487685
0.0644429 -0.269382 0.475714
0.123612 0.222882 0.487685
0.141987 -0.182812 0.487685
0.137503 0.1996 0.176205
0.242469 0.00454444 0.487685
-0.121832 -0.118706 0.39033
0.106444 -0.109706 0.475714
-0.317742 0.253666 0.011848
-0.136213 -0.0233723 0.487685
0.332343 0.236342 0.00888454
-0.228617 0.0810665 0.487685
-0.0972789 0.0554637 0.475714
-0.373419 -0.0269107 0.475714
-0.0824066 0.10385 0.475714
0.196146 0.136092 0.440857
-0.233442 0.187668 0.475714
0.0790295 -0.119116 0.487685
-0.305285 0.19365 0.475714
0.2405 -0.0405773 0.475714
-0.348538 0.143287 0.475714
0.301564 0.281127 0.0123424
0.224406 -0.126457 0.475714
0.198467 0.133838 0.410167
0.275389 0.23285 0.000952056
0.00182283 -0.266747 0.487685
-0.015283 0.125962 0.238935
-0.106808 0.159521 0.207839
-0.0945632 0.216291 0.475714
-0.00884774 -0.0981411 0.487685
-0.106818 -0.1488 0.207446
0.146348 -0.169007 0.138731
-0.0504535 -0.124647 0.256449
0.056784 0.0184693 0.475714
-0.203981 0.128511 0.421678
-0.0849377 -0.121744 0.326942
-0.317004 0.05402 0.487685
0.0389634 -0.308663 0.475714
0.0740082 -0.220519 0.487685
0.0627471 0.112039 0.475714
-0.0871657 -0.0285266 0.475714
0.158896 0.0154035 0.475714
-0.28504 0.249267 0.000952056
-0.180332 -0.0785529 0.487685
0.19538 -0.0982821 0.475714
0.022271 0.144286 0.299634
-0.374721 0.0232781 0.487685
0.185559 0.116593 0.475714
0.068759 0.142895 0.341165
-0.222525 0.029412 0.487685
0.0947478 -0.181646 0.487685
0.112371 0.0150954 0.487685
-0.0835238 -0.302641 0.485653
-0.152228 0.20413 0.170052
-0.158311 0.113643 0.3923
-0.021055 -0.113673 0.475714
0.0757555 0.174924 0.199406
0.153578 -0.138655 0.399898
-0.106284 -0.181706 0.207737
0.0422518 -0.163536 0.487685
0.150101 -0.183301 0.171447
0.316762 -0.0333315 0.475714
0.0103944 0.200719 0.475714
0.149222 -0.106496 0.385416
-0.0188652 0.125772 0.475714
-0.0491307 -0.282032 0.475714
-0.247995 -0.105478 0.45566
-0.0509849 -0.138768 0.320347
0.118508 0.0779088 0.475714
-0.145044 -0.138752 0.389263
-0.031698 0.208542 0.475714
0.140683 0.286573 0.487685
-0.325601 -0.210939 -2.77556e-17
0.195153 0.193367 0.122735
0.111283 -0.126215 0.352048
0.207629 0.0629779 0.475714
-0.0411441 -0.0228619 0.487685
0.00108463 -0.1365 0.249279
0.0611854 0.150391 0.249363
-0.298542 0.103114 0.487685
-0.202811 -0.129008 0.413004
-0.0654015 0.172296 0.205032
0.0293835 0.260355 0.475714
-0.213127 -0.233584 0.487685
0.0561753 0.307173 0.484997
-0.339285 0.0328258 0.487685
0.116836 -0.0692106 0.487685
0.236709 0.239247 0.10509
-0.345516 -0.0249706 0.475714
0.0939534 -0.214401 0.475714
0.223495 -0.145148 0.487685
0.0717236 -0.151811 0.487685
0.0397852 -0.119744 0.228285
-0.0122322 0.115651 0.274246
-0.0539642 0.0872403 0.487685
0.0374495 -0.111028 0.487685
0.190243 -0.215565 0.105327
-0.259324 0.0205398 0.487685
0.0141726 -0.0412407 0.487685
0.0554501 -0.126897 0.243236
0.276382 -0.123588 0.487685
0.0118559 0.133226 0.487685
0.0261386 -0.20914 0.487685
0.0548768 -0.154795 0.208342
-0.0406684 0.0216162 0.475714
-0.275351 -0.234592 0.0741954
0.154189 0.0457184 0.475714
0.161856 0.129151 0.487685
-0.0868631 0.134919 0.487685
-0.142515 0.138812 0.475714
-0.307236 -0.0166556 0.475714
-0.188248 0.22135 0.140086
0.274878 -0.285643 0.00631759
0.282859 -0.170163 0.475714
-0.205696 -0.205285 0.475714
-0.0469752 0.286926 0.475714
-0.109236 -0.176037 0.475714
-0.0302763 -0.0692582 0.487685
-0.00534344 0.0414286 0.487685
-0.187634 0.220942 0.475714
0.177304 0.250266 0.475714
0.157593 -0.103603 0.413553
-0.0241918 -0.146631 0.475714
0.145652 0.100825 0.475714
0.356529 -0.0758632 0.487685
0.322462 0.154905 0.487685
0.25408 0.115439 0.458267
-0.0238939 -0.145161 0.233409
-0.082601 0.107322 0.34828
0.000165825 0.129217 0.270486
-0.287453 -0.0405899 0.475714
-0.0878284 0.243625 0.487685
0.139974 0.177599 0.475714
0.101403 0.126504 0.338933
0.071329 -0.241659 0.487685
-0.104781 0.137228 0.381249
-0.21681 -0.112095 0.456325
-0.0172476 -0.290841 0.475714
-0.187543 0.0113269 0.487685
0.327997 -0.250262 -2.77556e-17
-0.222818 -0.0354873 0.487685
0.301253 0.262984 0.0547569
-0.182878 0.106376 0.487685
0.0916423 -0.137325 0.348725
0.199909 -0.106004 0.423643
-0.0498192 0.118551 0.342957
-0.165522 0.200639 0.124562
0.0203885 0.0899787 0.487685
0.0386731 0.218539 0.475714
0.105877 0.097786 0.487685
-0.0692684 -0.132145 0.220941
-0.0837508 -0.127162 0.361641
-0.288801 -0.19146 0.487685
-0.192076 -0.26488 0.487685
0.0220703 0.03028 0.475714
0.0201121 0.121093 0.2621
0.0434048 0.0579684 0.487685
-0.259769 0.252267 0.0585486
-0.223302 0.214829 0.487685
0.0440939 0.0998894 0.475714
-0.203935 0.0697597 0.475714
-0.00318372 -0.184615 0.487685
0.217207 0.153008 0.487685
0.103065 -0.175567 0.17167
0.366478 0.122046 0.476897
-0.0680178 -0.0573998 0.475714
-0.267553 -0.142295 0.475714
0.0184626 -0.146967 0.255127
-0.134966 0.250504 0.475714
0.0220169 -0.11163 0.255598
0.229555 -0.0815858 0.475714
0.195634 -0.0421113 0.475714
0.290617 -0.21044 0.00836956
0.0453851 0.160417 0.475714
0.352956 -0.120538 0.475714
0.281625 0.0631216 0.475714
-0.0286188 0.154458 0.228783
0.000601914 -0.103307 0.289057
0.286269 0.0120719 0.475714
-0.133689 -0.158136 0.487685
-0.165573 -0.247744 0.475714
-0.290343 -0.233631 0.0357725
-0.275869 0.125411 0.487685
0.0388485 -0.137055 0.308402
-0.223281 0.145407 0.487685
0.0893477 -0.275007 0.475714
0.310844 0.253719 0.000952056
0.16019 -0.205278 0.159598
-0.294124 -0.261068 0.0169024
0.368619 0.0728822 0.475714
-0.319972 -0.147157 0.487685
-0.171091 -0.169881 0.487685
0.315122 -0.165014 0.487685
0.0530064 0.126161 0.341995
-0.115313 0.109092 0.382805
-0.171323 -0.204572 0.124055
-0.23261 0.166665 0.487685
-0.0462502 0.128747 0.23999
0.310239 0.0567523 0.487685
0.0152402 -0.249957 0.475714
0.0824481 -0.155121 0.18736
0.182469 0.0706847 0.487685
-0.390831 0.0437238 0.475714
-0.139776 -0.00100155 0.475714
0.331024 0.0837359 0.475714
-0.178161 0.276997 0.478837
0.056583 -0.00456227 0.487685
0.0627494 0.245919 0.475714
0.101817 0.131729 0.475714
-0.335868 0.125048 0.475714
0.197162 -0.000419639 0.487685
0.26302 -0.00784353 0.475714
-0.176214 -0.130073 0.475714
0.0748931 0.153545 0.487685
0.132417 -0.059575 0.475714
-0.145391 -0.0479501 0.475714
-0.110172 0.157936 0.167513
-0.172086 0.166537 0.475714
0.0785413 0.0999586 0.475714
0.265979 -0.0442501 0.487685
0.210447 -0.263389 0.477589
0.176483 -0.118415 0.487685
-0.158714 -0.194141 0.475714
-0.392811 -0.0464624 0.483432
-0.0991764 -0.158537 0.177569
-0.0217821 -0.103344 0.308526
-0.161036 -0.175429 0.166834
-0.142517 -0.273446 0.487685
0.198567 -0.216437 0.487685
-0.279811 0.0115594 0.475714
0.180962 0.193053 0.487685
-0.215307 0.21054 0.117574
-0.21061 0.121289 0.487685
-0.0363428 -0.193819 0.487685
0.388657 -0.032123 0.487685
0.284427 0.096355 0.487685
0.154768 0.138482 0.382604
-0.0195738 -0.127672 0.270761
-0.291425 -0.0971366 0.487685
0.0631036 -0.138571 0.332243
-0.2725 0.16918 0.487685
-0.0482917 0.137031 0.475714
0.320324 -0.139661 0.475714
0.296202 0.148176 0.475714
0.120902 -0.215662 0.475714
-0.15855 0.0235577 0.475714
0.0334469 -0.195616 0.475714
-0.150848 0.0627338 0.475714
0.157232 0.176547 0.138389
0.118521 -0.103 0.382161
0.201436 0.045796 0.475714
-0.13059 0.206968 0.475714
0.0107762 -0.134984 0.273267
0.338648 -0.0115992 0.487685
-0.0443088 -0.156938 0.223556
-0.212512 -0.138051 0.440008
-0.254201 0.182649 0.475714
-0.0993675 -0.103078 0.475714
-0.0664833 -0.0333934 0.475714
0.15699 0.176761 0.171701
0.363737 0.0456412 0.475714
-0.0320913 0.243405 0.475714
-0.0832654 -0.167767 0.189371
-0.15254 -0.129819 0.475714
-0.0696172 -0.168323 0.487685
-0.2748 -0.240401 0.010285
-0.142695 0.0906371 0.475714
-0.142527 -0.19619 0.151577
0.259561 0.12546 0.487685
-0.00772771 0.0850697 0.487685
0.110441 -0.274564 0.475714
-0.27705 -0.24995 0.0604648
0.26198 0.240592 0.0583209
-0.0552042 0.192176 0.475714
0.00769611 -0.123491 0.311086
-0.306176 0.171804 0.487685
0.122435 -0.157486 0.158879
0.238777 -0.195427 0.487685
-0.359993 0.00448215 0.475714
-0.00308856 -0.0633891 0.487685
0.121498 -0.169572 0.475714
-0.100849 -0.014313 0.487685
0.159719 -0.229518 0.475714
0.316455 0.295531 0.00616891
0.124393 -0.19055 0.181916
0.0708569 0.0314911 0.487685
-0.230454 -0.21895 0.0801945
0.083662 -0.098332 0.487685
0.0928734 -0.150477 0.219043
0.303986 0.233987 0.0151666
-0.322653 -0.0768085 0.475714
0.213975 -0.227407 0.0943741
-0.1919 -0.186538 0.127561
0.255971 0.205995 0.487685
-0.361855 -0.0397851 0.487685
-0.0787326 0.120656 0.329126
-0.0689888 0.257584 0.475714
0.285521 0.202534 0.487685
-0.300128 0.0113512 0.487685
-0.0642314 -0.10332 0.338726
-0.154415 0.180642 0.168232
0.245885 0.172031 0.475714
-0.0787196 0.177592 0.487685
-0.0517889 0.3079 0.482061
0.112144 0.18545 0.475714
0.0153979 -0.232177 0.487685
0.00876406 -0.283418 0.475714
-0.000410855 0.186874 0.487685
0.171755 -0.150669 0.475714
0.0980437 -0.0104688 0.487685
0.0513247 -0.151816 0.253598
0.0804276 0.228128 0.475714
-0.241513 0.098965 0.475714
0.0425783 -0.255216 0.487685
-0.125515 0.272175 0.487685
0.119349 0.115342 0.385892
-0.0626843 -0.0848641 0.475714
0.0417289 0.124957 0.296397
-0.122433 -0.070157 0.475714
0.301163 -0.254057 0.0261004
-0.212438 0.249445 0.475714
-0.130463 0.194507 0.188159
-0.0862687 -0.0529074 0.487685
0.0587298 -0.0662513 0.487685
0.0656134 0.181038 0.487685
0.27614 -0.250099 0.0399577
-0.0243135 0.283366 0.475714
-0.0356541 -0.215062 0.475714
0.0783334 -0.0473988 0.475714
0.0045678 -0.144732 0.487685
-0.146861 -0.111867 0.487685
-0.204154 -0.0813587 0.475714
0.144761 0.21843 0.487685
-0.37198 -0.010584 0.487685
0.00815407 0.147907 0.260762
-0.208713 0.0465035 0.487685
0.185915 -0.176869 0.487685
0.221152 -0.208338 0.112355
-0.27629 0.219599 0.475714
0.163422 0.206624 0.166487
-0.246648 0.12897 0.487685
0.148836 -0.203146 0.475714
-0.0736488 0.0283564 0.475714
0.296614 -0.0702736 0.487685
0.183819 0.213523 0.149953
-0.0383524 0.108083 0.475714
0.225649 0.0595535 0.487685
0.110064 0.143229 0.369392
-0.0332279 0.127561 0.294336
-0.183665 -0.102553 0.475714
-0.121842 -0.232678 0.487685
-0.140254 -0.0909119 0.487685
0.134379 -0.134343 0.375054
0.0117231 0.256263 0.487685
-0.0682961 0.140146 0.351108
0.0652577 0.19401 0.475714
0.165821 -0.261187 0.475714
-0.0413071 0.163165 0.475714
-0.0964155 -0.273975 0.487685
-0.257157 0.225057 0.0750707
0.10808 0.166067 0.211349
0.062623 0.265132 0.475714
-0.0695662 -0.235349 0.487685
0.236089 0.144989 0.487685
-0.262411 -0.0191274 0.487685
0.045828 0.108307 0.312702
0.135356 -0.109914 0.487685
-0.25141 0.218465 0.475714
0.114986 -0.00344717 0.475714
-0.233022 -0.172904 0.475714
-0.129046 0.172477 0.475714
-0.0309144 -0.0895083 0.475714
0.222124 -0.035303 0.487685
-0.0147627 0.166104 0.487685
-0.204029 -0.124729 0.487685
-0.0514378 -0.117278 0.475714
-0.185096 0.123638 0.44504
-0.206438 0.136154 0.475714
-0.180387 0.127028 0.403711
-0.103716 0.0904854 0.487685
-0.227477 -0.101719 0.475714
0.327368 0.0153248 0.487685
-0.136468 0.115621 0.475714
0.147093 0.264451 0.487685
-0.37438 0.093724 0.475714
-0.155359 0.14322 0.398422
-0.299575 0.132853 0.475714
-0.121472 0.13783 0.487685
0.287671 0.29601 0.00130677
0.161015 -0.0696586 0.475714
0.272531 -0.226027 0.0582269
0.242457 0.0355104 0.487685
-0.251418 -0.128298 0.475714
0.282221 -0.203598 0.487685
-0.295513 -0.0663565 0.475714
-0.155309 0.178548 0.132797
-0.32364 -0.11659 0.487685
-0.196965 0.0230097 0.475714
-0.161141 -0.102485 0.394882
-0.0121852 -0.144101 0.285612
0.267167 0.155995 0.475714
-0.0396423 -0.155073 0.248763
0.140234 -0.153297 0.475714
-0.217205 -0.15353 0.475714
0.180669 0.115907 0.398295
0.255048 0.226696 0.0922119
0.21912 0.0102715 0.475714
-0.296428 0.294773 0.000952056
-0.247605 -0.238183 0.083857
-0.0374587 0.0552959 0.487685
0.322966 -0.121997 0.487685
-0.339929 -0.159907 0.482481
-0.218119 0.183871 0.487685
-0.290182 0.0841517 0.475714
0.243343 -0.235587 0.064917
-0.0294793 0.263917 0.487685
-0.299394 0.237018 0.0155823
0.0398041 0.130612 0.266696
-0.00430071 0.12431 0.293119
-0.115939 0.03432 0.475714
0.217535 -0.0978589 0.475714
0.237029 0.0929278 0.475714
-0.112013 0.252308 0.487685
-0.197788 0.197946 0.13203
0.199673 0.183794 0.475714
0.137737 0.0117402 0.487685
0.2262 -0.223641 0.475714
0.0630998 0.134382 0.487685
-0.0130034 -0.118602 0.257417
-0.254506 -0.214307 0.0804849
-0.023917 -0.11203 0.245616
0.0149593 0.122547 0.282698
-0.0968868 -0.0740922 0.475714
0.0782951 0.0562737 0.487685
0.307191 -0.0863069 0.475714
0.0353343 -0.0371048 0.475714
0.0971864 0.183488 0.215406
-0.372461 -0.101734 0.487685
-0.0724149 -0.278966 0.487685
0.0588888 -0.102241 0.334866
0.114876 0.18288 0.167471
-0.222509 -0.0612642 0.487685
0.124708 0.194487 0.196437
-0.127856 -0.183583 0.193723
0.102276 -0.14828 0.188178
-0.174251 -0.106553 0.421486
-0.130186 0.188267 0.487685
0.338582 0.040544 0.487685
-0.248517 -0.222023 0.475714
-0.0689055 0.28216 0.487685
-0.00299496 0.300991 0.475714
-0.237594 0.00551637 0.487685
0.204095 0.0225689 0.487685
0.0163772 0.00439789 0.487685
0.0233924 0.111408 0.475714
0.159278 -0.114858 0.475714
0.250872 -0.0762012 0.475714
0.0991409 -0.0765534 0.475714
0.36718 -0.0466543 0.475714
0.0166794 -0.100942 0.475714
-0.0779369 -0.0964202 0.487685
-0.258445 -0.168603 0.475714
-0.0233268 -0.235825 0.487685
0.168514 -0.0256632 0.487685
0.241075 -0.240657 0.487685
-0.000896062 -0.11559 0.283927
0.105285 0.164734 0.475714
0.0998344 -0.133902 0.487685
-0.0810156 0.204449 0.487685
-0.254892 -0.11497 0.487685
0.23646 0.199816 0.475714
0.286573 0.247852 0.0154945
0.0806051 -0.199455 0.487685
-0.118882 0.0552253 0.475714
0.192629 -0.123744 0.411918
-0.177774 -0.0516433 0.475714
0.3073 -0.235502 -2.77556e-17
0.0441945 -0.126727 0.487685
-0.302906 0.274548 0.0133469
-0.0239545 0.133788 0.276768
-0.198165 -0.00457744 0.475714
-0.301617 0.0685837 0.487685
0.0823114 -0.0297791 0.475714
0.291533 0.114771 0.475714
0.165757 -0.181873 0.123961
0.0958677 0.186359 0.487685
0.142295 -0.197916 0.143425
0.0764059 0.147035 0.196015
0.14456 -0.066212 0.487685
0.29605 0.263192 0.0302357
0.227316 0.16727 0.475714
0.0390575 0.160258 0.248398
-0.2975 0.212766 0.00776183
0.114243 -0.138807 0.372692
0.26678 -0.241648 0.0107532
0.247091 0.236103 0.487685
0.371526 0.0577802 0.487685
-0.0848525 -0.102032 0.342141
-0.0102284 -0.166565 0.475714
0.132105 -0.249153 0.475714
-0.263552 0.0656428 0.487685
-0.298655 -0.266306 -2.77556e-17
0.0138608 0.143749 0.242423
0.043108 -0.0810603 0.475714
0.101388 0.217325 0.475714
0.398747 0.00236763 0.479541
-0.0607617 0.144824 0.487685
0.157848 0.108638 0.487685
0.00423675 0.146342 0.282795
-0.362607 -0.127131 0.475714
-0.0517213 0.247526 0.487685
-0.177497 -0.180474 0.153494
-0.323163 -0.281463 -2.77556e-17
-0.275527 0.0348007 0.487685
-0.140491 -0.11037 0.401215
-0.0581486 0.0685145 0.475714
-0.0437316 -0.103648 0.306763
0.091838 0.281601 0.475714
0.175504 0.0439122 0.487685
0.0865317 0.0155393 0.475714
-0.0118544 0.0622692 0.475714
0.0576948 0.167706 0.235325
-0.161698 0.0826197 0.487685
-0.0961541 0.159163 0.487685
-0.166253 0.227373 0.475714
-0.28072 -0.277609 0.00781063
-0.192525 -0.213897 0.108328
0.391097 0.0591898 0.479171
-0.0905901 -0.141602 0.220575
0.0335638 0.071233 0.475714
0.232872 -0.212015 0.0728853
-0.125319 0.0171352 0.475714
0.25437 -0.219552 0.0847288
-0.066992 0.138218 0.206391
-0.256545 0.276634 0.000952056
0.124023 -0.0392915 0.475714
0.161329 0.189221 0.475714
0.371715 0.103972 0.487685
-0.243153 -0.0287734 0.487685
-0.212219 0.201156 0.475714
-0.0203383 -0.0102189 0.475714
-0.0302456 -0.272849 0.487685
-0.294712 0.207347 0.48699
0.265753 0.0790723 0.475714
-0.222444 0.127319 0.435091
-0.109958 -0.131668 0.377568
0.07239 -0.169154 0.213629
0.25077 -0.242546 0.0859857
0.161846 0.0810179 0.475714
0.0112369 -0.106707 0.243653
-0.0459581 0.139754 0.310512
0.219331 0.229324 0.0899662
0.0656253 -0.177602 0.475714
-0.212234 0.229963 0.0890012
0.132411 0.197565 0.155844
-0.121491 0.183019 0.158082
0.152126 0.148564 0.487685
0.359878 -0.0216641 0.487685
-0.182863 -0.137882 0.419479
-0.33447 -0.238735 0.007582
0.0382864 0.012703 0.487685
0.104471 0.239083 0.475714
-0.231896 0.240799 0.0965782
-0.0107469 -0.253706 0.475714
-0.368692 0.0447616 0.487685
-0.0969903 -0.125161 0.475714
0.0937971 -0.16186 0.487685
-0.165955 0.213668 0.142829
-0.21172 0.232498 0.114488
0.334984 -0.07382 0.475714
0.0901189 -0.291854 0.487685
0.275356 0.254692 0.053432
-0.329531 0.0706439 0.475714
0.238309 -0.16512 0.487685
-0.304393 -0.200996 0.00221757
-0.0043546 -0.0811706 0.475714
-0.223017 0.0594767 0.475714
0.0186781 -0.134197 0.475714
-0.289059 0.173615 0.475714
0.187255 0.237611 0.487685
-0.0534444 -0.0157218 0.475714
-0.103781 -0.295255 0.475714
0.171923 -0.114103 0.432618
-0.0109199 0.249977 0.487685
-0.3338 -0.138751 0.475714
-0.186562 -0.0301524 0.475714
-0.100548 -0.128194 0.339822
-0.130732 -0.177234 0.475714
-0.164003 -0.0858229 0.475714
-0.107392 0.108902 0.360665
-0.310544 0.16022 0.475714
-0.291996 -0.226817 -2.77556e-17
-0.21645 -0.197428 0.0977877
0.334879 -0.0320641 0.475714
-0.0847871 0.179269 0.186023
0.125428 -0.272403 0.487685
-0.311831 -0.247482 0.0394203
0.218021 0.223615 0.122227
0.217664 -0.0599919 0.487685
0.259974 -0.112473 0.475714
0.116394 -0.0906632 0.487685
-0.226277 -0.220037 0.475714
-0.284677 0.24037 0.0598625
-0.243695 -0.0625827 0.475714
-0.2365 0.118189 0.487685
0.0383062 -0.018995 0.487685
-0.0898218 0.148644 0.218259
-0.329374 0.246351 0.000952056
-0.137916 0.108208 0.386048
0.188579 -0.0245543 0.487685
0.0541374 0.130819 0.249519
-0.0740602 -0.213293 0.475714
-0.184793 -0.250455 0.475714
0.297887 -0.158633 0.487685
-0.370588 -0.0598509 0.475714
0.373584 -0.0757011 0.475714
0.0947089 -0.0504245 0.487685
-0.0372446 0.138762 0.487685
0.125277 0.266145 0.487685
-0.221548 -0.190065 0.475714
-0.208172 0.011406 0.487685
0.0923926 0.150486 0.475714
0.132791 0.0612364 0.475714
0.0192121 -0.125224 0.235483
-0.0589611 0.0319128 0.487685
0.262923 -0.190455 0.475714
0.183538 -0.0795431 0.475714
0.182713 0.143388 0.420639
-0.257053 -0.0925485 0.475714
-0.0291879 -0.136586 0.296685
-0.201341 0.230105 0.487685
0.126914 0.0928534 0.487685
-0.156298 0.122628 0.42333
0.140581 0.1324 0.368478
-0.127774 -0.207056 0.487685
0.126071 0.136733 0.487685
-0.176517 -0.204359 0.475714
0.34105 0.254328 0.00700588
-0.321207 -0.0158231 0.487685
-0.223548 0.130086 0.475714
-0.204925 -0.157786 0.487685
0.093724 -0.127987 0.475714
-0.202941 -0.220334 0.130246
0.155593 0.233532 0.475714
-0.102239 -0.155643 0.475714
0.142185 0.155228 0.475714
-0.305544 0.259946 0.000952056
-0.00830489 0.125362 0.257871
-0.0509608 0.166355 0.220814
-0.00769341 0.210366 0.475714
0.112023 0.113154 0.352067
0.209436 0.115392 0.475714
0.272999 -0.0593938 0.475714
-0.0149657 -0.108059 0.278482
-0.0532979 -0.0767238 0.487685
-0.161481 0.102714 0.487685
-0.0179012 -0.20197 0.475714
-0.163162 0.146683 0.475714
0.191707 -0.189119 0.135386
0.097793 0.150183 0.205659
0.0164023 0.044841 0.487685
0.205401 -0.0852549 0.487685
0.29337 -0.27524 0.0113685
0.269943 0.0275526 0.475714
-0.329123 0.102877 0.475714
0.0168616 0.114285 0.243454
0.0573038 -0.127744 0.219969
-0.115207 -0.109425 0.487685
0.125618 -0.156413 0.487685
0.0532607 0.13043 0.233451
-0.308924 0.0256363 0.475714
-0.393872 -0.0205597 0.475714
-0.187971 0.169937 0.487685
-0.170649 -0.0136404 0.487685
0.15821 -0.0384137 0.475714
-0.167866 -0.119798 0.385742
-0.204311 -0.0277698 0.487685
-0.299544 -0.201926 0.475714
0.0261984 0.15873 0.475714
0.0804782 -0.107515 0.360409
-0.21716 0.206792 0.0935783
-0.0324607 -0.00482621 0.487685
0.20596 -0.170785 0.487685
0.0225394 -0.143122 0.277538
-0.115998 -0.0293248 0.487685
-0.00930232 0.283717 0.487685
-0.0844364 0.0439093 0.487685
0.0537061 -0.287488 0.475714
-0.0230188 0.154859 0.27648
-0.157894 0.180897 0.475714
0.0177841 -0.111042 0.275363
-0.233571 0.0194601 0.475714
0.0620629 0.0986161 0.487685
-0.305643 0.114264 0.475714
0.108638 -0.227957 0.487685
0.291452 -0.234667 0.0368588
0.172769 -0.190142 0.487685
0.00489848 0.106957 0.267834
-0.0578288 0.16657 0.248587
-0.121347 0.158835 0.487685
0.205822 0.165615 0.475714
0.044695 0.135898 0.219545
-0.215046 -0.101465 0.437171
-0.0671061 0.122128 0.35681
-0.299597 0.260389 0.0313685
0.222001 0.124892 0.425035
0.108548 -0.119005 0.487685
-0.261634 -0.0354578 0.475714
0.0321645 0.0130586 0.475714
0.0596575 0.106977 0.328266
0.213295 -0.130486 0.429849
0.156291 -0.247069 0.487685
-0.164625 -0.228367 0.475714
-0.278589 0.10545 0.475714
0.176518 -0.136625 0.409228
0.218578 0.115046 0.456394
-0.165444 -0.137756 0.407515
0.0672837 0.0688617 0.487685
-0.355174 -0.079936 0.475714
0.244383 0.0213586 0.475714
-0.308298 -0.0997019 0.475714
0.249706 0.219395 0.475714
-0.166014 -0.151174 0.487685
-0.0526123 -0.126428 0.212107
-0.048362 0.211019 0.487685
-0.0841724 0.193544 0.475714
0.0365353 0.296902 0.487685
0.0728779 0.0110043 0.487685
-0.247622 0.033989 0.475714
0.285711 0.234841 0.0673556
0.19192 -0.256013 0.487685
0.141807 -0.289625 0.478381
0.0881885 0.111958 0.360275
0.0407158 0.243711 0.487685
0.209756 0.231719 0.487685
0.0189728 0.19299 0.487685
0.175269 -0.000311464 0.487685
0.152774 -0.126941 0.383129
0.0805421 -0.105744 0.335065
-0.101883 0.234555 0.487685
0.265263 -0.160149 0.475714
-0.0944985 0.296758 0.475714
-0.0897397 -0.16637 0.487685
0.0996176 0.143511 0.351946
0.00651027 0.127251 0.308525
-0.00223619 -0.0216658 0.475714
-0.0797701 -0.0125 0.487685
0.0283695 0.110001 0.295531
0.373678 0.0246055 0.475714
0.197403 -0.126283 0.451526
-0.347769 -0.101819 0.487685
0.358543 -0.0622467 0.475714
0.178717 -0.222701 0.475714
0.0389954 -0.102096 0.319505
-0.289509 -0.132631 0.487685
0.328391 -0.109602 0.475714
-0.0339316 0.133402 0.224738
-0.197912 -0.223711 0.475714
-0.238832 -0.227933 0.10379
-0.300889 0.247628 0.0423934
0.327274 0.108372 0.475714
0.0126001 -0.195296 0.487685
0.1769 0.185271 0.124373
-0.195981 0.268434 0.475714
0.202995 -0.118298 0.475714
-0.274269 -0.223073 0.0609553
0.145236 0.124005 0.487685
-0.0448053 0.00213925 0.475714
0.211187 0.143037 0.429788
-0.174105 0.118278 0.475714
-0.0755208 0.121994 0.487685
-0.315702 -0.22964 -2.77556e-17
-0.328296 0.086485 0.487685
-0.188522 0.0605018 0.487685
0.309999 0.168877 0.487685
-0.238746 0.241154 0.0688183
-0.28289 -0.0254344 0.487685
-0.113336 0.142876 0.365832
-0.277666 0.259631 0.0426668
0.302615 -0.0335038 0.487685
-0.0614631 -0.297223 0.475714
0.217723 -0.211551 0.487685
0.346326 -0.129722 0.487685
-0.132608 0.222545 0.487685
-0.166081 0.19606 0.158527
0.0280294 0.132805 0.284794
0.274415 -0.262389 0.0122178
0.156368 -0.147761 0.487685
-0.0388762 -0.290753 0.487685
0.131749 -0.176486 0.149842
0.0387052 0.144004 0.310313
0.00213614 0.0986255 0.475714
0.0538928 0.28436 0.487685
0.296099 0.242822 0.0318728
0.199177 0.130259 0.487685
-0.00809672 -0.128592 0.475714
0.394561 0.0196606 0.487685
0.204613 0.213242 0.100887
-0.106045 0.156052 0.18395
0.0120884 0.229184 0.487685
-0.188 0.0907086 0.475714
0.241741 0.214031 0.0987764
-0.197762 0.211717 0.487685
-0.169018 0.0472541 0.475714
0.0383053 -0.119068 0.248079
-0.202623 0.136494 0.454825
0.0210702 -0.101901 0.305417
0.341433 0.157875 0.482816
0.355449 0.134459 0.487685
-0.0813793 0.224044 0.487685
-0.262687 0.212637 0.487685
-0.262551 -0.154633 0.487685
0.22399 0.0220297 0.487685
0.0743583 0.30416 0.480877
0.0266137 -0.0954634 0.487685
0.232248 -0.137398 0.461838
-0.149328 0.254952 0.487685
0.0116937 -0.0600841 0.475714
0.152416 0.200899 0.487685
-0.0625485 -0.144953 0.475714
0.111371 0.0383845 0.487685
-0.269499 -0.229185 0.484537
0.26132 0.0600335 0.475714
0.355056 -0.139473 0.476525
0.236077 -0.0148654 0.475714
-0.101385 0.10699 0.475714
0.125591 0.173159 0.487685
0.189923 -0.10574 0.440064
-0.153932 -0.248826 0.487685
-0.11882 0.126706 0.357803
0.177896 -0.102304 0.414958
0.0197316 0.183405 0.475714
0.0290266 0.144044 0.487685
0.254171 -0.0271583 0.475714
0.000732988 -0.237799 0.475714
0.0462535 -0.158401 0.234159
-0.0264848 0.00889647 0.475714
-0.0886832 -0.174672 0.210337
-0.210867 -0.112534 0.418385
0.139051 0.0246464 0.475714
-0.0257754 0.0912286 0.487685
-0.131677 -0.0536269 0.487685
-0.155661 0.108472 0.410459
-0.190274 -0.047512 0.487685
0.188018 0.260484 0.487685
-0.264353 -0.0795208 0.487685
-0.0224126 0.0330993 0.487685
-0.170245 -0.198688 0.159372
-0.181594 0.190551 0.124244
0.260894 -0.242442 0.0515602
0.319134 0.0689916 0.475714
-0.317369 -0.166226 0.475714
0.224425 0.0784124 0.487685
0.211683 0.206571 0.127365
0.0899674 -0.230801 0.487685
-0.139257 0.0716621 0.487685
0.0471087 -0.0518538 0.475714
0.0120443 0.274842 0.487685
0.272366 -0.104845 0.487685
0.0287701 0.0530103 0.475714
-0.0721919 0.0740325 0.487685
0.201363 0.118776 0.446065
0.00152442 0.0156809 0.487685
0.271014 0.106176 0.475714
0.0156932 0.294607 0.487685
0.115718 0.162286 0.166846
-0.272485 0.230973 0.011162
-0.346767 -0.00528805 0.487685
-0.0687887 -0.133077 0.321068
0.291564 0.184336 0.487685
0.326004 0.127032 0.475714
0.231926 0.247673 0.475714
-0.0657012 -0.138183 0.202399
0.225603 -0.254801 0.484328
0.0284522 0.130945 0.231597
-0.116578 -0.153129 0.186714
0.180034 0.101382 0.487685
0.0206447 -0.295831 0.487685
-0.292613 -0.235105 0.0166966
0.0457015 0.00352753 0.475714
-0.0220684 0.117704 0.259058
0.312641 -0.258563 0.0121234
-0.219115 -0.128175 0.475714
-0.212923 0.116058 0.470005
0.269234 0.250054 0.00924248
-0.179294 -0.00020236 0.475714
-0.190407 -0.103225 0.412995
0.0970575 -0.121745 0.340239
0.057944 -0.117427 0.475714
-0.101307 -0.179717 0.189996
-0.0385146 0.179337 0.487685
-0.0347388 -0.241403 0.475714
0.000328869 -0.0439603 0.475714
-0.145451 -0.288359 0.477157
-0.0643192 -0.267445 0.475714
0.135438 0.131994 0.399258
0.0915866 0.243038 0.487685
-0.259801 0.0444799 0.487685
-0.297369 0.0489918 0.487685
0.04127 0.1146 0.329442
-0.180371 -0.27623 0.479606
0.000202805 0.163702 0.475714
0.0624633 -0.212594 0.475714
-0.116044 -0.163183 0.165057
0.127715 -0.0161875 0.487685
-0.163683 -0.26466 0.475714
0.130556 -0.136703 0.392853
-0.119988 0.0918182 0.475714
0.304624 0.126035 0.475714
-0.24511 0.0730244 0.487685
-0.267313 0.186766 0.487685
-0.0988094 -0.250229 0.487685
-0.179355 0.257808 0.475714
-0.202722 -0.246706 0.475714
-0.120888 -0.192676 0.475714
-0.28816 -0.25439 0.0402976
-0.0613196 0.135628 0.232216
0.175369 -0.106148 0.475714
-0.132579 -0.223762 0.475714
-0.15779 -0.18089 0.487685
0.0524783 -0.154314 0.475714
-0.0633335 -0.132223 0.246011
-0.149018 0.150721 0.487685
-0.334057 0.0455013 0.475714
0.0334089 0.120759 0.487685
0.304951 0.044116 0.475714
-0.292934 0.230521 0.000952056
-0.286884 -0.114637 0.487685
0.056773 0.216831 0.475714
0.277781 -0.0722033 0.487685
0.291656 -0.237946 0.0537184
0.0632953 0.163411 0.475714
0.0788819 -0.172826 0.487685
0.289755 -0.189854 0.475714
0.284395 -0.0024201 0.487685
-0.137081 0.0309269 0.475714
0.198764 0.248975 0.475714
0.156336 -0.00231485 0.487685
0.00897259 -0.10266 0.262423
0.171567 -0.164218 0.487685
0.279653 0.150736 0.487685
0.24073 0.115642 0.487685
-0.00253466 -0.137995 0.265499
0.175091 -0.21141 0.138516
0.177834 -0.206469 0.11477
0.184813 -0.0059006 0.475714
0.0723259 -0.138337 0.475714
-0.316911 -0.0597166 0.475714
0.00330746 0.0309752 0.475714
-0.241494 -0.113845 0.475714
-0.121651 -0.0976271 0.475714
0.257244 0.146977 0.487685
-0.0407505 0.132557 0.336342
0.149915 0.168684 0.487685
0.121957 -0.240485 0.487685
-0.229016 0.205313 0.475714
0.236205 0.162908 0.487685
-0.0659501 0.231507 0.487685
0.192324 0.111403 0.411108
0.106109 0.119142 0.487685
0.180636 0.0575307 0.475714
0.0278491 -0.133391 0.294791
0.120858 0.287402 0.487685
-0.231767 -0.011382 0.487685
0.253381 0.11165 0.475714
-0.275711 0.0809465 0.487685
0.0578924 0.167785 0.251549
0.175978 0.269 0.475714
0.0747276 -0.134951 0.353787
-0.207884 -0.193628 0.118095
0.0238115 -0.131322 0.319599
0.0857227 -0.165624 0.22499
0.165759 0.109976 0.413638
-0.106969 0.131269 0.475714
0.261292 0.222702 0.0710574
-0.0669412 0.0889972 0.475714
0.0321862 -0.226447 0.487685
-0.0547173 -0.102044 0.320596
0.298779 -0.203141 0.487685
-0.234814 0.224364 0.475714
0.0683761 0.137135 0.239344
0.0891386 0.0804075 0.487685
0.357352 -0.0935994 0.487685
0.30598 0.0206304 0.475714
-0.00271729 0.132998 0.475714
0.0834551 -0.130793 0.333518
0.364895 0.0929219 0.475714
-0.232891 -0.10221 0.447115
-0.168953 -0.182798 0.125813
-0.0910566 -0.138919 0.350118
-0.379678 0.0573848 0.475714
0.293687 0.232316 0.000952056
0.145816 0.199183 0.144513
0.217792 -0.185319 0.487685
-0.164592 -0.124542 0.487685
-0.0124602 -0.1021 0.259519
0.369442 -0.114927 0.48629
-0.062684 0.295676 0.475714
0.12084 0.172253 0.201005
-0.303662 -0.0289747 0.487685
-0.103817 -0.141591 0.487685
-0.0390652 -0.140275 0.222156
-0.18445 -0.164044 0.475714
-0.154911 0.050625 0.487685
0.0309809 -0.152117 0.266217
-0.177068 0.214684 0.115773
-0.233064 0.0467638 0.487685
-0.0340759 -0.132023 0.487685
0.302789 -0.0208338 0.475714
-0.274318 -0.0901673 0.475714
0.0196121 -0.261834 0.487685
0.0704063 -0.06205 0.475714
0.373887 0.0372124 0.487685
0.196162 0.195564 0.139947
-0.0235806 -0.21863 0.487685
0.0161134 0.140673 0.275469
0.0964407 0.181157 0.18115
-0.304761 -0.0565783 0.487685
0.09461 0.110441 0.342352
-0.212947 -0.0935704 0.487685
0.104257 -0.257807 0.487685
-0.152777 -0.193925 0.137811
0.0370653 0.176592 0.475714
0.290695 0.273969 0.000952056
0.311146 0.257947 0.0236444
-0.0910797 0.179165 0.475714
0.208683 0.208201 0.487685
0.0411088 -0.101052 0.475714
0.234466 -0.128138 0.446932
0.0540844 0.199505 0.487685
-0.134829 -0.0745143 0.487685
-0.0281367 0.115188 0.487685
0.0103886 0.079568 0.475714
-0.135253 0.127957 0.487685
-0.272727 0.232937 0.0698042
-0.271108 -0.00426069 0.487685
-0.127901 -0.00834081 0.487685
0.0202792 -0.111085 0.487685
0.111108 0.209714 0.487685
0.325381 -0.151216 0.487685
0.234932 -0.112869 0.475714
-0.110835 -0.227117 0.475714
-0.00434405 0.10961 0.287473
-0.0983848 0.185867 0.214218
-0.171051 -0.182173 0.475714
0.266031 -0.227553 0.0750301
0.348558 -0.00864667 0.475714
-0.376986 -0.0439573 0.475714
0.00438804 0.129663 0.252656
-0.00483468 0.152545 0.487685
0.157172 0.11523 0.382206
0.29086 0.209598 0.000952056
0.209282 0.0800126 0.475714
0.0947127 -0.0930989 0.475714
0.236069 -0.211773 0.475714
-0.13817 0.144146 0.393505
-0.2948 -0.237312 0.0584345
-0.0622432 -0.159301 0.246895
0.13196 -0.175017 0.186535
0.0241996 -0.0274205 0.487685
0.184138 0.136101 0.401171
0.0298154 -0.116477 0.271487
-0.367601 0.0712159 0.475714
0.0485449 0.0885306 0.487685
-0.18357 0.0279205 0.487685
-0.294549 -0.00524928 0.487685
0.0488209 0.234689 0.475714
0.0645399 -0.0122744 0.475714
-0.276711 -0.235104 0.0458841
-0.197844 -0.199411 0.137006
0.204959 0.197716 0.109501
0.0475844 -0.266951 0.475714
-0.124087 -0.103656 0.382685
0.211286 0.140353 0.44738
-0.0979691 0.126515 0.342233
0.0673972 -0.138639 0.240231
-0.102171 -0.261839 0.475714
-0.0178873 0.144135 0.236952
-0.103865 0.198794 0.487685
0.167242 0.187412 0.163391
0.281077 0.13881 0.475714
-0.146382 0.193271 0.487685
0.146665 -0.124906 0.414133
-0.249485 0.165203 0.487685
0.229982 -0.233449 0.0750848
-0.253283 0.236923 0.00192751
0.122965 -0.110997 0.475714
-0.324348 -0.0943687 0.475714
-0.101182 0.257298 0.475714
0.0718498 -0.287566 0.487685
0.088549 0.163468 0.487685
-0.273251 -0.180796 0.487685
-0.355194 0.104334 0.475714
0.258998 0.00784952 0.487685
0.184593 -0.19115 0.475714
0.100033 -0.204211 0.487685
0.00876266 -0.124719 0.288996
0.317621 0.234425 0.000952056
-0.167554 -0.0504173 0.487685
-0.221639 0.142587 0.445338
-0.253071 -0.179079 0.487685
0.156791 0.0916369 0.487685
0.0728564 0.140939 0.475714
-0.0518554 -0.117948 0.303471
0.24998 -0.168223 0.475714
-0.0302022 0.116017 0.32741
-0.0378225 -0.302428 0.475714
-0.0935495 -0.221128 0.475714
0.190604 0.215265 0.111281
-0.0503889 0.0500749 0.475714
0.111729 -0.183546 0.475714
-0.270222 0.135647 0.475714
-0.315938 0.178231 0.475714
0.179271 0.138219 0.487685
0.00870762 0.133339 0.291904
-0.22549 0.106627 0.475714
-0.055382 0.0132701 0.487685
-0.0321389 -0.030272 0.475714
0.154615 -0.219045 0.487685
-0.0189044 0.194776 0.487685
0.180011 -0.0548486 0.475714
0.122762 -0.0531054 0.487685
-0.116269 -0.00614312 0.475714
0.144903 0.185625 0.181499
0.275477 -0.219229 0.00936428
-0.030933 -0.108706 0.321385
-0.181155 0.20747 0.145987
-0.0416407 -0.0767685 0.475714
0.304103 -0.143744 0.475714
-0.0223671 -0.162605 0.487685
0.12085 0.236261 0.475714
-0.152579 0.133949 0.384916
0.132109 0.0770272 0.487685
-0.3438 0.15376 0.487685
-0.196402 -0.137908 0.429044
0.106253 0.227765 0.487685
-0.0774392 -0.074081 0.475714
-0.337883 0.110231 0.487685
0.0101735 -0.0101155 0.487685
0.252004 0.13007 0.450829
-0.146837 0.00933925 0.487685
-0.374177 0.00675552 0.487685
-0.123163 -0.283887 0.487685
-0.00438169 0.228301 0.475714
-0.0998077 0.0665647 0.487685
0.274073 0.0511662 0.487685
-0.24812 -0.117123 0.443961
0.210792 -0.218361 0.120971
0.0466061 -0.185684 0.475714
0.322784 0.143155 0.475714
-0.050972 -0.141066 0.256029
0.0556386 -0.129753 0.344896
0.116211 -0.113873 0.391089
0.089311 0.10315 0.487685
0.127353 -0.190729 0.475714
0.268049 -0.0178617 0.487685
0.141598 0.239686 0.487685
0.134463 -0.115361 0.368915
0.24066 -0.211473 0.0886689
-0.145118 -0.169886 0.487685
-0.0356693 -0.136841 0.26843
-0.135858 0.291691 0.479489
-0.385855 0.0223861 0.475714
0.322401 -0.183364 0.48097
-0.222651 -0.20321 0.487685
0.341959 -0.0651107 0.487685
0.121616 0.0427714 0.475714
-0.00541618 0.13839 0.246446
0.0550237 -0.242709 0.487685
-0.0261335 -0.0995179 0.487685
0.358173 -0.0326228 0.475714
-0.351963 0.0883557 0.475714
-0.000991374 0.00122624 0.475714
-0.046031 0.108877 0.330415
0.315826 0.00492226 0.487685
-0.365525 -0.0731244 0.487685
-0.256564 0.198728 0.475714
0.170119 -0.0758164 0.487685
-0.210557 -0.263327 0.486674
0.125775 0.142011 0.365458
0.190325 -0.205834 0.137993
-0.212613 0.11496 0.431376
0.0656055 0.118969 0.349253
0.149958 0.0255564 0.487685
0.119877 0.200348 0.475714
0.089842 -0.253932 0.475714
0.157106 -0.284311 0.477658
0.25948 0.163749 0.487685
0.235334 -0.0544149 0.487685
0.307269 -0.0679446 0.475714
0.043723 0.202868 0.475714
0.117995 -0.021085 0.475714
0.148224 0.172551 0.158772
0.209529 0.196612 0.475714
0.135721 0.269096 0.475714
-0.309127 -0.147478 0.475714
-0.00481371 -0.305399 0.475714
-0.152093 0.194235 0.134785
0.0411121 -0.144151 0.218817
0.300422 0.0612158 0.475714
-0.262731 0.144206 0.487685
-0.0990146 -0.159065 0.217096
-0.058368 -0.169515 0.475714
-0.122328 0.123324 0.475714
0.215213 -0.0495069 0.475714
-0.282795 0.141226 0.487685
0.111249 -0.152378 0.17547
0.161182 0.191199 0.133112
0.135276 0.223412 0.475714
0.29898 0.247188 0.0565989
-0.335247 0.0229081 0.475714
0.2015 -0.0834343 0.475714
-0.35521 -0.0189439 0.487685
-0.252866 -0.224921 0.0924169
0.351352 0.116827 0.475714
-0.151181 -0.0291411 0.487685
-0.218994 -0.117504 0.487685
-0.0253395 0.16463 0.475714
-0.195615 -0.193073 0.487685
0.136217 0.0877022 0.475714
-0.0383435 -0.257004 0.475714
0.148778 -0.184721 0.136882
0.103426 -0.282958 0.487685
-0.113959 0.17254 0.201889
-0.0483094 0.154867 0.487685
-0.108262 0.298541 0.487414
0.0811803 -0.108638 0.475714
0.111823 -0.103313 0.361909
-0.107033 -0.0711086 0.487685
-0.0614711 -0.11684 0.346756
-0.319283 0.122554 0.475714
-0.355926 -0.114353 0.487685
0.217669 0.238691 0.475714
-0.123648 0.148556 0.475714
0.121047 0.162361 0.475714
-0.285477 -0.0694955 0.487685
-0.159387 -0.106086 0.410413
-0.197972 0.0963347 0.487685
0.0163709 -0.140739 0.237646
-0.324633 0.142177 0.475714
-0.340698 -0.118607 0.487685
-0.0696281 -0.257538 0.487685
-0.0672278 -0.119069 0.475714
-0.160017 -0.0417514 0.475714
0.237733 -0.0672752 0.475714
0.343706 -0.0262833 0.487685
0.00394002 0.249315 0.475714
0.205958 -0.10182 0.437704
-0.0889821 -0.148401 0.18513
0.280147 -0.154665 0.475714
0.350134 0.00442937 0.487685
-0.21322 0.0248103 0.475714
-0.00692888 -0.278817 0.475714
0.258477 0.071676 0.487685
0.290457 -0.0619371 0.475714
0.168271 0.211896 0.1523
-0.246686 -0.0405826 0.475714
-0.285124 0.119837 0.475714
0.165077 0.260043 0.487685
-0.0955355 -0.0345132 0.487685
-0.224554 0.255395 0.483889
-0.0470845 0.129128 0.217143
0.264225 -0.27118 -2.77556e-17
-0.238743 0.134327 0.475714
0.16697 0.0653833 0.475714
-0.240052 0.239678 0.487685
-0.126123 0.173145 0.19177
0.268012 0.251757 0.0676534
-0.0791946 -0.16478 0.475714
0.088381 -0.134973 0.363926
-0.146157 -0.0111961 0.487685
-0.237374 -0.206708 0.0872031
0.0217502 0.153341 0.25508
-0.0788706 0.167442 0.475714
-0.0626984 0.272814 0.475714
0.203919 -0.0524289 0.487685
-0.0139788 -0.181789 0.475714
0.265854 0.225685 0.0554465
-0.091436 0.134203 0.373617
0.0906707 -0.198666 0.475714
-0.268515 0.273357 0.0104958
-0.0204781 0.25388 0.475714
-0.30658 0.0834279 0.487685
0.0319244 0.0282174 0.487685
0.0138606 -0.0311841 0.475714
-0.0589479 0.106208 0.475714
-0.155358 -0.125286 0.378142
-0.153048 0.245618 0.475714
0.10337 -0.158062 0.210312
-0.19979 -0.166969 0.475714
-0.0835055 0.141571 0.34032
0.325266 -0.266025 0.00676996
0.0881995 -0.0834011 0.487685
0.272878 -0.18943 0.487685
0.0739134 -0.266175 0.487685
-0.388282 0.0340574 0.487685
-0.0058656 0.143233 0.267275
0.0911193 -0.0344973 0.487685
-0.0804459 -0.13908 0.232143
0.111275 0.156162 0.180981
-0.0402414 -0.102197 0.475714
0.244804 0.0509197 0.487685
0.198488 -0.109399 0.487685
0.208589 0.150285 0.475714
-0.0324429 -0.137961 0.311854
0.0306056 -0.241727 0.475714
-0.264258 -0.244838 0.0779798
-0.0782598 0.129917 0.475714
0.0663395 -0.0271715 0.487685
0.0531009 0.142673 0.475714
0.168175 -0.279929 0.487685
0.0481546 -0.125123 0.304762
0.00573471 -0.15794 0.475714
0.34504 0.0722532 0.475714
0.244602 -0.131587 0.475714
-0.125856 0.11465 0.367116
-0.0407903 0.16217 0.234598
-0.114667 0.278816 0.475714
0.0557124 -0.302895 0.475714
0.213326 0.13043 0.475714
0.169579 0.0360075 0.475714
-0.0690784 -0.0672132 0.487685
-0.182052 0.154655 0.475714
-0.276631 -0.129733 0.475714
0.388002 -0.0174549 0.475714
0.0149778 0.0141343 0.475714
-0.0792703 -0.0421408 0.475714
0.0568621 0.294794 0.475714
-0.264776 0.0559003 0.475714
-0.0351786 0.036092 0.475714
0.186056 -0.0442209 0.487685
-0.305719 -0.236479 0.0295948
0.101879 -0.181287 0.185994
0.00930727 -0.120079 0.258067
0.182719 0.202675 0.475714
-0.241972 0.222251 0.0663626
0.238864 -0.14674 0.487685
0.256936 -0.150798 0.487685
0.197269 -0.0716813 0.487685
0.0257967 -0.18144 0.475714
0.154055 -0.123097 0.487685
-0.167507 -0.238182 0.487685
-0.149906 -0.169668 0.175854
-0.121263 0.192198 0.475714
-0.0826592 -0.172265 0.228759
-0.0745259 -0.0279187 0.487685
0.297425 0.104644 0.487685
-0.169683 0.258697 0.487685
-0.280692 0.254885 0.0631782
0.194018 -0.267098 0.475714
0.0479045 0.155631 0.260129
-0.202007 0.216887 0.096787
0.282185 -0.218198 0.478579
-0.137773 -0.0613251 0.475714
0.171518 0.206551 0.487685
0.313195 -0.206366 0.00324092
-0.314167 0.189848 0.487685
0.0223019 -0.271597 0.475714
-0.29743 0.0264751 0.487685
0.208008 0.123088 0.415539
-0.133142 -0.27547 0.475714
-0.217599 -0.0530342 0.475714
-0.282456 0.189116 0.487685
0.331079 0.0541237 0.487685
-0.146123 0.0339927 0.487685
-0.315757 -0.273144 0.0105013
-0.228286 0.0912755 0.475714
-0.0088016 -0.295245 0.487685
-0.11865 -0.155343 0.487685
-0.262245 -0.244034 0.0622817
-0.0664318 -0.20004 0.475714
0.0969854 0.0597225 0.487685
0.251417 -0.0994809 0.475714
0.0820822 0.0475532 0.475714
0.386722 -0.0482382 0.475714
-0.370947 0.111314 0.477171
-0.241534 0.217656 0.487685
-0.255934 -0.216122 0.487685
-0.284751 -0.245724 -2.77556e-17
0.0735118 0.24001 0.487685
0.0670557 -0.130475 0.487685
-0.283987 0.275392 0.013529
-0.205715 -0.0650819 0.487685
0.253114 -0.237568 0.00531
-0.339232 -0.0110731 0.475714
0.223946 0.11785 0.487685
0.0291818 -0.123554 0.487685
-0.187285 0.114735 0.412753
0.165066 0.158953 0.487685
-0.214667 0.149158 0.475714
0.0295375 0.104305 0.487685
-0.290563 -0.0877868 0.475714
-0.173017 0.103109 0.475714
-0.0791561 0.177956 0.201867
-0.113112 0.0432517 0.487685
-0.0390552 0.299899 0.475714
-0.0333386 0.146625 0.268961
-0.149467 -0.167717 0.157295
-0.181745 -0.182034 0.137915
-0.15108 -0.153923 0.487685
0.0645564 -0.235227 0.475714
-0.12353 -0.138237 0.375823
-0.265105 -0.185316 0.475714
0.32987 0.164649 0.475714
0.0266314 -0.0574742 0.475714
-0.0735716 -0.133456 0.475714
0.265399 -0.0805315 0.475714
-0.0499494 -0.0640898 0.475714
0.285794 -0.2558 0.0585937
-0.117665 -0.0603106 0.487685
-0.101352 -0.00347927 0.475714
-0.184011 -0.212768 0.125261
-0.254761 0.230005 0.0566267
0.032005 0.044327 0.487685
0.0956307 -0.0225957 0.475714
-0.203126 0.221163 0.475714
0.0930428 -0.16718 0.179297
0.181942 -0.0996373 0.487685
0.345993 0.0327499 0.475714
-0.0161426 -0.0848977 0.487685
0.330367 -0.231026 0.00404746
-0.241069 0.0897577 0.487685
0.0356485 -0.130141 0.475714
0.14252 0.144066 0.389444
0.0327344 0.211524 0.487685
-0.0855655 0.144015 0.475714
0.301937 -0.221401 -2.77556e-17
0.256775 -0.0545067 0.475714
-0.238782 0.0315281 0.487685
-0.0214065 -0.120158 0.319022
-0.223289 0.237257 0.0818088
-0.155509 0.20937 0.156312
0.313262 -0.133845 0.487685
0.279627 0.0183471 0.487685
-0.00694533 -0.124126 0.307645
0.0444105 0.162397 0.230657
-0.0106153 0.190982 0.475714
-0.170401 -0.128567 0.423086
0.154155 0.122147 0.475714
0.0966639 0.169275 0.220603
0.0954494 0.0173854 0.487685
-0.179561 0.0157066 0.475714
0.297895 0.163119 0.475714
0.279075 0.167438 0.487685
-0.093897 0.284265 0.487685
0.0569029 0.17843 0.475714
0.041711 -0.214833 0.487685
0.189713 0.177687 0.487685
-0.177575 -0.11699 0.487685
0.0572317 0.142741 0.318842
-0.0884072 -0.269314 0.475714
0.0509935 -0.0854981 0.487685
-0.0208214 -0.102534 0.29358
0.206221 -0.224218 0.106811
0.0544245 0.115546 0.487685
-0.0713015 0.201205 0.475714
0.238682 0.240035 0.0766022
0.191343 0.221117 0.139477
0.274038 -0.16205 0.487685
-0.197144 0.0525558 0.475714
0.0983728 -0.00150923 0.475714
0.269898 0.00543496 0.475714
-0.0823056 -0.0882189 0.475714
0.095801 0.177404 0.475714
0.0552519 0.167249 0.487685
0.0625575 0.254825 0.487685
0.222076 0.250465 0.487685
-0.0764224 -0.222102 0.487685
0.00647248 -0.248465 0.487685
-0.0333225 -0.0609064 0.475714
-0.0711801 0.132405 0.323906
-0.095186 -0.0592817 0.475714
0.167785 -0.136508 0.421305
-0.242921 0.172908 0.475714
-0.182833 0.20146 0.111383
0.385577 0.00777346 0.487685
0.242473 0.18021 0.487685
-0.122747 0.263756 0.475714
0.134328 -0.0285479 0.475714
-0.170179 0.137366 0.400527
-0.116445 -0.170968 0.487685
0.10619 0.0492397 0.475714
-0.0565648 0.129531 0.312244
-0.084186 -0.134849 0.33383
-0.0364116 -0.117572 0.251353
-0.0977989 0.11132 0.349627
-0.136476 -0.173761 0.186737
-0.23962 -0.233862 0.475714
-0.225286 0.196829 0.487685
0.0117292 0.112009 0.273922
0.106367 -0.172475 0.487685
0.243908 0.0982656 0.487685
0.238155 0.0839198 0.487685
0.115011 0.06354 0.475714
-0.292617 0.0192522 0.475714
0.134865 -0.261021 0.487685
0.340999 0.10232 0.475714
0.00694745 -0.10256 0.27679
-0.0144321 -0.120524 0.282627
0.0575415 0.0912317 0.475714
0.349576 -0.0494799 0.475714
-0.0511537 -0.204519 0.487685
-0.162873 -0.116076 0.475714
-0.142523 0.109279 0.403776
