0.170719 -0.214797 0.487685
-0.00828919 -0.245214 0.475714
0.386012 -0.0366203 0.487685
0.28487 0.233161 0.0470123
0.0363048 0.00868652 0.475714
0.0378649 -0.309569 0.476737
0.11006 0.168744 0.171044
0.197987 -0.225477 0.487685
0.247496 0.154483 0.487685
0.351881 0.143761 0.481814
-0.144562 0.27937 0.475714
0.17769 0.237921 0.487685
-0.106363 -0.138858 0.361266
-0.0728751 -0.23863 0.487685
-0.336629 -0.0531181 0.487685
-0.138168 0.0279443 0.475714
0.310496 0.000178508 0.487685
-0.265251 -0.199903 0.475714
0.0349484 0.0233551 0.475714
-0.050814 0.130831 0.22115
0.0533084 -0.00700472 0.487685
0.0252889 0.128097 0.278034
-0.228641 -0.117424 0.475714
0.209743 0.0318002 0.475714
-0.081883 -0.148472 0.475714
0.117641 -0.29219 0.475714
0.20403 -0.129616 0.487685
0.304674 -0.0256509 0.487685
0.00163501 0.143446 0.259096
0.168232 0.232625 0.487685
-0.133701 0.168681 0.163783
-0.270482 -0.0429465 0.475714
0.135983 -0.0642526 0.487685
-0.28835 -0.0997102 0.487685
0.165706 0.109421 0.487685
0.252826 -0.148859 0.475714
-0.204026 0.200795 0.122065
-0.00654948 -0.035645 0.487685
0.21615 0.107335 0.441276
0.135564 0.237268 0.475714
-0.365848 0.0849933 0.475714
0.249023 0.227785 0.0970959
0.230838 -0.0374165 0.487685
0.296066 -0.132084 0.475714
0.219211 0.209581 0.121263
-0.0144085 -0.18206 0.487685
0.131979 0.20254 0.487685
-0.140844 -0.113088 0.368276
-0.000435553 0.109774 0.260227
-0.326882 -0.247201 0.0111505
-0.0684833 0.138887 0.475714
-0.00830626 0.143025 0.475714
0.163954 0.0262805 0.475714
-0.337457 -0.0388437 0.487685
-0.188771 0.0182345 0.475714
0.147412 0.144397 0.389346
-0.0404067 0.192297 0.487685
-0.0656477 -0.0590871 0.487685
-0.269793 0.230827 0.0678005
0.177114 -0.137703 0.423694
-0.206756 0.140965 0.45332
0.0239134 0.0816268 0.487685
0.147429 -0.198098 0.137909
0.0140345 0.139116 0.274727
0.0893196 0.263847 0.475714
0.312209 0.284025 0.0103965
0.270375 -0.141771 0.487685
-0.0992353 0.285583 0.475714
0.0124446 0.16515 0.475714
0.192285 -0.229633 0.475714
0.103124 -0.0682067 0.487685
-0.0975251 -0.249138 0.475714
0.024577 -0.112799 0.272084
0.132926 0.106246 0.475714
0.0457689 -0.126283 0.303302
-0.2998 0.0652115 0.487685
0.154862 0.119075 0.412964
0.186584 0.107629 0.487685
0.123969 0.295821 0.477431
-0.106497 0.112063 0.475714
0.196941 0.184381 0.487685
0.190187 -0.11217 0.411267
0.105003 0.0836593 0.487685
0.104614 -0.23717 0.475714
0.296339 0.192611 0.475714
-0.103387 -0.267788 0.475714
0.0588784 -0.128463 0.223775
0.0265999 0.122811 0.2774
-0.242964 0.0985802 0.487685
0.203988 0.0971463 0.475714
0.172591 -0.0751596 0.475714
0.189543 -0.0103497 0.487685
0.150107 -0.20113 0.163481
0.00791624 -0.0846337 0.475714
-0.0859354 -0.113155 0.363229
0.0492345 0.153896 0.216176
0.099786 -0.090062 0.475714
0.0693516 0.17784 0.487685
0.340534 -0.101327 0.487685
-0.0207419 -0.0656654 0.475714
0.291818 -0.0297551 0.487685
-0.15673 -0.0429775 0.475714
-0.386875 -0.045746 0.487685
-0.230713 -0.206028 0.475714
0.222155 -0.135938 0.475714
0.234466 0.188391 0.475714
-0.171122 0.114981 0.431245
-0.0196358 0.0187928 0.487685
0.0924852 0.25938 0.475714
-0.253182 -0.21372 0.0834005
0.027582 -0.136356 0.297627
0.343553 0.0806098 0.487685
-0.12984 -0.159012 0.191572
0.295352 -0.176408 0.475714
0.270062 -0.161902 0.475714
-0.15923 0.180436 0.475714
-0.110853 0.168606 0.204474
-0.195465 0.159255 0.487685
-0.17603 0.229948 0.475714
-0.174409 0.113568 0.404357
-0.128329 -0.190516 0.174294
-0.126846 -0.12344 0.357301
0.302506 -0.0453567 0.475714
-0.244072 -0.0294992 0.475714
0.0992658 0.108338 0.350712
-0.0143608 -0.0558431 0.475714
0.293165 -0.181036 0.475714
-0.305789 -0.2141 -2.77556e-17
-0.111449 -0.0181928 0.487685
0.216795 -0.225588 0.487685
-0.0357291 -0.0542107 0.475714
0.045313 -0.0699767 0.475714
-0.208438 -0.048323 0.487685
0.112047 0.189427 0.203663
0.0843086 -0.288452 0.475714
0.0936397 0.295106 0.487685
0.0715373 -0.00204118 0.475714
-0.213539 0.169816 0.487685
-0.13812 0.157619 0.487685
0.390155 -0.0330824 0.487685
-0.220232 0.14652 0.487685
0.0526048 0.188255 0.475714
0.219782 0.205745 0.475714
0.289935 0.185604 0.487685
-0.198425 0.140364 0.447735
0.195573 -0.258554 0.487685
0.311005 0.133968 0.475714
0.142905 -0.195355 0.475714
-0.103618 -0.0142499 0.487685
0.098889 -0.196112 0.487685
-0.250118 -0.103628 0.462718
-0.32866 -0.12145 0.475714
0.255381 -0.237165 0.00611704
0.348367 -0.0739327 0.487685
0.093076 0.156676 0.487685
0.176072 0.117799 0.427757
-0.12409 0.144397 0.475714
-0.0731791 0.0952256 0.475714
0.117949 0.174677 0.203349
-0.184223 -0.0395757 0.475714
-0.299439 0.258111 0.0507758
-0.289591 -0.19392 0.487685
0.0922262 -0.215859 0.475714
0.159856 0.208533 0.150605
0.0911992 -0.109845 0.338815
-0.0877602 0.157665 0.223686
0.18183 0.187025 0.487685
-0.167147 0.116441 0.396092
0.30764 0.161907 0.487685
0.325973 -0.115163 0.487685
-0.00375786 -0.223133 0.475714
0.166066 -0.0542209 0.487685
-0.109702 0.219731 0.475714
-0.167084 -0.00287195 0.487685
-0.0961848 0.167064 0.487685
0.172326 -0.0557551 0.475714
0.148598 0.164999 0.475714
0.356911 -0.0065106 0.475714
-0.10146 -0.299669 0.481001
-0.224574 0.212437 0.109864
0.167171 0.0657291 0.487685
-0.20055 -0.178795 0.487685
0.153031 0.219872 0.487685
-0.107149 -0.238343 0.475714
0.183462 -0.197311 0.487685
-0.170648 -0.205366 0.159045
0.306278 0.257139 0.0236444
-0.156424 0.175203 0.475714
-0.0504818 0.1382 0.339837
-0.210721 0.227763 0.487685
-0.279864 0.196838 0.487685
0.191246 0.12192 0.439692
-0.10263 -0.108018 0.344288
-0.320122 0.0302358 0.487685
-0.0672195 0.0440581 0.487685
0.207237 0.132757 0.487685
0.275944 -0.116283 0.475714
-0.206362 0.21128 0.475714
0.327699 -0.176429 0.481177
0.284703 -0.231585 0.0431409
-0.210071 0.256865 0.475714
-0.178458 0.198313 0.114714
0.0299377 -0.272551 0.487685
0.238808 -0.145053 0.487685
-0.0282603 0.134255 0.326579
0.0390526 -0.255744 0.487685
-0.21592 -0.126323 0.456166
0.345026 0.0935521 0.487685
-0.205961 -0.209728 0.487685
0.014801 -0.125814 0.273075
0.0859258 -0.257025 0.475714
0.137504 -0.144867 0.487685
0.307178 0.0592625 0.475714
0.168585 -0.253304 0.475714
0.119237 0.0668738 0.475714
0.153157 -0.258909 0.487685
0.0114008 -0.106782 0.280431
0.115992 -0.0773091 0.475714
-0.051802 0.166701 0.250498
0.283 -0.271339 -2.77556e-17
-0.380038 0.039488 0.487685
0.056436 -0.30713 0.485593
0.239099 0.228828 0.10514
-0.0881639 -0.161512 0.475714
0.270051 0.226588 0.0528174
-0.0427121 -0.111059 0.298809
0.130156 -0.0233545 0.475714
0.131185 -0.178386 0.475714
-0.167722 0.118241 0.396024
-0.345977 0.0988318 0.475714
0.103511 0.118996 0.475714
-0.0273056 -0.129511 0.320737
-0.172364 -0.236066 0.475714
-0.0725824 0.17069 0.475714
0.108741 -0.131212 0.475714
-0.286176 0.269098 0.000952056
-0.25564 0.233204 0.0840195
0.159789 0.111847 0.487685
-0.21109 0.20402 0.11899
-0.122867 -0.280598 0.475714
0.283745 0.223714 0.00962474
-0.188927 -0.210512 0.110997
-0.17074 -0.0898345 0.475714
-0.151663 -0.232602 0.487685
-0.115539 -0.202827 0.487685
0.00228561 0.113471 0.251396
0.192933 0.269489 0.475714
0.273782 0.252273 0.0770258
-0.224382 0.221785 0.0797535
-0.374926 -0.0077105 0.487685
0.064822 0.224892 0.475714
0.283848 0.216757 0.475768
-0.108224 -0.0592482 0.475714
-0.151055 0.185224 0.475714
-0.163398 -0.20081 0.129933
-0.257332 0.0756592 0.487685
-0.300118 0.208354 0.00404273
0.0822795 0.0753916 0.487685
0.308609 0.252439 0.0286775
0.341258 -0.0665073 0.475714
-0.106986 0.189406 0.188353
0.151182 -0.170613 0.13844
0.276497 0.038943 0.487685
-0.178396 0.0537319 0.475714
-0.00927112 0.11186 0.261759
0.182795 -0.220232 0.487685
0.252742 0.239422 0.482839
0.0811583 0.140539 0.332148
-0.0887485 0.27854 0.475714
0.0298046 -0.125861 0.271496
0.348358 -0.0843089 0.475714
0.148189 0.133825 0.374291
-0.0158958 -0.137286 0.487685
-0.258291 0.132215 0.475714
0.314339 0.12125 0.487685
-0.201555 0.180192 0.475714
-0.273669 -0.23305 0.0755585
0.0483476 -0.13796 0.318928
-0.250392 0.00143994 0.475714
0.13367 0.100048 0.475714
0.146662 -0.129235 0.487685
0.347736 0.0518508 0.487685
-0.0218512 -0.107536 0.313735
-0.0272862 -0.150136 0.26488
-0.040123 0.161896 0.248701
-0.219003 0.129712 0.433189
-0.0987268 -0.0111904 0.475714
0.203602 -0.22314 0.120525
-0.201802 -0.016093 0.475714
-0.354004 -0.129726 0.487685
-0.0301903 -0.114812 0.258193
-0.137637 -0.287633 0.475714
-0.368404 0.117421 0.483659
-0.217206 -0.259559 0.484888
-0.0252603 -0.129991 0.475714
0.0809954 -0.027965 0.487685
-0.224516 0.210151 0.0945001
-0.0404692 -0.131343 0.487685
0.21951 -0.0114799 0.475714
-0.246641 0.0464511 0.487685
0.154904 -0.0984512 0.475714
0.384426 -0.0301007 0.475714
0.0973563 0.0270936 0.475714
0.104547 0.162494 0.214213
-0.31839 -0.283744 -2.77556e-17
-0.217137 0.231262 0.0852692
-0.203679 -0.123545 0.412148
0.369421 0.0760741 0.475714
0.249436 0.0253072 0.475714
-0.221643 0.22755 0.112303
0.0912842 0.170091 0.224964
-0.0481782 -0.145807 0.475714
-0.112547 0.0757765 0.475714
-0.0963374 -0.28716 0.487685
-0.240475 -0.204488 0.475714
0.023849 -0.147125 0.475714
0.0259095 0.128341 0.487685
0.0499556 0.139409 0.487685
-0.159028 0.0194839 0.475714
0.0950344 -0.144473 0.487685
0.0032268 -0.103192 0.266507
-0.0668516 -0.14034 0.475714
0.106834 -0.124733 0.384529
0.189601 -0.113888 0.41036
-0.302894 -0.143259 0.487685
-0.0740781 0.115301 0.327911
-0.276103 0.0117767 0.487685
-0.245763 0.104053 0.475714
-0.0158974 0.114886 0.272902
-0.239432 -0.0692227 0.475714
-0.0460007 -0.0734807 0.475714
0.18627 -0.125273 0.475714
-0.213825 -0.196263 0.107483
-0.35619 -0.137941 0.478774
0.0971759 -0.131509 0.344463
0.0176653 -0.00110059 0.475714
0.30567 0.237109 0.0160504
-0.233968 -0.00365207 0.475714
0.0106969 -0.213835 0.475714
-0.193392 -0.0752354 0.475714
-0.269989 -0.238194 0.00830203
-0.0889755 0.211784 0.487685
0.0492254 0.160537 0.216183
-0.211061 0.243606 0.487685
-0.00927132 -0.102416 0.275112
0.208251 0.153268 0.487685
0.120057 0.129337 0.353007
-0.257451 -0.120155 0.458123
-0.321889 -0.0645084 0.475714
0.318865 -0.186427 0.482528
0.147826 0.0429405 0.487685
-0.333208 -0.0958887 0.487685
-0.0648344 -0.239368 0.475714
0.292523 -0.167965 0.487685
0.0168132 -0.110327 0.475714
0.305016 0.1353 0.475714
-0.209505 0.215721 0.0910792
-0.242394 -0.0497209 0.487685
-0.0255588 0.108075 0.302934
0.249224 -0.217843 0.475714
0.00585693 0.172691 0.475714
-0.167628 0.20004 0.122958
0.0314373 0.201936 0.475714
-0.321129 -0.25602 -2.77556e-17
0.0880934 0.204926 0.475714
0.0716127 0.290206 0.487685
0.0189814 -0.274952 0.487685
-0.134379 0.201194 0.475714
0.0917081 0.213174 0.475714
-0.121917 0.296278 0.483371
0.0990881 0.15105 0.218638
-0.0964581 0.213309 0.487685
0.246716 -0.214238 0.0822237
-0.00464982 0.147301 0.269189
0.224651 -0.136978 0.446488
-0.0518396 0.286917 0.487685
-0.117531 -0.249195 0.487685
0.201446 0.20505 0.475714
-0.0736317 -0.223543 0.487685
0.0249794 -0.280204 0.475714
-0.259031 0.251963 0.0691417
-0.0375431 0.147698 0.475714
-0.0366737 -0.263294 0.475714
-0.111201 -0.288269 0.487685
-0.00245032 -0.151058 0.475714
-0.298923 -0.23571 0.0252291
0.313171 -0.0487832 0.475714
-0.287485 -0.0489212 0.475714
0.111342 -0.0746525 0.487685
-0.148937 0.210717 0.487685
-0.186793 0.0345449 0.475714
-0.103186 0.158345 0.210852
-0.256939 0.063652 0.475714
-0.105946 -0.190558 0.475714
-0.0201895 0.116846 0.256597
0.204949 -0.0252111 0.475714
-0.348847 -0.0455722 0.487685
-0.0579475 0.106907 0.331729
-0.00573266 -0.202292 0.475714
-0.189841 -0.204235 0.110319
0.33661 -0.0776893 0.487685
0.295316 -0.135317 0.475714
0.35841 0.0762626 0.475714
0.266259 -0.0780873 0.475714
-0.118902 0.259187 0.475714
-0.331409 -0.0488175 0.487685
0.149259 0.129085 0.409902
-0.0314135 -0.048132 0.475714
-0.0577218 -0.0733392 0.487685
-0.147543 0.179859 0.138249
-0.0996494 -0.299969 0.483796
-0.236987 -0.138555 0.459584
-0.0180768 -0.0728331 0.475714
-0.177881 -0.210319 0.143408
-0.241124 0.166429 0.475714
-0.244449 -0.133181 0.475714
0.011119 0.193311 0.487685
-0.249408 0.211311 0.487685
0.12785 0.14691 0.487685
-0.307449 0.233453 0.000952056
0.241356 -0.215415 0.475714
0.108881 -0.109322 0.383397
-0.235342 0.221092 0.100907
-0.231778 -0.0846329 0.475714
-0.282455 -0.0246545 0.475714
-0.0101557 -0.117835 0.253035
-0.0755655 0.122198 0.363126
-0.143152 -0.164916 0.16425
-0.0462815 -0.157727 0.21848
-0.0167484 -0.172776 0.475714
0.0578652 0.306893 0.485865
0.180458 -0.120279 0.475714
-0.00195134 -0.0888254 0.475714
-0.213522 -0.167908 0.475714
-0.007568 -0.00972411 0.487685
-0.365866 0.0645531 0.487685
-0.0733958 0.243848 0.475714
0.0201254 -0.0843647 0.487685
-0.145137 -0.131172 0.37363
-0.301757 0.258225 0.0226103
0.136116 0.108228 0.387506
0.0536968 -0.0647032 0.487685
0.0449649 0.134908 0.487685
-0.062434 0.133794 0.317775
0.188336 0.0243079 0.487685
0.243099 0.0380875 0.487685
0.330641 -0.246949 -2.77556e-17
-0.326832 0.268695 0.000952056
-0.161969 0.144528 0.409762
0.31616 0.12983 0.487685
-0.374786 -0.0227876 0.487685
-0.0985146 -0.178601 0.217053
-0.0736506 -0.00102043 0.475714
0.0977349 0.251019 0.475714
-0.252433 -0.0709744 0.475714
0.377103 -0.0179059 0.487685
-0.252858 0.121996 0.475714
-0.125165 0.148327 0.487685
-0.0802019 0.0613672 0.487685
-0.183318 0.2075 0.475714
0.231613 0.23721 0.0950602
0.0245412 0.133539 0.319717
0.226442 0.194722 0.487685
-0.0313533 -0.147383 0.475714
-0.100499 -0.0414288 0.475714
-0.207645 0.00607913 0.475714
-0.00957287 -0.102983 0.271962
0.341082 0.0635853 0.475714
0.0713079 -0.134139 0.216286
0.174616 0.0512725 0.487685
-0.162123 -0.116286 0.475714
-0.00978851 0.11361 0.475714
-0.105672 0.223962 0.487685
0.341202 -0.158187 0.479005
-0.291045 0.206998 0.475714
-0.369468 -0.0288401 0.475714
0.206867 -0.218373 0.475714
-0.0758195 0.0683973 0.475714
-0.223914 -0.187667 0.475714
-0.122601 -0.105543 0.475714
-0.18727 0.0598006 0.487685
-0.21732 0.230242 0.0851295
0.331679 0.0150364 0.487685
0.0880504 -0.0118445 0.475714
-0.159983 -0.0880754 0.487685
0.178006 -0.011571 0.475714
0.0188886 -0.121463 0.475714
-0.355146 -0.10572 0.487685
-0.0551957 -0.160871 0.487685
0.246402 0.170791 0.475714
0.197667 -0.171523 0.475714
-0.0459074 0.308875 0.486027
0.337394 -0.113918 0.475714
0.0135757 -0.141104 0.239773
0.296896 0.0614315 0.487685
-0.239884 0.233687 0.0679523
-0.0977792 -0.0932365 0.487685
0.131983 -0.218701 0.475714
-0.194802 0.050353 0.487685
-0.219158 -0.0414561 0.487685
-0.00866199 0.111582 0.256801
0.140735 -0.288327 0.487685
0.1872 0.126097 0.437772
-0.0931849 -0.0103633 0.475714
0.286166 0.0940293 0.475714
-0.266617 0.216401 0.00426719
-0.0181302 -0.0192275 0.487685
-0.0931551 0.00281683 0.487685
0.281995 -0.20559 0.487685
0.15741 -0.265079 0.487685
0.314883 0.26007 0.0169194
0.15786 0.0400356 0.475714
-0.000181643 0.132443 0.296794
0.306492 -0.0471246 0.475714
0.229972 0.244008 0.487685
-0.125078 -0.137762 0.487685
-0.109539 -0.124711 0.380699
-0.222211 0.236814 0.0949998
0.22398 -0.00317375 0.487685
-0.0677997 -0.30153 0.475714
-0.176985 0.0864865 0.475714
0.0392815 0.101085 0.475714
-0.227009 0.245414 0.475714
0.237465 0.180755 0.487685
-0.0174797 0.211706 0.487685
-0.290396 -0.172346 0.487685
-0.184485 0.192763 0.475714
-0.00740448 -0.104705 0.283909
-0.249491 -0.212083 0.0950645
0.0708861 -0.139558 0.475714
0.0298319 0.108111 0.30202
-0.0426079 -0.256953 0.475714
-0.0311668 -0.000653837 0.475714
-0.0195495 -0.115643 0.316528
-0.371526 -0.0262845 0.487685
0.0116941 -0.11361 0.264045
-0.231958 0.0195954 0.487685
0.08522 0.0171717 0.475714
-0.282507 -0.115176 0.475714
-0.0448332 -0.135998 0.326755
0.1335 0.0126055 0.475714
0.0479476 0.109023 0.327569
0.311025 0.0393886 0.475714
-0.276051 0.141138 0.475714
-0.326714 -0.145585 0.487685
-0.221993 0.0382646 0.487685
0.289823 0.251503 0.0208769
-0.198231 0.110967 0.475714
0.103918 -0.290155 0.487685
-0.191407 -0.18632 0.128636
0.221239 0.24254 0.487685
0.0982587 0.0487229 0.487685
-0.0955699 0.258149 0.487685
-0.179896 -0.16744 0.475714
0.164978 0.179982 0.143652
-0.206974 -0.115159 0.414898
0.00936648 -0.196262 0.487685
-0.034955 0.134919 0.475714
0.368451 -0.0525383 0.475714
0.241874 -0.229971 0.095121
-0.0179783 -0.146416 0.239794
0.176654 0.0872971 0.475714
0.0515801 -0.264446 0.475714
0.248624 -0.198647 0.487685
0.180239 -0.0263173 0.487685
-0.279253 0.00772098 0.475714
0.124176 0.143633 0.369923
0.044065 -0.138425 0.321918
-0.0231957 -0.11171 0.250788
-0.128587 0.17079 0.152679
-0.328533 0.0870765 0.487685
-0.0330395 0.138428 0.326621
0.0607541 0.111578 0.317061
0.0394006 -0.112232 0.333459
-0.192175 -0.213284 0.1416
0.197177 -0.107002 0.475714
0.00392488 -0.309569 0.487038
-0.156646 0.171525 0.487685
-0.0997839 0.153193 0.212992
0.170395 0.0712716 0.475714
0.198784 -0.250794 0.487685
-0.113676 -0.129171 0.382451
-0.163572 -0.0126838 0.487685
0.246033 -0.213927 0.0796251
0.151765 0.0262971 0.475714
-0.326112 0.111299 0.475714
-0.280049 0.255884 0.0637127
-0.171611 -0.148705 0.487685
0.0655683 0.146509 0.204057
-0.236242 0.0792309 0.475714
-0.0111686 -0.169846 0.487685
0.00613403 0.108775 0.265543
-0.0883876 0.147989 0.200907
0.0648777 0.111111 0.475714
0.168578 0.0723986 0.487685
0.191018 -0.1042 0.475714
-0.327757 0.174399 0.475714
-0.0323737 0.309569 0.483059
-0.0142714 0.16808 0.475714
-0.0586512 -0.101908 0.323913
-0.14669 0.111924 0.487685
-0.189297 0.0866707 0.475714
-0.039981 -0.0702138 0.487685
-0.290223 0.297743 0.00675831
0.0226615 -0.104177 0.487685
-0.234909 -0.0354117 0.487685
0.0946365 -0.108167 0.371614
0.0234329 -0.0605192 0.475714
0.000573125 -0.105657 0.258992
0.101178 0.124028 0.487685
0.187118 -0.205079 0.487685
-0.217674 -0.205634 0.120936
0.0689474 -0.276635 0.475714
0.266925 0.102303 0.487685
0.207002 -0.0621552 0.487685
0.044673 0.113786 0.303384
-0.0397755 0.127646 0.475714
0.0563975 -0.016806 0.475714
0.283775 0.0786144 0.487685
-0.237666 0.0212262 0.475714
-0.222671 -0.185875 0.475714
-0.322043 -0.175859 0.475714
-0.220621 0.232121 0.0826169
-0.240449 0.174121 0.475714
-0.325553 0.263052 0.00811131
-0.0707768 -0.0859727 0.475714
-0.164745 -0.197888 0.163829
-0.310872 0.112375 0.487685
0.00687477 -0.222128 0.487685
0.269726 -0.228164 0.487685
0.177478 -0.177253 0.475714
0.00163501 0.120539 0.268111
0.00861579 0.119543 0.252129
0.0313358 0.118819 0.290288
0.171293 0.167062 0.475714
0.0301055 0.12016 0.261852
0.00163501 0.142788 0.288457
-0.026755 -0.149923 0.265294
-0.0692456 -0.14601 0.19977
0.0811951 0.0577315 0.487685
-0.239482 0.236957 0.475714
0.144515 0.146634 0.487685
0.08874 0.167036 0.227027
-0.388103 -0.0701205 0.48051
0.290922 0.247091 0.0209492
-0.0656727 0.210369 0.487685
0.190225 0.0570264 0.487685
-0.132026 0.0160352 0.487685
-0.167274 0.184012 0.142582
-0.0839932 0.266792 0.475714
0.34109 -0.00563892 0.475714
-0.234273 0.158865 0.487685
-0.125711 -0.0569535 0.475714
0.213161 -0.11247 0.469486
-0.0217443 0.167393 0.475714
-0.0932638 0.0711623 0.475714
-0.0697769 -0.158336 0.240789
-0.24148 0.114749 0.487685
0.0237664 -0.149149 0.244311
0.141071 -0.0794668 0.475714
-0.117177 -0.116132 0.386315
0.0125161 -0.255632 0.475714
0.0906711 0.0874188 0.475714
0.0370326 0.165755 0.475714
0.181261 -0.104429 0.432278
-0.0866075 -0.221835 0.487685
-0.0266314 0.237994 0.475714
0.234855 0.210976 0.0874729
-0.0319005 -0.0809556 0.487685
-0.209482 -0.00537046 0.475714
0.344414 0.127855 0.487685
-0.0716579 0.174871 0.216387
0.24471 0.243048 0.487685
-0.173399 -0.122765 0.390333
-0.135038 -0.0877115 0.475714
-0.0324401 0.0589257 0.487685
-0.0852487 0.0288864 0.487685
-0.17483 -0.0804953 0.487685
0.131992 -0.178153 0.149656
0.359249 0.0429792 0.487685
0.259742 0.0435827 0.487685
-0.377077 0.0434793 0.475714
-0.057378 0.194983 0.487685
0.27881 -0.221121 0.48263
0.363643 -0.012144 0.487685
-0.304745 -0.155076 0.475714
0.182631 0.275445 0.480948
-0.151707 -0.110568 0.475714
-0.140589 -0.238622 0.487685
0.303258 0.264912 0.0325564
-0.0757472 0.280956 0.487685
0.239955 -0.145172 0.475714
0.0863098 -0.0627554 0.487685
-0.0756295 -0.245909 0.475714
0.0482422 0.14632 0.259856
0.15173 -0.227615 0.487685
0.128939 -0.12395 0.401198
-0.0352934 -0.117076 0.250565
-0.0143045 -0.246192 0.475714
0.00163501 0.111742 0.296159
-0.0763046 0.186335 0.475714
-0.04741 -0.170589 0.475714
-0.170868 0.10302 0.475714
0.254084 -0.0349092 0.487685
-0.0843919 -0.0427499 0.475714
0.185522 -0.135874 0.475714
0.0366606 -0.102914 0.320906
0.16999 0.182206 0.147114
0.214174 -0.105493 0.43478
-0.0512524 -0.165073 0.475714
0.111927 0.175837 0.475714
-0.0361392 -0.153674 0.227806
0.151872 0.10904 0.401782
-0.121274 -0.270487 0.475714
-0.0480099 0.11187 0.312007
0.177625 0.0283956 0.475714
0.110379 -0.252659 0.487685
0.312141 0.247185 0.0224762
0.0908945 0.180974 0.203267
0.0330771 -0.131536 0.487685
0.264077 0.223938 0.0685361
-0.0485058 -0.290991 0.475714
0.0571937 -0.186296 0.475714
-0.284027 0.220684 0.000952056
0.201853 -0.230274 0.487685
-0.219816 -0.103029 0.448643
-0.258979 0.21851 0.487685
-0.139447 -0.0918674 0.487685
-0.289032 0.129452 0.475714
-0.151889 0.229578 0.475714
0.190915 -0.130903 0.413617
-0.156384 0.123625 0.386105
0.00163501 0.134079 0.265976
-0.21349 0.201901 0.487685
-0.191495 -0.191331 0.142151
0.0456741 -0.0778055 0.475714
-0.0462025 -0.121914 0.244866
0.174523 -0.210794 0.151136
-0.162731 -0.189733 0.475714
-0.181754 0.206934 0.112205
0.241969 -0.0821332 0.487685
0.192308 -0.065313 0.487685
0.370901 0.00985269 0.487685
-0.0741258 -0.207691 0.487685
-0.289782 0.237334 0.0173102
-0.299825 -0.0882593 0.487685
0.0718126 -0.17233 0.475714
-0.0208538 -0.270953 0.475714
-0.154142 0.274035 0.475714
-0.232466 -0.065525 0.475714
-0.205157 0.0419353 0.475714
-0.0969366 0.151892 0.189008
0.0107464 0.290871 0.475714
-0.213064 -0.163523 0.475714
-0.350711 0.0944839 0.487685
-0.0346593 0.256074 0.475714
-0.1866 -0.132848 0.404894
0.0250264 0.118495 0.279933
0.174073 0.184017 0.132568
-0.0327648 -0.181758 0.487685
-0.320884 0.162157 0.487685
0.144589 0.154925 0.475714
0.0418134 -0.137229 0.324798
-0.142337 -0.289441 0.481892
-0.129089 0.0835096 0.475714
0.0119557 -0.10123 0.29452
0.198526 0.138878 0.487685
0.00266021 0.284352 0.487685
-0.073319 0.111091 0.475714
-0.0928013 0.110617 0.368502
-0.342577 0.0392126 0.475714
0.163669 -0.0904119 0.487685
0.266898 -0.182357 0.475714
0.342966 0.0228693 0.475714
0.120486 -0.153377 0.475714
-0.174962 -0.209152 0.154613
-0.0981575 0.138943 0.348533
-0.0135182 -0.0233051 0.475714
-0.0378833 0.224516 0.475714
-0.352631 0.142748 0.481227
0.164506 0.0830152 0.487685
0.0326446 -0.138501 0.313127
0.206924 -0.224507 0.116643
0.342032 0.121124 0.475714
-0.126443 -0.126333 0.357795
-0.21925 0.000562564 0.487685
0.104951 -0.190129 0.487685
0.000532389 0.140731 0.252313
0.130738 0.249818 0.487685
0.167978 -0.0840766 0.475714
-0.148441 0.0385264 0.487685
0.000165825 0.137258 0.293827
0.262172 -0.221297 0.0638452
-0.302057 -0.090494 0.487685
0.100755 -0.225617 0.475714
-0.395925 0.0233287 0.484599
-0.11372 0.297637 0.476226
-0.191143 0.19317 0.487685
-0.385173 -0.0581323 0.475714
-0.0956091 0.264834 0.487685
-0.302908 0.134295 0.475714
0.171772 -0.0137595 0.475714
0.0197285 -0.0900407 0.487685
0.133532 -0.00560682 0.475714
0.154818 0.0743612 0.487685
0.139743 0.106476 0.475714
-0.25406 -0.0913725 0.487685
-0.351487 -0.144294 0.485703
-0.0965832 0.282612 0.475714
-0.0515597 -0.146538 0.487685
-0.115746 -0.106935 0.475714
-0.162106 0.167893 0.487685
0.284873 -0.143357 0.487685
-0.278984 -0.144049 0.475714
-0.0765705 0.173559 0.232995
-0.290888 -0.230445 0.0526022
0.361204 -0.102537 0.487685
-0.137642 -0.104149 0.373131
0.120003 0.144682 0.487685
-0.305289 0.126643 0.487685
-0.00971261 0.118247 0.31302
0.284359 -0.209502 -2.77556e-17
0.0257348 0.227859 0.475714
-0.210033 -0.0800806 0.487685
-0.13235 -0.140311 0.487685
0.152023 -0.283536 0.475714
-0.198151 -0.210801 0.136757
0.276227 0.288693 0.00489285
0.260402 -0.132536 0.487685
-0.17073 0.0608159 0.487685
0.123483 -0.217399 0.487685
0.354078 0.118505 0.475714
-0.266658 -0.0556158 0.487685
0.0302227 0.0526979 0.487685
-0.138814 0.171016 0.167715
-0.376433 0.0217541 0.475714
0.0786661 -0.119768 0.487685
-0.333082 -0.153986 0.487685
-0.049984 -0.124818 0.256829
-0.0406381 0.191377 0.487685
0.296398 -0.190398 0.475714
0.0925777 -0.268777 0.475714
0.00661287 -0.122773 0.253848
-0.194552 0.0156141 0.487685
-0.0244033 0.153552 0.231992
0.269111 -0.189423 0.487685
-0.145358 -0.194829 0.143314
-0.0460979 0.206084 0.487685
-0.140332 0.112012 0.405297
0.222838 -0.219017 0.487685
-0.21991 -0.152958 0.487685
0.254688 -0.22136 0.475714
0.244225 -0.0816315 0.475714
-0.306024 0.0888072 0.487685
0.11989 -0.172544 0.196573
0.198697 -0.195318 0.487685
0.0938514 -0.134165 0.344707
-0.217343 -0.129411 0.423482
0.210723 0.0100543 0.475714
-0.118956 -0.176611 0.162897
-0.0016177 -0.280388 0.487685
0.294768 -0.0999707 0.475714
-0.284771 0.235214 0.0151063
0.228183 -0.164186 0.487685
-0.321342 -0.0327796 0.487685
-0.350697 -0.117511 0.487685
0.132343 -0.292877 0.475714
-0.000382662 -0.139213 0.277348
-0.121588 -0.296333 0.482487
-0.0767744 0.118199 0.328339
-0.00584382 0.0969141 0.487685
0.25269 -0.231378 0.086126
0.255568 -0.0768186 0.475714
0.289404 -0.0298129 0.487685
-0.355053 0.0881351 0.475714
0.0955237 0.0169632 0.487685
-0.372587 0.0315446 0.475714
-0.244188 -0.0508817 0.475714
-0.346238 -0.0810254 0.487685
-0.0832071 0.146295 0.475714
-0.00566811 -0.135895 0.294443
0.350987 -0.0507652 0.475714
-0.208272 -0.220586 0.475714
-0.250063 -0.230864 0.0656496
0.112324 -0.203503 0.475714
0.000836164 0.144073 0.252088
0.0218512 -0.124482 0.233475
-0.198467 0.221618 0.131584
0.0631258 -0.238291 0.475714
-0.29965 0.25735 0.0236444
0.0970351 0.120068 0.337178
-0.305159 -0.0588763 0.487685
0.143266 -0.198315 0.143871
-0.0375173 0.110316 0.305782
0.0995261 0.240137 0.487685
0.0331728 0.124437 0.327569
0.13982 0.0560457 0.475714
0.133354 0.0430953 0.487685
-0.0211823 0.271316 0.487685
0.0395859 0.118627 0.296579
-0.243875 -0.0364499 0.487685
0.0238839 -0.175005 0.475714
-0.304261 -0.139067 0.475714
-0.335458 0.050155 0.475714
0.0877512 -0.219444 0.487685
-0.0253357 -0.139635 0.475714
0.00202995 -0.294922 0.475714
-0.0171307 0.116588 0.26741
0.0658191 0.110464 0.475714
0.098193 -0.233862 0.475714
-0.241281 -0.123232 0.487685
0.0805372 0.140769 0.353676
-0.0832305 0.164961 0.475714
-0.0790134 -0.10667 0.353653
0.0681763 0.187984 0.487685
-0.191139 0.250393 0.487685
0.0491084 -0.138886 0.323912
-0.140493 0.0236453 0.487685
0.0443734 -0.0536029 0.475714
0.252801 -0.0425362 0.475714
-0.3464 0.0839936 0.475714
-0.0230405 0.179845 0.475714
0.143457 0.202985 0.475714
0.256232 -0.237444 0.479552
0.00163379 -0.123437 0.294925
-0.197792 -0.268248 0.487685
-0.222488 -0.0501184 0.487685
0.13617 -0.217669 0.475714
0.275327 0.215232 0.487685
0.145349 -0.0245392 0.475714
-0.197447 0.00783334 0.475714
-0.146034 -0.166195 0.176552
-0.298481 -0.18517 0.475714
-0.185672 -0.138186 0.420354
0.233704 0.238046 0.0794847
-0.0147585 -0.12961 0.264153
-0.0467424 0.120884 0.487685
0.206113 -0.00369726 0.487685
0.0906322 0.287221 0.475714
-0.0070662 -0.287457 0.487685
-0.0335838 -0.244342 0.475714
-0.149915 0.111148 0.411549
0.0551687 0.00865836 0.487685
0.209197 -0.21543 0.0909026
0.115855 0.0845716 0.475714
0.167867 -0.179772 0.122355
-0.0980481 -0.119831 0.475714
0.215501 -0.134584 0.463862
0.176293 -0.224467 0.475714
0.211199 -0.253131 0.475714
0.051966 0.0718616 0.487685
0.207098 -0.196907 0.487685
0.0469007 -0.00670315 0.487685
0.0174719 -0.213214 0.487685
0.0602177 0.142539 0.32022
0.178056 0.0482116 0.475714
-0.129269 0.019604 0.475714
-0.159341 -0.183431 0.487685
-0.192153 -0.0420746 0.487685
-0.22955 0.132478 0.4418
0.288568 -0.194173 0.475714
0.220533 -0.217935 0.11287
-0.0214662 -0.138036 0.303744
-0.123265 -0.173815 0.197444
-0.143923 -0.158987 0.487685
-0.0553138 0.132886 0.231419
-0.147406 0.0653702 0.475714
0.32392 0.254993 0.0133161
-0.335887 -0.144575 0.475714
0.146505 -0.14256 0.475714
0.242614 -0.238908 0.094506
-0.172102 0.136796 0.487685
-0.0183115 0.205338 0.487685
0.203213 -0.058163 0.487685
-0.14393 -0.109807 0.403106
0.19151 -0.130102 0.475714
-0.328654 0.175138 0.476409
-0.196337 -0.202894 0.487685
0.0504623 -0.275815 0.487685
-0.0678411 -0.018794 0.475714
-0.283186 -0.0753841 0.475714
-0.20973 0.231679 0.0971506
-0.0193383 -0.136816 0.306764
0.213552 -0.261629 0.481107
0.368803 0.036086 0.487685
0.094027 -0.0802297 0.475714
0.041688 -0.163636 0.487685
0.0966571 0.274813 0.475714
-0.1801 0.246187 0.475714
0.200885 -0.21284 0.0972278
-0.135025 0.291981 0.477424
0.317457 0.173425 0.475714
-0.264076 -0.267917 0.00330975
0.107952 -0.157534 0.167951
0.0281871 -0.114448 0.265093
-0.0365441 -0.119287 0.487685
-0.231817 0.241972 0.487685
0.226058 -0.12099 0.436042
-0.0542788 -0.0121782 0.487685
-0.0310242 0.149821 0.270886
-0.224438 0.238821 0.487685
0.163659 0.148079 0.475714
0.153269 0.188564 0.487685
-0.270744 0.239621 0.0444592
-0.29658 -0.192627 0.487685
-0.120775 -0.126139 0.475714
0.0575484 0.139569 0.252312
0.00938533 0.125115 0.293161
0.0550643 -0.170686 0.487685
-0.155512 0.207352 0.475714
-0.327685 -0.0394214 0.475714
0.264131 -0.0707283 0.487685
0.295796 0.0239088 0.487685
-0.0296161 0.0640119 0.487685
0.0545891 -0.1466 0.208561
-0.0188019 -0.109761 0.262127
0.327326 0.23285 0.00987471
0.299122 -0.249931 0.0502777
0.0371384 0.161245 0.475714
0.0315127 0.176683 0.487685
-0.0474075 -0.105293 0.329727
0.28335 -0.255951 0.0429436
0.158024 -0.219364 0.475714
0.137806 -0.213966 0.475714
0.0727767 -0.14769 0.19472
-0.0637549 0.071098 0.475714
-0.287418 -0.208696 0.487685
-0.0743312 -0.161663 0.475714
0.0654068 0.174512 0.475714
-0.296598 -0.234238 0.0192136
-0.0610857 0.010868 0.487685
-0.0420079 -0.0657107 0.487685
-0.309649 -0.259334 -2.77556e-17
-0.102356 0.0430171 0.487685
0.111624 0.183523 0.487685
0.314912 0.0643188 0.487685
-0.0255319 -0.0853055 0.475714
0.0337388 -0.0429101 0.475714
0.0633005 -0.206212 0.475714
0.167091 -0.177878 0.137655
-0.156805 -0.00574686 0.487685
0.0754598 -0.257235 0.487685
-0.116809 -0.0890782 0.487685
-0.125565 0.0195628 0.487685
0.345121 -0.118296 0.487685
-0.131862 0.221596 0.475714
0.144097 -0.116054 0.487685
0.0754899 0.0139426 0.475714
-0.207935 -0.228047 0.487685
0.185806 0.126772 0.436597
0.292922 -0.261888 0.018682
0.0969668 0.024104 0.475714
0.24244 0.242253 0.487685
-0.150664 -0.00540209 0.475714
0.184451 0.228182 0.487685
0.285609 0.0168668 0.475714
-0.0815963 0.0238571 0.475714
0.0469416 -0.166176 0.487685
0.0615266 0.220258 0.487685
-0.322939 -0.214186 0.00678273
-0.0601512 0.119802 0.350992
-0.338955 -0.0536894 0.487685
-0.0297322 -0.20395 0.487685
0.108817 0.201682 0.487685
0.358169 0.0803475 0.475714
0.237998 0.0499932 0.475714
-0.193881 -0.15887 0.487685
0.199902 -0.107011 0.487685
0.00959046 0.107213 0.262677
0.0608463 -0.0273504 0.487685
0.272347 0.132198 0.475714
-0.163588 -0.204607 0.140635
-0.383645 0.00341889 0.487685
-0.250899 0.164248 0.475714
-0.251788 0.118781 0.475714
0.018205 -0.200613 0.487685
-0.29272 0.0178878 0.487685
-0.0748266 -0.104586 0.487685
-0.30144 -0.0298738 0.487685
0.341081 0.148592 0.487685
-0.0561258 -0.249973 0.487685
0.39533 -0.027747 0.482173
0.276351 0.0190893 0.487685
-0.233617 -0.0726784 0.475714
-0.245591 -0.123582 0.442061
0.000847765 -0.131823 0.252984
-0.395107 0.0294051 0.477202
-0.231812 0.178827 0.487685
0.122481 0.0461412 0.487685
-0.0610951 0.170525 0.210084
-0.289892 0.238507 0.000952056
-0.180813 -0.169924 0.487685
0.225541 -0.137157 0.449123
-0.361509 -0.0491426 0.475714
0.208352 -0.158216 0.487685
-0.317521 0.0164696 0.487685
-0.107987 0.124266 0.387822
-0.29206 0.300038 0.000952056
0.244607 -0.206965 0.487685
0.275951 -0.0602282 0.475714
0.065614 -0.0289053 0.475714
-0.106905 -0.125793 0.475714
-0.273989 -0.141474 0.475714
-0.0989713 0.129261 0.380582
-0.3087 -0.126193 0.475714
-0.0118686 0.135025 0.487685
0.239922 0.118056 0.439667
0.0812486 -0.0246055 0.475714
0.250296 0.00176974 0.475714
0.17879 0.200432 0.15403
-0.105365 -0.207726 0.487685
0.0845614 0.0773325 0.475714
0.0617529 0.17349 0.487685
-0.082793 0.17397 0.487685
-0.104322 -0.179941 0.212795
-0.00701785 0.121913 0.258161
-0.133078 0.0803856 0.475714
0.0132155 0.0985432 0.475714
0.241259 -0.0583546 0.487685
0.31313 0.0652752 0.475714
0.19306 -0.102054 0.43401
-0.27738 -0.238354 -2.77556e-17
0.0613226 -0.0400992 0.475714
0.140055 -0.165466 0.475714
0.182828 0.198964 0.150756
0.324907 0.235481 0.000952056
-0.183724 0.215489 0.487685
0.196428 -0.123154 0.475714
-0.0349583 0.244303 0.475714
0.0713813 0.127517 0.354746
0.195491 -0.115797 0.450621
-0.140023 0.00370009 0.475714
0.296669 0.260971 0.0584726
0.15139 -0.170708 0.138416
-0.195643 0.0938849 0.475714
-0.201532 -0.195965 0.475714
-0.318138 0.23249 0.00943866
-0.279061 0.179342 0.475714
0.0800229 -0.232706 0.487685
0.36839 -0.117453 0.475961
0.209579 0.22072 0.487685
0.185346 -0.126667 0.407298
0.0142594 0.00676093 0.487685
-0.167391 -0.206286 0.487685
-0.00996503 -0.0189815 0.487685
-0.242113 -0.0257138 0.487685
-0.104609 -0.146894 0.487685
-0.202467 -0.193945 0.100953
0.32528 -0.229287 0.00682393
-0.245212 0.159132 0.487685
0.199602 -0.106664 0.475714
-0.268998 0.22962 0.478002
0.128329 0.117157 0.487685
-0.1482 0.273719 0.487685
-0.0372069 0.00309364 0.475714
0.118736 0.284326 0.475714
-0.0726079 -0.296934 0.487685
-0.033888 -0.126048 0.225996
0.321732 -0.153853 0.487685
-0.273071 -0.230475 0.00876633
0.0994068 -0.210073 0.475714
-0.241133 -0.208376 0.0795038
0.0227246 -0.134405 0.292015
-0.022359 -0.12809 0.279216
0.0252156 -0.0485451 0.475714
-0.254795 -0.185249 0.487685
-0.0560942 0.168467 0.226231
-0.207945 -0.138066 0.429738
-0.247855 0.231274 0.0904963
0.0715874 -0.131731 0.325645
-0.19744 -0.173716 0.475714
-0.259978 0.026953 0.475714
-0.12697 -0.280138 0.487685
-0.0143318 -0.111975 0.475714
-0.157185 -0.205621 0.475714
0.345021 0.117013 0.475714
-0.17586 0.143119 0.425472
0.131821 0.208392 0.475714
-0.111686 -0.0656279 0.487685
-0.186161 -0.134587 0.487685
0.27068 0.252823 0.0741864
-0.10087 0.0643424 0.475714
0.0799236 -0.0500349 0.475714
-0.280995 0.257035 0.0366553
0.284256 -0.239491 0.0332596
-0.24467 -0.0279856 0.487685
0.0209187 0.0455946 0.475714
0.198343 -0.258265 0.475714
0.110437 0.0179065 0.475714
0.159287 0.110891 0.388048
0.0578014 -0.12552 0.31205
0.13385 0.19814 0.154919
0.211989 0.136126 0.421067
-0.00999758 0.203312 0.487685
-0.252132 0.234802 0.475714
-0.11203 0.183332 0.475714
-0.0663866 -0.0831784 0.475714
0.235159 0.0778279 0.487685
-0.345586 0.0531594 0.475714
0.192748 0.200996 0.142715
-0.0861737 -0.136884 0.338455
0.0151295 -0.239792 0.487685
-0.0205274 -0.259686 0.475714
0.318982 0.226984 0.000952056
0.267558 -0.271587 0.00812873
0.243645 -0.00750838 0.475714
-0.011009 -0.292832 0.487685
-0.134557 -0.0675798 0.487685
0.215545 -0.0167722 0.475714
-0.167592 -0.280638 0.487685
0.0826914 0.0548887 0.475714
0.0270241 -0.279064 0.475714
0.147694 -0.176062 0.137707
0.213569 0.216507 0.475714
0.231803 0.108604 0.475714
-0.0116196 -0.104101 0.271933
0.14854 -0.136367 0.387666
0.27182 0.257568 0.0100675
-0.0624164 -0.295008 0.475714
0.0140589 0.11162 0.307047
-0.0390041 0.140031 0.264248
0.0292178 -0.0573457 0.475714
0.195778 0.208211 0.140258
-0.0103349 0.0252804 0.475714
0.113305 0.214081 0.487685
-0.258855 -0.0786317 0.475714
0.293409 0.208475 0.478173
0.33964 -0.097 0.487685
-0.0819037 0.225497 0.475714
-0.0298029 0.26275 0.475714
-0.120634 -0.137839 0.37523
0.205206 0.209255 0.100447
-0.00493921 0.127127 0.252674
0.146014 -0.142521 0.475714
-0.324825 0.0494307 0.487685
-0.255586 0.250546 0.0665431
0.0562474 -0.0507474 0.487685
-0.192926 -0.0884397 0.487685
-0.312725 -0.191745 0.487533
-0.260471 0.113783 0.475714
0.015635 0.305827 0.487685
0.199929 -0.128583 0.418677
-0.236171 0.0978349 0.487685
0.317839 -0.0106406 0.487685
0.211074 0.256133 0.487685
0.214004 -0.10877 0.466841
0.253492 -0.0368507 0.487685
-0.139196 -0.115538 0.401868
0.145483 0.151602 0.487685
0.121169 -0.283934 0.475714
0.148152 -0.202224 0.475714
-0.0584031 0.00999186 0.475714
-0.127268 0.180813 0.153684
-0.0717057 0.140371 0.219575
0.128521 0.0180561 0.475714
0.27887 -0.240687 0.0154345
-0.295106 -0.0542319 0.475714
-0.18825 0.273493 0.487075
-0.364531 -0.0893355 0.487685
0.216371 0.203773 0.475714
-0.138397 -0.249939 0.475714
0.000573125 -0.103528 0.2854
-0.239526 -0.231027 0.103228
-0.0985194 0.141494 0.372221
0.137222 0.269127 0.475714
0.00469306 0.270503 0.487685
-0.172453 -0.10587 0.396249
-0.0732343 0.227933 0.475714
-0.075792 0.00917028 0.475714
-0.0433684 -0.168046 0.487685
-0.253326 0.130245 0.487685
-0.037153 0.213687 0.487685
-0.219725 -0.212074 0.0881527
-0.335003 -0.0179926 0.475714
0.146876 -0.194964 0.17413
-0.165637 -0.0165324 0.475714
0.113033 0.0802622 0.487685
0.0966366 -0.0295409 0.475714
0.139915 0.125253 0.403959
0.116876 -0.185449 0.475714
0.00163501 0.108963 0.276364
-0.00426769 0.136139 0.475714
-0.069862 0.043016 0.475714
-0.185254 -0.212295 0.475714
0.118074 0.188113 0.475714
0.130058 -0.243802 0.475714
-0.296226 -0.222936 -2.77556e-17
-0.137839 0.00227286 0.475714
0.0511741 0.0894673 0.475714
0.0759052 0.193139 0.475714
0.146696 -0.0948436 0.475714
0.214234 -0.175732 0.475714
0.371797 -0.101271 0.487685
0.179958 0.262867 0.487685
-0.111276 0.1945 0.475714
0.257534 -0.0334586 0.475714
-0.315622 -0.0105622 0.487685
-0.0254962 0.056017 0.475714
0.298129 -0.237377 0.0341905
0.0397091 -0.115233 0.298427
0.34846 -0.0533503 0.475714
-0.179986 -0.126491 0.430483
0.260789 0.183468 0.475714
0.111251 0.139841 0.352919
-0.0350894 0.171931 0.487685
-0.11986 0.0514316 0.475714
0.0501624 -0.100133 0.487685
0.136467 -0.225014 0.475714
0.292686 0.172941 0.475714
-0.145481 0.205244 0.149036
0.264249 -0.210177 0.487685
0.0759699 -0.136033 0.333311
0.119554 0.238224 0.475714
0.0434799 -0.244143 0.475714
0.0689823 -0.179388 0.475714
0.0930449 0.127518 0.487685
0.0375692 0.182078 0.475714
0.0429391 -0.105885 0.33081
0.118908 -0.0577891 0.487685
0.18734 -0.187124 0.120674
0.292591 0.1966 0.475714
0.200941 -0.206945 0.129164
0.0851383 -0.072117 0.475714
0.0178271 -0.213863 0.475714
-0.0477095 0.0457614 0.475714
-0.129081 -0.158675 0.179901
-0.151491 0.196986 0.475714
-0.185271 0.108378 0.420642
-0.154136 -0.176857 0.475714
-0.35971 0.0714686 0.487685
-0.105785 0.18249 0.20869
0.0158363 0.139158 0.475714
0.184685 -0.110423 0.407811
-0.270581 -0.1443 0.487685
-0.261081 -0.25535 0.00425953
-0.232676 -0.232217 0.090966
-0.0814197 -0.0708815 0.487685
0.322167 -0.0400372 0.475714
-0.280688 0.0735799 0.487685
0.0493538 -0.00691209 0.487685
-0.0421353 0.0249469 0.487685
-0.100498 0.0132547 0.487685
-0.0282841 -0.123178 0.487685
-0.0849549 0.213707 0.487685
0.0979668 0.114553 0.487685
-0.0431469 0.109166 0.311834
0.388904 -0.00295442 0.487685
0.0243772 -0.0652258 0.475714
0.164358 0.0253205 0.475714
0.114902 -0.190809 0.475714
-0.066755 0.254978 0.475714
0.0735676 0.0935829 0.487685
-0.103519 -0.117818 0.377023
0.327564 -0.17661 0.486773
0.217489 0.186751 0.475714
-0.2249 0.108015 0.454834
-0.286019 0.263667 0.0237885
0.213452 0.229952 0.116392
-0.0137789 -0.0722297 0.487685
0.0276901 0.155082 0.232162
0.13363 0.165758 0.487685
0.280545 -0.266356 -2.77556e-17
-0.336799 0.0377192 0.475714
-0.005463 0.038368 0.487685
-0.239626 -0.0703398 0.487685
0.142337 0.272162 0.487685
-0.0101137 -0.107612 0.305437
-0.204912 0.176119 0.475714
0.221881 0.154363 0.475714
0.217502 0.0335208 0.475714
-0.0459462 -0.291108 0.487685
-0.184054 -0.197599 0.148181
-0.118369 0.1424 0.385421
-0.114782 -0.152333 0.187785
0.369788 -0.0116764 0.487685
-4.89634e-05 0.137191 0.292375
-0.349821 0.00148863 0.487685
0.0294387 -0.128514 0.475714
0.234171 0.229622 0.109135
-0.137122 0.193165 0.487685
0.19322 -0.218868 0.106175
0.284971 -0.229284 0.014029
-0.121372 0.155273 0.487685
-0.172401 0.150835 0.487685
-0.288768 -0.251999 0.0369409
-0.225646 0.109559 0.475714
-0.305297 -0.143508 0.475714
-0.100311 0.153434 0.205225
0.369341 -0.0508922 0.475714
0.000573125 -0.126401 0.280525
0.11367 0.185463 0.206818
0.0979943 0.280908 0.475714
-0.314808 0.131813 0.475714
-0.290866 -0.27585 -2.77556e-17
0.222333 -0.132166 0.487685
0.0091121 -0.101306 0.290283
-0.0999612 0.183744 0.213535
-0.00699177 0.141176 0.245247
0.0162882 0.131874 0.259801
-0.237632 -0.11671 0.487685
-0.301531 0.0566902 0.475714
0.168349 0.0734922 0.487685
-0.0567713 -0.126602 0.210722
-0.143596 0.0917195 0.487685
0.212311 -0.14647 0.487685
-0.0108407 0.145931 0.242317
-0.123295 0.163929 0.175945
-0.0683287 -0.153074 0.241963
0.273155 -0.208138 0.475714
0.122661 -0.206587 0.475714
0.200546 -0.251349 0.475714
-0.29806 -0.00116962 0.487685
0.157073 -0.151347 0.487685
0.0176924 0.209295 0.487685
-0.268066 0.237148 0.0736816
-0.287912 -0.165511 0.475714
0.233332 0.00668094 0.487685
0.23717 0.125419 0.487685
0.230068 0.236593 0.108375
-0.315055 0.0776685 0.475714
-0.393913 -0.0305534 0.487685
-0.0530507 -0.208243 0.487685
-0.141425 -0.135751 0.475714
-0.250789 -0.213494 0.0940998
-0.0323242 0.0305764 0.487685
0.359097 0.033744 0.487685
0.175476 0.198659 0.156716
-0.351479 -0.111699 0.487685
-0.0770757 -0.298031 0.487685
0.0310901 0.243562 0.475714
0.037289 -0.154713 0.229907
0.0202938 -0.205914 0.487685
0.00525442 0.0875271 0.487685
0.245873 -0.0355752 0.475714
0.371429 -0.00663988 0.475714
0.170833 -0.112455 0.396783
-0.257188 0.229725 0.00669209
0.0488591 0.182375 0.487685
-0.241739 0.0711252 0.487685
0.382673 -0.0831593 0.484257
-0.0170287 0.103253 0.487685
0.156533 -0.0624615 0.475714
-0.166076 0.0783962 0.487685
-0.110507 -0.257729 0.487685
-0.0605693 -0.273701 0.475714
-0.185441 -0.0998545 0.475714
-0.100463 0.0708708 0.487685
-0.0585589 0.0869249 0.487685
-0.0691977 0.14444 0.341048
-0.263102 -0.180062 0.487685
0.0779734 0.155442 0.487685
-0.0406412 -0.161486 0.487685
0.0813967 0.291947 0.487685
0.150181 0.163427 0.487685
0.122432 -0.17447 0.156932
0.127945 0.167924 0.195246
-0.0941134 -0.136268 0.342336
-0.276688 0.233976 0.0620022
-0.229322 -0.0648757 0.475714
0.145052 -0.145494 0.487685
0.0265737 0.12559 0.232991
-0.214258 0.145213 0.475714
0.0511819 0.00370788 0.487685
0.00409937 -0.130276 0.246984
-0.332236 -0.122993 0.487685
-0.176392 0.266372 0.487685
0.111101 -0.170859 0.203883
0.0207568 0.119826 0.237307
-0.288084 0.0759167 0.475714
0.0402183 0.266713 0.475714
0.0975248 0.144698 0.354863
0.202586 -0.156282 0.475714
0.036714 0.306635 0.475714
-0.0596422 -0.102565 0.332624
-0.0710403 -0.0794483 0.487685
0.0573919 0.167585 0.223999
0.235044 0.117267 0.475714
-0.11713 0.232289 0.475714
-0.0325958 -0.308929 0.487685
-0.0072469 0.115583 0.282423
-0.238725 -0.115624 0.437426
0.0793782 -0.239429 0.475714
0.332638 0.155293 0.475714
-0.176009 0.184973 0.475714
-0.145394 -0.0590041 0.475714
0.149428 -0.0280007 0.487685
0.184916 -0.186018 0.122424
-0.259043 0.177019 0.487685
-0.317971 0.168916 0.475714
-0.0748418 -0.295459 0.487685
-0.0686192 -0.134532 0.345197
0.287964 -0.211795 0.487685
0.163126 0.185398 0.487685
0.054639 -0.274302 0.487685
-0.212973 0.13133 0.475714
-0.028463 -0.0718164 0.475714
-0.257951 -0.103921 0.487685
0.0250977 -0.204437 0.487685
-0.0675305 -0.262515 0.475714
0.205155 0.106933 0.431533
0.109638 -0.035978 0.475714
0.319501 0.12789 0.475714
0.15156 -0.169162 0.487685
0.282286 -0.116298 0.487685
-0.270111 0.00638025 0.487685
-0.00626841 -0.118397 0.475714
-2.78433e-05 -0.139242 0.263443
-0.276255 -0.0676498 0.487685
0.123453 -0.190164 0.165683
0.120508 -0.126018 0.475714
-0.0181371 -0.115278 0.237679
-0.133061 -0.134472 0.368323
0.152901 -0.125846 0.382925
-0.138324 0.249472 0.475714
0.118592 0.035388 0.475714
-0.387912 -0.00615168 0.475714
-0.10221 -0.253206 0.487685
-0.30603 -0.25814 0.030296
-0.234923 0.125679 0.475714
-0.0222334 0.154535 0.239904
0.0381671 -0.131721 0.221058
0.245519 0.191568 0.487685
-0.271641 0.112036 0.487685
-0.216512 -0.0126565 0.475714
-0.175867 -0.134672 0.487685
0.0660769 0.0763847 0.475714
0.180348 -0.2401 0.475714
0.283442 0.0820618 0.487685
-0.0538182 -0.00510417 0.475714
0.0231137 0.0485416 0.475714
-0.0838124 -0.0307412 0.475714
-0.000798583 -0.168025 0.475714
0.24175 0.218097 0.0733312
-0.115079 0.23717 0.475714
-0.178066 -0.180402 0.124848
0.153137 -0.176923 0.487685
-0.195175 0.180437 0.475714
0.19505 0.215882 0.140848
0.0783617 0.123514 0.322924
-0.196562 0.108472 0.475714
0.0323209 -0.267321 0.475714
-0.0985373 -0.105605 0.475714
0.178127 -0.0263715 0.475714
-0.126383 -0.101227 0.375242
-0.0414118 -0.170976 0.475714
-0.060665 0.0532097 0.487685
-0.0935369 -0.0716891 0.475714
-0.00483888 0.00201666 0.475714
-0.180852 0.127606 0.404217
0.166104 0.161412 0.487685
0.276205 0.268917 0.0106937
-0.237001 0.22654 0.487685
-0.24669 -0.207546 0.487685
0.203882 -0.129053 0.455594
-0.31427 -0.125981 0.487685
-0.222796 -0.172076 0.475714
0.0360562 0.122799 0.241708
-0.0276914 -0.229059 0.475714
0.119975 -0.29338 0.487685
-0.187667 0.218345 0.487685
-0.108617 -0.162341 0.170566
0.156864 0.188511 0.136316
0.0678917 -0.138785 0.336623
-0.150547 -0.071291 0.487685
0.0252319 -0.0778845 0.487685
0.00163501 0.130172 0.260772
0.223962 -0.190086 0.475714
-0.119088 -0.119009 0.351154
-0.241171 -0.21691 0.487685
0.0702951 0.141516 0.475714
-0.089196 -0.133094 0.335645
0.301395 0.0827074 0.487685
0.306979 -0.234681 -2.77556e-17
-0.146532 -0.137857 0.393647
-0.0823624 -0.172146 0.213866
0.117279 -0.148184 0.487685
0.219827 0.102408 0.475714
-0.191534 0.112771 0.417915
-0.116672 0.17877 0.16175
0.0590651 -0.25973 0.487685
0.308129 0.140975 0.475714
0.0481291 0.195856 0.487685
0.207416 0.0634144 0.475714
0.224462 0.147404 0.487685
-0.149493 0.108944 0.391839
-0.293147 0.0215574 0.475714
-0.198732 -0.219562 0.487685
-0.303453 0.214189 0.000952056
0.00149519 0.125838 0.25092
-0.269511 -0.222852 0.487685
0.144745 0.163927 0.487685
-0.111894 -0.0594174 0.475714
-0.279871 0.205289 0.487685
-0.129139 -0.19084 0.191864
0.0790235 0.13707 0.35631
-0.122325 -0.196261 0.475714
0.277055 0.252558 0.0743721
-0.168329 -0.00672264 0.487685
-0.182813 0.0841561 0.487685
-0.206502 -0.133268 0.444842
0.00892268 -0.117567 0.257836
0.0807236 -0.154635 0.229147
0.184505 0.00843221 0.487685
0.162467 -0.18849 0.487685
0.0803315 0.144208 0.233843
0.0510436 0.2211 0.475714
0.000165825 0.117489 0.273664
0.0791827 0.116746 0.487685
-0.309362 -0.227613 -2.77556e-17
-0.290791 -0.0337332 0.475714
0.0831777 -0.173593 0.192431
-0.00900414 0.12263 0.26029
-0.275555 0.152485 0.475714
0.0918359 0.163237 0.487685
-0.233285 -0.103501 0.465599
0.285375 -0.208996 0.0073707
0.0522973 -0.147125 0.210305
0.270533 0.239088 0.079659
-0.109129 -0.165377 0.475714
-0.216357 -0.0593897 0.487685
-0.136572 0.213957 0.475714
0.0588882 -0.153992 0.487685
0.138625 0.265798 0.487685
-0.20747 0.229836 0.0926283
0.297649 -0.249282 0.0226924
-0.205553 -0.206874 0.0986646
0.172766 0.0166892 0.487685
-0.00524476 -0.0652418 0.475714
0.0333293 0.157968 0.24804
0.378179 -0.028886 0.487685
-0.287558 -0.182196 0.487685
-0.0810831 -0.135318 0.332086
-0.164145 -0.281866 0.481656
0.232369 -0.0123202 0.475714
0.0559529 -0.0586444 0.475714
0.209296 0.232154 0.475714
-0.375654 -0.0271167 0.487685
0.177915 0.118762 0.487685
-0.260092 -0.22169 0.058211
0.129228 0.268053 0.475714
0.372977 -0.0266743 0.487685
-0.246457 0.206053 0.475714
0.117098 -0.155399 0.198895
0.226212 0.176227 0.487685
-0.217949 0.23506 0.109493
-0.0522346 -0.109324 0.487685
-0.032164 -0.137213 0.301138
-0.193377 0.191876 0.475714
0.127699 0.259539 0.475714
-0.0423085 -0.305485 0.475714
0.0830866 -0.151777 0.227182
0.38878 0.0351225 0.487685
-0.207169 0.230625 0.115553
0.0591544 -0.119065 0.487685
0.312459 0.184739 0.475714
-0.190653 0.185454 0.487685
0.119441 -0.113114 0.393284
0.247348 0.0358271 0.487685
-0.10309 -0.162616 0.475714
0.258317 -0.219536 0.0705717
0.186472 -0.201399 0.141198
-0.0848464 0.146372 0.225438
0.393407 -0.042031 0.476497
0.0533959 -0.140903 0.209469
-0.0901236 -0.230289 0.475714
-0.165263 -0.261105 0.487685
0.0316622 -0.103003 0.487685
0.29733 -0.243258 0.05105
-0.14453 -0.249085 0.487685
-0.151595 0.0817644 0.487685
0.0673538 0.124531 0.475714
-0.00749099 0.0792914 0.475714
0.187239 0.2028 0.14718
-0.329473 0.0033784 0.475714
-0.0358175 -0.117308 0.226883
0.306258 0.214409 0.00847407
0.155648 -0.191251 0.166834
0.235999 -0.129793 0.487685
