0.0957106 -0.162129 0.710285
0.00346669 -0.147176 0.616331
-0.206593 -0.00366885 0.343582
0.00681414 -0.00724083 0.719703
0.228917 -0.115127 0.710285
-0.236566 0.0395514 0.710285
-0.00212334 0.211922 0.000171827
0.00822001 -0.112896 0.0100884
-0.151894 -0.0544089 0.710285
-0.0946218 -0.182885 0.710285
0.235899 -0.00556199 0.265523
-0.0257969 -0.135054 0.719703
0.116907 -0.0281876 0.710285
0.0435429 -0.179498 0.710285
-0.0139124 0.232307 0.266129
0.140057 0.207083 0.71274
0.238087 -0.0501826 0.719703
0.306565 -0.0394846 0.710285
-0.00922476 0.205866 0.342468
0.00795754 0.143715 0.696992
-0.173353 0.00784005 0.00214367
0.107356 0.159454 0.719703
-0.0271367 0.299119 0.710285
-0.0757065 -0.246113 0.710285
0.00776548 -0.262008 0.092432
-0.119222 0.00947729 0.719703
0.144212 0.0559774 0.719703
0.172144 -0.00215663 0.480101
-0.16457 0.0379088 0.710285
0.0752036 0.134819 0.719703
0.069485 -0.0825268 0.710285
-0.269161 -0.00976492 0.0994304
0.022864 -0.301056 0.710285
-0.173589 0.111491 0.719703
0.0474939 -0.245428 0.710285
0.132483 0.0753281 0.710285
-0.00711987 0.170704 0.507677
0.215329 -0.017575 0.719703
-0.0666342 0.203303 0.719703
-0.0381686 -0.0713501 0.710285
0.304877 0.0117467 0.719703
-0.208053 0.0936236 0.710285
-0.0561006 0.0582278 0.710285
-0.12002 -0.0791011 0.719703
0.144345 0.140278 0.710285
0.188105 -0.102777 0.710285
-0.193606 0.0124423 0.454954
-0.00195206 0.235305 0.190886
0.12901 -0.129575 0.710285
-0.0107634 -0.265274 0.00989633
-0.227668 -0.012601 0.719703
-0.282189 0.0613533 0.719703
0.0084498 -0.238802 0.21745
0.0191756 0.305886 0.719703
0.0725306 0.0115817 0.00669412
0.195409 0.112156 0.710285
0.0150685 0.0790966 0.719703
0.153839 -0.0136403 0.719703
0.154497 -0.0831626 0.710285
0.04081 -0.103751 0.710285
0.00302004 0.118036 0.0171697
0.0454588 0.172938 0.710285
-0.184195 -0.0687432 0.710285
0.0238684 -0.0794795 0.719703
-0.0355043 -0.180355 0.710285
-0.140683 -0.193305 0.710285
-0.110428 0.178827 0.710285
0.165967 -0.176204 0.710285
0.162892 0.14309 0.719703
0.0573089 0.0401559 0.710285
0.251638 -0.0041569 0.194578
-0.0692352 0.102576 0.710285
0.0990927 0.00367594 0.719703
0.110069 0.237072 0.715834
-0.00765056 -0.285781 0.0388825
0.110536 -0.22385 0.710285
0.265528 0.0218106 0.719703
-0.0237164 -0.299808 0.710285
0.195122 0.0123136 0.417041
-0.0372199 0.00800362 0.719703
-0.00369269 0.189077 0.414343
-0.00549944 -0.218582 0.36685
0.270013 -0.00408789 0.105753
-0.214183 -0.0321211 0.710285
0.0114776 -0.133499 0.710285
-0.00362051 -0.0516121 0.710285
0.0434374 -0.00848138 0.719703
-0.163906 -0.00795008 0.567533
-0.0229481 0.184265 0.719703
-0.180593 -0.127228 0.719703
-0.0274665 0.247567 0.719703
-0.301568 -0.00569117 0.719703
-0.167736 -0.00838154 0.00432326
-0.142381 -0.0139136 0.719703
-0.00623417 0.188239 0.0178768
-0.0173568 -0.216597 0.719703
0.141008 0.0104166 0.00424969
-0.000757376 -0.218052 0.265454
-0.154472 0.192337 0.710285
-0.239897 0.00319532 0.283653
-0.113453 0.107805 0.710285
-0.0968175 0.0458881 0.719703
-0.172242 0.00135961 0.504023
0.0476034 0.221574 0.710285
-0.259877 -0.0415522 0.719703
-0.0458028 -0.100814 0.710285
0.150012 0.0120628 0.645314
-0.00551469 -0.165218 0.521683
-0.00931107 -0.17 0.59445
-0.18763 0.00582418 0.533146
-0.000803324 0.255422 0.095026
-0.201739 0.0141157 0.710285
-0.154426 -0.138498 0.719703
0.214239 0.0185685 0.710285
0.00790745 0.228438 0.267927
-0.152406 -0.0101776 0.656989
0.241199 0.0117877 0.0116134
0.0339387 -0.215462 0.710285
-0.219416 -0.00317962 0.379964
0.00205978 -0.130348 0.693478
-0.0736718 -0.115724 0.719703
0.164757 0.0417759 0.719703
0.00312956 -0.276257 0.719703
0.0662645 0.101927 0.710285
-0.263138 0.00874446 0.0807415
-0.0107913 -0.273619 0.0858892
0.0059431 0.162143 0.631037
0.129301 -0.157392 0.719703
-0.0728519 -0.0279204 0.719703
0.259287 0.00276942 0.162189
0.192299 0.0109743 0.0137662
-0.169834 0.0720874 0.719703
-0.0638604 -0.0561299 0.719703
-0.228756 -0.0838261 0.710285
0.00811978 -0.0302777 0.0103841
-0.251443 -0.00906817 0.153253
0.213395 0.0750829 0.710285
-0.000303222 0.258525 0.184002
-0.0136966 -0.246979 0.166912
0.222996 0.000516928 0.339258
0.166909 -0.0102331 0.555043
0.128289 0.0209388 0.719703
-0.28665 0.0055043 0.037202
0.230337 -0.0863993 0.710285
0.0910702 0.0800309 0.719703
0.098643 0.0395707 0.719703
-0.27202 -0.0751172 0.719497
-0.000750798 0.0460904 0.0181387
0.228871 -0.00355579 0.305529
0.00405074 -0.089908 0.00228728
0.0175751 -0.0172906 0.710285
0.033778 0.24758 0.710285
-0.100977 0.239798 0.710285
0.00143261 0.0699428 0.719703
0.0545802 -0.290752 0.719703
0.222735 0.00755732 0.242312
-0.121139 -0.111419 0.710285
0.128694 -0.00333221 0.691882
-0.0127315 -0.181601 0.466388
-0.0782561 0.116987 0.710285
0.176578 -0.0620682 0.710285
0.00698156 0.190042 0.490472
0.0265757 0.14359 0.710285
-0.009793 0.229606 0.230346
0.0949122 -0.0613925 0.710285
0.00161519 -0.22704 0.323393
-0.0937599 -0.21156 0.719703
0.0714137 0.189462 0.719703
-0.0129543 0.17026 0.535265
0.252366 0.0633884 0.719703
0.267687 -0.0467742 0.719703
0.180777 -0.0280521 0.719703
0.264066 0.00945495 0.0514983
-0.00958031 -0.151678 0.681804
-0.254871 0.00879779 0.19672
-0.00188133 -0.209644 0.412123
-0.27069 0.041211 0.719703
-0.0129524 -0.178242 0.534517
-0.0114901 0.14909 0.695553
0.176439 -0.137699 0.719703
-0.317148 0.0280326 0.710285
-0.0341964 0.268073 0.719703
0.15668 0.0172723 0.710285
-0.146242 -0.158987 0.719703
0.290051 -0.0570835 0.714778
-0.239825 0.00922664 0.0153364
-0.0202967 0.00486861 0.0177727
-0.0132918 0.197325 0.446562
0.00796815 -0.176116 0.010864
0.00833066 0.0976833 0.00886424
-0.0495173 0.232205 0.710285
0.260089 -0.00841225 0.0761564
0.0118167 -0.248182 0.719703
0.226785 0.00132554 0.211803
-0.0330031 -0.0137614 0.710285
-0.0140428 0.242439 0.0100124
-0.23144 0.115701 0.711643
0.138173 -0.0711875 0.710285
0.178868 -0.000855668 0.44587
-0.0142086 -0.26077 0.112595
-0.199807 -0.14201 0.710285
0.0610875 -0.00195116 0.0179488
-0.0141476 -0.23347 0.00892219
0.125766 0.184574 0.710285
0.0781172 -0.148376 0.710285
-0.15367 0.0105568 0.619214
-0.126443 0.0859477 0.710285
0.137372 -0.0081129 0.668472
0.000354221 0.283703 0.0613148
-0.0126119 0.0210471 0.719703
-0.22586 0.00639429 0.347413
0.135877 -0.0272426 0.719703
-0.0946726 0.20971 0.710285
-0.264944 0.022701 0.719703
-0.0539109 -0.0088367 0.0138041
-0.152068 0.129402 0.710285
-0.230974 -0.109374 0.710285
0.0798867 -0.183224 0.719703
0.108934 0.0110421 0.00505339
0.00845782 0.0114056 0.0061589
0.101162 0.178351 0.710285
0.273236 0.0112331 0.0215749
-0.00433791 -0.307172 0.710285
-0.00234343 0.246458 0.136413
-0.0157332 0.204091 0.719703
-0.0169757 0.313871 0.710285
-0.0580906 0.159545 0.710285
0.200283 0.0321335 0.710285
-0.234359 -0.0384522 0.719703
-0.21699 0.0754971 0.710285
-0.00433001 0.276571 0.0982365
0.00305695 -0.261798 0.059707
0.00278525 0.243903 0.719703
-0.209472 0.00181941 0.324466
-0.012765 -0.216597 0.297211
0.132924 -0.10557 0.719703
0.160716 -0.0101349 0.583244
0.0290346 0.193664 0.719703
0.217962 -0.0512196 0.719703
-0.077047 -0.193985 0.710285
0.0378732 0.0600322 0.719703
-0.234107 0.0121292 0.25333
-0.196424 -0.0574416 0.710285
-0.143712 0.021806 0.710285
-0.0133103 0.152534 0.662969
-0.0251174 0.0790093 0.710285
0.00154328 0.155348 0.582305
-0.0120788 0.227974 0.719703
0.211993 0.00258814 0.391274
0.223644 0.105877 0.719703
-0.0434447 -0.261711 0.710285
0.0149586 -0.190191 0.710285
-0.114791 -0.0535491 0.710285
0.19372 0.00291143 0.373867
0.0458252 0.0195289 0.710285
-0.00159546 0.0451739 0.719703
0.157638 -0.0061323 0.0161286
0.113918 0.104557 0.710285
0.0489978 -0.0911018 0.710285
0.0430397 0.268015 0.719703
0.240702 0.00783803 0.710285
-0.00427676 -0.161875 0.642843
-0.0135224 0.155895 0.615009
0.0896668 -0.0887995 0.719703
-0.00518261 0.228076 0.331786
-0.0870206 0.260121 0.712278
-0.0136512 0.225812 0.302256
-0.108458 0.137153 0.710285
-0.00881722 -0.0772009 0.719703
0.00757616 -0.193299 0.453471
-0.193509 -0.00154221 0.0180391
0.0550216 -0.197856 0.710285
0.240125 0.0319216 0.710285
0.0238543 -0.162808 0.719703
0.0316328 0.100303 0.719703
-0.0906352 0.18229 0.710285
0.0143333 0.0175027 0.710285
-0.186851 -0.0992813 0.710285
-0.157276 -0.0388377 0.710285
-0.00639826 0.117273 0.719703
-0.093359 -0.0741785 0.710285
-0.187794 -0.0244573 0.719703
0.16636 0.00524158 0.509291
-0.175619 0.0179832 0.719703
0.168376 0.0123669 0.547423
0.00311237 0.207195 0.426736
-0.00471443 0.266458 0.0412252
0.00352675 0.253753 0.111372
-0.274248 -0.0283428 0.710285
-0.181723 0.13232 0.719703
-0.102042 -0.156005 0.719703
0.178149 0.168991 0.712462
-0.150528 0.167674 0.719703
-0.0466096 0.299557 0.710285
0.196845 0.0851778 0.719703
-0.134175 0.181674 0.719703
-0.0513211 -0.156742 0.710285
-0.0513171 0.178245 0.719703
-0.190838 0.090715 0.710285
0.142495 -0.171034 0.719703
-0.110959 0.0687199 0.710285
-0.0774291 -0.225806 0.719703
0.103913 -0.139511 0.719703
-0.199949 -0.00303303 0.474354
0.115855 0.220013 0.719703
-0.217636 -0.00506302 0.29357
-0.154481 0.0576658 0.710285
-0.0400199 -0.0864855 0.719703
0.200957 0.0494047 0.719703
-0.0159224 0.140373 0.710285
-0.255653 0.0122685 0.158678
-0.200963 0.0122901 0.416609
-0.0137209 0.110754 0.00761406
-0.249282 0.0619497 0.719703
-0.0138649 -0.10991 0.0105579
0.00465851 -0.264569 0.0275931
0.329646 0.0170906 0.710285
-0.0547868 -0.186761 0.710285
0.234666 0.0749794 0.719703
0.00281431 -0.199123 0.361812
-0.0160117 -0.189601 0.710285
-0.0120577 -0.231597 0.719703
0.00705381 0.217288 0.357322
0.0212691 0.285537 0.719703
-0.0076204 -0.177336 0.563672
0.281465 0.000477403 0.719703
-0.132311 0.0659395 0.719703
0.112827 -0.1858 0.710285
-0.0135161 -0.166917 0.0116273
-0.319992 -0.0260809 0.710285
-0.143935 0.00679477 0.648117
0.00679691 0.161142 0.0140875
-0.0496379 0.0349438 0.710285
-0.00385497 -0.271075 0.114986
0.00490884 0.323638 0.719703
-0.00634554 -0.23295 0.195013
-0.0944551 -0.114662 0.719703
-0.161774 0.00556712 0.710285
0.0701422 -0.276992 0.719204
-0.262895 0.01151 0.102874
-0.00536695 0.302869 0.710285
-0.176082 0.0111481 0.563813
-0.153679 0.00106561 0.593509
0.244703 -0.0259874 0.719703
0.0772231 0.269917 0.713242
-0.0249578 -0.112708 0.719703
-0.0954849 0.0195108 0.710285
0.0602019 0.0597784 0.710285
-0.119333 -0.0102585 0.00948091
-0.129727 -0.0245812 0.710285
0.225306 -0.00996474 0.279815
-0.262577 -0.00999965 0.127081
-0.0854521 -0.0514194 0.710285
0.00274224 0.242374 0.162747
-0.140959 -0.0798168 0.710285
0.0915414 -0.0255115 0.710285
-0.00330351 -0.150958 0.58783
-0.0992618 0.125172 0.719703
-0.0615975 0.259263 0.719703
0.207953 -0.126328 0.719703
0.0271938 -0.0951443 0.719703
-0.0584735 0.132215 0.719703
0.00256795 -0.239579 0.261478
-0.212927 0.0123385 0.364168
0.121045 0.133075 0.719703
0.00673486 -0.189106 0.429251
0.0445983 0.125692 0.719703
-0.0719197 -0.00156541 0.710285
-0.0420527 -0.305093 0.717475
-0.0111589 -0.0470606 0.0152608
-0.225915 0.0615959 0.719703
0.0681566 -0.163609 0.710285
-0.208137 -0.0091945 0.404952
0.236548 0.00855195 0.180282
0.192217 -0.000846718 0.486422
-0.0133297 -0.25803 0.141653
-0.169935 -0.117028 0.719703
-0.0751316 -0.163572 0.710285
-0.215974 0.036634 0.710285
-0.285166 0.00254884 0.710285
0.000193685 0.104568 0.710285
-0.0140037 0.206299 0.390351
0.187277 -0.00797174 0.426324
0.0692494 -0.238514 0.719703
-0.00515426 -0.2237 0.342533
0.162716 -0.00150583 0.628312
-0.0474456 0.116809 0.710285
-0.0111927 -0.0796377 0.0152333
0.101654 0.19513 0.719703
-0.204573 -0.0873975 0.719703
0.0476538 -0.06327 0.719703
-0.269205 -0.00480055 0.0427637
0.0678774 -0.00586292 0.710285
0.14092 0.121178 0.710285
0.127782 -0.00780693 0.719703
-0.136224 0.119074 0.710285
0.27186 0.0711182 0.710285
-0.264564 0.00638092 0.0637736
0.309266 0.034866 0.710285
0.178023 0.102957 0.710285
0.138314 0.031722 0.710285
0.1994 0.00691919 0.352137
-0.157723 -0.181212 0.710285
0.156047 0.0694447 0.719703
-0.235953 0.00808564 0.710285
0.261949 -0.00515159 0.141457
0.00337716 -0.22986 0.305315
-0.196063 0.00525543 0.493081
-0.00772542 -0.151113 0.710285
0.0275356 -0.137848 0.710285
0.0505562 0.197843 0.710285
-0.171263 0.173892 0.719703
-0.251523 -0.0656848 0.710285
0.00396403 0.161766 0.558603
-0.00934612 -0.14481 0.628033
-0.0544062 0.0861638 0.719703
-0.181006 0.038876 0.710285
-0.0847619 -0.00430763 0.00118547
0.13282 0.100318 0.719703
-0.0369748 -0.214326 0.710285
0.195753 -0.041262 0.710285
-0.0582381 -0.256118 0.719703
-0.320632 0.00173636 0.710285
-0.0278053 -0.276818 0.719703
-0.00287397 0.0751253 5.94713e-06
0.153752 -0.00209468 0.67092
0.20531 0.00789305 0.328253
0.00263223 -0.262041 0.152703
0.00386436 0.219068 0.280841
0.145746 0.158002 0.710285
0.0890566 0.0983746 0.719703
0.327922 -0.0151319 0.719703
0.000562727 -0.029035 0.710285
0.259543 0.0410203 0.710285
0.207409 -0.00991089 0.00807554
0.0064635 0.210498 0.0143592
0.244434 -0.0684201 0.719703
-0.0453924 -0.128593 0.710285
0.0918989 0.255241 0.716547
-0.143733 -0.119078 0.710285
0.0330659 0.0081665 0.016203
-0.106318 0.202124 0.719703
0.284539 -0.0234318 0.710285
0.0310591 -0.0343603 0.719703
-0.0316433 -0.0521241 0.719703
-0.274978 -0.00967157 0.0729576
0.110629 -0.109913 0.710285
-0.136365 -0.062846 0.719703
0.0848656 0.0510092 0.719703
0.00636937 0.156672 0.655452
-0.0504253 -0.00870639 0.719703
0.0082463 0.185508 0.710285
0.182073 -0.0831571 0.719703
-0.249077 0.00244019 0.240219
0.0916355 0.153364 0.710285
0.150309 -0.142801 0.719703
0.103016 -0.244118 0.711837
0.0327822 -0.283614 0.719703
-0.0142156 0.253132 0.159901
0.111298 0.0248064 0.719703
-0.0784633 0.0410462 0.710285
0.0612199 -0.112043 0.710285
-0.190843 0.113913 0.719703
-0.0984406 -0.238308 0.719703
-0.106066 -0.0078117 0.710285
0.183308 -0.0046688 0.0012886
-0.233664 0.0895417 0.710285
0.288955 0.0227422 0.710285
-0.263293 -0.00888646 0.0195437
0.183568 -0.0102271 0.719703
0.0934184 -0.04274 0.719703
0.0371177 0.0434728 0.719703
-0.0560121 -0.0814301 0.719703
-0.0170738 0.267722 0.719703
0.224663 0.0118483 0.287942
-0.00921488 -0.249922 0.208183
-0.122591 -0.203156 0.719703
0.0901784 0.119644 0.710285
0.0150121 -0.111974 0.719703
0.043315 0.291719 0.719703
0.0894298 -0.00463564 0.0012615
0.00151822 -0.127764 0.719703
-0.0138415 0.271971 0.0754602
0.148595 -0.186503 0.719703
-0.011034 0.250817 0.205516
0.284955 -0.0387374 0.719703
-0.0109844 0.202636 0.366612
-0.0132309 0.28203 0.719703
0.165561 -0.157194 0.719703
0.135785 -0.0905496 0.719703
-0.0760329 0.0671511 0.710285
0.0735617 0.077082 0.710285
-0.296753 0.0437348 0.710285
0.159821 0.126553 0.719703
0.25315 -0.00882309 0.112378
0.0744317 -0.0592841 0.719703
-0.00959282 -0.129923 0.00207636
0.180727 0.126366 0.719703
0.146688 -0.00396535 0.702668
0.00345737 -0.260544 0.710285
-0.012782 0.0118412 0.00473594
0.00835009 0.278075 0.0396839
0.0267566 0.219954 0.719703
0.0527989 -0.226091 0.719703
0.162888 -0.100481 0.710285
0.0873156 -0.221043 0.710285
0.217007 -0.0975558 0.719703
0.00577892 -0.211102 0.38446
0.020544 -0.32659 0.710574
0.00348975 -0.00600542 0.0167829
0.116129 -0.058204 0.719703
0.0779016 0.16488 0.719703
0.00753934 -0.181982 0.508901
-0.16324 -0.0222004 0.719703
0.167337 -0.00934266 0.536939
-0.115226 0.164736 0.719703
0.0946411 -0.188856 0.710285
-0.0210391 -0.323195 0.710285
0.0193648 -0.0654944 0.719703
-0.131393 0.00360761 0.710285
-0.164435 0.00575597 0.645473
-0.00687606 0.208905 0.322512
-0.133591 -0.170551 0.710285
0.0013698 -0.208378 0.315013
-0.0102067 0.0239911 0.0160368
-0.0585864 -0.115589 0.719703
-0.0142551 -0.0275419 0.719703
0.21881 0.00916867 0.0153838
-0.204438 0.00757322 0.00192557
0.17882 -0.0101397 0.501608
0.0232201 -0.205036 0.719703
0.258494 0.0124041 0.114244
0.0562229 -0.132839 0.710285
-0.0197449 0.162384 0.710285
-0.0874291 -0.259715 0.713233
0.248604 -0.00248337 0.719703
-0.0502977 -0.0326982 0.719703
0.173498 0.0215574 0.719703
-0.00939271 0.217348 0.37541
0.132939 0.00428479 0.0179015
-0.111037 -0.173954 0.710285
-0.144825 0.139959 0.719703
-0.197492 -0.00627396 0.719703
-0.163604 0.0875608 0.710285
0.247275 -0.0998593 0.71714
0.264063 0.0071818 0.00845404
-0.00443124 -0.217945 0.0182752
-0.0436264 0.0698328 0.719703
-0.249243 -0.0253061 0.710285
0.263481 -0.033779 0.710285
-0.235091 -0.0637107 0.719703
0.00653273 -0.153478 0.710285
-0.277467 -0.0156468 0.719703
-0.165397 -0.0689169 0.719703
0.163102 -0.0263939 0.710285
-0.144997 -0.00990729 0.697693
0.0791269 0.035486 0.710285
-0.0284183 -0.009452 0.00668026
-0.170711 -0.00561134 0.608917
0.110987 0.0797619 0.710285
0.200822 0.00223434 0.719703
0.200936 -0.0175907 0.710285
-0.281018 0.00311893 0.0847748
0.145765 0.0122204 0.663031
-0.172004 -0.145888 0.710285
0.164486 0.00843857 0.00263288
-0.0839721 -0.104537 0.710285
0.166625 -0.00469198 0.60494
0.318236 0.00165147 0.719703
0.128233 -0.213617 0.719703
-0.0711534 -0.132716 0.710285
0.000977488 -0.237474 0.173713
0.0511147 0.0116039 0.00676168
-0.262686 -0.00120288 0.173162
0.0701552 0.113495 0.719703
-0.00705557 0.0903229 0.719703
-0.0746279 0.176202 0.719703
0.190101 0.00783982 0.401591
0.0101594 -0.290625 0.710285
-0.0130395 -0.182609 0.511824
0.0629016 -0.0153528 0.719703
-0.107644 -0.201334 0.710285
0.00790203 -0.272036 0.0463843
-0.0133483 0.182703 0.48214
-0.225466 0.0215019 0.719703
-0.0135549 0.259286 0.0105211
0.046388 -0.00928149 0.0061618
0.180444 0.147163 0.710285
-0.0291758 -0.164449 0.710285
-0.199746 -0.000169966 0.372194
-0.187134 -0.00670999 0.449137
-0.061425 0.0108825 0.013983
0.00345185 0.226658 0.242117
0.0388175 0.157409 0.719703
-0.0123545 -0.205649 0.348199
-0.248685 -0.00522418 0.00243273
-0.00673697 0.179505 0.000847804
0.014915 0.103845 0.719703
-0.124454 0.0326325 0.719703
0.00143281 0.230398 0.710285
0.239733 -0.00758924 0.014388
0.0908896 0.0207267 0.710285
-0.186792 0.0111364 0.512195
-0.303801 -0.0274457 0.719703
0.0172744 0.176409 0.719703
-0.0131885 -0.160391 0.616651
0.00761159 -0.147439 0.644027
-0.0123352 0.159887 0.639217
0.0291119 -0.232466 0.719703
-0.170587 -0.0845357 0.710285
0.00805805 0.184738 0.00802174
0.0162517 0.0580475 0.719703
-0.200482 0.0736855 0.719703
-0.134394 -0.0442402 0.710285
-0.0378306 0.0373755 0.719703
-0.114568 0.0111419 0.00535707
-0.0663669 -0.0951062 0.710285
0.0323053 -0.314829 0.718721
-0.198851 0.0121844 0.435042
0.00405137 0.12953 0.00228315
-0.00964021 -0.188723 0.416969
-0.2147 -0.07102 0.719703
-0.0139015 -0.140428 0.700433
0.0107965 -0.089541 0.719703
-0.00187577 -0.241603 0.15005
0.11624 -0.152344 0.710285
-0.00852514 0.211277 0.408723
0.0351875 0.311953 0.713017
0.000888267 0.187498 0.526143
-0.0572568 -0.23821 0.710285
-0.272086 -0.058106 0.710285
0.00698531 0.250325 0.198701
0.00782225 -0.197466 0.00729554
0.0479083 0.251345 0.719703
0.143503 -0.055498 0.710285
-0.237126 0.00444517 0.194043
-0.0946619 0.0628345 0.719703
-0.0966646 -0.137723 0.719703
0.106415 -0.015532 0.719703
0.00325311 0.260067 0.0229534
0.166535 -0.00227641 0.710285
-0.14805 -0.0102069 0.674076
-0.184633 -0.0431992 0.719703
-0.0387242 0.197987 0.710285
0.102653 -0.0954018 0.710285
-0.108863 0.0835308 0.719703
-0.120262 -0.183948 0.710285
-0.133787 -0.210759 0.710285
-0.0142306 0.26163 0.118505
-0.00949924 0.055633 0.00200011
-0.0130556 0.239728 0.245618
0.219129 -0.0049814 0.257755
0.221222 0.0249611 0.719703
-0.21399 -0.00779099 0.710285
0.183116 0.0460122 0.710285
-0.103885 0.000952675 0.0185905
-0.0981803 0.162207 0.710285
-0.158639 0.155082 0.710285
0.190347 -0.123521 0.710285
-0.031443 0.230988 0.710285
0.0695605 0.213525 0.719703
0.107276 0.0674466 0.719703
-0.00835779 0.188458 0.710285
-0.182436 -0.00910211 0.487783
0.248154 0.011605 0.147688
-0.00290722 0.243507 0.260069
0.204754 -0.00313077 0.422782
0.00314106 0.235429 0.289973
0.241804 0.00726084 0.239194
0.315044 -0.022102 0.710285
-0.0415532 -0.19641 0.719703
-0.0914623 0.105736 0.719703
0.0814188 -0.130788 0.719703
-0.212179 0.00417951 0.719703
-0.0379406 0.17485 0.710285
-0.0854568 0.00168642 0.719703
0.211364 -0.00483436 0.294619
0.120021 0.202124 0.710285
0.173206 -0.111025 0.719703
0.0188485 0.328291 0.716115
-0.0260172 0.0230943 0.710285
0.114066 0.142862 0.710285
0.0313093 0.00254448 0.710285
-0.00126997 0.150381 0.602705
0.00390612 -0.166877 0.607522
-0.24834 0.0279833 0.710285
-0.0173633 0.0607867 0.719703
0.0432906 0.0932492 0.710285
0.132227 0.00362823 0.708443
0.0804099 0.0639824 0.719703
0.0617724 0.17458 0.710285
0.0936085 -0.00344752 0.0176181
-0.17161 0.0100714 0.530058
-0.0439859 0.252254 0.710285
-0.253742 -0.000837485 0.111776
-0.230871 -0.00692677 0.311442
-0.269467 0.073352 0.710285
-0.195054 0.0650219 0.710285
0.00213095 -0.164019 0.627672
-0.243608 -0.00429448 0.261453
-0.0128979 -0.227124 0.248629
0.00159111 -0.199105 0.719703
-0.0142659 0.248117 0.182113
-0.00939624 0.180152 0.555379
0.155602 0.011835 0.622359
-0.00132386 -0.15697 0.666284
0.0284228 0.265219 0.710285
-0.133572 -0.147204 0.719703
0.192508 0.0122608 0.436123
0.00191086 -0.252145 0.00337899
0.150384 0.0387437 0.710285
-0.199676 0.0302802 0.719703
-0.246753 0.0120995 0.719703
-0.162652 0.00289948 0.552422
-0.0880895 -0.0238813 0.710285
0.30082 -0.0225958 0.719703
-0.0108065 -0.260816 0.0737646
-0.196451 -0.126463 0.710285
-0.0304165 -0.101191 0.710285
-0.124489 0.109397 0.719703
-0.0266894 -0.234071 0.710285
-0.0675987 -0.0103199 0.719703
0.233707 0.0106816 0.26182
0.00202459 0.245588 0.243574
0.197652 0.146015 0.719703
-0.328886 0.0182555 0.714823
0.00814415 -0.156858 0.00827921
0.136554 0.178374 0.719703
0.131623 -0.0462456 0.719703
-0.0178461 -0.00657204 0.719703
0.0184847 -0.271046 0.710285
0.167711 -0.125233 0.710285
-0.134587 0.194789 0.710285
0.245373 -0.00867299 0.148619
-0.0127307 -0.268582 0.045494
-0.241471 -0.0923514 0.710285
-0.0663717 0.187371 0.710285
0.151069 0.00642988 0.719703
-0.251446 -0.00893377 0.20006
0.251581 -0.00267468 0.0963906
-0.17552 -0.00984498 0.551114
0.0426047 -0.302899 0.710285
-0.155973 0.000160772 0.0184155
-0.0462722 -0.28341 0.719703
0.14145 -0.00954845 0.00697351
-0.251354 -0.00501239 0.221591
-0.0719537 0.135648 0.710285
0.019478 0.235783 0.719703
-0.248577 9.85626e-05 0.135557
0.0816074 -0.0100619 0.719703
0.0634584 0.250244 0.719703
-0.0878224 -0.0428909 0.719703
-0.220834 -0.126305 0.715978
0.00246834 -0.194119 0.48158
0.0958976 0.134418 0.719703
0.224618 -0.037863 0.710285
0.04749 -0.11867 0.719703
0.114101 0.00395662 0.710285
-0.0113371 0.247779 0.710285
-0.0777804 -0.144209 0.719703
-0.0140112 -0.216739 0.318893
-0.0289704 0.121888 0.710285
0.0502953 -0.0331657 0.719703
-0.24538 -0.0174494 0.719703
-0.0418196 0.0927424 0.710285
0.000681598 0.134031 0.719703
-0.00905199 0.286173 0.0440189
0.0927984 0.233749 0.719703
0.0222651 0.0671965 0.710285
0.150434 0.0827005 0.710285
0.272544 0.00360598 0.037202
-0.0114985 0.0907485 0.00362936
0.00641923 0.186571 0.510531
0.24078 -0.00309594 0.248501
-0.00659143 -0.133567 0.676229
0.0108872 -0.314242 0.719703
-0.0722497 -0.20695 0.719703
0.00208808 -0.180576 0.547611
-0.0796468 0.155333 0.710285
-0.00398498 -0.0169256 0.0183738
-0.284991 -0.00067371 0.0201759
-0.0763522 -0.0757191 0.710285
0.187972 0.00391762 0.505778
-0.00112922 -0.250936 0.105853
0.265594 -0.0634061 0.719703
-0.0104368 0.13751 0.679104
0.121858 0.15935 0.710285
0.0528981 0.102917 0.719703
0.00532597 -0.276522 0.070096
-0.109091 -0.101989 0.719703
0.229302 -0.0664075 0.710285
-0.0138833 -0.285823 0.719703
-0.283447 -0.0466745 0.710285
0.149851 -0.00733531 0.604336
-0.0329434 0.313405 0.710285
-0.0702227 -0.262866 0.710285
-0.182789 -0.0022302 0.710285
0.0566462 0.140557 0.719703
0.0552669 -0.264529 0.719703
0.00573067 0.245743 0.00410398
-0.210149 -6.58152e-05 0.428863
0.163827 0.0560816 0.710285
-6.29853e-05 0.193729 0.39451
0.198159 0.0173457 0.719703
0.20899 -0.0100154 0.347504
0.00824746 -0.202111 0.398662
0.0274193 -0.170142 0.710285
-0.00764769 -0.251863 0.0198209
0.0305308 -0.0706245 0.710285
0.00273194 0.281478 0.719703
0.243077 0.0109009 0.215417
-0.0061869 -0.198913 0.461131
0.253297 -0.0456397 0.710285
-0.143435 0.0770752 0.710285
-0.058023 0.224522 0.719703
0.128124 -0.142255 0.719703
0.212907 0.118959 0.719703
-0.0534731 0.0199946 0.719703
0.0332849 -0.19032 0.719703
-0.00499471 0.156335 0.679177
0.000820787 0.136444 0.0177925
-0.132306 -0.10839 0.719703
0.0185314 -0.148738 0.719703
0.237867 0.107912 0.710285
-0.256262 0.0485571 0.710285
0.242685 0.0110223 0.163672
0.0818661 -0.245162 0.719703
-0.11885 -0.159643 0.710285
-0.221012 0.0062017 0.27429
-0.209536 0.0112626 0.399875
-0.103956 -0.220786 0.710285
0.0165172 -0.22394 0.710285
0.0838412 0.180579 0.719703
0.120588 -0.00302696 0.00090244
-0.0112429 -0.124256 0.710285
-0.150089 0.0393261 0.719703
-0.008026 -0.0128964 0.710285
-0.22192 0.0977248 0.719703
0.0131047 0.259503 0.719703
0.0158687 0.198961 0.710285
-0.0108292 0.206132 0.0155295
-0.00163473 -0.18 0.448446
-0.00129918 -0.169307 0.500625
-0.176443 0.0974753 0.719703
-0.213398 -0.0100804 0.363603
0.0319567 0.0247621 0.719703
0.195939 -0.00882264 0.442455
-0.0144001 -0.0665292 0.710285
0.0923387 -0.107168 0.719703
-0.22487 0.012018 0.296026
-0.148972 -0.00481154 0.624614
-0.245309 0.0118493 0.216249
-0.0487925 0.278181 0.719703
-0.273181 0.0111366 0.0463689
0.000653612 0.0129082 0.719703
-0.0678123 -0.183425 0.719703
0.00699515 -0.167515 0.588765
0.060445 0.272034 0.719703
-0.0132568 0.160159 0.589589
-0.258048 0.0114984 0.710285
0.0491323 0.235462 0.719703
-0.110953 0.0190049 0.710285
0.0122924 0.0330189 0.719703
0.00842592 -0.211607 0.349479
0.201787 0.0673421 0.719703
0.210257 -0.00938713 0.330078
-0.187058 -0.00917534 0.507296
-0.0869442 -0.170815 0.719703
-0.186098 -0.00741864 0.00353623
0.00412365 -0.214044 0.295944
-0.0070549 0.0791384 0.710285
0.177428 -0.0463042 0.719703
0.0632759 0.260253 0.710285
0.0695945 -0.22816 0.710285
-0.263378 0.0605112 0.719703
0.00445291 0.232595 0.218236
-0.0901172 0.228738 0.710285
0.109966 -0.205764 0.710285
-0.103211 0.00600585 0.719703
0.0635781 -0.0987108 0.719703
0.16639 0.00973512 0.525469
0.103167 -0.0735467 0.719703
-0.152243 0.00023213 0.719703
-0.00513425 0.185801 0.432057
0.207727 -0.139291 0.710285
-0.0378452 -0.144843 0.710285
-0.059819 0.0413893 0.719703
-0.0115031 0.328835 0.719703
-0.282434 -0.064703 0.710406
-0.205801 -0.0088325 0.00479659
0.00699968 -0.238936 0.24309
0.17344 -0.00181881 0.576016
-0.304908 0.00911401 0.710285
-0.0139527 0.039363 0.710285
-0.00153162 -0.239283 0.000301957
-0.0889118 0.137696 0.710285
-0.184486 -0.00840981 0.470176
-0.181868 0.0767924 0.710285
-0.10591 0.229268 0.719703
-0.193174 -0.114475 0.719703
0.206804 -0.0097298 0.37357
0.144051 -0.198109 0.710285
0.257901 0.00622703 0.0250953
-0.235003 -0.0072285 0.0152326
0.0117902 0.0901673 0.710285
-0.0128984 0.268577 0.0585154
-0.166648 0.0112608 0.60744
-0.181692 -0.00962315 0.525226
0.00493553 -0.179516 0.466947
-0.201417 0.145725 0.710704
-0.138545 0.171955 0.710285
0.0610521 -0.0741974 0.719703
0.0734757 0.0521826 0.710285
0.0563822 0.0262108 0.719703
-0.0391317 -0.00077783 0.0182081
0.0659943 -0.139748 0.719703
-0.0140343 -0.226144 0.273802
0.256562 -0.0659107 0.710285
-0.263322 0.0114376 0.0177996
-0.239399 0.104455 0.719703
0.220953 0.0358113 0.710285
0.148554 -0.128312 0.719703
-0.233837 -0.100019 0.719703
-0.16845 0.134852 0.710285
-0.275474 0.00439264 0.109945
0.225075 -0.00365809 0.719703
0.0768887 -0.101924 0.710285
0.0054285 -0.260867 0.0756896
0.117988 -0.0908976 0.719703
0.214939 0.0909398 0.719703
0.026538 -0.0551118 0.710285
0.243789 -0.0144947 0.710285
0.039262 0.206593 0.719703
-0.0903693 -0.156128 0.710285
-0.157102 -0.0109951 0.710285
-0.021151 -0.151727 0.719703
-0.000865406 -0.0632535 0.0181636
-0.228678 -0.00757639 0.252301
-0.25237 0.00961799 0.00509711
0.0850789 0.245567 0.710285
-0.177588 -0.0952687 0.719703
0.206931 -0.0347179 0.719703
-0.00699775 0.164038 0.719703
-0.0698375 0.0837671 0.719703
0.199516 -0.0907683 0.710285
0.0421012 0.113346 0.710285
0.259726 0.0824788 0.710285
-0.139145 0.00322347 0.0181355
-0.111545 0.0519177 0.710285
0.027025 0.297883 0.710285
0.111348 -0.167518 0.710285
0.0512132 0.00473442 0.710285
-0.010047 -0.198385 0.372186
-0.0126967 0.0110066 0.710285
0.178468 0.0862216 0.710285
0.0109681 -0.17338 0.710285
0.16616 0.180981 0.717994
-0.0234866 -0.0879875 0.719703
-0.010752 -0.268989 0.710285
-0.013782 -0.164258 0.568723
0.171318 -0.00927451 0.51645
-0.218208 -0.0987032 0.710285
-0.00582339 -0.0982882 0.0179675
-0.0435146 -0.116698 0.719703
0.178156 -0.168278 0.719703
0.207123 0.00297779 0.000423727
-0.0135153 -0.0278508 0.0116295
0.165065 -0.144096 0.710285
-0.0920486 -0.0148497 0.719703
0.023571 -0.244337 0.710285
0.0607485 0.000256182 0.000176841
-0.0136808 0.191481 0.467861
0.263308 -0.00423181 0.0416746
-0.0587766 -0.0435001 0.710285
0.00138073 -0.22672 0.22627
0.212412 -0.114017 0.710285
-0.00492942 -0.322063 0.719703
0.249894 0.0813904 0.719703
-0.0723376 -0.0099349 0.0104649
-0.00882242 0.22172 0.357015
0.00660512 -0.00825052 0.00421618
0.139273 0.0177794 0.710285
0.0678997 -0.179348 0.710285
-0.102077 -0.0638948 0.719703
-0.241886 -0.0496118 0.710285
0.178466 0.0116834 0.486288
0.217493 -0.0727732 0.719703
0.275227 0.0505489 0.719703
-0.00952717 -0.161757 0.546907
0.15366 -0.00886287 0.646312
-0.243072 0.00303121 0.163448
0.179157 -0.00211583 0.547965
0.205104 0.0121874 0.366466
-0.0134625 0.181154 0.521751
-0.0913917 -0.24174 0.710285
-0.325095 -0.013821 0.719703
0.0065202 -0.149596 0.678492
-0.132368 -0.131003 0.719703
-0.00138306 -0.18426 0.000334716
0.154674 0.00327228 0.563275
0.27141 0.00993403 0.710285
0.0176047 -0.030507 0.719703
-0.19231 -0.150814 0.719703
-0.0282263 0.208371 0.710285
0.184528 0.0283148 0.710285
0.0868128 0.201643 0.719703
0.00102464 -0.150065 0.696635
-0.00997892 0.159264 0.57162
0.198277 -0.0595442 0.719703
-0.0830916 -0.120213 0.710285
0.0561689 0.114551 0.710285
-0.113113 -0.0165795 0.719703
-0.0134343 -0.242465 0.18404
-0.117678 -0.0364742 0.710285
-0.00224328 -0.202943 0.445023
0.193799 -0.00871506 0.0140176
-0.210615 0.061026 0.710285
-0.0806113 0.217114 0.710285
0.258172 -0.0851298 0.710285
-0.0444674 0.163536 0.719703
0.102013 0.211789 0.719703
0.225096 -0.00437531 0.226764
-0.0199755 0.0942618 0.710285
0.294407 0.0323137 0.719703
0.299633 -0.00656083 0.719703
-0.0118042 0.224165 0.00387847
0.0417077 -0.205084 0.719703
0.280718 -0.00561957 0.0310748
0.0219888 -0.133683 0.719703
0.00630958 0.0228561 0.0144847
-0.0137922 -0.151375 0.00783269
0.00672432 0.274466 0.0837375
-0.200376 -0.0401902 0.710285
-0.0886098 0.0108287 0.0045865
0.15425 -0.0626373 0.719703
0.00577027 -0.21882 0.2808
-0.107038 -0.0823866 0.710285
-0.17228 -0.00161594 0.0180228
0.0307302 0.0874805 0.710285
0.176613 -0.00428764 0.461252
0.200575 0.0119974 0.384959
-0.0141352 0.257098 0.136297
-0.0590959 -0.17152 0.710285
-0.158336 0.0121077 0.00829349
-0.01037 0.235852 0.281141
-0.108812 -0.117255 0.719703
-0.120682 0.190853 0.710285
-0.0127153 -0.234603 0.209842
-0.0569116 0.00103133 5.52705e-06
0.00200905 0.130235 0.704428
0.274549 0.0347682 0.719703
-0.0964175 -0.0919401 0.719703
-0.266046 -0.00320128 0.154301
-0.00217934 0.2316 0.316734
-0.0122804 -0.164331 0.710285
0.0549364 0.185131 0.719703
0.265754 -0.00128013 0.719703
-0.15616 0.0202921 0.719703
-0.200003 -0.0254385 0.710285
-0.276318 -0.0101239 0.0291821
0.00579536 -0.0807864 0.0149066
0.248104 -0.00189346 0.00248423
0.00237407 0.0710018 0.0174484
-0.0424946 0.226146 0.719703
-0.160874 0.172631 0.710285
-0.296641 -0.0172873 0.710285
-0.00884222 -0.252001 0.719703
-0.0128213 -0.266068 0.0588067
-0.0109178 -0.231723 0.288005
-0.202872 -0.00389988 0.459081
0.208503 -0.00238726 0.405606
-0.153274 -0.127869 0.710285
-0.00509472 0.261727 0.169071
-0.119601 -0.169807 0.719703
0.120493 0.0429222 0.710285
-0.205635 -0.130817 0.719703
0.275972 0.00983269 0.061414
0.00743935 -0.238749 0.199068
-0.114063 -0.13016 0.719703
0.170294 -0.0866063 0.710285
0.106299 -0.0343319 0.719703
0.261689 -0.00875844 0.125259
-0.00988492 -0.123885 0.0162991
0.0325962 0.171551 0.719703
-0.00133034 -0.206381 0.427197
-0.0129334 0.197375 0.403681
-0.158383 -0.160159 0.710285
-0.0130145 0.0656377 0.0131648
-0.294271 0.031826 0.719703
-0.0422237 0.053266 0.710285
-0.00573601 0.213982 0.296471
0.0164568 0.00468895 0.719703
-0.189711 0.00406899 0.422994
0.072776 0.0891366 0.719703
0.125119 -0.203559 0.710285
-0.237408 0.00487605 0.000842339
-0.151246 0.00823634 0.700867
-0.0166709 -0.204864 0.710285
-0.167472 -0.00129309 0.719703
-0.111097 0.148878 0.719703
-0.0807742 0.197592 0.719703
-0.0106153 -0.107561 0.719703
0.250343 0.00957534 0.186672
-0.124548 0.128404 0.710285
0.00509231 0.175569 0.570188
-0.186007 -0.0838672 0.710285
-0.143906 0.203235 0.716797
-0.0963296 -0.0102495 0.00910501
-0.0054171 0.192606 0.503115
0.142087 0.00163901 0.622054
-0.146133 -0.0385444 0.719703
-0.131432 0.165495 0.719703
-0.200658 0.106895 0.710285
0.0417652 0.143445 0.710285
-0.0122879 -0.235698 0.262144
-0.00262302 0.196521 0.377693
-0.0297147 -0.20782 0.719703
-0.10598 -0.186358 0.719703
-0.00538474 -0.212889 0.394547
-0.097405 0.090411 0.710285
-0.135432 -0.00970007 0.0111789
-0.041017 -0.164687 0.719703
-0.0169008 -0.0487869 0.719703
-0.190079 0.0110453 0.00506311
0.228921 0.0100011 0.224202
0.00413245 -0.267459 0.0107524
0.122652 0.116842 0.710285
0.0484153 0.0717184 0.710285
-0.137854 0.10932 0.719703
-0.257862 0.00283913 0.0916283
-0.00660597 0.259008 0.719703
0.258605 0.0112735 0.134035
-0.00966497 -0.172314 0.581543
-0.281725 0.0496465 0.710285
0.00805697 -0.062446 0.710285
0.0863927 -0.0798354 0.710285
0.231724 0.0062462 0.194314
-0.181162 0.164517 0.710285
-0.0140993 -0.150482 0.641087
0.141412 -0.00555745 0.719703
0.102862 -0.154476 0.719703
0.122271 0.0696908 0.719703
-0.0779368 0.0526908 0.719703
-0.0697507 0.147049 0.719703
-0.223547 0.0114715 0.328335
-0.159759 0.140309 0.719703
0.194582 -0.00426624 0.470523
0.0469346 -0.0221028 0.710285
-0.00193671 0.00156647 0.00190476
0.0248647 -0.0083389 0.719703
-0.0455576 0.270115 0.710285
-0.031092 -0.262291 0.719703
-0.107407 0.102785 0.719703
-0.00426856 0.0563916 0.710285
0.266683 -0.00939415 0.0571685
-0.0140327 -0.0666784 0.00857008
0.243168 -0.0858247 0.719703
-0.00228705 -0.116167 0.000135364
-0.144906 -0.0250973 0.710285
-0.116031 0.223702 0.710285
-0.0543651 -0.135711 0.719703
-0.00362882 0.215633 0.710285
0.0549288 -0.178494 0.719703
0.00773258 0.199296 0.405782
0.150242 -0.0307653 0.719703
0.0173948 -0.280154 0.719703
-0.23983 0.024997 0.719703
-0.0125069 -0.183459 0.0141624
-0.00888111 0.169228 0.610731
0.126156 0.0953982 0.710285
0.0519606 -0.275364 0.710285
-0.179942 -0.141943 0.719703
0.00820326 0.248787 0.174818
-0.174416 0.0581023 0.719703
-0.17969 -0.111389 0.710285
-0.0120538 -0.176505 0.5497
0.0464605 0.27998 0.710285
0.0248865 -0.10658 0.710285
0.0404458 0.00278804 0.000381882
-0.00813945 0.211678 0.310726
0.213375 0.0571467 0.719703
0.00777056 -0.263473 0.110386
-0.00836134 -0.177144 0.710285
0.00483293 0.206483 0.346428
-0.137873 -5.74518e-05 0.671446
0.235571 0.017752 0.719703
0.319493 0.0276482 0.717803
-0.0484166 -0.177611 0.719703
0.106189 -0.0521322 0.710285
-0.24351 -0.00212574 0.719703
-0.183653 0.00563923 0.552631
0.0741907 -0.196033 0.710285
-0.012949 -0.25202 0.129076
0.00132939 0.194215 0.719703
-0.052338 0.194291 0.710285
-0.28603 -0.0350092 0.719703
-0.00756767 -0.100879 0.00103139
0.00349242 0.271177 0.115292
0.0322251 0.283828 0.710285
-0.151435 -0.00355146 0.610331
0.093647 -0.143638 0.710285
-0.0615398 0.110521 0.719703
-0.0328305 -0.120459 0.710285
0.00242717 0.19622 0.0011755
-0.0297398 0.2884 0.719703
-0.261529 -0.0143997 0.719703
0.130118 -0.0636677 0.719703
0.00490548 -0.044643 0.719703
-0.00729806 0.232133 0.0176416
0.15607 0.161793 0.719703
-0.00131864 0.205056 0.444055
0.0252479 -0.255183 0.719703
-0.228983 -0.00157468 0.335758
-0.217774 -0.00930354 0.320416
0.196032 0.101224 0.719703
-0.274479 0.0118797 0.0745565
0.158632 -0.11235 0.719703
0.0222118 0.0113169 0.0058891
-0.009586 0.178863 0.719703
-0.16034 0.183149 0.719703
0.00793756 -0.213383 0.0109629
-0.276555 0.00918981 0.719703
-0.0509067 0.0486745 0.719703
-0.206197 0.121421 0.719703
-0.270149 -0.00139267 0.136803
-0.266444 0.00367515 0.0294658
-0.112857 -0.214624 0.719703
0.0864434 0.0121737 0.0101192
0.18498 0.0586593 0.719703
-0.258582 -0.0781532 0.710285
0.00512466 0.216264 0.373114
0.14093 -0.137515 0.710285
0.0996078 0.0540954 0.719703
-0.0136502 0.136394 0.0112159
-0.00747997 0.151915 0.710285
0.162409 -0.0712596 0.710285
-0.204405 -0.0766565 0.710285
-0.0122004 0.0982878 0.0144121
0.0821261 -0.172736 0.710285
-0.0619251 -0.158316 0.719703
0.120336 -0.178158 0.719703
0.00700038 0.257965 0.161461
0.0603467 0.0711332 0.719703
0.23259 0.000105229 0.292301
0.00384635 0.143392 0.646945
-0.201381 -0.107547 0.710285
0.000284007 0.176927 0.47626
-0.00121978 -0.164336 0.0182419
-0.044412 -0.25113 0.719703
-0.0454366 -0.220482 0.719703
-0.0118852 0.257905 0.103534
0.00703521 0.152275 0.672251
0.169465 -0.00706264 0.00324524
-0.0122171 0.0350522 0.00421497
-0.0447312 0.0996877 0.719703
-0.00558752 -0.0890098 0.710285
-0.00780667 0.250203 0.123879
0.0959929 0.106728 0.710285
-0.235911 -0.0221671 0.710285
0.299056 0.0480857 0.719581
0.147369 -0.09538 0.710285
-0.184147 -0.157468 0.710285
-0.0729071 0.0112745 0.00576021
-0.164644 0.161512 0.719703
0.256561 0.00460053 0.0719869
0.070258 -0.253182 0.719703
-0.0777877 0.0913719 0.710285
-0.0131104 0.219395 0.34302
-0.056954 0.0722875 0.710285
0.0297786 0.0534055 0.710285
0.133035 0.140048 0.719703
-0.0684628 -0.220427 0.710285
-0.109181 0.0293093 0.719703
0.00747736 0.0838835 0.00625991
0.237503 0.0965794 0.719703
-0.100397 -0.0536015 0.710285
0.170302 0.126289 0.710285
0.255726 0.00904125 0.0898538
-0.1002 -0.0391475 0.710285
0.0333671 -0.111 0.719703
-0.22403 -0.00327697 0.357511
0.143667 0.0103212 0.699256
0.0335025 -0.297911 0.719703
-0.00242043 -0.13512 0.708443
0.102243 -0.181798 0.719703
-0.00261566 0.237967 0.177149
-0.141585 0.055454 0.719703
0.274913 -0.0118742 0.719703
0.0172036 0.213767 0.710285
0.0074339 0.119107 0.719703
0.00989437 0.0620391 0.710285
-0.00808037 -0.215678 0.28083
-0.0473598 0.00108568 0.710285
0.0070399 -0.170251 0.574714
0.256282 0.00912705 0.719703
-0.209891 -0.00452856 0.0173792
-0.122752 0.141301 0.719703
0.0768917 0.00473343 0.710285
-0.0135657 0.109964 0.710285
0.136671 -0.186343 0.710285
0.158652 -0.000423055 0.543131
-0.189361 0.0200534 0.719703
-0.00813022 0.163032 0.546105
-0.160285 -0.00321768 0.666043
-0.129052 -0.0869267 0.710285
0.0311359 -0.0201611 0.710285
-0.0514086 -0.0552402 0.710285
-0.0574067 0.248796 0.710285
0.03028 0.255238 0.719703
-0.0102609 0.175659 0.493653
0.175323 -0.0954139 0.719703
-0.28415 0.00681512 0.0646387
0.182189 0.157143 0.719703
-0.139146 -0.170854 0.719703
0.126805 -0.0958683 0.710285
-0.0782231 0.127107 0.719703
-0.217572 0.00269011 0.39234
-0.156807 -0.0855374 0.710285
0.00477971 0.247042 0.149909
0.00554897 -0.223993 0.254701
0.00810323 0.236306 0.233401
-0.0458094 0.137691 0.719703
0.0929458 0.170217 0.719703
-0.00363085 -0.290463 0.710285
-0.171058 -0.0392326 0.710285
-0.142468 -0.0976855 0.719703
0.0474498 -3.3088e-05 0.0183726
-0.0763353 0.247651 0.719703
-0.0140528 0.266731 0.0881992
-0.0937315 0.250655 0.719703
0.235161 -0.0367261 0.719703
-0.162238 0.0112498 0.585253
0.0448831 -0.132185 0.719703
-0.0138639 0.278259 0.0338458
-0.0476131 0.242905 0.719703
-0.177419 -0.00798758 0.564956
0.0045355 -0.298915 0.719703
-0.25373 0.0113918 0.145093
-0.191681 0.131244 0.710285
0.148842 -0.00147237 0.591965
-0.21208 0.011606 0.350487
0.0323262 0.131796 0.719703
0.139275 -0.157003 0.710285
-0.195866 -0.00820203 0.414104
-0.198436 -0.00537909 0.388008
0.0558533 -0.154929 0.710285
0.0358903 0.182745 0.710285
-0.197787 0.0400445 0.710285
-0.00998314 0.226425 0.246658
0.194522 -0.0735547 0.719703
-0.223628 -0.112556 0.719703
0.245984 0.000676879 0.119106
0.0550657 -0.0566977 0.710285
0.217812 0.0116726 0.324254
0.193496 -0.0061945 0.387639
0.128959 0.0348859 0.719703
-0.0968715 0.174636 0.719703
-0.0811815 0.0232224 0.710285
0.169658 0.097744 0.719703
-0.173319 0.121327 0.710285
-0.0138357 -0.30971 0.719703
-0.257562 0.00964637 0.17959
0.0365808 0.22937 0.719703
-0.00788996 -0.278789 0.0724052
0.0155863 0.129999 0.719703
0.134658 0.00449305 0.661719
-0.0540659 0.104179 0.710285
0.170702 -0.0376585 0.710285
-0.0879385 0.238366 0.719703
0.146316 0.00660379 0.0173901
-0.0139877 0.197544 0.433006
0.0811008 0.190744 0.710285
-0.0131225 0.240894 0.196498
0.19603 -0.132797 0.719703
0.000201999 -0.25313 0.198986
0.306993 0.00224126 0.710285
-0.00976178 0.248421 0.223265
-0.0662475 0.0106229 0.710285
-0.0318945 0.0046717 0.000797274
-0.259836 0.0828595 0.710285
0.264585 0.0114343 0.102206
-0.221865 0.00353981 0.710285
-0.0184623 0.23528 0.710285
0.00492609 -0.152326 0.598469
0.0021036 0.334769 0.710285
0.11627 0.174953 0.710285
0.00546454 -0.140689 0.719703
0.151104 0.11625 0.719703
-0.00184244 0.0212241 0.710285
-0.187564 0.00615236 0.719703
-0.00863553 0.244881 0.150829
0.117306 -0.121613 0.710285
0.171797 0.0352398 0.710285
0.156084 0.0067735 0.656336
0.00755139 -0.179216 0.522064
-0.0751803 -0.0633769 0.719703
-0.0651786 0.0430345 0.710285
-0.0307107 0.168594 0.719703
0.0646559 -0.19579 0.719703
-0.130407 0.0946093 0.719703
0.146746 0.0272957 0.719703
0.176661 0.00614561 0.710285
-0.0164945 -0.0367814 0.710285
-0.172543 0.0119901 0.548726
0.00158859 -0.230581 0.207859
0.054008 0.206652 0.719703
0.12974 0.17011 0.710285
-0.161595 0.0111644 0.633618
0.000703947 -0.0196109 0.719703
-0.14839 0.152793 0.719703
0.159738 0.00317551 0.643363
-0.00954308 -0.260028 0.157695
-0.0368931 -0.282706 0.710285
0.0187351 -0.123343 0.710285
-0.0302913 -0.310878 0.719703
0.076394 0.258331 0.719703
0.169529 0.161178 0.719703
0.00933891 -0.182711 0.719703
0.0082111 -0.248576 0.174483
-0.0257205 -0.0749061 0.719703
0.000266686 -0.201226 0.348194
-0.300951 0.0203762 0.719703
-0.156074 -0.0686339 0.710285
0.0244009 -0.180498 0.719703
0.233386 -0.00347999 0.185483
-0.112945 0.187779 0.719703
-0.225308 0.0796358 0.719703
0.00142891 -0.170314 0.000954974
-0.0551361 -0.267851 0.710285
-0.0136442 0.175174 0.0112345
0.105459 0.100804 0.719703
0.132577 0.125156 0.719703
-0.0487921 0.219903 0.710285
0.135519 -0.0378832 0.710285
0.203524 0.0915256 0.710285
-0.256721 -0.00981668 0.141203
0.00844248 -0.207034 0.370714
0.160474 -0.134416 0.719703
0.101374 0.0127578 0.710285
0.20981 0.00025904 0.710285
-0.182829 0.00577016 0.458495
-0.093661 -0.198406 0.719703
-0.170781 -0.158982 0.719703
-0.139009 -0.137339 0.710285
-0.133368 -0.18238 0.710285
0.151202 -0.168147 0.710285
-0.0528516 -0.294294 0.7164
-0.245257 0.0424434 0.719703
0.00517476 -0.23729 0.0154138
0.0456361 -0.288858 0.710285
0.254641 -0.014134 0.719703
0.0547276 0.24528 0.710285
0.1021 0.145969 0.719703
-0.0135271 0.189146 0.00702018
0.338738 -0.00699166 0.710285
0.0936332 0.0472157 0.710285
0.0637136 -0.213665 0.719703
0.123997 0.00473136 0.719703
0.0136451 0.0415972 0.710285
0.0107733 0.302419 0.710285
-0.111676 0.209462 0.710285
0.198059 0.130901 0.719703
0.277202 0.00429916 0.073506
-0.0603489 0.0259015 0.710285
0.119466 -0.139642 0.710285
-0.00338968 -0.25521 0.0834816
0.00723986 -0.27994 0.0360192
-0.103582 -0.131927 0.710285
0.00635096 -0.206772 0.710285
-0.0181127 0.299109 0.719703
0.0131166 0.22323 0.719703
0.261462 0.0727356 0.719703
-0.119535 -0.0941784 0.719703
-0.262998 -0.00993243 0.112917
0.192639 0.00757094 0.475593
0.0882093 0.0885582 0.710285
-0.0347648 0.0582719 0.719703
-0.160062 0.0506269 0.719703
-0.170364 -0.00857237 0.596266
0.039284 -0.0379074 0.710285
-0.180895 0.0518652 0.710285
-0.18085 0.106273 0.710285
-0.163035 -0.111343 0.710285
-0.0131638 -0.258868 0.0998043
0.18554 0.000779274 0.411459
-0.146914 -0.0053954 0.637394
0.102065 -0.00685318 0.00307404
-0.0669298 -0.244663 0.719703
0.0309268 0.202343 0.710285
0.107977 -0.214415 0.719703
-0.191954 0.000821442 0.518057
-0.0274975 -0.22463 0.719703
0.207558 -0.00877738 0.387042
0.0365066 -0.174156 0.719703
-0.105266 -0.0206941 0.710285
0.00506306 0.108763 0.00310847
0.177146 -0.151518 0.719703
0.0110911 -0.104105 0.710285
0.00809027 -0.215405 0.337184
0.0743858 0.152503 0.719703
-0.0242634 -0.242489 0.719703
0.149226 -0.00922703 0.661221
-0.0174837 -0.00895897 0.0134323
-0.00555194 -0.264442 0.0354047
-0.0407558 0.0218593 0.719703
-0.00878842 -0.249839 0.117115
-0.127907 -0.100499 0.710285
0.164721 0.006256 0.615239
0.168233 0.0654062 0.719703
-0.122357 -0.0664779 0.719703
-0.203022 0.0113007 0.388819
0.0985618 0.0676419 0.710285
-0.0406104 -0.041114 0.719703
0.186628 0.137752 0.719703
0.0844398 -0.0305448 0.719703
-0.150071 0.179526 0.710285
0.0283772 -0.197487 0.710285
-0.189181 0.04599 0.719703
-0.181147 -0.0555194 0.719703
0.0234435 0.316254 0.710285
0.111909 0.041707 0.719703
-0.0708478 0.272424 0.719703
-0.0113071 0.273594 0.710285
-0.252083 0.00549857 0.0190694
-0.200035 0.0982963 0.719703
-0.0128348 0.264529 0.0221402
0.254864 -0.0337514 0.719703
-0.0794102 -0.13026 0.719703
0.223642 -0.00706942 0.246005
-0.328275 0.00648174 0.719703
-0.0504367 -0.074833 0.710285
0.293825 -0.0395923 0.710285
-0.0139792 0.0780102 0.0102075
-0.00864041 0.263744 0.154542
-0.109823 0.118967 0.710285
0.13675 0.0105338 0.672731
0.00248531 0.315418 0.710285
0.00703535 0.16255 0.570932
0.197614 -0.0254827 0.719703
0.085809 0.0706131 0.710285
-0.157272 0.0740795 0.719703
-0.24584 0.101302 0.711341
-0.133653 -0.00421249 0.697232
-0.0318571 -0.247041 0.710285
-0.00891403 0.120805 0.00152321
0.0397752 0.0851252 0.719703
-0.00885681 -0.0600768 0.719703
0.0116254 0.111681 0.710285
-0.00791767 0.290444 0.710285
0.0990599 0.0310958 0.710285
0.0356023 0.217491 0.710285
0.110483 0.21211 0.710285
-0.210842 -0.135791 0.710285
0.160289 -0.00834279 0.617931
0.275894 0.0631934 0.719703
-0.0138664 -0.158609 0.597575
-0.00353092 0.000964463 0.719703
0.126122 -0.110586 0.710285
-0.26066 -0.0529868 0.710285
-0.182699 0.147504 0.710285
0.323784 -0.00471127 0.710285
0.270619 -0.0566401 0.710285
0.121794 0.0262959 0.710285
0.0594663 -0.246635 0.719703
0.0447473 0.0389463 0.710285
0.232879 0.0361481 0.719703
0.0438738 0.0113721 0.719703
-0.197522 -0.0491285 0.719703
0.00728525 0.238589 0.207524
0.219224 -0.00810932 0.00410076
-0.20576 0.011239 0.374461
0.178174 -0.0745486 0.710285
0.0868125 0.112012 0.719703
-0.251702 -0.00922609 0.0139711
-0.216848 -0.0101585 0.340302
-0.271843 0.00232873 0.710285
-0.201571 0.00154939 0.710285
-0.289758 -0.00998944 0.719703
-0.129497 0.0103593 0.0144106
0.248777 -0.000149216 0.213639
-0.278905 0.00154496 0.0970511
0.00594742 0.0592696 0.0147798
0.136244 -0.209362 0.710285
0.154692 -0.00810554 0.00409768
0.0777195 0.118217 0.710285
-0.223813 -0.0573384 0.719703
0.142373 0.0407421 0.719703
0.0535414 -0.0842119 0.719703
-0.0339684 0.109323 0.710285
-0.119772 -0.00103689 0.710285
-0.00528458 0.16122 0.655161
0.104785 -0.23455 0.719703
0.00914338 -0.337309 0.710285
-0.00473352 -0.1474 0.606894
-0.228734 0.012098 0.0103495
-0.0414284 -0.0598918 0.719703
-0.0283835 0.0353548 0.710285
-0.165129 0.121636 0.719703
0.204382 -0.112413 0.719703
-0.0504973 0.149651 0.710285
0.229204 0.0232587 0.710285
0.016342 -0.259058 0.710285
-0.0102464 -0.264714 0.131619
-0.209617 0.0473302 0.710285
0.138197 -0.0130273 0.710285
-0.00661608 -0.03995 0.719703
-0.00680884 0.24773 0.0186353
-0.150969 -0.115416 0.719703
-0.314255 -0.0203492 0.719703
-0.121826 -0.00188044 0.000649049
-0.0571246 -0.0938011 0.719703
-0.14141 -0.0514994 0.719703
0.233541 -0.108493 0.719703
0.138996 -0.148224 0.719703
-0.0868805 0.162327 0.719703
0.228277 0.00373414 0.710285
0.175634 -0.0116083 0.710285
-0.00984242 0.000558658 0.0113171
0.173875 0.0110876 0.497778
-0.246416 0.0118985 0.189613
0.0681573 0.0615342 0.719703
0.0650177 0.163647 0.719703
-0.00791244 0.202545 0.354627
0.0203907 0.0467638 0.719703
-0.125567 0.0539552 0.710285
-0.000273339 -0.0419165 0.0180327
-0.226915 -0.00990419 0.287006
-0.236458 0.0115143 0.230876
0.0377787 0.0723808 0.719703
0.0069 -0.123884 0.00460993
-0.0740973 0.161073 0.719703
-0.065905 -0.11243 0.710285
0.0733215 -0.0729266 0.719703
-0.1553 -0.000713329 0.693422
-0.0178581 0.0822559 0.719703
-0.103569 -0.171229 0.719703
