-0.032763 -0.150985 0.613647
-0.339744 -0.0834392 0.639673
-0.156535 -0.28743 0.639673
0.0362649 -0.0419762 0.426827
0.241479 0.0885573 0.639673
-0.0714607 0.0669537 0.493813
0.163143 0.344774 0.638512
-0.0551074 0.201472 0.613647
0.372177 -0.0492221 0.613208
0.163995 -0.200263 0.639673
-0.148444 -0.152848 0.144057
-0.00246052 0.106163 0.639673
0.262389 -0.196597 0.639673
-0.138798 0.0039425 0.639215
-0.334994 -0.150723 0.639673
-0.185859 -0.261702 0.613647
0.321461 0.0908218 0.613208
0.0241436 -0.332735 0.639215
0.245412 -0.257405 0.613208
-0.0688322 0.0679396 0.572128
0.244156 -0.172026 0.613208
-0.102846 -0.0907618 0.639673
-0.048052 -0.0127232 0.613208
-0.222397 0.216974 0.0629996
0.00120409 0.379914 0.638736
-0.0567791 -0.171071 0.639673
-0.151422 0.310102 0.639673
0.0454525 -0.108637 0.613647
0.0513394 0.21953 0.613647
-0.348659 0.153263 0.616106
-0.0605159 -0.0434739 0.639215
0.0635248 0.306589 0.613647
-0.305386 -0.139614 0.613208
-0.242624 0.0923593 0.639215
0.328994 -0.0574589 0.639215
-0.0797029 0.0716181 0.381083
0.266515 -0.0429168 0.639215
0.260085 0.278031 0.617511
-0.218328 0.245336 0.613647
-0.28627 0.0942523 0.613647
0.0483199 -0.05127 0.337533
-0.27592 0.197394 0.613647
-0.11051 0.168403 0.613208
-0.0297753 0.170289 0.613647
0.167367 0.0430198 0.613208
0.178529 -0.151684 0.639215
0.0327511 -0.0187727 0.239806
0.1642 0.16984 0.613647
-0.23142 0.00670306 0.613208
0.190507 -0.15734 0.613647
-0.132277 0.29114 0.613647
-0.25859 0.0321044 0.639673
-0.0329617 0.28836 0.639673
0.0899388 0.301864 0.613208
-0.286154 -0.00121419 0.639215
0.247767 -0.139313 0.639673
-0.0673179 0.285778 0.639673
-0.123116 -0.154744 0.613208
-0.0937602 0.235759 0.639215
-0.269697 0.216404 0.639215
0.249489 0.0143879 0.613208
0.0871138 -0.281606 0.613647
0.144404 -0.0348816 0.613647
-0.310318 0.175693 0.639215
-0.0218795 -0.360878 0.639673
0.180251 0.00640655 0.639215
0.324306 -0.123668 0.639673
0.0938491 0.108776 0.613647
-0.104463 0.19621 0.639215
0.287965 0.142496 0.639673
-0.0659371 0.0603324 0.228989
0.143891 0.0984784 0.639673
-0.0567432 -0.212449 0.613208
0.348094 0.0115857 0.613647
-0.186713 -0.187902 0.0926887
-0.176518 0.161075 0.639673
-0.0113896 -0.2544 0.613208
0.14315 -0.349564 0.613208
0.0571362 -0.184549 0.613208
0.241927 -0.247243 0.639673
0.0951833 0.356495 0.639215
-0.375463 -0.0636025 0.61683
0.0395887 -0.37875 0.622133
0.0411496 -0.265884 0.639673
0.0657783 0.0379514 0.613647
-0.0893123 0.0473338 0.639673
-0.135126 -0.022604 0.613647
-0.0885115 -0.0965199 0.613647
-0.0412355 0.176891 0.639215
0.111619 0.116218 0.242256
0.153845 -0.163502 0.120288
-0.13681 0.117501 0.639673
0.17796 -0.212531 0.613208
-0.0441658 -0.0420673 0.444067
-0.318739 -0.0788966 0.613647
-0.334081 -0.143745 0.613647
-0.0114718 -0.308505 0.613208
-0.179629 0.00498999 0.639215
-0.237293 0.227966 0.0212007
0.319941 -0.188712 0.613208
0.104809 -0.0300766 0.639673
-0.0710702 -0.247536 0.639215
0.124998 -0.0742291 0.613647
0.0498002 -0.0612356 0.387551
0.107803 -0.109149 0.159427
-0.364687 0.0491877 0.639673
-0.0751786 0.105806 0.639215
-0.119084 -0.321909 0.639215
0.228312 -0.237593 0.0463685
-0.0463525 0.377084 0.638709
0.356731 -0.12756 0.613647
-0.380354 0.00530022 0.619155
0.235124 -0.0828098 0.639215
-0.117225 -0.142373 0.639215
-0.0165766 0.246363 0.613647
0.093676 0.101994 0.297695
0.172479 0.189691 0.639215
-0.101459 0.147463 0.613208
-0.119854 0.289471 0.639673
-0.0763583 -0.291924 0.613647
-0.257797 0.155509 0.613208
-0.251781 0.284903 0.613647
0.227246 0.234304 0.0162767
0.200938 -0.324001 0.621813
0.16921 0.146806 0.613647
0.0119088 0.0726301 0.613208
0.119578 -0.26151 0.613208
-0.235962 -0.238914 0.0504299
0.35325 0.13947 0.639215
0.261032 -0.050487 0.613647
0.0743208 0.196799 0.639673
-0.227019 -0.202009 0.639215
0.0886934 -0.109645 0.639673
0.204819 0.320801 0.614371
-0.010862 -0.102752 0.639673
0.064647 -0.311667 0.639673
-0.187852 -0.0860379 0.613208
-0.268445 0.187288 0.639215
-0.0520107 -0.0646133 0.318062
0.0357397 0.0457501 0.500457
0.0758741 -0.203486 0.639215
-0.114403 0.258288 0.613208
0.380188 0.00182815 0.613647
-0.271617 -0.123318 0.639215
0.126147 0.0156037 0.613647
0.152099 0.0909733 0.613647
0.243289 0.128715 0.613647
-0.0936747 0.084754 0.297649
0.0711698 0.326125 0.639673
-0.242684 -0.0480455 0.613208
-0.0716855 -0.0565168 0.232928
-0.27942 -0.0715669 0.639215
0.0198578 -0.0674419 0.639215
-0.0361541 -0.0428316 0.567416
-0.183772 0.0194805 0.613647
0.0523537 -0.0399262 0.639215
0.0835867 0.0844681 0.375
0.0647246 0.149127 0.639215
0.0336088 -0.0379829 0.468868
-0.315365 0.0565406 0.613208
-0.0368429 0.0331775 0.471371
0.0554162 -0.14044 0.639215
-0.257151 0.137841 0.639673
-0.252342 -0.260633 0.639215
-0.183179 0.331697 0.639215
-0.17967 -0.312905 0.639673
-0.189134 -0.112812 0.639215
0.260283 0.179474 0.613647
-0.158513 -0.202468 0.639215
-0.0770649 -0.0924652 0.27782
-0.225414 -0.153443 0.613647
0.119121 0.260948 0.613208
-0.0319926 0.0951649 0.613208
0.32548 -0.0992073 0.613647
0.0250354 0.16081 0.613647
-0.0751101 -0.0840399 0.374602
-0.0397089 -0.0466879 0.60758
0.0361857 -0.0505176 0.613208
-0.0995782 0.105779 0.187318
0.133619 0.255853 0.639215
0.199533 -0.259151 0.639215
-0.187426 0.183759 0.0967649
-0.204252 0.184332 0.639673
0.186105 0.18097 0.0745158
-0.042237 0.0373904 0.564199
-0.111624 0.0639608 0.613647
0.0945798 0.341836 0.613647
0.168764 0.301112 0.639673
-0.0456655 -0.377548 0.613647
-0.00878086 0.333782 0.613208
-0.35893 -0.0409089 0.639673
0.135158 0.0545258 0.639673
0.124579 0.285881 0.613647
-0.0507936 0.0431952 0.366414
0.211656 0.274134 0.613208
0.0322372 -0.225513 0.613647
0.306751 0.178363 0.613208
0.2466 0.168962 0.639673
-0.14087 -0.258243 0.613208
-0.28626 0.0777844 0.639215
0.082203 0.28233 0.639215
-0.0567334 0.119182 0.613208
0.148965 -0.0710071 0.639215
-0.107318 -0.12387 0.209871
-0.204587 -0.2673 0.639215
0.0219491 -0.328719 0.613647
-0.340027 0.0845921 0.639673
-0.230181 0.0778231 0.613647
-0.149863 -0.246537 0.639215
-0.332739 -0.00288553 0.639215
0.109212 -0.186258 0.613647
-0.223922 -0.273203 0.613647
0.0642624 0.0765042 0.305035
0.374175 0.0621651 0.639215
0.214635 0.225342 0.613208
0.273812 0.00216428 0.639673
-0.157854 0.0760827 0.613208
0.086985 0.231783 0.613647
0.243907 0.0381651 0.639215
-0.141823 0.0936714 0.639673
-0.0587282 -0.0723918 0.53311
-0.213479 -0.315511 0.616904
-0.037641 -0.271337 0.639673
0.0399815 0.0776929 0.639215
-0.0860124 -0.168795 0.639673
-0.293557 0.237366 0.613208
-0.28651 0.0154011 0.613647
0.206037 0.1157 0.639673
-0.114592 0.117936 0.14941
0.201767 -0.06918 0.639673
-0.317458 0.175691 0.613208
0.172772 0.102818 0.639215
0.351331 -0.0597345 0.613647
-0.252114 0.218227 0.613208
-0.00288913 0.148823 0.639215
0.0550681 -0.0638301 0.304805
0.0710627 0.0683831 0.588845
-0.0860631 -0.369572 0.613208
-0.175869 0.141901 0.613647
0.266587 -0.113129 0.613647
0.211312 0.160042 0.639215
-0.129421 0.102485 0.613647
0.0658852 -0.0708514 0.543613
-0.0949883 -0.272956 0.639673
-0.129914 0.0374713 0.639673
0.28012 0.0713257 0.639215
0.190116 0.233574 0.639673
0.152909 0.317012 0.613647
-0.207829 -0.207242 0.0710675
0.0309461 0.334557 0.613208
0.275481 0.102352 0.613647
-0.0353645 0.0273376 0.639673
0.0963397 -0.0919235 0.206925
0.0446082 0.0441614 0.412966
-0.309773 -0.220933 0.637089
0.153095 0.180155 0.639673
0.323115 -0.136749 0.613647
0.194548 -0.254144 0.613208
-0.134073 0.128029 0.12004
0.262471 0.254217 0.639673
0.121744 -0.280849 0.639673
-0.138765 -0.17446 0.639215
0.201324 -0.195284 0.0693209
0.0376572 0.00574749 0.639673
0.0140836 0.236183 0.613647
-0.205444 -0.0623145 0.613208
0.288602 -0.2109 0.639673
-0.0904885 0.0876478 0.322434
0.0961048 -0.00717815 0.639215
-0.00694206 -0.013945 0.241691
0.0922362 -0.0566393 0.613208
-0.150031 0.230562 0.613647
-0.191446 -0.0660198 0.639215
-0.0370949 -0.338476 0.639673
-0.253512 0.242136 0.639673
0.0139673 -0.0226992 0.613647
-0.162143 -0.0584683 0.613208
-0.127875 -0.131067 0.121207
-0.016305 -0.143349 0.639215
0.257887 -0.20641 0.613647
-0.260086 -0.209637 0.639673
0.117198 0.161547 0.613208
-0.356186 0.099553 0.613647
0.230973 0.23098 0.639673
0.302894 -0.0594751 0.639673
0.275725 -0.131782 0.639215
-0.0091623 -0.203363 0.639215
0.00522837 0.26986 0.639215
0.332065 0.171587 0.639215
0.0746691 0.0633019 0.639215
-0.192057 0.290072 0.639215
0.0325288 0.0278033 0.613208
0.174324 -0.102993 0.639215
0.0444198 0.243211 0.639215
0.077406 0.0733677 0.406241
-0.208534 0.128963 0.639673
0.0599093 0.0543513 0.563928
0.0711539 0.0779502 0.495328
0.30453 0.124087 0.639215
-0.0698809 0.172758 0.613208
-0.121144 0.149765 0.639673
-0.349799 0.0654059 0.613208
0.109883 -0.329557 0.613208
-0.17193 0.288723 0.613647
0.0629926 -0.0563337 0.415127
0.130695 -0.224545 0.613647
-0.321165 0.137194 0.613208
0.187465 -0.284347 0.639215
-0.139612 0.214946 0.639673
0.217361 0.0224401 0.613647
0.0990869 -0.366807 0.632271
0.133473 0.140117 0.116303
-0.0932858 -0.248442 0.613647
0.131599 -0.148446 0.613647
0.152732 0.26291 0.613208
-0.232818 -0.114139 0.639215
0.289798 0.180152 0.639215
0.110252 -0.0786727 0.639215
-0.0395175 -0.0413019 0.408843
-0.183949 0.218655 0.639673
0.238326 0.0910532 0.613208
-0.0948635 0.0873361 0.263516
-0.253929 -0.268765 0.613647
-0.0568499 -0.0545339 0.346923
-0.193554 0.214377 0.613647
-0.118593 -0.181485 0.613647
0.129527 -0.12655 0.179964
-0.293325 -0.204712 0.613647
-0.305631 -0.128168 0.639673
-0.0835977 0.085716 0.21541
0.287707 0.248248 0.621007
-0.161432 0.00317786 0.613208
-0.111179 0.332326 0.639673
-0.00904232 -0.172372 0.613647
0.00573123 -0.380723 0.63475
-0.00383195 0.155509 0.613647
-0.109924 -0.280671 0.613208
-0.292351 -0.15075 0.639673
-0.0547107 0.304456 0.613647
-0.254473 -0.133675 0.613208
-0.0731472 0.344354 0.613208
0.0524901 0.0635839 0.349521
-0.201697 0.0622328 0.639215
-0.199432 -0.0271006 0.639673
-0.328396 0.142502 0.639673
0.130068 -0.110107 0.613647
0.302522 0.0576309 0.613208
-0.0685904 0.0585502 0.466277
-0.0390877 0.014051 0.613647
-0.268761 -0.0347189 0.639673
-0.131908 -0.0870997 0.639673
0.0513874 -0.062396 0.47541
-0.168812 -0.179682 0.613647
-0.0586285 -0.177394 0.613647
-0.0385841 0.0397966 0.408241
-0.145883 0.198841 0.613208
0.334492 0.0144047 0.639673
-0.056803 0.0518288 0.318818
0.084635 0.0672642 0.613647
-0.195693 -0.00608635 0.613647
0.300092 0.227841 0.613208
-0.162252 -0.22478 0.613208
0.0545747 -0.358962 0.613647
0.0304985 0.0369653 0.639673
-0.356582 -0.114362 0.639215
0.199642 0.145812 0.639215
0.281893 -0.255279 0.624584
-0.0702624 -0.0696953 0.455027
0.00946931 -0.252343 0.639673
0.135419 -0.135001 0.112171
-0.217028 0.280849 0.613208
0.0493577 -0.304519 0.613208
0.0880454 0.102367 0.257106
-0.0560093 -0.0847355 0.639215
0.218738 -0.287591 0.613647
0.364713 0.0109504 0.639673
-0.0658667 0.241864 0.613647
0.038897 0.0493543 0.451128
0.0528004 0.360228 0.639673
-0.200239 -0.177071 0.639215
0.309752 0.0662378 0.639215
-0.102942 0.00949003 0.639673
0.120858 -0.303557 0.613647
0.0593318 -0.244847 0.639673
-0.379686 -0.0285084 0.620071
-0.069925 0.204324 0.639215
0.142775 0.197315 0.613208
-0.0256498 0.138006 0.613647
-0.0199092 -0.0293161 0.639215
-0.197172 0.0362094 0.639215
-0.29938 0.202013 0.613208
-0.0186514 0.125616 0.639673
-0.216782 0.279231 0.639673
0.240026 -0.0914294 0.613647
0.349649 -0.0860051 0.639673
-0.0564205 0.0627285 0.541198
-0.221974 0.157021 0.613647
-0.12591 -0.0562559 0.613647
-0.0241357 0.34888 0.639215
0.221782 -0.139505 0.639215
-0.090709 -0.329692 0.639673
-0.252088 0.118233 0.613647
0.3003 -0.0981663 0.639215
0.153344 -0.0135339 0.639673
-0.0907524 -0.322284 0.613647
0.330287 -0.188595 0.635171
-0.0414663 -0.0395486 0.477124
-0.324543 -0.115912 0.613208
0.131667 -0.130275 0.639215
0.168893 -0.32249 0.613208
0.0160368 0.378231 0.613647
0.344257 0.0739652 0.639215
-0.338278 0.120411 0.639215
0.176586 0.260309 0.613647
-0.190963 0.0544536 0.613208
0.372178 -0.0764877 0.636373
-0.305729 -0.0473759 0.613647
-0.0820929 -0.0226713 0.613208
-0.100873 0.107375 0.639673
0.0196536 0.296071 0.613208
0.118305 0.287111 0.639673
-0.240913 0.186313 0.639215
-0.283833 -0.0607521 0.613647
-0.230034 -0.0565919 0.639215
-0.0123513 0.214945 0.639673
0.0423507 0.212363 0.639215
0.122689 0.117669 0.170148
0.084518 0.132147 0.639215
0.230785 -0.0315341 0.639215
0.321897 -0.0148843 0.639215
-0.195334 -0.292508 0.639215
-0.0553856 0.0386525 0.234743
0.153358 -0.252066 0.613208
0.177821 -0.0453152 0.613647
-0.146117 -0.147375 0.613647
-0.0343384 -0.312703 0.639673
-0.135487 -0.0341868 0.639673
0.0793862 -0.340368 0.639673
-0.289877 0.128512 0.613647
-0.226976 -0.208274 0.613647
-0.124961 -0.259999 0.639215
0.184455 -0.228843 0.639215
-0.177755 0.103915 0.613208
0.248204 0.214266 0.613647
-0.14623 0.161363 0.613647
-0.0450182 -0.29881 0.613208
0.358331 0.118449 0.613208
-0.273649 -0.157606 0.613647
-0.256223 0.25207 0.0377804
0.156797 -0.156228 0.613208
0.0113141 0.0422584 0.613208
0.164933 0.239202 0.639673
0.134441 -0.247132 0.639215
0.0368051 0.19282 0.613208
0.00708452 -0.111363 0.613208
0.197121 0.19173 0.613208
0.228444 0.226985 0.0590362
0.0552986 -0.101301 0.639673
-0.152504 -0.311041 0.613208
-0.251765 0.0673727 0.639215
-0.325559 -0.18122 0.639673
0.201183 0.0837274 0.639673
0.101454 0.0434455 0.639673
-0.280339 0.104331 0.639215
-0.0283223 0.0902269 0.639673
-0.117672 -0.360106 0.639215
0.339743 0.107963 0.639673
0.0749412 -0.0775095 0.40223
-0.0905329 -0.123077 0.639673
0.097449 0.14372 0.613208
0.289314 -0.202211 0.613647
0.138457 -0.0334837 0.639215
0.0054108 0.189157 0.613647
0.0327814 0.138453 0.639215
-0.124699 -0.129305 0.613208
0.190433 -0.120529 0.613647
0.0621349 -0.259258 0.613208
-0.162004 0.321206 0.613208
-0.0735074 0.0590104 0.613208
-0.00585974 0.032469 0.639673
-0.110865 0.353767 0.613647
-0.165855 -0.170348 0.121573
-0.1923 0.267433 0.613647
0.0543854 0.14722 0.613208
0.228455 0.299993 0.613208
-0.129613 0.356692 0.639215
0.234522 -0.23439 0.00842636
0.317973 -0.0104656 0.613208
0.280844 0.0271458 0.613208
-0.167356 -0.111135 0.613208
0.299387 -0.11899 0.613208
0.228087 -0.17303 0.639215
-0.0820521 -0.196225 0.639215
0.0461041 -0.0571569 0.509139
-0.296976 0.220301 0.639673
0.25794 -0.279168 0.613647
-0.0525577 -0.114126 0.613647
0.064238 0.115786 0.613647
-0.073464 0.37339 0.618759
-0.0734951 0.254683 0.639673
-0.0639394 -0.0748132 0.613208
0.0587734 -0.224034 0.639673
0.116874 0.0873548 0.613647
-0.0955513 0.244614 0.613208
0.0440704 0.0752627 0.613647
0.168167 0.0342496 0.639673
0.248336 -0.0200241 0.613647
0.212727 0.0289399 0.639673
0.217877 -0.186509 0.613208
-0.118531 -0.169645 0.639215
0.0945677 -0.301476 0.639673
0.0485322 -0.0598185 0.439756
0.257972 -0.144786 0.613647
-0.0298925 0.276547 0.613208
-0.0274681 -0.226234 0.613647
-0.314571 -0.170706 0.613208
-0.0585784 0.0655583 0.404076
-0.207934 -0.153308 0.639215
0.268633 0.101323 0.639673
-0.282805 -0.254177 0.615919
0.102378 -0.11454 0.237638
-0.0381581 -0.0584212 0.639673
-0.207937 -0.238887 0.613208
-0.127621 -0.31232 0.613208
-0.20381 -0.12642 0.613647
0.0692848 -0.0385183 0.613208
0.0152758 0.195948 0.639673
0.119193 0.116365 0.639215
-0.357183 -0.014045 0.613208
0.164023 -0.158575 0.0890639
0.194694 -0.179226 0.639673
-0.280918 0.166703 0.639673
0.132795 0.136763 0.639215
-0.168114 0.035804 0.639215
-0.210105 0.213947 0.0297932
-0.00199459 0.295174 0.639215
-0.226096 0.0744252 0.639215
0.186152 0.0665896 0.613647
0.0809024 0.167507 0.639215
0.0813748 -0.123036 0.613208
0.364247 0.0837451 0.613208
-0.0391552 0.227215 0.613647
0.265872 -0.0753046 0.639215
-0.338512 0.0324223 0.639673
0.0609301 0.0655343 0.228719
-0.0825078 0.297017 0.613208
-0.183909 -0.198793 0.0650975
0.19329 0.20475 0.0734266
-0.164494 -0.279189 0.613208
-0.102228 0.117937 0.613647
-0.163877 0.169286 0.114208
-0.231582 -0.0255258 0.613647
0.146511 0.347266 0.613647
-0.317092 0.0697484 0.639673
-0.0655515 0.359148 0.639215
-0.0918977 -0.163797 0.613647
0.0417183 -0.0519724 0.558217
0.172294 0.114918 0.613208
0.118475 0.232455 0.639673
0.340571 -0.168534 0.63847
0.0677175 -0.0695872 0.258383
0.0281664 -0.0422638 0.231703
-0.105103 -0.242496 0.639215
0.0862798 -0.242018 0.639215
-0.0107218 0.176752 0.639215
-0.16781 -0.342219 0.630395
0.138986 -0.00508596 0.613208
-0.332034 -0.0537027 0.613208
-0.0453251 -0.0301832 0.237466
-0.0865666 0.0776573 0.236936
-0.212341 0.316338 0.633033
0.151418 0.324724 0.639673
-0.237652 -0.252701 0.0227219
0.200148 0.141536 0.613208
-0.250078 -0.073961 0.613647
-0.217613 -0.224037 0.0182867
0.0664122 0.348848 0.613208
0.1524 -0.174138 0.639215
-0.135669 -0.13534 0.163538
-0.0588161 -0.367438 0.639215
-0.200156 0.202286 0.0783451
-0.0111007 0.0107045 0.613647
-0.00838289 -0.317172 0.639215
-0.118311 0.0184823 0.613647
0.192218 -0.127802 0.639673
-0.241925 0.0104148 0.639673
0.221725 0.0564765 0.639215
-0.200234 -0.170565 0.613647
-0.102679 0.275742 0.639673
0.18845 0.277808 0.639215
0.194852 0.239096 0.613208
0.224366 -0.00193261 0.613208
-0.251153 0.0206208 0.613208
-0.0175078 0.0662452 0.613208
-0.308823 -0.0625172 0.639215
-0.198468 -0.206425 0.639673
0.215447 -0.233514 0.639215
0.0606366 -0.167463 0.639215
-0.342065 -0.025888 0.639215
-0.246597 0.273828 0.639215
-0.199287 0.185511 0.613647
-0.0846213 -0.344605 0.613208
-0.0979164 -0.0140826 0.639215
-0.0403931 0.324334 0.613647
0.256634 -0.164959 0.639673
-0.209321 0.0990545 0.639673
0.197609 -0.0139069 0.639673
0.00838096 -0.132724 0.639673
-0.241477 -0.187821 0.639673
-0.020157 0.380723 0.619915
0.27501 0.0420349 0.639673
-0.140286 -0.0613793 0.639673
0.0620046 -0.0733172 0.332595
-0.15723 0.341705 0.639215
-0.0429339 -0.0203768 0.639673
0.0531698 -0.0479057 0.363389
0.0728249 0.255549 0.613647
0.206401 -0.0227492 0.613647
0.174562 -0.183355 0.613647
0.0610093 -0.0612907 0.607394
-0.0462269 0.0538354 0.495656
-0.281523 0.044754 0.639215
-0.232273 -0.30185 0.615438
0.273086 -0.166392 0.613647
0.076229 -0.373506 0.638898
-0.00244563 -0.284309 0.613208
0.0177688 0.356127 0.639215
0.0881691 0.0838089 0.315925
0.185652 -0.182233 0.0532772
-0.202667 0.155163 0.639215
0.0412338 -0.164164 0.613647
0.158819 -0.280633 0.639673
0.255246 -0.25076 0.0347399
-0.371799 -0.0828238 0.638711
0.335702 -0.0350019 0.613208
-0.0827404 -0.0977521 0.238477
0.090853 -0.312194 0.613208
0.187203 0.187268 0.051953
0.0154019 -0.249324 0.613647
0.331188 0.18868 0.618971
-0.147681 0.26873 0.613208
0.0248756 0.100316 0.639215
0.120408 0.344604 0.639673
0.0824322 -0.0778933 0.236407
0.35399 -0.139928 0.636885
0.13729 0.0410112 0.613208
0.104684 0.118109 0.204213
0.222763 -0.067036 0.613647
0.378046 0.0416308 0.618987
-0.357291 0.129833 0.623712
-0.0778641 0.0831258 0.639215
-0.0256017 0.321225 0.639673
0.26704 0.135228 0.639215
0.162859 0.165541 0.132065
0.241308 -0.210684 0.639673
0.0752078 -0.0963437 0.613208
0.244882 0.153725 0.613208
0.0827181 0.00501347 0.613647
0.182728 0.325039 0.639673
0.179505 0.190005 0.0968873
-0.158661 0.139069 0.639673
0.141808 -0.217239 0.639215
0.234261 -0.113898 0.639215
0.112235 0.364256 0.619835
-0.103462 -0.107776 0.166083
0.327021 -0.0746466 0.613208
-0.00390163 -0.337771 0.639215
-0.11988 0.112679 0.197005
0.204866 -0.0861804 0.613647
-0.161133 -0.0730365 0.639215
0.140026 0.152019 0.136915
-0.164208 -0.025132 0.613647
-0.276953 0.254397 0.639673
0.0483888 0.116254 0.639215
0.0647348 -0.284336 0.639673
-0.373069 0.0719059 0.615516
0.106327 -0.0530407 0.639215
0.0880766 0.0873632 0.34847
-0.0486235 0.115237 0.639673
-0.0616255 0.0511264 0.515044
0.0209572 -0.191481 0.613647
-0.141296 -0.180532 0.613208
-0.0552909 -0.0737287 0.236605
-0.168924 0.0482074 0.613647
-0.0768966 0.217286 0.613208
-0.0282668 -0.276895 0.613208
-0.0804575 -0.0774744 0.300244
-0.0751591 -0.143643 0.639215
0.147949 0.0743815 0.639673
-0.0482942 -0.235038 0.613208
-0.0140186 -0.253203 0.639215
-0.153707 -0.15019 0.112498
-0.0107113 -0.010774 0.613208
-0.328978 -0.111345 0.639673
-0.298183 0.0236689 0.639673
0.10422 -0.132175 0.639673
-0.226939 -0.254312 0.639215
-0.26033 0.0926665 0.613208
0.0444349 -0.077347 0.639673
0.0509062 -0.0499547 0.241699
-0.341918 -0.0896176 0.613647
0.164347 -0.174187 0.105272
0.261886 -0.236186 0.613647
0.286119 -0.0211052 0.613647
0.135876 -0.351149 0.639215
0.180316 0.309333 0.613208
-0.00341704 -0.0507351 0.639215
0.0626538 0.264827 0.639215
0.151777 -0.227098 0.613208
0.108832 0.200126 0.639673
0.0838386 -0.17579 0.613647
0.164904 -0.130791 0.639215
0.0839271 0.279662 0.613208
0.183047 -0.333834 0.635184
-0.0497761 -0.230366 0.639673
0.137964 0.141897 0.175696
-0.0674779 -0.270721 0.639215
0.0361444 0.37837 0.631614
-0.0498758 0.148481 0.613647
-0.0684901 0.172208 0.639673
-0.322227 0.0256691 0.613208
-0.131775 0.139877 0.147232
0.329516 -0.162863 0.613647
-0.169963 -0.226902 0.639215
0.157109 -0.0612787 0.613208
-0.274874 -0.0978699 0.639673
0.107742 -0.12355 0.613208
0.345982 0.100792 0.613208
-0.0648657 -0.0396367 0.613647
0.222491 -0.215961 0.0373626
-0.339431 -0.170996 0.618834
-0.234744 0.122836 0.639215
0.0541498 -0.210237 0.613647
-0.3778 0.0458266 0.624086
0.238953 0.0357739 0.613208
0.277895 -0.175178 0.639215
-0.144019 -0.144387 0.639215
0.213128 0.224628 0.0369784
0.291539 0.0827896 0.613208
-0.0457555 -0.0604981 0.504167
-0.169201 -0.263787 0.639215
0.125659 0.124868 0.613208
0.176115 -0.264523 0.613208
0.0153147 -0.302528 0.639215
0.132062 0.163835 0.639215
-0.0859094 -0.0379931 0.639215
0.319494 0.143728 0.639673
-0.106382 -0.0171084 0.613208
0.14604 -0.3231 0.613208
0.353635 -0.0166205 0.613208
-0.172486 0.19464 0.639215
0.0670965 0.199869 0.613647
0.0523676 -0.346311 0.639673
0.0701746 -0.295508 0.613647
0.106388 0.0321799 0.613208
0.162753 -0.0102352 0.613647
0.15513 0.0215949 0.613208
-0.267096 -0.181533 0.639215
-0.166425 0.274257 0.639215
0.0490997 0.0619598 0.48086
0.301795 0.108381 0.613647
-0.176002 -0.173865 0.0730186
-0.156872 -0.318319 0.639673
-0.199812 -0.283884 0.613647
-0.33456 0.183223 0.635409
-0.0300604 0.0440069 0.239814
-0.1147 -0.124186 0.143151
-0.0379529 0.0435704 0.444167
-0.254697 -0.0792904 0.639673
0.248072 0.250609 0.0456765
0.190762 -0.203357 0.639215
0.157413 0.124414 0.639215
-0.137174 -0.340961 0.639673
0.0540487 -0.0469434 0.491774
-0.158823 0.228829 0.639215
-0.0661917 0.0283322 0.639673
-0.278095 -0.121707 0.613647
-0.12528 0.262718 0.639215
-0.267939 -0.211284 0.613208
-0.134141 0.0574224 0.613208
0.0199773 -0.089193 0.613208
-0.124682 0.236244 0.639673
0.0379499 -0.0369658 0.533441
0.017686 -0.369521 0.613647
0.1032 0.0690685 0.639673
-0.255021 0.245333 0.00755352
0.246542 0.192312 0.639215
0.327159 0.0655872 0.613208
0.168293 0.193843 0.613647
0.184506 0.092155 0.613647
0.0870646 -0.254699 0.613647
0.0702953 0.374065 0.630278
-0.349973 -0.123155 0.613208
-0.0491658 0.0395791 0.541697
0.34585 -0.109168 0.639215
-0.182576 0.13028 0.639673
-0.0410501 -0.0556164 0.542162
0.251114 0.246741 0.0135512
-0.244056 -0.23365 0.639215
-0.202856 -0.322956 0.635173
-0.0932499 0.0396476 0.613647
-0.0128719 0.220682 0.613647
0.341776 0.0382454 0.613647
-0.056138 0.0877929 0.613647
0.111383 -0.355875 0.613208
-0.108374 -0.104859 0.192392
-0.318713 0.103684 0.639673
-0.034665 0.263473 0.639673
-0.00487478 0.0941104 0.613647
-0.140788 0.0680303 0.639215
0.0163947 -0.356126 0.639673
-0.00397208 0.0806858 0.639215
0.220017 -0.140636 0.613208
0.0173919 0.209634 0.613208
0.237534 -0.0573954 0.639673
0.139933 0.354075 0.634673
0.148098 0.235551 0.613208
0.0406157 -0.0729876 0.613647
-0.0214733 -0.0605133 0.613647
0.198932 -0.177717 0.613647
-0.20317 0.0767716 0.613647
0.10913 -0.250198 0.639215
-0.0656997 -0.0795314 0.397672
0.191665 -0.309136 0.639215
0.241091 0.0682478 0.613647
-0.224483 -0.0781618 0.613208
-0.0616256 0.0507409 0.589128
-0.0347036 -0.200959 0.613208
-0.336077 0.0841572 0.613647
-0.355315 -0.138533 0.636409
-0.068575 0.0607709 0.639215
0.0301094 0.273186 0.639215
0.143137 -0.143203 0.156436
-0.135166 0.334336 0.639215
0.172096 0.338938 0.616012
0.174444 -0.140273 0.613647
0.0782163 0.0893759 0.613647
0.196269 0.168381 0.613208
-0.222196 0.252284 0.639215
-0.012053 -0.16955 0.639215
-0.292348 0.197656 0.639215
-0.216198 0.20391 0.639215
-0.16318 -0.170763 0.639215
0.19995 -0.0566646 0.613208
-0.122496 0.178978 0.639215
0.154637 0.153479 0.0960375
0.0350055 -0.0311455 0.613647
-0.256808 0.180166 0.613647
0.144381 -0.129253 0.613647
-0.304362 -0.102665 0.613208
0.288916 -0.238758 0.639673
0.0197927 0.262969 0.613647
-0.119858 0.0844735 0.639215
-0.0877126 0.332163 0.639215
-0.10062 0.2774 0.613208
0.0944922 -0.190051 0.639673
0.225814 0.194562 0.613647
0.0473525 0.060368 0.431479
-0.240262 0.210301 0.639673
-0.127114 -0.235371 0.639215
-0.166587 0.174514 0.0902528
-0.222147 -0.176958 0.639673
-0.0422489 0.0674481 0.613208
0.119342 0.0918371 0.639215
-0.143197 0.150573 0.117022
0.0773489 -0.131824 0.639673
-0.227243 -0.184644 0.613647
0.0350206 -0.15308 0.639673
-0.132605 -0.289645 0.613647
-0.263685 -0.0109228 0.639673
0.0646567 0.00204591 0.639673
-0.356212 0.0149074 0.639215
-0.10102 -0.134606 0.613208
-0.220476 -0.308981 0.639215
-0.168466 -0.0208537 0.639215
0.250996 0.276156 0.639673
-0.257646 -0.0562572 0.639215
-0.220467 0.30751 0.613647
0.0478789 0.171315 0.613208
0.309174 -0.0361405 0.639215
-0.0275953 -0.187728 0.639215
0.351072 -0.103979 0.613647
0.16683 0.213107 0.639673
-0.274256 -0.250624 0.639673
-0.309954 0.00265286 0.639673
0.153726 0.0629175 0.613647
-0.216946 -0.231086 0.639673
-0.248955 -0.155796 0.613208
-0.284916 0.144042 0.639215
0.0593199 0.291699 0.639673
-0.0354784 0.196929 0.639215
-0.300768 0.0340113 0.613647
-0.0929904 -0.0690763 0.639215
0.177983 -0.071354 0.639673
0.116628 -0.119953 0.141155
0.135577 -0.299364 0.639673
-0.373956 -0.0224702 0.639215
-0.29474 -0.15883 0.613647
0.31563 -0.2132 0.625623
-0.242849 0.237857 0.613647
0.0265174 -0.304653 0.613208
0.323442 -0.0948972 0.639673
0.0101569 -0.00114325 0.240532
-0.291051 -0.235157 0.613647
0.193352 0.304097 0.639215
-0.077537 0.129654 0.613208
-0.19853 0.205176 0.0486179
-0.0608627 0.0500075 0.386836
-0.0933218 -0.29651 0.639215
0.300611 -0.128274 0.639673
0.0293957 -0.109537 0.639215
-0.0618871 -0.0598295 0.592442
-0.201349 0.0137012 0.639673
0.0806706 0.307576 0.639673
0.245509 -0.123841 0.613208
0.0893415 -0.0895999 0.320037
0.217308 -0.254965 0.613647
0.107372 -0.11937 0.190061
-0.0824773 -0.0888676 0.348334
0.162006 -0.234071 0.639215
0.0500824 -0.0431831 0.4551
0.137387 -0.274246 0.613208
0.334087 0.123514 0.613647
-0.0740214 -0.106747 0.639673
0.209086 0.0795149 0.613647
0.0759677 -0.047814 0.639673
0.225072 0.109355 0.613208
-0.219765 0.0334286 0.613208
0.0535598 0.327526 0.613208
-0.0995506 0.199071 0.613208
0.281115 0.18155 0.613647
0.0520445 0.0368977 0.239493
-0.104282 -0.189916 0.639215
-0.124853 -0.0786546 0.613208
0.0757314 -0.368094 0.613208
0.0770411 0.090481 0.27657
-0.23072 0.211093 0.613208
-0.0429025 -0.0579519 0.427553
0.00951299 0.171425 0.639215
0.134856 0.175894 0.613208
0.0689453 0.0637513 0.383466
0.147596 -0.329375 0.639215
0.103863 0.270784 0.639673
-0.230624 0.100222 0.613208
-0.305303 0.0768718 0.613208
0.364547 -0.0553871 0.639673
-0.209412 -0.102694 0.639673
0.0110626 -0.016918 0.229057
0.135711 -0.152556 0.639215
0.00561113 -0.22557 0.613208
0.181922 0.161416 0.639215
-0.220049 -0.217964 0.0553482
0.0490113 0.191434 0.639215
0.000112539 -0.0404865 0.613208
-0.154314 0.0983467 0.613208
0.114643 -0.311649 0.639215
-0.110292 0.218952 0.639215
-0.136255 0.326076 0.613208
-0.135354 -0.198951 0.639673
-0.379738 0.0276793 0.618951
-0.0572078 -0.0545872 0.557594
0.255344 0.0147151 0.639215
0.071488 -0.0725212 0.466888
-0.256224 0.168606 0.639215
0.265645 0.180779 0.639673
0.0590786 -0.0186537 0.639673
-0.00924917 -0.150479 0.613647
0.297762 0.200887 0.639215
0.145259 -0.0834903 0.613208
-0.141283 0.278195 0.639215
-0.34522 0.160572 0.636847
0.0972589 0.256816 0.613208
-0.0810285 -0.372277 0.636336
0.0353208 -0.023488 0.639215
0.0278885 -0.240225 0.639673
-0.294785 0.152951 0.613208
-0.0264791 -0.379605 0.624613
-0.215749 -0.128267 0.639673
0.23266 0.26437 0.613208
-0.171847 0.298894 0.639215
-0.296528 -0.108013 0.639673
-0.372036 0.0773277 0.639569
0.0493483 0.0951942 0.613208
0.0603368 -0.0714658 0.356807
0.113134 -0.28252 0.613647
0.0483174 0.0555113 0.613647
0.091946 -0.0878697 0.639215
0.0586956 -0.187976 0.639215
-0.00847514 0.281533 0.613647
-0.216476 -0.0967851 0.613208
0.0580232 0.0527423 0.514074
0.0109326 0.217523 0.639215
0.371683 0.0347761 0.639673
0.0196459 -0.16791 0.613647
-0.182268 0.189876 0.0734431
-0.196557 0.289657 0.613208
0.126596 -0.199551 0.613208
-0.0654993 -0.0621037 0.365547
-0.274878 0.219242 0.613208
-0.00764445 0.00728412 0.241699
-0.355433 -0.00497675 0.639673
0.105142 0.231463 0.613647
-0.252307 -0.259789 0.0372781
-0.0769431 -0.077279 0.243333
-0.290971 -0.0479755 0.639215
0.0339219 -0.286437 0.639673
-0.0531418 -0.149609 0.639673
-0.131645 0.145727 0.613647
-0.0600098 0.0655004 0.291175
-0.0357302 0.00559345 0.639215
0.039421 0.0435449 0.547945
-0.11138 0.0903471 0.613208
-0.103816 0.0928365 0.211802
0.193196 -0.232858 0.613208
0.0719861 0.0701238 0.555147
-0.261299 0.11478 0.639215
0.189639 0.037441 0.639673
-0.0546254 0.0436734 0.458882
0.0160501 0.0104628 0.639215
-0.0681652 0.0574622 0.356234
-0.168865 -0.165554 0.100659
0.0406977 -0.0475085 0.59743
0.225149 0.176567 0.639673
0.208355 -0.162509 0.639673
0.258582 0.0727169 0.639673
0.216928 -0.271796 0.639215
-0.108114 -0.364494 0.620437
0.36563 0.0819101 0.639215
-0.0342831 -0.246116 0.639215
0.214953 0.246641 0.639215
-0.0686244 -0.212976 0.639215
0.275714 -0.153835 0.639215
-0.0737976 -0.116991 0.613208
0.116843 -0.240377 0.613208
-0.361071 -0.0348176 0.613208
0.11948 0.31785 0.613208
0.261512 -0.255784 0.639215
0.0906246 0.211304 0.639673
-0.095243 -0.14543 0.639673
0.196286 0.214476 0.613208
-0.0294279 -0.0230904 0.613647
0.252306 -0.00977828 0.639215
0.139009 -0.196118 0.639215
0.126577 -0.0465239 0.613647
-0.166215 -0.199301 0.613208
-0.0961415 0.310521 0.639215
0.112367 -0.165225 0.613647
-0.124834 0.195855 0.613208
-0.0732731 0.08044 0.301764
0.107049 0.133783 0.639215
-0.0125534 -0.119346 0.613647
-0.201976 0.164066 0.613647
-0.118818 -0.0175541 0.639673
-0.189751 0.241163 0.613647
0.055838 0.0664808 0.324422
0.0797236 -0.224262 0.639215
-0.0599107 0.360816 0.613647
-0.152558 -0.0772667 0.613647
-0.0746304 0.262827 0.613647
0.04915 0.0148296 0.613208
0.0604875 0.0547336 0.404017
-0.316684 -0.161149 0.639673
-0.291254 0.245232 0.632616
-0.0443448 -0.0825356 0.613647
0.124696 -0.00771831 0.639673
-0.0694119 -0.195482 0.613208
-0.306377 0.155022 0.639215
-0.272689 0.141789 0.613647
0.0890306 -0.100034 0.244951
0.0397456 0.158634 0.639215
0.179604 -0.265492 0.639673
0.34171 -0.00402556 0.639673
-0.14818 0.158261 0.639673
0.0293723 0.0596055 0.639215
-0.023741 0.150495 0.639215
0.128286 -0.0677988 0.639673
0.228957 -0.304248 0.621119
0.0506911 0.0220876 0.639215
0.243059 0.237253 0.0303319
-0.126549 0.115574 0.166362
-0.033765 0.302185 0.613647
-0.0747356 0.081921 0.263667
-0.170795 -0.247336 0.613647
-0.182932 -0.217909 0.613208
-0.110051 -0.301199 0.613208
0.180985 0.252397 0.639215
-0.22588 -0.279695 0.639215
-0.254928 -0.0186336 0.613647
-0.0213158 -0.348286 0.613647
0.00369947 -0.338615 0.613208
-0.275989 -0.222224 0.639215
-0.0178339 -0.0184256 0.228669
-0.0355141 -0.135592 0.639215
0.180108 0.135766 0.639215
-0.210038 -0.0751168 0.639673
-0.140461 -0.328489 0.613208
0.115372 -0.0986454 0.639673
-0.290827 -0.0329195 0.613208
0.059533 -0.066429 0.284849
0.344053 0.163032 0.624805
0.277584 -0.222891 0.613208
0.348595 0.0237162 0.639215
0.14771 -0.15743 0.101689
-0.0911582 0.0268519 0.639673
-0.087424 -0.183627 0.613647
-0.0678785 -0.0626607 0.639215
0.137444 0.279682 0.639673
-0.200057 -0.214932 0.0518133
0.266463 0.120773 0.613647
-0.0903006 0.17463 0.613647
-0.339602 0.127307 0.613647
-0.167486 0.116413 0.639215
0.334819 -0.117451 0.613647
-0.375302 -0.0601912 0.637032
-0.375091 0.0331253 0.639215
-0.069032 -0.0750475 0.485948
0.0729077 -0.239948 0.613208
-0.244758 0.139722 0.613647
0.200265 -0.2738 0.613208
0.316751 0.0142744 0.639673
-0.123402 0.0383031 0.613208
-0.0149883 0.359011 0.613208
-0.300325 -0.201078 0.639215
0.302614 -0.0988126 0.613647
0.174311 -0.180567 0.639215
0.361341 0.0313912 0.613208
0.249839 -0.0735525 0.613208
0.0345633 0.231104 0.613208
0.0618936 -0.128985 0.613647
0.220086 -0.228918 0.0218447
0.205732 0.320137 0.632485
0.316296 0.0988265 0.639673
-0.152943 -0.128207 0.613208
0.30478 -0.157079 0.613647
-0.0717406 -0.322381 0.639215
-0.180695 -0.197573 0.639215
0.0417479 -0.0406364 0.575088
0.0629493 -0.329505 0.613208
0.245245 -0.182792 0.639215
0.0764452 0.351931 0.639673
-0.219277 -0.0416619 0.613208
-0.301082 -0.185954 0.613208
-0.0547083 0.0958872 0.639215
-0.271549 0.109543 0.613208
0.0924669 0.187813 0.639215
-0.103916 -0.0625889 0.613647
0.191502 0.182812 0.639215
0.245011 0.291092 0.62085
-0.190758 -0.110995 0.613208
-0.0160282 -0.272505 0.639673
-0.130414 -0.145458 0.135156
0.0150537 0.346923 0.613208
0.311857 0.0337796 0.613208
0.115615 -0.126934 0.165372
0.273181 0.156193 0.639673
0.144761 -0.180111 0.613208
-0.0736651 0.0643531 0.447684
-0.0869601 -0.233858 0.639215
-0.345607 -0.0388335 0.613647
-0.0677097 0.0841947 0.238858
-0.0475821 0.350299 0.639673
-0.167182 0.341648 0.618229
0.240927 0.211539 0.639215
0.101928 -0.219528 0.613208
0.0111159 0.134784 0.639215
0.0289386 -0.372273 0.639673
-0.047175 0.0547755 0.575898
0.133641 0.303737 0.613647
0.0531168 0.340256 0.639215
-0.333115 0.042417 0.613208
0.186534 -0.195575 0.082744
0.0488465 0.293055 0.613208
0.0669372 0.083608 0.23467
-0.0692846 0.224265 0.639215
-0.243099 -0.242885 0.00623986
-0.275473 -0.161338 0.639673
0.120807 0.0387367 0.639215
-0.240484 0.0374373 0.613647
-0.337109 0.177806 0.615673
-0.0152373 0.26782 0.639673
0.135359 0.329817 0.613647
-0.263729 0.274624 0.625775
-0.201933 -0.0468187 0.639215
0.0712568 -0.0826067 0.285897
0.105681 0.323046 0.639215
0.0484374 0.0454327 0.639215
0.270446 0.232806 0.639673
0.144838 0.156582 0.112971
-0.296297 0.0607217 0.639673
0.325308 -0.0518441 0.613208
-0.0520998 -0.0558935 0.228669
-0.144806 -0.0489581 0.613647
-0.225595 -0.119203 0.613208
-0.0915306 -0.267219 0.613647
-0.110351 0.0347572 0.639215
0.107835 0.00820844 0.613208
0.208593 -0.115329 0.639215
0.016919 0.082251 0.639673
-0.0695778 0.149693 0.613208
0.232643 -0.156005 0.613647
0.106535 0.100713 0.213338
0.208242 0.00973359 0.639673
0.252179 0.264841 0.00583198
0.269768 -0.185801 0.613208
-0.107171 0.163606 0.639215
-0.218946 0.171258 0.639673
0.29042 0.0207847 0.639215
-0.176505 0.0843025 0.613647
-0.0324561 -0.0388037 0.459484
-0.0581496 0.00410058 0.613208
-0.195031 0.201664 0.639673
-0.21018 0.297696 0.639673
-0.0330476 -0.170586 0.613647
-0.103624 0.11276 0.207955
0.120447 0.179621 0.639215
0.151373 0.287939 0.613647
0.0668545 0.0618581 0.430459
-0.123442 -0.249345 0.613647
-0.0163888 -0.19041 0.613647
-0.284522 0.0435919 0.613208
-0.144878 -0.216434 0.639673
-0.122812 0.0151499 0.639215
-0.157937 0.0191452 0.639215
-0.28065 -0.175805 0.613208
0.116551 -0.361717 0.639215
-0.201241 0.081736 0.639673
0.0402635 -0.194312 0.613208
-0.307135 0.119466 0.613208
0.130405 0.357847 0.618086
0.0470581 -0.145592 0.613208
-0.0718848 0.0787118 0.332281
-0.235747 0.0563529 0.639215
0.280984 0.231404 0.613647
-0.0829267 0.00635272 0.639215
0.107559 0.119685 0.182163
0.0649714 0.0840117 0.639215
0.0943288 0.108626 0.639673
0.37948 0.01888 0.622874
-0.302633 -0.0665151 0.613208
-0.0732203 0.0396237 0.613208
-0.352755 -0.0690756 0.639215
0.280316 -0.129124 0.613647
0.287127 0.107133 0.639673
0.0764386 0.0440162 0.639215
-0.138342 -0.143185 0.103019
0.296854 0.159687 0.639215
-0.314239 0.126294 0.639673
0.264073 0.151493 0.613647
-0.152617 0.287392 0.613208
0.088382 0.0391272 0.613208
-0.232836 0.292717 0.613208
0.218565 0.244223 0.613208
0.271728 -0.0812258 0.613647
-0.0563861 -0.353498 0.613208
0.0957917 -0.367189 0.613208
0.134661 0.148129 0.613647
-0.183067 0.172187 0.0805694
-0.095991 -0.0949935 0.275373
0.0637664 0.0716238 0.606352
-0.0716614 0.0795963 0.282513
0.236988 0.237 0.613647
0.362784 -0.115493 0.627342
0.272588 0.0786638 0.613208
-0.251465 -0.171402 0.639673
-0.167699 0.202181 0.613647
-0.142344 0.00102094 0.613647
-0.0653195 -0.243932 0.613647
-0.162196 -0.157889 0.613647
0.115842 0.118023 0.223603
0.258969 0.0535247 0.639215
0.149018 0.0354944 0.639673
0.117163 -0.200817 0.639215
-0.035406 0.217127 0.639673
0.103728 -0.109527 0.256086
0.0633833 0.240518 0.639673
0.263521 -0.274814 0.6389
0.244078 -0.293063 0.632878
-0.132233 0.237572 0.613647
0.149747 0.303174 0.639673
0.0169348 -0.288036 0.613208
0.266016 -0.0238113 0.639215
-0.056669 0.0459423 0.481731
-0.0484428 -0.132772 0.613208
0.19333 -0.0928306 0.639215
-0.336817 0.0657946 0.639215
0.0568581 0.0510056 0.543124
0.220156 0.0856156 0.639673
0.0459719 -0.315481 0.639673
0.0130673 0.134756 0.613647
0.198456 0.0200785 0.613208
0.256516 0.196257 0.613208
0.296168 -0.0795768 0.639673
-0.047727 0.0648641 0.232263
0.039774 -0.322153 0.613208
-0.210938 0.222043 0.613647
0.0572989 -0.229141 0.613647
0.23161 0.301332 0.629837
0.227401 0.146389 0.613647
0.0242507 0.251059 0.639215
0.0785381 0.142561 0.613647
-0.237036 0.232796 0.639673
0.313748 -0.180382 0.639215
-0.0601526 -0.0933319 0.613208
0.300658 0.232591 0.631781
-0.00309427 -0.359016 0.639215
0.136509 0.220218 0.639215
-0.261313 -0.0451609 0.613647
-0.118038 -0.0022948 0.613647
0.0431597 -0.0546563 0.529564
0.182206 0.0751438 0.639673
-0.21806 -0.029903 0.639673
-0.0988415 -0.0807713 0.613647
-0.0917598 0.369519 0.61653
0.301953 -0.225196 0.639215
-0.181049 -0.332168 0.639215
0.0228743 0.11902 0.639215
-0.180048 -0.281555 0.639673
0.163224 -0.170693 0.0747037
-0.165315 0.0800981 0.639215
-0.132231 -0.196978 0.613208
0.238274 -0.249252 0.026852
-0.149557 -0.207949 0.613647
-0.216458 0.0490071 0.639673
0.339711 0.126289 0.639215
-0.0965012 -0.0443523 0.613208
0.358684 -0.0362138 0.613208
0.327773 -0.0383148 0.639215
-0.20741 -0.144781 0.613208
0.376088 0.0602269 0.619728
0.0699027 0.0818719 0.388003
0.174787 -0.283018 0.613208
0.354924 -0.0780554 0.613208
0.0322352 0.229071 0.639215
-0.0601324 0.267704 0.639215
-0.0196636 0.109172 0.613208
-0.266321 -0.272202 0.634897
0.184846 -0.247489 0.639215
-0.185953 -0.0484843 0.613647
-0.0762222 0.0753122 0.399001
0.239654 -0.210146 0.613208
0.284246 0.246496 0.639215
-0.246092 -0.290092 0.619529
0.359929 0.121672 0.629635
0.0755773 0.0707005 0.365411
0.0677017 -0.0613814 0.396485
-0.0106661 -0.0933258 0.613647
-0.0399632 -0.377901 0.637282
0.19396 -0.195596 0.613647
0.0528751 -0.205593 0.639215
0.0668038 0.286683 0.613208
0.0961189 -0.105642 0.613208
0.00702607 0.170474 0.613208
-0.0166823 0.0174813 0.639215
-0.21096 -0.192857 0.639673
0.366498 0.104062 0.621492
-0.0602434 -0.0572651 0.464292
0.113795 0.110728 0.613208
-0.210737 -0.194583 0.613647
-0.178901 -0.0139992 0.613647
0.292308 0.203398 0.613208
0.0581696 0.0524756 0.453217
-0.0362276 -0.359083 0.613647
-0.0163081 -0.300704 0.639673
-0.242192 -0.133805 0.639215
-0.155623 0.291275 0.639215
0.137807 -0.295309 0.613208
0.107953 0.302278 0.639215
-0.227767 -0.255244 0.613647
0.125602 -0.344144 0.613208
-0.134609 0.192779 0.639215
0.037549 0.351692 0.613208
-0.0450974 -0.0437799 0.388601
-0.0861757 0.353189 0.639673
-0.0610866 -0.0751119 0.438911
-0.0624068 -0.0634891 0.284604
-0.114035 0.104795 0.174213
-0.31393 0.215879 0.61918
0.0654925 -0.0595092 0.565605
-0.0444011 0.0517785 0.420733
0.059404 -0.165902 0.613208
-0.00123665 0.379914 0.619272
0.0321591 0.0891011 0.613208
-0.264958 -0.251939 0.613208
-0.255838 -0.115544 0.613208
0.00699204 -0.268786 0.613208
-0.11665 -0.0320932 0.613208
-0.234176 0.121187 0.613208
0.0611699 -0.330447 0.639673
0.242178 0.179958 0.613208
0.0593537 -0.0727035 0.239285
0.0364335 -0.046454 0.487647
0.311561 0.0747389 0.613208
0.258981 -0.214513 0.639673
0.0217602 0.152775 0.639673
0.0186103 0.380723 0.633938
-0.248292 0.0791858 0.613208
0.0236168 -0.271609 0.639673
0.102932 -0.0361439 0.613208
0.00680398 0.310918 0.639673
0.0560024 -0.0487047 0.547717
0.0622684 0.210196 0.639215
0.0167002 -0.201847 0.639215
0.074094 -0.0801097 0.384455
0.159805 0.00324729 0.639673
-0.0734912 -0.0052688 0.613208
0.307968 -0.0744662 0.613647
-0.0301242 -0.00150851 0.613208
0.184323 0.0371203 0.613208
0.381472 -0.000103415 0.631429
-0.199549 0.323848 0.623233
0.132049 -0.112144 0.639215
0.345741 -0.0685484 0.639215
0.175329 -0.23208 0.613647
-0.0773764 -0.309764 0.613647
-0.118083 0.10262 0.639215
0.222884 -0.0964227 0.613208
0.0788589 -0.0124127 0.613208
-0.0751872 -0.170059 0.613208
-0.298077 0.0911421 0.639673
-0.285962 -0.137704 0.613647
0.186728 0.289999 0.613647
-0.0566322 -0.102544 0.639673
0.255962 0.0884907 0.613208
-0.182329 -0.0690994 0.613208
-0.15203 -0.00794929 0.639673
-0.0330881 -0.0888978 0.639673
-0.102094 0.11046 0.245273
-0.022947 -0.327313 0.639673
0.135738 -0.254164 0.613208
0.109672 0.0742701 0.613208
0.0704793 0.0662874 0.508672
0.0277558 -0.31538 0.639673
-0.128025 0.170961 0.613208
-0.0887941 0.120283 0.639215
0.0677878 0.0788637 0.472607
-0.224662 0.0147273 0.639673
0.079315 0.0917556 0.297754
-0.0599727 0.0761571 0.639673
-0.0920182 0.226339 0.613208
-0.133472 0.123823 0.140169
-0.0181577 -0.0117855 0.639215
0.199821 -0.220277 0.639673
-0.109644 -0.0569676 0.639673
0.0941023 -0.351657 0.639673
0.14813 -0.311665 0.639215
-0.143293 -0.12683 0.639215
0.235882 0.266119 0.639673
-0.111304 -0.343739 0.639673
0.0339079 -0.0914089 0.639673
-0.169135 -0.0992662 0.639215
-0.096695 0.0796276 0.613647
0.0836383 -0.0320247 0.639215
-0.148824 -0.0917371 0.639215
-0.117723 0.0670678 0.639673
-0.0761948 0.280293 0.613208
-0.0925635 0.335804 0.613647
0.186123 0.151709 0.613647
-0.0427074 0.0359832 0.429129
0.266574 -0.0926718 0.639673
0.0985078 0.226905 0.639673
-0.0381369 -0.0368184 0.494055
0.264824 -0.263115 0.613647
-0.111802 0.120987 0.639673
0.236903 -0.0568014 0.613647
-0.226196 -0.240672 0.0280724
0.0135415 0.0410158 0.639215
-0.0955758 -0.112228 0.237926
0.369509 -0.0947454 0.637044
0.162207 -0.157814 0.639215
0.151905 -0.348474 0.632918
-0.14917 -0.236284 0.613647
-0.142072 -0.263197 0.639673
-0.0639031 -0.0198912 0.613208
0.0899826 0.319254 0.613647
-0.122357 -0.137098 0.180578
0.337517 0.0579554 0.639215
0.126148 0.132073 0.129828
0.00026664 -0.11604 0.639215
-0.092967 0.290095 0.639215
-0.180386 0.177958 0.639673
-0.0544414 -0.0667933 0.301055
0.0473288 0.0438755 0.436746
-0.0537999 0.198055 0.639215
-0.19374 0.272866 0.639673
-0.357532 0.0334535 0.639673
-0.053434 0.0606537 0.455955
-0.237235 -0.132774 0.613647
-0.122959 -0.186331 0.639215
-0.305141 -0.119896 0.613647
0.104199 -0.252681 0.613647
-0.226864 -0.0610841 0.613647
-0.0851689 0.314559 0.613208
-0.181986 0.0255769 0.639673
0.0137858 -0.0497584 0.639673
-0.18634 -0.218651 0.639215
-0.339767 -0.172158 0.635986
-0.237137 0.195152 0.613647
-0.210822 0.133953 0.613208
-0.185387 0.168526 0.613208
-0.0585239 -0.0717814 0.557566
0.0800008 0.0743478 0.298521
-0.0377946 -0.0402466 0.549078
0.134137 -0.128738 0.158513
0.188442 0.0952032 0.639673
0.306731 0.177561 0.639673
-0.120015 0.204856 0.639673
-0.259627 0.244562 0.613208
0.0644431 -0.0575615 0.379465
-0.0550495 0.0443377 0.409444
-0.0188669 -0.0352825 0.231424
-0.0113186 0.262628 0.613647
-0.190913 -0.24038 0.613208
0.265771 0.00927274 0.613208
-0.0915939 -0.113298 0.613647
0.156714 -0.115849 0.639673
-0.315876 -0.144125 0.639673
-0.0556584 -0.0519871 0.57435
0.208611 -0.311182 0.613647
-0.110976 0.246326 0.639673
0.0773265 0.0892967 0.259039
-0.0660346 -0.0633454 0.402833
-0.150529 0.0541208 0.639673
-0.0839413 0.194771 0.639673
0.171822 -0.339189 0.613647
0.325804 -0.0781148 0.639215
0.0907655 -0.28347 0.639215
-0.0636989 0.0531246 0.553084
0.272702 0.247705 0.613208
-0.220133 -0.0130812 0.613208
-0.0469134 0.0542107 0.530106
0.236733 -0.138095 0.613208
0.225976 0.0790427 0.613647
0.0766766 -0.29628 0.639215
-0.243489 0.257265 0.639215
0.0529579 -0.0456636 0.474265
0.27732 -0.226555 0.639215
-0.355472 0.0743582 0.639673
0.00932765 0.309349 0.613647
-0.15189 -0.163828 0.128312
0.112113 -0.113726 0.223785
-0.103014 -0.111828 0.639673
-0.201772 -0.254516 0.613208
-0.320427 -0.0392497 0.613647
-0.0273369 -0.135098 0.613208
-0.171148 0.0305413 0.613647
0.209814 -0.153944 0.613208
0.24615 -0.226733 0.639215
-0.375245 -0.0472307 0.613208
-0.265068 0.0299775 0.613208
0.184663 -0.182211 0.0973443
-0.278569 -0.0766382 0.613647
-0.148992 0.252057 0.613647
-0.0719515 0.201317 0.613647
-0.105516 0.143829 0.639673
0.0855386 0.0127951 0.639215
0.0892606 0.326122 0.639673
-0.046639 -0.0438064 0.531753
0.00585249 0.00978804 0.228669
-0.039356 0.257996 0.613208
-0.111873 0.134429 0.613208
-0.367239 -0.101837 0.636422
0.229694 0.0191402 0.639673
-0.0192767 0.042347 0.639215
0.318599 -0.164454 0.639673
-0.316082 -0.195718 0.639215
0.211653 -0.0256481 0.639215
-0.135378 -0.0159613 0.639215
0.258714 -0.0330084 0.613647
-0.0419359 0.0333347 0.503201
-0.109504 -0.240345 0.613208
-0.178599 0.317311 0.613647
-0.127283 -0.273933 0.613208
0.193495 0.0173262 0.639673
-0.0660407 -0.15624 0.613647
0.0811989 0.150834 0.639673
0.0660849 0.174515 0.613647
0.0712688 0.365422 0.613647
0.0617526 -0.359939 0.639215
-0.0296004 0.0737467 0.639215
-0.0853931 -0.233915 0.613647
0.324493 0.0736829 0.639215
-0.0615115 0.22595 0.613208
-0.102388 -0.350582 0.613647
-0.247238 -0.0101445 0.639215
0.238151 0.0575366 0.639215
0.0807996 -0.0748462 0.333697
-0.0198841 -0.379739 0.639673
0.0612572 0.0736613 0.403218
-0.0864792 -0.100592 0.288557
-0.237473 0.16731 0.639673
0.206802 -0.119274 0.613208
-0.0268552 0.303589 0.639673
0.0796357 0.0252575 0.613647
-0.13672 -0.163869 0.613647
0.160537 -0.274938 0.613208
-0.193273 -0.00403677 0.639215
0.287537 -0.194575 0.639673
0.216005 -0.186582 0.639673
-0.0537159 -0.0504577 0.514301
-0.184387 -0.17422 0.613647
-0.0926202 -0.31283 0.639215
-0.199564 -0.125363 0.639673
0.0480467 0.0610204 0.464599
-0.217005 0.0874432 0.613208
0.11264 -0.0549972 0.613647
0.0422415 0.136341 0.613647
0.135809 0.0903231 0.613647
-0.0509719 -0.197217 0.613647
0.209792 -0.0436776 0.613208
0.153364 0.283092 0.639673
0.0519826 -0.0628951 0.494261
-0.100511 -0.224842 0.639215
0.0050786 0.256047 0.613208
-0.194367 0.11909 0.639215
0.319832 -0.0314977 0.613647
-0.156143 -0.0320042 0.639215
0.136225 -0.0625022 0.613208
-0.0503337 0.0335995 0.613647
-0.254195 -0.146276 0.639673
-0.0177449 -0.370985 0.613208
-0.0444692 -0.276294 0.613647
-0.0563977 0.214051 0.639673
-0.313684 0.216267 0.639052
0.0955032 0.291941 0.639215
-0.0402363 -0.0363256 0.639215
0.07669 0.0886831 0.326229
-0.344527 -0.0736657 0.613647
0.0398447 -0.136158 0.639673
-0.174968 0.234651 0.613647
0.108453 -0.146054 0.613208
0.050373 -0.0428099 0.613208
0.144009 7.38933e-06 0.639215
-0.0591951 -0.0461298 0.239366
0.101641 -0.293821 0.613208
-0.210285 -0.0151752 0.639673
0.234514 -0.269284 0.613208
-0.171824 -0.247883 0.639215
-0.163377 -0.177083 0.0825055
0.0363362 0.0452446 0.484361
-0.0169757 0.286334 0.639673
0.256154 0.147091 0.639673
-0.324391 -0.157956 0.613647
-0.0516872 0.0427543 0.598948
-0.272586 0.238913 0.639673
0.0964989 0.090891 0.249644
0.14144 -0.0567997 0.639673
0.309539 -0.114907 0.639673
-0.0273949 0.0535744 0.613208
0.249979 -0.0729843 0.639673
0.135447 0.0844303 0.639215
-0.347001 -0.0541056 0.639673
-0.231035 0.175366 0.613208
-0.023044 0.0818515 0.613208
0.135403 -0.26313 0.639215
0.160358 -0.0279412 0.639673
0.143158 0.0204416 0.639673
0.056729 0.0695158 0.581805
-0.188673 0.19576 0.0592292
0.0663416 0.240919 0.613647
-0.024631 0.335927 0.613647
-0.316919 -0.0589206 0.613647
0.100829 -0.0968157 0.221472
-0.0527449 -0.0667343 0.603593
-0.163296 0.22165 0.613208
0.228265 -0.17361 0.613647
-0.0738738 -0.26016 0.613208
-0.162139 0.160156 0.613208
0.134328 0.111308 0.639215
0.0409673 0.0474026 0.563348
-0.138916 0.14591 0.134313
0.344195 -0.16273 0.624077
-0.338746 -0.135246 0.639215
-0.172404 -0.308872 0.613647
0.141814 0.0127799 0.613208
0.118251 0.240506 0.613647
-0.24466 -0.213532 0.639215
