-0.105912 0.226745 0.589306
0.0789925 0.0605401 0.173786
0.392553 -0.0958952 0.591036
0.163568 -0.160059 0.589306
-0.177406 -0.188683 0.589306
-0.0954305 -0.0902673 0.523474
0.180478 -0.355272 0.581363
-0.291169 0.23503 0.589306
-0.397885 -0.0417422 0.596071
0.0737201 0.0594196 0.525945
-0.0800031 -0.0955136 0.158434
0.220015 0.150917 0.589306
-0.20841 0.101636 0.589306
0.40058 0.0336861 0.583771
-0.0668292 -0.278808 0.589306
-0.0232831 -0.0262315 0.589306
0.0699183 -0.0963887 0.511236
0.0871328 -0.274826 0.582632
-0.0778213 0.0896372 0.258276
0.255816 -0.0354394 0.582632
0.160963 0.288045 0.589306
-0.0901193 -0.0944298 0.275725
0.287969 -0.147275 0.589306
0.163704 0.0472817 0.589306
0.0777755 -0.00583823 0.220852
0.00566404 0.111414 0.589306
0.269563 0.301239 0.588628
0.089851 0.363313 0.582632
0.00196712 0.282229 0.589306
-0.107546 0.332849 0.589306
-0.27368 -0.285319 0.581363
-0.148651 -0.0763216 0.589306
-0.265369 -0.131998 0.589306
-0.0684153 0.0785932 0.0870114
0.327655 0.106181 0.582632
0.0844091 -0.0920255 0.293759
0.0720863 -0.0966147 0.0952609
-0.0755056 -0.379825 0.586667
0.0140207 -0.0960785 0.230524
0.0815951 0.0871686 0.264062
-0.305964 0.0538766 0.582632
0.0180492 0.0840769 0.220852
0.200434 -0.256269 0.582632
0.278508 0.230426 0.582632
0.155529 -0.0579222 0.582632
-0.124271 0.148036 0.589306
-0.208263 0.204693 0.582632
-0.346912 0.203615 0.594487
-0.192105 0.300281 0.589306
-0.0781486 -0.0951195 0.29906
-0.0716064 0.0850705 0.475483
-0.14047 0.0161745 0.582632
0.0753482 -0.167157 0.582632
0.13108 0.123176 0.582632
0.00948025 -0.00909947 0.220852
0.0886024 0.077153 0.0751461
-0.0254762 0.185966 0.582632
0.234391 0.277664 0.582632
-0.0906859 -0.138017 0.582632
-0.0719608 -0.0904075 0.490625
-0.369941 -0.122425 0.594741
-0.158892 -0.281186 0.582632
0.0222263 -0.309629 0.582632
-0.288584 0.13452 0.582632
0.101227 -0.356591 0.589306
-0.0946898 0.0109543 0.220852
0.317484 0.0854358 0.582632
0.081949 -0.0875662 0.589306
0.36556 -0.1677 0.594761
0.0603662 -0.0729037 0.424797
0.340027 -0.0327435 0.589306
0.0713935 0.0591551 0.570335
0.226641 -0.212872 0.589306
-0.323914 -0.0463327 0.582632
-0.0774598 -0.0949732 0.074306
0.149325 -0.324771 0.582632
0.248792 -0.317379 0.592646
0.0754512 0.276365 0.589306
-0.245644 -0.209961 0.582632
-0.0826608 0.0901454 0.05787
0.0772481 0.0601694 0.430253
-0.195235 -0.115428 0.589306
-0.263935 0.290713 0.596717
0.2231 -0.100783 0.589306
0.0523489 -0.0377291 0.582632
0.156102 0.200067 0.582632
-0.0329021 -0.0921678 0.582632
0.0258704 -0.242193 0.589306
-0.0304846 0.0406777 0.582632
-0.0680463 0.0768622 0.325644
-0.0675662 -0.0585155 0.220852
0.0529722 0.11813 0.589306
-0.0380568 0.0160049 0.220852
-0.378236 0.0349269 0.589306
-0.0987468 -0.214033 0.589306
0.233133 0.0823358 0.582632
-0.0760941 0.396377 0.58696
0.320208 -0.0884784 0.582632
-0.221931 0.0306307 0.582632
0.102329 -0.00657719 0.589306
-0.201103 0.173684 0.582632
-0.207641 -0.247737 0.582632
0.388843 0.10354 0.58405
0.0865682 0.07117 -2.77556e-17
-0.0868759 -0.0321438 0.589306
-0.0330348 -0.221389 0.589306
-0.0437674 0.246231 0.582632
0.12862 0.349482 0.582632
-0.115102 -0.332929 0.589306
0.292103 0.163074 0.582632
0.0245446 0.0295801 0.582632
-0.0712152 0.0648982 0.189085
0.392463 -0.0358716 0.597237
-0.0963435 -0.0730155 0.431569
-0.0338439 0.0821353 0.220852
0.144531 -0.223077 0.589306
-0.0370894 0.336335 0.589306
-0.325915 0.127969 0.589306
0.0245816 0.145846 0.582632
-0.0620049 0.123639 0.589306
-0.318856 -0.240764 0.59652
-0.129744 0.084585 0.582632
0.0848477 0.0650574 0.544372
-0.0206906 -0.358485 0.582632
0.0689406 -0.0556309 0.231284
-0.0814194 -0.0657479 0.54659
0.207661 0.0202662 0.589306
0.0801242 0.0607806 0.32118
-0.0985193 -0.0809977 0.0918903
0.058803 0.0781925 0.20271
0.0306473 -0.112636 0.589306
-0.190966 -0.028134 0.589306
0.102225 -0.1187 0.589306
-0.171357 -0.36563 0.590387
-0.160977 0.235748 0.582632
0.0334573 0.330065 0.582632
0.177717 0.300223 0.582632
-0.14158 0.177378 0.589306
0.229231 -0.161855 0.589306
0.0444488 0.400626 0.592899
-0.122546 0.38372 0.584532
0.305114 -0.205344 0.582632
0.171612 0.105792 0.582632
0.263847 -0.302445 0.595407
0.206344 0.219785 0.582632
-0.0966817 0.0684759 0.124762
0.0632691 -0.0700172 0.133868
-0.0677466 0.0754565 0.423541
0.196578 -0.0150649 0.582632
-0.087756 0.0607674 0.502759
0.0581802 0.0722617 0.122927
0.352941 0.161132 0.589019
-0.301755 -0.174991 0.582632
0.0784313 -0.0673865 0.55135
0.117117 0.04379 0.582632
0.0642392 -0.0694554 0.0437055
0.325354 0.0245574 0.582632
0.121508 0.246806 0.582632
0.281966 0.104726 0.582632
0.0854654 -0.0896454 0.328313
0.0354192 0.234729 0.589306
0.0600907 0.0820329 0.485317
-0.303311 -0.0893878 0.582632
-0.349194 0.0752326 0.589306
0.0858514 0.066172 0.12673
-0.231702 -0.323709 0.597237
-0.281821 -6.40711e-05 0.582632
-0.0121791 -0.0512233 0.231284
0.073161 -0.0668285 0.474693
-0.103756 0.278294 0.582632
-0.264178 0.179611 0.589306
0.0950113 0.156658 0.589306
-0.257873 0.0842626 0.589306
0.0754896 -0.222581 0.582632
-0.0917523 0.0225752 0.582632
0.168605 -0.108477 0.589306
-0.141593 -0.14142 0.589306
-0.0860562 0.181074 0.582632
0.00924069 -0.261637 0.582632
-0.129497 -0.381283 0.593986
0.0178524 0.00572252 0.582632
0.0881555 -0.0829035 0.246585
-0.185141 0.0401027 0.582632
-0.300291 0.0818976 0.582632
-0.222836 0.250882 0.589306
0.0883608 0.0748521 0.223227
-0.253262 -0.0865259 0.589306
0.0358 -0.190371 0.589306
-0.365237 -0.0755407 0.589306
-0.133877 -0.170335 0.582632
-0.335552 -0.00155884 0.582632
-0.372152 0.156991 0.588885
-0.0976192 0.0787278 0.231576
0.0376668 0.0384794 0.231284
-0.0990786 -0.0926443 0.582632
-0.0228088 -0.399995 0.582943
0.0998288 -0.335278 0.582632
-0.0803473 -0.0955868 0.0111128
-0.0337 -0.0925277 0.220852
-0.0504995 -0.321088 0.582632
0.0774604 -0.385425 0.597068
0.167127 0.158347 0.589306
-0.0660717 -0.185019 0.589306
-0.148809 -0.235096 0.582632
0.00188133 -0.0618209 0.589306
-0.0728514 -0.0698956 0.335314
-0.133942 -0.0232323 0.582632
0.0607595 0.0666603 0.0494426
0.258777 0.0675814 0.589306
0.389783 0.0815952 0.581363
-0.0846556 -0.0660925 0.124824
-0.157823 0.324585 0.589306
0.262471 0.164322 0.582632
-0.0986148 -0.0819063 0.212752
0.0599673 0.0680325 0.252206
-0.224361 -0.165892 0.582632
-0.199015 -0.299223 0.589306
0.146223 -0.375862 0.592554
-0.0049435 0.0451287 0.220852
-0.162309 0.126442 0.589306
0.360703 0.0046925 0.582632
-0.0775473 0.0896084 0.526458
0.25132 -0.254801 0.582632
0.270602 -0.0993779 0.582632
0.139767 -0.272143 0.582632
0.28955 0.277545 0.595637
-0.0970786 0.0799448 0.302847
0.0680858 0.0886315 0.304337
0.222851 0.322654 0.596118
-0.402837 0.0220462 0.59111
0.120598 -0.180777 0.589306
-0.0906861 0.0621891 0.162549
-0.0860405 0.060586 0.0337244
-0.0910742 -0.0674559 0.279653
0.136989 0.0859622 0.589306
0.0690951 0.088846 0.449165
-0.0982042 0.0756403 0.444944
0.350856 -0.126396 0.582632
-0.0903604 -0.0943224 0.392263
0.0612328 0.0833012 0.567875
-0.0875268 0.0897168 0.571031
0.269086 0.147255 0.589306
0.293743 -0.0119053 0.589306
-0.259511 0.0404921 0.589306
0.0309803 -0.0525576 0.231284
-0.221076 -0.123342 0.589306
-0.0703227 -0.0742753 0.200625
-0.239757 0.146546 0.589306
0.0466914 -0.271689 0.589306
0.201147 0.11457 0.589306
-0.147781 0.275285 0.582632
-0.238882 0.200997 0.589306
0.0173981 -0.351486 0.582632
-0.209544 -0.0705194 0.582632
-0.043666 -0.133025 0.582632
-0.240008 0.324684 0.590638
-0.110666 -0.272231 0.582632
-0.235594 -0.269627 0.582632
-0.344922 -0.157392 0.589306
0.167751 0.367501 0.591369
0.275563 -0.17168 0.582632
0.0851756 -0.0729432 0.354879
-0.0701519 -0.0195493 0.220852
0.00376114 0.0370248 0.589306
0.149337 0.00228151 0.582632
0.0951702 0.319175 0.582632
0.206077 -0.303522 0.589306
0.186457 -0.215217 0.582632
-0.0718931 0.309387 0.582632
-0.314966 0.182438 0.589306
0.163798 0.240792 0.582632
0.0674075 -0.0676204 0.165408
0.0595444 -0.0747446 0.26872
-0.069191 0.203669 0.589306
0.0090847 0.360105 0.582632
-0.225128 -0.223172 0.582632
0.0124085 0.193239 0.589306
-0.257561 0.129577 0.582632
-0.0972497 -0.0871168 0.32572
0.0200277 0.076725 0.589306
-0.0875517 -0.242941 0.582632
-0.0462066 -0.0683249 0.589306
-0.160299 0.363581 0.597237
0.0735327 -0.0967654 0.453623
-0.0131935 0.141723 0.582632
0.0703637 0.0302335 0.582632
0.357804 0.0530541 0.589306
-0.272387 -0.0190035 0.582632
0.073421 -0.0492494 0.589306
-0.0688677 0.080715 0.373306
-0.0111105 0.233853 0.589306
-0.053984 0.00481902 0.582632
0.240676 -0.0779047 0.582632
-0.273679 -0.240703 0.582632
0.347031 -0.206678 0.59086
-0.0968428 -0.0878215 0.460918
0.0681961 -0.303638 0.582632
0.0818397 -0.0936355 0.415307
0.302751 0.046694 0.582632
0.0280429 -0.153221 0.589306
0.0810978 0.0379157 0.2286
-0.322667 0.241832 0.585772
-0.0734777 0.0867553 0.125309
-0.171 0.0740648 0.582632
0.0461721 -0.0187706 0.231284
-0.133573 -0.30981 0.582632
-0.327255 -0.0849509 0.582632
-0.31295 -0.128926 0.582632
-0.027073 -0.272909 0.589306
-0.0448471 0.28878 0.582632
0.0587331 0.0701699 0.405847
-0.0867156 0.261578 0.582632
0.0707944 0.0892072 0.527443
-0.371895 -0.0103251 0.589306
-0.0541265 -0.373251 0.582632
-0.175055 0.217221 0.582632
0.127967 0.379848 0.582914
0.193979 0.262324 0.582632
0.122754 -0.0474501 0.589306
0.0585248 -0.0770288 0.322448
-0.110087 -0.174496 0.589306
-0.0605446 0.0491683 0.231284
-0.0806481 0.357594 0.589306
0.207631 -0.183967 0.582632
0.237534 0.230019 0.589306
0.31022 0.194866 0.582632
-0.0970241 0.0800673 0.346248
0.377714 0.139591 0.584277
0.0904971 0.119367 0.582632
-0.0898221 0.0883954 0.198498
-0.0659442 0.0267053 0.220852
-0.0314665 0.0837676 0.582632
-0.0823125 -0.0960044 0.555758
0.224918 -0.332676 0.58345
-0.0602922 0.0461937 0.582632
-0.0374343 0.389235 0.583125
0.319567 0.242735 0.583285
-0.286554 -0.215191 0.589306
-0.342273 0.0383183 0.589306
0.349489 0.0889475 0.582632
0.0660787 -0.06839 0.194414
0.388235 -0.00459336 0.587854
0.260714 0.194942 0.589306
0.0619686 0.0645662 0.0929385
-0.170393 -0.321969 0.589306
0.264406 -0.213389 0.589306
0.124198 -0.30149 0.589306
-0.0877562 -0.0667511 0.054932
0.0609925 -0.355879 0.582632
0.355034 -0.0713928 0.589306
-0.02193 -0.0044474 0.589306
-0.297844 -0.266061 0.596756
0.065725 -0.113788 0.589306
-0.00399622 -0.121415 0.582632
-0.101361 -0.353462 0.582632
0.244099 0.118224 0.582632
0.0728633 0.0896469 0.155388
0.29587 -0.047769 0.589306
0.321795 -0.171632 0.582632
-0.22673 0.281728 0.589306
-0.302423 0.205796 0.589306
0.107994 0.191244 0.589306
0.0836963 0.0637787 0.482619
0.181582 -0.309351 0.582632
-0.298948 0.270613 0.58582
0.0516938 -0.33838 0.589306
-0.00601277 0.315533 0.582632
0.210468 -0.064192 0.582632
0.114016 -0.230354 0.589306
-0.118858 -0.0571334 0.589306
0.108857 0.278405 0.582632
0.238285 0.034414 0.589306
0.187609 -0.136976 0.589306
-0.00804935 0.359913 0.582632
-0.210376 0.137887 0.589306
0.0985241 0.0857165 0.589306
0.0852524 -0.0901252 0.0610079
-0.179263 -0.267879 0.582632
0.123718 -0.151775 0.589306
0.0882079 0.0733961 0.384092
0.0336295 0.297513 0.582632
-0.17652 0.00454023 0.589306
-0.174466 0.176825 0.582632
-0.1129 0.0481304 0.589306
0.232277 -0.0109256 0.589306
0.0383447 -0.0714546 0.582632
0.0666372 0.0883236 0.0249102
-0.0688471 -0.0768308 0.411695
-0.070106 -0.0883473 0.0419339
-0.0756581 -0.0945142 0.13351
-0.0910985 -0.0674611 0.495869
-0.0689218 -0.0767016 0.252439
-0.217861 -0.00530565 0.589306
0.0539986 0.366551 0.582632
-0.285062 -0.0650492 0.582632
0.151482 0.121116 0.582632
0.316095 -0.133015 0.589306
0.077063 -0.0672416 0.508466
0.0109192 -0.0215745 0.582632
0.235051 -0.280408 0.582632
0.383929 -0.0606417 0.591775
0.115219 -0.0752577 0.589306
0.0817675 -0.0936771 0.133083
-0.138333 0.294814 0.582632
-0.0857608 0.0605564 0.274417
-0.186842 0.272765 0.589306
0.0718103 0.241743 0.582632
-0.055119 0.0836643 0.582632
-0.0437516 -0.155487 0.589306
0.0717037 -0.0666741 0.394068
-0.0931343 0.0643934 0.0999318
-0.231353 0.0709321 0.582632
-0.0982262 -0.078206 0.357338
-0.162357 -0.100133 0.589306
-0.00903833 -0.326309 0.589306
-0.0688329 -0.0831145 0.517361
-0.149539 0.0492228 0.589306
0.043838 -0.38115 0.582632
0.304044 0.134596 0.589306
-0.166297 -0.218896 0.582632
-0.0554234 -0.238316 0.589306
-0.0813065 0.147075 0.589306
-0.269082 -0.176619 0.589306
-0.0710486 -0.0893943 0.437765
-0.0725611 0.064013 0.304556
-0.0671538 -0.341736 0.582632
-0.096098 -0.300489 0.582632
0.20745 0.0466621 0.589306
0.204661 0.179675 0.582632
0.256846 -0.143503 0.582632
-0.326647 0.104338 0.582632
-0.0516821 -0.0355087 0.589306
0.0464839 -0.07964 0.220852
-0.387768 0.079041 0.581363
0.0687648 0.0603256 0.280965
-0.0122686 -0.304258 0.582632
0.0603552 0.306186 0.589306
-0.252505 0.23264 0.582632
-0.00268212 -0.202334 0.582632
-0.176646 -0.142411 0.589306
0.0456479 0.0607003 0.589306
-0.399774 0.0573354 0.588839
0.0613007 0.159901 0.589306
-0.361259 -0.0459439 0.589306
0.180163 0.217005 0.589306
-0.107421 -0.00787132 0.582632
0.31722 -0.230323 0.596163
-0.403337 -0.0169892 0.590295
-0.0659818 0.231003 0.589306
-0.0442592 0.151984 0.589306
-0.0960226 -0.0892419 0.238633
0.325313 -0.0642842 0.582632
-0.0106227 0.0606944 0.231284
0.00731521 -0.0685217 0.220852
0.210698 -0.12422 0.589306
0.380136 -0.136511 0.58747
-0.0670612 -0.253711 0.582632
0.0682005 0.0886558 0.340388
0.0778737 -0.0673275 0.104161
0.060743 0.344509 0.589306
-0.0844492 -0.316476 0.589306
0.284457 -0.259246 0.582632
-0.0852581 -0.0673062 0.589306
-0.133088 0.364281 0.586415
0.35292 0.17863 0.597237
0.0166083 0.393179 0.582632
0.195348 0.08264 0.589306
-0.158104 -0.0432561 0.582632
-0.00436953 -0.234569 0.582632
-0.137809 0.211084 0.589306
0.0849676 -0.0907671 0.21655
0.151601 -0.188277 0.589306
-0.0693328 0.0828964 0.45405
0.272506 0.0412853 0.582632
-0.00294659 -0.400609 0.595808
0.0804613 0.0608522 0.451985
-0.243959 0.104009 0.589306
0.191257 -0.0864269 0.589306
-0.110687 0.120097 0.582632
0.221107 -0.0381904 0.589306
-0.00282618 -0.0917996 0.582632
0.0880306 0.0717074 0.0454468
-0.306448 0.0208673 0.589306
-0.327034 -0.226716 0.581363
-0.283378 -0.143864 0.589306
-0.0884057 0.041663 0.230502
-0.135673 -0.205034 0.589306
-0.114695 -0.119073 0.582632
-0.251741 0.00273025 0.589306
-0.20763 -0.192028 0.582632
0.12795 -0.349957 0.582632
0.0835756 0.0862867 0.419148
-0.0770389 0.061425 0.00324242
0.0841353 -0.0923151 0.376972
0.0600298 -0.0736572 0.0239207
0.0494767 -0.305826 0.582632
-0.307193 0.114365 0.582632
0.0662971 -0.0959697 0.543315
0.0589977 -0.0759693 0.45278
0.173832 0.0190954 0.582632
0.0545746 -0.236426 0.582632
0.0567973 -0.136242 0.582632
-0.0936332 -0.388968 0.596058
0.192133 0.321787 0.582632
0.284534 0.0773698 0.589306
0.0471061 0.263785 0.589306
0.117409 -0.270344 0.589306
-0.0897364 0.0884447 0.409625
-0.210907 -0.331341 0.581948
0.0254948 0.266832 0.582632
0.164058 -0.0100783 0.589306
-0.0958314 0.0668216 0.481642
-0.159837 0.289257 0.582632
0.0828393 0.0866146 0.568556
-0.372825 -0.155085 0.588447
-0.34797 0.174061 0.584864
-0.0739838 0.087211 0.0248634
0.27058 -0.0143612 0.589306
-0.0765421 0.0617121 0.345672
0.0844372 -0.0919621 0.164043
-0.0229761 0.117756 0.582632
-0.321965 -0.193788 0.589306
-0.0369222 -0.0331401 0.231284
0.352438 0.124882 0.589306
-0.344899 -0.109562 0.589306
-0.255868 -0.245703 0.589306
0.0756102 0.0598213 0.362378
-0.0730076 -0.0696252 0.460726
-0.0559672 0.171648 0.582632
0.377857 -0.113895 0.581363
-0.0488559 -0.391783 0.597237
-0.183852 0.323133 0.589306
-0.186321 -0.0579298 0.589306
-0.149451 -0.333263 0.589306
0.183451 -0.052948 0.589306
-0.274573 -0.106771 0.589306
-0.0618109 -0.213091 0.589306
0.0823557 0.22113 0.589306
-0.276788 0.104695 0.589306
0.122919 0.146876 0.589306
-0.249954 -0.307083 0.581363
0.234791 -0.127868 0.582632
0.189986 0.140022 0.589306
-0.0936402 0.069415 0.589306
0.122303 0.216438 0.582632
0.135063 0.289644 0.582632
0.396412 0.0611885 0.595597
0.0743158 0.385937 0.581637
0.179875 0.27304 0.589306
0.140398 0.180854 0.589306
-0.195512 -0.155957 0.589306
0.0836399 -0.197664 0.582632
0.29014 0.19009 0.582632
0.097949 -0.163809 0.589306
0.240577 -0.184319 0.589306
0.288544 -0.0788762 0.582632
0.153737 0.337618 0.582632
-0.351029 0.137624 0.589306
-0.102121 0.169371 0.589306
0.136664 -0.124592 0.582632
0.171616 -0.26392 0.589306
0.209457 -0.345337 0.587575
0.0490214 0.202434 0.582632
0.0778503 -0.0277628 0.220852
0.142743 0.0604379 0.582632
0.0355661 0.101011 0.582632
0.133509 -0.0159825 0.582632
-0.075788 0.062148 0.532787
-0.386521 -0.0913201 0.581363
-0.0937207 -0.0701023 0.571142
-0.0180406 -0.0723903 0.220852
0.00994501 0.0237431 0.231284
0.0519858 0.0158121 0.220852
-0.365879 0.0105273 0.589306
-0.156136 0.0997916 0.589306
0.2607 0.0909015 0.582632
0.270856 0.270883 0.582632
-0.222248 0.0567961 0.589306
0.0662204 0.0601685 0.220948
-0.136187 0.241202 0.582632
0.352631 -0.100799 0.582632
-0.296273 0.160674 0.582632
0.188807 0.355325 0.594488
0.0854133 -0.0897628 0.482602
-0.0773766 0.0612299 0.0603634
-0.0405891 0.217845 0.589306
0.0579246 -0.0836822 0.486529
0.0693327 -0.0963276 0.0216156
0.235945 0.189185 0.582632
0.0701078 0.140069 0.582632
-0.0280741 0.0361007 0.220852
0.0885466 0.0766215 0.508784
0.0422821 -0.00892568 0.589306
-0.0903157 -0.04576 0.227875
0.0872933 -0.0788312 0.031012
0.241619 0.311209 0.597237
0.0319959 0.0128603 0.231284
-0.243058 -0.144859 0.582632
-0.0727757 0.0861232 0.213921
0.186198 0.0655128 0.589306
0.0595111 -0.0748192 0.535431
-0.0747365 -0.0934906 0.221291
0.329187 -0.00541717 0.582632
-0.163482 0.154865 0.589306
-0.222257 0.167586 0.582632
-0.295457 -0.0370384 0.582632
-0.203158 0.0270611 0.582632
0.212162 0.297947 0.582632
-0.0251687 0.296001 0.589306
0.305666 -0.113288 0.589306
0.122474 0.320156 0.582632
0.0623524 0.0639016 0.150765
-0.00892112 0.08814 0.582632
-0.38719 0.00630919 0.584489
-0.0811751 -0.0957627 0.108234
0.0853836 0.0834919 0.182473
-0.225693 -0.301979 0.582632
0.0150026 -0.0389766 0.220852
-0.159335 -0.0189408 0.582632
-0.0606326 -0.11385 0.582632
0.0876112 -0.0803326 0.43679
0.0207621 -0.283699 0.582632
0.0106114 -0.379063 0.582632
0.0643212 0.0623043 0.0252577
0.291631 0.0176437 0.589306
-0.0929571 0.0865907 0.144941
0.288573 -0.274974 0.597237
-0.284728 0.0662687 0.582632
0.288998 -0.232177 0.589306
-0.353712 0.102258 0.582632
0.00151283 0.169595 0.582632
-0.0904842 0.0514945 0.589306
-0.0979657 0.0745183 0.534225
-0.0731792 -0.0694171 0.0219056
-0.215995 -0.091475 0.589306
-0.366467 0.0525536 0.582632
0.113728 0.105199 0.582632
-0.272173 0.216281 0.582632
-0.102005 0.375826 0.584189
-0.0881616 0.0893513 0.498585
-0.0909355 -0.0168383 0.220852
0.192698 -0.165633 0.589306
0.141464 0.261951 0.582632
-0.0707141 -0.0735973 0.162936
-0.308514 -0.00741762 0.589306
-0.209767 -0.27436 0.582632
0.153744 -0.247531 0.589306
-0.0950673 -0.0908962 0.0356372
0.0636906 -0.0697732 0.0726204
-0.18544 0.129636 0.582632
-0.335237 -0.175671 0.589306
-0.2392 -0.104689 0.582632
0.157466 -0.354665 0.590028
0.334252 0.182173 0.589306
0.0667576 0.0883492 0.0640006
0.33313 0.0540215 0.589306
-0.213096 -0.0347401 0.589306
0.343594 -0.190692 0.59663
-0.0903873 -0.0943105 0.417112
-0.213891 0.324748 0.593066
-0.203414 0.235636 0.582632
-0.0411612 -0.0551106 0.220852
0.059148 -0.0894175 0.244428
-0.268057 0.154887 0.589306
0.0883014 0.074286 0.28486
0.354743 0.0279686 0.589306
-0.261189 -0.059912 0.582632
-0.324048 0.221887 0.596931
-0.19901 0.0775017 0.582632
-0.132584 0.346521 0.589306
0.0121321 -0.177938 0.582632
0.108215 0.068546 0.589306
0.0938812 0.0226799 0.582632
0.0690331 -0.260501 0.589306
-0.11647 -0.194501 0.582632
-0.0178837 0.259538 0.582632
0.187604 0.194917 0.582632
0.0911286 -0.249311 0.589306
-0.101505 0.204419 0.582632
-0.180519 0.0967194 0.589306
0.214668 0.245926 0.582632
-0.0219541 -0.0537367 0.589306
0.134371 0.0222892 0.582632
0.0609518 -0.0715918 0.571322
0.044076 0.0156563 0.589306
0.034505 0.167753 0.582632
-0.0485443 0.357791 0.582632
-0.037946 -0.18125 0.589306
0.0241166 0.0566901 0.220852
-0.143095 -0.36096 0.587602
0.0177385 0.22611 0.589306
0.29862 -0.175634 0.582632
-0.0510686 -0.288744 0.589306
-0.245433 -0.182622 0.589306
0.0287435 -0.216422 0.582632
0.158293 -0.138994 0.582632
0.0590133 -0.088786 0.297089
0.0925737 0.254667 0.582632
-0.0718786 -0.0903163 0.362904
0.101811 0.338915 0.582632
-0.0560822 -0.0921927 0.582632
-0.0636882 0.0201245 0.582632
0.054657 -0.151778 0.582632
-0.0793163 -0.00210104 0.582632
0.373715 -0.0265556 0.582632
-0.0930466 -0.18875 0.582632
-0.00925741 0.0585253 0.582632
0.00508618 -0.145689 0.582632
-0.375427 -0.102639 0.59411
0.096681 -0.301732 0.589306
-0.310599 -0.1558 0.589306
0.204162 -0.211574 0.589306
-0.0703829 -0.150645 0.582632
0.00517221 0.25458 0.582632
0.0469059 -0.0957219 0.589306
-0.079702 -0.168316 0.589306
-0.0984511 -0.0803479 0.185511
-0.0715905 -0.0720794 0.306985
-0.268517 -0.19761 0.589306
-0.0511026 0.318793 0.589306
0.164006 -0.0823235 0.589306
0.26671 0.120732 0.582632
0.029477 -0.0494467 0.589306
-0.0709652 -0.0515589 0.582632
0.245056 0.145736 0.582632
-0.136672 0.12382 0.582632
0.18717 -0.276946 0.589306
-0.0106871 0.0157662 0.220852
-0.0953791 -0.0719443 0.393389
-0.296485 -0.196197 0.589306
-0.0945376 0.0656568 0.420115
0.0694653 -0.0963414 0.568908
-0.0765007 0.0617361 0.444554
-0.118185 -0.0793976 0.582632
0.0572203 -0.0799509 0.510298
0.163832 -0.234188 0.589306
-0.13779 -0.270071 0.589306
0.234731 0.0122897 0.589306
-0.373998 0.127513 0.581363
-0.118051 0.25562 0.582632
0.345423 -0.155613 0.582632
-0.246223 0.0241392 0.589306
0.223972 0.112982 0.589306
-0.0447774 -0.343713 0.582632
-0.389564 -0.0578094 0.581363
0.37381 -0.0868756 0.582632
0.0649351 0.0874127 0.102687
0.0784995 -0.0673937 0.307252
-0.113166 -0.24739 0.589306
-0.288058 0.0338703 0.582632
0.301573 0.256487 0.581363
0.0871805 0.0803799 0.440634
-0.187583 -0.227091 0.589306
0.0852421 -0.0901484 0.557744
-0.331958 0.156719 0.589306
-0.300101 -0.243153 0.582632
-0.143309 -0.114956 0.582632
-0.0770256 -0.0948809 0.338588
0.151693 -0.294411 0.589306
-0.0653991 0.255481 0.589306
-0.117339 -0.151913 0.582632
-0.323608 0.0647315 0.582632
-0.0113039 0.0168909 0.582632
-0.0582809 0.074523 0.231004
0.105265 0.383773 0.581363
-0.0987523 -0.0845148 0.300215
-0.0685142 0.0709639 0.393489
-0.031174 -0.247692 0.589306
-0.00679212 0.0867765 0.231284
-0.019045 -0.251471 0.582632
0.187924 -0.113514 0.589306
0.0844671 0.0646347 0.406428
-0.229744 0.226416 0.589306
0.206442 -0.325083 0.582632
0.0949579 -0.386342 0.581363
-0.358171 -0.178623 0.582585
-0.249566 0.271086 0.589306
0.010116 0.337711 0.582632
-0.0976281 0.0729297 0.0708052
0.301954 0.111299 0.582632
0.170794 0.130971 0.582632
0.341684 0.140564 0.589306
-0.18561 -0.0932782 0.582632
-0.129815 0.192856 0.582632
-0.102125 0.0928553 0.589306
0.121249 -0.209204 0.582632
-0.0848994 0.0604653 0.210768
-0.167255 -0.166358 0.582632
0.235974 0.16577 0.589306
-0.234325 -0.0681496 0.582632
0.0234042 -0.135979 0.582632
-0.1265 -0.0386073 0.582632
-0.0450075 -0.0137344 0.220852
-0.218678 0.121376 0.582632
-0.192266 -0.3171 0.582632
-0.0782864 -0.0671429 0.100077
0.0469959 0.138899 0.589306
-0.123133 0.0294876 0.582632
-0.0973267 -0.0869836 0.063359
0.0871331 -0.0858875 0.524743
0.141979 0.229595 0.589306
-0.0776633 0.280845 0.582632
0.209297 -0.283781 0.582632
0.143126 -0.168132 0.589306
-0.159204 -0.197571 0.582632
-0.124816 -0.227651 0.582632
-0.35059 -0.132453 0.589306
-0.344122 -0.0619425 0.589306
-0.306704 -0.0535955 0.582632
0.229909 -0.310975 0.589203
0.278426 -0.058721 0.589306
0.310158 -0.0263689 0.582632
0.146289 -0.03771 0.589306
0.0597473 0.0684134 0.541432
0.102726 -0.0410173 0.589306
0.0230044 -0.0877943 0.589306
0.119558 -0.368131 0.583711
-0.164176 0.260089 0.589306
-0.0402147 0.0545488 0.231284
0.0869669 0.0674107 0.10142
-0.0579353 -0.0726473 0.220852
0.065138 -0.094926 0.0463743
-0.340858 -0.0310679 0.589306
-0.0127285 -0.0982876 0.226557
0.320008 0.219778 0.588571
0.0691996 0.0888682 0.39928
-0.327654 0.210351 0.58096
0.329233 -0.11368 0.582632
-0.0201022 0.208962 0.582632
-0.0683013 0.0780581 0.548176
-0.0972207 0.0710124 0.185091
0.358882 -0.0249783 0.589306
0.0812359 -0.0693956 0.274702
0.0279313 0.355798 0.589306
-0.0980158 0.0747538 0.2562
0.120197 -0.326337 0.589306
-0.174518 0.346781 0.590957
0.0856754 0.183856 0.582632
-0.158937 -0.256186 0.589306
0.211738 -0.147088 0.582632
0.0340807 -0.170304 0.582632
-0.331076 0.0199983 0.589306
0.0776567 0.0750167 0.589306
-0.161579 -0.301261 0.582632
0.0625366 0.0900093 0.589306
0.261387 -0.182517 0.582632
0.154897 0.0887466 0.589306
-0.038823 0.106712 0.582632
-0.262988 -0.222117 0.589306
-0.00551239 -0.0398902 0.582632
-0.324274 -0.015425 0.582632
-0.0910057 -0.267461 0.582632
0.0557457 -0.19499 0.582632
0.0899898 0.295534 0.582632
0.150584 0.141841 0.589306
0.255715 -0.0577892 0.589306
-0.0767064 0.0895201 0.345478
-0.266397 -0.153919 0.582632
0.0497963 -0.215341 0.589306
0.109564 0.134333 0.582632
0.331887 -0.220072 0.581363
0.269131 -0.277653 0.585256
0.310243 0.165774 0.589306
-0.266793 0.24743 0.589306
0.184088 0.175077 0.589306
0.00484594 0.133315 0.589306
-0.220664 0.189666 0.589306
-0.0924479 0.0637754 0.329325
-0.0368035 -0.111715 0.582632
0.22395 -0.263925 0.589306
0.276542 -0.195524 0.582632
-0.09058 -0.0673509 0.231414
-0.208021 -0.138459 0.582632
0.220136 0.0666797 0.582632
0.261695 -0.117997 0.589306
-0.00752914 -0.38349 0.58096
0.0583134 0.0708968 0.428866
-0.0710297 -0.0893733 0.180103
0.132153 -0.238539 0.589306
0.08835 0.0747488 0.348977
0.0862018 0.0820748 0.32635
0.0849672 -0.0294122 0.589306
0.309024 -0.15487 0.582632
0.37908 0.0165394 0.582632
0.061035 -0.0912313 0.126914
-0.0679527 0.0658354 0.589306
-0.124514 -0.361216 0.582632
0.178148 0.340875 0.582632
0.00284666 0.37834 0.589306
-0.225047 -0.0524325 0.582632
0.162339 0.18008 0.582632
0.0697556 -0.0963717 0.359231
0.0690313 0.0126591 0.582632
-0.0934025 0.309716 0.589306
0.0601009 0.067801 0.467583
-0.0707701 0.0658977 0.134883
-0.198691 -0.338525 0.596737
0.193229 0.0281985 0.589306
-0.0465103 -0.200621 0.582632
0.0519172 0.224951 0.589306
0.0824616 -0.0704993 0.414204
-0.0753862 0.0884737 0.30159
0.0849716 -0.0727596 0.152489
-0.1313 -0.00317323 0.589306
0.0571025 -0.176046 0.589306
-0.192258 0.152127 0.582632
0.190463 -0.336542 0.589306
-0.0949685 -0.0714882 0.252206
-0.245742 0.170079 0.582632
0.0648948 -0.094707 0.0711702
0.0469696 -0.0425463 0.231284
0.171814 -0.193827 0.589306
-0.12623 0.319206 0.589306
0.341908 0.0154545 0.589306
0.0578407 -0.0785612 0.0938616
0.243206 -0.227616 0.589306
0.0469259 0.0366016 0.582632
0.0686187 0.0887447 0.246366
0.215107 0.00123242 0.582632
-0.13428 0.063613 0.589306
-0.0988184 -0.0838459 0.542502
-0.0974412 -0.0867852 0.485444
-0.301928 -0.107873 0.589306
-0.0935849 -0.0699515 0.0358276
0.0127595 0.0617637 0.589306
-0.0915473 0.0874023 0.38601
-0.0849759 0.336026 0.589306
-0.0704191 0.00696442 0.231284
0.0295471 -0.333392 0.589306
-0.0151355 -0.0729639 0.582632
-0.074952 -0.130555 0.582632
-0.1855 -0.287448 0.582632
-0.0662108 -0.395744 0.583406
-0.122933 -0.135692 0.589306
0.0815185 0.0613601 0.254279
0.0834263 0.0863532 0.48117
-0.261786 0.0685648 0.582632
0.23568 0.0557933 0.582632
-0.164705 0.0356686 0.589306
-0.0844661 0.0604195 0.367484
0.282175 -0.117668 0.582632
-0.0867629 -0.336149 0.589306
-0.0100819 0.335455 0.582632
0.0756274 -0.0969838 0.273626
0.138796 -0.200953 0.589306
0.174834 0.0836664 0.582632
-0.241072 0.050286 0.582632
-0.183354 0.198126 0.589306
-0.182579 -0.206614 0.589306
0.150482 -0.0988649 0.582632
0.0595639 0.0814479 0.5098
-0.0583226 -0.165695 0.582632
-0.0371021 0.0194681 0.582632
-0.235048 -0.243074 0.582632
0.303779 0.00791701 0.589306
-0.139958 -0.0499785 0.589306
-0.0983799 0.0770157 0.555693
0.0905061 0.0406275 0.589306
-0.337705 -0.207321 0.581363
0.0498838 0.325786 0.589306
0.372535 0.109569 0.590911
0.0650902 0.0619618 0.386664
0.0948174 -0.0752168 0.582632
0.0452762 0.0554312 0.220852
0.362609 0.148004 0.595808
-0.0712416 -0.0896087 0.468715
-0.349404 -0.0907404 0.582632
0.198181 -0.0368579 0.582632
0.0675493 -0.277647 0.589306
0.0748021 -0.0670022 0.254178
0.209923 0.0969903 0.582632
0.102141 -0.186752 0.582632
0.292814 0.147907 0.582632
0.00899571 -0.335732 0.582632
-0.154354 0.192856 0.582632
-0.0285935 0.164251 0.582632
-0.0686345 -0.305846 0.582632
0.0881245 0.0726017 0.0215627
0.284889 0.0559364 0.589306
0.146357 0.371582 0.581941
-0.27181 -0.262238 0.582632
0.165685 -0.0409858 0.582632
0.0776056 0.325731 0.589306
-0.13243 -0.0929992 0.589306
0.318683 0.14695 0.582632
-0.0700481 -0.0747509 0.56254
0.0871795 0.0676468 0.195239
-0.061652 0.34176 0.582632
0.108551 -0.138104 0.582632
0.183983 0.00630814 0.589306
0.0629743 -0.0929776 0.435311
0.0511991 0.174896 0.582632
-0.0727445 0.063907 0.47244
-0.0809682 0.0600495 0.0814377
-0.0838979 0.24285 0.582632
0.0393426 0.0809138 0.589306
-0.38494 -0.0213381 0.582632
0.118704 -0.000715318 0.582632
-0.144943 0.377334 0.589509
-0.0809827 -0.0659423 0.35832
-0.0797195 0.131415 0.582632
-0.0308111 0.364847 0.589306
0.0655944 -0.399222 0.589447
0.110588 0.170977 0.589306
0.158455 0.268126 0.582632
-0.257628 0.303846 0.581391
-0.0454458 0.0301045 0.231284
-0.109879 -0.373493 0.594147
0.241984 -0.110175 0.589306
0.36666 0.0767263 0.582632
-0.0790846 -0.0953184 0.576612
0.111449 -0.288164 0.582632
-0.296744 0.18172 0.582632
-0.0749003 -0.0393936 0.220852
-0.0773637 0.0805866 0.589306
0.0832503 -0.12478 0.582632
-0.138693 -0.289437 0.582632
0.326498 -0.152651 0.589306
-0.0961994 0.0819236 0.167168
-0.285127 0.284586 0.593147
0.253813 -0.0963094 0.589306
0.0736973 -0.0668852 0.213863
0.0875592 -0.0849276 0.463598
-0.0326976 -0.292781 0.582632
-0.237703 -0.0192968 0.589306
0.251278 0.215787 0.582632
0.214788 0.263817 0.582632
-0.128698 0.276658 0.589306
0.186386 0.236883 0.589306
-0.253796 -0.279755 0.582632
0.289009 -0.207549 0.589306
-0.206488 -0.0527526 0.589306
-0.0320805 0.131485 0.589306
0.0801283 0.0607815 0.0655033
0.159398 0.21817 0.589306
-0.0623227 -0.0189337 0.582632
0.360128 0.107857 0.582632
-0.113729 -0.0984412 0.589306
-0.0115687 -0.346888 0.589306
-0.358976 -0.0255599 0.582632
0.253973 -0.00195567 0.589306
0.167912 -0.366174 0.594393
0.177606 -0.173139 0.582632
0.086275 0.081948 0.140097
-0.228491 0.0114795 0.589306
0.237017 -0.0250181 0.589306
-0.32446 -0.113133 0.589306
0.0847586 0.0845744 0.366781
0.267717 -0.231238 0.582632
-0.0345876 0.0597572 0.589306
0.0828008 -0.0708048 0.377187
-0.260563 -0.038827 0.589306
0.249657 -0.161418 0.589306
-0.0983563 0.0770686 0.276626
0.138393 0.105263 0.582632
-0.0836095 0.090245 0.325096
-0.0706858 -0.0889913 0.536902
-0.267456 0.0249219 0.582632
-0.0973876 0.079249 0.0488084
-0.0332201 -0.367941 0.582632
-0.0841998 -0.205249 0.589306
0.166891 0.0651402 0.582632
-0.0699273 0.0677904 0.0234392
0.0339223 -0.0289136 0.582632
-0.184079 -0.243957 0.582632
0.033705 -0.354225 0.589306
-0.174444 0.0506749 0.582632
0.384629 0.12323 0.586783
0.00102824 -0.367143 0.589306
0.126676 -0.381 0.595166
0.00877225 0.0571351 0.231284
0.110538 -0.101343 0.582632
-0.289083 -0.11941 0.582632
0.0552273 0.282458 0.589306
0.0710927 0.10886 0.589306
0.329344 -0.206379 0.592064
0.277902 0.128937 0.582632
0.155662 0.0280509 0.582632
-0.314708 -0.0317258 0.589306
-0.145337 0.140856 0.589306
0.0816846 -0.351306 0.589306
-0.172817 -0.122541 0.589306
-0.165745 -0.347817 0.582632
-0.117218 -0.299978 0.589306
-0.00298414 -0.00230248 0.582632
0.344304 -0.173699 0.589306
0.0607429 -0.00442203 0.582632
0.0263901 -0.0834742 0.220852
0.382626 0.0543124 0.582632
0.079736 -0.334236 0.582632
0.0329613 0.212526 0.589306
-0.0678947 0.0723549 0.286909
0.257274 0.0307031 0.589306
-0.227523 -0.189729 0.582632
-0.0725268 -0.361025 0.582632
-0.104257 0.147485 0.589306
-0.35881 -0.108391 0.582632
-0.307289 -0.226143 0.589306
-0.356596 0.0270625 0.582632
0.0589519 0.079611 0.222627
-0.0771395 -0.0949051 0.260568
-0.0879986 -0.222987 0.582632
0.300447 0.0647667 0.589306
-0.149338 -0.159675 0.589306
0.0654306 -0.0951894 0.159012
0.299586 -0.0659086 0.582632
0.218831 0.205039 0.582632
0.0864887 -0.0873397 0.0806731
-0.37794 0.138625 0.59427
0.0601566 -0.0674763 0.589306
0.32433 -0.0428786 0.582632
-0.205303 -0.172328 0.582632
-0.0687281 0.0800603 0.00714454
0.0612219 0.0658595 0.324191
-0.368258 0.0803955 0.589306
0.13606 0.198918 0.582632
-0.0977644 0.0784011 0.0125603
-0.0519443 0.194128 0.589306
-0.0224842 -0.12273 0.589306
-0.153247 -0.180848 0.589306
0.0861348 -0.0738069 0.22926
0.016377 -0.197502 0.582632
0.209113 -0.0920223 0.582632
-0.106898 -0.0380617 0.582632
0.015941 0.302519 0.589306
0.196637 0.280587 0.582632
-0.00717679 -0.272234 0.582632
-0.00516027 0.123965 0.582632
0.255438 0.237692 0.589306
0.00123794 0.215771 0.589306
0.390374 -0.0757647 0.581363
-0.252591 -0.116518 0.582632
-0.0969122 0.0803193 0.463774
-0.0856569 -0.0663052 0.189561
-0.107543 -0.316333 0.582632
0.0733571 -0.0668492 0.329749
-0.0727129 0.168651 0.589306
0.086947 0.0807842 0.460038
0.0368121 0.0728468 0.220852
-0.22831 0.301026 0.589306
0.0622493 0.387914 0.596609
-0.067842 0.0759042 0.267515
-0.197666 0.0582215 0.582632
0.0877358 0.0689 0.158715
0.0572581 -0.0805579 0.182276
0.0864807 0.0815918 0.115116
-0.118033 0.303048 0.582632
-0.0161444 0.162295 0.589306
-0.291544 -0.0166426 0.589306
0.0785892 0.0885071 0.0464687
-0.0612712 -0.0331404 0.231284
-0.0723433 -0.0707758 0.232791
-0.0859799 -0.0962732 0.507827
-0.0703948 -0.0741504 0.0587291
0.0640705 0.0293657 0.231284
-0.213287 0.0129337 0.582632
0.0545771 -0.251825 0.582632
-0.0932195 -0.0930492 0.144693
0.354083 -0.0521939 0.589306
-0.0909668 0.212963 0.582632
0.0331087 -0.0282356 0.220852
-0.337126 -0.136272 0.582632
-0.13618 0.0435712 0.582632
-0.024805 0.319166 0.582632
-0.189088 -0.00832857 0.582632
0.273778 -0.134382 0.589306
-0.0995756 0.251019 0.589306
0.383604 0.0903545 0.597237
-0.0871664 0.060705 0.459466
0.0856221 -0.0892923 0.501655
-0.0698942 -0.088112 0.0904276
-0.216887 0.0775619 0.589306
0.0271557 0.0549171 0.582632
-0.213015 0.342192 0.585421
0.401337 -0.0504638 0.588767
-0.0706172 0.0841798 0.143974
-0.286948 0.0177755 0.589306
-0.198548 -0.210233 0.582632
0.0646806 0.08713 0.272758
-0.0926376 0.0867746 0.0288444
-0.0764735 0.059541 0.230865
0.321158 -0.19513 0.582632
0.146095 -0.149202 0.589306
0.0495239 -0.0612923 0.220852
0.0429426 0.384218 0.58347
-0.329832 0.177447 0.582632
-0.0797984 -0.116582 0.589306
0.0769034 -0.0672247 0.44526
-0.0712377 0.0648476 0.153773
-0.206172 -0.0184731 0.582632
-0.254706 0.215076 0.589306
0.0616563 0.0837715 0.169441
0.113324 -0.249228 0.589306
0.268364 -0.250153 0.589306
-0.0537406 0.139038 0.582632
0.329944 0.12738 0.582632
-0.370957 0.108034 0.587149
0.0043276 0.152189 0.589306
0.0836898 -0.0716054 0.18855
0.00649711 -0.21919 0.582632
-0.0711546 0.0846637 0.505164
0.307861 0.0264092 0.589306
0.0903533 0.204143 0.589306
0.0917461 0.059544 0.589306
0.133969 -0.0609348 0.582632
0.0616937 0.0717418 0.582632
0.278951 -0.0397036 0.589306
0.0735009 0.0897824 0.201789
-0.0730678 -0.069521 0.139147
-0.29714 0.252084 0.583962
-0.0519658 0.00972521 0.231284
0.0876614 0.0681913 0.571446
0.108348 0.013041 0.589306
-0.194434 -0.0827026 0.589306
0.114413 0.303387 0.582632
0.0181332 -0.391026 0.5958
0.243027 -0.207126 0.582632
-0.0874981 0.0607401 0.141163
0.284856 0.0331464 0.589306
-0.239799 -0.292768 0.589306
0.39223 -0.0252113 0.58182
-0.205076 0.269203 0.589306
-0.282763 -0.162422 0.589306
-0.320342 -0.170944 0.589306
-0.0177731 -0.148874 0.589306
-0.107531 0.185817 0.582632
0.278497 -0.291204 0.593792
0.0817397 0.0935664 0.589306
-0.0966053 0.0810099 0.111137
-0.3261 -0.214406 0.595142
-0.174724 -0.0339405 0.582632
-0.102139 -0.231579 0.582632
0.13398 0.368035 0.595778
-0.168666 -0.235954 0.589306
-0.0394413 -0.0202808 0.582632
-0.0742164 -0.0689553 0.442325
-0.166459 0.0184813 0.582632
-0.0982548 -0.078479 0.126053
-0.0890519 -0.0135803 0.589306
-0.101213 -0.00378101 0.229786
0.05784 -0.0785628 0.363393
0.205287 0.137988 0.582632
0.153603 -0.119162 0.589306
-0.216197 -0.287874 0.589306
0.251853 -0.28989 0.589306
0.359117 -0.150007 0.593132
-0.089524 -0.0503486 0.589306
0.0815854 0.0212392 0.220852
-0.31392 0.0936378 0.589306
-0.197863 0.115109 0.582632
-0.165526 -0.0790571 0.582632
-0.282145 0.20106 0.582632
0.34305 -0.0852517 0.589306
-0.277015 0.0459473 0.582632
0.16565 -0.284606 0.582632
0.0764823 -0.0671801 0.533156
-0.119691 0.104178 0.582632
0.0671259 -0.381072 0.582632
-0.0984105 -0.079961 0.377256
-0.0686446 -0.0771817 0.270646
0.0810322 -0.0692122 0.0168559
-0.0983326 -0.0852415 0.562115
0.1018 -0.263743 0.582632
0.065655 -0.318543 0.589306
-0.192964 0.248964 0.589306
0.0887109 -0.369292 0.582632
-0.394203 0.03856 0.581363
0.0932043 -0.226754 0.582632
0.0646338 0.00117219 0.231284
0.0608068 0.0665784 0.0749371
-0.070625 0.0662237 0.044277
0.0632945 -0.0419432 0.220852
-0.382845 -0.117696 0.582953
0.0868903 -0.0769275 0.137667
-0.0449836 0.26429 0.582632
-0.32551 0.193373 0.58096
0.0769975 -0.0964207 0.242255
0.251421 -0.272847 0.582632
0.0666858 0.0883339 0.138486
-0.176508 0.290955 0.589306
0.188942 0.101299 0.589306
0.226129 0.311146 0.582632
-0.319809 0.00594223 0.589306
-0.0374629 0.202477 0.582632
0.0668012 0.0883584 0.322284
-0.154163 -0.0605609 0.582632
-0.00570361 -0.0380902 0.220852
-0.28063 -0.270866 0.594956
-0.0432569 0.178129 0.589306
0.31637 -0.240424 0.581363
-0.129508 -0.341276 0.582632
-0.0774748 0.0611731 0.416896
0.235317 -0.145784 0.582632
-0.0947824 -0.0712815 0.467504
-0.0943231 0.0660899 -2.77556e-17
0.311013 -0.247098 0.597237
-0.332532 0.226916 0.584737
-0.221688 -0.260528 0.589306
0.27398 0.1824 0.582632
0.0321416 0.314047 0.589306
-0.0409424 -0.394028 0.581363
0.00884417 0.0901097 0.582632
0.0591527 0.0809912 0.0865239
-0.0374331 -0.0482675 0.589306
-0.0590643 0.394759 0.58187
-0.0340444 0.0643518 0.220852
0.0584444 0.0747776 0.345696
-0.00299457 -0.0785379 0.231284
0.0682827 -0.0962181 0.389755
0.04451 -0.289303 0.589306
-0.0945784 -0.0917429 0.346458
-0.247024 0.0817956 0.589306
0.111682 -0.312151 0.582632
0.246185 0.0986044 0.589306
0.0732775 -0.184914 0.589306
-0.183012 -0.333882 0.582632
-0.32803 -0.152034 0.589306
0.224594 0.133798 0.589306
-0.364615 -0.141041 0.595422
0.198162 0.0054887 0.582632
-0.301356 -0.142295 0.582632
0.0883277 0.0745369 0.310524
-0.0927191 0.0640196 0.309071
-0.288634 -0.0834502 0.582632
0.0856669 -0.151155 0.589306
-0.0982489 0.075851 0.503761
0.0894054 0.393479 0.586756
-0.311686 -0.0705056 0.582632
0.0612735 -0.091446 0.471068
-0.0811445 0.0101985 0.589306
0.0900226 -0.321608 0.589306
0.340955 -0.140149 0.582632
-0.0910828 -0.0674577 0.0185916
0.105747 -0.0250226 0.582632
-0.117453 0.359457 0.589306
0.0413198 0.346578 0.582632
-0.0738318 -0.0691266 0.526738
0.076218 0.0599504 0.0826018
0.219317 -0.248361 0.582632
-0.302498 -0.209987 0.582632
-0.186859 -0.0741374 0.582632
0.402801 0.019618 0.593988
-0.153991 -0.131004 0.582632
0.0838519 0.0861448 0.297181
-0.106353 -0.138058 0.589306
0.373507 -0.04683 0.589306
0.334355 -0.187994 0.582632
0.164237 -0.172693 0.582632
0.173948 -0.0244491 0.589306
-0.0879619 0.0894663 0.540431
-0.15279 0.00582319 0.589306
-0.0232019 0.380476 0.589306
0.210908 0.324279 0.583584
-0.119403 -0.211162 0.589306
-0.0847948 0.0903695 0.451465
-0.0433091 0.372906 0.589306
-0.0505235 0.0607191 0.582632
0.317487 0.0545388 0.582632
0.0247315 -0.265487 0.589306
-0.0720726 0.0642953 0.51603
0.0421325 -0.136316 0.589306
0.168996 0.350335 0.592875
-0.145097 -0.219512 0.589306
0.0383478 -0.230262 0.589306
-0.19016 -0.134012 0.582632
0.200296 -0.228384 0.589306
-0.0697323 0.0682283 0.361441
0.0512099 -0.123086 0.589306
0.0290831 0.188999 0.589306
0.00537846 -0.396418 0.581363
0.151998 -0.209111 0.582632
0.0709241 -0.0221105 0.582632
0.339487 0.203693 0.581363
-0.327256 0.0815053 0.582632
-0.228268 -0.138915 0.589306
-0.265856 -0.30307 0.586306
0.0740465 -0.096819 0.528087
0.0286614 -0.376989 0.589306
-0.0908178 -0.0674014 0.296744
0.0207912 -0.0708566 0.589306
-0.0979759 -0.0858593 0.263229
0.35825 -0.175819 0.581663
-0.291255 -0.272599 0.581743
-0.201522 -0.262174 0.589306
-0.0807292 0.0899425 0.362029
-0.0247145 -0.326276 0.582632
0.0649846 -0.0690237 0.49157
0.0831092 0.0864944 0.551545
-0.1362 0.108188 0.589306
-0.083767 -0.280295 0.589306
0.168097 -0.125023 0.582632
0.0798389 -0.0947863 0.345656
-0.0246964 0.226168 0.582632
-0.266699 0.196377 0.589306
0.273763 -0.0838186 0.589306
0.105507 -0.0563434 0.582632
-0.150382 0.0839663 0.589306
-0.281073 -0.186513 0.582632
-0.0696642 -0.0754158 0.123666
-0.278579 -0.0347402 0.582632
-0.319685 0.168069 0.582632
-0.0681432 0.368974 0.589306
-0.280025 0.184236 0.582632
0.0770169 -0.0964095 0.117092
0.0870573 -0.0860583 0.196638
0.076593 0.310858 0.582632
-0.11954 0.23834 0.582632
0.372046 -0.121286 0.595392
0.0532741 -0.0815055 0.582632
-0.244115 -0.0544157 0.582632
-0.0307885 -0.0668735 0.582632
0.136234 -0.365232 0.584097
-0.0923119 0.0636529 0.244872
0.0751861 0.0900224 0.230903
0.208879 0.161644 0.582632
-0.0876472 0.378631 0.592519
0.0699932 -0.0963965 0.484583
0.221416 -0.0207998 0.582632
-0.120409 0.0705979 0.582632
0.184072 -0.351079 0.597237
0.195266 0.305286 0.582632
-0.0674254 -0.0798192 0.582632
-0.0243058 0.279245 0.589306
-0.10752 0.00890339 0.582632
-0.0229001 0.0492641 0.231284
-0.0561254 0.216198 0.589306
-0.0589702 -0.13432 0.589306
-0.0751573 -0.093958 0.204556
-0.0914864 -0.0676206 0.345395
-0.35098 0.00492737 0.582632
0.0838556 0.0639556 0.211376
-0.149098 0.349091 0.589306
0.170452 -0.209078 0.582632
0.196977 0.207017 0.589306
0.371532 0.131069 0.597237
-0.109226 0.316241 0.589306
-0.0878049 -0.361735 0.589306
-0.213849 0.221382 0.589306
-0.0729365 0.086268 0.411957
-0.0166685 -0.388682 0.593538
-0.0690906 -0.0855688 0.3975
-0.0904567 -0.0942795 0.374169
0.172133 0.31591 0.582632
-0.380986 0.091822 0.596346
-0.195024 0.0125388 0.582632
0.346359 0.18514 0.58096
-0.0960708 0.0822131 0.518958
0.178365 -0.150751 0.589306
-0.387642 0.048175 0.595418
0.125243 0.276051 0.582632
-0.0538311 -0.304058 0.589306
0.0266511 -0.0646034 0.220852
0.0803534 0.0877215 0.0157386
-0.288484 0.218795 0.582632
-0.095572 -0.0721586 0.51104
0.137725 0.149775 0.582632
-0.0930114 0.0642828 0.348864
-0.0709435 -0.0732001 0.476678
-0.136207 -0.326067 0.582632
0.0124224 0.322859 0.589306
-0.375964 -0.0565906 0.589306
0.0825249 -0.0611677 0.582632
0.250822 -0.305644 0.581363
-0.252283 -0.162251 0.582632
0.372555 -0.0104483 0.582632
-0.0489123 0.387227 0.594917
-0.369512 -0.133916 0.581546
0.0635321 -0.069865 0.117536
-0.0664403 -0.319812 0.589306
-0.346867 0.151928 0.582632
0.150938 0.368205 0.597237
-0.233821 0.132888 0.582632
-0.171991 -0.290625 0.589306
-0.0783268 -0.394436 0.594744
0.115944 0.369109 0.585353
-0.0995086 -0.164048 0.582632
-0.192467 0.337288 0.58658
-0.0140195 0.39196 0.582308
0.065938 -0.0956463 0.00571515
0.0234426 0.284831 0.582632
0.128466 0.0738267 0.582632
0.265924 0.218104 0.589306
-0.097298 -0.0740757 0.415382
-0.0721537 0.0642484 0.0944163
0.0597879 0.252651 0.582632
0.061707 -0.0234702 0.231284
-0.0942397 0.0653886 0.0566388
0.0866985 -0.0760216 0.292369
-0.134262 0.26296 0.582632
-0.0161972 -0.109363 0.582632
0.0819478 -0.0700367 0.172515
0.155117 0.252728 0.589306
-0.368364 0.142672 0.581363
-0.107266 -0.3891 0.587374
-0.389006 0.0762534 0.597237
-0.278191 0.122146 0.582632
-0.092092 -0.0935513 0.178713
0.274669 0.203061 0.589306
0.156936 -0.264188 0.582632
0.213984 -0.163057 0.582632
0.0503009 -0.399448 0.584338
-0.171906 0.359533 0.581441
0.147463 0.297492 0.589306
0.0758718 0.161618 0.582632
-0.0267982 -0.168452 0.582632
0.132128 0.00509694 0.589306
-0.339782 0.110757 0.589306
-0.0155826 0.0349593 0.231284
-0.0717816 -0.0717486 0.0377412
-0.0981355 0.0775657 0.375154
-0.0770289 -0.0948816 0.31508
0.310266 0.236312 0.594693
0.0629808 -0.0929835 0.259608
-0.149066 -0.31402 0.582632
0.0576994 -0.0748441 0.231284
-0.0968496 0.124723 0.589306
0.0794891 -0.0678227 0.0483862
-0.0604482 -1.81645e-05 0.220852
0.140802 -0.256991 0.589306
0.00849417 -0.0488509 0.582632
0.259327 0.289298 0.591578
0.224453 0.0388903 0.582632
-0.18166 -0.163953 0.589306
0.0722307 0.0895124 0.183617
0.387625 0.0325577 0.593059
-0.0779393 -0.095075 0.522782
0.325968 0.07366 0.589306
0.127693 -0.137824 0.582632
0.122823 0.23236 0.589306
0.183256 -0.0997855 0.582632
0.282366 0.00948705 0.582632
0.257338 0.0531005 0.589306
0.0172307 -0.122876 0.589306
-0.213241 -0.311939 0.582632
-0.218288 -0.107645 0.589306
-0.146769 -0.0949801 0.582632
0.0639157 0.0444023 0.220852
0.21835 0.0852307 0.589306
-0.289873 -0.230982 0.582632
-0.360287 -0.171737 0.596789
0.0151549 0.241821 0.589306
-0.0935524 0.0266168 0.231284
-0.0707938 -0.0734593 0.179788
-0.0403885 -0.264187 0.589306
-0.389965 -0.0554976 0.597237
-0.157732 -0.115581 0.589306
-0.331908 -0.100153 0.582632
0.0854945 0.379115 0.592334
-0.123967 0.21513 0.582632
-0.0958068 0.0828073 0.479417
0.0164506 0.164217 0.582632
0.0330047 0.0443085 0.589306
0.37314 -0.155053 0.587684
0.107459 0.222041 0.582632
-0.240102 0.215339 0.582632
0.0585475 0.0704914 0.452026
-0.233914 0.0937325 0.582632
-0.0751986 -0.0940039 0.421591
0.139525 0.247719 0.589306
0.244525 -0.0489605 0.589306
-0.262538 0.102951 0.582632
-0.0247205 -0.342108 0.582632
0.0679131 -0.343305 0.589306
-0.205048 -0.223027 0.589306
0.307705 -0.186714 0.589306
0.223401 0.0233116 0.589306
0.0875365 0.134886 0.582632
0.153787 -0.0255113 0.582632
-0.0295382 0.244804 0.589306
0.07785 0.0520801 0.589306
-0.0407868 -0.0830595 0.231284
0.213186 0.122335 0.582632
-0.306201 0.238869 0.58659
-0.0895419 -0.0671304 0.375138
0.0642008 -0.209011 0.589306
-0.0821486 0.0717535 0.579988
0.179192 -0.250137 0.589306
0.190219 0.339679 0.593805
0.256012 -0.197294 0.582632
0.0724339 0.178625 0.589306
-0.0899406 -0.0945094 0.216328
0.0885573 -0.0180186 0.226952
0.0896075 -0.0464934 0.582632
-0.190473 -0.179977 0.589306
-0.342979 -0.0153853 0.582632
0.0318523 0.0283018 0.220852
0.238876 0.320243 0.581982
-0.237599 0.260999 0.589306
-0.344535 -0.186283 0.58243
0.0308218 -0.298397 0.589306
-0.196221 0.194726 0.582632
-0.272024 -0.0913537 0.589306
-0.0792548 -0.0562508 0.231284
-0.0211697 -0.0402465 0.220852
0.307329 -0.0794684 0.582632
0.148688 0.278414 0.589306
0.226807 0.216668 0.589306
0.0805465 -0.0687748 0.461089
0.0579949 -0.0840116 0.0378228
-0.0683029 0.0780657 0.491328
-0.150615 0.163669 0.589306
0.00502078 -0.279272 0.589306
0.0684828 0.0604512 0.482394
-0.108304 -0.0673651 0.582632
0.00176903 0.0737789 0.231284
0.158991 0.35795 0.582755
0.192141 -0.291692 0.589306
0.0641468 -0.0695089 0.374359
-0.00856395 0.0725561 0.589306
0.235812 -0.255786 0.582632
0.0710751 -0.0965092 0.303094
0.0649973 0.0874818 0.43425
-0.098838 -0.0843663 0.0220634
-0.0129951 0.00450142 0.231284
-0.214189 -0.337857 0.596271
-0.309094 0.151943 0.582632
0.0483114 -0.321287 0.582632
0.0706245 0.354406 0.582632
0.035625 0.370584 0.582632
0.29499 -0.272308 0.583389
-0.0563775 0.280879 0.589306
0.175493 0.0398438 0.582632
0.196786 -0.150985 0.582632
0.0816123 -0.308648 0.589306
-0.057431 -0.359725 0.589306
0.381374 0.0726662 0.590735
0.0747287 0.33935 0.582632
0.303354 0.265095 0.594052
-0.0634465 0.1098 0.582632
-0.000100583 0.201935 0.582632
-0.124219 -0.255818 0.582632
-0.302984 0.0377089 0.582632
-0.0689463 -0.084195 0.0208426
0.0587688 0.0778669 0.314364
-0.290411 0.0495751 0.589306
-0.381887 -0.0768939 0.584071
-0.0154864 -0.086146 0.589306
0.228249 0.243254 0.589306
-0.0734258 0.0635132 0.548887
0.359408 0.140804 0.582632
0.360775 -0.138933 0.582632
-0.0442418 0.0312978 0.589306
0.0793069 0.258517 0.589306
-0.0240751 -0.234196 0.589306
0.277378 -0.218103 0.582632
-0.198366 -0.0980913 0.582632
-0.0467624 -0.220047 0.582632
0.0863726 0.0667508 0.236074
-0.0947955 0.0375874 0.582632
0.271178 0.0573715 0.582632
0.110306 0.206917 0.582632
-0.0955446 0.294552 0.589306
0.0585808 0.0760771 0.281425
-0.16958 0.139898 0.589306
0.000967431 0.394857 0.581363
0.0593559 -0.0751669 0.473922
0.374356 -0.101531 0.58963
0.0760308 -0.0671323 0.430014
-0.289827 0.109009 0.582632
-0.171995 0.243936 0.589306
-0.0508896 -0.0605134 0.231284
-0.326228 0.0512735 0.589306
0.100104 -0.27924 0.589306
0.0588042 0.0782038 0.154626
