0.362119 0.0975587 0.582632
-0.0906891 -0.0673741 0.487643
0.386176 -0.0548256 0.584131
-0.129504 -0.282676 0.589306
0.0345714 0.205235 0.589306
0.0602428 -0.373855 0.582632
0.15976 -0.117508 0.589306
-0.058865 -0.0820188 0.589306
-0.147233 0.295868 0.589306
0.195097 -0.25941 0.589306
-0.326135 -0.179426 0.582632
-0.268349 -0.0816612 0.589306
-0.0734126 0.0866967 0.560515
-0.0805044 0.0899189 0.190849
-0.368107 0.0337814 0.582632
-0.0161789 0.072274 0.589306
-0.114568 -0.206999 0.582632
-0.170469 -0.311266 0.582632
0.187624 -0.292902 0.589306
0.0283169 -0.0605793 0.220852
-0.0737505 -0.0691627 0.171966
-0.0146163 -0.202359 0.582632
-0.0676747 0.0751193 0.137835
0.220353 0.166757 0.582632
0.194916 -0.215246 0.589306
-0.100843 0.340869 0.589306
0.057377 -0.0811152 0.499023
-0.0506015 0.0119247 0.582632
-0.09783 0.0782534 0.343587
-0.0873769 -0.228272 0.589306
-0.189301 -0.042011 0.589306
0.0623547 -0.0924196 0.426683
0.0804115 0.0608417 0.353873
0.0879377 -0.0840746 0.393214
0.388121 -0.0315428 0.584378
0.21959 -0.0353444 0.582632
-0.0354914 0.27091 0.582632
-0.155478 0.0359895 0.582632
0.352118 -0.017639 0.582632
-0.0142928 0.262224 0.589306
-0.0743046 0.0874998 0.402298
0.067063 0.0884141 0.445759
-0.315089 0.204763 0.582632
0.0826571 0.383571 0.582088
0.266115 0.276318 0.582632
0.0590081 0.0801461 0.333357
0.121756 0.191823 0.582632
0.286767 -0.0684842 0.589306
-0.291965 -0.20048 0.589306
0.198807 -0.30393 0.582632
-0.0967364 0.388009 0.596174
-0.361779 -0.12587 0.589306
0.0645395 0.0869734 0.448091
-0.113806 -0.0967604 0.589306
-0.389826 -0.0834265 0.596991
-0.102483 0.0378059 0.589306
0.0686052 0.0566014 0.226281
-0.240872 0.163187 0.582632
0.1511 -0.353541 0.582632
-0.0471562 -0.0259071 0.582632
0.0111625 -0.391198 0.582796
-0.0577593 -0.00386622 0.231284
0.25909 -0.0158948 0.589306
0.193848 0.146699 0.589306
-0.145913 0.077127 0.589306
-0.0166753 0.191133 0.582632
0.140927 -0.362564 0.585273
-0.0559476 -0.0491483 0.231284
-0.364258 -0.0939735 0.589306
-0.0764015 -0.321211 0.589306
0.197617 0.169734 0.582632
0.0480642 0.154736 0.589306
-0.0828905 0.0602528 0.204437
-0.02795 -0.0805759 0.231284
-0.189358 -0.23524 0.589306
0.0771391 -0.0672497 0.399266
-0.0689365 0.0810378 0.49134
0.0859021 -0.0886614 0.327827
-0.359908 0.144572 0.590392
0.0695759 0.0889482 0.298526
0.0657953 -0.0955179 0.497222
-0.209684 0.213134 0.582632
-0.187865 -0.181443 0.589306
-0.0956064 0.0832583 0.570469
0.051897 -0.355316 0.589306
-0.0691659 0.0821138 0.171262
0.0856436 -0.0430355 0.582632
0.200787 0.268364 0.589306
0.0362762 -0.381981 0.582632
0.214434 -0.239015 0.589306
0.227046 -0.0288166 0.582632
-0.140776 -0.299157 0.589306
-0.0738054 -0.0924564 0.166683
0.0623494 0.0639067 0.512925
0.0480765 0.240057 0.582632
-0.0947808 0.112179 0.589306
-0.282685 0.183324 0.582632
-0.0226985 -0.0867077 0.589306
-0.0913511 0.357927 0.589306
0.0110518 0.00125825 0.231284
0.295414 -0.0817451 0.582632
0.316609 0.189356 0.582632
0.398169 -0.0658855 0.586476
-0.0235993 -0.0510076 0.589306
0.39053 0.0389334 0.59646
-0.122183 -0.204678 0.582632
-0.0952075 0.0841563 0.537295
-0.0072071 0.0722133 0.582632
-0.0694726 -0.0757475 0.492448
-0.0577501 0.22718 0.589306
0.062093 0.0643508 0.536365
0.0532902 -0.161557 0.582632
0.0870907 -0.0859832 0.494049
-0.137638 -0.04844 0.582632
0.0527355 0.0355962 0.582632
-0.0517353 -0.00121118 0.220852
-0.206127 -0.0585067 0.589306
-0.147931 0.157472 0.582632
-0.179727 0.329068 0.589306
0.0757997 -0.371027 0.589306
0.0871444 -0.0781278 0.419932
0.185949 -0.181889 0.582632
0.21854 -0.300548 0.582632
-0.310728 -0.248071 0.581363
-0.348686 0.16164 0.582632
-0.0789611 0.0603141 0.512461
-0.0193945 0.177052 0.582632
0.0105315 0.0414859 0.589306
-0.0773949 0.0895924 0.338858
-0.206183 0.0353465 0.589306
0.0866014 -0.0755628 0.346695
0.261604 0.162231 0.582632
-0.257528 -0.0397493 0.582632
0.283207 -0.207461 0.582632
-0.241355 -0.323143 0.586481
-0.275028 0.0262201 0.582632
0.399879 0.031801 0.583139
0.0875754 0.0796959 0.223142
0.195666 -0.270202 0.582632
-0.0886696 0.0890589 0.40378
0.270385 -0.0812789 0.589306
0.373377 0.141423 0.596804
-0.274905 0.292594 0.583405
-0.139412 0.0109501 0.589306
0.102942 0.138694 0.589306
-0.296722 -0.0127433 0.582632
-0.0675032 0.0743149 0.194169
-0.0787552 0.0604331 0.364914
0.148029 -0.0136944 0.582632
0.0899993 -0.0496584 0.589306
0.0140007 0.392533 0.58096
-0.0369598 -0.0934709 0.229622
0.0353066 -0.189491 0.582632
-0.131596 0.0553313 0.582632
-0.0150241 0.323827 0.589306
0.104262 0.0363088 0.582632
0.212114 -0.169306 0.589306
-0.0578505 -0.0840762 0.589306
0.0787436 -0.0954164 0.182278
0.0876095 -0.0848142 0.1478
-0.358369 0.127707 0.589306
-0.195562 0.0399029 0.582632
0.0790789 -0.0952235 0.102825
0.280036 -0.268741 0.589784
-0.0470898 0.147745 0.582632
0.0283269 -0.00184003 0.220852
-0.0364592 0.272583 0.582632
0.0821316 -0.118075 0.589306
-0.0698535 -0.0752013 0.579988
-0.313293 0.0012518 0.589306
-0.0906948 0.087893 0.441022
0.0653131 0.0692266 0.582632
0.230394 0.22115 0.582632
0.0758727 0.059877 0.393325
0.108844 0.0573472 0.582632
0.0803962 0.0608384 0.470393
0.17528 -0.187379 0.582632
0.0784286 -0.0955975 0.282769
0.141169 0.362307 0.592879
-0.238583 0.0858286 0.582632
0.125414 -0.266428 0.582632
-0.0132458 -0.0912163 0.220852
-0.268108 0.00207754 0.582632
-0.312912 0.0762904 0.582632
0.143685 -0.136332 0.582632
-0.162904 0.0613453 0.582632
0.0648757 -0.00898063 0.589306
-0.0214711 -0.0542749 0.220852
-0.0240957 0.118814 0.589306
0.188287 -0.186327 0.582632
0.00675021 0.10837 0.589306
-0.0234552 -0.00911497 0.220852
0.113865 -0.371857 0.593279
0.111877 0.289303 0.582632
0.158812 0.29945 0.582632
-0.0855486 0.0904486 0.0551875
0.274422 -0.105369 0.582632
-0.313258 -0.254648 0.588213
0.00120342 -0.0174942 0.582632
0.294408 0.0147844 0.589306
-0.0275713 -0.345738 0.582632
-0.215436 -0.244066 0.582632
0.218243 -0.283986 0.582632
-0.0885118 0.041504 0.226248
0.0903406 0.0665594 0.582632
-0.345605 0.203048 0.583091
-0.0115176 -0.12055 0.589306
0.298785 -0.103172 0.589306
-0.0649693 -0.0548029 0.231284
0.15267 -0.216041 0.589306
0.321214 -0.0762677 0.582632
-0.0979498 -0.0755741 0.196219
0.161746 -0.145163 0.589306
-0.0459978 -0.132781 0.589306
0.0519587 -0.309221 0.589306
0.0310526 -0.11114 0.582632
0.0878654 -0.0815332 0.54383
-0.341605 -0.193931 0.58163
-0.230574 -0.101891 0.582632
-0.0886967 -0.101805 0.589306
0.0779618 -0.095866 0.0136901
-0.209314 -0.115789 0.589306
-0.255808 0.251932 0.589306
0.3385 0.190493 0.581016
0.229862 -0.206454 0.582632
0.0057769 -0.364485 0.589306
-0.249981 -0.192062 0.582632
0.0089072 -0.17891 0.582632
-0.0682971 0.36373 0.589306
0.229055 -0.216913 0.589306
-0.0793609 0.191529 0.589306
0.284504 0.097294 0.582632
0.0796582 -0.067975 0.359802
0.119647 -0.13613 0.589306
0.368259 0.0802486 0.589306
0.273984 0.0822399 0.582632
-0.216141 0.115707 0.589306
0.0579714 -0.0839017 0.00630809
-0.014232 0.016548 0.582632
0.336797 -0.125249 0.589306
-0.271753 0.283589 0.596805
0.0385748 -0.281752 0.589306
0.0346395 0.19936 0.582632
-0.000158429 -0.210309 0.582632
-0.113973 -0.0314637 0.582632
-0.0900037 0.0252133 0.589306
-0.218141 -0.269489 0.582632
0.00579012 -0.340898 0.589306
-0.0219838 0.198268 0.589306
0.0629339 0.166215 0.589306
0.0881466 -0.0828618 0.0402596
0.061373 -0.0915356 0.116814
0.110228 -0.155512 0.589306
0.33712 -0.0685106 0.589306
0.400114 0.046025 0.594364
0.0185188 0.14392 0.589306
-0.0699617 -0.088187 0.207158
-0.121038 0.199189 0.582632
-0.0916421 -0.102008 0.589306
-0.313593 0.136231 0.589306
0.056452 0.263592 0.582632
0.00148759 0.0206223 0.220852
0.298059 -0.01164 0.582632
0.178463 0.30016 0.582632
-0.0596315 -0.0547352 0.582632
0.0861348 0.0821909 0.105755
0.0864147 -0.0746809 0.00982213
-0.00988261 0.368592 0.582632
-0.229976 -0.175932 0.589306
-0.0483476 0.222603 0.589306
0.0270333 -0.382564 0.589306
0.0619688 -0.0920722 0.547664
0.0649181 0.0839282 0.579988
-0.135839 -0.178445 0.582632
0.271 0.00520092 0.582632
-0.0828391 0.0602474 0.353327
0.00342033 -0.396824 0.597237
0.293815 -0.0721272 0.589306
-0.048428 -0.0217656 0.589306
-0.0755553 -0.0683591 0.148256
0.17203 -0.163471 0.589306
-0.245515 -0.277916 0.589306
0.300607 -0.140695 0.589306
-0.0961801 -0.0889692 0.44931
0.107969 -0.142596 0.582632
-0.384069 0.042003 0.587918
-0.354352 -0.115637 0.589306
0.00550193 0.000119403 0.589306
-0.0760601 0.0711776 0.589306
-0.379815 -0.012242 0.589306
-0.0952472 -0.0717978 0.507127
0.317375 0.225795 0.594298
-0.335864 -0.173459 0.589306
0.0608952 -0.0717187 0.466091
0.092985 -0.0262759 0.589306
-0.0705978 0.0841624 0.48895
-0.290958 -0.240048 0.589306
0.0880052 0.0789516 0.555379
-0.306373 -0.159611 0.582632
-0.188927 -0.0616794 0.589306
-0.11958 0.385322 0.586121
0.128686 0.0863414 0.582632
0.274658 0.0996017 0.589306
-0.0414639 -0.0858334 0.589306
0.207297 -0.123868 0.589306
0.164541 -0.0457272 0.589306
0.371451 -0.157974 0.586038
-0.0901852 -0.359894 0.582632
-0.111671 -0.0405938 0.582632
0.252912 0.308561 0.58153
0.033806 0.189189 0.589306
0.0273702 -0.186414 0.582632
0.00286877 -0.0769311 0.589306
0.186522 -0.252436 0.589306
0.0136095 0.204804 0.589306
-0.287087 -0.230653 0.582632
0.018535 0.356098 0.582632
0.0697767 0.00565648 0.231284
-0.0989536 0.259446 0.589306
0.350211 -0.0401479 0.582632
0.0632392 -0.0700346 0.280527
0.0290608 -0.38781 0.592459
0.0118382 -0.145611 0.589306
-0.0964628 -0.073148 0.148125
0.342089 -0.205508 0.581671
-0.246695 0.0264054 0.582632
-0.189377 0.355053 0.594467
-0.273011 -0.0501827 0.589306
0.147604 -0.193209 0.589306
-0.193179 -0.230822 0.582632
0.0806314 -0.0688513 0.466706
-0.0407902 -0.0509697 0.589306
-0.0978077 0.0783035 0.515791
-0.0973992 0.0718524 0.523353
-0.274318 0.0577415 0.589306
0.313058 0.143562 0.582632
0.29645 -0.131202 0.582632
-0.23765 -9.53443e-05 0.582632
-0.292563 0.147445 0.582632
0.106219 -0.363528 0.589306
0.289243 0.0584841 0.582632
-0.369636 -0.0576182 0.582632
0.332582 -0.033694 0.582632
-0.0985158 0.098041 0.582632
-0.253367 -0.00870962 0.589306
-0.0075441 -0.239129 0.589306
-0.117976 0.110007 0.589306
0.334294 0.0204458 0.589306
0.0584906 0.0752183 0.498835
-0.126675 -0.242506 0.589306
-0.161276 0.183657 0.582632
-0.0597745 0.298803 0.582632
0.210609 -0.0542783 0.589306
0.122405 -0.237414 0.582632
-0.00225303 0.40354 0.586708
-0.0687529 -0.0823527 0.395021
-0.218144 -0.0997282 0.582632
-0.256333 -0.284613 0.582632
-0.0696756 -0.0753959 0.236335
0.205131 -0.222381 0.589306
-0.276696 0.0877996 0.589306
-0.179444 -0.104299 0.582632
-0.357254 -0.147909 0.588367
0.103602 -0.042465 0.589306
-0.0110714 -0.0941533 0.231284
-0.15034 0.129614 0.589306
-0.0155269 -0.243532 0.589306
-0.0364391 0.0323298 0.231284
-0.16741 -0.121339 0.582632
-0.0978843 0.307178 0.589306
-0.37179 -0.0292644 0.582632
-0.367002 -0.132178 0.594933
0.238846 -0.212327 0.589306
-0.00535797 0.388435 0.591313
0.177232 0.13179 0.589306
-0.148096 -0.329884 0.582632
-0.0145953 -0.289325 0.589306
-0.0752382 0.394302 0.595196
-0.268534 -0.223675 0.582632
0.0990998 -0.0025382 0.589306
-0.125184 -0.265084 0.589306
0.0669595 -0.0960802 0.185333
0.381582 -0.069961 0.585465
-0.357945 -0.178461 0.596221
-0.00876015 0.222038 0.589306
-0.141283 0.170312 0.582632
0.168421 0.34163 0.582632
-0.0901611 -0.0105329 0.582632
0.0196852 -0.0424557 0.220852
-0.0954772 0.0835493 0.295962
-0.3894 0.092972 0.595727
0.196829 -0.22004 0.582632
-0.07738 0.0895908 0.338314
-0.00132115 0.0933829 0.589306
0.0375611 0.193408 0.582632
0.356388 0.0387916 0.582632
-0.168934 -0.342336 0.589306
-0.18442 -0.0970849 0.589306
-0.0983739 -0.0796127 0.239401
-0.00761691 -0.0758785 0.582632
0.0967815 -0.196877 0.582632
-0.0975048 0.0789854 0.234797
0.0570643 -0.367449 0.582632
-0.0068644 0.138664 0.582632
0.261189 0.219671 0.582632
0.139823 0.330104 0.582632
0.289144 0.104409 0.589306
-0.022557 0.03118 0.231284
-0.0931351 0.064394 0.371142
-0.169761 0.304968 0.589306
0.381072 -0.00613083 0.582632
-0.202741 -0.236682 0.582632
0.177769 0.323114 0.582632
-0.174446 -0.347044 0.591597
-0.223735 0.186376 0.589306
0.0566993 -0.365816 0.589306
0.183675 0.172277 0.582632
0.350262 -0.022904 0.589306
0.165738 -0.254113 0.589306
-0.126673 -0.12164 0.589306
-0.204059 0.0454896 0.589306
0.29979 -0.119954 0.589306
0.0874283 -0.0794686 0.14945
-0.0288424 0.0618797 0.582632
-0.104089 0.242006 0.582632
0.120829 0.266631 0.582632
0.307156 0.136284 0.582632
-0.272521 -0.246724 0.589306
-0.0534549 0.113544 0.589306
-0.00102147 -0.0287178 0.582632
0.252309 0.0064014 0.589306
-0.239022 -0.150508 0.589306
0.201825 -0.197296 0.589306
-0.0516873 0.273716 0.589306
0.213624 0.324994 0.593061
0.115565 0.13947 0.582632
0.0584418 -0.086107 0.199697
0.0813415 -0.0694907 0.15208
-0.260337 -0.121926 0.589306
0.0925674 -0.261817 0.582632
0.203189 -0.224828 0.589306
-0.0913529 0.00211665 0.220852
-0.119936 -0.0689639 0.589306
0.0236652 0.0373825 0.582632
0.140164 0.0442703 0.589306
-0.1462 0.12223 0.582632
-0.0850844 -0.0713372 0.582632
0.0151248 -0.0734959 0.231284
0.228738 0.0555324 0.589306
0.00529334 0.068958 0.589306
-0.279912 -0.161024 0.582632
-0.0807595 0.0600274 0.431826
0.349834 -0.134688 0.589306
-0.159947 -0.17025 0.582632
-0.0111243 -0.251582 0.589306
0.158962 -0.0289647 0.589306
-0.109903 -0.129456 0.582632
-0.133591 -0.0980185 0.589306
-0.0364622 0.0643752 0.582632
0.028712 0.179333 0.589306
0.377928 -0.0499788 0.582632
-0.047084 -0.0536203 0.220852
0.0616367 0.00686914 0.231284
0.148009 0.0355636 0.582632
-0.36478 0.155743 0.597237
-0.038525 -0.135404 0.589306
-0.070587 -0.0738174 0.0825008
0.395967 0.0221803 0.581363
0.298487 0.260604 0.581363
0.0580857 -0.0780124 0.536857
-0.354303 0.107831 0.589306
0.0261827 0.385319 0.582632
0.00484225 -0.291455 0.589306
0.114731 -0.29017 0.582632
-0.0836352 0.0902477 0.391723
0.218469 -0.246562 0.589306
0.340835 -0.0508654 0.589306
0.158317 -0.335394 0.582632
-0.224952 -0.17368 0.589306
-0.0826359 0.0274515 0.220852
0.239832 -0.0508605 0.582632
0.074282 -0.0105587 0.220852
0.159105 0.343298 0.582632
-0.0746918 0.0878484 0.147562
-0.185113 -0.222096 0.589306
0.266725 0.102134 0.589306
-0.251764 -0.229863 0.582632
-0.337127 -0.178913 0.589306
-0.321038 -0.0791486 0.589306
-0.0765499 -0.0679162 0.162898
-0.287982 0.0948091 0.582632
0.059442 -0.0749739 0.123839
-0.270938 0.253995 0.589306
0.270219 -0.203857 0.582632
0.269987 -0.161325 0.589306
0.0297754 -0.0929498 0.22229
0.304413 -0.0317679 0.589306
0.284252 -0.197027 0.582632
0.310365 -0.0757223 0.589306
0.0586703 0.206947 0.589306
0.323692 0.130245 0.582632
-0.246019 -0.279602 0.589306
-0.239684 0.202262 0.582632
0.00483787 0.11986 0.582632
0.397361 -0.0353231 0.581547
-0.220906 0.281662 0.589306
-0.0452719 0.0545803 0.582632
-0.0670122 0.395456 0.583291
-0.0417385 -0.0300454 0.582632
0.224351 0.0335322 0.589306
-0.227152 -0.156354 0.582632
-0.0656786 -0.0499599 0.589306
-0.351037 -0.198983 0.591054
-0.270594 -0.0910193 0.582632
-0.0276823 0.385445 0.589306
-0.0819566 -0.344282 0.582632
0.0768897 -0.0964827 0.48851
-0.0825819 -0.219135 0.582632
-0.0859348 -0.0475968 0.582632
0.0701643 0.0597024 0.00340649
-0.136213 0.373603 0.581363
-0.0746251 -0.0687733 0.0983913
0.35599 0.0982131 0.589306
-0.282239 -0.228302 0.582632
-0.377025 0.136792 0.583288
0.0880163 -0.0838976 0.170369
0.344555 -0.0056913 0.589306
0.0603132 -0.311044 0.589306
0.21252 0.205648 0.582632
-0.131328 0.0780588 0.589306
0.235486 0.0312607 0.582632
0.161294 -0.0103682 0.589306
0.0759465 -0.0671234 0.446221
0.209196 -0.190076 0.582632
0.306671 -0.242059 0.58353
0.0754619 0.0898997 0.0706453
0.343583 -0.191076 0.596767
-0.320014 -0.147144 0.589306
-0.181326 -0.331829 0.589306
-0.223141 -0.290555 0.589306
0.0944131 -0.322779 0.582632
-0.0765416 0.0617124 0.395478
0.100391 0.341427 0.582632
0.32257 0.220163 0.583714
0.0598008 -0.0741702 0.400304
0.0738377 -0.0669001 0.405528
-0.0501158 -0.0140845 0.589306
0.0882999 0.241977 0.582632
-0.0361934 -0.323659 0.582632
-0.0205176 0.150558 0.582632
0.0824483 -0.0704874 0.301979
0.298641 -0.265646 0.582142
-0.0756721 0.088731 0.243304
-0.0131154 -0.387741 0.588721
0.272866 0.00562946 0.582632
-0.0570105 0.262201 0.582632
0.192752 0.0395311 0.589306
-0.382464 0.123742 0.584072
-0.0983816 -0.0796865 0.41972
0.190343 0.0367572 0.589306
0.0115567 0.372396 0.582632
0.330137 -0.107035 0.582632
-0.0974417 0.0720523 0.3085
0.0232003 0.0678875 0.589306
0.191599 0.250043 0.589306
-0.0675306 0.0744436 0.364215
-0.266736 -0.101401 0.589306
0.068689 -0.0369115 0.582632
0.0803065 0.0608194 0.349214
-0.0938287 0.0650186 0.522598
-0.0232356 -0.0366649 0.582632
-0.0394376 -0.331932 0.589306
0.125515 0.183627 0.589306
-0.179635 -0.0198146 0.589306
-0.122848 -0.0665811 0.589306
-0.0688257 -0.0768679 0.194227
0.34971 0.0622858 0.582632
-0.0669065 -0.376747 0.582632
-0.207394 0.0725027 0.582632
0.149429 0.281071 0.582632
-0.172169 -0.167111 0.589306
-0.131175 -0.143009 0.582632
-0.265713 -0.158341 0.589306
0.0643083 -0.0941788 0.382394
-0.355582 0.188571 0.59418
-0.0481019 -0.3573 0.582632
-0.0237979 -0.0869917 0.589306
0.22906 0.331699 0.593877
0.310231 -0.163074 0.589306
-0.032065 0.178486 0.589306
-0.114482 0.0554886 0.582632
0.241824 -0.197146 0.589306
-0.254731 0.141888 0.589306
0.0596144 0.228374 0.589306
-0.180172 -0.36134 0.587615
-0.102624 0.199293 0.582632
-0.254906 -0.092489 0.582632
0.329519 -0.206894 0.58096
0.0822906 -0.194301 0.582632
-0.0832084 0.0602864 0.252595
0.0788903 0.088373 0.0075252
-0.349488 0.170552 0.59283
-0.174949 -0.0980181 0.582632
0.207725 0.288265 0.582632
-0.226355 -0.313164 0.589185
0.157492 0.126406 0.589306
0.319813 -0.130899 0.589306
-0.184576 0.280703 0.589306
0.171681 0.113936 0.589306
-0.336751 0.200951 0.58096
-0.18939 0.0487113 0.582632
-0.109289 -0.154644 0.589306
-0.0278428 -0.0595651 0.589306
0.126867 -0.0719833 0.582632
-0.0338867 -0.320348 0.589306
0.266142 0.0350807 0.582632
-0.129777 0.156623 0.589306
-0.378736 0.0854716 0.592102
0.00352824 -0.0813622 0.589306
-0.0965924 -0.0732919 0.376923
-0.303554 -0.239988 0.585514
0.0934406 -0.266414 0.582632
0.0680454 0.00365965 0.231284
-0.139508 -0.0593041 0.582632
-0.080626 -0.264939 0.582632
-0.121115 0.175012 0.582632
-0.142599 0.0931957 0.582632
-0.241493 -0.159655 0.582632
0.0985694 -0.104993 0.589306
-0.00209023 0.294367 0.589306
0.223522 0.227331 0.589306
0.0652732 -0.0688565 0.518673
-0.125945 0.116366 0.582632
0.0370743 0.262961 0.589306
0.237001 0.0652556 0.582632
0.0453665 0.300288 0.589306
-0.0144443 0.0829663 0.231284
0.259188 0.187185 0.582632
-0.071082 -0.0729602 0.380576
0.152194 0.373878 0.591263
0.061246 0.0658178 0.148553
0.243122 -0.130084 0.589306
0.249776 -0.125351 0.589306
-0.123351 -0.144326 0.582632
0.152043 0.110871 0.582632
0.147679 0.239787 0.582632
-0.0143032 0.386685 0.583626
0.380041 0.135596 0.586186
0.0611116 -0.366695 0.589306
-0.033731 -0.116782 0.589306
0.144405 0.0612594 0.589306
0.169289 0.0587373 0.582632
-0.0889177 -0.0949649 0.474579
0.0098432 -0.0832853 0.582632
-0.0957287 -0.00795534 0.220852
0.0190762 0.0981393 0.582632
0.0852498 0.0655038 0.544222
-0.0947073 -0.0915196 0.354549
0.0882953 0.0742281 0.459194
-0.0998175 0.288558 0.589306
-0.0579124 -0.055547 0.582632
0.0843764 -0.0722236 0.407104
0.000373036 0.203563 0.582632
-0.0747158 -0.306393 0.589306
-0.256957 -0.00662159 0.582632
0.0430038 -0.00593215 0.582632
0.112647 -0.347118 0.589306
0.184092 0.042864 0.582632
-0.326164 0.155377 0.582632
0.0662241 0.269063 0.589306
0.387732 -0.0999763 0.582571
0.127548 0.176743 0.589306
0.0164534 0.319015 0.582632
0.0132964 0.122705 0.589306
0.299891 0.125123 0.589306
0.0645765 -0.0944203 0.216566
-0.0195791 -0.0331796 0.231284
-0.0537822 0.114743 0.582632
-0.17024 -0.0120949 0.589306
-0.0735237 0.0634566 0.0288276
-0.203589 -0.216878 0.582632
0.1144 -0.314151 0.582632
0.130371 -0.0597701 0.589306
0.211815 0.00482049 0.582632
-0.0316676 -0.0152475 0.589306
0.17204 -0.0812851 0.582632
-0.095707 -0.0723085 0.39727
0.0690276 0.0888316 0.532038
0.0422799 -0.23731 0.589306
0.116289 0.20715 0.582632
0.192073 -0.337107 0.589234
0.252623 -0.117631 0.582632
-0.106587 -0.127673 0.589306
-0.0487564 -0.0539197 0.582632
-0.012917 0.0912888 0.222509
0.16793 -0.294898 0.589306
0.173528 0.225039 0.582632
-0.0286198 -0.0306679 0.231284
0.0793184 0.0606094 0.1391
-0.00252002 -0.0827671 0.220852
0.174517 -0.345025 0.582632
-0.0173325 0.0460516 0.231284
-0.0271435 0.310616 0.589306
0.0309837 0.260017 0.589306
-0.321047 0.0101019 0.589306
0.0616065 -0.091746 0.259322
0.0945681 -0.0106741 0.589306
0.0839287 -0.092434 0.329382
-0.0923137 0.0636546 0.471475
0.145477 -0.159906 0.582632
-0.110445 -0.0106249 0.589306
-0.100329 0.0917069 0.582632
-0.0862365 -0.0820993 0.579988
0.19605 -0.0123213 0.589306
0.161204 0.313458 0.582632
-0.0184498 0.189804 0.582632
-0.242749 0.306946 0.582895
0.194693 -0.144392 0.589306
-0.236718 -0.142026 0.582632
0.00832876 -0.0593957 0.231284
-0.0944067 0.0857561 0.13174
0.102127 0.30124 0.589306
-0.00326797 0.00294917 0.582632
-0.185655 -0.330573 0.582632
0.101774 -0.372898 0.588456
0.332443 -0.178795 0.582632
0.113069 -0.216282 0.582632
0.0821353 0.0260232 0.582632
-0.0218753 -0.268277 0.582632
-0.400116 0.018697 0.595573
0.0855967 -0.0893495 0.363712
-0.0770493 0.0985719 0.582632
-0.0556247 -0.169813 0.582632
-0.162766 -0.283374 0.582632
0.0164293 0.0469542 0.582632
0.000652075 -0.0575489 0.582632
-0.0731769 -0.0917583 0.0709145
-0.0733647 0.14444 0.589306
-0.0183526 -0.0467542 0.582632
-0.0363513 -0.221506 0.582632
0.374874 -0.00551231 0.589306
0.262339 -0.0308022 0.582632
-0.268282 -0.115284 0.582632
-0.346759 0.00676847 0.582632
0.361793 0.131582 0.589306
0.0841468 -0.0923085 0.264751
0.0571589 -0.0180229 0.231284
-0.179924 0.260353 0.582632
0.180336 -0.224213 0.582632
0.177539 0.267446 0.582632
-0.100207 -0.355849 0.582632
0.0172753 -0.321185 0.582632
-0.264348 -0.261532 0.589306
-0.0700224 -0.0747954 0.492022
-0.215591 0.132866 0.582632
0.173937 -0.159988 0.589306
-0.167408 -0.15423 0.589306
-0.0690186 0.0814225 0.0574912
-0.143803 0.292396 0.582632
0.0819139 0.159748 0.589306
0.00902499 0.106685 0.589306
0.108962 -0.324663 0.589306
0.161569 0.248741 0.582632
0.00433572 -0.388309 0.591607
0.069647 0.382816 0.585038
-0.0976885 0.0785718 0.277351
0.202804 -0.278215 0.589306
-0.288717 0.0802094 0.582632
0.0583904 -0.0858657 0.22528
-0.0676144 0.164837 0.589306
-0.225454 -0.201482 0.582632
-0.280176 0.275325 0.596983
0.0237164 0.0757229 0.231284
0.277631 -0.240515 0.582632
0.333004 0.20007 0.591589
0.0623685 0.0845624 0.366266
-0.141452 -0.228759 0.582632
-0.398749 0.0119125 0.596787
0.0581241 0.0717274 0.266507
0.112533 0.346765 0.582632
0.0580828 -0.0844238 0.289792
0.0678129 -0.0673856 0.405094
0.0636152 -0.221391 0.582632
-0.177304 0.151334 0.589306
-0.0930883 -0.0693999 0.292373
0.25073 -0.255596 0.582632
0.0591525 0.080991 0.437285
0.205379 -0.230205 0.589306
-0.334549 0.0180773 0.589306
-0.257395 -0.191232 0.582632
-0.0967785 0.0689313 0.080617
0.378354 -0.0142157 0.589306
-0.0175235 0.177741 0.582632
-0.071296 0.131039 0.582632
-0.333356 -0.165137 0.589306
-0.0145888 -0.0908212 0.582632
0.142715 0.125235 0.589306
-0.0948536 0.0659413 0.181359
-0.0987177 -0.0828862 0.142067
-0.0754997 0.0885759 0.197961
-0.0690048 0.081358 0.111801
-0.0114608 -0.0985396 0.227226
0.104202 0.366185 0.582632
-0.27726 0.292286 0.584724
-0.0946687 -0.0366178 0.229523
-0.0309233 -0.391908 0.597099
0.0537259 0.00141655 0.582632
-0.233693 -0.308026 0.586981
-0.182573 0.132664 0.582632
-0.336366 0.197101 0.58386
-0.0232888 -0.0571897 0.582632
-0.137796 -0.310475 0.589306
0.238007 -0.0253966 0.589306
0.0596834 0.0685241 0.29628
0.0801805 -0.0684453 0.280215
-0.0676882 0.0751826 0.39211
0.0200992 0.0622371 0.231284
0.0613919 0.0834778 0.293893
-0.346002 0.150361 0.582632
-0.0984991 -0.0808045 0.484206
-0.0282426 -0.189536 0.589306
-0.0768677 -0.0677747 0.577891
-0.0397834 0.387203 0.593855
-0.240546 -0.179795 0.582632
0.00728258 -0.050527 0.582632
-0.0367237 0.402071 0.591061
-0.0792329 0.0897854 0.187675
-0.271567 -0.117294 0.589306
0.319115 -0.187405 0.582632
-0.0648997 0.372566 0.589306
-0.135769 0.305595 0.589306
-0.0451243 -0.358869 0.589306
-0.20454 0.194348 0.582632
0.0819683 -0.0700552 0.162653
0.209224 -0.0275594 0.582632
0.18917 0.286647 0.582632
-0.0748283 0.0627026 0.36599
0.0740037 0.336722 0.589306
0.320457 0.121793 0.589306
-0.203272 -0.334349 0.595776
0.0861207 -0.197011 0.589306
-0.34831 -0.00251497 0.582632
0.401261 -0.0360078 0.584484
0.0260303 -0.0421198 0.231284
0.0747387 0.00691657 0.582632
-0.36655 0.16506 0.594553
0.242301 0.0836518 0.582632
0.0268387 -0.0375483 0.589306
-0.205821 0.217268 0.589306
-0.0317023 -0.299814 0.589306
-0.136468 0.0338836 0.582632
-0.0360224 0.0767885 0.589306
-0.151927 0.355495 0.589104
0.0683828 0.0751733 0.579988
0.22449 -0.00508822 0.582632
0.0590269 -0.0888499 0.306922
0.118509 0.212423 0.582632
0.187482 -0.302379 0.589306
0.392566 0.013893 0.582062
-0.0500175 0.0800403 0.221531
-0.130369 0.0731118 0.582632
-0.0130673 0.0912589 0.229706
0.301491 -0.0656639 0.589306
0.196728 0.168122 0.589306
-0.028361 -0.340314 0.582632
0.0388553 0.275875 0.582632
0.0705073 -0.0964501 0.319438
-0.172474 -0.0420322 0.589306
0.0500684 0.351066 0.589306
0.109361 -0.23463 0.582632
0.0686535 -0.0511589 0.220852
0.0577252 -0.07882 0.252506
0.339904 0.124929 0.582632
-0.343492 -0.137181 0.589306
0.0250756 -0.401312 0.594836
-0.257674 -0.131045 0.582632
-0.0114097 -0.0688208 0.589306
-0.219713 0.0511871 0.582632
-0.0541012 0.3251 0.582632
0.162232 -0.194476 0.582632
-0.0361517 -0.146364 0.582632
-0.238479 -0.0569794 0.582632
-0.166635 -0.288222 0.582632
-0.20577 -0.319319 0.589306
0.0582908 0.070936 0.31311
0.298822 -0.270684 0.585612
-0.0700177 0.0675874 0.155561
0.0572549 -0.0798735 0.175417
0.0279272 -0.00190487 0.220852
-0.103604 -0.180996 0.589306
-0.20591 -0.0135506 0.582632
0.221675 0.0393774 0.589306
0.0158903 0.38341 0.582632
0.260401 -0.278232 0.582632
0.0461043 -0.0830617 0.230899
0.0842476 0.0854594 0.225428
0.114814 -0.375414 0.596661
-0.0726032 0.283677 0.582632
0.202763 0.267415 0.589306
-0.0729445 0.0637913 0.17846
-0.0697818 -0.0752121 0.0801643
0.120939 -0.351054 0.582632
-0.085726 -0.268777 0.589306
0.014349 0.195685 0.589306
-0.382208 0.126476 0.584915
0.243033 -0.299075 0.582632
0.307525 0.103726 0.589306
-0.0300335 0.311727 0.582632
-0.0627895 0.00871313 0.231284
-0.202669 0.0393469 0.589306
-0.276144 -0.0559333 0.582632
0.0840105 -0.0923869 0.165202
0.25551 -0.233685 0.582632
0.251945 -0.0586466 0.589306
0.260765 0.235825 0.589306
0.0859856 0.0824493 0.329806
0.0754333 0.0851999 0.582632
0.0553541 -0.329496 0.582632
0.307034 0.0375312 0.582632
-0.078944 0.255351 0.589306
0.223332 -0.193055 0.582632
-0.0619981 -0.377055 0.589306
0.0254421 0.0191889 0.582632
0.132184 -0.081847 0.582632
0.158334 -0.0101931 0.589306
0.216588 -0.204641 0.589306
0.102727 0.111632 0.589306
-0.277993 0.0263897 0.589306
0.300925 -0.062301 0.589306
0.25901 0.0368201 0.582632
0.0528353 -0.0471354 0.582632
-0.0413072 0.0805532 0.231284
0.0371863 -0.343215 0.589306
-0.028229 0.156715 0.589306
0.028366 0.197088 0.582632
-0.0857514 0.0605554 0.203949
-0.151081 -0.252679 0.589306
0.072623 -0.0966706 0.447208
0.306125 0.101142 0.589306
-0.0766826 0.0895176 0.410468
0.0669403 0.363719 0.582632
-0.0322969 0.00639313 0.220852
-0.00534251 -0.227551 0.582632
0.0551503 -0.383803 0.589335
0.016355 -0.087571 0.582632
0.0843894 0.0320411 0.225483
-0.0484752 0.306051 0.589306
-0.00586341 0.28936 0.582632
-0.147727 -0.272538 0.589306
-0.397107 -0.0606245 0.583846
0.0638815 0.0862427 0.330744
0.244699 -0.180604 0.582632
-0.015987 -0.0595587 0.231284
0.0715012 0.0893574 0.108844
0.0140577 0.345254 0.589306
0.290127 -0.124487 0.589306
-0.300204 0.269847 0.591672
0.274892 -0.213565 0.582632
0.0318574 -0.0896664 0.589306
0.0731827 -0.0668307 0.300144
0.228145 0.0848927 0.589306
-0.12574 -0.0439274 0.589306
0.358132 -0.103451 0.589306
-0.0980511 -0.085729 0.554453
0.08301 -0.0709932 0.029731
-0.0546746 -0.254286 0.582632
-0.278924 -0.167951 0.589306
0.137374 0.201589 0.582632
-0.0165358 -0.392062 0.582109
-0.38712 0.0502985 0.583357
-0.339728 -0.154363 0.589306
0.0582219 0.0726592 0.385808
0.0867467 0.0671662 0.166898
0.0644237 0.0622586 0.331914
0.0864606 0.279317 0.582632
0.0464747 -0.392217 0.581363
0.225117 -0.256414 0.589306
0.109732 -0.160957 0.589306
0.305412 0.143588 0.589306
0.242121 0.188428 0.582632
-0.0358641 0.0217886 0.231284
0.0602295 -0.090506 0.242631
-0.0978602 0.111966 0.582632
0.149762 0.252574 0.589306
0.22844 -0.0610759 0.589306
0.19858 -0.040108 0.589306
-0.312323 -0.125897 0.582632
-0.392314 0.0244006 0.581425
-0.0684742 -0.0774767 0.126433
-0.0863803 0.21496 0.582632
-0.224452 -0.309832 0.589306
0.0149487 -0.171961 0.589306
-0.0712577 -0.0726558 0.142502
0.101684 -0.113605 0.589306
-0.165903 0.0493127 0.582632
0.348176 -0.16828 0.589058
-0.0231463 0.175567 0.582632
-0.239271 -0.0587725 0.582632
0.190254 0.200146 0.582632
-0.380592 0.023845 0.582632
-0.31547 -0.205932 0.582632
0.251954 0.117441 0.589306
0.349484 0.00189753 0.582632
-0.0939073 -0.0927429 0.360331
-0.0215695 0.0316412 0.220852
-0.0919298 0.0871821 0.371192
0.230515 0.121989 0.589306
0.114504 0.211212 0.589306
0.0684454 0.0146733 0.589306
-0.0422953 0.0738398 0.231284
0.0735182 0.0897861 0.542659
-0.0329378 0.329847 0.582632
-0.046936 0.280888 0.589306
0.109534 -0.198095 0.589306
-0.0496384 -0.220401 0.582632
0.0598517 -0.0740561 0.00230564
0.0809662 0.0609596 0.143733
-0.195438 -0.0126662 0.582632
0.230299 0.255931 0.582632
-0.085722 -0.00484256 0.220852
-0.191456 0.180452 0.582632
0.163522 0.179619 0.582632
-0.169598 -0.185757 0.582632
-0.0276738 0.300178 0.589306
0.0803763 -0.0944773 0.108012
0.311702 0.234707 0.583772
0.110039 0.117902 0.582632
0.238123 -0.0890183 0.589306
-0.239828 -0.167198 0.589306
-0.0934843 -0.0929312 0.0427031
0.0882244 0.0785718 0.19929
0.282436 0.00813931 0.582632
-0.0876666 0.0607579 0.28726
-0.26139 0.00501108 0.589306
0.169271 -0.136866 0.589306
-0.024541 -0.254176 0.589306
0.0598866 0.382736 0.583915
-0.0711672 -0.182282 0.582632
0.0735533 0.0897935 0.312444
-0.214029 0.200149 0.589306
0.0595559 -0.0380172 0.582632
0.173524 -0.304532 0.582632
-0.0340693 0.280982 0.582632
-0.0989242 -0.0152643 0.228782
-0.092952 -0.0692485 0.329498
-0.107695 -0.0979149 0.589306
-0.0984343 -0.0850654 0.484155
-0.0384896 -0.00646462 0.220852
0.277169 0.27678 0.59579
-0.106433 -0.0957235 0.582632
0.0329745 0.0633661 0.582632
-0.0560677 0.0694796 0.589306
-0.0723025 0.0856972 0.439441
0.082031 -0.0701116 0.394851
-0.178748 -0.0476414 0.582632
-0.0981593 -0.0775691 0.244246
-0.0690974 0.0817921 0.529163
-0.284067 -0.255441 0.582632
0.263317 -0.105549 0.589306
-0.0725114 -0.0910191 0.0144568
-0.0689449 0.0810773 0.0470184
0.0293766 -0.276912 0.582632
0.332341 0.0692999 0.589306
-0.16507 0.235555 0.589306
-0.0680521 0.0768896 0.000181769
-0.0938506 -0.0875508 -2.77556e-17
0.0879658 0.0710904 0.0323739
0.0265068 0.00824174 0.582632
-0.166435 -0.28938 0.582632
-0.0500524 -0.0190587 0.231284
-0.0754113 -0.0684232 0.55518
0.0629002 -0.0702309 0.393677
0.289516 -0.247274 0.582632
0.210706 -0.25307 0.582632
-0.0146466 -0.238493 0.582632
-0.0248624 0.00209209 0.220852
-0.274728 0.0940123 0.589306
-0.261768 -0.122821 0.589306
0.281157 0.119521 0.589306
-0.24872 -0.288049 0.582632
-0.227373 -0.159727 0.589306
0.252101 0.0044085 0.582632
0.0117675 0.0102355 0.231284
-0.0700848 0.0674368 0.555461
0.205035 -0.00579083 0.582632
-0.0747446 -0.0934996 0.265946
-0.151889 -0.0443931 0.582632
0.117485 -0.193924 0.589306
-0.068257 0.0715415 0.569901
-0.100499 0.18891 0.589306
-0.322617 0.0869662 0.582632
0.0756087 0.0898343 0.218564
-0.0753962 -0.0942234 0.299821
-0.132284 0.0837404 0.582632
-0.35094 0.170183 0.583862
-0.133478 0.102783 0.582632
0.392703 -0.0764225 0.582365
-0.29677 -0.0213822 0.589306
0.0581766 -0.0778088 0.0524308
-0.168171 -0.0786341 0.589306
-0.263798 -0.0701165 0.589306
-0.193438 -0.11388 0.582632
-0.0895721 -0.0946735 0.144128
0.0209228 0.386144 0.58485
0.0141555 -0.241086 0.589306
0.168 0.0452054 0.582632
-0.0912994 -0.00113874 0.582632
0.0750288 -0.0969214 0.571524
-0.0677617 0.0755276 0.107699
0.0260697 -0.328603 0.582632
-0.119116 -0.126084 0.589306
-0.360262 0.154201 0.582275
0.22999 -0.001385 0.589306
0.0714043 -0.0965436 0.0864876
0.167605 0.185653 0.589306
0.107859 -0.1655 0.582632
0.143862 0.07215 0.589306
-0.155118 0.235824 0.582632
0.0879848 0.0712709 0.313214
0.0525359 -0.0909331 0.589306
-0.141051 0.0442687 0.582632
0.0517876 -0.0659838 0.582632
-0.0793056 0.060115 0.0736724
-0.124771 0.0532253 0.589306
-0.0414573 -0.378058 0.582632
-0.148875 -0.283821 0.589306
0.233239 0.237625 0.589306
0.348928 0.165511 0.589306
-0.0799062 -0.109241 0.589306
0.267257 -0.248566 0.582632
0.0878154 0.069658 0.239085
-0.261762 0.0730303 0.589306
-0.347353 -0.205517 0.59134
0.0348257 -0.0683551 0.220852
0.0726808 0.0591987 0.272405
0.25924 0.0194921 0.589306
-0.36114 0.0185136 0.582632
0.140579 -0.2379 0.582632
0.0644625 0.125258 0.589306
0.0740722 -0.0669249 0.220071
-0.137337 -0.277348 0.582632
-0.171062 -0.308179 0.582632
0.0728973 -0.0541002 0.220852
-0.343433 -0.114865 0.589306
-0.0813875 0.0507894 0.220852
-0.0934376 0.0863141 0.125727
-0.127218 0.108124 0.582632
0.052045 -0.259306 0.582632
0.00988603 -0.227314 0.582632
-0.177425 0.0137404 0.589306
0.359768 0.174649 0.582282
0.084734 0.084617 0.283158
0.0711385 -0.0965158 0.320537
-0.19393 0.0428758 0.582632
0.270602 -0.0974647 0.582632
-0.218848 0.0935652 0.589306
-0.096222 -0.0888966 0.0114782
0.24808 -0.0177402 0.589306
-0.209744 -0.281216 0.589306
0.0834987 0.0635592 0.134069
0.35122 0.116886 0.589306
-0.321763 -0.138671 0.582632
-0.0820987 0.0900863 0.370795
0.345255 -0.150158 0.589306
-0.318188 -0.215646 0.582632
-0.127852 0.278775 0.589306
-0.0401255 -0.0252393 0.220852
-0.212947 -0.223603 0.589306
-0.052595 0.166848 0.589306
0.308693 -0.141179 0.589306
-0.289744 0.191614 0.582632
-0.207215 0.158705 0.582632
-0.171707 -0.0424007 0.582632
-0.0770875 -0.0676768 0.5016
0.0651931 0.061916 0.534276
0.19583 0.25671 0.589306
0.0098025 0.398179 0.597237
0.300699 -0.218882 0.582632
-0.318437 0.198675 0.58096
0.0803558 -0.155796 0.589306
0.294675 -0.00950639 0.589306
-0.140347 -0.21668 0.582632
-0.0664959 -0.180731 0.589306
0.0474503 0.259516 0.582632
-0.319833 0.0580472 0.582632
0.211952 0.210626 0.589306
0.027418 0.387022 0.589146
-0.0714614 -0.0898528 0.0228496
-0.0361042 0.0412275 0.589306
0.320131 -0.24387 0.594499
-0.185013 0.188393 0.582632
0.349665 -0.0200915 0.582632
0.267755 -0.00362998 0.589306
-0.377466 0.11271 0.597237
0.294297 0.248803 0.582632
0.315514 0.235463 0.581363
-0.200277 0.238797 0.582632
-0.127347 -0.380008 0.583053
-0.252296 -0.0818367 0.589306
0.0909268 0.125491 0.582632
0.260861 -0.20874 0.589306
-0.322789 -0.0399299 0.589306
0.0416219 0.111943 0.582632
0.340259 -0.174866 0.582632
-0.0201167 0.127987 0.589306
0.278456 -0.0957327 0.582632
-0.122711 -0.252475 0.582632
0.3503 -0.192394 0.596786
0.37103 -0.0442821 0.589306
0.0882753 0.0740375 0.417229
-0.0905163 -0.0673374 0.0906271
0.0712774 -0.179215 0.582632
-0.0367275 0.363395 0.582632
0.0396328 -0.256251 0.589306
0.0829341 -0.0355076 0.231284
0.384552 -0.122147 0.592948
-0.146752 -0.306146 0.589306
0.188021 0.0525048 0.589306
-0.279235 0.146975 0.589306
-0.00170583 0.0219881 0.220852
0.167905 -0.32961 0.589306
0.297448 -0.249318 0.583481
0.328514 0.14137 0.582632
0.279949 -0.0272738 0.582632
-0.0972151 -0.0739835 0.522828
-0.0904626 -0.0942769 0.165321
0.184543 0.341665 0.591185
-0.231842 0.314348 0.595294
-0.137203 -0.144542 0.582632
-0.129101 0.14374 0.582632
-0.273932 -0.291897 0.582543
0.0665398 -0.0960365 0.0258368
0.234015 0.0220261 0.589306
-0.236932 0.325598 0.5848
-0.275419 0.266942 0.589306
-0.38971 0.0319364 0.583067
-0.108951 0.257689 0.582632
-0.0980139 0.0747452 0.551706
0.265035 -0.28359 0.590723
0.0456029 -0.362988 0.589306
-0.334329 0.118183 0.589306
0.0608874 -0.071736 0.123106
-0.274402 -0.210578 0.589306
-0.0855372 0.0221096 0.582632
-0.0292897 -0.20796 0.589306
0.163351 0.0774226 0.589306
0.0884649 0.0758432 0.19723
0.283522 0.268347 0.594869
-0.190449 -0.112072 0.589306
0.059537 0.0687776 0.568839
0.211491 -0.34091 0.58323
0.0695069 -0.0664415 0.252035
0.104274 0.195101 0.589306
0.0837304 -0.367158 0.589306
0.12414 0.0550656 0.582632
-0.0983683 0.13015 0.589306
0.0944955 0.198365 0.582632
0.123326 0.210823 0.589306
-0.0983456 -0.085219 0.304173
-0.0799835 -0.262249 0.582632
-0.225705 -0.212363 0.589306
0.0869008 0.0808643 0.554476
-0.105149 -0.37448 0.593484
-0.0933829 -0.0929764 0.450323
-0.0705021 0.00133094 0.589306
0.222797 -0.315954 0.583324
-0.244704 -0.265172 0.582632
0.117243 0.118256 0.589306
0.0926042 -0.261895 0.582632
-0.143771 0.0411351 0.589306
-0.152497 -0.296536 0.589306
-0.0405408 0.152321 0.582632
0.0595241 -0.155633 0.589306
0.0369307 0.0482335 0.220852
0.0441717 -0.0211213 0.582632
0.0301227 0.25284 0.589306
0.103523 0.0317804 0.589306
0.262798 -0.285404 0.590108
0.293279 0.126266 0.589306
-0.0647151 0.0203001 0.220852
0.200535 0.0871567 0.582632
0.121295 0.11302 0.582632
-0.0685674 0.191767 0.589306
-0.356269 0.150022 0.582911
0.39666 -0.013588 0.597237
0.315377 0.179156 0.582632
-0.161965 0.178693 0.582632
-0.0733673 -0.0693334 0.337651
-0.066224 -0.0159479 0.589306
-0.285878 0.0296651 0.582632
-0.0697122 0.0682735 0.426064
0.0247806 0.0033577 0.582632
-0.0885191 -0.327531 0.582632
0.262949 0.148125 0.582632
-0.318972 0.0876358 0.582632
-0.283623 -0.24969 0.589306
0.370838 0.114088 0.589633
-0.065496 0.212388 0.582632
0.32563 -0.0267194 0.589306
-0.281096 -0.0692332 0.582632
-0.319215 -0.102832 0.582632
-0.140549 0.123187 0.582632
-0.0386786 -0.31488 0.582632
0.17526 -0.115063 0.582632
-0.0536963 -0.0603856 0.582632
0.396747 0.0778893 0.589744
-0.131442 0.270569 0.589306
0.377315 0.103263 0.595547
-0.183635 -0.191352 0.582632
0.0796845 -0.0948752 0.518796
0.312114 0.0334455 0.589306
0.15911 -0.0845992 0.589306
0.174084 0.351689 0.582138
-0.0834234 0.0603092 0.217606
-0.223906 0.229723 0.589306
0.156011 -0.353782 0.582962
-0.12424 -0.0694605 0.582632
-0.242513 0.193702 0.582632
-0.00501824 0.387497 0.585133
-0.188158 -0.297297 0.582632
-0.396083 -0.0488318 0.581938
-0.163729 0.352913 0.594182
-0.195114 -0.166143 0.582632
-0.125241 0.377859 0.581363
-0.147695 0.0294258 0.582632
-0.292162 0.0251389 0.589306
0.0585208 -0.086477 0.547623
-0.11199 -0.186628 0.589306
-0.182107 0.214735 0.589306
0.0574113 -0.0795231 0.196374
0.0727282 0.0592088 0.447081
0.0339483 -0.270812 0.589306
-0.0845981 -0.09649 0.563597
-0.215928 -0.046965 0.589306
-0.369837 -0.0897137 0.582632
-0.20592 -0.271304 0.589306
0.176827 -0.138973 0.582632
0.170324 -0.119733 0.589306
-0.155622 0.239475 0.589306
0.0936425 -0.00775087 0.582632
-0.117318 -0.227407 0.582632
0.338924 0.174833 0.582632
0.0110437 0.272882 0.582632
-0.0525233 0.0191276 0.582632
-0.326007 0.095261 0.582632
0.0669806 -0.0678676 0.516834
-0.235661 0.276169 0.589306
0.00455399 0.0125342 0.220852
0.083257 0.264744 0.589306
-0.112697 0.31214 0.589306
0.337544 0.0696494 0.589306
-0.296165 -0.230459 0.589306
-0.066416 -0.155216 0.589306
-0.00195816 -0.168408 0.582632
-0.0846385 0.0820589 0.579988
-0.133073 0.299165 0.589306
0.157059 0.278885 0.582632
0.0698447 -0.096381 0.404206
0.309596 0.0298359 0.589306
-0.114078 0.330926 0.589306
0.0251453 0.0135157 0.231284
0.382927 -0.1283 0.59212
0.260032 0.248046 0.582632
-0.164583 -0.0723834 0.589306
-0.1755 -0.0273211 0.582632
-0.0345623 0.359943 0.589306
0.13676 0.214352 0.582632
0.0862692 -0.0739937 0.174788
-0.068352 0.078296 0.14605
-0.208942 0.0570511 0.582632
-0.0432299 -0.0490495 0.582632
-0.213055 0.212853 0.589306
-0.356131 0.0839665 0.582632
0.0345435 0.166543 0.589306
-0.329801 -0.164652 0.582632
0.297569 0.0738027 0.582632
-0.074065 -0.0690227 0.450751
-0.0294404 0.105938 0.589306
-0.22392 0.00407419 0.589306
0.0205641 -0.386175 0.584409
-0.159367 -0.353441 0.590004
0.182007 0.359872 0.586035
0.351585 0.173805 0.582314
-0.0697448 -0.0752762 0.39683
-0.0243344 -0.293547 0.589306
-0.117394 -0.235574 0.582632
0.160301 0.0678043 0.589306
-0.0849893 -0.0965732 0.451498
-0.0960372 -0.0726753 0.310068
0.374155 0.114282 0.595495
-0.084057 0.090292 0.449753
0.2453 0.142121 0.589306
0.0634634 0.0857784 0.545467
-0.00636563 -0.0528347 0.589306
-0.0744166 0.031104 0.582632
0.0972285 0.342476 0.582632
-0.068234 0.071593 0.476755
-0.0688722 -0.0834892 0.22727
-0.339721 0.158296 0.582632
-0.09337 -0.0697128 0.430028
-0.0763623 0.0618161 0.17825
-0.347051 -0.0989532 0.589306
0.0453106 0.195367 0.589306
-0.152272 -0.100755 0.589306
-0.388943 -0.109614 0.588326
-0.00765395 -0.00807558 0.582632
0.0845469 0.0647233 0.252283
-0.0692155 -0.0867582 0.061267
-0.0525784 0.181763 0.582632
0.141067 -0.333067 0.589306
0.0785203 -0.0673959 0.341489
-0.214595 0.141287 0.589306
0.257393 0.127522 0.589306
-0.0955015 -0.0324391 0.225878
-0.177441 0.201507 0.589306
-0.0819985 0.281993 0.589306
-0.204284 -0.00422937 0.589306
-0.228158 0.050617 0.582632
0.169892 0.347316 0.587888
0.131263 -0.207081 0.589306
-0.260236 -0.153633 0.589306
-0.0305008 0.0307199 0.231284
0.00206387 -0.182568 0.589306
0.0866176 0.267003 0.589306
0.263305 0.287456 0.594582
0.0940664 -0.282835 0.582632
0.0950839 0.211643 0.582632
0.313726 0.144629 0.589306
-0.0663339 -0.317766 0.582632
0.306969 0.142247 0.582632
-0.023482 0.332921 0.582632
-0.0108216 -0.148849 0.582632
-0.0651523 -0.0926387 0.582632
0.0253237 0.00459385 0.220852
-0.0913928 0.112614 0.582632
-0.00356047 -0.000462323 0.589306
0.00805125 -0.0174376 0.582632
-0.150973 -0.284104 0.582632
-0.096744 -0.0879926 0.446993
-0.128167 -0.0426834 0.589306
-0.169924 -0.0803039 0.582632
-0.185499 -0.341167 0.586956
0.139762 0.210738 0.582632
-0.175348 -0.0966281 0.589306
0.065863 -0.0539715 0.220852
0.00192451 -0.114025 0.582632
-0.314876 0.232998 0.582698
-0.296461 0.185865 0.582632
0.383312 0.0283539 0.582632
-0.294587 -0.243296 0.582632
0.200623 0.263457 0.582632
0.270627 0.143009 0.589306
0.0522218 0.400623 0.58843
-0.0774075 -0.0675343 0.209798
0.352081 -0.14521 0.582632
-0.288 0.210615 0.582632
-0.0249827 0.104722 0.589306
-0.0796473 -0.095438 0.245693
-0.0200489 0.192832 0.589306
-0.0945888 -0.0917249 0.482481
-0.0387992 -0.222653 0.582632
0.03295 -0.0419344 0.231284
0.271868 0.274916 0.586074
0.0214285 -0.300267 0.582632
-0.270261 -0.0783652 0.589306
-0.230862 0.299702 0.589306
-0.00622472 0.133542 0.589306
0.0742409 0.0899397 0.562382
0.118391 0.203501 0.589306
0.368488 0.00729115 0.589306
0.0575799 -0.383824 0.588363
-0.0171745 -0.0974038 0.228893
0.0969879 -0.237394 0.589306
-0.220342 0.254856 0.589306
-0.280131 -0.249075 0.589306
-0.01247 -0.300354 0.582632
-0.0361032 0.0826652 0.231284
0.253858 0.146073 0.589306
0.0683882 -0.293584 0.582632
0.242645 0.317973 0.596243
0.238457 -0.248807 0.582632
0.062776 0.0631679 0.399287
-0.0681102 0.0771618 0.303072
0.0840578 0.0334883 0.227203
-0.155051 0.355635 0.588046
0.250508 0.11059 0.589306
-0.252869 -0.18541 0.582632
0.0714118 0.0591469 0.172414
-0.21838 -0.00388575 0.589306
0.239114 0.192204 0.582632
0.100772 0.129459 0.582632
0.226312 -0.224649 0.589306
-0.362868 -0.0863398 0.589306
-0.0312149 0.295869 0.589306
0.152199 0.342369 0.582632
0.147862 -0.146813 0.589306
0.0446036 0.099407 0.589306
-0.056083 0.0102856 0.220852
-0.281627 -0.0768563 0.582632
-0.0777057 0.0389149 0.220852
-0.128673 0.141455 0.582632
0.0156657 0.141355 0.582632
-0.112167 0.049181 0.589306
-0.220403 0.0885283 0.589306
-0.0681761 0.0774711 0.472342
-0.209118 0.125436 0.589306
0.0608437 0.0665145 0.0802251
0.141031 -0.0837756 0.589306
0.0410764 0.246621 0.582632
0.0415139 0.0646729 0.220852
-0.027661 0.0883533 0.229519
0.209745 0.339333 0.581575
0.268007 0.184405 0.582632
0.27385 0.10704 0.582632
0.0649129 -0.0947233 0.497628
0.0621333 0.0696767 0.589306
0.0723534 0.0895385 0.33831
-0.0992205 0.361413 0.589306
-0.00260755 -0.120448 0.582632
-0.222464 0.103899 0.582632
-0.0884482 0.0153946 0.589306
-0.0946565 0.0853965 0.11797
0.235706 -0.161647 0.582632
-0.0919262 -0.0936251 0.0212381
0.0601155 -0.153293 0.589306
-0.328718 0.045009 0.589306
0.0816429 -0.0697621 0.406436
-0.0821632 -0.0655631 0.0352693
-0.0982076 0.0774033 0.316408
-0.107742 0.00490689 0.589306
0.242175 -0.197753 0.582632
-0.188545 0.134399 0.589306
0.0524207 0.0429327 0.231284
-0.00149924 0.00384998 0.231284
-0.0887015 0.0608674 0.522741
-0.140099 -0.274822 0.589306
0.0729065 -0.0668015 0.304049
0.0187677 0.239846 0.589306
0.00674199 0.24976 0.582632
0.232711 0.198531 0.582632
0.364228 0.133846 0.586198
-0.205371 -0.0333729 0.582632
0.168829 0.195413 0.582632
0.371226 0.158398 0.592756
0.0124739 -0.266333 0.589306
-0.203784 -0.0176848 0.582632
0.00804996 0.261257 0.582632
-0.0978674 0.373837 0.587339
0.351918 0.160123 0.589306
-0.155892 0.12718 0.582632
-0.0976305 0.0787024 0.494707
0.344778 0.138832 0.589306
0.0280803 -0.359353 0.582632
-0.151291 -0.356972 0.589445
0.206548 0.0564017 0.589306
-0.304371 -0.256997 0.597237
-0.207139 -0.29099 0.589306
-0.204418 -0.348045 0.590809
-0.204183 -0.210593 0.589306
-0.186199 0.273587 0.582632
-0.236041 0.146526 0.582632
-0.0747406 -0.0722574 0.579988
-0.226063 0.0576223 0.582632
-0.0921903 0.0876733 0.582632
-0.292041 0.254315 0.586513
0.335143 0.174545 0.58096
-0.28735 -0.189179 0.582632
-0.0955669 0.00520518 0.589306
-0.0722358 0.334365 0.582632
-0.0687459 -0.082286 0.146491
-0.263917 0.127074 0.582632
0.152568 0.264544 0.589306
0.12141 0.11349 0.589306
-0.0805978 -0.118554 0.582632
0.0790481 -0.0674518 0.149584
0.271148 -0.256497 0.589306
-0.299571 0.0940007 0.589306
-0.0687121 -0.322257 0.589306
-0.0790159 0.0602824 0.0810205
-0.0420585 -0.055507 0.231284
-0.0984143 0.0769381 0.163039
0.0687437 -0.167725 0.582632
-0.07005 0.067515 0.420082
0.119127 -0.324204 0.589306
-0.113916 -0.354915 0.582632
0.328839 0.212391 0.582943
0.0706297 -0.0618426 0.589306
-0.170064 0.0685023 0.582632
-0.145108 0.204306 0.582632
-0.242799 0.115457 0.589306
0.377372 0.122231 0.597237
0.202376 0.0491411 0.582632
-0.0611039 -0.00812952 0.231284
-0.0655055 0.111054 0.582632
-0.0735221 -0.0921417 0.145042
-0.226733 0.117088 0.582632
0.0877351 0.0688929 0.282651
-0.186168 -0.131573 0.589306
0.345229 -0.205122 0.583481
0.0514116 -0.304754 0.582632
-0.185716 -0.261645 0.582632
0.0391522 0.0807436 0.223394
0.0590948 -0.0891679 0.347096
-0.298653 0.121548 0.582632
0.0571264 -0.282332 0.589306
0.0123932 0.274586 0.589306
-0.0450421 0.0621641 0.582632
-0.0897704 -0.067179 0.0446454
0.0731962 -0.0668322 0.0604873
-0.14571 0.361867 0.594719
-0.347893 -0.0658439 0.589306
-0.0453076 -0.27663 0.582632
0.383261 -0.12947 0.58988
-0.0747089 0.0878638 0.449953
-0.179502 0.0851879 0.582632
0.175124 -0.0700818 0.589306
-0.135231 -0.368983 0.597035
-0.152222 0.364799 0.597237
-0.0810295 0.089974 0.289564
0.19205 0.00480711 0.582632
0.373708 -0.145606 0.595495
-0.112227 -0.00892639 0.589306
0.365376 -0.130418 0.587444
-0.230562 0.206964 0.582632
0.111424 -0.199889 0.582632
-0.373016 0.0839091 0.589306
-0.299424 -0.0577539 0.589306
-0.00984773 0.338224 0.589306
0.0652621 -0.068863 0.0569396
0.111552 -0.319884 0.582632
-0.0986534 -0.0822745 0.00703281
0.0159562 -0.0136785 0.231284
-0.384968 0.00921744 0.589306
-0.0783135 0.0896888 0.310926
-0.206419 0.00341418 0.589306
-0.10077 0.192871 0.582632
0.11324 0.374051 0.595378
0.307838 -0.212877 0.582632
-0.0474012 -0.248152 0.582632
0.0747022 0.380156 0.589249
0.080993 -0.0941226 0.45438
0.0811617 -0.346622 0.582632
-0.0808756 -0.00668198 0.589306
0.060832 0.0665348 0.539298
0.386207 0.115534 0.593539
-0.224605 -0.309697 0.589306
-0.152191 -0.271102 0.589306
-0.209518 0.0565044 0.589306
0.166916 0.102689 0.589306
-0.0180194 -0.015925 0.231284
0.275661 0.17609 0.582632
-0.244583 -0.190336 0.582632
0.271581 -0.141548 0.589306
-0.0860727 -0.0962319 0.424246
0.0115247 0.325428 0.582632
-0.0770225 0.0614345 0.384909
-0.263484 0.0696917 0.589306
0.0702216 -0.108581 0.582632
0.207145 0.225974 0.589306
0.113216 0.328143 0.582632
-0.167823 0.157073 0.582632
-0.228246 0.241035 0.589306
0.335878 0.0830854 0.582632
0.0877955 0.0793146 0.0893197
-0.0686544 0.0797144 0.371946
