-0.223278 0.264909 0.51919
-0.189972 -0.160452 0.51919
0.133411 -0.0405419 0.51919
0.199344 0.0294093 0.51919
0.254527 -0.0647703 0.51919
-0.167562 0.193803 0.51919
-0.233662 0.214557 0.141371
0.242247 -0.083619 0.526456
-0.0272068 -0.258667 0.526456
0.0393966 0.00299153 0.526456
-0.0500268 -0.259298 0.526456
0.0716541 -0.0397233 0.526456
0.0863439 0.0435412 0.51919
0.0276098 -0.0231219 0.51919
-0.192329 -0.172815 0.51919
0.225307 0.208284 0.162649
-0.245061 -0.209852 0.51919
0.138013 -0.00453365 0.526456
-0.146752 0.138242 0.526456
-0.25966 -0.119335 0.51919
0.140033 0.119378 0.526456
0.190284 0.176627 0.216776
0.199682 -0.088966 0.51919
-0.257043 -0.065016 0.526456
-0.0053584 0.226636 0.526456
0.166675 -0.18267 0.244867
-0.261285 0.208278 0.526456
-0.121859 0.134406 0.343168
-0.22874 -0.24152 0.13149
-0.256519 0.0856567 0.526456
0.194808 0.208031 0.526456
-0.294253 -0.271261 0.0154319
-0.188395 -0.175521 0.51919
-0.264928 -0.153843 0.51919
-0.0207468 0.225318 0.51919
-0.00185323 0.20513 0.51919
0.0113544 -0.189868 0.51919
-0.199599 -0.0326679 0.526456
0.234518 -0.24402 0.126007
-0.065336 -0.0451331 0.526456
-0.0010772 -0.0879862 0.51919
-0.259895 0.057454 0.526456
0.0504868 -0.0517573 0.526456
0.0849034 0.0663762 0.526456
0.241279 0.183051 0.526456
0.186271 0.153259 0.526456
0.228956 0.0633846 0.51919
-0.125425 0.136627 0.331871
-0.00590473 -0.23579 0.526456
-0.157767 0.25376 0.51919
-0.223687 -0.221085 0.12292
0.239931 0.259997 0.0885665
-0.0299476 -0.0274286 0.526456
0.158662 0.257924 0.526456
-0.149948 0.00478572 0.526456
0.183993 0.11213 0.51919
-0.0945787 -0.0448053 0.526456
-0.222983 -0.110643 0.51919
0.187189 0.148362 0.526456
0.00288895 0.16854 0.526456
-0.00134772 0.0980259 0.51919
-0.283038 0.299398 -1.38778e-17
0.160534 0.0461629 0.526456
-0.0839326 0.0907543 0.51919
0.0986508 -0.0561544 0.51919
-0.106871 -0.146014 0.526456
-0.127573 0.148542 0.526456
0.156632 0.206435 0.51919
0.218284 0.217958 0.51919
-0.172299 0.0370163 0.526456
-0.139988 -0.0701346 0.526456
0.185417 0.178822 0.213474
0.213689 -0.195734 0.180455
-0.114511 -0.128546 0.51919
0.245135 -0.138337 0.526456
-0.185208 -0.200705 0.198035
0.0652568 0.157846 0.526456
0.208004 -0.22576 0.51919
-0.181595 0.181498 0.212854
-0.0757663 0.0847456 0.444026
0.205462 0.195415 0.51919
0.036144 -0.136879 0.526456
-0.138114 0.1436 0.51919
-0.241292 -0.129974 0.51919
0.155934 0.124747 0.526456
-0.0179734 0.173422 0.526456
-0.120093 0.0560973 0.526456
-0.189326 0.126147 0.526456
-0.0951335 -0.0176095 0.51919
0.206149 -0.0633794 0.51919
0.264984 -0.11932 0.526456
0.117281 -0.17203 0.51919
-0.0640796 0.0729344 0.472216
0.163396 -0.268546 0.523906
0.100919 0.108907 0.386912
0.0398006 0.0313523 0.51919
-0.177515 -0.102483 0.51919
0.258235 0.279722 0.0471474
-0.129313 -0.0581032 0.526456
-0.193253 0.202781 0.179405
0.200166 0.151606 0.51919
-0.217219 0.0267642 0.51919
0.186259 0.113821 0.51919
-0.219759 -0.152127 0.526456
0.271845 0.250426 0.0621615
0.216451 0.24038 0.51919
0.0939445 0.180136 0.51919
0.262258 -0.221037 0.526456
0.175445 -0.167884 0.267075
-0.1536 -0.0834019 0.51919
0.0964349 -0.183029 0.51919
0.0832456 0.0938177 0.431068
0.115494 -0.141818 0.526456
-0.132 0.119579 0.353219
-0.229089 0.143178 0.51919
0.0756284 0.235123 0.51919
-0.0707457 -0.219176 0.51919
0.169292 0.16023 0.253632
0.0329855 -0.215682 0.51919
0.18213 0.251533 0.51919
-0.159438 0.175171 0.261888
0.0727749 -0.235531 0.526456
0.203471 -0.119594 0.51919
-0.143441 0.0279098 0.526456
0.185239 0.163158 0.526456
-0.10259 0.0203863 0.51919
0.0576535 -0.16833 0.51919
0.14738 -0.254542 0.51919
0.228819 0.0517861 0.51919
-0.122633 -0.197064 0.526456
-0.238302 0.245671 0.0808426
-0.203585 -0.182278 0.51919
-0.184261 0.245428 0.526456
0.00392741 0.086888 0.526456
0.262505 -0.241395 0.0808379
-0.150213 -0.0187141 0.526456
0.14274 -0.232285 0.51919
-0.124581 0.059795 0.51919
0.222946 0.254552 0.526456
-0.23999 -0.256211 0.0743505
0.062148 0.0216932 0.526456
-0.218938 -0.134754 0.51919
0.16397 -0.0143139 0.51919
-0.128681 -0.0394002 0.51919
0.0746389 0.217376 0.526456
-0.246771 -0.237538 0.526456
0.229273 0.136052 0.51919
-0.185682 0.197423 0.196425
0.146051 0.095481 0.51919
0.259908 0.23938 0.0822824
0.10838 -0.138244 0.526456
-0.207597 -0.0160874 0.526456
0.138156 0.152159 0.310568
0.114345 0.177586 0.51919
-0.172249 0.0648444 0.51919
0.122969 -0.168114 0.526456
-0.25109 0.0711203 0.51919
-0.253573 0.230604 0.526456
0.0695128 0.168223 0.51919
-0.243494 -0.121516 0.526456
0.107243 -0.242973 0.51919
-0.219171 -0.231759 0.526456
-0.0994649 -0.111065 0.51919
-0.189206 0.13131 0.51919
0.0202171 -0.0692782 0.51919
0.256175 0.27167 0.0695786
0.0501598 -0.0915636 0.526456
0.269669 -0.248713 0.0608465
-0.116427 0.0122731 0.51919
0.192076 -0.204644 0.51919
0.200483 0.250654 0.51919
0.0548338 0.234835 0.51919
0.246306 0.130669 0.51919
0.167847 0.216718 0.526456
0.244977 0.261361 0.526456
0.121544 0.132428 0.355665
0.019762 -0.0234115 0.51919
0.0959328 0.126145 0.51919
0.220675 0.227096 0.526456
-0.0261004 -0.0129533 0.51919
0.23533 -0.13243 0.526456
-0.077323 0.0379384 0.51919
0.24467 -0.0779201 0.51919
0.105968 -0.192791 0.526456
-0.268476 -0.248473 0.0725151
-0.101017 0.07078 0.51919
0.229915 -0.0965791 0.51919
0.102168 -0.0638183 0.526456
0.261691 0.280591 0.0254921
0.115581 0.103998 0.386698
0.0754262 -0.0669498 0.463871
-0.0479026 -0.0695865 0.51919
0.118556 -0.130778 0.526456
-0.242543 -0.258203 0.0686135
-0.211768 0.223322 0.51919
0.156357 0.243105 0.51919
-0.202873 -0.202524 0.165954
0.20165 0.017696 0.526456
-0.0716334 -0.0960831 0.51919
0.0581661 0.0781303 0.51919
0.109896 -0.120594 0.379482
-0.219328 0.205821 0.151153
0.19116 0.140498 0.526456
-0.132675 -0.192353 0.51919
-0.114815 -0.105331 0.51919
-0.242733 0.107157 0.526456
-0.0390448 -0.263557 0.526456
-0.252182 0.260327 0.526456
-0.261916 -0.272132 0.0260906
0.247638 -0.258735 0.526456
-0.129592 -0.0706742 0.51919
-0.0441532 0.236559 0.526456
-0.0577001 0.0539124 0.526456
-0.121262 -0.0647172 0.526456
-0.254997 -0.248295 0.526456
0.205718 -0.195599 0.205047
0.265993 -0.28653 0.0169798
-0.160326 0.17369 0.270889
-0.177582 -0.0561713 0.526456
-0.247264 0.220622 0.526456
0.16416 0.159537 0.28831
0.116452 0.138437 0.526456
0.255258 0.239357 0.103262
-0.138732 -0.0581661 0.51919
0.0836686 -0.183768 0.51919
-0.246352 0.247519 0.51919
-0.223597 -0.22235 0.121214
-0.260647 -0.253616 0.51919
0.190286 0.123839 0.51919
-0.262263 -0.0253525 0.51919
-0.262644 -0.0153309 0.526456
0.073028 0.103863 0.526456
-0.208801 -0.215716 0.146683
-0.0869227 -0.0513473 0.51919
-0.27479 -0.26278 0.0631997
0.267346 -0.197056 0.526456
-0.0623085 -0.209691 0.526456
0.295908 -0.286751 -1.38778e-17
-0.221491 0.242183 0.51919
0.0872195 0.115556 0.526456
0.192061 -0.190202 0.228197
0.23248 -0.253503 0.51919
0.117041 -0.175083 0.51919
0.226758 -0.0120869 0.526456
0.152059 -0.0205811 0.526456
0.0662094 0.0199186 0.526456
-0.185236 0.13271 0.526456
0.254082 -0.126443 0.526456
0.0877626 -0.0826276 0.447401
-0.202237 0.190132 0.186419
-0.254881 -0.24594 0.51919
0.0302392 -0.15548 0.51919
0.19015 -0.178889 0.526456
0.266628 -0.196864 0.51919
0.0641244 0.0220372 0.526456
0.20225 0.25678 0.526456
-0.10134 0.091555 0.418706
0.125508 -0.186657 0.526456
0.293075 0.302807 -1.38778e-17
0.159213 -0.13108 0.526456
-0.0273109 0.167204 0.51919
-0.195265 0.254225 0.51919
-0.130768 -0.181406 0.51919
0.169821 0.064363 0.51919
-0.204805 0.0558069 0.526456
0.206017 -0.135431 0.51919
0.186395 0.0331195 0.51919
0.261173 0.271011 0.0701829
0.0787053 0.0402353 0.526456
0.0033448 -0.167723 0.526456
-0.179115 0.189185 0.211185
-0.133792 0.237559 0.526456
0.186319 0.0796704 0.526456
0.0384606 0.186832 0.51919
-0.215896 0.138502 0.51919
0.217175 0.157445 0.526456
0.230649 -0.0708399 0.51919
0.0820086 -0.088934 0.526456
-0.0331731 0.173632 0.51919
-0.126238 -0.127234 0.51919
0.253718 0.173591 0.51919
0.0171168 0.17877 0.51919
0.177751 -0.00923869 0.51919
-0.237227 0.08516 0.51919
-0.0794212 0.0386303 0.51919
-0.0591393 -0.184352 0.51919
0.0266617 0.195787 0.51919
-0.0735203 -0.25673 0.526456
0.232185 -0.161129 0.51919
0.264213 0.107155 0.51919
-0.0220991 0.063297 0.51919
-0.183571 0.0764967 0.526456
-0.206424 -0.0604901 0.526456
0.0195676 -0.0156403 0.51919
-0.0491633 -0.104798 0.526456
-0.150481 -0.119711 0.51919
-0.2545 0.0325609 0.51919
-0.175032 -0.231918 0.526456
0.17875 -0.224543 0.526456
-0.100649 -0.0259166 0.526456
-0.211438 0.19631 0.193354
0.218154 -0.230196 0.154757
0.0576378 -0.17867 0.526456
0.0694796 0.164295 0.51919
-0.0980765 0.0951537 0.40222
-0.147295 -0.133356 0.319553
0.0914865 -0.0690888 0.51919
0.0814278 0.126507 0.526456
-0.135551 -0.256413 0.51919
0.156407 0.231909 0.51919
-0.0693059 0.105114 0.51919
0.113428 0.157754 0.51919
-0.2287 -0.210337 0.145951
0.204301 0.229096 0.51919
0.189579 -0.217635 0.526456
0.104591 0.131907 0.51919
-0.0584864 -0.0895303 0.526456
0.111785 -0.230114 0.51919
0.266886 -0.0179499 0.51919
-0.19825 0.113872 0.526456
0.161505 0.148 0.282433
-0.19 0.185716 0.234373
-0.0780555 0.0845197 0.454097
-0.00201368 0.125385 0.51919
-0.0977795 0.179754 0.526456
0.0172945 -0.216493 0.526456
0.199925 0.071536 0.526456
0.0462854 0.035473 0.526456
0.0631849 0.0842068 0.526456
0.159147 -0.152914 0.526456
-0.157203 -0.0890771 0.51919
-0.183084 -0.214413 0.51919
-0.289778 -0.267766 0.0176007
0.0430088 0.223718 0.51919
0.108171 0.00124985 0.526456
-0.153669 -0.197004 0.526456
-0.140866 -0.130559 0.338339
0.065174 0.0745174 0.471045
0.144356 -0.157639 0.29046
-0.0960659 -0.102238 0.417666
0.222209 0.111335 0.51919
0.281558 0.292445 0.0264291
-0.0216353 -0.112793 0.526456
-0.182579 0.197805 0.203509
-0.161104 -0.0325934 0.51919
-0.181606 0.0637186 0.51919
-0.151382 -0.210018 0.51919
-0.109417 -0.157892 0.526456
0.265899 0.27742 0.057764
0.0565708 0.0981422 0.51919
-0.254897 0.114607 0.51919
-0.044929 0.20682 0.51919
-0.0206191 -0.0998091 0.526456
-0.270492 0.292807 0.0121252
0.011805 -0.0477396 0.51919
-0.258731 -0.265098 0.51919
0.252358 -0.267659 0.0777832
-0.262918 0.26452 0.51919
-0.107453 0.239477 0.51919
0.225406 0.237837 0.107063
-0.133911 0.204965 0.51919
0.107719 0.00474909 0.51919
0.147734 0.154315 0.526456
0.110314 0.101515 0.385608
-0.140332 0.0680937 0.526456
-0.163227 -0.134266 0.526456
0.153654 -0.14551 0.312019
-0.157619 -0.239665 0.526456
-0.266203 -0.266827 0.0718847
-0.109319 -0.264673 0.526456
-0.244516 0.265573 0.0715008
-0.0712172 -0.0972787 0.51919
-0.173757 -0.189218 0.225929
0.147532 -0.109694 0.51919
-0.00435627 -0.028044 0.526456
-0.208384 -0.121294 0.526456
0.181695 0.170651 0.526456
-0.223792 0.0346861 0.51919
-0.228786 -0.206736 0.51919
-0.0575717 -0.125982 0.51919
0.0980578 0.0499042 0.51919
-0.263899 -0.136145 0.51919
-0.0619856 0.0612517 0.479255
0.144427 -0.264929 0.51919
0.258231 -0.125716 0.51919
0.186403 -0.202782 0.197879
-0.213188 0.203888 0.189757
0.281705 -0.264851 0.0184255
-0.0410047 0.102241 0.51919
-0.0133677 0.0429623 0.526456
-0.151727 -0.148043 0.284176
-0.200737 -0.201746 0.207447
-0.152288 -0.000982076 0.526456
-0.159674 0.0196328 0.51919
0.0657298 -0.0504015 0.51919
-0.0396765 -0.00359842 0.526456
-0.212046 0.210763 0.146929
0.255749 0.191612 0.51919
0.00614959 0.0377234 0.51919
0.074671 -0.0201103 0.51919
-0.0472113 -0.062492 0.51919
0.0221181 -0.195881 0.51919
0.150218 -0.163095 0.292522
0.238702 -0.0903432 0.526456
-0.216561 -0.183582 0.51919
0.101132 0.105126 0.388044
-0.0277096 -0.263722 0.526456
-0.0634329 -0.129697 0.526456
0.0914903 -0.159345 0.526456
-0.110306 -0.249621 0.526456
0.136682 0.0767068 0.526456
-0.156103 0.0771042 0.51919
0.197553 -0.0950174 0.51919
0.239364 0.0839046 0.526456
-0.211854 0.012358 0.526456
-0.199268 0.225961 0.51919
0.0228592 -0.122757 0.526456
0.192382 0.198306 0.218332
-0.0216995 -0.184241 0.526456
0.00824219 0.170073 0.526456
0.0368357 0.208727 0.526456
0.257511 0.243351 0.0986318
-0.153765 -0.130002 0.51919
0.121756 -0.131667 0.51919
-0.141289 0.21597 0.51919
-0.113847 -0.0552129 0.51919
0.113733 0.0285565 0.526456
0.261024 0.0657333 0.51919
0.293818 0.28272 -1.38778e-17
-0.271022 -0.274697 0.0578445
0.154026 0.206095 0.526456
-0.158666 -0.0842373 0.51919
-0.0393357 0.0789428 0.51919
-0.0387725 0.00579044 0.526456
0.00161028 -0.140499 0.51919
-0.0870889 0.242897 0.51919
-0.0197793 -0.256914 0.51919
0.172118 0.00752315 0.526456
-0.0988463 -0.0975562 0.421544
-0.0114599 -0.218641 0.526456
0.0902534 0.202074 0.51919
-0.211523 0.0140918 0.526456
0.164759 0.0642974 0.51919
0.135127 0.131017 0.321616
0.174388 0.192365 0.526456
0.249217 -0.258648 0.526456
0.145338 0.186443 0.51919
0.0156673 -0.0255238 0.526456
-0.084665 -0.189908 0.51919
-0.225289 -0.0415127 0.51919
0.269355 -0.170802 0.51919
0.207028 -0.26042 0.526456
0.0287233 -0.0420334 0.51919
0.277282 0.289455 0.0330386
-0.118158 -0.0126195 0.526456
-0.107584 0.0348357 0.526456
-0.0872112 0.168372 0.51919
0.200604 -0.128884 0.526456
0.0671027 0.246041 0.526456
-0.266435 0.250175 0.0803652
-0.127095 -0.139686 0.330528
-0.158694 0.0377154 0.526456
-0.16058 0.148848 0.279216
-0.0730465 0.192896 0.526456
0.0355314 0.181154 0.51919
0.0393447 -0.0671475 0.51919
0.248653 0.222206 0.51919
0.235357 0.028732 0.526456
0.258107 -0.127785 0.51919
0.200581 0.208092 0.199196
-0.127185 0.116692 0.366445
-0.194412 0.209849 0.176802
-0.21633 -0.248446 0.526456
0.0826856 0.223856 0.526456
0.0509765 0.174906 0.526456
0.2134 0.0955452 0.526456
0.103098 0.0847945 0.526456
-0.00588229 0.200521 0.526456
-0.173014 -0.028872 0.51919
0.199138 -0.0150321 0.526456
-0.111323 -0.142166 0.51919
-0.0907383 0.227322 0.526456
-0.143597 -0.129972 0.326782
-0.271396 0.293876 0.0172953
-0.0546168 -0.0612489 0.526456
-0.289169 -0.29148 -1.38778e-17
-0.110812 0.245884 0.526456
-0.149608 0.00427938 0.51919
0.168931 -0.229048 0.526456
0.0314187 0.00306004 0.526456
0.0238499 -0.230453 0.51919
-0.0741249 0.0183169 0.526456
0.00707096 0.02557 0.526456
0.141241 -0.147824 0.296893
-0.116353 -0.268542 0.524094
-0.220304 0.0461461 0.526456
-0.0584545 0.252282 0.51919
0.143877 -0.0666147 0.526456
0.0368462 0.118022 0.51919
0.00318789 -0.103732 0.51919
0.212634 -0.0350381 0.51919
0.00287777 -0.196814 0.51919
-0.053403 0.100067 0.51919
-0.129525 -0.186506 0.51919
0.26432 0.249387 0.0532284
0.192331 0.157636 0.526456
-0.253561 0.0857542 0.51919
0.165659 0.197306 0.51919
-0.12791 0.220883 0.526456
-0.136994 0.246864 0.51919
0.107052 -0.177219 0.526456
0.105996 -0.156339 0.526456
0.253415 0.236838 0.107048
0.0454952 0.248814 0.526456
-0.049972 -0.26184 0.526456
0.180912 -0.197903 0.21334
-0.144101 0.155454 0.308355
-0.0314512 -0.13384 0.526456
0.0992081 -0.227245 0.51919
0.126107 -0.11615 0.35268
0.0170758 0.228692 0.51919
0.171489 -0.159628 0.275376
-0.210619 0.188463 0.526456
0.165588 0.176766 0.264568
0.269972 -0.181279 0.52162
-0.217301 -0.200987 0.179988
-0.0193057 0.0596696 0.51919
-0.265257 0.0941468 0.51919
0.146756 -0.241922 0.51919
0.209257 -0.0194528 0.51919
-0.245752 -0.0517843 0.526456
0.0941415 0.105309 0.406228
-0.238933 0.156723 0.526456
-0.1583 -0.170925 0.276538
-0.067767 0.222209 0.526456
0.0423242 -0.17567 0.526456
-0.0255317 -0.146719 0.526456
-0.241448 0.00987637 0.51919
0.204113 -0.127604 0.51919
-0.0276953 -0.19492 0.526456
-0.178425 0.0525866 0.51919
0.231146 -0.180334 0.526456
-0.202741 -0.0949721 0.51919
0.0644253 0.177411 0.526456
0.135303 -0.150709 0.526456
-0.0701346 0.00728706 0.526456
-0.173123 -0.112828 0.526456
0.0753048 0.0808626 0.461611
0.0137268 0.0475952 0.51919
-0.22241 -0.230828 0.11525
-0.172571 0.108022 0.526456
0.301225 0.279595 0.00543761
-0.162664 0.202864 0.51919
0.200619 0.193491 0.51919
0.211858 0.26691 0.523846
-0.0243216 0.0378552 0.526456
0.151964 -0.22562 0.526456
-0.229061 -0.221518 0.526456
0.150241 0.148984 0.284043
-0.230754 0.188603 0.526456
-0.0206191 -0.203395 0.526456
-0.0070264 0.101125 0.526456
0.00146025 -0.258645 0.526456
0.220827 -0.04246 0.526456
-0.190327 -0.164308 0.526456
0.174445 0.205394 0.51919
-0.0301356 -0.156575 0.51919
0.0843159 -0.0637297 0.51919
-0.193081 0.224134 0.526456
0.232153 0.244073 0.0918956
-0.273214 0.294727 0.0181997
-0.135069 -0.190105 0.51919
-0.265715 0.286351 0.0181582
-0.233747 -0.212547 0.51919
0.226924 0.252608 0.51919
0.0559953 0.0790902 0.526456
-0.252674 -0.251391 0.526456
0.258952 -0.209777 0.526456
0.223616 0.152327 0.51919
0.24096 0.045008 0.51919
-0.0142865 0.142029 0.526456
-0.265486 0.117747 0.522841
-0.219332 -0.213892 0.174279
-0.19641 -0.11134 0.51919
0.155731 0.0509953 0.526456
0.278072 0.291279 -1.38778e-17
-0.129982 0.246133 0.526456
-0.0256148 -0.00464603 0.526456
0.0794335 -0.237239 0.51919
-0.207948 0.171695 0.526456
0.173949 0.232715 0.526456
0.0282703 -0.0316385 0.51919
0.171161 -0.172222 0.268831
0.167905 -0.23785 0.526456
0.198598 0.208832 0.526456
0.230086 -0.110195 0.51919
-0.264463 0.256162 0.0404476
0.0367316 -0.210485 0.526456
-0.169416 0.153945 0.51919
-0.171533 0.247439 0.51919
-0.141603 0.0704941 0.51919
0.174523 -0.0237253 0.51919
-0.230856 -0.159013 0.526456
-0.0212758 0.046403 0.51919
-0.14808 -0.147357 0.526456
0.233778 -0.232827 0.526456
-0.171623 -0.0247068 0.526456
-0.219834 -0.26854 0.52073
-0.164675 -0.157217 0.260743
0.0824879 0.163342 0.51919
-0.210712 -0.228422 0.154918
-0.14051 -0.0242725 0.526456
0.117371 0.163844 0.526456
0.200492 0.0702106 0.526456
-0.051232 -0.242414 0.526456
-0.214321 0.229853 0.526456
0.0644976 -0.0345337 0.51919
0.28576 -0.296382 -1.38778e-17
0.0751925 -0.263011 0.526456
-0.225695 0.245324 0.51919
-0.18545 0.0915937 0.526456
-0.10489 0.123149 0.526456
-0.202074 0.235544 0.51919
0.0171006 -0.0513352 0.526456
0.0029065 0.123579 0.526456
0.103915 -0.233954 0.51919
0.0611807 0.0579898 0.484477
0.230534 0.211298 0.51919
-0.238173 0.177271 0.526456
0.130525 -0.060179 0.51919
0.199022 0.245549 0.526456
-0.0671942 0.0658042 0.487415
-0.171025 -0.199904 0.526456
-0.141107 -0.0888065 0.526456
0.173764 0.122712 0.51919
0.0844154 -0.155356 0.526456
0.160232 0.120071 0.526456
0.264267 0.250202 0.0847502
0.152646 -0.160498 0.270629
0.169844 0.191065 0.51919
0.256552 -0.24799 0.0992506
0.0734121 -0.12917 0.526456
-0.264304 0.28157 0.049238
0.172635 0.181293 0.255267
0.276317 0.260456 0.0599928
0.0793315 -0.107174 0.51919
-0.209443 -0.209678 0.51919
-0.239517 -0.242325 0.0818453
-0.0908577 0.259955 0.51919
0.154957 -0.140754 0.304558
-0.243228 -0.26402 0.0788403
0.0901499 -0.268545 0.519462
-0.156198 -0.209199 0.526456
0.160901 -0.209001 0.51919
-0.138799 -0.0423125 0.51919
0.0264812 0.151652 0.51919
-0.133345 -0.116873 0.51919
-0.203588 -0.195753 0.208824
-0.0262541 0.143959 0.526456
0.0415915 -0.232292 0.526456
0.167821 0.26691 0.521837
0.047956 0.0976627 0.526456
0.225172 -0.116864 0.51919
-0.260631 -0.0989535 0.526456
-0.00167501 0.0714427 0.526456
0.289085 -0.302994 -1.38778e-17
-0.0837835 0.129266 0.526456
-0.255946 -0.201981 0.51919
-0.052874 -0.124546 0.51919
0.0238502 -0.193641 0.526456
-0.304178 -0.289601 0.0028258
-0.075222 -0.0990313 0.526456
0.261514 0.0629474 0.526456
-0.215207 -0.203366 0.18561
0.110344 -0.120289 0.526456
-0.148897 0.019421 0.51919
-0.241486 -0.223886 0.51919
0.263055 -0.258008 0.0830594
-0.183443 0.199561 0.204398
-0.182577 -0.0639258 0.526456
-0.265486 0.145609 0.523742
-0.203947 -0.24309 0.51919
-0.0990116 0.25072 0.51919
0.211068 0.22988 0.145545
0.118317 0.107716 0.384017
0.226034 -0.230959 0.149678
0.242716 0.136102 0.51919
-0.158952 0.0721539 0.51919
-0.00530881 0.100031 0.51919
0.00119203 -0.183915 0.51919
0.155327 0.0351053 0.526456
-0.0586198 -0.0830259 0.51919
0.15246 0.146457 0.313676
0.261359 0.0239339 0.526456
-0.0280382 -0.0288849 0.526456
0.176102 0.16901 0.234854
-0.185948 -0.098314 0.526456
-0.205193 0.0286253 0.51919
0.154002 -0.224659 0.51919
-0.00125682 -0.244334 0.51919
0.0261996 -0.0432367 0.526456
0.138512 -0.125305 0.338605
0.0583134 0.0194698 0.526456
0.0386721 0.179725 0.526456
-0.109827 0.0213799 0.526456
-0.198936 -0.180416 0.526456
0.276685 -0.291337 0.0291337
-0.00290012 0.189128 0.51919
-0.296137 0.300329 0.00498617
0.0740069 0.0795911 0.447411
0.0596695 0.0579277 0.526456
-0.251952 -0.139929 0.526456
0.176141 -0.0671798 0.51919
0.204738 -0.150224 0.526456
-0.265486 0.266138 0.520976
-0.198936 0.263126 0.51919
0.22096 -0.0836349 0.51919
-0.123963 -0.207036 0.51919
-0.169014 0.169306 0.51919
-0.0729998 -0.219093 0.51919
0.210284 -0.084333 0.526456
-0.223118 0.179978 0.51919
-0.197691 0.0343394 0.51919
0.0654299 -0.00279528 0.51919
0.0907524 -0.0629441 0.51919
-0.172131 0.109416 0.51919
0.038118 -0.250146 0.526456
-0.122306 0.104714 0.526456
0.246166 0.251285 0.0651513
-0.190113 -0.205887 0.186958
-0.0687835 0.021598 0.51919
0.213416 -0.118285 0.526456
0.134972 -0.146263 0.310361
0.208227 -0.253092 0.526456
-0.168407 -0.202374 0.526456
0.114225 -0.245771 0.51919
0.0507122 -0.124343 0.51919
-0.148663 -0.21753 0.51919
0.180095 0.263492 0.51919
0.24327 0.0762345 0.51919
0.133331 -0.25201 0.526456
-0.258429 0.280414 0.040557
0.0634862 0.019983 0.51919
0.148588 0.11745 0.51919
-0.0631133 0.0621525 0.49557
0.235793 0.187157 0.51919
-0.290383 -0.300343 -1.38778e-17
0.0496048 -0.0915969 0.526456
-0.0987898 -0.107267 0.407333
0.257198 0.0848649 0.526456
-0.0623908 -0.146622 0.526456
-0.147703 -0.149812 0.286222
0.0677501 -0.258224 0.51919
0.0535718 0.138263 0.51919
0.197217 -0.0490557 0.526456
-0.098792 0.181964 0.51919
-0.0544386 -0.0470911 0.50864
0.093274 0.113711 0.526456
0.0892093 -0.0840293 0.444429
0.209632 0.0881078 0.51919
-0.255396 0.232931 0.526456
-0.129482 0.130072 0.51919
0.268847 0.0394333 0.51919
-0.0711201 0.149314 0.526456
0.136153 0.1454 0.329012
0.0570517 -0.135815 0.526456
0.00234368 0.0664127 0.51919
0.109093 0.084599 0.526456
0.0251051 -0.120344 0.526456
0.119286 0.250209 0.526456
-0.0278647 -0.0699984 0.526456
0.19033 -0.111085 0.51919
0.0540614 -0.141874 0.526456
-0.15898 0.240921 0.51919
-0.131516 0.127348 0.51919
-0.177994 0.193945 0.217176
-0.0198132 -0.129425 0.526456
0.163235 -0.225824 0.51919
-0.189257 0.251024 0.526456
-0.214754 0.044794 0.51919
0.162764 -0.170518 0.51919
0.175866 0.174762 0.526456
-0.237243 0.10273 0.526456
0.0727261 -0.079113 0.46518
0.0908936 0.122086 0.51919
-0.0934403 0.00956896 0.51919
-0.034844 0.0433813 0.526456
-0.300569 0.278531 0.00578457
0.256711 -0.217818 0.526456
-0.00921997 -0.088023 0.526456
0.269972 -0.0365251 0.525951
-0.222591 0.085356 0.526456
0.275573 0.282024 -1.38778e-17
0.129242 -0.119658 0.362177
-0.254814 0.144343 0.51919
0.265669 0.0097127 0.51919
0.103752 -0.198075 0.526456
0.179138 0.194801 0.224696
0.051025 -0.219431 0.51919
0.0676597 0.237582 0.526456
0.265312 0.285841 0.0379278
-0.199917 -0.184774 0.51919
0.287673 -0.277863 -1.38778e-17
0.0870372 0.11986 0.51919
-0.0162474 0.0796608 0.526456
-0.00739041 0.205897 0.51919
0.264733 -0.171806 0.526456
0.0198963 0.189611 0.51919
0.0947605 0.0734387 0.526456
-0.146072 -0.182482 0.51919
-0.288105 -0.284993 -1.38778e-17
-0.222007 -0.144996 0.51919
0.0804769 0.0452692 0.526456
0.251263 0.0789197 0.526456
-0.265486 -0.24129 0.522791
0.211183 -0.25543 0.51919
-0.236273 -0.238398 0.51919
0.0916441 -0.268414 0.526456
-0.196339 -0.238387 0.51919
0.214416 0.204802 0.153444
0.269972 -0.122774 0.524329
-0.221795 -0.0318429 0.526456
-0.220972 0.26691 0.519648
-0.153009 0.239943 0.51919
0.0855676 0.232619 0.51919
0.151071 0.0484313 0.526456
0.265934 -0.235024 0.51919
0.226635 -0.115212 0.526456
-0.219683 -0.0074237 0.526456
-0.0295362 0.00790992 0.51919
-0.0798378 -0.169393 0.526456
-0.074535 0.100861 0.526456
-0.0675243 0.241767 0.51919
-0.20284 0.100463 0.51919
-0.143231 0.135578 0.309043
-0.0457115 0.22891 0.526456
0.140448 -0.0947025 0.51919
0.137186 -0.156825 0.51919
-0.16834 -0.236867 0.526456
-0.281695 -0.271341 0.00505811
-0.130421 0.115605 0.526456
0.232635 0.0248042 0.51919
0.0838069 -0.0500891 0.51919
-0.164587 -0.178783 0.258991
-0.0524419 0.162589 0.51919
-0.143728 -0.0356971 0.51919
-0.190847 -0.0135074 0.526456
-0.244382 0.0940864 0.51919
-0.290217 -0.301752 -1.38778e-17
0.0459074 0.151001 0.526456
0.110752 0.119414 0.382403
0.185786 -0.0845677 0.51919
0.192599 -0.209275 0.183709
0.230077 0.218052 0.51919
0.222121 -0.0519532 0.51919
0.0799761 -0.137178 0.526456
0.156032 0.259469 0.51919
-0.20692 -0.159572 0.51919
0.149915 0.137567 0.304571
-0.112456 -0.136106 0.526456
0.131753 -0.134813 0.348104
-0.0166412 -0.129213 0.51919
-0.223307 -0.202026 0.526456
0.0530792 -0.0472629 0.507527
0.288466 0.267447 0.0314287
-0.153235 -0.264916 0.51919
0.202007 -0.183499 0.51919
0.248629 0.054061 0.51919
0.250709 -0.118759 0.51919
-0.236049 -0.00532919 0.526456
0.0887613 0.115473 0.526456
0.162031 -0.172386 0.249531
0.244685 -0.0418419 0.526456
0.138321 0.177882 0.51919
0.124549 0.143447 0.526456
-0.271614 0.286166 0.0397944
0.266574 -0.245198 0.0723606
-0.0416293 -0.224969 0.526456
-0.111316 -0.114659 0.51919
0.00920904 -0.180194 0.526456
-0.0716923 -0.218358 0.51919
-0.0903039 -0.20432 0.526456
-0.178106 0.177575 0.51919
0.161563 -0.0589802 0.526456
-0.225023 -0.0691591 0.51919
0.11879 -0.166012 0.526456
-0.104477 -0.00598767 0.51919
-0.114902 0.189883 0.51919
0.188897 -0.142905 0.526456
-0.113075 0.0507554 0.526456
-0.22026 0.188708 0.51919
-0.223275 0.236598 0.141637
-0.113345 0.0962843 0.51919
-0.00275102 0.201307 0.51919
0.178356 0.19516 0.218914
-0.207787 -0.00459218 0.526456
0.126131 -0.191759 0.526456
-0.0451903 -0.268543 0.52322
0.200665 0.214808 0.186406
0.213979 -0.230726 0.13275
-0.221855 -0.122784 0.51919
0.0755792 -0.209568 0.51919
0.226847 0.146232 0.526456
0.203196 -0.203364 0.51919
0.247737 -0.156022 0.51919
0.238231 -0.245821 0.12081
0.190653 -0.0250862 0.526456
-0.196389 -0.180699 0.209552
-0.158517 0.0400877 0.526456
0.0264877 0.177178 0.51919
0.0959484 -0.182906 0.526456
0.12206 -0.127922 0.340062
0.247056 -0.125192 0.51919
-0.195984 -0.106781 0.51919
0.0627591 0.214246 0.526456
-0.254721 -0.0166488 0.51919
-0.0932611 -0.103033 0.415422
-0.254836 -0.0631161 0.51919
0.16778 -0.236491 0.51919
0.132873 -0.211338 0.51919
0.0845916 -0.192851 0.526456
0.000952959 -0.0366786 0.51919
-0.144754 -0.0990874 0.526456
-0.20804 -0.23766 0.526456
0.169096 0.102593 0.526456
-0.265486 0.202658 0.524937
-0.015545 0.100991 0.526456
0.0627689 -0.0598717 0.480526
-0.176228 -0.230543 0.526456
0.110571 0.12054 0.51919
0.082336 0.179058 0.526456
-0.234654 0.163101 0.51919
-0.0529042 -0.214035 0.526456
-0.218939 0.224398 0.163766
0.177874 0.11282 0.51919
0.193956 0.180998 0.206949
0.0393637 0.187202 0.526456
-0.217535 -0.214443 0.176226
0.134706 -0.13247 0.319905
0.0606443 -0.179559 0.526456
0.0567768 0.155034 0.526456
0.184774 0.225066 0.526456
0.0155866 0.0874184 0.51919
0.0128193 -0.0685982 0.526456
-0.134635 -0.0760464 0.51919
0.127275 0.116386 0.366136
0.251629 -0.205311 0.526456
0.0472814 0.260106 0.526456
-0.162174 -0.118198 0.51919
-0.0516028 -0.0875355 0.51919
-0.231703 -0.0773003 0.51919
-0.0371917 0.20882 0.526456
-0.0477797 0.0516314 0.51919
0.00587147 0.165053 0.51919
0.227926 -0.232997 0.145553
0.229437 -0.242485 0.51919
-0.251102 -0.0611242 0.51919
0.0536247 0.193254 0.51919
-0.0386126 0.119609 0.526456
-0.235407 0.0404032 0.51919
-0.160043 -0.0358357 0.51919
-0.0870118 -0.209338 0.526456
-0.198538 -0.0919983 0.51919
-0.235377 0.254362 0.0868861
0.04331 0.12019 0.526456
0.104286 0.236389 0.526456
0.262183 0.228027 0.51919
-0.100342 0.0456647 0.526456
0.0549068 0.256649 0.51919
-0.177216 -0.143908 0.526456
0.098048 0.221144 0.51919
0.204214 -0.225698 0.51919
-0.224779 0.107356 0.51919
0.233428 0.229052 0.526456
0.224403 0.229708 0.113315
0.225346 -0.0671737 0.526456
0.225482 0.0665328 0.526456
-0.139772 -0.193464 0.526456
0.237165 -0.230175 0.51919
0.0371178 -0.159581 0.51919
0.164921 -0.0367486 0.526456
-0.0483945 -0.235609 0.526456
-0.249509 0.00430524 0.51919
-0.168819 0.0940904 0.526456
0.258004 -0.0822577 0.526456
0.198842 -0.0957773 0.526456
0.0279108 0.150628 0.51919
0.0619347 -0.241863 0.526456
0.0791967 -0.0437973 0.51919
-0.219361 -0.0420487 0.51919
0.101349 0.265714 0.526456
-0.193104 -0.0389967 0.526456
0.0388691 0.259594 0.526456
-0.110514 0.0548027 0.526456
0.192199 0.203361 0.181713
0.115971 0.11181 0.51919
-0.0513301 -0.143516 0.526456
0.0214545 0.222697 0.526456
0.0857954 -0.0258624 0.51919
-0.241002 -0.239791 0.0825279
-0.233175 -0.131063 0.51919
-0.20456 0.223279 0.16146
-0.162959 0.186549 0.526456
-0.249553 0.270058 0.0572963
0.161249 0.238348 0.526456
-0.228152 0.0274755 0.526456
0.0479 -0.193145 0.526456
0.180786 -0.223452 0.51919
-0.0324132 0.173453 0.51919
0.0489094 0.0124426 0.51919
0.199809 0.079343 0.51919
-0.278993 -0.294198 -1.38778e-17
0.240446 -0.229073 0.133694
0.140914 0.1529 0.526456
0.26956 -0.129491 0.51919
0.0244742 -0.17921 0.526456
-0.0810824 0.224197 0.51919
0.14021 0.0907599 0.526456
-0.252838 0.0154851 0.51919
-0.00568962 -0.127531 0.51919
0.030861 -0.162394 0.526456
-0.0355541 0.209907 0.51919
-0.218787 -0.231799 0.122011
-0.104706 -0.116385 0.384931
0.119932 -0.204985 0.51919
-0.187469 0.154763 0.51919
0.255852 0.0421841 0.51919
-0.192434 0.0494488 0.51919
-0.1861 -0.187211 0.526456
0.267386 0.198823 0.526456
-0.184337 -0.171956 0.227239
-0.196896 -0.191105 0.221178
0.272401 -0.291831 0.00141597
-0.228006 0.226664 0.111585
0.0101369 0.0036976 0.526456
-0.0546995 0.0395926 0.526456
-0.257948 0.0656843 0.526456
-0.0330275 0.0590069 0.526456
-0.0404688 -0.113528 0.51919
-0.12035 -0.0394076 0.526456
-0.0206672 0.219091 0.526456
-0.00425842 -0.250406 0.526456
-0.202638 0.204143 0.526456
-0.193258 -0.180013 0.526456
0.235691 -0.229065 0.141138
-0.131854 -0.0333101 0.51919
0.0149415 0.086557 0.51919
0.184414 -0.197516 0.221902
0.129641 0.0154371 0.526456
0.145584 0.0947812 0.51919
-0.0120999 -0.252773 0.526456
0.263363 0.0524056 0.51919
-0.190572 -0.0826951 0.526456
0.173305 -0.154358 0.526456
-0.115482 0.226632 0.526456
0.0592147 0.0540718 0.506056
0.253557 0.169752 0.526456
-0.0998525 -0.258272 0.526456
-0.00665799 0.212822 0.526456
-0.157506 -0.120994 0.526456
0.230774 0.021497 0.526456
-0.262497 0.24291 0.0849855
-0.122154 0.130127 0.51919
0.265524 0.163845 0.51919
-0.16491 0.179037 0.526456
0.103476 0.188117 0.51919
0.050733 0.0794991 0.526456
-0.15844 -0.199654 0.526456
0.0894084 0.0496387 0.526456
-0.21504 0.148343 0.51919
0.0351016 0.205432 0.526456
-0.175431 0.243867 0.51919
-0.233215 -0.0459928 0.51919
0.0894983 -0.206501 0.51919
0.18988 0.263471 0.526456
-0.0474904 0.247007 0.526456
-0.184435 0.176651 0.217362
0.0468963 0.132335 0.51919
-0.00672653 0.056903 0.51919
-0.0778514 0.0315034 0.526456
0.268618 0.26691 0.51938
-0.145222 -0.0420454 0.51919
-0.00480297 0.187666 0.51919
-0.1883 -0.0653279 0.51919
0.0370489 -0.00975862 0.526456
0.0123938 -0.243815 0.51919
0.19725 -0.0203488 0.51919
-0.122835 -0.11181 0.36255
0.0943888 -0.0621166 0.51919
0.0945346 0.103193 0.526456
-0.0218347 -0.147846 0.526456
0.289981 -0.292569 -1.38778e-17
-0.225616 0.247662 0.51919
-0.199688 0.240011 0.51919
0.145917 0.254959 0.526456
-0.0354775 0.195752 0.51919
-0.0605317 -0.0657038 0.477737
0.264624 0.26691 0.522475
0.219968 0.237322 0.119285
-0.155553 -0.152368 0.51919
-0.23072 0.232856 0.526456
-0.152423 -0.0742724 0.51919
0.260736 -0.174647 0.51919
-0.229347 0.216999 0.126028
-0.00131837 -0.109201 0.51919
0.230293 -0.243507 0.0960771
0.107478 0.143616 0.526456
-0.0162527 0.250564 0.526456
-0.248524 0.228929 0.526456
0.23638 0.235488 0.51919
-0.0556595 -0.0318396 0.51919
-0.234645 0.117743 0.526456
0.269972 0.203173 0.522102
-0.159444 0.121755 0.526456
-0.171038 0.0735297 0.51919
-0.207767 -0.0576944 0.526456
-0.112864 0.163585 0.526456
-0.162203 0.149406 0.294465
0.252317 0.255916 0.0968226
-0.03958 0.130127 0.526456
-0.100624 -0.249483 0.526456
-0.249271 0.26223 0.51919
0.119806 -0.0431846 0.526456
-0.105863 -0.0280143 0.51919
-0.204424 0.192428 0.51919
-0.1408 0.0985151 0.526456
0.143134 -0.0112818 0.51919
-0.210158 -0.115917 0.526456
0.24276 0.240016 0.51919
0.130773 -0.120795 0.342241
0.115083 -0.247807 0.526456
0.212521 -0.0803875 0.526456
-0.18239 0.0842473 0.526456
-0.0278966 -0.189986 0.526456
0.0704153 -0.00433823 0.51919
-0.167041 0.113888 0.526456
-0.0387791 0.236488 0.526456
0.261142 -0.00575528 0.526456
0.0807222 -0.144519 0.526456
0.211843 0.226391 0.162609
-0.0759542 -0.190407 0.526456
0.146889 -0.133206 0.319167
0.0151153 0.263514 0.51919
-0.203378 0.191251 0.209912
0.117388 0.0302126 0.526456
0.257226 0.230063 0.51919
0.021124 -0.158425 0.51919
-0.0768275 0.0806744 0.44215
0.249954 0.264959 0.083368
-0.101345 -0.111871 0.396549
-0.0254793 0.26691 0.521403
0.0358903 -0.180106 0.526456
0.0917694 -0.17639 0.51919
0.0543524 0.0546663 0.494879
0.219145 0.20923 0.17746
-0.279699 0.267999 0.0114092
-0.11379 0.14701 0.51919
0.170529 -0.104187 0.51919
-0.148925 -0.0931645 0.51919
0.196255 0.252822 0.526456
0.250436 0.0410982 0.526456
-0.0361792 0.109602 0.526456
0.00177026 -0.151267 0.51919
-0.0351126 0.0165893 0.526456
-0.00700748 0.229035 0.51919
0.0382713 -0.179741 0.526456
0.163063 0.244574 0.51919
0.181891 -0.192581 0.526456
-0.242453 -0.235264 0.0877152
-0.192814 -0.13896 0.526456
-0.210117 -0.0460363 0.51919
-0.184432 -0.169533 0.246521
-0.258459 0.205256 0.526456
-0.0899716 0.131344 0.526456
0.263005 -0.0521672 0.51919
0.193536 0.150742 0.51919
-0.152187 0.144595 0.526456
0.110812 0.249069 0.526456
0.0405896 -0.106621 0.51919
-0.200824 0.244654 0.526456
0.101045 -0.0815438 0.51919
-0.260118 0.0984162 0.526456
-0.0846187 -0.175723 0.51919
0.0147284 0.125591 0.526456
0.165348 -0.128303 0.51919
0.02167 0.132969 0.526456
-0.0268812 0.171222 0.51919
0.25277 0.0866396 0.51919
-0.251355 -0.0898828 0.526456
-0.21495 0.207431 0.526456
-0.0955573 -0.136639 0.526456
-0.0584641 0.255527 0.51919
-0.0552459 -0.223904 0.526456
-0.111295 0.0318068 0.526456
0.222335 -0.221814 0.51919
-0.246262 -0.172144 0.526456
-0.0542858 0.0857018 0.51919
-0.111353 0.221395 0.526456
-0.141163 0.0696372 0.51919
-0.0471209 -0.199853 0.51919
-0.243609 -0.0698263 0.526456
0.261043 0.0858816 0.51919
-0.0484724 -0.0908246 0.526456
-0.170874 -0.0757469 0.51919
-0.296499 0.276435 -1.38778e-17
-0.113557 0.116794 0.385725
-0.0552317 -0.183583 0.51919
-0.0727937 0.0816907 0.51919
-0.224229 -0.0440358 0.51919
0.176459 -0.192196 0.220074
-0.12754 -0.123195 0.36423
-0.221645 0.227119 0.526456
0.190222 0.204277 0.208043
0.0222714 -0.032863 0.51919
-0.0293518 -0.214834 0.51919
-0.213788 -0.0587633 0.526456
0.117089 0.239626 0.51919
-0.265486 0.221948 0.524568
0.304532 0.28434 0.00202173
0.0388658 0.180726 0.526456
-0.19859 -0.120927 0.51919
0.108421 0.0892332 0.526456
-0.245172 -0.0150031 0.526456
-0.157504 -0.0789415 0.51919
0.293485 0.271184 0.0103956
-0.13506 0.143595 0.310213
-0.182746 -0.260832 0.526456
0.245162 0.227228 0.122301
-0.237859 -0.12852 0.526456
-0.0525546 0.0106534 0.526456
0.180987 -0.118727 0.526456
-0.0723863 0.106637 0.51919
0.219587 0.266483 0.526456
0.0584219 0.0357462 0.526456
-0.105612 -0.0952932 0.409169
-0.232513 0.15454 0.526456
-0.203506 -0.189763 0.209647
0.300083 0.282644 -1.38778e-17
-0.0587104 0.170702 0.526456
-0.000228226 -0.00232443 0.51919
0.121324 0.0255385 0.526456
0.180926 0.257505 0.51919
-0.188437 -0.0692631 0.51919
0.0898586 0.254042 0.51919
-0.253038 -0.0296054 0.51919
0.0983502 -0.109396 0.395578
0.04485 0.158926 0.51919
-0.184599 0.10197 0.526456
0.054549 -0.252745 0.526456
0.141407 0.138551 0.334258
-0.0875871 -0.078831 0.447708
0.147192 0.191106 0.51919
0.190432 0.17526 0.51919
-0.0117978 -0.114091 0.51919
-0.0983264 -0.108611 0.393223
0.0983512 0.259003 0.51919
-0.037325 -0.247855 0.51919
-0.184095 0.193995 0.229168
0.0828406 -0.0868339 0.448545
-0.120548 -0.113474 0.358695
-0.0256639 -0.0488843 0.526456
0.0842473 -0.0240235 0.526456
-0.158996 0.123623 0.51919
-0.121965 -0.233846 0.51919
0.0613333 0.225984 0.526456
0.168911 -0.0114535 0.526456
0.231851 0.00450382 0.526456
-0.131563 -0.213835 0.526456
-0.205004 0.112061 0.51919
-0.252665 0.261884 0.526456
0.227648 -0.260469 0.51919
0.0371148 0.143913 0.526456
0.0846742 -0.0748001 0.450269
-0.195896 -0.196878 0.526456
-0.0720093 0.143819 0.51919
-0.127385 0.0290669 0.51919
-0.207154 -0.212797 0.151376
0.2121 0.200665 0.162742
0.250103 -0.0244827 0.526456
0.0875014 0.0968737 0.51919
0.176005 0.250356 0.51919
-0.18586 0.0244765 0.526456
-0.166447 -0.163598 0.526456
-0.267612 0.290066 0.0246471
0.0606089 0.222695 0.526456
0.181362 0.200428 0.51919
-0.126979 0.264351 0.526456
-0.187275 -0.195699 0.193238
-0.0275962 0.149787 0.51919
-0.113695 0.105192 0.377344
-0.00917661 0.0368818 0.51919
-0.127706 -0.180376 0.51919
0.00375959 -0.0327398 0.526456
0.221556 0.237841 0.139083
-0.261449 -0.00127977 0.51919
0.127771 0.0400569 0.526456
0.0518366 0.00110975 0.51919
0.06544 -0.164085 0.51919
-0.162147 0.0942443 0.51919
0.0537847 0.122782 0.51919
-0.207697 -0.00177774 0.526456
-0.135656 -0.0510626 0.51919
0.192472 -0.167502 0.51919
-0.162868 0.0351926 0.51919
-0.181736 0.207993 0.51919
-0.0393831 0.254774 0.51919
-0.187143 0.0496454 0.51919
-0.0874945 0.054019 0.526456
0.292389 -0.287964 -1.38778e-17
-0.251066 -0.235256 0.111939
0.268408 0.0648383 0.51919
-0.0239904 0.246847 0.526456
-0.189656 -0.0696986 0.51919
0.0332641 0.169547 0.51919
-0.155057 0.157803 0.51919
0.147388 0.134748 0.323097
0.233925 -0.257956 0.526456
0.0523408 0.189957 0.51919
0.0615014 0.0803987 0.526456
-0.126132 -0.0846447 0.51919
-0.121566 -0.0728639 0.526456
-0.171139 0.144272 0.51919
-0.244727 0.157714 0.51919
-0.00932056 -0.267807 0.526456
-0.125213 -0.020324 0.526456
0.224781 -0.026761 0.51919
0.021498 -0.109447 0.526456
0.216212 -0.249809 0.526456
-0.1557 0.0915269 0.51919
0.205035 0.260073 0.51919
-0.244578 -0.236113 0.0847924
-0.264193 0.226906 0.526456
-0.11907 -0.0765141 0.51919
0.158475 0.184542 0.526456
0.107242 0.135444 0.51919
0.0192277 -0.195147 0.526456
0.0735841 0.1279 0.526456
-0.206084 -0.0544133 0.526456
-0.234457 0.215995 0.132509
0.119087 0.128977 0.526456
-0.0190235 -0.24261 0.526456
0.0961579 -0.0244246 0.51919
0.267777 0.118565 0.51919
0.128033 -0.120381 0.34317
0.0122741 0.00906405 0.51919
0.202073 0.209031 0.196825
-0.230998 0.247447 0.0945634
0.0442852 -0.127843 0.51919
0.238195 -0.250041 0.113983
0.0961675 -0.00911212 0.51919
0.294084 0.281696 -1.38778e-17
0.0668401 -0.0353065 0.51919
-0.092057 -0.257211 0.51919
0.0150594 -0.165285 0.51919
0.124576 0.0294815 0.51919
-0.0971062 -0.0837435 0.51919
-0.206223 -0.200317 0.20188
-0.247766 -0.266402 0.51919
0.189703 -0.0569282 0.51919
0.244978 0.265761 0.0691347
-0.106671 0.249096 0.526456
0.0671514 -0.241408 0.526456
-0.0139365 -0.221863 0.526456
-0.0190337 0.103829 0.526456
0.207688 -0.216265 0.182995
0.0569831 -0.0652221 0.487459
0.252716 -0.232641 0.0972286
-0.082398 -0.041608 0.526456
0.039961 0.255458 0.526456
-0.0371492 -0.12553 0.51919
-0.187728 0.115738 0.51919
-0.0156471 -0.212681 0.51919
-0.201436 -0.109208 0.526456
-0.216771 -0.228717 0.126543
0.113598 0.13219 0.51919
0.0451213 0.151036 0.51919
-0.187345 -0.037788 0.526456
0.0253263 0.0119354 0.51919
-0.178818 0.116579 0.51919
0.113238 -0.115851 0.526456
-0.089572 -0.116595 0.51919
-0.0207489 0.0286276 0.526456
0.164918 -0.179477 0.244399
0.200936 -0.205293 0.202594
-0.297316 -0.279469 -1.38778e-17
-0.248529 0.0836252 0.526456
0.228847 0.235586 0.526456
-0.0623395 -0.0573454 0.51919
0.0296033 -0.0451768 0.51919
-0.00408208 0.241736 0.526456
0.202522 -0.145382 0.526456
0.096859 -0.149022 0.526456
0.167982 0.0783086 0.526456
-0.254502 0.170149 0.526456
0.148007 -0.157006 0.305136
-0.10908 0.21067 0.51919
0.218764 0.220217 0.169394
0.0193617 0.203976 0.526456
0.279187 -0.277419 -1.38778e-17
-0.0691238 -0.0685397 0.463181
-0.0735554 0.230349 0.51919
-0.206228 0.196248 0.526456
-0.101653 0.229778 0.526456
-0.0632493 -0.0675251 0.51919
0.271236 -0.25344 0.0440759
0.189017 -0.179205 0.210944
-0.102689 0.134813 0.526456
-0.22737 -0.0348931 0.526456
0.107949 0.165189 0.51919
-0.163256 -0.0181386 0.526456
-0.0102437 0.166654 0.526456
-0.0725118 -0.251569 0.526456
-0.19723 -0.231286 0.51919
0.160587 0.162312 0.257892
-0.121307 -0.146388 0.526456
0.26884 -0.0843186 0.526456
0.0321717 -0.0715588 0.526456
-0.172314 -0.171924 0.233847
-0.117154 -0.129591 0.357696
-0.0622238 -0.197012 0.526456
-0.239217 -0.138692 0.526456
-0.07659 0.0162135 0.526456
-0.0760433 0.227769 0.526456
-0.0550329 0.0750467 0.51919
-0.180392 0.182843 0.213396
-0.0976666 0.233599 0.51919
0.0251724 0.036892 0.526456
-0.191449 0.215182 0.51919
-0.181417 -0.0484864 0.526456
-0.0453939 0.175653 0.51919
0.177788 -0.151302 0.51919
0.26016 -0.110182 0.51919
-0.0626517 0.0628486 0.476586
0.21993 0.233854 0.526456
-0.0673721 0.154596 0.526456
-0.0971133 0.183953 0.51919
-0.123165 -0.0837014 0.526456
-0.0541665 -0.170605 0.51919
0.0471648 0.219085 0.526456
0.208058 -0.0345608 0.51919
-0.206294 -0.190317 0.201907
0.253353 -0.032123 0.526456
-0.213841 -0.218963 0.174786
-0.105097 0.0604039 0.51919
0.0586956 -0.259569 0.526456
0.225461 -0.0228797 0.51919
-0.130397 -0.0738681 0.51919
-0.211159 -0.000504881 0.51919
-0.00766996 0.0700927 0.51919
0.0619672 -0.116782 0.526456
0.202371 0.0836973 0.526456
-0.127979 -0.00912881 0.526456
0.257502 -0.265726 0.51919
-0.0822906 0.243705 0.51919
0.269972 0.054229 0.524291
-0.200887 0.121321 0.526456
0.187426 -0.213091 0.526456
0.16016 0.174151 0.51919
-0.0387239 0.169558 0.51919
0.107851 -0.240712 0.51919
-0.0674248 -0.0586425 0.485159
-0.0731078 -0.216978 0.51919
0.230041 0.147414 0.526456
-0.251774 -0.0365173 0.51919
-0.0960664 -0.0701902 0.526456
-0.0828402 -0.175875 0.526456
-0.0529007 0.051259 0.526456
0.0718632 -0.138349 0.51919
-0.0398775 -0.035765 0.51919
0.186758 -0.252411 0.526456
0.192529 -0.178878 0.211679
0.0839026 0.258346 0.51919
-0.225983 -0.264478 0.526456
0.0980085 -0.0962627 0.51919
-0.230179 0.0508751 0.51919
-0.22335 0.223261 0.161866
0.164158 -0.150385 0.288101
-0.226218 -0.129427 0.526456
-0.170609 -0.03126 0.51919
-0.0760697 -0.0985565 0.51919
0.0295233 0.0331313 0.51919
0.267761 -0.227254 0.526456
-0.172394 -0.121634 0.51919
0.0425899 -0.0994032 0.51919
-0.0779876 -0.203487 0.51919
-0.239819 0.194011 0.526456
-0.0547632 -0.203101 0.51919
0.153657 -0.16721 0.282892
0.224051 -0.223772 0.11882
0.108916 -0.162757 0.526456
0.208207 0.0447742 0.51919
0.0971898 -0.209195 0.526456
-0.173999 0.030714 0.526456
0.107819 -0.0831962 0.526456
0.186011 -0.0545657 0.51919
0.250755 0.0402582 0.526456
-0.171211 -0.133838 0.51919
-0.183501 -0.160157 0.526456
0.23599 -0.145354 0.51919
0.0117029 -0.0725172 0.526456
-0.257129 -0.166442 0.526456
-0.239716 -0.212727 0.51919
0.266362 0.0919134 0.51919
-0.0182933 -0.201866 0.51919
0.0036048 0.144711 0.526456
0.10348 -0.0474608 0.51919
0.0231493 0.242027 0.51919
0.25485 0.234775 0.0981756
-0.164351 0.0682234 0.526456
-0.0753859 0.0784553 0.445983
-0.251043 -0.266324 0.0495065
-0.175344 -0.159673 0.261895
0.17302 0.0305834 0.51919
0.0614748 -0.0165923 0.526456
0.0219269 0.035623 0.526456
-0.153096 0.00298864 0.51919
-0.0898835 -0.154951 0.51919
0.121656 0.113392 0.51919
0.213213 0.224956 0.51919
0.103662 -0.0149344 0.51919
0.0856274 0.253575 0.51919
0.135982 -0.19233 0.51919
-0.0796207 0.0858857 0.434829
-0.236317 0.0582197 0.526456
-0.19684 0.201652 0.21055
-0.212051 0.229024 0.155718
0.239081 0.161023 0.51919
-0.176729 0.240787 0.51919
-0.0552588 -0.101651 0.51919
-0.120341 0.177554 0.51919
-0.160261 -0.16344 0.257474
0.146703 -0.233063 0.51919
0.0463229 -0.235041 0.51919
-0.109598 -0.0161473 0.526456
-0.0625785 0.0314002 0.51919
-0.227039 0.1877 0.51919
-0.231714 0.0723914 0.526456
0.234862 -0.12997 0.526456
0.0730958 -0.261776 0.526456
-0.205148 -0.0185035 0.526456
-0.0307055 0.0486474 0.526456
0.11685 -0.16386 0.51919
-0.246 0.205996 0.526456
0.0574606 -0.138746 0.51919
0.00737512 0.151107 0.526456
0.0815037 0.0790878 0.526456
-0.249479 0.237668 0.0795703
-0.22674 0.23539 0.51919
-0.249946 -0.229223 0.526456
0.10116 -0.158265 0.51919
0.188906 0.0278674 0.51919
-0.178173 -0.145323 0.526456
0.0807079 -0.207644 0.526456
-0.0893471 0.247228 0.526456
0.0529445 0.257758 0.51919
0.0790797 -0.203842 0.51919
0.114879 -0.127361 0.526456
0.0981063 -0.0375749 0.51919
-0.0881322 -0.199736 0.51919
0.186975 -0.255854 0.51919
-0.0376939 0.125978 0.526456
-0.0249346 0.230695 0.51919
0.15691 0.0683217 0.51919
-0.116028 0.20866 0.526456
-0.159459 -0.0607535 0.51919
0.0149203 0.186465 0.526456
0.152791 0.097096 0.51919
0.170701 -0.221558 0.526456
-0.109375 0.031722 0.526456
0.0512324 0.100215 0.51919
0.139799 -0.0873336 0.526456
0.213577 -0.013129 0.526456
-0.0938277 -0.207225 0.51919
0.108565 0.0653408 0.526456
0.00232425 -0.028002 0.51919
0.0308989 -0.167642 0.51919
0.149747 0.245779 0.526456
0.086729 -0.0570366 0.51919
-0.227041 -0.177207 0.51919
0.11848 0.0129555 0.526456
-0.273327 -0.256688 0.0367756
0.0661684 0.183226 0.526456
0.174476 0.144693 0.51919
-0.249941 0.270735 0.0573243
-0.246333 -0.192312 0.526456
-0.014676 0.208925 0.526456
-0.232945 0.0132061 0.51919
-0.154656 0.139266 0.51919
0.161616 -0.239577 0.51919
0.153537 0.146846 0.311961
0.0267246 0.147471 0.526456
-0.0264749 -0.113717 0.51919
-0.16406 0.149402 0.286072
0.271069 0.291165 0.00441116
0.00920847 -0.16794 0.51919
0.175981 0.0521184 0.526456
0.264616 0.213326 0.51919
0.248106 0.0864267 0.526456
-0.103618 -0.144497 0.51919
-0.194548 -0.126453 0.51919
0.256947 -0.0106559 0.526456
0.114749 0.239678 0.526456
0.100531 -0.254213 0.51919
-0.155427 -0.170367 0.269036
-0.234848 -0.216181 0.132664
-0.116093 0.199453 0.526456
-0.0888289 -0.140063 0.51919
0.0131459 0.106647 0.51919
-0.143098 0.196232 0.51919
0.276596 -0.278687 -1.38778e-17
0.120568 -0.118914 0.526456
-0.221594 0.234688 0.51919
-0.203576 0.165572 0.526456
-0.0325806 -0.191003 0.526456
-0.180039 0.107417 0.526456
-0.249236 0.236171 0.51919
-0.0673006 0.244289 0.51919
-0.200077 -0.193908 0.214854
-0.0802071 0.0833628 0.51919
0.15586 -0.143489 0.307486
0.214144 0.135886 0.51919
0.0489445 0.254373 0.51919
0.112344 -0.0948747 0.51919
-0.0476473 -0.247772 0.526456
-0.169605 0.131028 0.526456
0.144961 0.0887783 0.51919
0.143495 0.101484 0.51919
0.130224 0.12415 0.51919
0.193759 -0.137981 0.51919
-0.198238 0.209479 0.197357
-0.18602 0.193505 0.51919
0.232747 -0.253108 0.097727
-0.114285 -0.183242 0.51919
0.124478 -0.201955 0.51919
-0.1829 0.179153 0.51919
-0.0306127 0.10445 0.51919
-0.0263502 0.131538 0.526456
0.261403 -0.240821 0.0789041
-0.178665 -0.124465 0.51919
0.254235 0.211262 0.51919
-0.199301 -0.178065 0.51919
-0.0590067 0.0602782 0.526456
-0.0589775 -0.0209884 0.51919
-0.238958 -0.167976 0.51919
0.22549 0.0554523 0.526456
-0.22373 0.216985 0.526456
0.0144707 -0.155157 0.526456
-0.212136 0.121847 0.526456
-0.037604 -0.221067 0.51919
0.181621 -0.143019 0.51919
-0.138308 -0.257577 0.51919
0.0414357 -0.262768 0.526456
-0.254326 -0.109117 0.526456
0.284847 -0.266613 0.0144658
-0.253467 0.273004 0.0444466
-0.112831 -0.0308379 0.51919
0.142971 0.20328 0.51919
0.26566 0.0854263 0.526456
0.127845 -0.234926 0.526456
0.124767 0.221784 0.526456
-0.1937 0.0447616 0.51919
0.242698 -0.256685 0.100331
-0.232858 0.0026114 0.526456
0.103545 -0.0345654 0.51919
0.15727 -0.222422 0.51919
-0.194869 0.210915 0.176177
0.291667 0.268952 0.0172274
0.0729254 0.0048424 0.526456
0.11492 -0.131656 0.51919
0.177847 0.11614 0.526456
-0.142827 -0.0164832 0.51919
0.103024 0.124759 0.51919
-0.0798208 0.0224119 0.526456
0.224267 -0.25964 0.51919
-0.226099 -0.0137425 0.526456
-0.0607511 0.0781903 0.526456
0.0547726 0.197127 0.51919
0.0348858 -0.152626 0.51919
-0.236968 0.0259473 0.526456
0.133933 -0.243039 0.51919
-0.0882153 -0.0908732 0.439149
0.0172031 0.219104 0.526456
0.162422 -0.155084 0.265549
0.227043 0.195488 0.526456
0.255976 -0.263597 0.526456
-0.230552 0.127613 0.526456
-0.14055 0.209184 0.526456
0.00216457 -0.138018 0.51919
-0.200139 0.117052 0.51919
0.236336 -0.217639 0.129323
-0.28239 0.278146 -1.38778e-17
0.101516 0.0248829 0.51919
0.227647 0.00919813 0.51919
0.268883 -0.00763288 0.526456
0.147904 0.0946958 0.51919
-0.103587 0.136753 0.526456
0.0668537 0.234627 0.51919
-0.22159 -0.206521 0.172495
-0.147208 -0.137458 0.304784
0.0268974 -0.0775686 0.51919
-0.22269 -0.207682 0.170236
0.187675 -0.251861 0.526456
0.117997 -0.148268 0.51919
-0.22125 0.2469 0.51919
0.214114 0.177085 0.526456
-0.0476054 -0.120297 0.526456
