0.00198874 -0.260462 0.526456
-0.265486 0.257779 0.522996
-0.143486 -0.156516 0.304621
-0.204072 0.209718 0.15823
0.222152 0.209683 0.142473
0.0897189 0.0904375 0.526456
-0.294073 -0.288934 0.0187032
0.120223 -0.124899 0.526456
-0.240518 -0.101661 0.51919
-0.0749713 0.0715532 0.47279
0.269972 -0.116744 0.522155
-0.13764 -0.224756 0.51919
0.109121 0.245356 0.51919
0.254927 -0.25305 0.0975401
-0.146518 0.168652 0.526456
0.234181 0.127315 0.51919
0.0896832 0.0803468 0.434041
0.146011 -0.134523 0.327722
-0.0416735 -0.144743 0.526456
0.117567 -0.268545 0.526444
-0.03029 0.123178 0.526456
-0.257253 0.154758 0.51919
-0.237934 0.251519 0.0789723
-0.141748 -0.0591762 0.51919
0.263041 0.25307 0.0868508
0.0505347 -0.0252095 0.526456
-0.263163 -0.00743821 0.51919
-0.101004 -0.0969354 0.397311
0.166333 0.0260421 0.526456
-0.196771 -0.179812 0.217564
-0.143902 0.249977 0.526456
-0.18349 0.169308 0.250161
0.188239 -0.0439764 0.51919
0.184171 0.172111 0.226925
0.204537 -0.166277 0.51919
0.0704688 -0.20151 0.526456
-0.273265 -0.276496 0.0537674
0.0513895 0.181903 0.51919
0.194908 0.212942 0.526456
-0.0527725 -0.265431 0.526456
-0.237101 -0.177775 0.51919
-0.0192663 0.0266016 0.51919
-0.154369 -0.125358 0.526456
0.0475985 -0.103807 0.51919
-0.180247 -0.268297 0.51919
-0.0932311 0.0713679 0.526456
-0.0628667 0.196239 0.526456
0.15038 0.147823 0.51919
-0.0662416 0.00220644 0.526456
-0.00834095 -0.186059 0.526456
-0.097659 0.0961241 0.401195
-0.264955 0.227803 0.51919
-0.15774 0.165706 0.259232
-0.27048 0.263007 0.0259262
0.201052 0.194738 0.17837
0.263071 0.056524 0.51919
-0.0104891 -0.0765469 0.51919
-0.112374 -0.15648 0.526456
-0.26419 0.0633829 0.51919
0.271666 -0.250136 0.0622248
-0.203893 0.126451 0.526456
0.120452 0.131713 0.356808
-0.199182 -0.200046 0.526456
0.218202 -0.202293 0.159046
0.269972 -0.053093 0.521808
0.152067 -0.0934236 0.51919
-0.188752 -0.0327621 0.526456
0.25904 0.194714 0.526456
0.197635 -0.121951 0.51919
0.106795 -0.0553483 0.526456
0.0290139 0.0998958 0.526456
0.17757 -0.237824 0.526456
-0.265486 -0.048149 0.525824
0.269972 -0.192817 0.521607
-0.152231 -0.161901 0.271615
0.164213 -0.158273 0.289187
0.102814 0.0175529 0.526456
0.0649385 -0.0572505 0.485077
-0.197616 0.210802 0.51919
-0.147235 0.114999 0.526456
0.17932 0.0937556 0.526456
0.0635356 0.057053 0.497179
-0.0810308 -0.0951655 0.51919
-0.0800018 -0.183207 0.526456
-0.173777 -0.120011 0.51919
0.216499 0.230902 0.127086
0.130837 -0.19582 0.51919
0.168729 0.266616 0.526456
-0.208231 -0.195279 0.174813
-0.0744158 0.252862 0.51919
-0.24959 -0.267682 0.0527717
0.117248 -0.115115 0.383909
0.183636 0.0249838 0.526456
0.254821 0.268638 0.0409369
-0.137232 0.00535458 0.51919
0.15705 0.163626 0.26181
-0.0786008 0.140578 0.51919
0.0649566 -0.26403 0.526456
-0.248877 0.229875 0.100357
-0.00195643 0.180459 0.51919
0.053108 0.26691 0.521458
-0.0749576 -0.0845328 0.448029
-0.107532 -0.268542 0.520265
-0.20244 0.199997 0.207116
0.107642 0.181669 0.51919
0.0238533 -0.154455 0.526456
0.000873655 -0.0245473 0.526456
-0.215006 0.0191313 0.526456
-0.219844 0.237262 0.138802
0.0326301 0.0262098 0.526456
-0.280159 0.266558 0.0521694
0.216448 -0.10262 0.51919
-0.0383382 0.0537481 0.526456
0.20003 0.161695 0.51919
-0.25071 0.100992 0.526456
-0.121034 -0.127421 0.341941
0.155039 -0.16883 0.51919
0.215499 -0.227557 0.129334
-0.0942495 -0.0445792 0.51919
0.178422 -0.0273117 0.51919
0.132694 0.062228 0.51919
0.0977252 0.0996661 0.397271
-0.190588 0.261959 0.526456
0.182093 -0.16678 0.242459
0.269972 -0.21736 0.524804
-0.162196 -0.106469 0.526456
-0.239422 -0.239976 0.0838921
0.0770293 0.139202 0.526456
0.227043 -0.221091 0.51919
-0.266858 -0.2811 0.0139573
0.230011 0.0352043 0.526456
-0.0642284 0.105386 0.526456
0.286221 0.282739 0.033731
0.0806591 -0.106648 0.51919
-0.223624 -0.236267 0.51919
0.237983 -0.154426 0.51919
0.0853634 -0.158131 0.51919
-0.265486 -0.136774 0.525965
-0.156398 -0.165106 0.288494
0.269972 0.108123 0.519636
-0.00561455 0.213871 0.526456
0.208221 -0.220883 0.173892
-0.206536 -0.0814253 0.526456
-0.0824387 -0.229653 0.51919
-0.154545 -0.178043 0.51919
0.117835 0.113933 0.526456
0.0134339 0.140237 0.51919
0.217719 0.259413 0.526456
0.0059863 0.0676832 0.51919
-0.232475 0.185888 0.51919
-0.114933 0.213478 0.51919
-0.119381 0.0331589 0.526456
-0.0273052 -0.230321 0.526456
0.132627 -0.0876312 0.51919
0.0265058 -0.0664057 0.51919
0.149352 0.221169 0.51919
-0.140036 -0.245102 0.526456
0.215273 0.0744684 0.526456
0.263961 -0.27667 0.0203912
-0.0441984 -0.111988 0.526456
-0.00173315 -0.113761 0.526456
-0.265486 0.177815 0.524871
-0.180695 -0.0549817 0.526456
-0.213697 -0.217609 0.13826
0.285989 -0.275825 0.0392841
-0.252597 -0.0904266 0.526456
-0.277999 0.291098 0.0296625
-0.23683 0.141635 0.526456
0.0321454 -0.207454 0.526456
-0.229962 -0.0432695 0.526456
-0.0481104 0.174252 0.526456
-0.122023 -0.115797 0.526456
0.13308 -0.006273 0.526456
0.269972 0.0126914 0.52111
0.096512 -0.212384 0.526456
-0.150686 0.211065 0.526456
0.234203 0.164407 0.51919
0.269972 -0.0124735 0.525135
-0.12157 0.122734 0.371806
0.022054 0.241221 0.526456
-0.233894 0.042795 0.51919
-0.113741 0.118923 0.526456
0.105221 -0.227599 0.526456
-0.238757 -0.257285 0.0975523
0.235626 0.244264 0.0856973
-0.259318 -0.215109 0.526456
-0.196571 -0.147918 0.51919
-0.0149 0.0852579 0.526456
0.062447 -0.0545916 0.526456
0.23016 -0.0390531 0.526456
-0.208528 0.0877263 0.526456
-0.137309 0.0630344 0.526456
-0.159282 0.146541 0.300201
0.062093 0.223428 0.526456
0.064552 0.0244673 0.526456
0.103473 -0.109399 0.402954
0.0947114 0.261992 0.526456
-0.197415 0.167641 0.51919
-0.0913602 0.0840742 0.440044
0.246365 -0.263987 0.0599462
0.136904 -0.0302842 0.51919
-0.0459503 -0.020757 0.526456
-0.0695213 0.120607 0.51919
-0.0988548 0.172421 0.526456
0.0433107 0.0629556 0.526456
0.163404 0.0637667 0.526456
0.169067 0.18447 0.51919
-0.015904 -0.16581 0.51919
0.2561 0.232558 0.526456
-0.043882 -0.220285 0.51919
0.0896243 -0.0248697 0.526456
0.179545 0.181468 0.250293
-0.164029 -0.2138 0.51919
0.192325 0.201095 0.214582
0.244375 0.242428 0.119542
-0.175348 0.186207 0.219653
-0.202646 0.21622 0.183506
0.152917 -0.207735 0.526456
0.198014 0.12234 0.51919
0.158463 0.116681 0.51919
0.151856 -0.268546 0.524121
0.23332 0.0868989 0.526456
-0.111355 0.14369 0.526456
0.0629316 -0.137025 0.51919
-0.0432986 0.227648 0.51919
-0.0555537 0.0621538 0.50005
0.269972 0.155986 0.519742
0.181053 -0.197246 0.51919
0.177308 -0.0726195 0.526456
-0.110043 -0.0108919 0.526456
0.0280351 -0.242631 0.51919
-0.179592 -0.164419 0.25506
-0.0560948 -0.0732529 0.526456
-0.224731 0.231713 0.51919
0.262056 0.274466 0.0638345
0.114786 -0.173703 0.51919
0.238301 -0.231316 0.135987
0.227832 0.209109 0.526456
0.230177 -0.135683 0.51919
-0.164968 0.146354 0.526456
0.198559 -0.194453 0.180786
-0.0972566 0.266554 0.51919
0.236581 -0.193787 0.526456
0.211283 0.224994 0.165479
0.0407584 0.161765 0.51919
-0.186389 -0.202878 0.198451
-0.172646 0.0175961 0.526456
0.0824593 0.058435 0.51919
-0.0878313 -0.132812 0.51919
-0.235321 0.216615 0.139245
0.232134 -0.233262 0.0995567
0.19988 -0.262242 0.526456
0.237996 -0.0742162 0.526456
0.134763 0.257697 0.526456
0.162529 -0.177225 0.250692
-0.261236 0.242526 0.0686492
0.179017 0.241046 0.51919
0.159306 -0.132238 0.51919
0.132874 0.086164 0.526456
-0.0544551 -0.177083 0.526456
-0.154315 -0.0238112 0.526456
0.191525 -0.103627 0.51919
0.0809821 0.204972 0.526456
-0.115811 -0.194197 0.526456
-0.11501 -0.0817975 0.526456
-0.085777 0.0321079 0.51919
-0.226098 -0.26854 0.52364
-0.117494 -0.109607 0.367388
0.0549362 0.106078 0.526456
0.0862944 -0.236176 0.51919
-0.254092 -0.24326 0.105723
0.186077 -0.157429 0.51919
0.13575 -0.240299 0.51919
-0.253919 0.0253526 0.51919
0.120445 0.150679 0.51919
-0.172866 -0.187599 0.225683
-0.128704 0.0882294 0.51919
-0.237977 -0.00777587 0.51919
-0.265486 -0.0993712 0.522034
0.11182 0.0508139 0.526456
-0.141877 0.155022 0.30724
-0.173909 0.0919587 0.51919
0.251503 -0.0913104 0.526456
-0.147847 -0.268541 0.525007
-0.226748 -0.214715 0.1619
-0.0937129 0.210834 0.51919
0.119912 0.108137 0.37791
-0.208296 -0.193718 0.199809
-0.0244258 -0.0518084 0.526456
0.000139087 -0.222122 0.526456
0.064997 0.0733632 0.468205
-0.175059 -0.186373 0.244798
0.0434271 -0.178905 0.526456
0.153147 -0.00516182 0.526456
-0.268278 -0.253656 0.0765795
-0.205817 -0.0134822 0.51919
-0.147738 -0.133984 0.319677
-0.0745347 -0.0322093 0.51919
-0.0497367 0.26691 0.522569
-0.229751 -0.2064 0.51919
0.207364 -0.00229475 0.51919
0.244838 0.229083 0.0988671
0.269596 0.289608 0.00772363
-0.226614 0.206347 0.526456
0.133177 0.02469 0.51919
0.130536 -0.153728 0.526456
0.20959 -0.0688709 0.51919
-0.200046 0.0483913 0.51919
-0.0202558 0.159075 0.51919
-0.17269 0.210417 0.51919
0.127679 -0.130831 0.356451
0.194502 0.0488406 0.526456
0.0895979 0.174131 0.526456
0.00142327 0.112801 0.526456
0.116857 0.217264 0.526456
0.102355 -0.0832057 0.51919
-0.232782 0.250786 0.111409
0.153639 0.0859348 0.51919
0.0122115 -0.177722 0.526456
-0.232146 0.26691 0.521995
0.180769 0.143582 0.526456
-0.0972347 -0.0915545 0.427975
-0.0480216 0.142288 0.51919
-0.079249 0.218514 0.526456
-0.268806 -0.253149 0.044731
0.071425 0.247872 0.526456
0.0729509 -0.0722928 0.454776
-0.214674 -0.122157 0.526456
0.269972 -0.250423 0.523459
0.023622 0.185871 0.526456
-0.217489 -0.177595 0.51919
-0.228874 -0.149186 0.51919
0.142158 -0.0602937 0.51919
-0.250363 0.0825748 0.51919
0.153617 0.142422 0.293658
0.0496156 -0.234766 0.51919
0.0635437 -0.173724 0.526456
-0.293069 -0.270672 0.0117779
-0.0663472 0.0437881 0.51919
-0.181059 0.117727 0.526456
0.0328154 0.218168 0.526456
-0.0303767 -0.259338 0.51919
-0.0405356 -0.052249 0.526456
-0.145482 0.0411388 0.526456
0.0142208 0.00543252 0.526456
-0.0355726 0.192724 0.51919
0.0893065 0.222943 0.526456
-0.0207539 -0.00635666 0.51919
-0.1605 -0.0764676 0.526456
0.139315 0.176642 0.526456
-0.124337 0.187316 0.51919
0.225305 0.229407 0.51919
-0.199322 -0.21623 0.16821
0.273821 0.251957 0.0572183
-0.14288 -0.153302 0.526456
0.167571 -0.109321 0.526456
-0.108959 -0.0410161 0.526456
0.00117791 -0.138797 0.526456
-0.059493 0.0663459 0.526456
-0.188924 -0.244124 0.51919
0.0348438 0.265603 0.51919
0.0817927 -0.0747204 0.51919
-0.187057 0.19767 0.193335
-0.106371 -0.221593 0.51919
0.026199 -0.00959727 0.51919
-0.265486 -0.182823 0.523395
0.235994 0.26691 0.524478
0.0239147 -0.0369331 0.526456
-0.176443 0.177931 0.526456
-0.228771 -0.226758 0.110805
0.244027 0.00784501 0.526456
-0.0741033 -0.153407 0.526456
0.249859 0.25298 0.0585744
0.199874 -0.207462 0.200539
0.203459 0.186431 0.526456
0.0692222 0.0715579 0.51919
0.00240308 0.0288266 0.51919
0.14241 0.200476 0.526456
0.170373 -0.268546 0.520589
-0.186289 -0.172248 0.51919
-0.229295 0.114769 0.526456
-0.0905867 0.0963248 0.51919
-0.249331 0.269503 0.0567162
0.0320373 -0.26569 0.51919
-0.100825 -0.166452 0.526456
0.0447934 0.0450765 0.526456
-0.0738948 -0.0647933 0.471174
-0.166516 0.180019 0.239505
-0.0850503 0.231251 0.51919
0.194034 -0.179266 0.210806
-0.265486 0.120555 0.519514
0.0982154 0.0939554 0.425099
-0.167151 0.265367 0.526456
0.125528 0.132917 0.331589
-0.0897739 -0.245485 0.51919
0.254303 -0.237622 0.0796328
-0.0717989 0.169995 0.526456
-0.0921257 -0.0702909 0.526456
-0.0361441 -0.192476 0.526456
-0.240892 -0.0555078 0.51919
-0.265486 -0.234286 0.520306
0.246615 -0.136449 0.526456
0.0357277 0.137232 0.51919
-0.0213354 0.0541828 0.526456
-0.195887 -0.11061 0.526456
0.20004 0.240666 0.51919
-0.188303 0.00925198 0.51919
0.140343 -0.150726 0.298287
0.106817 0.102961 0.51919
-0.277903 -0.300208 -1.38778e-17
0.242556 0.0663836 0.51919
-0.180397 0.239049 0.51919
-0.108507 0.242643 0.526456
0.068588 -0.00395706 0.526456
0.104931 -0.137782 0.526456
-0.0147671 0.240281 0.51919
-0.239226 -0.220637 0.121499
0.199044 0.104756 0.526456
0.203435 -0.210921 0.526456
0.237475 -0.242571 0.526456
0.0223332 -0.126996 0.51919
-0.171297 -0.154949 0.51919
0.233974 0.221994 0.146992
-0.251208 0.256549 0.0968519
-0.271784 0.287475 0.00288409
-0.223924 0.205775 0.162489
-0.0387993 0.0971626 0.51919
0.158424 -0.171735 0.274864
-0.0612191 -0.111605 0.526456
0.285546 -0.302826 0.0055275
0.0388823 -0.137513 0.526456
0.213911 0.0538368 0.526456
0.214591 0.136451 0.51919
-0.118863 0.129342 0.346621
-0.225546 -0.0866388 0.51919
-0.0507096 0.0267918 0.526456
0.0502625 -0.0752074 0.526456
-0.251658 -0.154811 0.526456
0.186349 0.18747 0.526456
-0.244253 -0.249746 0.526456
0.0222122 -0.0978136 0.526456
-0.104769 -0.102254 0.526456
-0.0953486 0.125304 0.51919
-0.206712 -0.216792 0.182297
0.218387 -0.230656 0.153812
-0.132825 -0.028339 0.526456
-0.0336797 -0.0909145 0.526456
-0.231652 0.243049 0.0930931
-0.0376537 0.0125489 0.51919
-0.0618602 -0.195508 0.526456
-0.256994 0.202139 0.51919
-0.171719 -0.192995 0.51919
0.295273 0.272643 0.0142003
0.164333 -0.0454723 0.526456
0.274907 -0.29437 0.022902
-0.23446 0.0664207 0.526456
-0.224053 0.161815 0.526456
0.18209 0.0706741 0.526456
-0.130681 0.236449 0.526456
0.084837 -0.0415969 0.526456
0.113718 -0.11351 0.363646
-0.03687 -0.0662245 0.51919
0.253379 0.126314 0.51919
-0.168827 0.000152647 0.51919
0.0938059 0.124048 0.526456
0.153921 0.166794 0.285057
-0.263098 -0.028711 0.51919
0.195993 0.212624 0.188092
0.0153035 0.0460953 0.526456
0.237947 0.188331 0.51919
0.0577342 -0.212166 0.51919
-0.140466 -0.0841928 0.526456
0.188159 -0.18605 0.236497
-0.161444 -0.24737 0.526456
0.284365 0.263897 0.0221377
-0.273408 -0.289689 0.0325194
-0.164605 0.230756 0.51919
-0.128831 0.266767 0.526456
-0.118448 -0.139057 0.526456
-0.136799 0.116498 0.526456
-0.169333 0.15644 0.279854
-0.123266 -0.0613282 0.526456
-0.126536 -0.173726 0.526456
-0.159867 0.066255 0.51919
0.253026 -0.033769 0.526456
0.248128 -0.0591858 0.51919
0.220299 0.163778 0.526456
0.225957 -0.256194 0.526456
0.103624 -0.0117389 0.51919
0.265013 0.079915 0.526456
-0.074504 -0.0134692 0.51919
-0.0585527 -0.238373 0.526456
0.297294 -0.276496 0.015169
0.213154 -0.191981 0.51919
-0.0985492 0.0113004 0.51919
0.0431717 0.239842 0.51919
-0.113759 -0.238127 0.526456
-0.211937 0.194467 0.187184
-0.205226 -0.053249 0.526456
0.000186235 0.152817 0.526456
-0.0305283 -0.0253679 0.51919
-0.195412 0.0942735 0.51919
0.0132347 0.204107 0.51919
0.0896146 -0.179742 0.526456
0.130175 -0.108064 0.526456
-0.132102 0.137225 0.318414
0.00173804 -0.0450676 0.51919
0.265052 0.285128 0.0404683
0.209645 0.0246954 0.526456
0.247918 -0.174344 0.526456
0.256186 -0.269674 0.0378675
0.236984 -0.248015 0.0810346
-0.112875 0.0702357 0.526456
-0.0715179 -0.257008 0.526456
-0.289061 -0.276589 0.0338811
0.123268 -0.0440184 0.51919
-0.160708 0.191246 0.51919
-0.208125 -0.220957 0.526456
0.107372 0.064289 0.51919
0.237694 -0.107464 0.526456
-0.01118 0.129231 0.51919
-0.00795007 -0.0949128 0.526456
0.11323 -0.205826 0.526456
0.168078 -0.157001 0.260855
0.0589597 -0.155472 0.526456
-0.150234 0.164937 0.284194
0.269972 -0.14151 0.520696
-0.204813 0.24071 0.526456
0.193535 0.262704 0.51919
0.269972 0.213565 0.521874
0.172872 -0.183038 0.22516
-0.240684 -0.125416 0.526456
0.051334 -0.048844 0.505338
0.0905942 -0.0941828 0.411765
0.222565 0.108162 0.526456
0.173953 0.189116 0.224232
-0.296598 0.292105 0.0129777
-0.0742411 -0.0576949 0.51919
0.213452 -0.15251 0.526456
-0.262963 0.265813 0.0757056
0.039434 0.0835069 0.526456
0.220636 0.20235 0.165392
-0.145988 -0.112124 0.526456
0.0902085 0.0418546 0.51919
0.126423 -0.123547 0.339192
0.233055 -0.217452 0.148881
0.15727 -0.246513 0.51919
-0.016763 -0.209152 0.526456
-0.124623 0.161579 0.51919
0.107586 0.138622 0.526456
-0.213193 0.141248 0.51919
-0.214235 0.0651029 0.526456
0.172966 0.160274 0.272341
0.213345 -0.24359 0.51919
-0.108014 0.102948 0.383175
0.0860624 0.00531971 0.51919
-0.188016 -0.219469 0.51919
0.104493 -0.250919 0.526456
0.0742514 0.180096 0.51919
-0.150001 0.13588 0.314356
-0.08528 -0.200819 0.526456
0.186284 0.192212 0.197434
0.207136 0.224158 0.149227
-0.193274 0.145453 0.51919
-0.021376 -0.121657 0.51919
0.25839 0.0320522 0.51919
0.0675664 -0.0891549 0.51919
0.223416 -0.170671 0.526456
0.216662 -0.0519044 0.526456
0.139182 -0.176382 0.526456
-0.231921 -0.24974 0.113821
0.196544 -0.232357 0.526456
-0.166155 0.042452 0.51919
0.274004 -0.254407 0.0423509
0.23421 -0.251899 0.110149
-0.267274 0.282568 0.0471886
-0.0882398 0.0988291 0.418897
-0.0143408 -0.143616 0.51919
0.103922 0.115249 0.388111
0.249301 -0.237547 0.1155
-0.24815 0.237761 0.526456
0.131858 0.238111 0.51919
-0.249709 -0.266474 0.0802186
0.269972 -0.0754531 0.525542
0.139942 0.128278 0.51919
0.0168613 -0.202517 0.526456
0.281784 -0.272681 0.00306058
0.0266179 0.120534 0.526456
-0.143429 -0.201171 0.51919
0.249591 0.178181 0.526456
-0.0265717 0.214061 0.51919
0.140076 -0.127633 0.51919
-0.151281 0.134073 0.51919
0.153336 0.0211942 0.526456
0.175215 -0.142076 0.51919
0.24747 0.212519 0.51919
-0.278502 0.270103 0.00942248
0.142864 0.156725 0.302205
0.195018 0.00638098 0.51919
0.237195 0.219797 0.119791
-0.248922 0.17715 0.526456
0.226101 0.240967 0.1055
-0.169271 -0.0337759 0.526456
0.10224 -0.104553 0.526456
0.17106 0.165103 0.244447
0.00900972 0.227769 0.526456
-0.06747 -0.131484 0.526456
0.0599515 0.0506216 0.51919
0.0551686 0.152776 0.51919
-0.16107 -0.147807 0.281935
0.143775 -0.152888 0.313597
-0.199575 -0.170382 0.526456
0.01263 0.0916159 0.526456
-0.0460846 0.247087 0.526456
0.0454875 -0.0477543 0.526456
0.0227844 0.164859 0.51919
0.152647 0.251872 0.51919
0.0386937 0.00289121 0.51919
-0.178579 -0.1373 0.526456
0.158803 0.164909 0.51919
0.063538 0.0867794 0.526456
0.211339 0.206141 0.51919
0.250189 0.267726 0.0776815
-0.114727 0.0134796 0.51919
-0.0165884 0.195763 0.526456
-0.21233 0.185658 0.51919
0.247746 -0.224858 0.526456
-0.110549 0.0488583 0.51919
0.203018 -0.214383 0.157391
0.178605 0.111803 0.526456
-0.223892 0.229869 0.152787
-0.0451948 0.0731045 0.51919
0.184796 -0.0603535 0.51919
0.173148 0.0454496 0.51919
0.175166 0.223892 0.526456
-0.0948521 0.156802 0.526456
0.225531 0.012813 0.51919
-0.23534 0.0873095 0.51919
-0.24345 -0.226655 0.104285
-0.0813514 0.0524029 0.51919
-0.0730264 0.0830227 0.51919
-0.0473182 0.049907 0.508678
-0.171201 -0.16607 0.274081
0.118698 0.195225 0.526456
0.165337 -0.196567 0.526456
-0.242015 0.222475 0.120241
-0.184341 -0.00996271 0.526456
-0.0722094 -0.213313 0.526456
0.0583292 0.131438 0.51919
0.210188 0.203743 0.194025
-0.111984 0.190423 0.526456
0.0994895 -0.267538 0.526456
0.178075 -0.219203 0.51919
-0.205853 -0.268345 0.51919
-0.0757384 0.0741412 0.449941
-0.118686 -0.0258494 0.51919
0.0762383 0.26691 0.520549
-0.189705 -0.0928153 0.51919
-0.261799 -0.0768965 0.526456
-0.000496894 0.0152249 0.526456
0.0701376 -0.247861 0.526456
0.123657 -0.22194 0.51919
-0.115316 -0.118262 0.382441
0.147507 0.0567222 0.526456
0.105844 -0.103249 0.384479
0.266823 -0.281343 0.0496671
-0.139237 -0.132542 0.51919
0.118216 -0.0262532 0.526456
0.0692921 -0.0310352 0.51919
-0.126677 -0.256097 0.51919
0.178756 -0.0905976 0.51919
-0.109489 0.0877998 0.526456
0.250775 0.251003 0.51919
-0.213341 0.22466 0.166165
0.0469319 -0.254921 0.51919
0.0495669 0.204494 0.526456
-0.250395 0.047503 0.51919
-0.117993 -0.129064 0.36224
-0.0245588 0.141067 0.51919
-0.182205 0.158168 0.51919
-0.233808 0.0143191 0.51919
0.150497 -0.114989 0.526456
-0.190224 0.031025 0.526456
0.242085 -0.210145 0.51919
0.212409 0.094229 0.51919
0.242332 0.258725 0.0961761
0.251378 -0.0107215 0.51919
-0.139036 0.150029 0.51919
-0.0608317 0.15387 0.51919
-0.132986 -0.140456 0.314874
0.201803 0.142466 0.526456
0.0758291 -0.221525 0.526456
0.183904 -0.194096 0.20036
0.252227 0.0936145 0.51919
-0.217038 -0.201454 0.51919
0.112741 0.26691 0.520482
-0.21646 0.0395962 0.526456
-0.217241 0.260375 0.526456
-0.213895 -0.250738 0.526456
-0.300242 -0.300088 -1.38778e-17
0.0598742 -0.113373 0.51919
0.15245 -0.229347 0.526456
-0.0220862 0.107588 0.526456
0.178173 0.00583974 0.51919
0.201 -0.0884375 0.51919
0.0738731 0.108234 0.526456
-0.258162 -0.274706 0.0335035
-0.0378869 -0.157937 0.526456
0.139669 0.133896 0.340088
-0.14991 -0.142318 0.293859
0.0753865 0.0367809 0.526456
-0.144526 0.190584 0.526456
0.0353172 -0.0843481 0.51919
0.106281 0.160226 0.526456
0.158097 -0.028164 0.51919
0.0783681 0.069856 0.456964
-0.0954915 0.247683 0.526456
-0.213616 -0.0339828 0.51919
0.0801536 -0.139543 0.526456
-0.190237 0.195211 0.526456
0.240548 0.114589 0.51919
0.185203 -0.182739 0.526456
0.10652 0.00275999 0.526456
0.119773 0.0140794 0.51919
0.159166 -0.0804162 0.51919
0.195268 0.0797609 0.526456
0.246756 0.0422083 0.526456
-0.082076 0.26691 0.523476
-0.193175 -0.199219 0.216525
-0.12545 -0.206555 0.526456
-0.168965 -0.018066 0.526456
-0.254514 -0.201024 0.51919
0.251686 -0.266277 0.0806226
0.221899 -0.233109 0.114946
0.160668 0.102206 0.526456
0.135006 -0.259447 0.51919
0.258848 -0.152766 0.51919
-0.142714 0.226984 0.51919
-0.151355 -0.000644296 0.526456
-0.187757 -0.172732 0.239837
0.240864 0.143018 0.526456
0.217658 -0.0160647 0.51919
-0.206496 -0.223726 0.151728
0.0652168 0.20779 0.51919
0.235186 -0.221266 0.116399
0.111261 -0.0938082 0.526456
-0.00974551 -0.0378347 0.526456
0.123103 0.127853 0.526456
-0.0664428 0.0223516 0.51919
0.0518351 0.0136741 0.526456
0.267221 0.2724 0.0183609
0.143397 0.107966 0.526456
-0.222157 -0.0655804 0.51919
-0.212037 -0.0018 0.51919
0.284532 0.273729 -1.38778e-17
0.278517 0.270924 0.0528732
-0.112603 -0.053509 0.51919
-0.121022 -0.0964585 0.51919
-0.243416 -0.026958 0.526456
-0.206789 -0.101535 0.526456
-0.199343 -0.132185 0.526456
-0.16186 -0.172131 0.249973
-0.194313 0.191676 0.224155
0.0224228 -0.223296 0.51919
0.0811021 -0.123194 0.526456
0.126493 -0.0715531 0.51919
-0.238361 -0.221625 0.526456
-0.122487 0.0559527 0.51919
0.259548 -0.236316 0.526456
0.226958 -0.118016 0.526456
-0.065249 -0.0928362 0.51919
0.263452 -0.274041 0.0644319
-0.211175 -0.149881 0.526456
-0.151143 -0.0455579 0.526456
0.148349 -0.156985 0.280289
0.199209 0.183101 0.214939
-0.0643917 0.0584945 0.482308
0.15536 -0.152066 0.51919
-0.203259 -0.234898 0.51919
0.219767 -0.206133 0.526456
-0.146717 0.26691 0.51972
0.130352 0.120132 0.343761
-0.00355762 0.0998936 0.526456
-0.16961 -0.233457 0.51919
-0.120859 0.252681 0.51919
-0.160656 0.173417 0.51919
-0.184978 0.075084 0.526456
-0.172388 -0.0877973 0.526456
0.163636 0.201553 0.526456
-0.121448 0.131511 0.51919
-0.166598 0.249758 0.526456
0.0125371 -0.0563417 0.526456
-0.214299 0.218141 0.526456
-0.020678 0.0712888 0.51919
0.212796 -0.135657 0.51919
-0.210711 -0.202002 0.160313
0.158122 0.149043 0.278776
0.0174318 0.260634 0.526456
-0.0456607 0.120623 0.526456
-0.197734 0.198069 0.176622
0.1396 -0.0470131 0.526456
-0.0871955 0.186005 0.51919
0.0460775 -0.124165 0.51919
-0.0959375 0.0524307 0.526456
-0.0997923 -0.140267 0.526456
0.0928479 -0.196255 0.51919
-0.106337 -0.124319 0.51919
0.0665162 0.191454 0.526456
0.093866 0.157998 0.51919
-0.185615 -0.188805 0.526456
0.186199 0.170379 0.526456
-0.23483 0.24752 0.51919
0.133087 0.0496924 0.526456
-0.256382 -0.242437 0.0688082
-0.242343 -0.268539 0.522327
0.124437 -0.185834 0.51919
-0.0117476 -0.238068 0.51919
0.0349889 -0.192772 0.51919
-0.163014 0.121525 0.526456
0.236191 0.0555457 0.526456
0.197323 0.0348264 0.51919
-0.131394 -0.142752 0.334424
0.000130922 0.249148 0.526456
0.0880722 0.248088 0.51919
0.0617679 0.167788 0.526456
-0.0907923 -0.0996536 0.409717
0.0437686 0.122167 0.526456
0.0845964 -0.0831003 0.451295
-0.100648 -0.111143 0.388243
-0.0564958 -0.156201 0.51919
0.268639 0.254241 0.0423164
0.20391 0.205429 0.161881
-0.209442 0.113641 0.51919
0.266908 0.138092 0.526456
-0.0262476 0.178801 0.526456
0.00823742 -0.161742 0.51919
0.196375 -0.145108 0.526456
0.269972 0.179295 0.524391
-0.128083 -0.00794333 0.51919
-0.0628332 -0.0402827 0.526456
-0.092033 -0.0251033 0.51919
0.251275 0.153102 0.51919
0.15413 -0.143911 0.29028
0.25468 0.113045 0.526456
-0.0667069 0.238667 0.526456
0.191052 -0.0171175 0.526456
0.0199828 0.0184735 0.51919
0.0751179 0.230847 0.51919
0.22386 -0.000631601 0.526456
0.0291386 0.20513 0.51919
-0.101679 -0.181243 0.51919
0.235751 -0.244669 0.124214
0.281928 0.297321 -1.38778e-17
-0.206144 0.154953 0.526456
-0.191232 -0.185466 0.199412
0.011488 -0.252654 0.526456
-0.157364 0.0816514 0.51919
-0.142545 0.0242737 0.51919
-0.0990174 -0.0881391 0.51919
0.117324 0.0853099 0.51919
0.123453 0.180775 0.51919
-0.160722 -0.142738 0.526456
0.0812263 -0.0121387 0.51919
-0.126112 -0.15408 0.51919
-0.226346 -0.0272302 0.51919
-0.176737 0.13647 0.51919
-0.219863 -0.237522 0.120454
0.188106 -0.246258 0.51919
-0.16394 -0.158043 0.260179
0.250445 -0.231149 0.0982634
0.0858259 -0.0901749 0.526456
0.106414 -0.115635 0.51919
0.189203 -0.204849 0.188597
0.262834 0.243181 0.0700868
-0.201159 0.185588 0.197283
0.00603986 -0.236197 0.51919
-0.262946 0.138217 0.51919
0.225086 -0.0799427 0.526456
0.295486 0.29088 0.0153288
-0.257908 -0.254883 0.0922604
0.037515 0.187371 0.51919
-0.237506 -0.0733851 0.51919
0.219477 0.177849 0.51919
0.244563 -0.120466 0.51919
-0.0324564 0.260741 0.526456
-0.261733 0.0417462 0.526456
-0.0165739 0.221714 0.51919
0.269972 0.227988 0.522623
-0.0144025 0.171419 0.526456
-0.249814 0.193689 0.526456
-0.0480219 8.7291e-05 0.526456
-0.0787033 -0.119193 0.51919
0.104254 0.230704 0.526456
-0.25092 -0.114348 0.51919
0.207884 -0.190748 0.195685
-0.187971 0.226076 0.51919
-0.173431 -0.173135 0.526456
0.170551 -0.0116778 0.526456
0.116869 0.123573 0.373859
-0.0510428 -0.0445291 0.513673
0.0294705 0.0572649 0.51919
0.133319 0.215965 0.51919
0.0163397 0.11162 0.51919
0.269972 0.198695 0.525323
0.146067 -0.0783758 0.51919
-0.00165573 0.0454419 0.51919
-0.182961 0.171572 0.228137
0.0969402 0.202445 0.51919
-0.0519743 -0.0866111 0.526456
-0.195874 0.251686 0.51919
-0.127813 0.0727214 0.51919
-0.125678 0.100067 0.526456
-0.246745 0.00637546 0.526456
-0.00396442 0.0565259 0.526456
0.18332 0.212958 0.51919
0.22199 0.124136 0.526456
-0.248631 0.121765 0.51919
0.122596 0.111492 0.363744
-0.0940113 -0.261548 0.526456
0.0895304 -0.057586 0.526456
-0.0925118 -0.107827 0.51919
0.253446 -0.253547 0.526456
0.0556558 -0.0112038 0.51919
-0.174065 0.158477 0.263645
0.096288 -0.1274 0.51919
-0.0173837 -0.257223 0.51919
0.148889 -0.136398 0.307358
-0.133752 -0.126807 0.328725
0.202306 0.0656635 0.51919
-0.0429812 -0.235142 0.51919
-0.0289398 0.042145 0.51919
0.0298392 0.149788 0.526456
0.206574 -0.0406461 0.51919
-0.066781 0.209123 0.51919
-0.102448 -0.206311 0.526456
0.12426 -0.141103 0.51919
0.257845 -0.203824 0.526456
0.128787 -0.212444 0.526456
0.107148 -0.0375014 0.51919
-0.0830051 -0.0010443 0.526456
0.0641378 0.0597155 0.479647
-0.248725 0.236576 0.116749
-0.00856021 -0.0560631 0.526456
0.158045 0.041777 0.526456
-0.265486 0.101249 0.523354
-0.00203544 -0.201373 0.51919
-0.222425 0.242264 0.121486
-0.280444 0.301577 0.00609815
-0.0948595 -0.151734 0.51919
0.257419 -0.0643781 0.526456
0.110585 -0.187773 0.526456
-0.0888877 -0.0791869 0.437955
0.181201 0.183019 0.212053
0.185354 -0.172864 0.225198
-0.278109 -0.282563 -1.38778e-17
0.166382 0.139751 0.51919
-0.107494 0.0308179 0.51919
0.128217 0.139406 0.526456
-0.248325 0.263016 0.526456
0.0131765 -0.0222864 0.51919
-0.144076 0.147464 0.293247
-0.1579 -0.194849 0.51919
-0.0396961 -0.00862989 0.51919
-0.0872354 -0.169293 0.51919
-0.163825 -0.0615658 0.51919
-0.114685 -0.103341 0.384334
0.148293 -0.19281 0.51919
0.252758 -0.247542 0.062032
0.118513 0.0346822 0.51919
0.0535707 0.0472785 0.507519
0.0633928 -0.188329 0.51919
-0.0319938 0.167268 0.526456
0.0701744 -0.0768178 0.469896
-0.255387 -0.246192 0.51919
-0.107569 0.100444 0.51919
-0.238891 0.168636 0.51919
-0.283623 -0.262348 0.0284008
-0.174516 -0.224513 0.526456
0.180858 0.157436 0.51919
0.173443 -0.177054 0.260724
0.0338035 -0.168399 0.51919
0.249859 0.0798799 0.526456
0.149071 0.23815 0.51919
0.0556724 0.251464 0.51919
0.140865 0.141196 0.302804
-0.24837 0.251967 0.0615653
0.173013 -0.167657 0.51919
-0.0839532 0.112946 0.51919
-0.0575478 -0.0135829 0.51919
-0.247982 0.223802 0.51919
0.127139 -0.139168 0.340495
-0.191895 -0.207634 0.182481
-0.199767 0.182721 0.211561
-0.226144 -0.209009 0.145098
-0.0777836 0.15477 0.526456
-0.028347 0.23273 0.526456
-0.103386 -0.108759 0.404036
0.0394298 -0.151508 0.51919
-0.0559437 -0.213125 0.526456
0.192374 0.225209 0.51919
-0.0493073 0.211414 0.51919
0.0892295 0.0734227 0.526456
-0.249805 -0.042304 0.51919
0.108943 -0.151119 0.51919
0.269972 -0.0276201 0.520198
-0.0287741 0.086198 0.526456
-0.133436 0.120959 0.350329
-0.22709 0.0979607 0.526456
0.148848 0.26691 0.525324
-0.274372 0.255301 0.0636317
0.0830261 0.0196627 0.526456
0.254534 0.0163626 0.51919
0.0368161 -0.11084 0.526456
-0.255451 0.244459 0.10293
-0.163784 -0.265161 0.51919
0.148461 0.0068436 0.51919
-0.183498 0.0417956 0.51919
0.122609 -0.248732 0.51919
0.0407769 0.251525 0.526456
0.164189 0.179217 0.247668
0.270451 0.258342 0.0720452
-0.158649 -0.0914601 0.51919
0.220129 0.242668 0.526456
-0.256465 -0.0621863 0.51919
-0.106763 -0.25256 0.51919
0.0321995 0.172871 0.526456
0.0689104 -0.0696975 0.526456
0.0496945 -0.0594369 0.51919
-0.132104 -0.18993 0.526456
0.30072 0.278374 -1.38778e-17
-0.128509 -0.116109 0.356617
0.131351 0.139203 0.318501
-0.0641735 0.140558 0.526456
0.260215 -0.182439 0.526456
-0.191984 0.0601449 0.526456
0.00326139 -0.0111402 0.51919
-0.239745 -0.161162 0.51919
0.177176 -0.254381 0.526456
-0.0650515 0.262016 0.526456
0.239693 0.24631 0.526456
-0.131274 -0.0714731 0.526456
-0.247445 0.159093 0.526456
-0.031407 -0.141484 0.51919
0.208128 -0.224127 0.51919
0.0241894 0.227487 0.51919
0.124226 -0.0577812 0.526456
0.245701 -0.044911 0.526456
-0.142191 0.180408 0.51919
0.207287 0.218083 0.179679
-0.0107448 0.0387915 0.526456
-0.198516 0.019131 0.526456
-0.221583 0.0759874 0.51919
0.191305 -0.214583 0.526456
0.221061 0.232952 0.149128
-0.250678 -0.174139 0.526456
0.0950376 0.0556948 0.526456
0.123916 0.103748 0.51919
-0.237531 -0.256009 0.0799573
-0.206671 -0.186093 0.526456
-0.188952 -0.191304 0.230172
0.141529 0.0152891 0.526456
0.125268 -0.120916 0.368928
-0.0739957 -0.243513 0.51919
-0.0558865 0.0123463 0.51919
0.0645938 -0.232654 0.51919
-0.117392 0.226961 0.526456
-0.200054 -0.0263835 0.51919
0.27971 -0.269171 0.0526217
0.234388 -0.0629677 0.51919
-0.129192 -0.233424 0.526456
-0.171423 -0.176272 0.263312
0.248896 0.192017 0.51919
-0.223931 -0.233928 0.147088
-0.0558866 -0.145882 0.526456
-0.176229 0.255539 0.51919
-0.124235 -0.0454262 0.526456
0.198548 -0.198381 0.51919
-0.0537151 -0.0613828 0.51919
-0.0996521 -0.0566073 0.526456
-0.153999 0.151708 0.277197
0.074718 0.154907 0.526456
-0.194088 0.18017 0.526456
-0.17016 0.164533 0.526456
-0.0268182 -0.0783569 0.526456
-0.224102 0.217171 0.128113
-0.184301 -0.206811 0.51919
-0.0220856 0.0129633 0.526456
0.0150427 -0.264423 0.51919
0.0579508 -0.043625 0.51919
-0.0320944 -0.247462 0.526456
-0.00644696 -0.268543 0.525691
-0.0176639 0.0968849 0.51919
-0.0356772 0.148482 0.526456
0.0233593 0.0337836 0.51919
0.236226 0.100482 0.526456
-0.0230598 -0.218476 0.51919
-0.133348 -0.103063 0.526456
0.178585 0.163063 0.255915
0.105072 0.0882769 0.526456
-0.182836 -0.106712 0.51919
-0.267279 -0.263642 0.0276104
0.0435567 0.0314582 0.51919
0.269972 0.0411648 0.523912
0.00240883 -0.0641548 0.51919
-0.0260337 -0.174901 0.526456
0.024204 -0.190005 0.526456
0.164982 -0.151306 0.274841
-0.00710949 -0.155447 0.526456
0.0714891 -0.0510436 0.51919
-0.0831024 -0.0743085 0.456183
-0.235026 0.0292653 0.526456
-0.249248 -0.187222 0.51919
0.18589 0.125354 0.526456
-0.276983 -0.26681 0.0152629
-0.247535 -0.252963 0.0619134
-0.0487888 -0.191942 0.51919
-0.281211 -0.263884 0.0500078
0.281504 -0.2876 -1.38778e-17
0.163532 -0.214263 0.51919
0.0965848 0.0905675 0.410216
0.257129 0.237708 0.0826983
0.243101 0.220067 0.526456
-0.234582 0.219451 0.526456
0.157511 -0.15151 0.303164
0.0124555 0.12201 0.526456
0.278362 -0.260213 0.0288509
0.204933 0.226365 0.51919
0.164367 -0.146002 0.526456
-0.218393 -0.0136963 0.526456
0.137907 -0.222782 0.51919
-0.251816 -0.136419 0.51919
0.181148 -0.195254 0.22655
-0.0313241 -0.108263 0.51919
0.198786 -0.186896 0.51919
-0.269396 0.274147 0.059828
-0.229997 0.175698 0.526456
-0.0997367 0.230284 0.526456
-0.274542 -0.256401 0.0637105
-0.104438 -0.0754649 0.51919
0.0505692 0.216684 0.51919
0.182103 0.254033 0.526456
0.0902343 -0.255035 0.526456
-0.186976 -0.257284 0.526456
0.0291606 -0.0533878 0.526456
-0.241035 0.232555 0.131495
-0.132602 -0.268541 0.524331
-0.282677 0.260745 0.0345794
0.223753 -0.213142 0.167991
0.178327 0.19801 0.51919
0.17699 -0.185471 0.24665
0.140517 -0.142676 0.51919
0.0898694 0.146545 0.526456
0.256973 -0.124866 0.526456
-0.235195 0.128577 0.51919
0.153025 -0.182243 0.526456
-0.223629 -0.219579 0.526456
0.163559 0.152674 0.526456
-0.256224 0.213587 0.526456
0.15595 0.149975 0.306402
-0.22595 -0.215237 0.12995
-0.141745 0.146477 0.325167
0.228977 -0.0944238 0.51919
-0.262996 -0.164588 0.526456
0.0550356 -0.0929158 0.526456
0.259749 0.16969 0.51919
-0.143397 -0.171213 0.526456
0.215477 -0.215232 0.137805
-0.0451453 -0.0340261 0.51919
0.0592214 -0.0607457 0.500893
0.1857 -0.266945 0.526456
0.148923 0.0679192 0.51919
-0.0604555 0.0909362 0.526456
0.0800648 -0.19019 0.51919
-0.0850366 0.0838292 0.526456
-0.265486 0.194379 0.521381
-0.286271 0.284408 -1.38778e-17
-0.243363 0.0556147 0.526456
0.196976 0.207279 0.201876
0.149939 -0.161726 0.295439
-0.0980752 -0.231546 0.526456
0.227303 -0.236927 0.526456
0.101452 -0.0949072 0.400431
0.11352 0.128887 0.51919
-0.143727 -0.144397 0.326387
0.211861 0.0350579 0.51919
0.246366 -0.0733742 0.51919
0.204773 -0.213918 0.188203
0.170624 0.173693 0.267323
0.0821365 0.186847 0.526456
0.171208 -0.185164 0.51919
-0.0994793 -0.0033884 0.51919
0.256411 0.212256 0.526456
-0.22802 -0.00135776 0.526456
0.268964 -0.256662 0.0751002
-0.0751502 -0.106938 0.526456
-0.201404 -0.254357 0.51919
0.256824 0.0701367 0.51919
-0.251662 -0.229486 0.51919
0.0264295 -0.141968 0.51919
0.0013721 -0.126052 0.51919
0.00973359 0.190701 0.51919
-0.145534 0.100563 0.526456
-0.293225 0.298002 -1.38778e-17
-0.213021 0.21039 0.146661
0.00593123 0.170492 0.526456
0.0534781 0.0761778 0.526456
0.109309 -0.162282 0.526456
-0.128021 0.129729 0.330253
0.121556 -0.0115069 0.51919
-0.161597 0.159303 0.29189
0.0591491 0.237711 0.526456
-0.244196 0.263211 0.0850036
-0.154151 0.240902 0.51919
-0.159585 0.0240477 0.526456
-0.18325 0.200054 0.207187
-0.0770605 0.0862768 0.441653
-0.0738014 0.0690217 0.526456
-0.0491038 0.162473 0.51919
-0.076572 -0.0700617 0.526456
-0.0882569 0.198531 0.526456
0.238534 -0.00395647 0.51919
0.0833225 -0.0929977 0.427793
-0.0311361 0.111672 0.51919
0.195843 -0.0543866 0.526456
0.0162796 0.0748334 0.526456
0.212357 -0.263327 0.51919
-0.0936576 0.139681 0.51919
0.228084 0.0661586 0.51919
-0.221983 -0.163842 0.51919
-0.234057 -0.234291 0.0960606
0.0519435 -0.198915 0.51919
0.249883 0.263454 0.526456
0.268094 0.29097 0.0220261
-0.191311 -0.0804379 0.526456
0.04175 -0.0150029 0.51919
0.266684 0.00287446 0.526456
-0.161316 0.0539118 0.526456
-0.185228 -0.152966 0.526456
-0.212983 0.201764 0.526456
0.250463 -0.190039 0.526456
0.243882 0.234692 0.51919
-0.178249 0.188123 0.241234
-0.147578 0.0561087 0.51919
-0.117078 -0.181896 0.51919
-0.185403 0.101531 0.526456
0.0477138 -0.268544 0.519783
-0.0512528 -0.251182 0.526456
-0.237839 -0.234554 0.51919
0.0677644 0.123486 0.526456
-0.229775 -0.245411 0.526456
-0.215575 -0.226456 0.16244
0.21866 -0.236277 0.140219
0.105636 -0.114118 0.376308
-0.102818 -0.0926376 0.414872
0.258251 -0.0209018 0.526456
0.0981135 0.189394 0.526456
-0.207686 0.0310426 0.51919
-0.118605 -0.221125 0.526456
0.211228 0.153053 0.526456
-0.236589 0.256599 0.0950378
-0.0402537 -0.176702 0.526456
-0.11167 0.115342 0.389075
-0.0702375 -0.229995 0.526456
0.077723 0.0767843 0.444581
-0.177955 -0.0668617 0.51919
-0.167507 0.181683 0.253562
-0.264621 -0.28442 0.042334
-0.267232 -0.266646 0.0710235
-0.169441 -0.176579 0.233873
0.194068 -0.0761174 0.51919
0.232705 -0.251893 0.0939335
-0.145147 -0.0730159 0.51919
-0.254115 -0.268539 0.526371
0.1947 -0.208374 0.176091
0.05881 0.0350921 0.51919
-0.263444 -0.152282 0.51919
0.170949 0.177249 0.231178
-0.210974 0.0995162 0.51919
0.177675 -0.129406 0.51919
0.0566541 0.0642347 0.51919
-0.246248 -0.267059 0.0664036
0.269972 -0.26412 0.520422
-0.244178 -0.232933 0.12609
0.101974 0.10564 0.409227
-0.0229708 -0.198416 0.526456
0.0156814 0.151839 0.526456
-0.208119 -0.0695799 0.51919
0.18917 -0.133085 0.51919
0.242339 0.228092 0.129805
0.263517 0.262959 0.0315908
-0.0193039 -0.0213176 0.526456
0.172001 0.169464 0.51919
0.106394 0.112772 0.374605
0.213799 0.192407 0.51919
0.148605 -0.0392216 0.51919
0.230747 0.227975 0.107458
-0.155083 -0.160028 0.526456
-0.0683269 0.223202 0.51919
-0.134066 0.162418 0.526456
-0.124258 0.00644329 0.526456
0.125192 0.161526 0.526456
0.174706 0.189278 0.238097
-0.146165 -0.136884 0.306075
0.10444 -0.0715612 0.526456
0.189939 0.108441 0.51919
-0.138408 0.14165 0.305948
0.246013 -0.239381 0.51919
-0.0984397 0.0921624 0.4255
-0.0127239 -0.105685 0.51919
0.0167155 -0.0729614 0.526456
0.263302 0.25233 0.526456
-0.0214897 -0.0369999 0.51919
0.228356 0.152536 0.526456
0.00908098 -0.214476 0.51919
-0.157801 -0.172718 0.26315
0.231445 0.0772762 0.51919
-0.0510543 0.0484265 0.526456
0.015578 0.0609704 0.526456
0.157164 -0.169156 0.260472
0.0146212 -0.0444967 0.51919
-0.244319 0.0694692 0.51919
-0.223318 -0.114325 0.51919
-0.145733 -0.0317051 0.51919
0.0717679 -0.0629798 0.474643
-0.0411314 0.0334076 0.51919
-0.059954 -0.0290294 0.51919
-0.26444 -0.124921 0.51919
0.208173 0.26691 0.520132
-0.0232755 -0.0648147 0.51919
-0.209929 -0.205489 0.193062
0.112646 -0.102347 0.395685
0.196342 0.0178654 0.526456
0.24275 -0.0315583 0.51919
0.210286 0.116393 0.51919
-0.0221569 -0.0912403 0.51919
-0.21537 0.155055 0.51919
0.229636 0.14048 0.51919
0.176058 -0.207614 0.526456
-0.140722 0.128706 0.324599
0.0384031 -0.217076 0.51919
0.230125 0.195747 0.526456
0.167095 -0.179587 0.238148
0.269652 -0.291042 0.0108596
-0.172305 0.0806357 0.526456
-0.219827 -0.132342 0.51919
-0.00322285 0.137415 0.526456
0.171065 0.0858907 0.51919
-0.0578163 -0.125425 0.51919
0.0374373 0.113518 0.51919
-0.146521 0.199006 0.51919
0.0759568 -0.179581 0.526456
0.0902713 -0.113287 0.526456
-0.00277895 0.234077 0.51919
-0.155028 0.256929 0.51919
0.221916 0.241052 0.12009
0.269431 0.0659083 0.526456
-0.202595 -0.121341 0.51919
0.0935142 -0.144885 0.526456
0.210836 -0.178156 0.51919
-0.0521455 0.0985744 0.51919
-0.260967 0.0863694 0.526456
0.28525 0.263434 0.0354926
-0.147922 0.0755462 0.526456
-0.265486 -0.112336 0.525348
0.0655696 0.100665 0.51919
0.236378 -0.251999 0.51919
0.193382 -0.189317 0.192221
0.0301892 0.0738401 0.526456
-0.0593385 0.174191 0.51919
-0.130348 0.0355216 0.51919
0.17172 0.129891 0.526456
0.259445 -0.109089 0.51919
0.198218 0.188596 0.189871
-0.101582 0.19455 0.51919
0.245786 0.246552 0.0695259
-0.125192 -0.126519 0.51919
-0.128004 -0.134953 0.350449
0.138492 -0.127527 0.343171
-0.0255246 -0.153425 0.51919
-0.117054 -0.167869 0.51919
0.0257602 0.00596455 0.51919
-0.160343 -0.0100733 0.51919
-0.135207 -0.163704 0.51919
-0.0224254 0.119429 0.51919
-0.148459 -0.150042 0.315349
0.0698317 -0.148162 0.51919
-0.158598 0.204462 0.51919
0.291037 -0.281413 0.0283809
-0.261608 0.00352699 0.526456
-0.194477 -0.05059 0.51919
-0.200583 0.229194 0.526456
0.239029 -0.236979 0.0880595
-0.254636 0.235053 0.08962
-0.0183479 0.253022 0.51919
0.137969 0.228894 0.526456
-0.0124868 0.148366 0.51919
0.0861205 0.0926072 0.43748
0.155089 0.208539 0.51919
-0.137598 -0.0466297 0.51919
0.144436 0.138352 0.526456
0.166948 -0.0964973 0.51919
0.189641 0.201072 0.187463
-0.103226 0.104641 0.409601
0.0034461 -0.101565 0.526456
0.0940527 0.106287 0.51919
-0.182737 -0.232387 0.51919
0.190285 0.0931233 0.51919
-0.279583 -0.282215 0.0414258
0.0962717 -0.160713 0.526456
0.252885 -0.164612 0.51919
0.170734 -0.162906 0.276927
0.0365622 -0.249446 0.526456
0.263945 -0.0376138 0.526456
-0.263434 0.273593 0.0227821
-0.1588 0.219033 0.51919
0.225574 -0.18788 0.51919
0.0695342 0.0529455 0.526456
-0.160836 0.00834405 0.526456
0.14853 -0.134436 0.526456
-0.0587493 0.121855 0.526456
0.181052 -0.197898 0.212517
-0.235186 0.236267 0.526456
-0.0964962 0.0336377 0.526456
0.137912 -0.0702438 0.526456
-0.094455 -0.19208 0.51919
-0.135741 -0.115524 0.51919
0.216904 0.219473 0.51919
-0.0765546 0.00760645 0.51919
0.128003 -0.131357 0.328911
-0.105671 -0.111981 0.376274
0.181555 0.0553705 0.51919
0.205576 -0.250256 0.526456
-0.028601 -0.129659 0.526456
0.229496 -0.0539226 0.526456
0.0351503 -0.0304109 0.526456
0.0626502 -0.123767 0.526456
0.204228 -0.189923 0.208108
0.223662 0.214696 0.167936
-0.218512 0.200416 0.172978
0.108519 -0.240985 0.51919
0.0811192 0.167589 0.51919
-0.226204 0.14034 0.51919
0.126841 -0.1725 0.526456
-0.240135 0.0993528 0.51919
0.0742339 0.010531 0.51919
0.0936672 -0.0974381 0.51919
0.0345192 0.230978 0.526456
-0.233971 0.24352 0.127128
0.207226 0.0846175 0.526456
-0.0728299 -0.0773877 0.468622
-0.178001 0.191157 0.526456
-0.096039 0.0846453 0.51919
0.108674 0.207748 0.51919
-0.123623 0.115016 0.51919
0.248407 -0.150797 0.526456
-0.196225 -0.188505 0.51919
0.0992267 0.219187 0.51919
-0.213981 -0.208048 0.14915
-0.123896 0.144109 0.51919
0.100415 -0.100147 0.417483
-0.265366 -0.223042 0.526456
0.252191 -0.272423 0.0497291
-0.0927568 -0.0115192 0.526456
0.213414 -0.0326142 0.526456
-0.218862 0.240477 0.526456
-0.0820792 -0.0216134 0.526456
0.149469 -0.0187034 0.51919
-0.296641 0.27374 0.0110331
-0.120823 0.0818177 0.526456
0.0376327 0.0156358 0.51919
0.0964257 0.238405 0.51919
0.102247 -0.172935 0.526456
-0.270118 0.256613 0.0369853
0.0508981 0.0591196 0.503539
0.191084 0.235173 0.526456
-0.0437513 0.199318 0.526456
-0.162709 -0.153042 0.293463
-0.196248 -0.195752 0.180868
-0.245159 0.0195934 0.526456
0.197446 -0.184231 0.222043
-0.0719556 0.182744 0.526456
0.0424263 0.147809 0.526456
0.119755 -0.107289 0.51919
-0.246188 0.249362 0.110144
-0.181403 0.0232643 0.51919
0.239719 -0.220062 0.128207
-0.160947 0.146925 0.286696
0.241249 0.202108 0.51919
-0.166432 -0.13403 0.51919
0.228834 -0.268547 0.526026
-0.127942 0.175157 0.51919
0.237126 0.0276413 0.51919
-0.110056 -0.145158 0.51919
0.143883 -0.152485 0.526456
0.16529 -0.224478 0.526456
0.158056 -0.256841 0.526456
-0.154649 -0.239565 0.51919
0.0772706 -0.0221933 0.526456
0.134434 0.00397933 0.51919
0.220326 -0.128774 0.526456
-0.0807274 0.164781 0.51919
-0.0482038 -0.166115 0.526456
0.279415 0.292163 0.027473
-0.187691 0.178096 0.242138
0.165576 0.166867 0.280159
0.207024 0.169273 0.526456
0.234955 0.255462 0.51919
0.194714 0.209094 0.17606
0.0713651 0.0699954 0.478712
0.145156 0.158537 0.288764
-0.075764 0.0267128 0.526456
-0.195372 -0.00388846 0.526456
-0.210185 -0.0227818 0.526456
-0.277132 -0.298262 0.0124071
0.246159 -0.101681 0.51919
-0.142088 0.125512 0.51919
-0.192385 -0.0196104 0.526456
-0.150633 0.148406 0.314628
0.263289 -0.258832 0.0375871
0.241405 -0.261421 0.0858899
-0.0350091 -0.0393194 0.51919
0.269972 -0.0877066 0.522984
-0.239771 -0.222256 0.133893
-0.141708 -0.135846 0.335935
0.116926 0.255206 0.51919
0.160663 0.0110731 0.526456
0.166893 -0.238546 0.51919
0.122399 0.241752 0.526456
-0.242584 -0.204616 0.51919
0.0494589 0.194383 0.51919
-0.0863214 -0.0606833 0.51919
-0.0716173 0.0685124 0.461207
-0.192943 0.114085 0.526456
-0.202815 0.264182 0.526456
-0.236551 -0.0201204 0.51919
-0.201114 -0.160425 0.51919
-0.265486 -0.252842 0.526131
0.110416 -0.259059 0.51919
-0.0877006 0.0104484 0.526456
-0.106772 -0.0223642 0.51919
0.115049 0.169011 0.526456
0.166885 0.243669 0.51919
-0.059037 0.0508393 0.50376
0.0229197 -0.0808751 0.51919
-0.142263 -0.181201 0.51919
-0.0152974 0.0055615 0.51919
-0.222069 -0.256569 0.51919
0.0700205 0.079153 0.458469
-0.20426 0.0640293 0.51919
-0.232902 0.232479 0.0994242
-0.226815 -0.24049 0.103966
-0.078793 0.195247 0.51919
-0.239306 -0.188443 0.526456
-0.0831778 0.246318 0.526456
0.208598 0.211899 0.150028
-0.0787493 0.124491 0.526456
-0.220765 -0.0754828 0.526456
-0.257356 0.166437 0.526456
-0.186703 0.136454 0.526456
-0.180462 0.219535 0.526456
-0.25193 -0.080498 0.51919
0.264768 -0.266213 0.026853
0.262894 -0.249187 0.0536363
0.0529577 0.093929 0.526456
0.165433 -0.177083 0.526456
-0.193108 0.209117 0.180367
-0.0110194 -0.131776 0.51919
0.0141531 -0.107611 0.526456
-0.219593 0.010336 0.51919
-0.133834 -0.215536 0.526456
0.201227 0.218212 0.163558
-0.248248 0.134025 0.51919
0.133761 -0.120038 0.526456
-0.0122004 0.23075 0.526456
0.225993 -0.156962 0.51919
0.116665 -0.072423 0.526456
0.0341493 -0.122799 0.526456
0.254923 0.14141 0.51919
-0.248194 -0.0145023 0.51919
-0.0742467 -0.138606 0.51919
-0.0645541 -0.268542 0.5255
0.0301408 0.0901376 0.51919
0.0100335 0.104135 0.526456
0.259312 0.279073 0.0528647
-0.164416 0.109403 0.526456
-0.114196 -0.0655992 0.51919
0.154192 -0.15881 0.269742
-0.130629 0.225361 0.51919
0.259376 -0.135685 0.51919
-0.211946 0.206381 0.189735
0.217764 -0.225741 0.526456
0.0141321 0.216741 0.526456
-0.0856899 -0.0843737 0.427436
-0.0722498 -0.0692878 0.459584
-0.179071 0.148954 0.526456
0.00765851 0.160914 0.51919
0.116166 -0.12861 0.359602
-0.111568 0.255555 0.526456
0.250369 -0.112576 0.526456
0.168672 -0.0640861 0.526456
0.12456 -0.0930339 0.526456
0.0765411 -0.237562 0.526456
-0.206584 -0.138646 0.51919
0.0495813 -0.244466 0.526456
0.0638503 0.0665771 0.489705
0.121195 -0.231308 0.526456
-0.0120491 0.187139 0.51919
-0.246486 -0.0633878 0.526456
0.186363 -0.23382 0.51919
-0.182508 0.248475 0.526456
0.200247 -0.012051 0.51919
0.118974 0.0610558 0.51919
0.115733 0.111448 0.388709
0.185759 0.184881 0.240565
0.221582 0.0231541 0.526456
-0.249308 -0.231085 0.113814
0.0448103 0.052144 0.51417
-0.14369 0.0147599 0.526456
-0.217414 -0.0959083 0.526456
-0.137503 0.0844715 0.526456
-0.0760791 0.10733 0.526456
0.136346 0.114414 0.51919
-0.10391 -0.190721 0.526456
-0.232269 0.219211 0.150556
-0.104708 -0.11425 0.526456
0.224069 0.225671 0.158172
0.172749 0.120407 0.51919
-0.255226 0.252883 0.51919
-0.221854 -0.056052 0.526456
-0.191282 0.155256 0.526456
-0.170223 -0.163306 0.247667
-0.112023 -0.12343 0.37214
0.092234 -0.00739947 0.51919
-0.211512 -0.169317 0.526456
0.0725336 -0.257084 0.51919
-0.236981 -0.258295 0.51919
0.260122 0.274158 0.0290192
-0.139981 -0.00934893 0.51919
0.02417 -0.260333 0.526456
-0.0456209 -0.0743949 0.51919
-0.264958 -0.060084 0.526456
0.0519976 -0.184738 0.51919
0.222393 -0.144586 0.526456
-0.252111 0.146791 0.526456
0.247597 0.161836 0.526456
0.250502 0.271932 0.0621988
-0.0476944 -0.100573 0.526456
-0.0199387 0.132772 0.526456
0.295525 -0.280837 -1.38778e-17
-0.0174017 0.21182 0.526456
-0.150287 -0.0631915 0.526456
0.0271862 0.133224 0.526456
0.203125 0.252166 0.51919
-0.189377 -0.164242 0.526456
0.225591 0.220342 0.122393
0.214031 0.00607565 0.526456
-0.0985518 0.104175 0.39248
-0.0668192 0.0604428 0.51919
-0.243089 0.200268 0.51919
0.255156 -0.268548 0.525804
0.260486 0.158455 0.526456
0.0860123 0.096479 0.42625
0.169062 -0.0280675 0.526456
-0.209993 0.226467 0.51919
0.181815 0.0800311 0.51919
0.246424 0.228029 0.118683
-0.0830764 -0.220317 0.526456
-0.0937013 -0.20961 0.51919
-0.215737 -0.217919 0.174724
-0.115933 -0.254332 0.526456
-0.151171 0.108008 0.51919
-0.259832 0.112824 0.526456
0.0158276 -0.24439 0.51919
-0.0263556 -0.240108 0.51919
-0.149165 0.138696 0.302034
-0.00793299 -0.212133 0.51919
0.10238 -0.201152 0.526456
0.00730199 0.13015 0.51919
0.259984 0.0987438 0.526456
0.105681 -0.0208074 0.526456
0.0520805 0.228382 0.51919
0.238844 -0.222207 0.51919
0.0100954 -0.141388 0.51919
0.105103 0.0265524 0.51919
0.222779 -0.223048 0.121025
0.258646 -0.0785915 0.526456
0.036366 -0.00744885 0.526456
-0.165443 0.182135 0.526456
0.229034 -0.199158 0.51919
-0.104952 0.0654503 0.51919
0.235592 0.173548 0.526456
0.162552 -0.0163 0.51919
-0.0439667 0.0822591 0.526456
-0.191176 -0.136496 0.51919
0.225933 -0.210569 0.140443
0.174392 -0.189858 0.234604
0.192768 0.0604593 0.526456
-0.214459 0.229574 0.131739
-0.0101029 0.0745353 0.526456
0.145093 0.158287 0.51919
-0.152556 -0.187026 0.526456
-0.133473 0.186256 0.526456
-0.206462 0.178615 0.526456
0.172039 0.0363691 0.526456
-0.221267 0.0502378 0.526456
