0.014491 -0.32573 0.0934033
-0.12301 0.0587699 0.0675891
-0.0118998 0.3271 0.260539
0.0129606 0.16828 0.122905
-0.014565 -0.188599 0.203884
-0.0100749 -0.199108 0.323457
-0.00949923 0.403995 0.174942
0.00827336 -0.153531 0.108002
0.0114097 0.242696 0.0377753
-0.0360255 0.199086 0.158935
-0.0139398 -0.424317 0.11949
-0.0455766 -0.00714409 0.181983
-0.0561876 0.261298 0.157486
-0.025555 0.16615 0.42695
0.0138498 -0.346306 0.198474
0.134464 0.020402 0.306536
0.0124399 0.230518 0.254637
-0.00927294 -0.214128 0.377903
-0.0142598 -0.220934 0.252359
-0.000452924 0.367931 0.0524447
-0.00530724 -0.387036 0.0735058
0.0101615 0.0603771 0.182192
-0.00807181 -0.108191 0.322564
-0.00746156 0.400801 0.0513401
-0.0376703 0.0531362 0.153102
0.0225525 -0.327137 0.166189
-0.021149 0.270298 0.111198
0.00178215 0.170133 0.229158
0.00613223 0.158042 0.238282
0.0129342 0.170567 0.189073
-0.0183554 -0.34959 0.17385
-0.0708354 0.0607661 0.0624597
-0.037741 -0.178681 0.644763
0.00680854 -0.199684 0.4666
0.0109836 -0.236647 0.126994
-0.014363 -0.279412 0.0238064
-0.119164 -0.169383 0.65122
-0.0140215 0.292042 0.281841
-0.00270638 0.37461 0.275236
-0.0140404 0.08099 0.195706
0.0772213 -0.174251 0.63096
-0.0185972 0.139052 0.158464
-0.0152223 -0.322903 0.306323
0.0030145 -0.105749 0.189686
-0.0139829 0.24179 0.272259
-0.039413 0.0461253 0.232242
0.0363453 -0.283834 0.187051
-0.0370128 0.217459 0.183769
-0.0109164 0.38994 0.211376
-0.00749103 -0.150661 0.637738
0.000451629 -0.194301 0.167867
-0.00756927 0.102903 0.235827
0.0128284 -0.312674 0.280106
-0.0135668 -0.173857 0.193967
0.0118341 0.274088 0.215388
-0.0455974 0.0871809 0.19221
0.000135985 0.0353727 0.147036
0.0404189 0.221564 0.149023
0.0559504 0.292548 0.143454
0.00231988 -0.411764 0.0510141
-0.00757459 -0.140715 0.255261
0.0130478 -0.432155 0.148848
0.0125046 0.421741 0.122043
0.0172912 -0.206088 0.356995
0.0130497 0.303649 0.0217784
-0.0378262 0.222135 0.245597
-0.0164864 -0.279322 0.299036
-0.0380491 0.19232 0.43132
0.0270366 0.190135 0.282846
-0.00343245 0.126144 0.36003
-0.0140749 -0.187989 0.0885655
0.014258 0.350714 0.129561
0.132977 -0.171614 0.647768
-0.107266 0.0189986 0.0675891
0.00693384 0.232565 0.213781
0.00086901 0.131894 0.308204
-0.0407356 0.0795838 0.121312
-0.00735985 0.207468 0.194317
0.0169167 0.177963 0.462969
0.0125466 -0.257925 0.2658
0.0115661 -0.239428 0.175952
7.05149e-05 0.145216 0.138114
-0.0354105 0.024837 0.154304
0.000437167 -0.390381 0.271245
-0.0435016 0.209597 0.123542
0.0125433 -0.42719 0.202916
0.00837703 0.432319 0.174754
0.00594128 -0.382474 0.208249
0.00581766 0.0260496 0.330894
-0.0614655 0.0480452 0.150695
0.0123909 0.102153 0.257282
0.0373851 0.269625 0.125614
-0.0224689 0.295145 0.113122
0.0244104 0.0470646 0.18496
0.00636195 0.211309 0.0272308
-0.0132756 0.187182 0.0566279
0.0065452 -0.185819 0.317286
0.0122089 -0.435625 0.112511
-0.0134196 0.430209 0.137979
-0.0195656 -0.266023 0.177396
-0.0279401 0.30261 0.159118
-0.0076789 -0.185988 0.529522
0.08081 0.0611463 0.302852
-0.0394129 0.130884 0.21219
0.00762034 -0.054737 0.162918
-0.00910831 -0.191626 0.130737
0.0033545 0.148916 0.430589
-0.00188627 -0.0286606 0.318687
0.0283571 0.294483 0.156277
0.110907 0.0324254 0.306536
0.0119238 -0.167124 0.151372
-0.0335654 -0.222622 0.145307
0.0149293 0.204832 0.44433
-0.0419958 -0.165839 0.633663
0.0144946 0.219121 0.281621
6.06011e-05 0.332043 0.0356212
0.0097864 0.390737 0.0842178
0.067763 0.0343745 0.224314
0.0119254 -0.424386 0.173611
-0.0337937 -0.251773 0.257585
-0.0106457 0.421116 0.207613
-0.0114063 0.215566 0.130589
-0.0204091 0.101644 0.318115
-0.0140956 0.249919 0.0910271
0.0143508 -0.190126 0.24691
-0.000249509 0.00318368 0.164253
-0.0231836 0.0497239 0.189008
-0.00643086 -0.310496 0.0526028
0.00593344 0.196867 0.162343
-0.0200126 -0.241791 0.320774
-0.0125031 0.157219 0.463574
-0.00498243 -0.403535 0.107177
0.0114854 0.301089 0.298659
0.0266966 0.143411 0.153711
-0.0409888 0.157628 0.170981
0.0345204 0.0377528 0.186534
-0.0123674 0.111722 0.446362
-0.0448191 -0.303812 0.155112
-0.0130297 -0.247388 0.256832
0.0145349 0.139871 0.19621
-0.0101675 0.236684 0.0152253
-0.00845571 0.335136 0.0102523
-0.0123181 0.366213 0.153893
-0.00910235 0.0227489 0.327843
0.0107156 -0.262613 0.0397295
0.011183 0.0798665 0.150003
-0.0061625 0.185599 0.107999
-0.0141062 -0.324143 0.283292
-0.0553227 0.0439572 0.0854258
-0.0145893 0.189522 0.074166
0.00642235 -0.213062 0.2194
0.0243266 -0.245269 0.263917
-0.0142479 -0.373765 0.0477876
-0.0137855 -0.419671 0.0775196
-0.0144885 0.175867 0.203592
0.00291384 0.22835 0.0540395
0.0444186 0.337915 0.148077
-0.0370021 0.026586 0.209654
0.0111765 0.19853 0.274072
-0.0178948 -0.334196 0.104352
-0.0138414 0.0860826 0.241993
-0.0140719 -0.396643 0.248655
0.0129153 -0.223329 0.280421
0.00517999 -0.258546 0.299898
-0.00937546 -0.164434 0.578101
-0.130785 0.0445719 0.0649043
0.0121852 -0.225048 0.041552
0.0224903 -0.308079 0.12452
-0.035521 -0.270196 0.207941
-0.0126524 -0.32061 0.0127209
0.00634072 0.406091 0.153412
-0.0133112 -0.426056 0.147768
0.0118154 0.196885 0.2481
0.0130036 -0.364172 0.0381494
0.0209159 0.114332 0.322163
0.0415963 0.217537 0.247491
0.00435967 -0.160077 0.283298
-0.0143905 0.16712 0.134504
0.0195336 -0.287648 0.11372
0.0127211 0.330385 0.266343
0.012216 0.406243 0.221119
-0.0161084 0.33292 0.290329
0.0145279 -0.234158 0.366067
-0.0144975 0.446367 0.172189
-9.83821e-05 0.261011 0.255649
-0.00296521 -0.241812 0.244165
-0.03207 0.177165 0.281534
0.042161 -0.308579 0.148369
-0.0141681 0.191931 0.235105
0.0126939 0.378983 0.244725
0.00636208 -0.218876 0.330606
0.00839564 -0.178264 0.630291
0.00559901 0.378065 0.192172
-0.0137322 -0.155736 0.194215
-0.0164781 -0.15354 0.135043
0.0797618 0.017505 0.304489
0.0143246 -0.330104 0.300721
0.00101715 -0.192292 0.440015
0.0482582 0.25373 0.149775
0.00898103 0.399855 0.104841
-0.0369263 0.0149307 0.182262
-0.0527664 0.264617 0.189574
0.0114845 0.255599 0.0138203
-0.000589057 -0.127782 0.244297
-0.137861 -0.16081 0.633001
0.00900372 -0.280391 0.2651
-0.047086 0.228616 0.149193
0.00647487 -0.163759 0.615477
-0.0354105 0.0569798 0.182566
-0.0134681 0.0593834 0.150155
-0.0146346 0.371786 0.246501
-0.02687 -0.318339 0.162535
0.0121224 -0.351297 0.264367
-0.00398101 0.1491 0.367137
0.00237076 -0.219176 0.402491
-0.014188 0.359172 0.0344037
0.00193842 0.0588639 0.194335
0.0127953 -0.17779 0.127704
0.0233948 0.315528 0.150098
0.004969 -0.128634 0.220964
-0.0138407 -0.351522 0.0239337
0.14653 0.0379071 0.296101
0.0122586 0.356878 0.162831
-0.0973762 0.0478675 0.0571539
-0.0381139 0.057839 0.121641
-0.014549 -0.208561 0.0709893
0.0100351 0.165281 0.0857184
-0.00565875 0.295361 0.249329
-0.0129816 -0.259481 0.0937894
0.118124 -0.158508 0.636273
-0.00888004 -0.16524 0.220804
0.00867544 -0.26991 0.0131018
0.0113746 -0.390006 0.237098
-0.0693496 0.0272468 0.0675891
-0.0200495 0.247501 0.13111
0.010896 0.31586 0.0100711
-0.00602664 -0.231695 0.288376
-0.00163134 -0.0831756 0.335055
-0.0122597 -0.343511 0.264095
0.0128413 -0.382487 0.047956
-0.0113965 -0.202416 0.35496
-0.0383714 -0.0168415 0.207647
-0.039346 0.129975 0.116411
0.00728766 -0.132281 0.323389
-0.00458112 -0.185774 0.294432
0.0138376 -0.309756 0.305709
0.00164265 0.12642 0.17031
-0.00713759 -0.436036 0.214324
-0.0413913 0.189653 0.173029
-0.010489 -0.359829 0.0896048
-0.0354105 0.0560705 0.20669
0.00262819 -0.173766 0.517259
-0.0264854 0.310305 0.140057
-0.00604975 -0.214923 0.196697
-0.0319751 0.168437 0.149408
-0.00225578 0.147346 0.172945
-0.0380745 0.268447 0.169662
0.00162081 0.14056 0.336181
-0.00785738 -0.2003 0.266057
0.010215 0.275162 0.0306167
-0.0144036 0.401409 0.0784453
-0.0144535 0.451244 0.137873
0.0128367 0.41049 0.189798
0.0168213 -0.354776 0.153976
0.0120364 0.154592 0.133181
0.0129943 0.335661 0.0283461
-0.00394048 0.434376 0.114479
0.00683134 0.242734 0.283231
0.0665974 -0.163639 0.64028
-0.0140052 0.208055 0.25255
-0.0243081 0.1279 0.312957
-0.0161527 0.256474 0.292851
-0.0142153 -0.368122 0.266995
-0.043276 0.288949 0.131434
-0.0109228 -0.348085 0.219303
-0.00282508 0.186453 0.430563
-0.00797368 -0.171249 0.645571
0.0079847 0.16223 0.209044
0.0113442 0.191085 0.212837
-0.0146393 0.149982 0.223108
-0.0538705 0.293921 0.159716
0.00623019 0.102229 0.455822
-0.0190936 0.0386488 0.166116
-0.0363183 -0.0208039 0.1597
0.0128626 -0.182728 0.190843
-0.00226936 0.186346 0.18645
-0.0049333 0.394826 0.259817
-0.014217 -0.276656 0.280006
-0.00660366 -0.28174 0.0536924
0.00511993 0.17803 0.26036
0.0442521 0.256149 0.203587
0.0145425 -0.240362 0.320782
0.0202025 0.327546 0.160809
-0.0145167 -0.25591 0.0325796
-0.109517 -0.170055 0.628558
-0.0140187 -0.227685 0.0422668
0.00833217 -0.219649 0.07324
0.10467 0.053455 0.296101
0.0126493 0.0402157 0.166088
0.00749423 0.117285 0.454613
0.0145057 0.353152 0.281227
-0.0726831 -0.171899 0.64797
0.0311211 -0.180568 0.642703
0.0143051 -0.158741 0.193527
-0.0364559 0.0785963 0.169312
0.0120597 0.170498 0.153194
-0.00919842 0.161033 0.413677
0.0204208 -0.285837 0.181546
-0.0207839 -0.224185 0.316448
-0.00876681 -0.00779437 0.153658
0.0208458 -0.30322 0.154272
-0.0354105 0.00197599 0.203466
0.0071339 0.106779 0.308994
0.10959 -0.173147 0.653226
0.0461258 0.293739 0.16523
0.0114206 0.0830027 0.20353
0.00738008 -0.0772354 0.323601
-0.00856555 0.382101 0.0350013
-0.0211851 0.330048 0.14728
-0.028266 -0.303516 0.136911
0.057142 0.0468828 0.205672
-0.0156467 0.312616 0.295982
-0.0137669 0.407945 0.109933
-0.00190981 -0.450076 0.127657
-0.00992469 0.259657 0.226827
0.00624234 -0.183042 0.488325
-0.00348596 -0.174812 0.085076
-0.00642193 0.276588 0.300731
-0.0161894 0.353097 0.279462
-0.0147775 0.0658989 0.168091
-0.144806 -0.16082 0.653039
0.0337868 -0.269238 0.210257
-0.00151369 0.418882 0.0732521
-0.150086 0.0440632 0.0590821
0.00735178 -0.147425 0.135471
-0.0132587 -0.421625 0.182133
-0.0354105 0.00871195 0.147914
0.00820061 -0.217755 0.379382
-0.0322153 -0.255944 0.233531
-0.0151796 0.0994111 0.261775
-0.0923462 -0.168334 0.647991
-0.00978611 0.137922 0.331903
0.0642722 0.0340078 0.252101
-0.0354105 0.0342807 0.130256
0.0391859 0.28102 0.150667
0.00464785 0.225271 0.0741113
-0.0198731 0.291615 0.151074
-0.026095 0.275383 0.160261
-0.0441481 0.024776 0.232063
0.0128722 -0.408628 0.223199
-0.036367 -0.293979 0.175107
0.00479173 0.110911 0.324341
-0.0161012 0.417056 0.229551
-0.0122911 -0.240258 0.363864
0.0101044 -0.315009 0.0335173
-0.00202729 0.298947 0.0355609
-0.0161099 0.167813 0.244395
0.00524352 0.325762 0.0579354
0.0115925 0.429033 0.215676
-0.00201246 -0.231835 0.30935
0.00954574 0.116106 0.282304
-0.0561643 0.031048 0.170574
-0.0660528 0.0392961 0.0996677
-0.0393445 0.201423 0.257243
-0.016194 0.21435 0.277055
-0.01704 0.112188 0.149434
0.144225 -0.160236 0.632156
-0.0341391 0.176765 0.446786
0.0106234 0.377583 0.0653093
-0.043226 0.100025 0.20864
-0.0164207 -0.298627 0.30093
0.0127124 0.355431 0.255004
-0.00889619 -0.160881 0.270602
0.057142 0.0321917 0.194436
0.012309 -0.434115 0.190414
-0.0179556 -0.178656 0.630265
-0.0106986 0.250211 0.0388153
0.00611093 0.286989 0.0520805
-0.0140056 -0.395636 0.0525346
-0.00469518 -0.289172 0.00593954
-0.0139763 0.425703 0.162207
-0.00819981 -0.0472961 0.156073
-0.00720881 -0.4438 0.107597
-0.0134942 -0.167652 0.164989
0.0048873 0.32912 0.237637
-0.00590721 -0.0618524 0.3204
-0.0148515 -0.239155 0.151578
-0.0422578 0.101525 0.168199
-0.000289014 0.199735 0.463145
0.0172565 -0.2615 0.128492
0.0126454 0.263331 0.276113
0.0116228 0.185235 0.0916328
0.012448 -0.288756 0.283468
0.0122575 -0.171979 0.173231
-0.00419463 -0.205344 0.0441952
-0.00617723 -0.167725 0.544876
-0.0136658 -0.20494 0.21923
-0.00798428 0.167614 0.072571
-0.0169015 0.204583 0.44024
-0.00650087 0.226356 0.289927
0.0954718 0.0215747 0.296101
-0.00898837 -0.131998 0.329724
0.0114919 0.219075 0.14097
-0.00261481 -0.201358 0.403543
-0.0146777 0.225186 0.0400949
-0.0527465 0.275 0.176321
0.0128037 0.273 0.0835817
0.00200721 0.149668 0.112972
-0.00429245 -0.197277 0.184379
0.155576 0.0198446 0.296451
-0.000201283 -0.208534 0.094432
-0.00197361 0.0832217 0.180015
-0.0447767 0.0607598 0.22744
0.0406871 0.198144 0.156593
-0.00767101 -0.187766 0.467587
-0.0197062 0.146279 0.440051
-0.0332924 0.308006 0.119996
0.00913059 -0.283686 0.0366555
0.00795681 0.435226 0.141897
0.00392672 0.0600805 0.153439
-0.0094131 0.099716 0.461448
-0.0145632 0.265133 0.271225
0.00582436 -0.301044 0.265737
0.000678223 -0.0298127 0.335055
-0.0394129 0.253875 0.174737
-0.0332924 0.290765 0.174701
-0.00465816 -0.220428 0.281654
-0.0311378 -0.195102 0.143573
0.0176701 -0.260074 0.163742
-0.0142729 0.172832 0.110582
-0.0544258 0.280545 0.144621
-0.00803339 -0.115634 0.207979
0.026967 0.171339 0.29813
-0.13314 0.0246768 0.0675891
-0.0144553 0.351221 0.262227
-0.00380692 0.132491 0.467406
0.0435381 0.259227 0.159723
-0.00841174 0.439991 0.197554
0.0399017 0.294876 0.128457
-0.0426205 0.112005 0.186047
-0.044836 0.0744841 0.21853
-0.045877 -0.00328498 0.164016
-0.044602 0.0401571 0.173959
-0.157367 -0.168427 0.643211
0.0368245 -0.296573 0.16743
0.0105283 0.284333 0.00772014
-0.0132177 0.226572 0.180658
-0.00259293 -0.0815801 0.184938
0.0340471 0.161537 0.156709
-0.0142999 -0.180864 0.111098
-0.0254197 -0.304878 0.173231
-0.00775873 -0.0741596 0.165377
0.0176831 0.162095 0.453319
-0.0274361 -0.289379 0.156366
-0.00611786 -0.178533 0.319017
0.000607465 -0.3965 0.0857735
0.00861253 0.350475 0.0477087
0.00910747 -0.316662 0.0680585
-0.138441 0.0607661 0.0646592
0.00770176 0.314789 0.261258
0.00937793 -0.171343 0.102973
0.00623091 0.449501 0.166795
-0.0559897 0.0386908 0.0538044
0.00799719 -0.153638 0.264104
0.0120513 0.0906161 0.240926
0.0110241 0.096257 0.271925
0.0546721 -0.179715 0.644185
-0.0628658 0.0474372 0.129955
0.00793339 0.212374 0.267162
0.0119198 0.320687 0.0299081
-0.010936 0.175084 0.150438
-0.0144539 0.0780248 0.218563
0.0123843 0.0986077 0.325009
-0.00658761 0.192959 0.128576
0.0926758 0.0383368 0.296101
-0.0354105 0.074521 0.147435
-0.00701417 0.0874647 0.264944
-0.00572591 0.137384 0.379529
-0.000576172 0.0963879 0.214999
-0.0142358 -0.425489 0.0981232
0.00761396 0.388211 0.0413747
0.0109553 -0.155978 0.639705
-0.00817359 -0.219853 0.328984
0.00338243 0.189461 0.0432201
0.148278 -0.157778 0.648878
0.0121343 0.204944 0.23298
-0.00547869 -0.256097 0.0497273
0.120698 0.0259979 0.296101
0.00239266 -0.406812 0.25739
0.00769851 -0.036847 0.156452
0.163877 -0.167132 0.641371
-0.0140984 0.389626 0.238599
-0.0127995 0.303167 0.266797
-0.0347957 0.028096 0.115285
-0.0167927 0.0802298 0.319906
-0.0129468 -0.186298 0.166199
0.011861 0.391342 0.216219
-0.0232322 0.274367 0.173173
0.0242315 0.280412 0.165878
-0.0104064 0.195428 0.212348
0.00747702 -0.179365 0.542171
-0.106838 -0.156293 0.648586
-0.00924379 -0.154367 0.617138
-0.0384241 0.272504 0.127763
0.00738008 -0.11023 0.328868
0.00306266 -0.246837 0.28547
0.0129079 -0.195596 0.213257
0.00660659 -0.371476 0.279586
-0.0100356 0.395535 0.0956902
-0.00800645 0.0386171 0.195385
0.0108009 -0.179666 0.649085
-0.00366464 -0.169317 0.205504
-9.02188e-05 0.170507 0.426063
0.0156068 0.169232 0.427557
0.0127187 0.210394 0.0532912
-0.0146613 -0.300663 0.0250957
0.0121765 -0.343228 0.0354393
0.118641 0.0478275 0.306536
0.00785536 0.406947 0.062227
-0.00227953 -0.324091 0.262546
-0.0093793 0.348386 0.24823
-0.0146775 -0.402155 0.0694345
0.00642115 0.0244927 0.159341
-0.00874966 -0.176488 0.557223
0.0174668 -0.222714 0.315187
-0.010308 -0.257391 0.298845
0.0249813 0.193849 0.431517
-0.0390174 0.194017 0.275383
-0.00767147 0.377909 0.0719346
-0.0903295 0.0560952 0.0675891
0.0221668 0.30475 0.175041
-0.00683217 -0.39676 0.21884
0.0490632 0.311598 0.147575
-0.0145415 0.324317 0.0235222
0.000724431 -0.410327 0.192495
0.00328908 0.315996 0.292245
-0.00638345 -0.0960613 0.199184
0.0193253 0.155026 0.439022
0.0243149 -0.3251 0.144542
-0.0137278 0.413327 0.145783
0.00756196 -0.419046 0.13327
-0.00612239 -0.169674 0.598689
0.0440474 0.245692 0.160461
-0.0421247 0.146873 0.203225
0.000665806 0.201288 0.434987
-0.0024468 0.240854 0.248071
-0.0596224 -0.18112 0.636104
-0.0385743 -0.284209 0.187356
-0.00125654 0.139867 0.211035
-0.0382548 0.232095 0.179256
0.0144902 0.150963 0.220789
-0.0119949 0.172846 0.222575
0.0122535 0.159083 0.173005
-0.0080539 0.129474 0.183892
-0.00977498 0.153676 0.395346
-0.00451142 -0.261885 0.2495
-0.0369243 0.195574 0.192519
-0.0384241 0.318578 0.159054
-0.00308294 -0.215553 0.418668
-0.00769883 -0.18681 0.0678715
0.00221282 -0.18564 0.335817
0.000369019 0.301095 0.00107909
0.0127869 0.243333 0.1002
0.0248714 -0.292121 0.138612
-0.00670129 0.154871 0.197143
-0.00711752 -0.226763 0.23371
0.00715257 -0.164146 0.573139
-0.0413894 0.287152 0.153754
-0.0423211 0.224545 0.228892
0.133597 0.0330462 0.306536
-0.00796914 -0.378353 0.239339
-0.0399416 -0.0234672 0.181475
0.00689036 0.405672 0.132123
-0.00663722 0.0703553 0.149216
-0.0155413 0.114448 0.306687
0.000640356 -0.219198 0.356889
0.0580824 0.0385174 0.17194
0.0119603 0.124996 0.331934
-0.0186612 0.0411276 0.329145
-0.0895085 0.0342646 0.0675891
-0.00140603 0.18116 0.245294
0.0110452 -0.206224 0.269422
-0.00300614 0.174305 0.467961
0.108513 -0.174723 0.635074
0.135541 -0.154677 0.638136
-0.0354105 0.0354983 0.193547
0.0113811 -0.416044 0.105229
0.00578703 -0.438241 0.0935365
-0.0114831 0.24393 0.213075
-0.0526843 0.241082 0.15726
0.0234585 0.266332 0.14314
-0.032018 -0.242167 0.271301
0.00728646 0.0461156 0.326705
-0.120011 0.0399918 0.0573853
0.00829291 -0.36737 0.0942937
0.011076 -0.31936 0.222206
0.0108695 -0.186178 0.147764
-0.00486466 0.115789 0.264106
-0.00396685 -0.162239 0.120159
0.0363217 0.230704 0.236657
0.0287536 0.283465 0.139944
-0.0142922 0.410427 0.0926215
-0.0135063 0.37403 0.0593023
0.0583049 0.0467567 0.223563
0.0518136 0.276214 0.157071
0.00247004 -0.365245 0.0177733
-0.0163432 0.349399 0.142252
0.00543123 0.155768 0.415623
-0.0137834 -0.409542 0.0884143
0.0104916 -0.331273 0.267147
0.0825467 -0.166966 0.646843
-0.0553227 0.045813 0.0681507
-0.00420885 -0.336636 0.29438
0.0125207 0.293471 0.280339
-0.0354105 0.0137083 0.128614
0.0126165 0.1378 0.439094
-0.00604716 0.22523 0.239558
0.0160322 0.124267 0.158107
-0.0407895 0.216253 0.167656
-0.0164598 -0.339957 0.301212
0.125856 0.0456411 0.296101
0.0126185 0.168447 0.101902
-0.00994583 0.297491 0.231797
-0.0398391 0.116599 0.224044
-0.0249446 0.0300005 0.189156
0.00779237 -0.0710478 0.169435
-0.00121344 0.173585 0.127484
-0.0136401 -0.425654 0.166205
-0.0479109 0.255825 0.204678
0.00454831 -0.00348147 0.333465
-0.0157896 -0.176875 0.234353
-0.000125311 -0.42444 0.0653318
0.00454134 -0.0480127 0.320642
0.00563218 0.177079 0.0591348
0.0122001 -0.242106 0.0312893
-0.000869516 0.420457 0.231537
0.00969081 -0.321421 0.0107596
-0.0121235 0.15281 0.126688
0.00754653 -0.00971992 0.154705
-0.00489462 -0.374052 0.0615559
-0.0129991 -0.320645 0.0323971
-0.00067799 0.346898 0.289427
-0.0416857 0.174145 0.182313
-0.0255518 -0.165561 0.640627
-0.00880753 0.0193619 0.153546
-0.0142671 -0.174036 0.153443
0.0129731 -0.375989 0.258025
0.00327757 0.179185 0.138958
-0.0109147 0.258962 0.0736348
-0.000391506 -0.306979 0.298379
0.00752438 -0.182143 0.504715
0.0221751 0.0256123 0.181494
-0.0332924 0.323288 0.133473
-0.0141415 0.172692 0.0901278
-0.130911 -0.152435 0.643709
-0.0332924 0.257619 0.146761
-0.106973 0.0533555 0.0675891
0.0124687 -0.215546 0.236126
0.0124197 -0.271737 0.281083
-0.00186776 0.258006 0.291273
0.0127419 0.221842 0.038044
0.00883186 -0.225003 0.162867
-0.0424994 0.304894 0.156651
0.012394 -0.37148 0.163311
0.0128891 0.366856 0.043152
-0.016424 -0.153928 0.17569
0.0103004 0.373172 0.263185
-0.0141127 0.232883 0.256335
-0.000369334 0.19536 0.258581
-0.0334642 -0.243009 0.146873
0.0143437 -0.152786 0.152499
0.00110449 -0.144584 0.624393
-0.00461658 -0.198998 0.112507
0.0353541 0.204032 0.25363
0.00743321 -0.200961 0.314925
-0.0133783 -0.236859 0.271807
0.00881057 -0.355359 0.214873
0.0678721 0.033317 0.203065
0.00958496 0.337265 0.0833472
-0.00642871 -0.357621 0.0503263
0.00587633 -0.150729 0.181079
0.00732798 -0.17414 0.235541
0.0129393 0.246619 0.265262
-0.00368161 -0.145065 0.240513
-0.00876036 -0.203562 0.447449
-0.0090118 -0.186393 0.632376
-0.0106434 0.120833 0.157364
0.00751294 -0.178986 0.295381
0.0269982 0.298988 0.137353
-0.0424203 0.138864 0.196344
0.0128686 0.407867 0.0922155
-0.0185689 0.0268682 0.174727
0.0122255 -0.196066 0.23187
-0.00868427 0.203495 0.0338217
0.00997233 -0.221044 0.349476
0.0123831 0.316905 0.279785
-0.00441578 -0.179309 0.225785
-0.00328143 -0.450837 0.171913
-0.0161135 0.181471 0.258087
0.0121374 0.243206 0.198759
0.00746767 -0.111932 0.207372
0.00677967 -0.428356 0.227359
-0.00783502 -0.169298 0.100446
0.0481601 0.0453728 0.184494
-0.0010724 0.0507483 0.170535
-0.119703 -0.158666 0.636179
-0.00246699 0.196216 0.0880416
0.00465877 -0.165192 0.319117
-0.0553227 0.0358065 0.140645
0.0180312 -0.317038 0.108525
-0.00854675 -0.338809 0.0108862
-0.00874637 -0.170001 0.289064
0.0274866 -0.248573 0.249146
-0.00648737 -0.0589935 0.170214
0.00736725 0.141771 0.354069
0.017949 0.0331583 0.193662
-0.0421874 0.151255 0.188693
0.0120396 -0.442063 0.167748
0.0198808 -0.307631 0.188282
0.02329 0.139845 0.315216
0.00913482 -0.238359 0.0557823
0.00964627 0.398173 0.241746
-0.0140716 -0.173984 0.127273
-0.0019282 0.0755424 0.236381
-0.0219615 -0.227684 0.358319
-0.0136126 -0.242904 0.186012
-0.0107247 0.100392 0.158946
0.000852119 -0.0223204 0.163971
-0.0125375 0.298032 0.299168
-0.0167126 -0.162197 0.628558
0.00771901 0.227897 0.0191705
-0.0139029 0.0920871 0.222432
0.00627348 0.0108932 0.321221
-0.0140942 -0.436338 0.129657
-0.0418517 0.227396 0.128187
-0.0238335 -0.234215 0.304629
0.0120707 -0.404729 0.0818255
-0.0140264 0.158129 0.154443
0.012231 0.0754746 0.187145
0.00625781 0.339399 0.0112797
-0.00982971 0.408318 0.24504
-0.01448 0.390281 0.0639856
-0.0553227 0.0434944 0.164736
0.135153 0.0274897 0.296101
-0.00425703 0.321478 0.00407855
-0.042322 0.181421 0.153351
-0.0217001 0.444135 0.149668
0.00645836 0.341517 0.251001
-0.00690819 -0.184493 0.249669
0.00703764 0.443386 0.189154
-0.0017684 -0.0920769 0.318687
0.0144995 0.171487 0.246915
-0.00351013 -0.314535 0.30909
-0.0588676 -0.164262 0.639861
-0.0122534 0.222228 0.11367
-0.0137483 0.411682 0.127269
-0.0140982 -0.264231 0.267791
0.0174708 -0.167296 0.644024
0.0119924 -0.239419 0.273023
-0.0146568 0.0658853 0.186131
-0.0136624 0.371121 0.26099
0.0121597 -0.396829 0.252461
0.00851813 -0.194736 0.26005
0.150732 0.0294494 0.306536
-0.0354105 -0.00208 0.187524
-0.0189784 0.114647 0.325862
-0.00583657 0.393446 0.16083
0.109343 -0.160525 0.652894
0.0125404 -0.397645 0.0570219
-0.027695 0.291682 0.13141
0.0796544 0.0292625 0.296101
0.00427213 -0.418281 0.154387
0.0122461 0.0969772 0.149775
-0.0332924 0.280409 0.122763
0.0330246 0.188279 0.447386
-0.0227011 -0.336401 0.139354
0.0252106 -0.175184 0.629011
0.0129104 0.416557 0.166322
0.00114473 0.0883666 0.466938
-0.0261257 -0.286294 0.142937
-0.0339004 0.170633 0.295886
-0.0354105 0.0751866 0.182802
0.00411017 -0.194144 0.354674
0.00418175 -0.299227 0.0385688
-0.0450948 0.0825091 0.207719
-0.116003 0.0247172 0.0571539
-0.00300207 -0.256254 0.0129007
-0.0236075 -0.333192 0.160549
0.0500083 0.271617 0.14786
0.00999425 -0.253905 0.0193758
0.119941 -0.173364 0.636917
-0.0342818 0.0680101 0.239614
0.0391859 0.306324 0.159615
-0.0353438 0.296613 0.145813
-0.000380101 0.452495 0.150284
-0.00632141 -0.272655 0.00935682
0.00663571 -0.251928 0.253306
-0.0142043 -0.428125 0.200289
0.00687933 0.395897 0.195997
-0.0447348 0.00562758 0.217632
-0.00774668 -0.0445147 0.331503
-0.00147713 0.0890892 0.195543
-0.0117519 0.339405 0.0393345
-0.0429276 0.180054 0.123325
0.0110815 -0.19266 0.636874
-0.0228222 -0.318505 0.183859
0.011148 0.0447046 0.151051
0.0363834 0.308966 0.133278
-0.00971416 -0.191197 0.30661
-0.00165167 0.211413 0.283504
-0.0111531 0.251336 0.257545
0.0113419 0.231482 0.273506
0.00302111 -0.340979 0.305967
-0.0140082 0.421901 0.178963
-0.0660528 0.0456344 0.072146
-0.00248135 0.359934 0.283889
-0.00794433 0.313129 0.0351571
-0.0452729 0.0200987 0.133335
-0.0530238 0.282073 0.160391
0.00396151 0.180816 0.168417
-0.0315801 0.203594 0.448712
-0.0191437 0.181695 0.429949
0.00382492 0.287982 0.294309
-0.00266534 -0.193059 0.14668
0.00982243 -0.446887 0.148214
0.0127813 -0.214551 0.0583148
0.0989833 0.0611463 0.302767
0.00580375 0.120825 0.343117
0.00971094 -0.185233 0.0755618
-0.0816185 0.0394785 0.0571539
-0.0783826 0.0165818 0.0574903
0.00116088 -0.413487 0.119753
-0.0388042 0.0644136 0.137414
-0.0660527 0.0372909 0.175003
-0.0456303 0.0457551 0.184021
-0.0252936 -0.307528 0.153854
0.00792644 -0.385724 0.0327775
-0.013737 0.405505 0.191418
-0.00822328 -0.208483 0.432922
-0.00671419 0.259775 0.00553204
0.013038 0.390649 0.0679981
0.0250179 -0.238555 0.279468
-0.0112928 0.141549 0.35418
-0.0127037 0.29519 0.0722464
0.0454138 0.241542 0.211043
0.00593899 0.235238 0.292816
-0.0123975 0.27717 0.286758
-0.0183891 -0.180456 0.645072
-0.0384241 0.284927 0.144711
0.0375944 0.23066 0.159202
0.0100296 -0.368862 0.0521856
-0.00477726 -0.240704 0.326471
0.02757 -0.30783 0.163189
-0.00327814 -0.192106 0.51301
-0.00909603 -0.147234 0.148792
-0.014228 -0.241688 0.0363379
-0.0354105 -0.00310285 0.175136
-0.000213683 -0.349563 0.254593
0.00137019 -0.232378 0.358969
0.00927824 -0.164024 0.132303
0.0281293 -0.310006 0.141395
-0.00409337 -0.434111 0.081255
-0.00614474 -0.37455 0.0780801
-0.0239487 0.0512794 0.172164
-0.00803718 -0.184803 0.483112
0.0182957 0.194463 0.460977
-0.00947167 -0.161788 0.328572
0.00648906 0.0767094 0.167504
0.0120025 -0.417777 0.0715318
0.0119545 0.182429 0.231984
-0.109265 -0.180393 0.640978
-0.0332924 0.312723 0.176201
-0.00101342 -0.0416785 0.167273
0.0104068 0.151451 0.149323
0.0843323 0.0355973 0.306536
-0.0271453 0.279699 0.136117
-0.00862144 0.37021 0.195119
-0.125814 -0.173866 0.638623
-0.0427965 0.11552 0.209911
-0.0346964 0.0375085 0.243179
-0.0354105 0.0455043 0.129488
-0.0368339 0.210014 0.194958
0.00774651 -0.161534 0.589532
-0.0354105 0.0112629 0.215971
0.0089719 0.155327 0.190934
-0.0355913 -0.0076591 0.151049
-0.00240445 0.110958 0.468508
-0.00949997 0.03869 0.155053
-0.00830225 -0.130106 0.227979
-0.00916567 -0.424952 0.231784
-0.00830678 0.221846 0.021656
0.000176564 0.00422677 0.147321
-0.0146209 -0.402266 0.233673
-0.106468 0.0354236 0.061834
0.00172012 -0.146778 0.318687
-0.0116075 0.381069 0.224947
-0.00693519 0.264579 0.0372506
0.0226494 0.0452946 0.168373
-0.00607457 -0.278978 0.261658
-0.0517377 0.311713 0.14865
-0.00330613 0.134277 0.199078
-0.138124 -0.172288 0.641924
-0.0704343 0.037655 0.0581925
-0.0400463 0.296484 0.167946
0.0382614 0.214062 0.160474
-0.00876911 0.241313 0.294502
0.000587725 0.067882 0.217659
0.0407213 0.265892 0.19168
-0.0363862 -0.265472 0.222121
-0.0354105 0.0353222 0.226992
0.00492456 -0.201302 0.196768
0.0105291 -0.238007 0.249109
0.00299643 0.162087 0.437537
-0.0139013 -0.223075 0.0605212
-0.0677863 -0.165069 0.633752
-0.0139856 -0.34986 0.278187
-0.00376454 0.217751 0.0629901
-0.0514497 0.297076 0.146877
-0.042134 0.216323 0.149018
0.0795239 0.0449496 0.299465
-0.0405533 0.173805 0.166692
-0.0660527 0.0352156 0.156955
0.159497 -0.150565 0.650582
-0.000566847 0.399906 0.116774
0.0129447 0.227147 0.154405
0.0124745 0.347604 0.268592
0.126412 -0.157696 0.647238
-0.147427 -0.151328 0.642405
-0.039119 0.302534 0.138165
-0.0107696 -0.289948 0.035602
0.00567371 -0.194151 0.126197
0.160106 0.0400018 0.300015
0.00922153 -0.28421 0.0101527
0.00143804 -0.20974 0.343651
-0.0152709 0.0499949 0.161577
0.0264568 -0.276139 0.199702
-0.038759 -0.0138477 0.19427
0.0428927 -0.174904 0.62939
0.14742 0.0435421 0.306536
-0.0162662 -0.243933 0.289689
-0.0276422 0.28793 0.163961
0.0105327 0.183714 0.196555
0.00832335 0.100128 0.289341
0.00800476 0.272518 0.300061
-0.0143692 -0.380351 0.257715
-0.0402812 0.0418814 0.114329
-0.00276414 0.372024 0.0249802
-0.146629 0.0327199 0.0675891
-0.0049858 0.385477 0.0847808
-0.0402306 0.29632 0.125606
-0.0140983 0.291595 0.0144565
-0.0365112 0.0736716 0.206552
-0.0137148 0.344217 0.274908
-0.00259614 -0.159039 0.141634
-0.0227146 0.140184 0.308
0.00941421 0.0687275 0.205408
0.0235402 -0.28822 0.166828
0.0309398 0.293761 0.168724
0.115126 0.0595291 0.306536
-0.0101387 0.426654 0.0997245
0.00809588 0.267445 0.228521
-0.0140291 0.175531 0.188577
0.0018775 -0.148458 0.120788
-0.0354105 0.0489014 0.167442
-0.048432 0.327406 0.147906
-0.0523214 -0.175141 0.64649
0.00302668 -0.162168 0.64607
0.0124952 0.288998 0.0239774
-0.0434043 0.249378 0.155711
-0.0459055 0.0196323 0.219819
-0.0061712 0.437341 0.163371
-0.0372552 0.155401 0.212036
0.0675618 0.0495581 0.194403
0.0342671 -0.265342 0.224309
0.0035945 0.399957 0.181081
0.0108828 0.260372 0.0327374
-0.00730432 -0.0176343 0.331945
-0.0145391 0.238367 0.0309753
-0.039119 0.277583 0.14026
0.0203282 -0.340596 0.156612
-0.0306292 0.178609 0.155795
0.0122892 0.17656 0.0768051
0.00116405 -0.415712 0.178135
0.00593651 -0.439876 0.2061
0.025975 0.174025 0.284686
-0.0472151 0.271743 0.152052
0.0606438 0.0363034 0.307577
-0.0378453 0.0135968 0.234552
0.00900754 -0.304984 0.147058
-0.00956783 -0.395614 0.262636
0.0153302 -0.284411 0.0999992
0.0121721 0.416095 0.203076
-0.0595545 0.0348125 0.0753932
0.0128807 -0.432916 0.136632
-0.100194 0.0607351 0.0571539
0.0432324 0.0368975 0.174908
0.00117628 0.328397 0.254027
0.00538516 -0.206963 0.388526
-0.0114436 -0.22098 0.346829
-0.00420713 0.191834 0.200418
-0.0333586 -0.177028 0.629894
-0.000885079 -0.168461 0.630134
0.0123068 -0.353481 0.0257686
-0.0241932 -0.306872 0.121263
-0.00525707 0.160171 0.0846492
-0.00889443 -0.200452 0.249892
-0.00898837 -0.146078 0.329455
-0.00268624 0.281101 0.259571
-0.00974275 0.0100055 0.321046
-0.0144484 0.321439 0.27358
0.00944866 0.202056 0.0378779
0.00376465 0.271854 0.00297111
0.0123583 -0.348555 0.278531
0.00196894 -0.214246 0.266779
-3.98466e-05 0.45183 0.130602
0.00922419 0.375497 0.0321673
-0.0114941 -0.242547 0.102092
0.010926 -0.242684 0.113934
-0.00162769 -0.163954 0.192772
-0.0123448 0.20631 0.0645247
3.98573e-05 -0.273777 0.0437588
0.0125353 0.029079 0.171209
0.0370867 0.269771 0.160573
0.0114849 0.185418 0.430429
-0.0133311 -0.291015 0.289191
0.0122785 -0.328972 0.031231
-0.0135326 0.0542902 0.176356
-0.0354105 0.0322171 0.166555
0.00463823 -0.402643 0.174126
-0.0107113 0.0896643 0.207486
-0.0416451 -0.00715902 0.218521
0.00715063 -0.195279 0.480998
-0.0119121 -0.390678 0.0393035
-0.00968253 -0.00409034 0.325357
-0.0342676 0.0534063 0.24244
-0.134927 0.0395456 0.0574921
-0.0265887 0.146033 0.148952
-0.0257539 0.178723 0.45814
0.00746608 0.434109 0.126962
0.0142797 0.448609 0.15277
0.0142732 -0.295613 0.304369
-0.00628156 0.433602 0.181274
0.0613412 0.034351 0.267517
-0.0354105 0.0505234 0.138575
-0.014126 0.365595 0.0479182
0.0122594 0.269758 0.0140826
-0.0112039 -0.446982 0.140721
-0.0120817 -0.301228 0.0111688
-0.0824167 -0.179253 0.641786
-0.00333528 -0.15996 0.169694
0.00464774 0.206064 0.201674
-0.00326441 -0.125893 0.318687
-0.00808782 -0.203835 0.205245
-0.00134935 0.14436 0.401845
-0.0452554 0.0567523 0.131123
0.0127012 0.138978 0.155541
0.00952627 -0.409783 0.247522
-0.00231061 0.144981 0.159081
0.0106969 -0.220907 0.363798
0.0023749 -0.445793 0.192161
-0.0349174 0.033902 0.179014
-0.00684797 0.031556 0.168642
-0.0253517 0.299961 0.125955
0.136225 0.0448742 0.302343
0.0295582 0.201805 0.448392
0.0485925 0.276132 0.167119
0.00775613 0.373512 0.229531
0.0115529 0.0599257 0.168886
-0.0292727 -0.277949 0.195605
-0.107939 -0.172205 0.651678
-0.00219088 0.447172 0.178637
0.0107546 -0.176599 0.206219
-0.0121962 -0.264095 0.285634
-0.0131013 0.352423 0.0223599
0.000863899 0.0895389 0.452382
-0.00724852 -0.223086 0.315506
-0.0231769 0.195571 0.431739
0.143378 -0.169501 0.640084
-0.0406187 0.0816853 0.233498
0.00949661 -0.184216 0.225201
-0.0126275 -0.414702 0.0639086
0.107438 -0.164389 0.629484
-0.0136819 -0.441737 0.171
0.0120266 -0.413601 0.205443
-0.138394 0.0165818 0.0580953
0.069401 -0.180539 0.640463
0.0120887 -0.257182 0.279584
-0.0111578 -0.380586 0.272056
0.0667267 0.0469171 0.300936
-0.158246 -0.159075 0.63284
0.0142468 -0.155913 0.122373
0.0127145 0.378454 0.0505312
0.00778789 -0.208154 0.403092
-0.0263648 0.0400166 0.180044
0.00336364 -0.241784 0.367134
0.00414586 -0.150277 0.614301
-0.0001094 -0.158063 0.633872
-0.0140324 0.101207 0.248247
-0.0126165 -0.279417 0.219948
-0.0051705 0.136862 0.345627
-0.0096204 0.420888 0.0851712
0.00792943 -0.354834 0.0467392
-0.0450354 0.0814529 0.147428
-0.0362639 0.0898467 0.1826
0.0142099 0.122832 0.318202
-0.0116963 -0.14984 0.120822
-0.0100408 0.0784887 0.159488
-0.0704805 0.050263 0.0571539
0.0126624 0.349205 0.0296969
-0.0115161 0.150768 0.142551
0.0290777 -0.232847 0.310486
-0.000417272 -0.119439 0.335055
0.0112998 0.0519064 0.16134
-0.0266907 -0.255934 0.245891
-0.0111397 0.170981 0.427901
-0.0409247 0.102039 0.225619
-0.0146459 0.25507 0.0269153
-0.0405791 0.282072 0.168117
0.00886877 0.161951 0.463569
-0.000436341 0.288585 0.0270348
0.00461251 -0.269317 0.258748
0.00821074 0.387635 0.254049
-0.020066 -0.212499 0.357148
0.012982 0.412613 0.106528
-0.00217592 -0.107489 0.216967
-0.0146254 -0.178613 0.139906
-0.00822191 0.15193 0.184095
0.0977491 -0.160906 0.642433
-0.0328454 0.202332 0.268978
0.0113575 -0.186448 0.167528
-0.0556499 0.0458498 0.10685
-0.00659071 0.112591 0.330608
-0.0271494 0.159224 0.157044
-0.029676 -0.313873 0.144726
-0.00854551 0.152005 0.382102
-0.0076715 -0.225242 0.370595
0.0345313 0.261075 0.137743
-0.000281211 -0.162245 0.558586
-0.0342218 0.328596 0.144631
0.00229779 0.204279 0.21896
-0.0404344 0.231347 0.166096
-0.00405671 0.171021 0.253647
0.0378547 0.18495 0.15748
-0.0256541 -0.292151 0.130494
-0.0103309 -0.210759 0.401957
-0.0112676 0.350709 0.046355
0.00913109 0.369751 0.16411
-0.00190123 -0.231906 0.066481
0.00558754 0.0862484 0.159059
-0.0113956 0.16329 0.206594
0.0241265 0.306985 0.162102
-0.00282336 -0.170283 0.528836
0.0494857 0.291523 0.151834
-0.00661382 -0.16444 0.618975
-0.0116292 -0.205042 0.0887041
-0.016212 0.233632 0.284659
0.0459845 0.301888 0.138972
-0.00976065 -0.184734 0.330104
-0.00433081 0.438074 0.145834
0.00150312 0.127062 0.295927
-0.00494508 0.106012 0.314277
0.00881863 -0.176772 0.0894466
0.0627878 0.0302179 0.180443
0.0130113 0.444818 0.177101
0.0122383 0.287245 0.214491
-0.122727 0.0325477 0.0675891
0.0100851 0.204824 0.456599
-0.0653451 0.0345382 0.131
-0.00816498 -0.437563 0.0932998
-0.0122215 0.203416 0.458077
0.0304374 0.2756 0.149364
-0.00268726 -0.096297 0.335055
0.0123189 -0.249175 0.0423878
-0.00661391 -0.191189 0.451289
0.00651496 -0.16594 0.332819
0.00525938 0.15918 0.402313
0.0391859 0.283911 0.166052
-0.0354105 0.0897042 0.202639
0.00115572 -0.361703 0.287112
-0.0139297 0.424538 0.124992
-0.0415622 0.240407 0.129821
-0.0454982 0.000504396 0.151722
-0.00515391 -0.229373 0.0262183
0.0145458 0.312312 0.292631
-0.0332924 0.279551 0.179772
0.010118 0.151274 0.162419
-0.0126351 0.218405 0.0534098
-0.0144282 0.185007 0.220463
0.00962058 0.416717 0.0796969
-0.0428321 0.123936 0.191309
-0.00604851 0.450375 0.162508
-0.00529208 0.380666 0.263938
-0.0165656 -0.224563 0.27837
-0.00944579 0.135206 0.36197
-0.0210668 0.161175 0.454599
0.00995521 0.0894171 0.258247
-0.013344 0.15753 0.114639
0.00670617 0.183848 0.108155
-0.00936855 0.0566072 0.160045
0.00647944 -0.345035 0.290198
0.00682741 -0.061946 0.322928
-0.0112574 -0.421475 0.135816
-0.0431297 0.109001 0.198716
-0.00721892 -0.0354318 0.150968
0.0678721 0.0431775 0.211461
0.0125579 0.423642 0.134846
-0.145709 0.0504697 0.0675891
-0.0109191 0.211985 0.265488
0.00662422 -0.379524 0.0636446
-0.0660527 0.0429725 0.118259
-0.00639805 0.41879 0.219982
-0.115272 0.0607661 0.0574436
0.0120455 -0.414742 0.234537
-0.0139175 -0.337016 0.282393
-0.0814219 -0.163593 0.643019
-0.0624625 0.0321012 0.184421
-0.00255533 0.120174 0.275991
0.00221538 -0.135424 0.335055
-0.023337 -0.293779 0.180794
0.122944 0.0571412 0.296101
-0.0137255 -0.389346 0.0637212
0.0937315 -0.173226 0.647383
0.00863304 -0.200415 0.327681
0.106263 0.0448213 0.306536
0.00117612 0.296399 0.2601
-0.0114473 -0.389873 0.233623
-0.039413 0.0837901 0.158339
0.0122797 -0.360697 0.274513
0.00393793 0.10932 0.250904
0.035335 0.208803 0.149197
0.0076107 -0.18358 0.523754
-0.010085 -0.186409 0.4971
-0.0156448 0.137994 0.452523
-0.0164772 0.0452671 0.151556
0.000215067 0.106096 0.445245
-0.0140507 0.17741 0.0780719
-0.00366231 0.163577 0.219698
-0.0404266 0.214077 0.256408
-0.0113633 0.175283 0.163153
-0.00429808 -0.243513 0.29397
0.00713215 0.216523 0.234581
-0.0389681 0.163863 0.156893
0.131517 -0.17 0.634418
0.116056 0.0208806 0.306536
0.00677275 0.142916 0.369766
-0.0660528 0.0441787 0.0863659
0.00784055 -0.157832 0.204362
0.0105792 -0.409238 0.093542
0.011609 0.109017 0.272049
-0.013079 0.17432 0.12307
-0.0015363 -0.320113 0.00512688
-0.0245621 0.154114 0.430641
0.0436596 0.25364 0.192299
0.00549646 -0.216843 0.0363627
0.00229896 -0.390579 0.224957
0.0108304 -0.382533 0.268586
-0.00184797 -0.194601 0.0549451
0.0128131 0.403594 0.204292
-0.00297541 -0.149875 0.271965
0.00260563 -0.163136 0.217878
-0.0133457 0.198483 0.224426
-0.00583606 -0.371938 0.281151
-0.0533087 -0.172965 0.628959
-0.000102652 0.28857 0.000666708
-0.0150804 0.126601 0.331033
-0.00162721 -0.242476 0.315261
-0.00263457 -0.208458 0.360694
-0.0246643 -0.278477 0.152566
-0.0140424 -0.175011 0.181542
0.0837377 -0.178708 0.642301
0.00367416 0.220772 0.275346
-0.0142255 0.212575 0.0424997
-0.10981 0.0468916 0.0571539
-0.00857151 0.134455 0.319983
-0.0332924 0.311996 0.152717
-0.09403 -0.16455 0.632541
0.0110896 -0.44177 0.18017
-0.0138964 -0.328777 0.271732
-0.00444759 0.314548 0.258617
-0.000695626 -0.196467 0.303456
-0.0125129 0.262531 0.215027
-0.0512488 0.305335 0.159337
0.00444474 -0.231103 0.319384
0.00401034 -0.187755 0.463391
0.00431956 -0.0415462 0.333321
0.00733142 0.355714 0.243833
0.0136678 -0.151739 0.171492
-0.00694966 -0.159804 0.15323
0.0283571 -0.31562 0.151405
0.149502 -0.149382 0.639862
0.00282768 -0.0649669 0.157858
-0.0251004 0.161985 0.297275
0.00643191 -0.193885 0.179301
0.0100153 -0.229227 0.340462
0.0678721 0.0389115 0.28895
-0.00946104 -0.215514 0.0396336
-0.0133853 -0.31161 0.271748
0.0267714 0.155479 0.148879
0.00567441 -0.167398 0.54809
-0.00384241 -0.312589 0.0407785
0.0143654 -0.254185 0.291275
-0.0140146 0.377861 0.0451541
0.00245776 -0.228617 0.275983
0.00807656 -0.212094 0.0828552
0.0127544 -0.273732 0.0305479
0.105299 0.03855 0.296101
0.00745168 -0.236867 0.330085
-0.0384241 0.308826 0.133288
0.0125891 -0.419308 0.217297
0.00490311 -0.443199 0.104652
0.00273445 -0.172651 0.589734
-0.0125769 0.364544 0.279393
-0.00632596 0.175177 0.060526
-0.0309952 -0.299415 0.150688
-0.0112204 0.183119 0.466132
0.0283993 0.191737 0.153874
0.00196246 0.0993268 0.299698
-0.0193436 0.298207 0.101755
0.00805424 -0.275731 0.291708
-0.0444453 -0.0066258 0.205074
0.00803044 -0.322956 0.30826
-0.014109 -0.190816 0.104138
-0.0553227 0.0381997 0.180682
0.00899203 0.122792 0.443898
0.00453531 0.150649 0.228787
-0.0413878 0.181893 0.191653
-0.0127953 -0.417457 0.194687
0.00267379 -0.38208 0.234168
-0.0138431 0.227369 0.267133
-0.0326118 0.228501 0.189362
0.0087348 0.0342662 0.322506
-0.00778092 0.291997 0.151126
-0.0137903 0.256309 0.279462
-0.0374769 -0.295427 0.163149
-0.013663 -0.216594 0.233944
-0.0375061 0.0566142 0.218587
-0.0109766 0.0921529 0.452523
-0.004475 0.368542 0.0651515
-0.0486826 0.289067 0.149717
-0.0164083 -0.173318 0.220537
0.00961542 -0.223035 0.266768
0.00152417 -0.122486 0.210611
-0.00397095 -0.267875 0.293569
0.0140724 -0.343846 0.302232
0.155576 0.0525456 0.301681
0.00365916 0.381257 0.078644
0.046817 0.287077 0.141862
0.00991629 0.13193 0.344519
0.0125737 0.238839 0.026554
-0.00602963 0.357062 0.240777
-0.0117089 -0.407194 0.054137
-0.0137903 -0.273216 0.0339152
0.00556106 0.430321 0.192536
0.00692998 -0.293394 0.295335
-0.0145444 -0.410491 0.224829
-0.0660527 0.0403446 0.142768
-0.0425168 -0.019399 0.169691
-0.0137015 0.375883 0.235382
0.00484915 -0.250777 0.0520089
0.00713663 -0.194877 0.449812
-0.00527937 -0.391525 0.20834
-0.0332924 0.286506 0.112913
-0.0821255 0.0431254 0.0675891
-0.0329617 -0.210848 0.144513
-0.0201464 -0.330871 0.11546
0.00193558 0.0449295 0.194636
0.00758126 0.310488 0.0339403
-0.0136173 0.406812 0.224262
0.0120463 0.410024 0.120786
-0.0139945 -0.309505 0.30716
-0.164865 -0.156229 0.651627
0.00604944 0.169263 0.0700106
-0.113287 0.0430827 0.0675891
0.00231809 -0.221345 0.226665
-0.0137921 -0.290599 0.0158937
-0.0140548 -0.248581 0.272367
0.0113257 -0.422067 0.122552
-0.0144322 0.340999 0.0280234
-0.00764686 -0.0737165 0.331602
0.0168804 0.129795 0.322429
-0.00386236 -0.202344 0.470663
-0.00536675 -0.0418058 0.31986
0.00397559 0.135426 0.318929
0.0144489 0.230981 0.143443
0.0102601 0.301509 0.00731622
-0.0105517 0.201266 0.0749206
-0.00562012 -0.191979 0.15793
-0.0351871 0.188616 0.201734
-0.0458085 0.0104922 0.142914
0.0553516 -0.16554 0.642757
-0.00912513 0.0672445 0.211232
-0.0426101 0.127557 0.202392
0.00164334 0.140435 0.388034
0.00666631 0.35933 0.275211
-0.0445184 0.266341 0.134012
0.00573837 -0.164023 0.268871
-0.039413 0.0248522 0.176699
-0.0420819 0.141286 0.116325
0.0910706 0.0242357 0.306536
-0.0124401 0.236375 0.0423501
0.0174571 0.157755 0.427581
-0.0108684 0.427877 0.190288
0.0225792 0.037409 0.180156
0.0129602 -0.365836 0.263639
-0.00835558 -0.215027 0.365151
-0.0137221 -0.43799 0.115224
-0.009535 -0.215622 0.0786865
0.00603314 0.0166108 0.15086
0.0129267 0.281222 0.275247
-0.0288044 0.16661 0.445221
0.0112602 -0.169986 0.119291
0.0283571 -0.298167 0.152474
0.0125461 0.327092 0.020291
0.00618161 0.325567 0.295875
0.0429699 0.227638 0.22771
0.0201694 0.157975 0.299413
-0.00480608 -0.22381 0.382355
-0.00638268 -0.403753 0.0951161
-0.0143225 0.0712756 0.32744
-0.00780703 -0.364886 0.24921
-0.0121365 0.317607 0.286194
-0.0130695 0.148228 0.430823
0.00215183 0.360217 0.0606051
0.057142 0.0415683 0.257068
0.00325629 -0.159532 0.625688
0.00738008 -0.0891421 0.325012
-0.0114609 -0.169744 0.111665
0.00644191 0.160846 0.42653
-0.0139024 0.0767096 0.182365
0.00455247 -0.193581 0.502084
0.0105493 -0.419404 0.183865
0.0355398 0.172857 0.157673
0.012168 0.338635 0.275698
-0.00166852 0.0548689 0.180812
0.012745 -0.183338 0.179418
-0.0448076 0.209281 0.159532
-0.0332924 0.263428 0.16342
-0.0100497 0.0843739 0.252635
0.00897132 0.416574 0.217479
0.00766174 -0.319684 0.266047
-0.00809956 0.188255 0.0465017
-0.0161808 0.432055 0.200197
-0.0140969 0.339814 0.262073
-0.0413894 0.295066 0.156121
-0.0105372 0.0899147 0.151351
-0.00758341 -0.0874193 0.172998
-0.0165666 -0.19052 0.249454
-0.00586771 -0.211254 0.275022
-0.0159874 0.282022 0.29784
0.00692726 -0.210663 0.420933
-0.00571428 -0.204603 0.458348
-0.0868031 0.05889 0.0571539
-0.0146389 0.124125 0.317575
0.0436463 -0.180884 0.641733
0.0143085 -0.165199 0.210095
-0.00955527 -0.404589 0.255379
0.0140258 -0.181596 0.6401
-0.00144566 -0.181723 0.634744
0.00387968 -0.0171419 0.333761
0.0176193 0.0491841 0.192518
0.0145532 0.233896 0.285583
0.1175 -0.165599 0.649699
0.00864499 0.090516 0.212054
-0.0437414 0.0980161 0.189507
0.0128572 0.398638 0.0760148
0.00606413 -0.078413 0.178379
0.00985872 -0.33178 0.290466
0.00761741 -0.145926 0.633047
0.0699322 -0.172084 0.647944
-0.0342218 0.31733 0.143768
0.00496748 -0.0709693 0.332673
-0.0105928 -0.193205 0.640503
-0.0553227 0.0451857 0.120949
0.0129859 -0.235007 0.0445818
0.0141659 -0.165957 0.633328
-0.00789856 -0.151643 0.185485
0.0102543 0.203203 0.257294
-0.0368417 -0.291594 0.150012
0.0042473 -0.177071 0.569278
-0.0353438 0.282308 0.157996
-0.0125783 0.427256 0.113411
-0.0110639 -0.287565 0.266922
-0.0143971 -0.385503 0.247225
0.0304374 0.273292 0.135484
-0.00786143 0.247902 0.285472
-0.00898837 -0.0308793 0.327075
0.0129232 -0.176931 0.156686
-0.0556763 0.0358321 0.0972847
0.106743 -0.155078 0.64564
-0.0354105 0.0741242 0.134765
0.0113515 0.172029 0.141848
0.0126301 0.219675 0.257278
-0.0140974 0.415045 0.158895
-0.0180782 0.133061 0.149062
-0.00569128 0.308785 0.292706
0.058451 0.0417787 0.186867
0.0373268 -0.301743 0.155739
-0.126843 0.0578898 0.0571539
0.00784822 0.245209 0.0120919
-0.0337633 0.29781 0.182313
-0.00945143 -0.134466 0.238164
0.121943 0.0373238 0.304881
-0.0403393 0.0844603 0.131293
-0.0354105 0.044341 0.182907
0.114887 0.0484199 0.296101
0.00698847 0.424701 0.224949
-0.0140796 0.333155 0.274167
0.0101711 -0.374236 0.247441
-0.0101156 0.386359 0.25489
-0.00902419 -0.205054 0.411792
-0.0133441 -0.226409 0.242866
0.0110295 0.106547 0.298644
0.0718751 0.0250743 0.302803
-0.0413668 0.108512 0.118431
-0.00977707 0.110669 0.46007
0.00837753 0.102574 0.16052
-0.0353438 0.303584 0.16897
-0.0140754 0.418837 0.106459
-0.039164 0.0038241 0.125532
-0.0123787 0.0517258 0.328272
-0.012382 -0.302693 0.291526
-0.0312096 -0.235851 0.312632
-0.0102806 -0.170443 0.566289
-0.012061 0.141761 0.211846
0.00326531 -0.198447 0.251127
0.00604761 -0.207295 0.210042
-0.00894479 0.0861567 0.463173
-0.010991 0.108896 0.258134
-0.0306454 0.28132 0.150212
-0.00998727 -0.250333 0.0189393
-0.0802836 0.0281123 0.0675891
-0.0195613 0.149639 0.450488
-0.0354105 0.0272515 0.187398
-0.0404869 0.119376 0.169851
-0.00771282 -0.336881 0.307056
-0.0156119 -0.344885 0.103575
0.0126235 0.0899121 0.23001
-0.0354105 0.0583576 0.232588
0.0650402 0.0466894 0.174123
0.00211709 0.439257 0.200451
-0.0142627 -0.429139 0.108438
0.00765709 0.137631 0.205125
-0.00630022 -0.17247 0.299343
0.0124856 0.0181945 0.32643
-0.00361172 0.145185 0.220253
0.022238 -0.240932 0.313038
-0.0137094 -0.361595 0.0432688
0.0596214 0.0331056 0.217193
-0.00740688 -0.0903736 0.189964
-0.0120998 0.0256499 0.183614
-0.0392816 0.235862 0.225149
-0.0342219 0.258355 0.135955
0.0119333 0.171929 0.163969
0.00237131 0.204812 0.445125
-0.0151019 0.42885 0.213813
-0.00142195 -0.31477 0.0304231
0.0127644 -0.29303 0.0222361
0.0090752 0.128678 0.453012
0.00488804 -0.213951 0.277223
-0.0591432 0.0331473 0.0625753
0.0126492 -0.224633 0.246556
-0.00260518 0.427361 0.203892
-0.0146565 0.165078 0.146149
-0.0660527 0.0466897 0.178869
0.0122827 0.397705 0.231251
0.046947 0.231589 0.153825
-0.0721114 0.0264136 0.0571539
-0.141493 0.0535911 0.0571539
-0.0141663 -0.188935 0.214687
0.039517 0.284913 0.125203
0.00897601 -0.34074 0.262163
-0.0130414 -0.360589 0.278979
0.00496587 -0.04667 0.152915
-0.0141228 0.178036 0.0994964
-0.0332924 0.265254 0.125346
0.057142 0.0369169 0.277113
0.115691 0.0356731 0.296101
0.0103503 -0.399022 0.046555
0.00395931 0.0345597 0.162297
-0.0798877 0.0534367 0.0675891
-0.00215491 0.157803 0.207341
-0.0207799 0.0984308 0.155633
0.0304374 0.30742 0.150849
-0.0064882 -0.150424 0.249411
-0.0092888 -0.204968 0.332446
0.00402066 -0.316678 0.29691
-0.0135925 0.400555 0.251465
0.0123096 0.304138 0.281697
-0.0305251 0.186194 0.275982
0.018196 0.153881 0.308135
0.000111264 -0.23341 0.238078
0.00528057 -0.450385 0.139125
-0.0416064 0.119491 0.116943
0.0392573 0.270201 0.146477
0.00379615 -0.0978011 0.202087
0.0122567 -0.427351 0.158396
-0.0139065 0.390994 0.0759693
0.007857 0.261498 0.288436
-0.000512743 0.271704 0.293258
0.00931258 0.178737 0.177452
-0.0073593 -0.416512 0.125472
-0.0325594 -0.0120238 0.215673
-0.0535607 0.29034 0.140455
0.0119556 -0.318784 0.288821
-0.00670895 0.289663 0.293853
0.00903247 0.134892 0.329199
-0.0914552 0.021809 0.0675891
-0.00898837 -0.0943863 0.326191
-0.144435 0.0325486 0.0571539
0.00218071 0.128441 0.181087
0.00306225 -0.109362 0.319163
0.057142 0.0427819 0.233381
-0.00763591 0.110583 0.158686
0.0123241 -0.299017 0.286282
0.0107877 0.339159 0.038149
-0.00405932 0.209428 0.0262021
0.0127698 0.0707063 0.177655
0.0251787 -0.30065 0.170657
-0.0354105 -0.00507572 0.164026
-0.00728209 0.403479 0.125367
0.00869878 0.255504 0.25788
-0.00227494 -0.206804 0.381065
0.00653839 -0.172565 0.53327
0.00279405 -0.226649 0.371585
-0.0384241 0.267534 0.143269
0.0202314 0.104682 0.321276
0.0476933 0.243116 0.150848
0.00736984 0.0700934 0.153775
-0.0269616 -0.246257 0.280852
-0.00898331 -0.333518 0.262924
-0.0129638 0.213976 0.0320919
-0.0327689 0.188313 0.152189
0.142399 0.017505 0.3002
0.00554013 0.22526 0.289382
