-0.00189786 0.154481 0.319881
0.00971639 -0.171276 0.481887
-0.00625445 -0.059419 0.475892
-0.0217599 -0.290215 0.179403
0.0139559 -0.165314 0.34521
-0.00621656 -0.152595 0.526857
0.00317381 0.381023 0.326073
-0.0039828 -0.438779 0.274108
-0.0281976 0.235673 0.231734
-0.015227 0.290258 0.194569
-0.0290027 0.117462 0.206838
-0.00263776 -0.251921 0.00618341
0.0129603 0.205504 0.372697
-0.0566975 -0.173824 0.586683
0.00378525 0.08575 0.237609
0.00418358 0.126102 0.250776
0.0135379 0.235851 0.382351
-0.00615598 -0.113109 0.18947
0.0533892 0.0267871 0.131119
0.00176184 -0.152854 0.448493
0.00665608 0.235138 0.346365
0.0043397 0.142843 0.374212
-0.0287942 0.223079 0.188736
-0.00911424 0.0511761 0.227238
0.00154047 -0.142428 0.228699
-0.0336135 0.290926 0.192026
-0.025119 0.0316002 0.24329
-0.0251191 0.110311 0.211299
-0.0370906 -0.223748 0.341099
-0.00361097 -0.443506 0.248998
-0.00519858 -0.359231 0.339577
0.00440736 0.119203 0.32247
-0.0276279 0.0849548 0.172783
-0.0325123 -0.19753 0.401734
0.00768006 0.149516 0.382853
-0.00877999 -0.416575 0.325648
-0.0330934 0.0714011 0.151948
0.00772996 -0.13759 0.583897
-0.00558168 -0.394043 0.0614759
-0.0803612 -0.205909 0.565811
0.0760754 0.0149878 0.138385
0.00461062 0.386041 0.349824
0.00945114 0.33348 0.120086
-0.0077413 -0.294299 0.0116282
0.0140804 -0.230891 0.380065
-0.0157799 0.344 0.193712
-0.0315395 0.10453 0.250888
-0.00566674 0.13318 0.133489
-0.00114766 0.0141013 0.47791
-0.0879836 -0.23359 0.488941
-0.0764545 0.105837 0.291022
0.0217552 -0.2085 0.378908
-0.00361138 -0.335417 0.0203226
-0.00170114 -0.117112 0.234921
0.00738401 0.456934 0.249561
-0.00430827 -0.259627 0.0280262
0.00192049 0.130205 0.377959
-0.00543866 -0.315077 0.366058
0.0173066 -0.282373 0.199703
0.00737734 0.130366 0.243427
0.00527051 -0.29968 0.0115408
0.0394509 0.0526091 0.174114
-0.0325918 0.254735 0.106801
0.00611039 -0.329474 0.368502
0.00343352 0.444083 0.276965
-0.0270188 0.0288461 0.256829
-0.0248324 0.0521843 0.214069
-0.0193374 0.0609349 0.22254
-0.029308 -0.292775 0.193479
0.00607092 -0.280512 0.35844
0.000634957 0.41268 0.33251
-0.00691066 0.139736 0.285018
0.00365649 0.360737 0.0291443
0.016901 0.276165 0.216114
-0.0243616 0.107189 0.181097
-0.00707384 -0.067208 0.386579
-0.0150083 -0.264104 0.254215
-0.0303358 0.0830894 0.15422
-0.00504855 -0.302931 0.361136
-0.0771364 0.0922097 0.305998
0.00263612 -0.210751 0.346564
0.0214947 -0.297346 0.189857
-0.0318665 0.0985393 0.138972
0.0861263 -0.159043 0.488952
0.00578201 -0.204918 0.0284587
-0.0083842 0.181661 0.3366
-0.00455517 -0.130802 0.321831
0.00703519 0.342494 0.278892
0.00679861 0.410345 0.305317
0.0187852 0.0565582 0.216034
-0.00412905 -0.122559 0.485742
-0.00734728 0.0643209 0.22562
-0.0412952 0.286883 0.148558
0.00742138 0.187435 0.367268
-0.00855532 -0.457693 0.196932
0.00305669 0.17226 0.312605
-0.0285003 0.0161632 0.24562
-0.0187794 0.179448 0.192459
0.00738312 0.466384 0.201039
0.00478422 -0.469191 0.240532
-0.00614088 0.316076 0.00371956
-0.0106385 0.0826614 0.206225
-0.00296736 0.0461324 0.220953
-0.00659454 0.124483 0.303742
-0.00641552 0.466696 0.250316
-0.0291163 0.0205344 0.164677
0.00830498 0.230482 0.539671
-0.013253 -0.284566 0.118655
0.00501601 -0.38672 0.0395723
0.00841742 0.118081 0.314949
-0.025119 0.0365111 0.232107
-0.00392054 -0.401399 0.0396592
0.00738075 0.375765 0.0370649
0.00404654 0.369423 0.34468
0.00585322 0.107226 0.221841
-0.0358979 0.296392 0.127023
0.0153307 0.158132 0.389788
-0.000521881 0.126649 0.19557
-0.0290027 0.0769969 0.187037
-0.00148457 -0.0644526 0.491823
-0.0100431 0.328045 0.282483
-0.0243745 -0.232693 0.321709
-0.00767445 0.470101 0.20373
-0.00463601 0.210742 0.345444
-0.00915003 -0.445616 0.12415
-0.00813874 0.37606 0.0353697
0.00531346 -0.152894 0.504845
-0.0002971 0.212116 0.0315258
-0.0274595 0.115419 0.233847
-0.00278837 0.154111 0.342562
0.0187852 0.0516145 0.210124
-0.0177138 0.155186 0.394393
-0.00256198 -0.431297 0.286176
0.0512896 0.0435761 0.125168
-0.0228789 0.2107 0.307625
-0.00442769 0.291016 0.0226315
-0.00796372 -0.155014 0.319229
-0.0112599 0.0530409 0.197362
0.00712703 -0.202077 0.140143
0.00637335 -0.255733 0.012234
-0.0056015 -0.154581 0.507603
0.0141285 -0.229028 0.379319
0.00700212 0.128028 0.102535
-0.00467416 0.38304 0.338778
-0.0015281 -0.436283 0.0913392
-0.0177151 -0.319987 0.157508
-0.0233585 0.0549182 0.179859
0.0853434 -0.127669 0.500331
-0.0290027 0.042219 0.261312
-0.000466277 0.433995 0.290035
-0.0290027 0.0528163 0.219579
-0.0110137 -0.157104 0.522702
0.00345494 0.475996 0.164289
0.00421539 0.407094 0.269016
0.00265362 0.172427 0.436738
-0.00774823 0.341683 0.3618
-0.00840657 -0.159907 0.583579
-0.0111615 0.0858843 0.204779
-0.00488908 0.454802 0.0993107
0.00466537 -0.130164 0.0967957
0.00552395 -0.168274 0.448346
0.00170436 -0.348027 0.012765
0.00893302 0.124073 0.340222
0.033598 -0.243646 0.31354
-0.00926073 -0.423584 0.297538
0.00309457 -0.151221 0.343683
-0.0082479 0.22939 0.359875
0.0073765 0.133484 0.126827
-0.0289986 0.16847 0.125043
-0.0223803 0.298806 0.205781
-0.00237305 -0.436571 0.277811
0.0051099 0.147231 0.386115
0.00737766 0.40029 0.318104
-0.0100899 -0.0224079 0.321375
-0.00566084 0.10492 0.162857
-0.0240104 -0.287452 0.18879
0.00818339 0.0306544 0.260923
-0.000779784 -0.32807 0.0192025
-0.0115098 0.215908 0.506725
-0.00971634 0.0665967 0.205978
-0.0182358 0.169398 0.193483
0.00611946 -0.449426 0.12451
-0.00219518 0.276961 0.364337
-0.000951432 0.134206 0.456637
-0.0289794 0.240896 0.235381
0.0337388 0.280548 0.189697
0.00158895 -0.134312 0.160615
-0.00332723 0.454661 0.202795
0.000723512 -0.0954951 0.258765
0.0254855 -0.290548 0.186866
-0.00966601 -0.108919 0.190874
-0.000308649 -0.140635 0.513408
-0.0183019 0.0548081 0.219278
0.00474547 0.13607 0.128527
-0.00603779 -0.158736 0.139906
-0.0196955 -0.19671 0.414619
0.00424539 0.291077 0.353554
0.0261918 0.198847 0.19776
0.0159048 0.126619 0.210768
0.00613136 -0.15938 0.075743
0.00837359 -0.167868 0.581131
0.00213151 0.223752 0.0132212
-0.00297303 0.113466 0.188868
-0.0233585 0.0183471 0.224529
-0.00926283 -0.470756 0.181415
0.0126786 -0.17545 0.455874
-0.0233585 0.0861785 0.169742
-0.00988714 -0.118606 0.251317
-0.00162716 0.113406 0.331981
-0.0170635 -0.193468 0.428963
0.00308641 0.128278 0.157428
-0.00051184 -0.420608 0.326592
-0.00812769 0.225249 0.0172251
-0.00676259 -0.157386 0.139743
-0.00372919 0.223646 0.0301187
0.00646634 0.164863 0.446537
0.00508408 -0.469173 0.205084
0.00779471 -0.0460198 0.351132
0.0051099 0.12981 0.354673
-0.0722534 0.107105 0.278405
0.0291699 0.286808 0.196075
-0.00793056 0.120778 0.127111
0.00738371 0.362006 0.350516
-0.0312161 0.0782327 0.222465
-0.0817658 -0.219485 0.540841
-0.00556304 -0.461876 0.218151
0.0102527 0.187276 0.545464
-0.00760413 0.19899 0.543769
-0.0454527 0.25506 0.1399
0.00478532 0.460251 0.138395
-0.0841697 -0.135014 0.501927
0.0319673 0.0556337 0.204904
-0.0342463 -0.269368 0.238545
-0.0027435 -0.461768 0.222798
-0.0293923 -0.28074 0.196634
0.00737759 0.368824 0.338668
-0.020646 0.289927 0.201715
-0.0069304 -0.223366 0.0242131
-0.0232741 0.171082 0.364311
0.0290279 -0.274809 0.207869
-0.0251191 0.0215301 0.180938
-0.0307012 0.265635 0.122194
0.000830965 0.205227 0.496105
-0.0163907 0.248236 0.53637
0.00576371 -0.128219 0.104698
-0.0241379 -0.222372 0.348353
-0.0298803 -0.218541 0.330452
-0.00129655 0.139249 0.124898
-0.00811116 0.0665455 0.464022
0.00743683 0.464168 0.240848
-0.0242895 -0.288309 0.18803
0.0210223 0.202409 0.515747
0.0287636 0.276595 0.180967
-0.00384495 0.109335 0.444669
-0.00668783 0.216224 0.498145
0.0164421 0.134049 0.209857
-0.0367546 -0.204772 0.378119
0.00378363 0.0500542 0.202721
-0.0241783 0.252602 0.231076
0.00906977 0.365622 0.238937
0.0823332 0.0113205 0.136188
-0.024461 -0.186692 0.432403
0.0715099 0.033187 0.128057
-0.00209717 -0.156224 0.504274
-0.00601951 -0.465357 0.169249
-0.00539913 -0.230374 0.0555318
0.00245946 -0.158158 0.289556
-0.0345518 0.274072 0.139394
-0.0357172 0.24857 0.129373
0.00738342 0.114162 0.201517
-0.031778 0.300291 0.11578
-0.00955363 -0.395391 0.332003
-0.0101143 -0.123678 0.43535
-0.00631813 0.143392 0.0890025
0.0175788 0.197376 0.315008
0.0249413 -0.243531 0.312176
-0.0270188 0.0136555 0.18934
0.0119421 0.323076 0.133155
-0.0186182 -0.287228 0.149318
-0.00389134 -0.456365 0.228986
-0.0342155 0.190751 0.12137
-0.0131382 0.137796 0.316084
-0.0113898 -0.149673 0.516166
0.00617357 -0.169722 0.0600794
-0.0219244 0.276582 0.213668
0.00686738 0.109591 0.189262
0.0075233 0.127679 0.270541
-0.0254683 0.259348 0.183231
0.0617878 0.38463 0.165924
-3.70655e-06 0.326831 0.0281845
0.0888002 -0.138261 0.488403
0.00609927 -0.119872 0.206024
0.00991554 0.211464 0.50486
-0.00141177 0.306038 0.0136717
-0.025119 0.0765074 0.194232
0.00629003 -0.274574 0.0090533
-0.018738 -0.165145 0.600173
-0.0264064 0.292602 0.204777
-0.000853472 0.119807 0.231668
-0.00200612 0.126585 0.175954
0.0896117 -0.216424 0.561427
0.00337663 -0.183301 0.317213
0.00738302 0.355689 0.351973
0.00608434 -0.419266 0.318384
0.00187304 -0.318679 0.0457471
-0.0144071 0.328002 0.235093
-0.00256386 -0.126519 0.176392
0.0318335 0.0553244 0.204051
-0.0100662 0.204132 0.498297
0.00588601 -0.448707 0.278046
-0.00160365 -0.154037 0.478885
-0.00937946 -0.152673 0.0841244
0.00414087 -0.148058 0.299033
-0.0176433 0.165237 0.194285
-0.00818638 -0.142714 0.468347
-0.00474807 0.411611 0.0589378
-0.000807036 -0.28741 0.188828
-0.00542043 -0.138985 0.104806
-0.0290027 0.0856163 0.208331
-0.00726108 0.244935 0.292747
0.00518221 -0.148348 0.524097
-0.0910672 -0.156349 0.501923
-0.00123692 0.202478 0.0377255
-0.00658805 -0.200111 0.344572
0.00361112 -0.12268 0.251701
-0.00317702 -0.405488 0.324233
0.0047493 -0.200045 0.036081
0.00268046 -0.399228 0.0527019
0.00148574 0.135856 0.243418
-0.0528537 0.0873427 0.301378
0.0644521 0.394036 0.168189
-0.0085886 0.432494 0.0736494
0.00253443 -0.463594 0.261809
0.00719519 0.223011 0.0232277
-0.00199449 0.461949 0.19073
-0.00956187 -0.450137 0.265523
-0.0211966 0.173193 0.366247
-0.0282551 0.0341778 0.1966
0.0164347 -0.295509 0.206628
0.00893302 0.158308 0.419539
-0.00701444 0.43341 0.0999328
0.00553067 0.321163 0.00510801
0.0816758 -0.237316 0.543001
0.00784119 0.0242323 0.264528
0.0341512 -0.233088 0.306512
-0.0242895 -0.291874 0.181346
-0.00757708 0.170452 0.445668
0.00629248 0.208801 0.507631
0.00276157 0.0662801 0.236615
0.00624048 0.106952 0.16074
0.000592768 -0.139772 0.5204
-0.0064502 -0.407909 0.0737756
-0.00875834 -0.357939 0.0360495
-0.00809922 0.157874 0.0746609
-0.000197748 0.192036 0.0569155
-0.0290027 0.100589 0.213099
0.00317694 -0.385499 0.32539
0.00737819 0.220177 0.343532
-0.00823963 -0.225392 0.0165821
-0.00756311 -0.130962 0.269565
-0.0197964 0.0567653 0.21544
0.00478226 0.0513923 0.254565
-0.00586637 0.124135 0.195405
0.000797443 0.138014 0.54105
-0.00325331 -0.131973 0.235221
0.00432242 0.466689 0.198549
-0.00554149 -0.0912252 0.416741
0.00206692 -0.0642034 0.491779
-0.00778754 -0.290814 0.0231001
0.0912559 -0.20159 0.499573
-0.0043148 -0.167405 0.0837079
-0.0069666 0.140127 0.0923454
-0.00537775 0.187423 0.318403
0.018021 0.141643 0.194801
-0.000949658 -0.433524 0.0974064
0.00645661 -0.180566 0.43496
-0.0122001 -0.1729 0.437672
0.00633174 -0.0322746 0.344222
-0.00207497 -0.396033 0.0658742
0.00603803 -0.242591 0.351602
-0.00960303 0.0625788 0.230212
0.00261644 0.428442 0.162234
0.0287101 -0.256462 0.290989
0.0287636 0.302778 0.186657
0.00121512 0.0895123 0.252922
0.00616592 -0.121551 0.243271
-0.00574534 -0.239693 0.022256
-0.00250402 -0.242726 0.347212
0.00381378 0.120358 0.268277
-0.00222379 0.255938 0.356039
-0.0233919 0.109319 0.204584
0.0237573 -0.181907 0.429008
0.000202555 0.359066 0.35125
-0.00808202 0.353479 0.0259737
-0.0010502 -0.441921 0.129689
0.00475392 0.138764 0.255242
-0.00303433 -0.104146 0.432756
0.00796262 -0.149754 0.503968
0.0138423 0.170383 0.547059
0.0156584 0.0580839 0.195461
-0.00895274 -0.192549 0.0344373
-0.0369497 0.293399 0.125878
0.00514816 -0.200296 0.346563
-0.0246037 0.162114 0.202559
0.0240874 0.230238 0.197287
0.00661427 0.451679 0.233363
0.00737781 0.12124 0.20795
0.0271484 0.284943 0.187283
0.00206032 0.0984378 0.297467
0.00602351 0.457088 0.123472
0.00536557 -0.170661 0.0570292
-0.00908432 -0.0135922 0.320722
-0.00635835 0.234425 0.367264
-0.0307867 -0.257597 0.287883
0.00748217 0.429692 0.0704228
-0.0114918 -0.388657 0.183928
0.00568193 0.18936 0.44452
-0.00572831 -0.180932 0.327342
-0.00817898 0.136746 0.444533
-0.00158048 0.00127621 0.463808
-0.0354424 0.283095 0.103075
0.0139612 -0.267484 0.150455
0.00265976 0.453741 0.240955
-0.0929161 -0.194755 0.57282
-0.0270188 0.0601802 0.208709
0.000284608 -0.119156 0.198345
0.00117024 -0.425146 0.32154
0.0269458 0.0748346 0.209272
-0.0132507 -0.144227 0.516241
0.0318733 0.0716443 0.216113
-0.0328097 0.0700912 0.20128
0.0603529 0.038915 0.115971
0.0744552 -0.182933 0.585019
-0.0044414 0.118255 0.217488
-0.00878205 -0.474809 0.19206
-0.000603069 0.196478 0.509861
-0.0152921 0.0563308 0.218032
-0.00352722 0.29121 0.0123287
-0.0732579 0.102057 0.293008
-0.00935519 -0.455798 0.254935
0.00592253 -0.115353 0.23824
-0.0221301 0.237764 0.254571
0.00444648 -0.141386 0.0794214
-0.0259369 0.175139 0.245648
-0.00892694 -0.127897 0.113135
0.0256974 -0.265894 0.268841
-0.00738442 0.111763 0.237532
0.0861627 -0.233305 0.543094
0.0057482 -0.128874 0.272608
-0.0237238 0.0470631 0.249841
-0.0138382 0.172829 0.351104
-0.0183419 0.197458 0.326964
0.0156584 0.0537363 0.214934
-0.00653852 0.243717 0.503174
0.00174912 -0.041019 0.320996
-0.00751858 0.467514 0.218202
-0.020213 0.207402 0.196751
-0.00398368 0.138592 0.267443
-0.0325513 0.292906 0.132427
-0.000607435 0.459603 0.156469
0.00816702 -0.147105 0.511514
0.00610177 -0.460493 0.20572
-0.0133077 0.150644 0.397784
0.00449856 0.477348 0.179335
-0.015227 0.285211 0.194925
-0.0260257 0.0650819 0.221932
0.0317281 -0.15842 0.593599
-0.0290027 0.0842808 0.251233
-0.00404842 0.435515 0.280374
0.00769738 -0.14998 0.516846
-0.0249623 -0.295714 0.198109
0.00670949 0.398138 0.216271
0.00240616 0.314345 0.0184706
-0.000854588 -0.144342 0.478677
0.0398169 0.0510687 0.163089
0.00480639 0.137995 0.380387
-0.00927862 -0.120087 0.214784
-0.00544085 0.106113 0.294114
-0.0233585 0.033545 0.241981
-0.0847586 -0.203317 0.55773
0.00346252 0.471511 0.140989
0.00568302 -0.177476 0.473569
-0.00431862 0.145847 0.268347
0.00611329 -0.430724 0.289037
-0.00979453 -0.263953 0.0101748
-0.00611699 0.397511 0.331396
0.0246326 0.255627 0.515728
0.00737879 0.216316 0.342741
-0.00789589 -0.195516 0.0519794
-0.00451069 0.199921 0.0378034
0.00630553 -0.12647 0.449863
0.00893302 0.120318 0.325144
-0.00411803 -0.283717 0.00302645
-0.00971634 0.165052 0.431804
-0.0922692 -0.154429 0.490222
0.0550799 0.0303667 0.126936
0.0129566 0.272687 0.253527
0.008709 0.141316 0.39963
-0.0378436 0.286097 0.152986
-0.0281394 0.0543264 0.203747
-0.0193004 -0.293765 0.222009
-0.025613 -0.216247 0.342636
0.00174774 -0.123261 0.23433
-0.00122343 -0.159 0.279561
-0.0217304 0.186098 0.346078
-0.00127311 -0.411634 0.310001
0.00263894 -0.222011 0.352096
0.00724458 -0.23345 0.103744
0.0253777 -0.284495 0.191019
0.0491216 0.0291782 0.129225
0.00254291 -0.447115 0.240896
5.00017e-05 -0.454349 0.143707
-0.0109721 -0.297481 0.288186
-0.0299774 0.150948 0.250536
-0.0297343 0.222616 0.538871
0.0128018 0.235384 0.15461
0.0140116 0.170039 0.365679
0.0111955 0.115367 0.282112
-0.0155891 0.251241 0.220655
-0.00260049 -0.344383 0.0105328
0.00531972 0.253253 0.363061
-0.000118972 -0.476544 0.166862
-0.0127424 -0.185432 0.426452
-0.000170744 -0.464738 0.168308
-0.00612415 -0.122649 0.416567
-0.00579911 0.118817 0.136985
-0.0371841 0.258781 0.144308
-0.032552 0.251611 0.134511
0.00397163 0.420615 0.323469
-0.00167455 -0.134754 0.162064
0.00602847 0.123977 0.199216
-0.0321253 0.284545 0.157932
0.00375393 0.433288 0.0846431
-0.00912322 -0.254137 0.371572
-0.00289798 0.109658 0.332635
0.0114468 -0.290001 0.19485
-0.0270848 -0.169752 0.595025
0.0261031 0.26068 0.189843
0.00422872 0.138217 0.099876
-0.00589857 0.417253 0.2455
-0.0223158 -0.182228 0.437105
0.00454921 0.388557 0.0401713
-0.0325402 0.267114 0.135063
0.0489926 0.0371828 0.120417
-0.0278115 0.232267 0.232465
-0.0332455 0.0177895 0.2475
0.0802298 -0.200618 0.502167
-0.00589322 0.180894 0.459999
0.00562392 0.391302 0.129914
-0.0307012 0.25224 0.140175
-0.00596184 0.198079 0.34131
-0.00629981 -0.320246 0.375838
-0.000539954 0.143086 0.398575
-0.0290027 0.111134 0.222825
0.0129499 0.14655 0.327993
-0.00166171 -0.319285 0.035291
0.00710845 0.214449 0.497613
-0.00652599 -0.342255 0.0111213
-0.0256648 0.203551 0.314823
-0.0320607 0.261432 0.219782
-0.00368943 0.431792 0.0831051
-0.00952059 -0.27863 0.36593
-0.0252546 -0.207822 0.36251
0.00737761 0.420696 0.297071
0.00291688 -0.453138 0.216665
-0.00802851 -0.219288 0.038395
-0.00443983 0.28752 0.186675
0.00526538 -0.191609 0.0547958
-0.0270188 0.0883995 0.210628
-0.012747 -0.10026 0.257395
0.00738072 0.463219 0.168502
-0.0076756 0.217945 0.358609
0.0061188 -0.382292 0.0441532
0.0839802 -0.161046 0.503062
0.00547529 -0.26761 0.308155
-0.0054889 -0.191514 0.0466899
-2.58895e-05 0.209818 0.0498118
-0.0864343 -0.230437 0.538658
-0.00935625 -0.361223 0.347917
-0.0278709 0.287647 0.203616
-0.0326687 0.283318 0.191113
0.00510402 0.453299 0.280665
-0.00776559 0.285437 0.369336
0.00508862 -0.347766 0.091565
-0.00717384 -0.279377 0.0241135
-0.00717274 -0.456561 0.186265
0.00738082 0.117911 0.169033
0.00300457 -0.408589 0.0594301
-0.0082006 0.142881 0.285185
-0.0111022 -0.205828 0.156098
0.0207727 -0.283801 0.197609
0.0121298 -0.173302 0.450195
0.0114846 0.0692791 0.193204
-0.0290027 0.0584374 0.218819
0.0547762 0.352155 0.16698
-0.00456852 -0.421128 0.0807445
0.016095 0.244126 0.537236
2.49241e-05 0.120374 0.143923
0.0140319 -0.311312 0.157202
-0.0183019 0.0553068 0.206524
0.0718893 0.0204147 0.131566
0.00236341 -0.192957 0.335286
-0.024095 0.287105 0.190307
-0.00805559 0.342129 0.35381
-0.00803829 0.452004 0.125789
0.00184698 -0.141706 0.118051
-0.0308845 0.254478 0.521302
0.022076 -0.250813 0.279687
0.0422897 0.294465 0.171352
-0.0279093 0.231177 0.261848
-0.00965595 -0.347651 0.0172908
0.0129301 0.355525 0.205735
0.0234224 -0.2373 0.306071
-0.0216024 -0.281186 0.201904
0.000472803 0.29786 0.000924908
0.00774742 0.0172794 0.2802
0.00158653 0.15806 0.285345
0.0146356 -0.301742 0.160353
0.00477747 0.00317845 0.465172
-0.003914 -0.40902 0.321209
0.00798781 -0.131389 0.494653
-0.00469096 0.11733 0.260759
0.00754776 0.163136 0.370236
0.00167674 -0.45627 0.129863
-0.00712773 -0.150426 0.493546
0.00809719 -0.0997859 0.408859
0.00772748 -0.204898 0.139932
-0.0100293 -0.0234814 0.476593
-0.00786222 0.178959 0.0601085
-0.0366544 -0.222848 0.349354
-0.0107022 0.074028 0.21475
0.0156584 0.0684565 0.194758
0.0060907 -0.404391 0.316584
-0.0318314 0.115398 0.242696
0.00720829 0.225138 0.286171
0.00610512 -0.129873 0.129194
0.000567596 0.445531 0.0825464
-0.00693494 0.115348 0.457447
-0.0229961 0.282312 0.16351
0.00447068 0.0524012 0.219263
-0.0109399 -0.191885 0.151348
-0.00809271 0.216007 0.356865
-0.0242252 0.306449 0.196889
-0.027409 0.105767 0.13833
0.0147904 0.294001 0.182696
-0.0336135 0.288487 0.191983
-0.00435661 -0.431815 0.243569
0.0634766 0.382781 0.162537
0.00764887 0.181176 0.334819
0.00503721 0.115094 0.340488
-0.00847487 -0.339505 0.369643
-0.00916811 -0.395902 0.322394
0.00279154 -0.183392 0.45644
-0.000304095 0.454622 0.139028
0.00383602 -0.128712 0.150588
-0.0807538 -0.195941 0.508153
0.00617135 -0.139728 0.283309
-0.00926279 -0.45324 0.114135
0.0417305 0.0416818 0.166132
-0.00921723 -0.194976 0.0376992
-0.0290027 0.113195 0.222233
0.000157468 0.124212 0.278163
0.0503104 0.0396789 0.122018
0.00477474 0.111894 0.131714
-0.00451308 0.115702 0.202765
0.00893302 0.152314 0.400231
-0.00443047 0.453838 0.126585
-0.00953115 -0.418402 0.069197
-0.0934988 -0.177582 0.498976
0.00506126 0.357852 0.0148551
-0.00924478 -0.138413 0.111302
-0.00759573 0.195213 0.327191
0.00723186 0.122124 0.122197
-0.00380226 0.45749 0.131672
0.014541 0.2571 0.519234
0.00642579 0.385074 0.0363602
0.00180628 0.256419 0.0274838
-0.00154309 -0.0447397 0.367465
0.00502984 0.186247 0.118092
-0.00970989 -0.292204 0.194179
-0.006624 0.445308 0.124782
-0.00588306 -0.159851 0.593011
-0.0164017 0.186487 0.334995
-0.00474637 -0.136764 0.251088
0.0050161 -0.108396 0.156932
0.00380433 0.460573 0.149667
-0.0318095 0.00797322 0.201306
-0.00565898 0.442922 0.28013
0.00691689 0.468413 0.217659
-0.00802934 0.362945 0.345404
-0.00164624 -0.209836 0.0347681
0.00377427 -0.131299 0.108482
0.0122948 0.306154 0.252788
-0.0607435 -0.160483 0.589208
0.005162 0.198302 0.0372706
0.00570824 -0.301601 0.357616
-0.00310644 -0.403764 0.0604266
-0.0324017 0.0669521 0.269619
0.00589136 0.29263 0.367015
-0.0150478 0.0707731 0.209525
0.00604084 0.114178 0.157026
0.0818095 0.0196145 0.129241
0.00426927 0.222159 0.350536
0.00684898 0.178766 0.0487561
-0.0251191 0.111096 0.204048
-0.0613044 0.105162 0.288251
-0.00911074 -0.0430701 0.47802
0.00733739 0.109074 0.160065
0.00606248 0.237637 0.0299394
0.0230448 -0.237971 0.309785
-0.0307012 0.288055 0.126734
-0.0307012 0.302669 0.116354
0.0040662 0.155503 0.0760424
0.0113115 -0.0962762 0.245381
0.0094989 -0.308906 0.260092
0.0290401 -0.196943 0.378967
0.00153223 -0.458096 0.225255
0.0128249 0.157691 0.384575
-0.0370934 -0.159981 0.596215
-0.0279373 0.181426 0.248557
0.000544705 -0.435776 0.309713
-0.000582394 0.285339 0.0130175
0.00844166 0.14897 0.335315
0.00391997 0.0762729 0.450717
-0.00989741 -0.367324 0.100317
0.0162852 -0.166564 0.587708
0.0207727 -0.282515 0.197861
-0.00186972 -0.222954 0.0418078
-0.0935376 -0.146985 0.49646
-0.0197964 0.0640737 0.218118
-0.0337477 -0.202412 0.393721
0.00139673 0.0918158 0.464145
-0.025119 0.0271142 0.203505
0.00691281 0.169195 0.0507747
-0.0250952 0.253018 0.510497
-0.00561489 0.265209 0.35272
-0.00240796 -0.0465605 0.326302
-0.0317183 0.0799302 0.149907
0.0932374 -0.213758 0.514617
-0.0356743 0.290317 0.192678
0.00737917 0.367002 0.341751
0.0929298 -0.198456 0.507969
-0.00440139 0.271202 0.0144298
-0.0303159 0.259639 0.228885
0.00136263 -0.332588 0.0240602
-0.00858715 0.108132 0.29228
-0.0344234 0.287487 0.107383
0.00474503 -0.133191 0.46089
-0.0367737 0.0654779 0.207408
-0.00155282 -0.37747 0.0395241
-0.00197154 -0.0862618 0.371375
0.00407821 -0.0678735 0.491959
0.00394455 -0.158377 0.32349
-0.00535618 -0.451519 0.0950532
-0.0298598 -0.247071 0.279952
0.079569 -0.207287 0.567285
0.00569468 -0.400485 0.334263
-0.00130331 -0.47825 0.202694
-0.0250212 0.316636 0.184274
0.0035324 0.388422 0.336617
-0.00191515 0.221983 0.334282
0.0436939 -0.168096 0.596602
0.00586689 -0.456299 0.269113
-0.00190111 0.459019 0.158172
0.0147777 0.281914 0.388349
-0.0290027 0.0581391 0.267684
0.0218721 0.157337 0.192887
0.0037828 -0.456775 0.253821
0.00334556 -0.467754 0.188391
-0.0197964 0.0714543 0.211997
0.0168729 0.167059 0.375835
0.0111212 -0.345381 0.221755
-0.000348062 0.120127 0.232822
-0.00402164 -0.371493 0.34025
0.0346384 0.267903 0.188628
0.00377135 0.320532 0.0145904
-0.00919026 0.0511465 0.247075
0.00257314 0.115628 0.345088
-0.0732293 -0.176558 0.5815
-0.00971634 0.144541 0.379113
0.00492228 -0.362937 0.361371
-0.00137256 0.0579255 0.453775
-0.0844821 -0.145189 0.502027
-0.0854377 -0.207562 0.537853
-0.00814571 0.372594 0.34302
0.0633615 0.0174834 0.136196
0.00628446 -0.128569 0.317318
-0.0250212 0.273167 0.181526
0.00285863 0.180108 0.459085
-0.0303358 0.121212 0.19757
0.0927138 -0.196671 0.575803
-0.09077 -0.230892 0.547971
-0.0270188 0.111959 0.232192
0.00012263 -0.0552346 0.473818
-0.005096 0.376052 0.330567
-0.002264 0.0159314 0.299421
0.0162979 0.318171 0.177978
0.0819233 -0.204507 0.50283
0.0043184 -0.357317 0.342358
0.00399581 -0.15367 0.345639
-0.00496428 -0.444554 0.104696
-0.00179565 0.255099 0.514669
-0.0036777 0.407111 0.31356
0.00102799 0.25223 0.00452223
-0.010131 -0.0902785 0.396551
-0.0290027 0.0179672 0.192077
0.00240112 -0.32776 0.350872
0.00576673 -0.225571 0.0948067
-0.0256918 0.274487 0.185393
0.00166651 -0.463587 0.155018
0.00250967 -0.457742 0.240071
0.00460904 0.0172047 0.258313
0.0017492 0.132811 0.141537
0.000561415 0.210735 0.0446646
-0.0210564 -0.287031 0.198345
0.00494545 -0.154655 0.520077
0.0127756 0.156815 0.542329
0.00339724 -0.321712 0.313064
-0.000447159 -0.193846 0.331405
-0.00107204 0.140597 0.121603
0.00612652 -0.14572 0.286356
0.00543904 -0.147531 0.0811273
0.00518815 0.326753 0.362889
0.0318547 0.303538 0.170978
0.0172907 0.0491409 0.211752
-0.00847895 -0.256534 0.0147389
0.00246376 -0.115072 0.190594
-0.00295502 -0.0325998 0.310698
-0.00356726 -0.159646 0.587254
0.00792922 0.0363493 0.251626
0.0301342 -0.245013 0.314495
0.00469285 -0.456292 0.203155
-0.00214729 0.130469 0.174313
-0.0290027 0.0691655 0.199721
0.00676817 0.254662 0.366109
0.00668785 0.462121 0.135507
0.0809735 -0.138081 0.500638
0.00749232 0.465757 0.236272
-0.0140859 0.27619 0.389036
0.00350853 0.347068 0.0242298
0.000910153 -0.170145 0.592196
-0.0278709 0.297588 0.177863
0.00155305 0.449642 0.228404
0.0164571 -0.296965 0.183049
-0.00110818 -0.21202 0.325753
0.087182 -0.127654 0.498851
0.00598468 -0.178282 0.16787
-0.00652123 -0.144335 0.513492
-0.00953015 -0.427735 0.0802972
-0.00561109 -0.230845 0.0242361
-0.0865583 -0.231817 0.487077
0.000747935 0.138197 0.100452
-0.00557528 0.104176 0.20717
-0.00166841 0.462421 0.265727
0.0102057 0.269344 0.265099
-0.000726594 -0.137194 0.300868
-0.00176989 -0.451089 0.116082
-0.00530351 0.318396 0.364218
-0.0050952 -0.329215 0.00763142
0.00615335 -0.404329 0.323205
0.0103127 0.0833114 0.206596
0.00466615 0.195605 0.0277452
0.0686315 -0.172152 0.580753
-0.00812578 0.210478 0.0326033
-0.00749838 -0.469692 0.243328
-0.00282961 -0.11777 0.159778
0.0386965 0.0326441 0.148835
-0.014359 0.164724 0.373976
-0.0308142 0.0540403 0.204654
0.00766453 -0.129943 0.44654
0.0061985 0.388507 0.323296
0.0134453 0.295114 0.194777
-0.00520865 0.141008 0.359669
-0.0288886 0.0706908 0.210432
0.0341528 0.274783 0.183921
-0.00636827 0.159613 0.450604
0.0334774 -0.218861 0.333472
-0.0884733 0.103638 0.297021
-0.03479 -0.247705 0.302439
0.0120267 0.143487 0.398077
-0.015964 0.286462 0.227112
-0.0328497 0.057601 0.268965
-0.0408115 0.256946 0.143684
-0.0264934 0.238366 0.235624
-0.0290027 0.00980305 0.226035
0.0143107 0.120662 0.210927
0.0219932 0.173799 0.350964
0.00374781 -0.32376 0.0150331
-0.0128805 0.295489 0.111309
-0.00540583 0.258794 0.39216
-0.00589322 0.194663 0.489513
0.0051099 0.193065 0.497368
0.00429913 -0.112874 0.484885
3.14782e-05 0.0888587 0.249842
0.0133131 -0.175714 0.446538
-0.0155855 0.0657339 0.227433
0.0172907 0.0618198 0.200178
-0.0242895 -0.300864 0.193958
0.00400284 0.263382 0.0556936
-0.00313032 0.2806 0.359309
-0.0232112 -0.297874 0.181577
-0.00588831 0.328145 0.0157586
-0.0017978 -0.179653 0.0690215
-0.0292511 0.18831 0.242419
-0.00971634 0.0664991 0.206462
0.00550848 -0.137572 0.55568
0.00610386 0.475006 0.207832
-0.00974027 -0.155473 0.314866
0.00737801 0.133998 0.25626
-0.00931032 -0.387793 0.346808
-0.00866666 0.112514 0.148071
-0.00296601 -0.444846 0.28133
-0.00311024 -0.156061 0.505197
0.000987727 0.128903 0.217104
0.00166007 -0.127407 0.133633
-0.00589322 0.139797 0.380663
-0.00427753 -0.158236 0.492061
-0.00444286 0.160796 0.431979
0.00413665 0.206649 0.345539
-0.00142308 -0.128721 0.234897
-0.0210153 0.203731 0.318518
-0.0089065 0.0302974 0.272748
0.0175741 -0.182385 0.417606
-0.0186358 0.196787 0.31509
0.00568731 0.405497 0.0677156
-0.00191058 0.303192 0.0120974
-0.00786826 -0.330484 0.3645
0.00535279 0.287968 0.00933267
0.0088578 -0.143062 0.521611
0.0543788 -0.169514 0.596108
0.00392324 0.377813 0.339753
0.00617828 -0.25013 0.363025
-0.00771758 0.106019 0.182144
-0.0290027 0.0922845 0.17575
-0.00734669 -0.445368 0.295549
-0.00720149 0.45792 0.267979
0.0060663 -0.372744 0.0437444
-0.00140604 0.150104 0.273603
-0.029536 0.256477 0.192677
0.014483 0.141675 0.317535
0.00548086 0.122784 0.106029
-0.00299442 0.270561 0.375807
-0.00563046 -0.450904 0.122769
0.0854841 -0.14471 0.503521
0.00812304 0.255475 0.515423
-0.0240853 0.306939 0.209353
-0.0311095 -0.189516 0.415374
0.00474945 0.143654 0.392875
-0.00716457 0.00500481 0.466082
0.0053934 0.467821 0.192126
-0.0289532 0.284331 0.190549
0.00243954 0.139124 0.386155
-0.00578658 -0.161668 0.460108
0.0385729 0.0310627 0.141217
-0.0182185 -0.305185 0.165883
-0.000229528 0.119214 0.268928
0.0341154 -0.206076 0.381359
0.00172066 -0.415736 0.330223
-0.00953706 -0.223686 0.0267805
-0.00923832 -0.187662 0.437792
-0.00348542 -0.142479 0.30824
0.000998538 -0.211763 0.0454968
-0.0347139 -0.221651 0.326747
-0.0183019 0.0655891 0.211576
-0.00435513 0.427544 0.0614837
0.0891583 -0.216186 0.546556
-0.00207437 -0.236505 0.0276569
-0.0027957 -0.132312 0.235711
-0.0362509 0.296658 0.129234
-0.000683996 -0.128569 0.219621
0.0695936 0.0252341 0.130616
-0.0833008 -0.215742 0.535101
-0.00813412 -0.417416 0.0814824
-0.0362481 0.261572 0.126734
-0.00377327 0.225227 0.0127869
-0.0538031 0.111859 0.285199
0.00606839 -0.461894 0.236087
0.00757687 -0.12462 0.562558
-0.000274574 -0.114031 0.188525
-0.00805905 -0.115059 0.226041
0.00525097 -0.438626 0.0899345
-0.0859039 -0.182242 0.5754
-0.0297154 -0.291841 0.190302
-0.0753316 0.086529 0.300605
5.17946e-05 0.175822 0.315885
-0.0312525 0.0699521 0.232638
0.000197595 0.348064 0.0267745
-0.0233585 0.10894 0.189329
0.0120059 0.12109 0.292488
0.00132486 0.130404 0.114601
-0.0303358 0.0185359 0.173779
-0.0270188 0.0203983 0.197131
0.00233305 0.0200194 0.293369
0.0292439 0.288119 0.19593
-0.0314726 0.0826225 0.141694
-0.0053265 0.406637 0.32322
-0.00450114 0.111443 0.334317
-0.0221971 -0.286649 0.191734
0.000475603 0.323949 0.374279
-0.0453692 0.257522 0.131037
0.00395481 0.156352 0.344537
-0.0144826 -0.222606 0.161465
0.0067864 0.112418 0.281599
-0.00820373 0.291531 0.0114744
-0.0149112 0.262565 0.385592
0.0080623 0.0333904 0.259002
0.0113536 0.0798486 0.218196
-0.0290027 0.0907502 0.180093
0.0101859 0.0704824 0.205064
0.00314764 -0.22569 0.355099
-0.00361675 -0.139134 0.331896
-0.00845316 0.393207 0.338558
0.0523828 0.323817 0.171767
0.0326954 -0.247411 0.30616
0.00551463 -0.350959 0.283761
-0.004692 -0.150853 0.253176
0.00670367 0.110265 0.295426
0.00299327 0.42242 0.306712
0.0663155 0.386962 0.166096
-0.00436059 0.123432 0.13846
-0.00444247 0.118687 0.219794
-0.0314589 0.267323 0.20617
-0.00803485 0.460627 0.22091
0.0156584 0.0617437 0.204762
0.00509646 -0.128118 0.280581
0.0074931 0.394544 0.168486
-0.0297818 0.141652 0.128275
-0.032552 0.252752 0.143329
-0.00451408 0.382152 0.337914
-0.0823183 -0.225946 0.543488
0.00609848 -0.29656 0.0195582
0.00348758 -0.455217 0.103237
-0.000170153 0.167654 0.422343
-0.00551808 -0.43471 0.286821
0.00149278 0.242647 0.352705
0.00291548 -0.293505 0.0140094
-0.088452 -0.207719 0.533881
-0.0270188 0.0692708 0.197094
-0.000503158 0.257595 0.0200976
0.0207727 -0.280318 0.189722
0.0324216 -0.197888 0.387424
-0.0064307 -0.454162 0.16722
-0.00417332 0.393242 0.326957
0.00315077 0.12036 0.213386
0.00815759 -0.138443 0.496201
0.00181508 -0.354402 0.0298427
0.00414795 0.402141 0.0516279
0.0019394 0.362743 0.343577
0.00601412 -0.43148 0.307461
-0.00555543 0.23421 0.311299
0.0186623 0.0685081 0.22253
-0.0235165 -0.203496 0.377381
-0.00616313 -0.206042 0.0338866
-0.00952346 -0.11388 0.19954
-0.00239667 -0.44584 0.138735
-0.00129789 0.0730055 0.254489
-0.0242895 -0.293288 0.185687
-0.0219244 0.306252 0.191364
-0.0326687 0.299323 0.195474
0.0152608 0.227071 0.376622
0.0695597 0.401891 0.163897
-0.0412985 0.292314 0.153705
0.0884334 -0.219353 0.520075
-0.0344836 0.0608112 0.217104
0.00738377 0.11829 0.230675
0.000108936 -0.142609 0.43582
0.0073785 0.456159 0.229466
-0.0101014 0.213436 0.506063
-0.0231199 0.198795 0.31008
-0.0229961 0.280835 0.187991
-0.00922722 -0.0145717 0.302936
-0.000645056 -0.242602 0.0332463
-0.0159529 0.142278 0.541541
0.0310805 -0.218999 0.368868
-0.0281424 0.01906 0.231706
-0.00589322 0.196015 0.506565
-0.00451228 0.142636 0.362271
-0.0295418 0.260332 0.227125
0.0055936 -0.15562 0.0726184
-0.00619988 -0.126973 0.11871
0.00613061 -0.244907 0.358051
0.00486129 -0.442257 0.28438
0.0359929 -0.232918 0.326181
-0.00815486 0.381845 0.0383311
-0.00657469 0.114837 0.154069
0.00971638 -0.173169 0.476954
-0.00366856 -0.00298929 0.480937
-0.00231542 0.141162 0.0743393
0.0039708 -0.140644 0.11753
-0.0224614 0.230242 0.276608
-0.00107097 0.0288625 0.285748
-0.010697 -0.362274 0.107475
0.002979 -0.183962 0.063275
-0.00161567 0.402353 0.0532401
-0.00671567 -0.269761 0.015071
-8.25704e-05 0.150567 0.315864
0.0164427 0.106161 0.199153
-0.0219244 0.283489 0.215665
-0.0051828 -0.102786 0.204539
0.00638265 0.0795895 0.219236
0.00672719 -0.165853 0.503428
0.0126896 -0.246597 0.387431
-0.00795787 0.449913 0.124745
-0.0872457 -0.216218 0.562907
0.00608621 -0.197802 0.333038
0.00531314 0.354812 0.354921
0.00717165 -0.381319 0.244638
-0.0849806 -0.20382 0.499159
0.0150566 -0.321884 0.200562
-0.0230343 0.21168 0.506538
-0.00935781 -0.459799 0.243419
-0.0260248 0.209834 0.199473
-0.025119 0.0771323 0.191395
-0.00132052 -0.155648 0.112015
-0.0279447 0.117087 0.133899
0.00784967 -0.145589 0.529498
-0.0148221 0.311295 0.132021
-0.0040247 -0.07553 0.360378
-0.00422621 0.120159 0.219023
-0.00507217 -0.142636 0.101875
-0.0200454 0.204762 0.19032
-0.00250409 0.42717 0.280196
-0.00587926 -0.437522 0.26499
-0.0219244 0.302721 0.174474
0.0130714 -0.263843 0.144808
-0.025119 0.0234044 0.192539
0.000108825 -0.125612 0.193654
0.00775206 0.0478846 0.245639
0.00284899 -0.161183 0.310422
-0.00859075 -0.160151 0.059318
-0.00213021 0.17455 0.0546941
0.00682968 0.122841 0.447587
0.00487072 -0.216877 0.36157
0.000972341 -0.442619 0.113175
0.00539821 0.278439 0.366723
-0.0217962 0.157117 0.206543
0.00388842 0.143526 0.393792
-0.0229962 0.292804 0.155718
-0.0336263 0.27231 0.138378
-0.00975082 -0.13164 0.440018
-0.00589127 0.217546 0.499808
-0.000841783 0.331695 0.0300107
-0.00589322 0.159804 0.414644
-0.0303358 0.052038 0.152126
0.00320219 -0.413764 0.159251
-0.00591098 -0.136681 0.127489
-0.00589064 0.240535 0.503069
-0.00836112 -0.290619 0.376613
0.0249466 0.202918 0.201389
0.0112718 -0.259532 0.141014
-0.00336556 0.301777 0.359082
0.000894569 -0.454509 0.190593
0.0357125 0.0462058 0.165543
-0.00512071 0.411214 0.302132
-0.00204739 0.166485 0.0634344
-0.00596379 0.122661 0.356881
0.015411 0.0892698 0.215349
0.00475374 0.10777 0.287242
-0.00523886 -0.273291 0.378154
-0.0357606 -0.215232 0.370105
-0.00920954 -0.15078 0.522601
-5.86885e-05 0.167527 0.411581
0.000491296 0.0957751 0.265648
-0.000933485 -0.438854 0.25859
0.00491247 -0.263072 0.354965
-0.0160198 0.252596 0.219631
-0.0270188 0.0981603 0.181629
-0.0275707 0.0201155 0.192023
0.00801013 0.089352 0.455595
-0.00626937 0.02987 0.280011
-0.00983248 0.22835 0.503119
-0.00814862 0.0158965 0.465884
-0.00811042 0.420244 0.0712394
-0.0290027 0.103113 0.21888
0.00117474 0.162166 0.0992609
0.0328334 0.288329 0.196535
-0.00209001 0.477924 0.172042
-0.00042735 0.141055 0.281717
-0.00714891 -0.0117133 0.324358
0.0187852 0.0732792 0.197711
0.00629694 0.381936 0.0481137
-0.0290027 0.0756123 0.227307
-0.0303159 0.249705 0.230266
-0.00612467 -0.0886593 0.480842
-0.00593494 -0.383489 0.0536371
-0.0730732 0.10713 0.27838
-0.0371296 -0.223848 0.333276
-0.00922476 0.114684 0.45028
0.00489239 -0.393888 0.0450679
0.0147996 0.174672 0.519356
0.0073813 0.403251 0.321315
-0.00600283 0.189641 0.448438
0.00509004 -0.133443 0.0924294
-0.00497246 -0.111889 0.500225
0.00309571 0.392056 0.0311227
-0.034662 0.226332 0.529466
0.00251865 -0.102505 0.391551
-0.00545865 -0.459876 0.154171
-0.00434113 0.117135 0.20676
-0.0829772 -0.218945 0.553327
-0.015102 -0.153865 0.586244
-0.00336531 0.165166 0.0640295
-0.00822608 0.456455 0.249518
-0.00443306 0.125153 0.193208
-0.00840276 -0.114671 0.156724
-0.0295776 0.305382 0.180298
0.00418727 0.131886 0.441337
0.0294194 0.0638541 0.209137
-0.0179403 -0.275663 0.217835
0.0010097 0.135162 0.379458
-0.0800644 -0.207357 0.566414
-0.00661956 0.339151 0.0756028
-0.000739604 -0.41814 0.0769276
-0.00776982 0.39492 0.23592
-0.00531046 -0.233336 0.345149
-0.0124792 -0.354922 0.246933
-0.0219244 0.30674 0.211398
0.0760085 0.0376205 0.11657
-0.00546829 -0.295902 0.355688
0.0148525 -0.299738 0.223071
-0.00815909 0.146008 0.288068
-0.0270188 0.0301223 0.200328
0.00738046 0.359624 0.347356
-0.00950773 -0.318157 0.364049
-0.035038 0.268692 0.108402
0.0820971 -0.169673 0.584014
-0.00806847 0.398256 0.0467855
-0.000128963 -0.119003 0.147789
0.078867 -0.194189 0.57295
0.000647491 -0.450274 0.265719
0.0073824 0.451749 0.117962
0.0841223 -0.208011 0.530947
-0.0270188 0.118095 0.201836
-0.00618051 0.0285252 0.281747
-0.0888416 -0.128608 0.497148
-0.0290027 0.0281354 0.197128
0.00170577 0.440655 0.270366
-0.0203304 -0.20103 0.400127
-0.0251191 0.0332727 0.172952
0.00865147 0.181106 0.546701
0.0378602 0.259099 0.179382
-0.00651116 -0.159043 0.52018
-0.0307012 0.256358 0.131284
-0.0236171 0.0215624 0.233021
0.0155681 0.167114 0.534823
-0.0115959 -0.328242 0.0970102
-0.000943063 0.18016 0.479311
-7.18433e-05 0.214334 0.333557
-0.000608367 0.437518 0.0704432
-0.00650013 0.122574 0.24925
-0.00678866 -0.456068 0.127523
-0.0256759 0.0850827 0.264194
3.72942e-05 -0.433506 0.276697
0.0233145 -0.263327 0.248661
0.00434113 -0.190485 0.34881
0.00653473 0.119297 0.295168
0.0177235 0.285112 0.180908
0.00593229 0.427768 0.283072
0.00641279 0.114759 0.24751
-0.00716585 0.125222 0.444792
-0.00921868 -0.207423 0.339281
0.0071054 -0.186714 0.169475
-0.00732605 0.169034 0.304162
0.00252594 -0.424077 0.0777356
0.00738369 0.119301 0.142914
0.00890905 0.235547 0.38593
-0.00822177 -0.365363 0.0289193
-0.00754307 0.239238 0.538265
0.00231596 -0.455628 0.244257
0.06927 0.0280987 0.130513
-0.00590422 -0.324775 0.362872
-0.030852 0.240186 0.1122
0.00730078 -0.156687 0.479557
-0.0823183 -0.238364 0.543671
-0.00689946 0.139701 0.53749
0.025701 0.204282 0.311439
-0.00391626 -0.229347 0.0131221
-0.0839747 -0.219252 0.546953
-0.00624167 0.151735 0.384629
0.000212953 0.139754 0.150123
0.0187852 0.0644328 0.204237
-0.00722226 0.138635 0.282715
-0.0331661 -0.225089 0.317244
0.000939131 0.465024 0.166863
-0.030304 0.00660718 0.217761
-0.0339834 -0.282117 0.195791
-0.0176363 -0.162618 0.597566
0.00488946 -0.141087 0.527842
0.0645976 -0.168878 0.581186
-0.00742527 0.206776 0.497933
-0.00888594 -0.424668 0.0718785
-0.0144531 0.15099 0.328899
-0.00625197 0.0388522 0.458482
-0.0113752 -0.384883 0.150753
-0.00401146 0.142456 0.438803
-0.0290027 0.0756303 0.24857
0.0051099 0.136194 0.371176
0.0144027 -0.307688 0.163231
-0.0174867 0.184122 0.33501
0.00959716 0.270231 0.0948082
-0.000655842 0.464772 0.210499
-0.0436567 0.253042 0.137347
0.0237351 -0.264344 0.273233
-0.00481202 0.0248969 0.246439
-0.00427447 0.0191135 0.294486
0.0107686 0.332359 0.120633
0.00161943 -0.464508 0.219641
-0.00366574 -0.176454 0.325869
0.0105911 0.0745892 0.204857
0.0035083 -0.136575 0.514131
-0.004253 -0.345236 0.0351126
0.0923554 -0.227326 0.545049
-0.00954874 -0.124944 0.127248
-0.0219244 0.28424 0.169512
-0.00492877 -0.170191 0.45394
-0.00926007 -0.418937 0.0772907
0.00971642 -0.163723 0.479859
0.00448932 0.418334 0.293056
-0.0225711 0.24363 0.250651
0.00246928 -0.366899 0.0332181
-0.00631736 0.181426 0.0615302
-0.0202233 -0.290011 0.175577
-0.00241302 -0.174838 0.45076
0.0132632 -0.310259 0.228717
-0.0906737 -0.195848 0.583657
-0.00874811 -0.181857 0.239806
0.0257518 0.242803 0.25644
-0.00141666 0.125802 0.140669
-0.00322807 0.462354 0.113583
-0.0251191 0.0947301 0.171602
-0.0042626 0.4383 0.0968014
-0.0325555 0.125867 0.134187
-0.00899751 -0.294039 0.191881
-0.00169743 0.131737 0.382719
-0.00432368 0.142408 0.177975
-0.00833546 -0.0153503 0.325383
0.0841852 -0.230822 0.512079
0.000872284 -0.279814 0.378557
0.00487588 -0.154017 0.594001
0.0928155 -0.191105 0.497139
-0.00390359 -0.289482 0.187154
-0.00858904 0.46196 0.251695
0.00573539 -0.157543 0.496827
-0.00828042 0.451789 0.107189
0.0352279 0.264698 0.183029
-0.00936974 0.382442 0.227654
0.0073788 0.182366 0.320877
0.00652186 0.370899 0.349666
0.00450554 0.163245 0.436342
0.00772996 -0.157775 0.584446
-0.00818051 0.11654 0.158545
-0.00158711 -0.175577 0.340771
-0.00819359 0.45049 0.262497
-0.0229961 0.284709 0.180554
-0.00329252 -0.222951 0.340466
0.00407396 0.254891 0.326665
0.0179736 0.286971 0.201018
-0.000314238 -0.161324 0.291685
0.00562062 -0.292766 0.193664
0.0059321 -0.304777 0.367427
0.0102401 0.251238 0.123422
-0.0363823 0.277991 0.130757
-0.00589322 0.142087 0.375696
-0.0293281 0.181353 0.122023
0.0017347 0.222496 0.351912
0.0289286 0.267577 0.222459
-0.0355743 0.300664 0.110555
-0.00440962 0.356572 0.0449655
-0.00504618 0.186101 0.0589502
-0.00761887 0.404953 0.0645346
0.00784866 -0.0183979 0.319462
0.052388 0.0298758 0.128902
-0.000859098 0.136205 0.353724
-0.0233585 0.0288825 0.198914
0.0849352 -0.215721 0.510883
0.00207785 -0.214006 0.0337969
0.0418753 0.292508 0.17075
-0.0081744 0.174802 0.320983
-0.0334304 0.28796 0.102607
-0.0120479 -0.130544 0.31569
-0.0108234 0.0662604 0.21097
-0.0116445 0.122261 0.294737
-0.00863614 0.0119153 0.269522
-0.0073382 -0.2661 0.0252916
0.0337388 0.26405 0.198359
0.00560954 0.213119 0.0266905
-0.00185823 0.288328 0.191845
0.0287636 0.288907 0.18398
-0.0430426 0.0836825 0.257186
-0.000532293 -0.154055 0.32103
-0.0032766 0.446768 0.241162
-0.020912 0.179873 0.537044
-0.0356743 0.288363 0.153402
-0.0290027 0.0290001 0.197537
0.00609925 -0.432717 0.0958576
0.00804349 -0.0445514 0.480853
-0.000187674 0.211916 0.346409
-0.0152652 0.293305 0.187762
-0.0135132 -0.364801 0.185736
-0.0871404 -0.128569 0.492476
-0.0126267 -0.350539 0.241793
-0.0240853 0.299073 0.164132
-0.00346908 0.13808 0.455951
-0.00967629 -0.127885 0.276033
-0.0048051 0.277691 0.330402
0.00659309 -0.185452 0.451117
-0.025119 0.0548458 0.169613
0.00185911 0.123944 0.228926
0.000408163 -0.217178 0.364516
-0.00526701 0.147433 0.403311
-0.0399427 0.097336 0.265808
-0.00482169 0.16354 0.312216
-0.00414671 0.461813 0.208171
0.00418209 -0.357775 0.342026
0.025028 0.0599528 0.207732
-0.0402979 0.263184 0.133125
-0.00808891 0.116317 0.178868
-0.00863951 -0.384653 0.0386326
0.0172907 0.0536595 0.223415
-0.0362447 0.25589 0.138859
-0.03193 0.0657713 0.198163
-0.025119 0.0392087 0.208049
0.00652347 0.113142 0.455597
-0.0152695 -0.229662 0.163799
0.000832745 -0.168854 0.047378
0.00593217 0.225791 0.0781219
-0.0078065 0.398967 0.197808
-0.0375642 0.285163 0.189072
-0.00427627 0.126693 0.245254
-0.00131141 -0.197368 0.375558
-0.00407702 -0.13956 0.257175
-0.00213102 0.0575456 0.219429
-0.0374251 0.250922 0.128592
-0.00691757 0.046563 0.469661
-0.0882219 0.106371 0.292712
-0.00887614 0.00352457 0.469355
0.00893302 0.169423 0.443612
-0.025119 0.0180897 0.210578
0.00893302 0.161449 0.418717
-0.0165499 0.107668 0.214139
-0.0308474 0.269464 0.127814
0.0100356 0.0491764 0.213896
-0.0312571 0.00975364 0.224713
-0.00945519 -0.132704 0.572736
0.0618042 0.0138761 0.128394
0.00125192 -0.46093 0.19143
0.006137 0.458824 0.128437
0.0924896 -0.204678 0.559822
-0.0156379 -0.242902 0.208497
-0.00132196 0.119564 0.175713
0.00611439 0.146512 0.442136
0.00891918 0.203731 0.502201
0.0061283 0.375898 0.353392
0.00611361 -0.162235 0.0748761
-0.00528929 -0.44206 0.10837
-0.00589759 -0.353302 0.342986
-0.000276587 0.452949 0.211136
0.0262316 -0.294157 0.18863
-0.00712951 0.454434 0.102745
0.00647753 0.0370672 0.266195
-0.0278709 0.303598 0.185367
-0.0872188 -0.135015 0.488021
-0.00844526 -0.458776 0.250502
-0.0291493 -0.212424 0.34555
-0.0215712 0.254682 0.513834
-0.0270188 0.0940829 0.176259
-0.00653531 -0.347634 0.316169
0.00141687 -0.180795 0.456709
-0.00948045 -0.430086 0.0814712
0.0161115 0.0621175 0.195426
-0.00694494 -0.0903847 0.381816
-0.00589484 -0.408612 0.336748
0.00785218 -0.0435478 0.481012
-0.0240853 0.301209 0.179213
-0.00817498 0.447531 0.278871
0.00643499 0.385477 0.251366
-0.00390616 0.444584 0.130674
-0.0435515 0.105568 0.283013
-0.00320425 0.225575 0.334718
-0.00789079 -0.17408 0.336926
0.00374765 0.115151 0.331769
0.00701116 0.231975 0.0308788
-0.0270188 0.0930803 0.215982
0.000264566 0.455533 0.249666
-0.0263072 0.236218 0.197189
-0.0061677 0.216189 0.0388677
0.0809936 -0.218993 0.528466
-0.009499 -0.178901 0.0540926
-0.00523038 -0.211222 0.0210119
-0.00792406 0.457337 0.1517
-0.00586519 -0.301462 0.328546
0.00737932 0.200486 0.334515
0.0162961 0.0640493 0.213911
0.00705153 0.0464653 0.23169
-0.0036352 0.0680026 0.240371
-0.00276036 -0.119382 0.147088
0.00737813 0.175704 0.314544
-0.0930837 -0.190134 0.504403
-0.0250212 0.312014 0.201797
0.0866702 -0.17907 0.578244
-0.00504064 -0.432338 0.295836
0.00164864 -0.385783 0.333589
-0.00678327 -0.159888 0.474513
-0.0851772 -0.213535 0.567553
0.000622005 -0.149825 0.490571
-0.0186266 -0.263538 0.222812
-0.0167373 -0.211618 0.371997
0.00400105 0.132818 0.110994
0.000412871 0.464015 0.234503
0.0207727 -0.294519 0.182044
0.00356163 0.190515 0.0567968
-0.0174294 0.145959 0.538605
0.0165703 0.171975 0.196705
-0.0258108 0.273944 0.224316
0.0310792 -0.287171 0.187423
-0.00277423 0.402333 0.0670984
0.0137369 0.165552 0.367786
0.00167362 -0.430624 0.315828
-0.0310519 0.0730326 0.224094
-0.00722346 -0.273781 0.377528
-0.0834754 0.0973385 0.303657
0.00729022 0.432394 0.0975857
-0.0097709 0.0193624 0.277335
-0.0177792 0.270392 0.20455
0.00652153 0.237678 0.0171671
-0.00601896 -0.201362 0.296318
0.0159304 0.152968 0.204468
-0.00880865 0.401727 0.332982
-0.0144462 0.286468 0.389544
-0.00141294 0.170608 0.457711
-0.00470127 0.325277 0.361241
0.00381688 0.150733 0.380147
-0.000401886 0.130988 0.37224
-0.00665898 0.142018 0.110972
0.00646031 0.106867 0.166747
-0.0302572 0.0456719 0.266847
-0.00510274 -0.137749 0.300435
-0.0271976 0.0613484 0.150506
-0.0355743 0.261819 0.130019
-0.0251084 -0.199068 0.415883
0.00442191 0.425388 0.0734359
-0.00923079 -0.279694 0.360509
0.0167604 -0.282333 0.170836
0.00346736 -0.171331 0.449471
0.00783321 0.200352 0.240431
0.0783195 -0.188935 0.575347
0.0141448 -0.160589 0.583258
-0.0336135 0.285159 0.170579
-0.0285062 0.149133 0.129471
0.00621051 0.15181 0.419367
0.00132781 -0.31947 0.0216703
-0.00789211 -0.169843 0.587116
0.00635243 0.390342 0.0397171
0.0127863 0.0774073 0.218904
-0.00489885 -0.0887627 0.236743
-0.00870074 0.222264 0.0197165
0.00762689 -0.05511 0.362977
-0.0142903 -0.232036 0.140313
-0.0851867 0.100294 0.289299
-0.0148516 -0.154178 0.594306
-0.0919268 -0.242756 0.545464
0.000330292 -0.45918 0.146855
-4.70621e-05 -0.367947 0.342287
-0.0088582 -0.408044 0.326764
0.00611237 -0.297359 0.362238
0.00738358 0.256736 0.0145398
-0.000303629 0.223508 0.337945
-0.00278794 0.0650631 0.244234
0.0011198 0.0671235 0.23011
0.0195607 0.194822 0.201013
-0.00520994 -0.430688 0.289546
-0.00675462 0.400845 0.238752
0.00348216 0.129576 0.0928988
0.0818432 -0.158549 0.501565
-0.0303358 0.0842582 0.151963
0.00236473 0.362891 0.0276209
-0.0311838 0.300093 0.104912
0.0127504 0.148867 0.402608
0.00756571 -0.0499626 0.357718
-0.0347819 0.061309 0.219384
0.0674291 0.0289184 0.129345
0.0254254 0.233271 0.25708
0.00589315 0.422196 0.319826
0.00612556 -0.401585 0.322462
-0.00952245 -0.117252 0.150258
0.0109801 0.23232 0.153481
0.018558 -0.28671 0.186598
-0.0834531 0.0993123 0.296848
0.000934506 -0.250273 0.0241239
-0.033673 0.225509 0.116648
0.0057071 -0.160769 0.317073
-0.00607222 0.214742 0.541536
-0.00229768 -0.247795 0.0247357
-0.031027 0.310107 0.163458
0.0216351 -0.192062 0.393123
-0.0246468 0.0181179 0.230403
0.0485548 0.310083 0.173343
0.0164171 0.189966 0.328059
-0.0164845 0.254198 0.18677
0.00541359 0.218956 0.501581
-0.0249623 -0.286608 0.194764
-0.0290027 0.107057 0.17339
-0.0251833 0.214015 0.540279
-0.018244 0.291635 0.171476
0.000453124 -0.34951 0.0370748
0.00103968 -0.149683 0.519974
-0.0233585 0.0883031 0.214514
-0.00997068 -0.213668 0.280978
-0.0287908 -0.187202 0.422743
-0.00423464 -0.0249881 0.484833
0.00678146 0.0464278 0.461036
-0.00611456 -0.168567 0.0776386
0.0107611 0.142547 0.542515
0.00453295 0.266466 0.363821
-0.0152921 0.0626135 0.216243
-0.00803514 0.167703 0.310175
-0.000782243 0.114007 0.443842
-0.0355743 0.253075 0.148603
0.00459848 0.0340758 0.274361
-0.0509574 0.108185 0.28335
