-0.00447613 0.0201377 0.476841
-0.0159489 0.149223 0.205176
-0.00781363 -0.460794 0.267537
0.00396418 -0.260953 0.00661232
-0.00954053 -0.285453 0.371908
0.00520298 -0.415726 0.0553693
0.039207 0.280124 0.170699
-0.00885363 0.161655 0.0596936
0.0154297 0.192729 0.36122
0.0134967 -0.162082 0.343533
-0.0303159 0.18727 0.244394
-0.00730762 -0.16041 0.141175
-0.0364726 0.0694515 0.232432
-0.0467708 0.284978 0.159461
-0.00737556 0.245138 0.291025
0.0827083 0.0450382 0.123558
0.0170095 0.300036 0.211812
0.00150612 -0.125235 0.188385
-0.00195758 -0.178081 0.0609528
0.00699908 0.466127 0.146468
-0.00297999 -0.477996 0.204578
-0.0143883 -0.297282 0.266142
-0.00778186 0.300439 0.0710764
0.0139392 0.213035 0.54078
-0.015395 0.28275 0.186909
0.00383546 -0.133876 0.504076
-0.0118851 0.0688972 0.193109
-0.00518254 0.183591 0.315223
0.00489962 0.409464 0.164833
-0.0046371 0.345134 0.00969908
0.0208697 0.118493 0.203684
-0.0194581 0.179866 0.545488
-0.00943075 -0.121454 0.117765
0.00838209 -0.223876 0.232975
-0.0330077 -0.25589 0.287603
0.00564832 -0.316735 0.291733
-0.00183534 -0.0149821 0.334137
-0.0182241 -0.316512 0.161657
0.0365601 -0.234018 0.317576
0.00195208 0.211972 0.0574667
-0.0453174 0.251183 0.130196
-0.0107326 0.374862 0.22583
-0.005654 0.0350318 0.235599
0.0071368 0.349236 0.362723
-0.0288841 0.0626468 0.144384
0.00666699 -0.10826 0.428642
-0.00694938 0.386499 0.108041
-0.00946997 0.251227 0.389108
0.00698348 0.31177 0.291618
-0.0910158 -0.211693 0.567131
-0.0129989 -0.201878 0.197371
-0.00344466 -0.474784 0.153271
-0.00669256 0.1916 0.273751
-0.013246 -0.224632 0.16272
0.000280209 -0.440967 0.0788815
0.084721 -0.229091 0.502712
0.00316571 0.128156 0.244699
0.00753238 0.237996 0.502986
-0.013081 0.112335 0.271936
-0.00836299 0.194412 0.226657
-0.0850095 -0.206942 0.527487
-0.080696 -0.152512 0.499546
-0.00415843 0.268668 0.0028812
-0.00473904 -0.432893 0.128322
0.00595835 0.422584 0.309191
0.00517839 0.16419 0.549826
-0.0256759 0.0574667 0.267597
-0.00928824 -0.144094 0.28081
-0.00526011 -0.424977 0.24116
0.014213 -0.299874 0.163614
-0.000866439 0.115452 0.118712
0.0059096 -0.350163 0.0902857
-0.000944832 -0.20825 0.360869
-0.0073678 0.0980564 0.459749
0.00764982 0.210059 0.352211
0.0172461 0.264633 0.177962
-0.0107854 0.230523 0.117632
0.0141128 0.279155 0.233599
-0.0600962 -0.173587 0.592679
-0.0312315 -0.273327 0.244656
0.00722972 0.230409 0.0887289
-0.0575354 0.0900754 0.296342
-0.0290027 0.0491699 0.237919
-0.00971634 0.124456 0.330446
0.0249419 -0.277231 0.222359
0.0127102 0.255691 0.129419
-0.00999077 -0.148141 0.460634
-0.0184332 0.268834 0.186333
-0.000342413 0.371428 0.330856
0.000853502 0.101628 0.187968
-0.00615092 -0.366947 0.361785
-0.0297669 0.198195 0.120268
-0.00310678 -0.343892 0.0470765
0.000910906 0.204187 0.316477
-0.0138481 -0.106005 0.268177
-0.0010786 0.452201 0.28647
0.00577015 0.132611 0.0904534
-0.000137341 0.0817074 0.223287
0.0168033 0.143196 0.396374
-0.014309 0.20243 0.36856
-0.00570357 -0.241638 0.319479
-0.0103233 -0.248967 0.0969493
0.00610332 -0.122508 0.225961
0.00621336 -0.331591 0.01418
-0.00877634 -0.221976 0.0189634
-0.0115668 0.125378 0.30002
-0.00567129 -0.139899 0.538787
0.0175636 0.308563 0.177056
0.00169008 -0.16155 0.327889
-0.00681986 -0.082137 0.372176
0.0253426 0.227762 0.280591
0.0859878 -0.163198 0.489139
0.00119498 0.10702 0.147044
0.00545875 0.190122 0.450325
0.00501305 0.438539 0.0749847
0.00893302 0.0895692 0.271906
-0.00926699 0.155691 0.4462
0.0131688 -0.323726 0.172894
-0.00653681 -0.17723 0.0944632
0.00117302 -0.229515 0.38896
-0.00835786 0.00647296 0.275073
0.00403019 -0.410781 0.321212
-0.00985047 0.208096 0.507043
-0.0277367 0.0307634 0.159424
0.0264104 0.210362 0.5107
0.00420057 -0.148503 0.446031
-0.017257 0.293874 0.149701
0.038472 0.0342439 0.141547
-0.0162859 -0.155267 0.524251
0.015173 0.244613 0.176581
0.00036517 0.442542 0.227338
0.00378169 -0.0439163 0.363491
-0.00814235 0.456339 0.131813
-0.000889969 0.130012 0.221716
-0.00348037 -0.164639 0.306518
-0.00893471 -0.394604 0.0446867
0.0127429 0.354362 0.172825
0.000342426 0.330992 0.0367599
-0.0326687 0.305493 0.176801
0.00772996 -0.149875 0.588995
0.0142489 -0.180409 0.3555
-0.00601616 0.329493 0.371761
-0.01 -0.0852692 0.487059
0.0124754 -0.133289 0.315179
-0.00460657 0.232205 0.354304
0.0933904 -0.218641 0.532006
1.42432e-06 -0.440417 0.151592
-0.00268455 0.169759 0.0448549
0.00353634 -0.447421 0.292873
-0.00252892 0.435882 0.253258
-0.00294905 0.289452 0.185747
0.00151453 0.379934 0.0608719
0.000985381 -0.441894 0.221115
-0.0113898 -0.163006 0.492974
-0.00363507 -0.282281 0.0257205
-0.0277717 0.225305 0.272331
0.0061536 -0.271818 0.364842
0.0336633 -0.200734 0.386735
-0.00521634 0.244448 0.537168
-0.0347781 0.234989 0.531721
0.0194206 0.185494 0.189447
-0.00467332 0.191311 0.0723587
-0.0127241 -0.324139 0.106544
0.017023 0.295322 0.164723
-0.0575931 0.116412 0.278744
-0.0360493 0.0573221 0.207179
0.00564515 -0.394654 0.338156
-0.00964947 -0.407394 0.182303
0.00112186 -0.145447 0.104988
0.0335223 -0.24493 0.290659
-0.00930807 -0.310039 0.373716
-0.00144511 -0.33003 0.343119
-0.0319518 0.288324 0.103529
-0.00320722 -0.227106 0.0505684
0.0595479 0.0111248 0.135969
-0.00640353 0.0812081 0.212744
0.00334616 0.463178 0.187922
-0.00549171 -0.143242 0.58731
-0.00408647 0.406466 0.0419216
-0.000191399 0.425996 0.109046
-0.00316611 0.397706 0.312694
0.0136603 -0.278977 0.150814
0.0006513 0.171719 0.518262
-0.00246411 0.0882799 0.448398
-0.0104728 0.198458 0.150064
-0.0345518 0.270142 0.147309
0.00191707 0.00643985 0.308784
0.014697 0.0621791 0.226547
0.00685905 0.160409 0.319541
0.0129585 0.210334 0.496711
-0.0372199 -0.211705 0.364993
0.00582369 -0.146277 0.300954
0.00113511 0.191364 0.545542
-0.00159265 0.049295 0.471676
0.00737636 0.2705 0.355226
-0.0221349 0.182992 0.204894
-0.00560872 -0.17439 0.439505
-0.00815204 0.174944 0.358579
0.011825 -0.0994888 0.253063
-0.00667065 0.14437 0.269596
0.00477286 -0.187253 0.32176
0.0137936 0.239039 0.218038
0.00276892 0.181584 0.341985
0.0145954 0.266384 0.38681
0.0786836 -0.191325 0.573766
-0.0332825 0.124263 0.21272
-0.0332825 0.0351008 0.259284
0.00557736 -0.46276 0.243653
0.000939106 -0.319245 0.0428384
-0.00790827 0.244827 0.010867
0.0128751 0.118349 0.285355
0.00893302 0.123927 0.33299
-0.0323076 0.311191 0.190091
-0.0290178 -0.290557 0.186378
-0.000427845 -0.13402 0.160064
0.0253962 0.243344 0.503162
-0.00613855 0.123321 0.104288
-0.00668473 0.120136 0.444846
-0.0303002 0.00850451 0.194696
-0.0200001 -0.188295 0.406899
0.0313009 -0.284106 0.185698
0.00311373 -0.000513926 0.464125
0.0566159 0.360659 0.166398
-0.00971634 0.138131 0.385383
-0.00698115 -0.103487 0.205429
-0.00174385 -0.469303 0.17753
0.0559822 -0.160043 0.587075
-0.0343937 0.237244 0.510289
-0.0271246 0.21297 0.298283
-0.0064616 -0.453955 0.100087
0.00171022 0.252015 0.33662
0.00611108 -0.251763 0.0226732
-0.0239339 0.251863 0.238869
-0.00404395 -0.413933 0.081577
0.00255376 -0.424396 0.321637
-0.00755894 0.151046 0.0755241
-0.04128 -0.160917 0.583334
-0.0268361 -0.210622 0.351708
0.00607351 -0.441751 0.264019
-0.0301699 0.243938 0.185983
0.00491843 0.282949 0.00190232
0.00225117 0.420646 0.324231
-0.00416422 0.36023 0.0301909
0.0109146 0.329438 0.257999
-0.00673485 0.0659912 0.238326
-0.0252457 0.183951 0.340815
-0.00813017 -0.196513 0.0509289
0.0313347 -0.256693 0.264267
-0.000894364 0.318676 0.00251632
-0.0302198 0.158507 0.249143
0.0132868 -0.243575 0.204023
0.00239468 -0.21478 0.319249
0.0361268 0.0629232 0.193348
-0.000422006 0.102734 0.169501
0.00837489 -0.162664 0.509341
-0.00535806 0.420507 0.246841
0.00172897 -0.10291 0.180354
-0.0114329 -0.159493 0.347354
-0.00789168 -0.0310472 0.316605
-0.00985192 -0.0608571 0.361037
0.00737655 0.32023 0.353912
-0.00864368 0.137951 0.321804
-0.0162412 0.32647 0.1925
-0.0251514 -0.236744 0.301716
-0.0290027 0.0918695 0.156057
0.00458916 -0.249964 0.372487
0.00466157 -0.129762 0.26973
0.0320089 0.268091 0.21384
-0.00128917 0.0719494 0.202784
-0.00746108 0.424576 0.0621785
-0.00438679 0.452594 0.156074
0.0101398 -0.24938 0.261199
0.00466804 -0.185672 0.130609
-0.00822014 0.442059 0.2791
-0.016177 -0.251495 0.235518
0.00296833 0.371138 0.346232
-0.011306 0.319656 0.117297
-0.00419493 0.15196 0.423589
-0.00184018 -0.156892 0.0575529
-0.0326687 0.270491 0.209553
-0.00559397 -0.163266 0.248542
0.00601303 0.21953 0.294102
-7.4987e-05 -0.126526 0.204012
-0.022955 0.159392 0.378654
0.0189734 0.166395 0.360719
-0.0127968 -0.325344 0.271913
-0.00747965 0.0205029 0.256882
0.00646427 0.285509 0.368821
0.00675637 -0.108401 0.406257
-0.00859181 0.210176 0.0259076
0.0103754 0.367881 0.208331
0.00250056 -0.0694399 0.476334
-0.0241978 -0.301981 0.185105
0.0318548 0.289321 0.193777
0.00680503 0.256879 0.519981
-0.000823898 -0.183615 0.0358612
-0.00231558 -0.29967 0.0266777
-0.03852 0.0891227 0.242895
0.0234539 -0.230954 0.330023
0.00293524 0.260159 0.029267
0.00648716 0.108131 0.220452
-0.0264064 0.293424 0.205889
-0.0171749 0.0582347 0.221188
0.0163458 -0.272215 0.18334
0.00108152 0.142221 0.116906
0.0823129 -0.181661 0.492928
-0.000962143 -0.409993 0.301434
-0.0133124 -0.284988 0.112033
0.00383091 0.186404 0.0480682
-0.0233585 0.080762 0.214283
0.00122479 0.0284594 0.458994
-0.0217487 0.223661 0.191082
0.00877053 -0.170754 0.59072
-0.0178688 0.131734 0.195601
0.0115013 0.14833 0.331889
-0.00926776 -0.226304 0.349361
0.00235194 -0.145352 0.228968
0.00737818 0.459521 0.209901
-0.0100493 0.212075 0.256163
-0.0883878 -0.218229 0.546864
-0.00938942 -0.154168 0.0817397
-0.00114149 0.478684 0.191519
-0.0131526 -0.341628 0.132011
-0.0089503 0.276329 0.393461
-0.00653631 -0.348596 0.0217756
-0.0231203 -0.257452 0.265288
0.0101779 0.242676 0.263511
-0.00945519 -0.121983 0.572595
0.0123159 0.221208 0.171737
-0.0108767 -0.383749 0.229115
0.00471607 -0.19327 0.256908
0.00704794 -0.38212 0.166309
0.00169177 0.167353 0.0789846
0.00537095 0.40596 0.219671
-0.0134363 0.266285 0.135295
0.00829477 0.383355 0.168372
0.00581786 0.355885 0.300015
-0.0305916 -0.270451 0.220336
0.00738166 0.448703 0.11406
-0.0336877 -0.28019 0.198743
-0.0117677 -0.115267 0.292092
0.0283005 0.239703 0.19538
0.0111211 -0.200735 0.371943
0.0056161 0.142948 0.28953
0.0156016 0.174432 0.540293
0.000840718 -0.0429679 0.471645
-0.0193422 -0.319178 0.187728
0.00958021 0.361976 0.236235
0.00167653 0.199692 0.495164
-0.00786959 -0.403375 0.0539409
-0.000804241 0.157665 0.390066
0.00876495 0.144635 0.536375
-0.0131643 -0.164648 0.580377
0.00609237 -0.307917 0.0205342
-0.00914914 -0.365692 0.0390064
-0.00572493 -0.125265 0.418518
0.00280812 -0.349458 0.355774
-0.00682486 0.139205 0.357964
-0.0893998 -0.230931 0.513902
0.00546165 -0.298416 0.371443
-0.00314361 0.170533 0.288249
-0.00794657 0.254676 0.355741
-0.0246807 0.217581 0.505328
0.00528871 0.406119 0.120355
-0.0429152 0.103735 0.293055
0.0108935 0.272511 0.258251
-0.00956099 0.0828185 0.264509
-0.000709089 0.163366 0.402436
0.0149244 0.315263 0.23243
0.00183815 -0.289723 0.00362619
-0.00937887 -0.376787 0.340238
-0.00384019 0.169104 0.461676
-0.0110574 0.223096 0.380998
-0.00403793 0.0863681 0.238226
0.0380317 0.254197 0.173761
-0.0107788 0.36975 0.157054
0.00893302 0.143661 0.375546
-0.00544134 -0.13993 0.332445
-0.0142731 0.191357 0.511941
-0.00687246 -0.136198 0.490577
0.00141173 -0.111815 0.132808
-0.00197108 0.106957 0.291137
-0.0270188 0.0795773 0.263459
-0.0077538 0.112008 0.23548
-0.0129572 -0.229553 0.138057
0.0197068 0.243789 0.537307
0.00783629 0.194184 0.245824
-0.0150496 0.118261 0.210441
0.0078268 -0.0225113 0.324311
0.00175826 -0.011604 0.482463
-0.00635575 -0.132928 0.13764
0.00481817 0.321755 0.068541
-0.0328279 0.173624 0.122351
-0.0233585 0.0598199 0.166478
0.00608924 -0.459977 0.193591
0.0229566 0.181258 0.340457
-0.00935233 -0.455229 0.138376
0.00482886 -0.436079 0.109626
-0.0120926 0.258454 0.266395
-0.0921187 -0.209693 0.507036
0.00812086 0.0458971 0.244334
0.0116265 -0.307668 0.254149
-0.0290027 0.0813904 0.182429
-0.00995803 -0.20955 0.379117
0.00347571 0.433886 0.162388
0.0151024 0.139729 0.197853
-0.0233585 0.11304 0.231107
-0.0094289 -0.11673 0.168203
-0.00923062 -0.00665325 0.311722
-0.0705366 0.107141 0.291164
-0.00123147 0.100264 0.264792
0.00555605 0.128646 0.263782
0.00137084 0.21744 0.335549
0.0229406 -0.242042 0.305939
0.00715333 0.342434 0.279714
-0.0102677 0.377316 0.19608
0.00601609 0.383342 0.349642
-0.0150316 -0.224938 0.21776
-0.00919663 -0.450214 0.246714
0.00551487 0.456159 0.171805
0.00231998 -0.25275 0.351044
0.00468295 -0.133137 0.429675
0.00569783 -0.259895 0.0752751
-0.0143143 0.247619 0.503303
-0.00340193 0.35383 0.340627
0.00723374 0.160196 0.446013
-0.00839767 -0.425844 0.288466
-0.0113763 -0.289833 0.187264
-0.00847342 0.436654 0.0817873
0.0051396 -0.380158 0.0491013
-0.00401537 0.119154 0.197696
0.0722653 0.0296753 0.128995
0.00505231 -0.231123 0.101102
-0.00708658 0.248647 0.0828787
-0.015328 -0.340973 0.172381
0.00737898 0.119213 0.177989
0.0143039 -0.251634 0.38673
0.0115135 0.30664 0.265042
0.00117338 -0.130144 0.461605
-0.0146726 -0.268749 0.133049
0.00682489 0.451851 0.264815
-0.00221992 -0.13535 0.298584
-0.0365941 0.290766 0.192744
-0.025119 0.0151608 0.214585
0.00140704 -0.378478 0.321892
-0.0182194 -0.304925 0.231907
-0.00472634 0.1471 0.105339
-0.0092549 -0.111283 0.234463
0.0119243 -0.30392 0.133531
0.012609 -0.31194 0.228562
0.00515433 -0.201469 0.345323
0.0073773 0.270755 0.0194238
0.0274261 -0.263423 0.240465
0.0150606 -0.174737 0.434678
0.00526782 -0.0631411 0.351557
-0.00716573 0.174406 0.13844
-0.0853165 0.0912999 0.295053
0.00687398 0.0631353 0.45824
-0.012662 0.343729 0.144181
-0.00513562 0.11951 0.138085
0.00756504 0.106951 0.454861
-0.0151077 -0.178719 0.456675
0.00475846 -0.323104 0.314243
-0.0154873 0.213413 0.540844
0.00685714 0.235375 0.386957
-0.00919601 -0.32734 0.356018
-0.00601428 -0.117017 0.500223
-0.0176271 0.277292 0.169913
-0.0374251 0.27732 0.128393
0.0812413 -0.209536 0.543257
-0.0113898 -0.168845 0.474961
0.0449798 0.0260475 0.123088
-0.00978145 -0.367838 0.10064
0.0100486 0.199083 0.165298
-0.0193837 0.165207 0.192494
0.00599156 -0.085062 0.404152
-0.0270188 0.0183605 0.17533
0.00630111 0.463773 0.231309
0.00748723 -0.373013 0.237969
0.00614495 -0.226732 0.0275058
0.0176624 0.0638765 0.206938
0.00607081 -0.455501 0.157631
0.00650177 -0.227909 0.362168
-0.00254117 -0.304576 0.351851
0.00431811 0.464879 0.120503
-0.00916203 -0.397686 0.320856
-0.02619 0.265972 0.22932
-0.094123 -0.164899 0.494341
-0.0800701 -0.180101 0.499343
-0.0090952 -0.20627 0.0440253
-0.0158169 0.17435 0.518515
0.00537802 -0.433965 0.299157
0.0309868 0.226385 0.528742
-0.00179467 -0.0977634 0.384402
-0.00850071 -0.267074 0.0132703
-0.00665387 0.460405 0.265327
-0.0156016 -0.256002 0.389389
-0.015835 0.158568 0.550104
-0.0278517 0.307578 0.159372
0.00206161 0.166837 0.103842
0.000492645 -0.138779 0.254314
0.00737632 0.37237 0.041154
-0.00466812 0.305956 0.353189
-0.00878004 0.281959 0.289245
-0.00782064 0.437108 0.300172
-0.0115474 0.0913022 0.205938
0.011015 0.271783 0.108547
0.0073798 0.24969 0.355607
0.00550946 0.448645 0.0901652
-0.0151321 -0.246211 0.1524
-0.00540312 0.367702 0.359736
0.0102587 0.16292 0.347596
-0.00844535 -0.384556 0.27226
0.00178706 -0.165203 0.447217
-0.00931798 -0.0803492 0.393597
0.00499407 0.328522 0.0140518
0.00981336 0.242355 0.106948
-0.00805694 0.192707 0.331924
-0.0124885 -0.203726 0.15631
0.00719289 -0.00166763 0.287672
-0.00809584 -0.258157 0.365764
0.00713238 -0.14436 0.521338
0.0164773 0.274273 0.160563
-0.00672882 0.138314 0.441704
-0.00492633 0.22516 0.0132221
0.00528694 0.257654 0.316096
-0.000322038 0.290466 0.0240238
0.0262047 -0.225833 0.352859
-0.0106069 0.346516 0.25441
0.00431116 0.11926 0.311821
0.00162413 0.189268 0.369478
-0.0801281 -0.197667 0.574562
-0.00549704 -0.126608 0.216971
-0.0271413 0.208159 0.242496
0.0351011 0.257047 0.199059
0.0797456 -0.140267 0.492943
-0.00874413 0.122011 0.259185
-0.0795889 -0.195858 0.502216
-0.00775009 0.273478 0.368337
-0.00935666 0.298182 0.0924318
-0.00404704 -0.240309 0.00992028
-0.00944203 -0.12932 0.280063
-0.0307012 0.250481 0.140884
-0.0101254 -0.130633 0.103382
0.00737769 0.450888 0.244305
-0.0787723 -0.167186 0.590614
-0.0315623 0.26765 0.106599
0.0132266 -0.27703 0.236751
0.00812181 -0.0133729 0.309491
0.00348621 -0.360938 0.0720688
0.00408894 0.271053 0.375178
0.00712388 0.0127751 0.270618
0.0848021 -0.232869 0.531073
-0.0233585 0.0281641 0.23847
0.0834968 -0.215659 0.510918
-0.00200328 -0.0556229 0.379314
-0.0346515 -0.241808 0.316799
0.000997298 -0.144985 0.555436
0.00592393 -0.111838 0.159943
-0.00920606 -0.458271 0.215692
-0.00338867 -0.0299818 0.349882
-0.0301604 0.319509 0.203931
-0.00111864 0.142109 0.406269
0.0242781 -0.263636 0.275908
0.0215547 0.15881 0.377591
0.0643566 0.382528 0.169123
0.09205 -0.149486 0.501125
-0.00192701 0.124142 0.277572
0.00616238 -0.317123 0.364316
0.00737653 0.214118 0.0378504
-0.0154576 0.1089 0.252595
-0.00927517 -0.136702 0.441749
0.00474622 -0.152916 0.492764
0.00738183 0.391766 0.0455023
-0.0023225 0.193099 0.0556769
0.0263749 -0.281101 0.202957
-0.0326687 0.274953 0.195691
-0.0241453 0.315059 0.179688
-0.00993009 -0.347695 0.363441
-0.00589322 0.0950943 0.281165
9.97412e-06 0.33727 0.345496
0.0054994 0.472787 0.228778
-0.0228876 0.241457 0.256507
0.00556442 0.433245 0.294917
0.00746495 0.384737 0.134421
0.00439048 0.36235 0.0162724
0.00719648 0.380716 0.247801
0.00382217 -0.166428 0.079374
0.00198297 0.289872 0.352636
-0.0234736 -0.193656 0.389462
0.00612263 -0.42877 0.0873281
0.00570806 0.426274 0.0919048
-0.00425793 -0.175982 0.325808
0.0071117 0.304193 0.369438
-0.00403002 -0.121841 0.309335
-0.0086544 -0.155494 0.290841
0.00270741 0.0466635 0.221553
-0.00693706 0.140806 0.549515
0.0540586 -0.174672 0.587759
0.00166559 -0.16074 0.463561
-0.00789446 0.289058 0.00992467
0.02128 -0.193704 0.390965
-0.0207252 0.251417 0.535701
-0.0453287 0.258097 0.142643
-0.00426635 0.277734 0.344923
0.0438763 0.298246 0.168483
-0.00824583 -0.453515 0.119148
0.0191058 0.283258 0.178192
-0.00685504 0.385872 0.340163
-0.0078858 -0.46825 0.136359
0.00620412 0.197338 0.509804
0.00735527 0.153709 0.0671513
0.00608514 -0.128262 0.242794
0.00738088 0.199894 0.336336
-0.0195072 0.291352 0.171533
0.00725863 0.255674 0.0109095
-0.031127 0.0810147 0.144484
0.00609585 -0.36932 0.341255
-0.00719466 -0.322129 0.0270638
-0.00318464 -0.16863 0.595597
-0.00989149 -0.197834 0.347563
0.0246923 0.196626 0.20208
-0.0196651 0.298272 0.182995
-0.00736659 0.39075 0.0534049
-0.00636753 0.119977 0.350433
0.0822182 -0.226988 0.545964
-0.00572873 0.152599 0.281459
-0.0270188 0.116778 0.196247
-0.0270188 0.0609803 0.199145
-0.025119 0.0329104 0.176313
0.00607168 -0.413602 0.0752495
0.00382952 0.448169 0.139156
-0.00466216 -0.283929 0.354935
0.00432042 -0.103693 0.196883
0.00384868 -0.101444 0.270609
0.014115 0.301415 0.147447
-0.0112001 0.295285 0.393622
-0.0129631 0.348058 0.162996
-0.0321877 0.219352 0.113135
0.0162951 0.0699588 0.192038
-0.0250167 -0.227399 0.343171
0.0136165 -0.315789 0.148622
-0.0142452 -0.339252 0.232333
-0.0085551 0.468386 0.146588
0.00491305 0.18574 0.469075
-0.0135685 0.0663131 0.213061
0.0842863 -0.206089 0.525237
0.00328794 -0.0943407 0.497117
0.0318548 0.310101 0.188082
0.00474901 -0.382483 0.352413
-0.00556475 0.456782 0.187176
-0.00593451 0.01551 0.296823
-0.00388118 0.221184 0.363588
0.00251936 0.351881 0.0355408
-0.00593684 0.401478 0.0636077
-0.025119 0.0691693 0.24901
0.00669001 0.231243 0.539622
0.00447303 -0.284129 0.36921
0.0359363 -0.225479 0.338167
-0.0154102 0.231815 0.184022
0.00893302 0.0745495 0.238113
0.00489167 -0.394689 0.0599204
0.00432216 -0.353847 0.286532
-0.0296543 0.281767 0.157176
-0.00601934 0.0550498 0.252431
-0.00756992 -0.211814 0.337469
-0.000973695 0.212998 0.380693
-0.00851002 -0.467735 0.244212
-0.0082548 0.311498 0.371486
-0.00603111 0.406645 0.323497
-0.0348861 -0.200327 0.378647
0.0175531 0.279327 0.213086
0.0120168 0.350294 0.154604
-0.0159839 0.0519248 0.203649
0.0111615 0.0828312 0.214473
-0.00208202 0.105304 0.324222
-0.0268169 -0.202614 0.406683
-0.0278137 -0.171021 0.587722
0.00555922 -0.350745 0.0213137
-0.0188222 0.219638 0.28624
-0.00220258 -0.405226 0.041899
-0.00797939 0.461628 0.204333
0.00737925 0.392359 0.326344
-0.00799231 0.419578 0.302526
-0.000774253 -0.336694 0.0331658
-0.00133066 -0.153997 0.478535
-0.0303159 0.301448 0.219038
0.00613221 -0.130107 0.121789
-0.0045154 0.157425 0.302649
0.0028953 -0.402803 0.257155
-0.0347819 0.0747178 0.204611
-0.0181602 0.275229 0.200872
0.0904338 -0.173192 0.504138
-0.00703181 -0.477159 0.186779
-0.0102272 0.188232 0.446698
0.00737701 0.435089 0.275556
-0.00148205 -0.114778 0.26122
-0.00787306 0.199479 0.0444041
0.00349213 0.227463 0.0354556
0.0147904 0.295333 0.190164
-0.0303308 0.0975633 0.141631
0.00091465 -0.13921 0.571237
-0.000313887 0.16909 0.333577
-0.0630028 -0.162477 0.583364
0.0121942 -0.341306 0.159533
-0.0290027 0.0455914 0.202441
-0.0305625 0.270709 0.17786
-0.00556841 0.176628 0.438276
-0.0160305 0.105683 0.213992
-0.0860022 -0.222262 0.527976
0.00394155 0.117289 0.162127
0.0413463 0.045388 0.152914
-0.00806961 0.21645 0.345629
-0.00921789 -0.439953 0.109327
-0.00670158 -0.17054 0.0467649
0.00368778 -0.185559 0.445844
-0.000185828 0.110077 0.336754
-0.0133523 -0.258223 0.11222
-0.0168349 -0.294261 0.246474
-0.0099476 -0.110228 0.421785
0.00438009 0.152695 0.214476
-0.00801438 -0.456924 0.200529
0.0051191 -0.277383 0.0117628
-0.0326324 0.106484 0.165031
0.00592826 0.157874 0.525061
-0.0307012 0.261325 0.130587
-0.00823721 -0.152892 0.316247
0.00572709 -0.170342 0.0574883
0.00457014 -0.154396 0.0748641
-0.00694832 -0.110933 0.190685
-0.00908433 -0.417181 0.0654269
-0.0162531 -0.31244 0.248091
0.00498055 -0.0389647 0.485252
0.00499094 -0.150484 0.28254
-0.00756009 -0.439571 0.0920705
0.00656647 0.31369 0.309379
0.0143378 0.222981 0.50422
-0.077253 0.109658 0.281435
0.00281536 0.085391 0.465283
-0.00596836 -0.377959 0.0374694
-0.00668882 -0.139308 0.515708
-0.00318527 -0.148492 0.506708
-0.008978 -0.458647 0.184698
-0.0233585 0.0766772 0.16122
0.00128614 0.154528 0.270514
-0.0229878 0.172448 0.354175
0.0077848 0.217636 0.0219872
-0.0200647 -0.177031 0.435803
0.0766477 0.0133667 0.139134
-0.0167417 -0.231779 0.195705
0.0255501 -0.295853 0.193656
-0.00872266 -0.229302 0.0334867
0.00712473 -0.0399389 0.330445
0.0125634 0.348299 0.22423
0.0165263 0.310549 0.196189
0.00367577 0.176627 0.0563572
0.00738002 0.125467 0.136094
-0.0332825 0.0202673 0.250189
0.00610227 -0.220391 0.346845
-0.0270188 0.0818403 0.197063
0.00483854 -0.39907 0.162343
0.0281866 0.0575037 0.207678
-0.00590681 0.253751 0.0256947
-0.00942664 -0.0375906 0.330979
0.00614647 -0.182379 0.0526152
0.00371022 -0.190589 0.338445
0.0867885 -0.230762 0.519548
-0.00916525 0.390502 0.233399
0.00490633 -0.4637 0.255346
0.0244982 -0.162768 0.597426
-0.00931989 -0.44804 0.259694
-0.00472505 0.467146 0.175131
-0.0209674 -0.27901 0.180132
-0.0303159 0.22999 0.234639
-0.00619092 0.137099 0.25463
-0.00160208 0.13726 0.129438
-0.00755982 -0.176531 0.147218
-0.00398571 -0.455822 0.231831
-0.0863916 -0.197526 0.513759
0.00390318 0.0602377 0.211138
-0.017495 0.253977 0.17792
-0.00788594 0.433973 0.0964377
-0.00934387 -0.205482 0.0280078
0.00748154 0.123443 0.452087
-0.00932595 -0.0382076 0.480439
-0.00920911 -0.458182 0.162084
-0.00318684 -0.441834 0.28051
0.00737807 0.139358 0.109163
0.0259024 -0.202724 0.40641
0.00752039 0.149929 0.413419
0.00580394 -0.113057 0.210789
-0.0329039 -0.283585 0.212013
-0.0116017 0.320081 0.263875
0.0172325 0.0552839 0.194374
0.00626971 0.475418 0.176462
0.00597514 -0.117116 0.148132
0.00194618 0.44349 0.128182
0.00519028 -0.455183 0.273831
0.0266868 -0.212885 0.382357
0.000479301 -0.358984 0.0409488
0.0169938 0.196758 0.543059
0.00350943 0.211976 0.510367
0.0683288 -0.166874 0.594838
-0.0290027 0.0491512 0.157428
-0.00821392 0.457014 0.118195
-0.0340414 0.300783 0.115384
0.00717284 0.427503 0.0672769
-0.00966746 -0.0961468 0.255871
-0.00971634 0.106659 0.304321
0.00546657 -0.130998 0.106682
-0.010718 0.229412 0.539739
-0.0240853 0.277089 0.209215
0.0117567 -0.339487 0.178332
0.0304488 -0.20002 0.372385
0.00262404 -0.141796 0.117163
-0.00895271 -0.332833 0.0161485
-0.0183869 -0.263081 0.223797
0.00464033 -0.43983 0.0937111
-0.00318574 0.0512822 0.454951
-0.0100568 -0.41494 0.323324
-0.00999954 -0.0450388 0.347766
0.0120727 0.232839 0.202782
-0.0270188 0.0297992 0.208832
0.0181585 -0.294511 0.178755
-0.00107 0.137126 0.395408
-0.00797246 -0.156856 0.5913
-0.0933519 -0.142197 0.497385
-0.00792744 0.459305 0.216605
-0.034202 0.217436 0.5166
-0.00628375 0.369074 0.0410029
-0.00458551 -0.187441 0.308878
-0.0105255 0.325873 0.102166
-0.0323878 0.287607 0.11687
-0.0135129 -0.356085 0.247174
-0.0591577 0.102428 0.293269
-0.0344871 0.25092 0.107556
0.00153259 -0.171193 0.497597
-0.00794328 0.271889 0.0175868
-0.000504073 -0.24442 0.3941
-0.0100703 -0.010453 0.473931
0.00692339 0.346928 0.0186934
-0.00162938 0.3296 0.354978
0.00241644 -0.164347 0.583222
-0.00917106 -0.378372 0.352766
0.0120731 0.304811 0.131636
0.0073804 0.407752 0.315464
0.0923451 -0.19902 0.568621
-0.0054441 0.372476 0.0208024
0.00110758 0.133676 0.338975
0.014275 0.328637 0.199189
0.00989733 -0.14465 0.333986
-0.0332825 0.116711 0.182077
0.00198208 -0.402224 0.114975
0.00607405 -0.457509 0.212325
0.0117192 -0.343577 0.220734
0.000241992 0.310439 0.0252809
-0.00199331 0.21461 0.49851
-0.025119 0.063795 0.187498
0.01929 0.211441 0.291645
-0.0135512 0.197471 0.543509
-0.00771086 -0.14617 0.572772
-0.0270188 0.0181092 0.198517
-0.0332825 0.11279 0.242889
-0.00808847 0.119855 0.152529
0.042261 -0.159281 0.592245
0.00677103 0.407331 0.0530713
-0.00805688 -0.283682 0.0114061
-0.0173859 0.231514 0.502772
-0.00117726 0.107609 0.280823
-0.0020709 0.2887 0.377272
-0.00786863 0.449523 0.247316
-0.0289547 0.0574188 0.219516
0.0312089 0.231508 0.511979
0.00582417 -0.205587 0.247038
-0.0247155 0.166978 0.203082
-0.00502556 -0.243571 0.355318
-0.00689285 0.148525 0.336022
-0.0181421 0.288992 0.210453
-0.00965674 -0.467836 0.225941
0.00207823 -0.24929 0.036806
-0.00405198 -0.125898 0.174903
-0.0080571 0.392269 0.328654
0.0293496 0.0733403 0.205762
0.0881568 0.0311608 0.126982
-0.00705223 -0.401239 0.0666796
-0.0094149 -0.143277 0.0898328
-0.0118476 0.216628 0.183096
-0.0290027 0.109691 0.217242
-0.00657858 -0.428352 0.0795354
-0.00477561 0.159696 0.0865329
0.00893302 0.122316 0.346753
0.000177956 0.264258 0.393798
-0.00872788 0.306321 0.00772089
0.00792547 0.0339824 0.254276
-0.00774542 -0.44717 0.273834
0.00656638 0.235382 0.358397
0.00277634 -0.421457 0.307009
0.00267522 -0.315168 0.0577039
-0.00520784 -0.388081 0.332046
0.00401729 -0.0927661 0.417397
0.00753757 -0.129895 0.447548
-0.0816293 -0.215626 0.516952
0.00623265 -0.34128 0.102894
0.00517711 0.147908 0.309916
-0.025119 0.0838547 0.250296
-0.00457285 -0.117877 0.484913
0.00786619 -0.0890402 0.23281
0.00669816 0.319486 0.36668
0.00611419 0.244564 0.0150225
-0.0048657 -0.356797 0.347325
-0.00713126 -0.376633 0.0479231
-0.00364629 -0.233603 0.337756
0.0250612 0.239315 0.26204
0.00596894 0.112446 0.205753
0.0044781 0.0914512 0.251075
0.006087 -0.179758 0.334879
0.0571562 0.0317124 0.128842
-0.0295776 0.280077 0.182577
0.00432816 0.179073 0.324959
0.00284733 0.111037 0.245574
0.00490338 0.201 0.0340745
-0.00995114 -0.000349917 0.297833
-0.00823123 0.0331045 0.469734
0.00374251 -0.137812 0.283399
-0.0034506 0.0928057 0.294912
-0.0450253 -0.167715 0.596433
-0.00955682 -0.121114 0.137774
0.0239919 0.178912 0.202389
0.0127863 0.050813 0.208985
0.0277583 0.281998 0.202133
0.0019389 -0.353751 0.367615
0.0021603 -0.200884 0.0604282
0.00574802 -0.0755903 0.366762
-0.0291884 -0.259551 0.250643
0.00625492 -0.455446 0.115963
-0.025119 0.0708455 0.219396
0.00337462 -0.363909 0.351878
0.00736443 -0.040792 0.349121
-0.00722555 -0.148825 0.525387
0.0318548 0.277862 0.18643
0.00738146 0.356725 0.349635
-0.025119 0.0417621 0.225371
-0.0101808 0.0498556 0.239003
-0.0115363 0.072688 0.223651
-0.00589322 0.0659459 0.215361
-0.0279156 0.0499459 0.263797
0.0109274 0.0714502 0.203516
0.00607655 -0.396197 0.321579
0.00608139 -0.458594 0.174262
0.00120363 -0.0783489 0.494285
-0.0243388 0.213861 0.200594
-0.00101014 0.209836 0.542466
-0.0286227 0.27959 0.226829
-0.00106276 0.0637012 0.225466
0.0282887 0.212315 0.528412
-0.0233585 0.0743193 0.235428
0.00287971 0.18574 0.51355
-0.00931248 -0.311899 0.019169
0.00387738 -0.00738617 0.322481
0.00614044 -0.169955 0.31643
0.00628669 0.236631 0.346559
-0.00591614 0.155311 0.318886
-0.00857709 -0.19671 0.329942
-0.0856674 -0.230923 0.547974
-0.00817813 0.115422 0.169879
-0.00279133 -0.398603 0.31341
-0.000138701 -0.128398 0.582214
0.00536892 -0.380083 0.0303047
0.00880732 0.1499 0.551517
0.00715505 0.144974 0.0809655
-0.0184616 0.302403 0.205471
-0.00883268 0.18629 0.0393609
-0.00420025 0.337063 0.021591
-0.00982198 -0.179261 0.464591
-0.00942446 -0.132567 0.265657
-0.00353683 0.10398 0.445618
-0.00895145 -0.433847 0.278263
-0.0340053 -0.248499 0.302612
-0.0129492 0.237943 0.383779
0.0378602 0.270642 0.181872
-0.00686649 0.235605 0.0300279
-0.0233585 0.0978274 0.222734
-0.00209695 0.435163 0.134404
-0.025119 0.0831242 0.16595
-0.0200704 0.30354 0.190159
0.00908689 0.382012 0.211947
-0.0146376 0.264836 0.38642
0.0802187 -0.207182 0.568745
-0.00721425 0.438795 0.109741
0.00345085 -0.444634 0.131255
-0.0256759 0.173828 0.247705
0.00840402 -0.310559 0.268089
-0.00541086 0.13858 0.282586
0.00477872 -0.207661 0.0250648
0.00199381 0.412885 0.298306
-0.0137029 -0.375917 0.184074
0.00226487 -0.216047 0.383563
-0.0072405 -0.403843 0.140523
-0.0380624 0.086582 0.261203
-0.0356743 0.289618 0.166528
-0.0208234 -0.282426 0.200529
-0.0136654 0.312202 0.129494
-0.00713853 -0.163876 0.52649
0.00891106 0.179714 0.361389
-0.00719776 0.0574242 0.212113
0.0173578 0.180751 0.527135
-0.0803014 -0.210495 0.557489
-0.0245283 0.0341665 0.247643
0.00741531 0.0138277 0.471618
-0.0208234 -0.293482 0.19952
0.00746494 0.373335 0.0260946
0.00841565 -0.177452 0.454996
0.00248346 -0.16154 0.352736
-0.00821047 0.371462 0.345095
-0.012824 0.20813 0.496741
-0.0374251 0.300997 0.104603
-0.00818165 -0.246863 0.306358
0.0102439 -0.152423 0.530276
-0.0418848 0.267751 0.134579
0.00737695 0.436957 0.103799
-0.00191327 0.446209 0.200037
-0.00200562 -0.195756 0.374631
-0.0029609 0.42257 0.0756831
0.0943181 -0.187776 0.497672
0.0145434 0.27665 0.144117
-0.0198937 -0.289551 0.175085
0.00703462 0.228432 0.283029
-0.0314029 0.00554764 0.220488
-0.00550769 0.120804 0.458992
-0.00348041 0.161249 0.434312
-0.025119 0.0208274 0.185326
0.00615576 -0.181443 0.168141
0.000522705 0.178979 0.0676889
-0.0224394 0.202276 0.512297
-0.00207936 -0.187622 0.455462
-0.0280487 0.243189 0.230011
-0.0325889 0.0700192 0.269834
0.0173066 -0.284389 0.196254
-0.00703726 -0.421012 0.179679
0.00610387 -0.450943 0.248383
0.0109319 -0.123802 0.30489
0.0257026 0.263109 0.191
0.00509276 0.0621308 0.241785
0.0114253 0.111199 0.273322
-0.00809056 0.446455 0.266224
-0.00988745 -0.111543 0.158301
0.0087879 0.204547 0.3752
-0.0138126 -0.243394 0.24759
-0.00971634 0.169186 0.4499
0.00581128 0.0783015 0.453684
-0.05315 0.0955049 0.305588
0.00845729 -0.380096 0.210771
0.00893302 0.0951502 0.28471
-0.0234073 -0.245832 0.288829
-0.00949494 -0.0941327 0.407568
-0.00674998 0.476429 0.179526
-0.00429071 0.181459 0.457732
0.00893302 0.111145 0.325204
0.00311145 0.154854 0.293659
0.0541137 0.343244 0.171669
0.00621387 0.25127 0.506992
0.00589479 0.116893 0.231253
-0.0132561 0.109189 0.201392
-0.0026665 0.126819 0.208296
0.0179954 -0.195858 0.415553
-0.0248872 -0.211931 0.375722
0.0211322 -0.252292 0.283255
-0.089323 -0.176257 0.589909
-0.0898494 -0.198317 0.563691
-0.0295776 0.262793 0.188619
-0.000595982 -0.462689 0.146633
0.000741296 0.13121 0.289731
0.0214147 -0.262731 0.256772
-0.000345031 -0.13128 0.556539
-0.00942755 -0.359885 0.0211701
0.00566757 -0.388939 0.0417156
-0.0263885 -0.182092 0.422544
-0.0274586 -0.277035 0.230597
0.0297354 0.289687 0.17373
0.00737609 0.244606 0.366227
0.000718454 -0.109925 0.243811
-0.00480995 0.243273 0.359205
0.0161941 0.301008 0.225448
0.0287636 0.304337 0.170434
0.00737837 0.142832 0.274093
0.00737773 0.198761 0.0446753
0.0051099 0.173073 0.449172
0.00743256 -0.064748 0.375403
0.00710456 -0.0574081 0.484782
-0.0740082 -0.174671 0.580285
-0.0100642 -0.333001 0.368054
-0.0347819 0.0672798 0.21438
-0.00902356 0.251805 0.277851
-0.00728034 0.259286 0.0125337
0.000934185 -0.427122 0.0989629
-0.00986917 -0.125506 0.43409
0.00219561 0.117693 0.293709
0.00605958 -0.430214 0.0729798
0.0266601 -0.276684 0.234984
-3.26185e-05 -0.205101 0.330889
0.00271122 -0.320951 0.352708
-0.000904235 0.47868 0.204496
0.00722933 0.335206 0.360713
-0.0250255 0.179609 0.192141
-0.0939736 -0.129982 0.491655
-0.0326687 0.299987 0.193341
0.00410374 0.263046 0.364122
-0.0112066 0.296873 0.108735
-0.0077578 -0.273681 0.36825
-0.00945861 -0.296186 0.015406
0.0473271 0.0166454 0.136796
0.00629653 0.133553 0.31755
0.0130848 0.1555 0.540107
-0.00616767 0.330301 0.00657857
0.00738972 -0.0960218 0.396578
-0.00556628 -0.152534 0.302929
0.0137351 0.0987734 0.214183
-0.0273571 -0.157591 0.591986
-0.0244021 -0.230164 0.330091
-0.00718933 0.417968 0.314472
-0.0243181 0.0225122 0.225359
0.0508 0.0370761 0.125679
0.00157829 0.0707101 0.467883
0.00156088 -0.347923 0.344379
-0.00746018 -0.0607606 0.47825
0.0251728 0.256406 0.517289
-0.00703799 0.122509 0.183675
0.00141388 -0.446623 0.240838
-0.00393687 -0.453754 0.283407
0.00578727 0.14277 0.442224
0.00606596 -0.420201 0.296975
-0.0667551 0.109917 0.275444
-0.0241353 0.155201 0.198406
0.0207675 0.19316 0.335041
-0.00477366 0.141289 0.0923344
-0.0336135 0.292856 0.178383
0.00172638 -0.194214 0.0464782
-0.00476826 0.12809 0.11819
-0.00135106 0.136598 0.0793194
0.0154562 0.320582 0.171964
0.00451817 0.467393 0.199113
-0.00316098 0.204981 0.329025
0.00606342 -0.334723 0.36199
0.00893302 0.104644 0.297237
0.0124925 0.283963 0.392543
0.00615008 -0.115305 0.179316
-0.010139 -0.396604 0.231986
-0.00646296 -0.451677 0.15391
-0.0044949 0.128334 0.310714
0.000627445 -0.104002 0.216024
0.0720098 -0.175635 0.580451
0.00228304 -0.26356 0.0270234
-0.0216499 0.236628 0.538815
-0.000908022 0.0835684 0.278194
0.021477 0.225987 0.18888
-0.00582182 0.25359 0.511644
0.00409447 0.435466 0.307746
-0.00276478 -0.0690204 0.393783
-0.00943675 -0.123678 0.268253
-0.0092741 -0.160912 0.067523
-0.0260273 -0.262319 0.278619
0.00533037 -0.131588 0.490014
-0.0255373 0.261757 0.216074
-0.0152921 0.0767076 0.206422
0.00615278 -0.294362 0.0150266
0.00595681 0.0435524 0.460095
0.00893302 0.161418 0.417959
0.00738312 0.291261 0.011616
-0.0155268 0.185411 0.356261
0.00470042 -0.0308719 0.313356
-0.0240853 0.285719 0.196003
0.0378602 0.253528 0.186332
-0.00252831 0.416912 0.049443
0.00539017 0.418747 0.221789
-0.0186803 0.205079 0.304066
-0.00768093 0.178406 0.326787
0.00758929 0.396102 0.166448
-0.00171199 0.147699 0.369476
-0.00864527 -0.125856 0.154393
-0.00728941 0.107771 0.156727
-0.00546693 0.111604 0.182813
-0.0229961 0.264856 0.204022
0.0187852 0.0734145 0.208622
-0.00179489 0.22914 0.502937
0.0291005 0.247245 0.185012
0.00587567 -0.0956829 0.484613
-0.0229961 0.310191 0.197991
0.0172907 0.0594769 0.216276
-0.00275091 -0.436856 0.245323
0.0234743 -0.158404 0.585418
0.00785745 -0.0562056 0.362016
0.006364 -0.0111367 0.470498
0.00528512 0.395687 0.127757
-0.00824506 0.135656 0.101693
-0.00971634 0.16003 0.415365
0.0133905 0.266828 0.230321
0.0207227 0.207141 0.188094
-0.0736546 0.0933137 0.299805
-0.00703571 0.0927187 0.256323
-0.0241339 0.29364 0.160424
-0.00715461 0.006835 0.46574
-0.00406776 0.124801 0.235162
0.0251147 -0.240062 0.318285
-0.00611368 -0.235183 0.0213387
0.022723 0.254061 0.529489
0.0123458 -0.277695 0.138292
-0.00951287 -0.114727 0.218638
0.00395618 0.162888 0.30792
0.0136627 -0.271842 0.224285
-0.00949488 -0.295509 0.366136
-0.00863093 0.117746 0.246684
-0.0127575 0.256335 0.521817
-0.0269282 0.316508 0.167749
-0.0266826 0.249823 0.504091
-0.00830267 0.467992 0.234788
-0.033803 0.0769496 0.240984
-0.00869999 0.392641 0.0376201
-0.00472341 -0.138089 0.202432
-0.00824716 -0.438036 0.291447
0.0071907 0.0263181 0.469801
0.00759472 -0.150422 0.459643
0.0831168 -0.203487 0.557134
-0.00396095 0.352948 0.046195
0.0858013 -0.185543 0.508061
-0.00971634 0.149944 0.396389
-0.00801329 0.351141 0.34976
-0.0100322 -0.0668158 0.372012
0.00772996 -0.146518 0.57606
-0.00331847 0.207364 0.357488
-0.0303159 0.110545 0.260049
0.0016026 -0.00101402 0.27523
-0.00351312 -0.218106 0.0351004
0.0051099 0.151571 0.399168
0.0776045 -0.187687 0.585619
-0.00558598 -0.171157 0.456056
0.0891679 -0.207852 0.503076
-0.00457828 0.317179 0.0142855
0.0262641 0.258462 0.172086
0.00621486 -0.0229494 0.480244
0.0011579 -0.342289 0.0105454
0.000972644 -0.142535 0.527517
-0.000418142 -0.0859101 0.479251
0.00454782 -0.265709 0.375486
-0.0241455 -0.250244 0.276693
-0.00971634 0.130786 0.344222
0.00588146 0.466347 0.159648
-0.00436189 0.224839 0.026701
-0.00696877 -0.417405 0.0537068
-0.0487561 0.108561 0.279908
-0.0408929 0.286196 0.148684
-0.0398136 0.102649 0.278192
-0.025119 0.100692 0.241484
-0.025843 0.21287 0.186782
0.00302806 0.430483 0.22466
-0.0318146 -0.191291 0.408585
0.0215065 0.225337 0.269154
-0.0217954 0.126896 0.20794
-0.0136858 -0.123289 0.301864
-0.00350296 0.148342 0.125604
-0.0290027 0.0481239 0.172341
-0.0113464 -0.13531 0.322728
-0.00454173 0.263635 0.361747
-0.0290027 0.0932877 0.185828
-0.00805409 0.431505 0.289269
0.0165465 -0.306045 0.187867
-0.000783185 0.244378 0.0306494
-0.00688226 -0.10432 0.167729
-0.0222804 0.223573 0.54011
-0.0213302 0.180524 0.527535
-0.00751036 -0.104863 0.278579
-0.0050045 -0.150167 0.34274
0.00612077 -0.435802 0.283064
0.00564874 -0.0242765 0.336787
-0.00257322 0.132452 0.372429
-0.0870459 -0.188237 0.5894
-0.0217432 0.169052 0.371342
0.0465756 -0.166768 0.582357
-0.0803052 -0.207046 0.507938
0.0227471 -0.223399 0.339489
0.00198847 -0.133691 0.232296
0.00783239 -0.121453 0.42896
-0.00915577 -0.177821 0.363374
-0.00469243 0.225135 0.328416
-0.00385413 0.247054 0.347469
-0.0332825 0.024148 0.167342
-0.000701874 -0.394972 0.0343314
-0.0110208 -0.219877 0.13107
0.00569203 -0.289349 0.35802
0.0261495 -0.272385 0.248473
0.00612407 -0.116764 0.195625
-0.0061479 -0.145856 0.293633
-0.00424878 -0.44171 0.120127
0.00472027 0.394482 0.344555
-0.0138873 -0.145971 0.516048
0.0907141 -0.197362 0.580435
0.00994153 0.0705171 0.215003
0.0218417 -0.208312 0.371063
0.0558845 0.0213602 0.129013
0.0061361 0.440949 0.285958
-0.000989281 0.0484723 0.209065
0.0797152 -0.151439 0.497272
-0.00676451 -0.214234 0.352281
-0.00710085 0.170045 0.0713441
0.0693947 0.0101718 0.12926
-0.0327517 -0.22237 0.362001
0.0321727 0.0523009 0.179437
0.00351018 0.213046 0.303782
-0.00790948 0.136401 0.114341
-0.0119997 0.160973 0.374265
0.00971645 -0.151165 0.512122
-0.0843983 -0.174179 0.489968
0.00364117 0.384559 0.334517
-0.00882055 -0.0214274 0.478356
0.0941088 -0.130776 0.49289
-0.00941236 0.109965 0.454043
0.0927197 -0.142713 0.491386
0.00339014 0.131764 0.119793
-0.0914799 -0.201074 0.498925
-0.0334059 -0.214507 0.342644
0.00526034 0.468081 0.131871
-0.0256759 0.148516 0.253604
-0.0200275 -0.303093 0.174075
0.00763464 -0.14162 0.495844
0.000551642 -0.105948 0.230565
-0.0927572 -0.177468 0.502496
-0.00368505 0.217651 0.0400145
0.00385313 -0.178595 0.266611
0.00189182 -0.137962 0.0815799
0.00362606 0.225433 0.349176
-0.0307012 0.250076 0.129714
0.040563 0.0378036 0.161913
-0.00780885 0.452004 0.236525
-0.00741079 -0.17302 0.242172
0.00737651 0.158185 0.083739
-0.018347 0.307487 0.172781
-0.00079013 0.00790219 0.263391
-0.0224433 0.139525 0.20669
0.0038972 -0.0545159 0.473842
-0.00929792 -0.306421 0.361282
-0.0280875 0.2197 0.240519
-0.0273556 0.288396 0.184834
-0.0270188 0.00499865 0.209027
0.00510616 0.190499 0.479779
-0.0270188 0.0662565 0.259778
-0.0073854 0.376755 0.114521
-0.0787191 -0.187912 0.581174
0.00342007 -0.466199 0.165783
-0.0037884 0.17759 0.469717
-0.00589322 0.127603 0.356905
-0.00889605 -0.300908 0.31809
0.0149474 -0.157921 0.521394
-0.00216641 -0.446501 0.14132
0.00575405 0.0412096 0.233909
0.0051099 0.14451 0.388812
-0.0050093 -0.123357 0.229382
-0.00908629 0.0302541 0.250711
0.0173066 -0.29652 0.199247
0.00526391 -0.334578 0.351469
0.00613725 -0.257093 0.360938
-0.00500792 -0.149841 0.136912
0.036374 0.0499057 0.162398
-0.00255519 -0.121138 0.23969
0.00240761 -0.115981 0.122009
-0.01544 -0.0948014 0.232397
0.0072016 -0.0927082 0.244861
-0.0100574 -0.15439 0.470409
-0.00553535 -0.132281 0.116287
0.00012874 0.154095 0.058274
0.0134479 -0.247098 0.177836
0.00589712 -0.404022 0.053133
0.00476728 0.112514 0.187615
-0.00899635 -0.133011 0.251054
-0.028838 0.0879879 0.219291
-0.00484978 -0.174757 0.308215
-0.0101791 -0.076816 0.381876
-0.0328294 0.246003 0.53461
-0.00847352 -0.169021 0.0593649
0.00609941 -0.241048 0.354003
0.00176524 0.281423 0.39596
0.0861157 -0.181515 0.590379
-0.000959948 -0.192112 0.35211
-0.00938178 -0.0954355 0.396102
-0.00802874 -0.114005 0.411051
-0.0843969 -0.236717 0.525826
0.021528 0.148822 0.194855
0.00702814 0.466286 0.21938
-0.00202808 0.207141 0.344653
-5.84493e-05 0.0216835 0.248161
-0.00738837 -0.0976318 0.494372
-0.0308265 0.254297 0.22892
-0.00638294 -0.128426 0.501595
-0.00268044 -0.23049 0.355761
-0.0063283 -0.340534 0.348266
0.00743921 0.00293367 0.299343
-0.000818044 0.385879 0.0455632
-0.00478346 0.46616 0.16388
0.00730816 0.166511 0.0541262
0.00614097 -0.165771 0.0679983
-0.0170619 -0.326496 0.179211
0.0311062 -0.25784 0.284169
0.00700324 0.114041 0.136626
-0.00577092 -0.417365 0.310558
-0.00589322 0.114494 0.326313
-0.0123346 0.0666365 0.204307
-0.027332 0.0396744 0.151498
-0.00786924 -0.248841 0.0164401
0.0132679 0.320457 0.242425
-0.0071272 0.112773 0.213864
-0.00786181 -0.198473 0.112899
-0.00538396 0.434017 0.271592
-0.00469283 -0.114307 0.208006
-0.0884557 -0.203914 0.579055
-0.0232259 0.0710709 0.206245
-0.00646978 0.411866 0.0591177
-0.000875041 0.177909 0.037206
-0.00823917 0.467773 0.187558
0.00746345 0.0923119 0.457633
-0.0249158 -0.268536 0.256032
-0.0161193 0.163917 0.522872
0.0022037 0.223275 0.384157
0.0050995 -0.450275 0.0979891
-0.00554906 -0.170996 0.335838
-0.00669292 0.107617 0.225156
-0.0941323 -0.151927 0.491792
-0.00910518 0.0349654 0.266121
-0.0251191 0.096075 0.171466
-0.00102738 0.340984 0.0318425
-0.0834904 -0.226164 0.538515
0.0258646 -0.207011 0.396058
-0.00829547 -0.27233 0.0235513
0.00261439 -0.338993 0.0217675
-0.00395476 0.357526 0.364131
0.00955988 -0.170308 0.356632
0.0128312 0.141349 0.322215
-0.00932097 -0.423645 0.299391
0.00227672 -0.322377 0.0191381
-0.0191653 0.168924 0.543234
0.00633864 0.44693 0.276691
0.00270655 -0.266623 0.0161482
0.011645 -0.172661 0.445093
-0.00229082 -0.368414 0.333959
-0.00898415 -0.00255204 0.286954
0.0798967 -0.200714 0.508834
0.0154069 0.151744 0.383616
0.0182187 0.174551 0.347972
-0.00452296 -0.35003 0.0366517
0.00867196 0.242492 0.53758
0.0046357 0.275731 0.365113
0.0909597 -0.232659 0.547317
-0.0446951 -0.171478 0.585987
-0.045908 0.271983 0.142643
0.00681044 -0.0713383 0.487766
-0.0232691 0.199761 0.202721
0.047734 -0.16771 0.596936
-0.00477233 -0.113856 0.178059
0.00971642 -0.163719 0.497822
-0.00971634 0.0795104 0.25394
-0.00520702 -0.398456 0.330981
-0.0187061 -0.294095 0.224563
0.0051099 0.0825681 0.243124
-0.0034618 -0.0761311 0.360702
-0.0270188 0.0601603 0.177252
0.00056376 -0.30709 0.36671
-0.0212955 0.23304 0.26788
0.00278428 0.127079 0.167054
-0.0810961 0.100551 0.288273
0.00237056 0.124528 0.145845
0.0173289 -0.283233 0.185627
0.00639207 -0.216007 0.358232
-0.00366151 -0.377448 0.0246183
0.0106653 0.274276 0.119244
0.0146061 0.166635 0.374281
0.0235235 0.236145 0.185273
-0.0048997 0.196646 0.509853
0.0325747 -0.247018 0.307548
-0.0198724 0.18519 0.331344
0.00793847 0.287438 0.186882
0.0150378 0.308557 0.155698
0.00608262 -0.15713 0.0846958
-0.000204636 -0.137454 0.129796
-0.00924679 -0.186278 0.054367
-0.00936592 -0.467651 0.198882
0.0287636 0.296713 0.186859
-0.000283557 0.441599 0.0983364
0.0305132 -0.260268 0.251232
0.000453548 -0.104963 0.482625
0.0127136 -0.192286 0.365196
0.00182711 0.229797 0.367133
-0.0253529 -0.232174 0.311635
-0.0276078 0.24757 0.248787
0.0051099 0.136471 0.365608
-0.0292667 0.230693 0.187449
-0.010095 -0.172692 0.586351
0.00738114 0.464168 0.178974
0.00667997 0.438351 0.0867505
-0.000461258 0.446036 0.295444
0.0232315 -0.213998 0.351697
-0.00949401 -0.245202 0.362119
0.00608368 -0.35162 0.0321637
0.00545666 0.113912 0.446753
-0.00682686 0.288447 0.367476
-0.0095149 -0.321705 0.364922
0.0309528 0.218712 0.520053
-0.0225863 0.20245 0.187536
0.013797 0.162861 0.530625
-0.00395827 0.232616 0.386688
-0.00783336 0.131527 0.245471
0.0206533 -0.204736 0.386195
-0.000754709 -0.273837 0.00338462
0.0031253 -0.128793 0.0963537
-0.0136469 -0.188472 0.426349
-0.00971634 0.148767 0.38352
-4.29322e-06 0.472443 0.14022
-0.00841662 -0.292833 0.00573061
-0.0151861 0.180938 0.346471
0.0073772 0.422498 0.0819599
0.00106515 -0.209714 0.0714067
-0.0268187 0.210009 0.536491
0.00602972 -0.384232 0.340802
-0.0311527 -0.166339 0.596967
-0.00582038 0.176908 0.0526423
-0.00672477 -0.133788 0.565968
0.00737661 0.152599 0.285143
0.0297489 0.272302 0.194188
-0.00600292 0.465678 0.22457
-0.0140957 0.255236 0.147897
0.0918643 -0.208195 0.542781
0.0942252 -0.170431 0.494504
0.00737789 0.120703 0.199088
0.00562586 -0.470434 0.195824
0.0325869 0.274367 0.205192
0.0778896 0.0398419 0.115542
0.00365372 -0.466039 0.218311
-0.0243844 -0.198828 0.380013
-0.00101821 0.147079 0.0666042
-0.0033308 0.408384 0.312326
0.00244425 -0.364754 0.0321867
-0.0124277 -0.198397 0.3711
-0.00789556 -0.131164 0.456109
-0.0233585 0.0506693 0.21687
0.0067439 0.473476 0.209777
0.00990129 -0.165908 0.60013
-0.0938641 -0.215115 0.527485
-0.0113898 -0.158926 0.515554
0.001928 0.171612 0.358064
-0.00107346 0.278181 0.355047
0.0306762 0.236207 0.532738
-0.00796022 0.457233 0.14724
-0.00668416 0.421383 0.292095
-0.00790045 0.207974 0.039071
0.00361369 -0.358358 0.341181
-0.0910934 -0.233107 0.53644
-0.0257829 0.056879 0.209362
-0.0256918 0.271893 0.196767
-0.0877064 -0.20738 0.537697
-0.0010645 0.244908 0.390119
0.00317655 -0.452042 0.223001
0.0706762 0.0393771 0.125163
0.0392055 0.0303531 0.127087
-0.0014829 0.445762 0.0828148
-0.00604807 -0.197137 0.0397416
-0.079497 -0.133082 0.493824
-0.031361 0.0134726 0.183222
-0.00268473 0.377442 0.0357536
-0.0208234 -0.284468 0.190337
-0.0332825 0.0738714 0.151875
0.00738226 0.458867 0.138895
-0.0942042 -0.212824 0.516828
0.00468076 0.175936 0.463758
0.000276473 0.139216 0.216832
-0.00277883 0.132633 0.268735
-0.00510296 0.220637 0.540856
-0.00196998 -0.0974613 0.262849
0.00580409 0.15199 0.339872
-0.0690646 -0.169171 0.59578
-0.0076186 -0.237481 0.390818
0.0261261 0.23059 0.50288
0.0244836 -0.250379 0.299812
-0.089565 -0.189398 0.507991
0.00455723 -0.0529813 0.371614
-0.0163562 0.0909033 0.215204
-0.0091467 -0.386318 0.0512702
0.0612043 0.374403 0.163379
-0.0176589 0.278905 0.222162
0.0867995 -0.15281 0.488646
-0.00999303 -0.154892 0.499377
-0.00933759 -0.117514 0.182954
0.0297077 -0.266852 0.262566
0.00611353 0.00427844 0.4756
0.00135338 -0.176531 0.0707176
-0.00666509 -0.143924 0.111748
-0.0270188 0.0724049 0.195861
-0.00444761 0.262958 0.374409
-0.00781795 0.174518 0.310885
0.0848201 0.0194679 0.136314
-0.0165716 -0.103911 0.255795
0.00154915 -0.447642 0.110997
0.00610334 -0.155104 0.295515
-0.0237635 0.117462 0.218571
0.00745123 0.146661 0.299889
-0.00159245 -0.302533 0.0156885
0.00738395 0.189725 0.334439
-0.00959282 0.104658 0.286061
0.0067253 0.402872 0.329641
-0.000523864 0.0670157 0.452165
0.0138832 -0.157967 0.581629
-0.000355356 -0.396216 0.0505904
-0.0362455 0.276501 0.10412
0.0154546 -0.321376 0.201597
0.0248583 -0.251166 0.273706
-0.00179109 -0.140395 0.433082
0.0260033 -0.268152 0.229256
-0.0781095 -0.177132 0.593155
0.00479607 -0.176382 0.044389
0.00584743 -0.237909 0.364407
-0.00339985 -0.415733 0.3311
0.00277307 -0.107333 0.150672
-0.00140734 0.352232 0.0243984
0.00276483 -0.0123214 0.288891
-0.00316037 -0.436076 0.10182
-0.00529972 -0.163482 0.296495
