-0.0156582 -0.298263 0.242374
0.00866145 0.262363 0.35024
0.00287791 0.281084 0.322837
0.0901947 -0.0318477 0.084894
-0.00587519 0.147852 0.394581
-0.000606813 0.397833 0.282476
0.00795287 0.238882 0.0145786
0.00373469 0.387764 0.291542
0.00929993 0.184428 0.297106
0.00737973 0.39511 0.0355676
-0.0355221 0.0294567 0.17328
0.00121214 0.116737 0.209154
-0.00778353 -0.357443 0.334471
0.00450551 -0.216916 0.35255
-0.0378541 0.0338278 0.172169
-0.0100157 0.425003 0.0791947
-0.0263963 0.286094 0.170046
-0.0294354 0.289885 0.182821
-0.0103419 0.260062 0.0148714
-0.0589636 0.085137 0.190134
-0.0322595 0.282833 0.1904
0.122152 -0.202885 0.581869
0.00843028 -0.469262 0.203684
-0.000305965 -0.27397 0.321033
0.0041604 0.127423 0.13828
-0.0979131 -0.230893 0.574687
0.00192622 -0.43813 0.106839
0.0183983 -0.352809 0.198893
0.00820953 -0.199481 0.306778
0.0255569 0.237714 0.246583
0.00485839 -0.137369 0.131128
-0.00360521 -0.154607 0.277486
-0.0123575 -0.234485 0.125799
0.00926859 0.139225 0.144263
-0.00679057 0.185167 0.281845
0.0137357 0.213927 0.180549
-0.0395004 0.141957 0.173659
-0.0345677 0.0333189 0.15341
0.0113629 0.424491 0.294912
-0.0319398 -0.256474 0.273023
-0.0320278 0.279618 0.188469
-0.0205817 -0.288552 0.212925
0.029597 0.311187 0.176806
0.00742149 -0.317176 0.289106
-0.025862 0.289891 0.189564
0.00749568 0.398088 0.0567
-0.00791945 -0.157398 0.232227
-0.0286458 0.186406 0.152199
-0.0379318 0.132383 0.172599
-0.00715314 0.133521 0.362019
-0.00857228 -0.164552 0.267375
-0.088897 -0.22442 0.579825
0.00691696 0.299889 0.0189921
0.00714559 -0.293953 0.344088
-0.0090587 0.350109 0.330207
0.010435 -0.289952 0.335669
-0.0316502 0.0604708 0.0834932
-0.00939677 -0.0811882 0.237331
-0.121245 -0.192922 0.574504
-0.00789452 -0.416101 0.167209
-0.0378243 0.0179683 0.154801
0.0151234 -0.228032 0.166375
-0.00776899 0.240617 0.345098
0.0181172 -0.306207 0.232761
0.000359358 -0.451421 0.0833351
0.0101697 -0.451718 0.244404
0.00976281 -0.317525 0.333515
0.0297707 0.287833 0.178871
-0.0355205 0.00702476 0.166816
-0.0640106 0.070949 0.187802
-0.0114 0.303032 0.349496
-0.0084473 -0.209024 0.377191
-0.00338224 -0.181698 0.533724
-0.0334168 0.000624533 0.165014
-0.0284081 0.271995 0.19751
0.0026244 0.464868 0.200421
-0.0257881 0.2111 0.460917
-0.0326589 0.239639 0.188456
0.0268776 -0.192369 0.530227
-0.00504977 0.330481 0.34178
-0.00783964 0.27766 0.00597484
0.0528345 -0.0291055 0.0705043
-0.00677782 -0.201811 0.285331
-0.00864613 0.0822382 0.25757
0.0129045 0.444344 0.264843
0.00891065 0.135745 0.257681
0.00584477 -0.206038 0.287989
-0.0283491 0.238341 0.187195
0.0120187 0.469965 0.195989
0.00910819 0.441613 0.0953352
-0.030531 0.184582 0.154087
-0.0211527 0.415496 0.196725
-0.00679042 0.262315 0.0227749
-0.0291364 0.00256093 0.0802307
0.00781798 0.192236 0.465718
-0.0249577 -0.236365 0.33675
-0.00906387 0.411647 0.308398
0.00716856 -0.135998 0.307565
-0.00741776 -0.44354 0.244309
0.0101643 -0.0822281 0.244955
0.00438043 0.139443 0.102283
-0.01284 -0.219561 0.327547
-0.0282888 0.206737 0.184814
-0.00421114 0.128519 0.214171
-0.13306 -0.168857 0.554481
-0.0391324 -0.00434645 0.0879977
-0.00484712 -0.207604 0.355819
0.00441029 -0.458001 0.0985912
-0.00876909 -0.394807 0.303494
-0.00421272 0.0630191 0.183487
0.0077216 -0.211397 0.358361
0.00691916 0.17398 0.0763158
0.0310986 -0.000846406 0.105364
0.00253578 -0.160925 0.126703
-0.0171101 0.330176 0.127664
-0.00634873 -0.188577 0.139271
0.00432394 -0.451053 0.0858919
-0.0239295 0.128983 0.150184
-0.0262835 0.104673 0.138734
0.00876217 0.253457 0.348681
-0.0092595 -0.184718 0.0579927
-0.00918181 -0.248553 0.330544
-0.00873344 0.370281 0.335356
0.00292677 -0.1151 0.289152
0.00238193 -0.168675 0.107598
0.000701043 0.204246 0.0540589
-0.0069715 -0.17806 0.441683
0.0138953 0.467229 0.181014
0.0206849 -0.289914 0.213388
0.00528174 -0.274329 0.299608
0.0103682 0.135215 0.206472
-0.00813406 0.241994 0.333306
-0.0614655 -0.215761 0.562888
-0.00767813 -0.177938 0.438124
-0.0391676 0.0649454 0.10244
0.00473794 -0.400081 0.263788
0.0146306 -0.307622 0.345434
0.00176158 -0.179282 0.304717
0.0105885 -0.224466 0.358393
-0.0304352 -0.281308 0.20515
-0.00649823 -0.41945 0.299415
-0.010204 -0.197452 0.410934
-0.00610476 0.194214 0.0352606
-0.00697778 -0.122867 0.179092
-0.0380685 0.213803 0.174282
-0.00639091 -0.399859 0.244646
-0.0197505 -0.219751 0.333328
-0.11983 -0.184388 0.562576
-0.00379099 0.0851305 0.273786
-0.00975825 0.147782 0.355521
0.009658 0.113471 0.306355
0.0084557 0.194616 0.295275
0.0077496 0.465043 0.22802
-0.0380511 0.204591 0.173789
-0.00160616 -0.285987 0.353273
-0.13317 -0.185736 0.566949
-0.0278184 0.00193159 0.0856419
0.00895496 -0.332678 0.32966
0.0392569 0.215602 0.424377
-0.00584361 0.0283898 0.233185
0.00995696 0.172692 0.0632249
-0.0220727 0.180789 0.312909
-0.00236708 -0.162252 0.423397
0.0279738 0.241191 0.243306
0.00706264 0.429197 0.293411
0.00699332 -0.351008 0.337824
-0.0106063 -0.187164 0.46228
0.093553 -0.231099 0.58102
0.0337654 0.267475 0.171572
0.0358646 -0.25639 0.275144
0.00989304 -0.142143 0.206539
0.0135291 -0.268032 0.0979917
-0.0391521 -0.00203493 0.0911003
0.00966117 -0.142081 0.208778
0.00257504 0.18715 0.0395902
-0.0030144 -0.123553 0.178302
0.0343757 0.031501 0.131967
-0.0330832 0.199494 0.120766
-0.0336567 0.000326766 0.169726
0.0891132 -0.0247162 0.0707374
-0.0283088 0.00412739 0.169666
0.00546522 0.147969 0.202432
0.00943454 -0.45142 0.233089
-0.00872806 0.137018 0.164395
-0.0265223 0.0201765 0.174151
0.0068307 0.448768 0.264678
-0.0616801 0.0713983 0.194739
0.0101458 0.330743 0.331366
-0.0306594 0.165397 0.186253
0.0069049 -0.159403 0.126508
0.000136042 -0.419538 0.0665417
-0.0104658 -0.43669 0.0795151
-0.0355253 0.197798 0.123439
0.0130725 -0.266874 0.0962932
0.00524175 -0.445959 0.125836
0.00784937 0.255047 0.338577
-0.00679401 0.403018 0.284574
0.0253179 0.204326 0.276486
0.00708679 0.450447 0.169991
0.0262967 -0.304108 0.159475
-0.00670867 -0.435386 0.0653907
0.0265827 -0.314736 0.168565
-0.0341082 -0.230528 0.30656
-0.0301852 0.21704 0.422102
-0.0328938 0.27385 0.199557
0.0145406 -0.300438 0.170234
0.00650078 0.305305 0.323189
0.00800809 -0.460719 0.18301
-0.0136363 0.329508 0.247425
-0.0067659 0.428492 0.0684213
-0.0337582 0.293798 0.174368
-0.00954993 0.459495 0.179963
-0.00052268 0.224268 0.46599
-0.00849046 0.18944 0.319134
0.00927206 0.237987 0.0181965
0.00986938 -0.146297 0.206478
-0.00668568 0.00628312 0.165493
-0.0364646 0.192859 0.188652
-0.00981816 -0.222537 0.317407
-0.00260375 0.239867 0.346343
0.00491705 -0.185387 0.122678
-0.034729 0.273919 0.14214
-0.0304333 0.28276 0.1925
0.0277432 -0.304644 0.172361
-0.00446713 -0.207365 0.0582576
-0.0345677 0.024964 0.099115
-0.0355233 -0.0167782 0.107299
-0.0360657 0.0264984 0.070543
-0.00501038 0.404061 0.276868
-0.00761991 0.240433 0.013546
0.0607135 -0.216622 0.557627
-0.0034522 0.137725 0.34295
0.0119041 -0.22731 0.332905
-0.0316173 0.253525 0.188257
0.00945456 -0.430177 0.0667924
-0.00779528 0.12205 0.217425
0.00402675 -0.415448 0.0429764
-0.0345677 -0.00024754 0.126589
-0.00515212 0.197 0.287059
-0.00865975 0.128113 0.176915
-0.010359 0.325105 0.350043
-0.00882774 0.148876 0.0927311
-0.00259005 0.211686 0.0490576
-0.0807064 -0.232572 0.573429
0.0155545 0.275734 0.109276
0.00910371 0.116825 0.167015
-0.0391478 -0.241479 0.298612
0.00993918 -0.21409 0.327436
-0.00765088 -0.172819 0.282356
-0.00971661 0.130648 0.170078
0.0125229 0.375038 0.13747
0.00884057 -0.436229 0.0720102
-0.0328869 -0.0156735 0.0933275
0.0165635 -0.263811 0.22741
-0.0316159 0.0565264 0.175178
-0.00789967 0.12801 0.199632
-0.0335118 0.171258 0.44187
-0.00471206 0.122099 0.477323
-0.00949956 0.261403 0.0116873
-0.0182663 -0.268465 0.212761
0.000348749 -0.229994 0.330787
0.0053032 0.117596 0.301476
0.00573123 0.308689 0.0523786
-0.00681623 -0.458234 0.101704
0.00193915 0.392732 0.287069
0.0117518 0.376644 0.328912
0.0416657 0.203913 0.453876
-0.00729278 0.108672 0.320839
-0.0394476 0.099386 0.174663
-0.0181325 0.248231 0.149
0.00689964 -0.408227 0.0660815
0.000452325 0.0694136 0.226477
-0.0378722 0.0753394 0.174217
-0.0212603 0.11108 0.146723
0.0104186 -0.380407 0.316999
0.128143 -0.195708 0.573099
-0.00677917 0.233611 0.312176
-0.0145566 0.21121 0.323397
-0.0321261 0.0362333 0.132938
0.00900041 -0.206497 0.375543
-0.0104628 0.0692761 0.21688
-0.00853707 0.248683 0.0231111
-0.00152711 -0.190108 0.405641
0.0069121 0.142034 0.156233
-0.00232118 -0.166788 0.341121
-0.00734693 0.0104834 0.160906
-0.130767 -0.158458 0.556441
-0.129283 -0.162006 0.553977
-0.0392074 0.00901839 0.0963293
-0.000264913 0.181694 0.27263
0.00952385 0.318701 0.337207
-0.00232463 -0.117333 0.26407
0.0029721 0.457599 0.230393
-0.00514244 0.265596 0.295862
0.128325 -0.167564 0.56344
-0.00852481 0.15106 0.340818
0.00360664 -0.165846 0.0706617
0.0137642 0.414179 0.300399
-0.00769301 -0.156974 0.088368
-0.0253216 0.216937 0.260768
0.00996632 -0.306351 0.338466
-0.0919752 0.103344 0.18111
-0.00944936 0.137592 0.148467
0.0121821 -0.31712 0.351011
0.0100843 -0.200015 0.166423
0.0100972 0.195987 0.301116
0.00816452 0.430471 0.273415
-0.014042 -0.19755 0.311436
-0.00668646 0.220381 0.336579
-0.00924986 -0.196789 0.429284
-0.00995587 0.455582 0.18381
-0.000849147 0.44238 0.148062
-0.00569841 -0.25252 0.0324948
0.00576295 -0.274677 0.2937
0.00103823 0.220303 0.0440829
-0.00658351 -0.0956182 0.318652
0.00054523 -0.158358 0.135352
0.0230273 0.0612444 0.132138
-0.0486283 -0.212824 0.558794
0.124134 -0.179082 0.568139
0.0139829 -0.129692 0.182476
0.0155047 -0.276193 0.111124
-0.0386798 0.0389339 0.122039
-0.0046868 -0.394757 0.293392
0.000181851 0.12226 0.306458
-0.00505407 -0.0647421 0.292029
0.00965596 0.211055 0.309458
-0.00918235 0.119655 0.334749
0.0229233 -0.212213 0.164798
0.00909844 -0.243903 0.329525
-0.0351074 -0.190178 0.538811
-0.0378464 0.210146 0.187484
0.0212091 -0.168398 0.161332
0.00939239 -0.292751 0.0684737
0.055822 -0.217914 0.553535
-0.000352197 0.248165 0.315987
-0.0254954 0.199717 0.155094
-0.00969648 0.126785 0.236191
0.00704201 0.474076 0.206263
-0.0079335 -0.0242029 0.194123
0.00486236 0.11594 0.181828
0.0292881 0.299681 0.173595
0.0114594 0.1178 0.164039
0.00649076 -0.143682 0.370689
-0.0208106 0.330762 0.152651
-0.00549889 -0.396011 0.0874665
-0.0112111 0.45053 0.256805
-0.00461625 0.31298 0.00384292
0.0125849 -0.184447 0.526895
-0.00938665 0.47135 0.206697
-0.00678468 0.168508 0.258575
-0.121908 -0.196308 0.564537
0.00533905 0.281034 0.0248107
-0.00399649 -0.247244 0.346167
0.00531426 -0.438038 0.240708
0.00401733 -0.203542 0.323406
0.00712842 0.281582 0.293174
0.00162132 -0.237613 0.0445759
0.0222492 0.400429 0.193151
-0.0628745 0.0774945 0.185987
0.0113895 0.469683 0.193288
-0.00606275 -0.281109 0.3535
0.00407256 0.137883 0.38676
-0.0104804 -0.466469 0.169589
-0.0012038 0.305898 0.355266
-0.00258218 -0.13193 0.155471
-0.00395145 -0.164362 0.0728325
0.00907486 -0.0637128 0.23016
0.00757466 -0.213441 0.318284
-0.00252165 -0.457017 0.252408
-0.00678071 -0.152156 0.162135
-0.0900842 -0.226994 0.581582
-0.00502958 0.148734 0.20603
-0.00801348 0.128236 0.329332
-0.0221392 0.215522 0.273123
-0.00677916 -0.282649 0.323818
-0.00426849 -0.0358975 0.20909
-0.0143397 -0.299556 0.171723
-0.00142534 0.45158 0.26291
-0.014102 0.445648 0.257377
0.006168 0.0542262 0.230009
-0.0193223 -0.301988 0.225735
-0.0145676 0.288597 0.0963365
-0.000111509 0.293569 0.324149
0.00822081 -0.33708 0.33915
-0.00844257 -0.456443 0.214211
-0.0321261 0.0480167 0.130517
-0.0321261 0.0603369 0.091912
0.00580192 0.409438 0.0769246
-0.0823275 0.0789384 0.196076
0.00853695 0.472806 0.182853
0.050608 0.198417 0.434152
0.00972192 -0.163947 0.286334
-0.00614386 0.410566 0.0784765
0.0066889 -0.193412 0.4037
-0.0496241 0.0349947 0.131166
-0.0211213 -0.162163 0.160588
-0.00973951 0.449035 0.218233
-0.00888851 -0.27495 0.349896
-0.0321261 0.0402092 0.141776
-0.00921528 -0.172687 0.328211
-0.0377067 0.0490623 0.112033
0.0749169 -0.0400127 0.0839148
-0.033322 0.30714 0.18594
0.0123782 0.291349 0.348265
-0.00522415 -0.245905 0.288979
-0.0370166 -0.188146 0.538243
0.00232618 -0.471768 0.21223
-0.0378696 0.0715296 0.174494
0.00365296 0.232384 0.464428
0.00255857 -0.242611 0.343383
-0.00809409 0.345399 0.275974
0.00832706 0.135689 0.257958
0.0244922 -0.315729 0.193191
0.000813521 -0.203679 0.285981
0.00739691 -0.272041 0.350313
-0.0376455 0.00337888 0.0990358
0.0262781 0.295161 0.174887
-0.0345811 0.292752 0.14662
-0.00873695 0.1488 0.441602
-0.0815857 -0.2263 0.568025
-0.00834814 -0.138268 0.143127
-0.0321261 -0.00301904 0.155987
-0.00927798 -0.449886 0.236963
-0.0331133 0.0261242 0.0756429
-0.0324062 0.0750882 0.176584
-0.00361452 0.332955 0.00602446
-0.00391412 0.444512 0.181989
0.0194957 0.0410195 0.134396
-0.00752145 -0.139435 0.368634
-0.0321261 0.0668264 0.1128
0.00470755 -0.425922 0.0535116
-0.0300832 -0.256015 0.265661
0.00262664 -0.165447 0.070511
0.0100745 0.0440143 0.133924
-0.00455777 0.441854 0.276248
0.00793455 -0.184651 0.309581
-0.0298953 -0.266204 0.234485
-0.0394551 0.106995 0.171658
0.000950844 0.16705 0.411352
-0.0111448 0.120243 0.198678
0.00192457 -0.281514 0.322502
-0.00145577 -0.163614 0.228287
-0.0394224 0.0688141 0.176776
-0.0378993 0.106037 0.168085
0.00355871 0.146376 0.152707
-0.0323915 -0.255437 0.276741
0.0450716 -0.0299686 0.0678199
0.00362349 0.0598914 0.219947
0.0114465 -0.229669 0.226151
-0.0126969 -0.192885 0.31188
0.00148097 -0.104502 0.279401
0.00703928 0.438211 0.234222
-0.00352192 0.315183 0.00362079
0.00764024 -0.390411 0.0275263
-0.0273992 0.190717 0.460471
0.0288787 -0.247165 0.283719
-0.0116221 0.273001 0.34942
-0.0133092 0.462492 0.216627
-0.00372175 0.0406686 0.135075
-0.00552915 0.15111 0.26613
-0.117562 -0.202563 0.567321
0.00664205 -0.182474 0.52635
0.00312099 -0.123627 0.354615
-0.0345677 0.0233262 0.166969
-0.00273825 0.0389572 0.175799
0.0103168 -0.463899 0.140187
-0.00131524 0.0141146 0.132032
0.00153269 0.174554 0.309882
0.000895791 0.330255 0.0171369
0.00998119 0.145284 0.385853
0.00170607 0.459613 0.245998
0.00690453 0.358845 0.0363408
-0.0263466 0.0623326 0.0974247
-0.0345677 0.289237 0.164083
0.00904 0.120556 0.210087
-0.0316156 0.280457 0.188912
0.00859936 -0.23055 0.0223933
-0.00196977 0.148584 0.391038
-0.0394101 0.04209 0.16856
-0.00796788 0.0536668 0.169157
-0.0268216 0.21 0.27894
0.00690403 0.239824 0.0330328
-0.00880706 -0.165331 0.267505
-0.0179803 -0.353929 0.206161
-0.00408963 -0.470758 0.213144
0.00834685 0.468839 0.217886
0.0102932 -0.146647 0.305429
-0.0507825 0.205388 0.441114
0.00408656 -0.155929 0.410925
0.00590755 0.0389304 0.222187
-0.00575032 0.0448644 0.185515
-0.00679177 -0.221995 0.0423276
0.00987311 0.176381 0.059633
0.00370919 -0.127034 0.300627
-0.0336481 0.201115 0.188105
-0.0345677 0.00227506 0.130746
0.0175296 0.215464 0.4234
-0.0241903 0.276536 0.190301
0.00825661 -0.193759 0.345587
-0.000206196 0.428426 0.294839
0.0069028 -0.178264 0.258265
-0.0323134 0.0970376 0.176168
-0.0376518 -0.0098289 0.136076
0.0200132 0.19641 0.463046
-0.00824492 0.23202 0.463973
-0.0379908 0.133128 0.166505
0.0137552 0.0397198 0.12629
-0.0395087 0.14749 0.170538
0.00691226 0.380752 0.301136
-0.00814002 0.238816 0.0268559
0.00815434 -0.0511328 0.220723
-0.0167534 0.188532 0.299289
0.0295272 -0.23372 0.335546
0.00177255 -0.157235 0.415115
0.00146338 -0.0744058 0.3038
-0.113054 0.0882319 0.184637
-0.00589972 -0.233421 0.306699
-0.00290368 -0.173277 0.522934
-0.03525 -0.0176211 0.115634
-0.0500106 0.0801254 0.18546
0.00363681 -0.0435022 0.190935
-0.00678374 0.325841 0.323337
-0.0636941 0.095682 0.191433
-0.00769061 0.198291 0.313301
-0.0929341 0.0931362 0.181649
-0.00722092 -0.0182071 0.245737
-0.00996861 -0.264231 0.330494
0.0101401 0.342879 0.327404
0.00427889 0.201716 0.317641
-0.00158838 -0.00860008 0.154907
-0.0210805 0.154486 0.443532
-0.00343398 -0.106964 0.280645
-0.0311676 -0.281163 0.209906
-0.0238947 -0.283842 0.154846
-0.0144268 0.208376 0.322862
0.00660715 0.452895 0.26098
-0.025878 0.150685 0.153393
-0.00364525 -0.190953 0.314185
-0.00716169 0.137579 0.259056
0.0364859 -0.243282 0.31211
-0.00951518 -0.178168 0.273482
0.00151299 -0.133756 0.14108
0.0202533 -0.181874 0.533942
0.00700322 0.0275902 0.147364
-0.000899367 -0.426394 0.266911
0.00925803 0.233774 0.463383
-0.0163398 0.0207094 0.137165
0.00691844 -0.15125 0.141983
-0.0321261 0.299502 0.178023
0.0239361 0.269919 0.180868
0.00691699 -0.22273 0.306197
0.00579151 -0.16334 0.271843
-0.00550967 0.298271 0.177092
0.0085723 -0.0419006 0.194806
0.00277461 -0.0534988 0.22764
0.0803524 -0.223117 0.569195
0.00993309 -0.143797 0.192194
0.0406989 0.181353 0.448461
0.00398489 0.157595 0.39405
-0.0102888 0.00173661 0.157452
-0.0321561 0.0583277 0.175265
-0.0274616 0.268602 0.202716
9.74946e-05 -0.287352 0.346586
-0.0376184 0.0218231 0.0840465
0.0123381 -0.147562 0.255878
0.00800462 0.0524105 0.197978
-0.006138 -0.126701 0.213428
-0.010023 0.172898 0.0636508
-0.00143739 -0.0365297 0.182748
-0.00232221 0.274391 0.025509
0.0140819 0.0192261 0.127037
-0.00723027 0.0532799 0.202112
0.0108706 0.191132 0.465405
0.00449578 -0.434013 0.285476
0.0196992 -0.342647 0.151004
0.00877997 -0.204032 0.130534
-0.0345677 0.280009 0.159852
0.00517496 -0.135226 0.141477
-0.00277292 -0.441552 0.114569
0.00332253 0.121147 0.351605
0.00232553 -0.149428 0.296093
-0.0345677 0.00547133 0.155566
0.0116788 0.283083 0.349195
0.0225376 0.264098 0.157971
-0.00703099 -0.104969 0.321513
0.0331204 -0.305175 0.17715
0.0611326 -0.215594 0.561352
-0.00891454 -0.388243 0.0301665
-0.0605815 0.0992859 0.190434
-0.0244476 -0.185426 0.527677
0.0018022 -0.0319566 0.244219
-0.0105912 0.0519696 0.133575
-0.0118104 0.385066 0.3241
-0.00969855 -0.465033 0.139741
-0.00418663 0.152421 0.389249
-0.0258773 0.290066 0.161245
0.00690423 -0.180224 0.0855312
0.0136695 0.150516 0.468942
0.0094571 0.269011 0.0711436
-0.00997617 -0.256956 0.346898
-0.0277964 0.0167266 0.0835335
-0.0303653 0.25019 0.169752
0.00895633 -0.0576884 0.22454
0.00217008 0.401205 0.309526
0.0362435 -0.294169 0.182025
-0.00999393 -0.439603 0.26089
0.00220838 0.266259 0.352713
-0.00678452 0.406145 0.278355
-0.0204041 0.15336 0.443806
-0.116087 -0.220448 0.578295
0.0479864 -0.199424 0.547625
-0.00947659 -0.377571 0.101757
-0.0226592 0.226827 0.255862
-0.000175179 -0.341826 0.342993
0.00918551 -0.100021 0.26609
-0.0428924 0.222612 0.444541
0.096752 -0.0355152 0.0733664
-0.0145862 -0.258002 0.34006
-0.0265054 0.0154731 0.172303
0.00644024 0.0929599 0.249757
0.00598022 -0.17626 0.447504
0.00993168 0.255742 0.0180455
-3.66885e-05 -0.308076 0.354341
0.0362939 0.177033 0.450704
-0.00911241 0.152581 0.24355
-0.0228136 -0.305774 0.205311
-0.0297722 0.268051 0.16775
-0.00783501 0.326354 0.328076
-0.0386203 0.198103 0.455288
0.000154917 0.257745 0.343483
-0.0375948 0.0194309 0.079745
-0.0123974 -0.159272 0.274413
-0.0276198 0.293871 0.165563
-0.00181453 -0.403469 0.0615383
-0.0357906 0.206854 0.456627
0.00566452 -0.176278 0.445298
0.00475223 0.216405 0.0463331
0.0113767 0.452486 0.252218
0.00127908 0.394384 0.0322429
-0.00368388 0.221563 0.285518
-0.0378004 0.0134516 0.104719
0.0356741 -0.00316563 0.0893236
0.00938681 -0.00598587 0.171368
0.0274472 -0.311857 0.168975
0.119624 -0.202531 0.572431
-0.00689796 -0.200435 0.385853
0.0273411 0.0379084 0.128666
0.00995447 0.350577 0.255437
-0.000990344 -0.171682 0.441185
0.0452691 0.215498 0.430247
0.0140792 0.426678 0.286134
-0.0110397 0.359595 0.339508
0.000874912 0.0267015 0.126975
-3.60742e-05 -0.0321658 0.207838
0.0594021 -0.029978 0.0830243
-0.00192343 -0.130085 0.366902
-0.0281234 0.097365 0.177193
-0.0321261 -0.00490779 0.122492
-0.0067778 -0.166583 0.237415
-0.00809323 -0.341298 0.00931442
0.000231784 0.148654 0.128515
-0.0140622 0.133978 0.237226
-0.0345639 0.121288 0.183964
0.000933619 0.0449419 0.190524
-0.0016325 0.137773 0.244268
-0.00373606 -0.438948 0.238963
-0.0140339 0.123196 0.184561
0.00964152 -0.16445 0.0949082
-0.00565212 0.239145 0.0634018
-0.0197338 0.30993 0.214838
0.00241567 0.204738 0.0536154
-0.00662461 -0.165615 0.421326
-0.00423949 -0.184279 0.0503514
-0.0815228 0.0902253 0.188269
-0.00188335 0.1559 0.217299
-0.00433351 0.470665 0.215047
0.125502 -0.189359 0.559774
0.00675242 -0.155487 0.327297
0.00827549 0.0744136 0.214697
-0.033592 0.173329 0.45076
-0.0088277 0.27069 0.0175107
-0.0136183 -0.150599 0.255642
0.0120538 0.116782 0.473218
-0.0321261 0.044166 0.0863481
0.00918099 -0.45926 0.114504
0.00691409 -0.449918 0.124837
-0.00402599 -0.162889 0.288433
0.0293657 0.25699 0.170247
-0.0115043 -0.208041 0.32393
0.00844039 -0.127783 0.142162
-0.0128291 0.23113 0.427528
-0.0102867 -0.382536 0.0307429
0.0310568 -0.268027 0.236917
-0.00759506 0.290078 0.00407975
-0.00680215 -0.150893 0.141353
-0.0231593 0.275371 0.158653
-0.0073181 -0.265143 0.339949
-0.0103593 0.422579 0.0740162
0.0217811 0.0568853 0.136016
-0.0267095 0.189442 0.1524
-0.0316192 0.273743 0.190335
-0.020943 0.152126 0.14958
-0.00678175 0.194937 0.060301
-0.00116629 0.259299 0.350314
-0.00169716 0.139106 0.266717
0.00947011 -0.0186291 0.183727
-0.0176721 0.311836 0.121593
-0.00678178 0.230688 0.311401
-0.00568979 -0.218565 0.355929
-0.000306286 0.162338 0.392649
-0.0509138 0.195717 0.441276
-0.00848875 -0.449343 0.235448
-0.00936092 0.0102877 0.145733
-0.0568481 0.0810003 0.182636
-0.00121018 -0.135362 0.376807
-0.0140945 0.461365 0.216657
-0.0120295 0.46999 0.17684
-0.0355233 0.131247 0.103046
0.000636116 -0.2701 0.320945
0.0148901 0.274006 0.0994709
0.0495292 0.207011 0.446736
-0.0221826 0.158881 0.148727
-0.0073631 -0.301362 0.0171923
0.0506778 0.20912 0.438585
0.00312477 0.424964 0.249348
0.00420756 -0.131754 0.173197
-0.00233066 0.198236 0.325731
0.0273482 -0.309061 0.179951
0.0958443 -0.0263549 0.0697171
0.00520872 -0.373743 0.0410101
-0.00665127 -0.418265 0.270877
-0.130255 -0.160329 0.562394
-0.0102313 0.131883 0.186965
-0.00295607 0.0354379 0.135711
0.0069178 -0.458716 0.167411
-0.0345677 0.0204822 0.123946
-0.0307646 -0.000708567 0.16922
-0.00909348 -0.12393 0.174644
0.019752 0.264841 0.135705
-0.0300222 0.285767 0.17344
0.00136087 -0.475408 0.193434
-0.0100071 -0.209448 0.147507
0.00663304 -0.317241 0.29534
-0.0303414 0.275536 0.19232
0.02724 -0.293563 0.17653
0.000913428 -0.380846 0.0450102
-0.00975608 0.273522 0.0110323
0.00430968 0.147007 0.391774
0.000797074 0.433156 0.116508
-0.00309719 -0.0394176 0.186608
-0.00672019 0.115757 0.299042
-0.0394243 0.0716889 0.174618
-0.0125361 -0.21917 0.338563
-0.0351175 0.0133383 0.0783341
-0.00852478 0.448605 0.264058
-0.0233845 0.289131 0.149654
-0.0376226 -0.0161724 0.139943
-0.0376869 0.124523 0.184776
-0.00465755 -0.179221 0.471601
-0.0278685 -0.303214 0.180437
0.00780478 0.0749049 0.247359
0.0113352 0.120246 0.151907
-0.0392158 -0.00911337 0.140844
0.00236655 0.160742 0.107175
-0.008439 -0.182457 0.0574337
0.0194767 -0.220464 0.332906
0.00232502 -0.126523 0.215378
0.0101559 -0.44004 0.0825254
-0.0345677 -0.00986055 0.110098
-0.0130231 0.243864 0.340865
-0.0944903 0.093393 0.181578
0.0163331 0.146505 0.444527
-0.00138536 0.412865 0.266001
-0.0261097 -0.259228 0.170155
0.013889 -0.350141 0.108437
0.00653941 0.266199 0.350106
0.010485 0.304997 0.335638
-0.00426074 0.351686 0.345208
0.00348658 0.423484 0.119461
-0.0065166 0.0827124 0.265929
0.0129352 0.22736 0.33546
-0.00933568 -0.308835 0.0145195
0.00939304 -0.165483 0.330843
0.00310603 -0.143913 0.257378
-0.00933842 0.453635 0.184737
-0.0110889 -0.206439 0.18146
0.00490137 -0.0179776 0.237685
0.0143311 0.203892 0.319818
-0.00946147 0.353092 0.328222
0.0116275 0.256438 0.346765
-0.0088395 0.249335 0.0137297
0.113733 -0.204955 0.569401
-0.0325628 -0.0180081 0.113584
0.0266814 0.300031 0.18358
0.00128094 0.24959 0.0311926
0.0149024 -0.283846 0.2417
0.0141044 -0.180966 0.29547
-0.00678642 -0.291992 0.0208742
0.0242461 -0.314665 0.154889
-0.00801149 -0.205848 0.323514
0.0132189 0.245657 0.341368
0.00338638 0.278476 0.0250796
0.00359165 -0.273253 0.0265389
0.024587 0.0918248 0.134799
-0.0245578 -0.320924 0.159377
0.00417629 -0.470637 0.133052
-0.116123 -0.198731 0.565325
-0.0049172 -0.439994 0.236958
-0.00469707 -0.271419 0.350748
-0.00205597 -0.155379 0.199341
-0.124802 -0.186983 0.572252
0.0117269 0.227065 0.335885
0.00619028 0.14966 0.371106
0.00691374 0.44848 0.168018
0.00257874 0.109961 0.45711
-0.00327808 -0.135404 0.375202
-0.113151 -0.208026 0.579336
-0.00404511 -0.156982 0.512487
-0.0798247 0.0690546 0.189051
-0.000320315 0.126588 0.242275
-0.0131872 -0.297517 0.349675
-0.0151487 -0.373297 0.166669
-0.0396265 0.215525 0.178204
0.0065434 -0.4538 0.173719
0.00967138 0.249646 0.0154155
0.0132289 -0.201259 0.315439
-0.0262483 -0.0203134 0.111884
0.00911417 -0.198297 0.42756
-0.0130852 0.0686711 0.135658
-0.0345677 0.0121128 0.164267
0.00574369 -0.317132 0.294719
-0.00561612 0.438728 0.21676
-0.00678179 0.143629 0.178422
-0.0321261 0.0430126 0.135159
0.0039001 -0.0780356 0.305982
-0.00378612 -0.228244 0.0439127
0.00662402 0.0307907 0.13375
-0.00677674 0.41679 0.0863177
0.123834 -0.204996 0.577979
-0.00339431 0.14731 0.44174
0.00279992 -0.435075 0.246387
-0.00864027 0.364195 0.326407
-0.000327394 0.117336 0.20639
-0.00801373 0.142969 0.391419
-0.00278899 0.0681922 0.193185
-0.00568953 0.157044 0.274185
-0.0394318 0.0830857 0.170349
0.020152 -0.330996 0.140593
0.0244811 0.0368754 0.137336
0.0101193 0.153548 0.348604
-0.0181161 0.113619 0.143261
0.0368993 -0.239739 0.318772
0.00969725 -0.157589 0.314335
-0.0083879 -0.420006 0.295314
0.0504367 -0.216832 0.561205
-0.00749276 -0.294197 0.0170244
0.00508915 -0.134731 0.283015
-0.0977497 0.0770028 0.186123
0.0066234 0.156406 0.400623
-0.000853873 -0.291929 0.323539
0.0069152 0.404177 0.282647
-0.0183597 0.341275 0.143836
0.00928497 -0.178 0.34373
-0.0334909 0.262901 0.170612
-0.0345662 0.072139 0.14051
-0.0314315 -0.226727 0.314968
0.00776007 -0.352989 0.274692
-0.0392836 4.85126e-05 0.149694
-0.00390481 -0.175415 0.34882
-0.033199 0.0811087 0.17845
-0.0278147 0.0240228 0.0767917
0.0791756 -0.222573 0.574998
0.00440033 -0.00600228 0.244694
0.0101471 0.165517 0.297586
0.00885907 -0.126536 0.195999
-0.0181271 -0.306504 0.118821
-0.0345677 0.0540627 0.136248
-0.0320319 0.0808174 0.178385
-0.000301463 0.239568 0.444559
-0.0427865 0.0439139 0.146849
-0.0386647 0.165151 0.169119
-0.0272141 0.222947 0.189159
0.00881682 -0.14537 0.183006
-0.0067896 0.432199 0.104881
0.0260065 0.254227 0.224015
0.00527145 0.323579 0.350429
-0.00879855 0.177504 0.0555515
-0.00172685 0.116742 0.208435
-0.0345677 -0.0180105 0.12102
-0.0248553 -0.2282 0.34215
-0.00678557 -0.449379 0.128007
0.0069017 -0.447004 0.127172
-0.0265089 0.0561951 0.0798273
-0.00895634 -0.444009 0.0840747
-0.0134458 -0.131607 0.198748
-0.0105131 0.125743 0.232466
-0.00812701 0.447001 0.13403
-0.0298617 -0.0209911 0.107834
-0.0222406 -0.316256 0.201774
0.0316157 -0.296402 0.185707
0.00472968 0.33684 0.0301164
0.00132671 0.277076 0.35336
0.00664969 -0.433172 0.0979557
0.00960536 -0.148279 0.263399
0.000127427 0.393848 0.316258
-0.0138904 0.404638 0.307793
-0.0321261 0.02438 0.10514
0.0101435 0.112414 0.306861
-0.0239246 0.191341 0.155641
-0.0345677 0.0301365 0.105052
0.0104378 -0.336249 0.332905
-0.000739589 0.13297 0.234387
-0.00322383 0.275618 0.00338615
0.00116519 -0.132083 0.342324
-0.0237852 0.295622 0.178466
0.0203657 0.0406445 0.136263
-0.00310625 -0.318502 0.0243479
0.00600562 -0.335847 0.320512
-0.0067779 -0.158994 0.130612
-0.0358805 0.17423 0.44237
0.0414147 -0.20214 0.544897
-0.00911975 -0.43288 0.278685
0.00887172 -0.0245301 0.191671
-0.00149433 0.254745 0.349445
0.0113311 0.119011 0.180932
0.00397258 -0.373359 0.0166803
-0.00800822 0.408931 0.065358
0.0226108 -0.32505 0.150069
0.00123406 0.229246 0.343069
-0.0254476 0.216777 0.161211
0.0210567 0.0731883 0.130494
0.0217116 -0.342448 0.18146
-0.00942594 -0.126436 0.282679
0.0421447 0.224346 0.436384
0.0058586 0.464635 0.195103
-0.0107361 0.146841 0.273062
-0.015355 0.275563 0.243396
-0.010268 -0.181842 0.0642924
-0.0145893 -0.155217 0.261365
0.00734494 0.290135 0.330091
-0.00179567 -0.443426 0.118802
0.00508022 -0.414588 0.072306
-0.0376489 0.0622275 0.115058
0.0059576 0.0516286 0.221417
-0.00947075 -0.232397 0.338515
0.00804559 0.233554 0.341161
-0.0345677 0.0641059 0.118527
-0.0116572 -0.307499 0.176129
0.0165651 -0.308239 0.239242
-0.0048387 -0.259435 0.0301626
-0.0345677 0.0200547 0.134454
0.00672838 0.140711 0.473953
-0.0371714 0.133128 0.185485
-0.0345677 0.041676 0.102799
-0.00989033 0.0820275 0.250012
0.00127405 0.403987 0.276935
-0.0292179 -0.245231 0.293212
-0.01307 -0.350825 0.242363
-0.0376104 0.0361985 0.0836656
0.0248796 0.226135 0.46017
-0.0518825 0.0919132 0.188233
-0.00809903 -0.136834 0.148241
-0.00214284 -0.42766 0.0888627
0.0282355 0.134295 0.144474
0.0189378 0.0764361 0.1416
-0.000643424 0.167709 0.436037
-0.00846757 0.219608 0.323456
0.0247282 -0.299652 0.153559
-0.0318309 0.228578 0.165083
0.00905362 0.14268 0.361166
0.00561459 -0.168336 0.108364
-0.0240965 0.185537 0.461905
-0.0321261 0.0677847 0.148299
-0.00595963 -0.0428507 0.269796
-0.0328088 0.0605369 0.159588
-0.0789054 0.0952699 0.181057
0.0164869 0.252482 0.219233
-0.00743394 -0.00827288 0.158003
0.00405511 0.395781 0.0633188
-0.00135852 -0.307151 0.170673
0.0304238 -0.245933 0.269981
0.0011954 0.291057 0.3538
-0.0271684 0.285759 0.16901
0.00869517 -0.191675 0.359419
-0.0376243 0.0509005 0.0914305
-0.00745814 -0.185548 0.426281
-0.00143452 0.37461 0.049128
0.00122216 0.0188611 0.237882
0.022096 -0.219156 0.338654
-0.00422632 0.195772 0.0810346
-0.00679185 0.186096 0.28316
0.0312199 0.199803 0.15676
0.00800854 0.191385 0.307538
-0.00678105 -0.362011 0.313893
0.0146978 0.232437 0.334241
0.00906188 0.391397 0.309876
-0.0345677 -0.0147111 0.132269
-0.0332067 0.287356 0.17569
0.00563758 -0.405519 0.0982477
0.00395533 -0.00622394 0.245014
0.0069174 -0.181968 0.0774488
-0.0263267 0.294204 0.187942
0.00729626 0.34124 0.347907
-0.0136458 0.127266 0.471048
-0.00820406 0.191736 0.203236
0.00365892 -0.125307 0.198793
0.00457932 -0.0218046 0.252793
-0.0118286 0.126533 0.222338
0.012515 0.20823 0.326501
0.0142292 0.134566 0.238417
0.0127444 -0.2257 0.138339
0.0531264 -0.0280092 0.0699017
0.00908323 0.458374 0.14444
0.0102483 -0.324565 0.336615
-0.00789198 0.449869 0.107432
0.00642378 0.337755 0.3492
-0.00678602 0.4259 0.094652
0.017336 0.104878 0.140047
0.00833676 0.110158 0.31992
-0.0321261 0.287155 0.179126
-0.00569319 0.288183 0.0240593
-0.0274743 0.197893 0.460467
0.00691649 -0.149132 0.186103
0.0161861 -0.229118 0.334551
-0.0015572 0.22538 0.30649
-0.0319938 0.0788591 0.182961
0.0348025 0.283697 0.173527
0.00414524 0.237807 0.312622
-0.00187421 -0.258405 0.00716427
-0.0394197 0.0649419 0.173557
-0.0321261 0.0153073 0.149293
-0.0237642 0.177572 0.156424
-0.0151714 0.159785 0.32878
-0.00278955 0.158072 0.292353
0.00092451 -0.164647 0.0703847
0.0262781 0.297489 0.173013
0.0167108 0.357423 0.166934
-0.0099828 0.284111 0.0104662
0.0124062 0.45569 0.244606
-0.0427865 0.0340065 0.133847
0.00932359 -0.138613 0.153844
0.00885423 0.293573 0.00645186
0.00520346 0.391314 0.325141
-0.00992763 0.185715 0.314011
0.000193396 -0.376212 0.313446
0.00943005 -0.39893 0.309551
0.0459812 0.196976 0.428144
-0.000477838 -0.00918157 0.184595
-0.0270251 0.295002 0.181997
-0.00229388 -0.164619 0.489383
-0.00520826 0.133156 0.254152
-0.038824 -0.242049 0.291184
0.021487 0.0418015 0.1327
0.0245075 0.230291 0.255457
0.00855832 0.455913 0.126806
-0.0048286 -0.234132 0.330665
0.00955733 -0.181229 0.0712394
-0.00431936 -0.157231 0.513523
-0.00463925 -0.421302 0.267502
-0.037652 0.0593266 0.10739
0.114278 -0.199116 0.571887
-0.00422354 -0.292297 0.354783
-0.0345677 0.0459853 0.0852612
0.00331535 -0.34555 0.340997
-0.00922507 -0.105984 0.261541
0.0106588 -0.0769722 0.238011
-0.137127 -0.159677 0.5513
-0.0281441 -0.26401 0.171335
0.00864531 -0.230333 0.346186
-0.0279323 0.0194129 0.133373
-0.00534951 -0.215051 0.0271626
0.0129081 0.43385 0.280839
-0.00241492 -0.206171 0.288102
-0.0321261 0.0501412 0.124509
-0.0283648 0.246374 0.18942
-0.00619029 -0.0458835 0.261563
-0.0345677 0.0423643 0.113546
-0.00679045 -0.364065 0.315814
-0.0144827 0.403709 0.306297
-0.00823063 -0.205356 0.0370352
0.0213285 0.294773 0.133474
-0.00824224 0.177465 0.0537908
-0.100447 0.0702161 0.193239
-0.0185967 0.457227 0.204151
-0.0046962 0.339554 0.349199
0.0183953 0.244142 0.18146
0.00521501 0.124128 0.179077
-0.0244053 0.161517 0.154774
-0.00350109 0.0443843 0.18669
0.002224 -0.104417 0.33317
-0.00927419 0.159185 0.336326
0.00653276 -0.127191 0.207359
-0.00906934 0.453165 0.16574
0.0299424 -0.304739 0.169421
-0.0299763 0.0891413 0.183498
-0.010196 0.149042 0.274846
0.0312953 -0.26778 0.221444
-0.00939766 0.333974 0.334595
0.0428406 -0.0253045 0.070152
0.00888857 0.0936856 0.259528
0.0103403 -0.139125 0.301251
0.00734034 0.415609 0.305942
-0.0281053 0.0762162 0.17599
0.111374 -0.200922 0.567651
0.00993693 -0.450432 0.0990557
-0.0357916 -0.288817 0.187334
0.00262624 -0.137621 0.221519
-0.00719621 -0.00529822 0.236099
-0.000875262 -0.197339 0.343227
-0.00202383 -0.312591 0.0236658
-0.0276198 -0.299595 0.178887
0.00229778 0.360584 0.046315
0.00905565 -0.298945 0.174444
-0.0321261 0.0299578 0.131131
-0.0220122 0.307307 0.143784
0.0147561 -0.373051 0.156661
-0.01076 0.227053 0.338836
0.00898492 -0.470308 0.167744
-0.0394245 0.0720077 0.173529
0.0290135 0.228137 0.159692
0.00574772 0.150311 0.213448
-0.00480088 -0.125162 0.205407
-0.00461695 0.437558 0.126396
0.00312904 0.197619 0.326801
0.00930597 0.0859301 0.245281
0.00804223 0.054577 0.202409
-0.00708035 0.457019 0.120237
-0.0396182 0.210856 0.181049
-0.0345677 0.00577761 0.0936309
0.00691865 -0.179757 0.0796644
0.00539356 0.0817692 0.224732
-0.0262749 -0.0169571 0.118515
0.00964912 0.0392933 0.133255
-0.0095287 0.142293 0.368131
0.000754827 -0.278943 0.322002
-0.00381877 -0.474613 0.154973
-0.00738977 -0.174808 0.0620163
0.0146283 0.284453 0.345126
-0.0340202 0.0205787 0.122952
0.012166 -0.391291 0.150022
-0.00746845 0.33444 0.00833254
0.0396501 0.185199 0.452667
-0.0299361 0.167016 0.450463
-0.0336539 0.294177 0.148741
-0.0313511 -0.258781 0.265395
-0.00833293 0.442644 0.273241
-0.00598966 0.102834 0.270612
0.0315299 -0.23532 0.295279
-0.0321261 0.0326985 0.080274
-0.0394116 0.0461295 0.172138
0.0118283 0.239928 0.455267
-0.00677991 0.313733 0.0240595
-0.00901532 0.305663 0.279012
0.0273 -0.305531 0.165495
0.0227338 0.405149 0.19514
-0.00373379 0.145231 0.161039
0.00965523 0.0837901 0.242687
-0.023117 0.398211 0.191905
0.0105752 0.266739 0.334031
0.00463066 -0.174545 0.467272
-0.0167761 0.258264 0.223183
-0.0275474 0.115976 0.144287
-0.0262738 0.254535 0.219397
-0.00678367 -0.429009 0.0869753
-0.00160167 0.158752 0.394316
-0.00725564 0.306198 0.0181996
0.0213784 0.209166 0.280759
0.00533785 -0.240322 0.0146422
0.00885592 0.386694 0.303086
-0.0014693 -0.0499871 0.280214
0.0523178 -0.216811 0.563146
-0.0379436 0.140619 0.172584
0.0271971 0.0213485 0.113814
-0.032714 0.0170765 0.0717569
-0.00830621 -0.13707 0.199363
-0.0047017 -0.0134427 0.161573
0.133547 -0.16058 0.55262
0.00552537 -0.18417 0.454836
-0.0830363 0.0872238 0.193779
0.0248161 -0.235033 0.323323
-0.00678108 -0.173166 0.096214
-0.0223149 0.272023 0.198119
-0.0093386 -0.1866 0.309865
0.0295811 -0.258484 0.251991
-0.0201266 0.207624 0.462697
-0.0261546 -0.300254 0.16499
0.0285276 0.14913 0.151799
-0.00905781 0.125996 0.349057
-0.0345677 0.014807 0.146808
-0.0308161 0.0328507 0.180622
0.0104877 0.0708634 0.223364
0.0195783 -0.270582 0.13617
-0.0393663 0.0133804 0.164848
0.0400234 0.221619 0.428119
-0.0391521 -0.0185702 0.130041
-0.0180148 -0.244292 0.181451
0.000225469 0.328987 0.0220391
-0.0265595 0.0879342 0.17888
0.13214 -0.159273 0.55379
-0.00293311 0.359704 0.301392
-0.0109444 0.122153 0.209577
0.00116237 -0.183157 0.525854
0.0013368 -0.146049 0.102432
-0.00218142 -0.0520306 0.226446
0.00691966 0.329828 0.325707
-0.00908877 0.145455 0.101956
-0.0425389 0.200085 0.426358
-0.0345677 0.00859865 0.140397
-0.0378835 0.0891883 0.179591
0.00773732 0.125604 0.180424
-0.00796502 0.451681 0.157056
-0.0341834 0.199546 0.185185
-0.00978762 -0.124644 0.181024
-0.0327806 0.307307 0.182982
0.00696241 -0.171233 0.281871
-0.0279722 0.191398 0.187912
-0.00683934 0.0495327 0.194459
-0.00678447 0.142884 0.180037
0.00946886 0.136487 0.369915
0.00691643 -0.382976 0.306946
-0.0104201 0.0798673 0.242354
-0.0362528 0.131183 0.184063
-0.0349944 0.305816 0.187044
-0.00923243 0.141228 0.380726
0.0143829 0.233106 0.131367
-0.0295633 0.162964 0.187089
0.00281889 -0.198216 0.37233
-0.0262504 -0.291884 0.173985
-0.0345677 -0.00109038 0.152223
0.0146956 0.4315 0.278311
-0.0319903 0.169716 0.448994
0.0109155 0.470076 0.196466
-0.0102465 0.0826474 0.24432
-0.00678384 -0.401281 0.290698
-0.00120342 0.0220875 0.141126
0.0641045 -0.0175989 0.0706456
-0.0271459 -0.222933 0.32453
0.00253009 0.279274 0.34498
-0.0337182 0.220942 0.189863
-0.00677932 0.39524 0.0613334
-0.00718655 -0.03619 0.259656
0.00155592 -0.451461 0.200667
0.135477 -0.174087 0.566902
-0.010617 -0.217972 0.360375
-0.00109248 0.312537 0.0252132
0.0136004 0.11544 0.462949
0.0162177 -0.368458 0.180836
0.014532 -0.178329 0.291492
-0.0070551 -0.236024 0.341793
-0.0122153 0.303853 0.349677
0.0138676 -0.158369 0.270811
-0.0237857 -0.307844 0.15192
0.00141052 0.14524 0.189591
0.0295156 0.185988 0.152451
0.00838299 0.117545 0.307806
-0.00914888 -0.391678 0.306118
-0.0092141 -0.425324 0.071437
0.00359469 -0.171035 0.214624
-0.00638553 -0.263888 0.318861
0.0745498 -0.0341229 0.0871692
0.00837258 0.373592 0.335243
0.00885878 -0.100059 0.253943
0.0437698 -0.197607 0.53286
-0.00189815 0.148528 0.402176
-0.00931537 0.365714 0.0239819
-0.0287095 0.0140029 0.177665
-0.000847429 0.446162 0.18146
-0.0337616 0.0733131 0.0863075
0.0100412 0.471535 0.193387
0.025828 0.083072 0.136779
-0.0653002 0.0719676 0.18752
-0.00102377 -0.22318 0.345602
-0.00113142 -0.010015 0.156054
0.0309692 0.205566 0.422852
0.0105553 0.392409 0.324244
-0.0298109 0.284708 0.172917
0.00690204 0.374812 0.0463596
0.00453873 0.0997028 0.304426
0.0620925 -0.0165083 0.0576899
0.0142931 -0.279933 0.345759
-0.0293228 0.167802 0.149766
0.00240323 0.423571 0.0585005
-0.0100788 -0.206687 0.39597
-0.00989702 -0.446108 0.0982262
-0.00710984 -0.474211 0.175566
0.00478888 0.238252 0.440298
-0.006622 0.170331 0.0570483
-0.00569948 -0.21063 0.351535
-0.0105719 0.379659 0.330841
-0.00674993 0.304692 0.343786
-0.00695539 -0.316233 0.0595001
0.00690081 0.235461 0.0353915
0.00884181 0.437475 0.283375
0.00854178 0.353689 0.330659
-0.0105335 0.0849104 0.252521
0.00798542 0.11848 0.145803
-0.108977 0.0924213 0.192338
0.0233991 0.182095 0.307788
0.00690169 0.173387 0.0853938
-0.00704838 -0.443369 0.10369
-0.0392352 0.00735096 0.104623
-0.00679078 -0.195662 0.0634741
0.000287263 -0.431073 0.291303
-0.110533 0.0826835 0.195038
0.00653885 0.203932 0.327636
0.00332398 -0.198228 0.441878
0.0324362 0.232318 0.165045
0.0276106 0.229021 0.457877
0.00690328 -0.31933 0.0233832
0.0213177 0.0497915 0.129208
-0.0203419 0.254509 0.151002
-0.00915619 -0.179544 0.303835
-0.00835858 0.10713 0.312594
-0.00699157 0.0461907 0.228281
-0.0055437 -0.136022 0.353259
0.00625516 -0.454512 0.253981
-0.00274252 0.267748 0.00401386
-0.142364 -0.156856 0.560742
-0.0015361 0.121284 0.221189
0.0108286 0.326729 0.347557
-0.00403281 -0.0753711 0.303185
-0.00720273 -0.180314 0.535606
-0.0092017 0.296755 0.339993
-0.00677972 -0.33013 0.322873
0.00644959 0.446693 0.268024
0.0090335 -0.462226 0.172005
-0.0356073 0.076175 0.18282
-0.00768275 -0.137945 0.24164
-0.0272156 0.300892 0.169121
-0.00650915 -0.195772 0.0691898
0.00605199 0.312777 0.343277
-0.0223668 0.0321555 0.11833
0.0137413 0.162867 0.325696
0.00605247 -0.295573 0.353343
0.0363456 -0.2745 0.209662
0.020364 0.250395 0.165085
-0.0111935 0.428387 0.290806
0.075069 -0.0245781 0.0776247
0.00309156 -0.0387042 0.269025
-0.00821172 -0.182663 0.537474
-0.0263584 -0.298015 0.165123
0.026521 -0.265709 0.169532
0.00691406 0.311931 0.326573
-0.00882444 0.150194 0.280327
0.0107722 -0.126401 0.176087
-0.0138071 -0.155839 0.266391
-0.00897631 0.206432 0.305404
-0.00677689 0.309005 0.323269
0.00978588 -0.232589 0.317595
0.0105674 0.254101 0.259714
-0.00674076 -0.190618 0.454818
-0.00880611 0.204267 0.0339807
-0.00601925 0.147533 0.393073
-0.00955953 0.367943 0.244341
-0.100641 -0.225007 0.584051
-0.0376573 0.0501318 0.0997594
0.00861051 -0.180586 0.0744923
0.00335701 -0.106691 0.334767
0.00405444 0.466094 0.190249
-0.0507216 -0.200137 0.544624
0.00454482 0.228503 0.340368
0.00852474 0.445079 0.124133
-0.00707843 0.028704 0.134723
0.0122443 -0.131064 0.210875
0.000426227 0.241069 0.337947
0.00491884 -0.448405 0.265874
-0.000151679 0.136156 0.166328
-0.00492211 -0.143497 0.11199
0.064078 -0.217958 0.562776
-0.0297162 0.22901 0.254422
-0.000397622 0.130415 0.24746
-0.00549018 0.124974 0.449464
-0.00936662 0.453724 0.190289
0.0107975 -0.157865 0.318368
-0.0321261 0.026801 0.117033
0.0748248 -0.0399319 0.0839956
0.00555966 -0.101837 0.313053
-0.0177096 -0.282535 0.224938
0.00734317 0.424154 0.261122
-0.0321261 0.292408 0.182548
-0.00153819 0.128336 0.241865
-0.0345677 0.0043542 0.0841939
-0.0323448 -0.0193365 0.129149
0.000813867 0.425082 0.288177
0.00989353 0.131377 0.243484
-0.0194891 -0.347992 0.182092
-0.0082309 -0.140873 0.309778
-0.00677706 0.220636 0.304084
-0.00353187 -0.296383 0.345691
0.0132517 0.147205 0.469639
-0.00247677 -0.197088 0.279918
-0.00146892 0.149285 0.208621
0.0101422 0.290795 0.0124562
-0.00772595 -0.165344 0.415643
-0.0341269 0.11797 0.180975
0.0269908 0.111439 0.144032
-0.00227286 0.0414978 0.219902
0.00723417 0.390489 0.0503115
-0.0101563 -0.345843 0.330374
-0.0147111 0.0677397 0.138954
-0.032893 -0.239043 0.325069
-0.026878 -0.297665 0.16768
-0.00552126 0.25219 0.349335
-0.00421201 -0.0314389 0.26167
-0.0101947 -0.0866572 0.245524
-0.00389038 -0.175492 0.44556
-0.0500106 0.0894452 0.186561
-0.00992763 0.0181313 0.139824
-0.0148695 -0.273825 0.240619
-0.00881666 -0.341125 0.0110691
0.0268604 0.225086 0.459347
-0.0143445 -0.295811 0.346678
-0.00633958 -0.16793 0.0699435
0.00931515 0.294771 0.0145084
-0.131653 -0.16489 0.551884
0.0293033 0.0183511 0.124547
-0.0078466 -0.313859 0.0165908
-0.0394483 0.100236 0.17263
-0.0391522 0.0192222 0.0804139
-0.00404336 0.261906 0.342475
-0.00979728 0.071224 0.227375
-0.00613124 -0.18042 0.0551777
0.00279577 0.118035 0.206665
-0.0072918 -0.215202 0.303078
-0.00692374 0.128714 0.209712
0.0352144 0.174929 0.436546
-0.000123541 -0.183488 0.528806
0.00858777 -0.152441 0.269034
0.0325588 0.0261452 0.118665
0.000967361 -0.322084 0.322805
-0.0330515 0.0756298 0.178038
-0.0156358 -0.244508 0.203446
0.0239787 0.154494 0.45278
0.0434739 0.218432 0.429717
0.0389318 0.223751 0.428854
-0.0131235 -0.13191 0.13533
-0.0030241 -0.254148 0.00877236
-0.00191206 0.200715 0.327216
-0.00881607 -0.249518 0.024696
-0.000426327 -0.102906 0.332647
0.0884894 -0.0191763 0.0570279
-0.00812123 -0.374093 0.0204483
-0.018992 -0.287727 0.127954
-0.00679515 -0.305068 0.329553
-0.00884544 0.441399 0.274895
-0.0245709 -0.322806 0.181243
-0.00710364 -0.334199 0.341559
-0.0380328 0.194286 0.17521
0.0262605 0.295776 0.185642
-0.00854011 -0.436126 0.0711974
0.0840971 -0.222727 0.575548
-0.0108106 0.212596 0.424989
-0.0027755 0.240744 0.336769
0.00420214 0.291792 0.354413
-0.00144921 -0.446756 0.218492
-0.0103391 -0.120002 0.279362
-0.0321261 0.285925 0.153092
0.00954105 0.455303 0.135274
0.00467898 0.449617 0.266948
-0.0103176 0.428398 0.290321
0.00907707 0.389535 0.0462539
0.0108596 -0.39242 0.214288
-0.0298808 0.134754 0.184242
-0.0315019 0.250751 0.228002
0.00804415 0.408137 0.166941
-0.00772649 0.386896 0.106574
-0.00197343 -0.222126 0.37882
0.0227069 0.0302781 0.118257
0.0201574 0.237599 0.44292
-0.00988831 0.13106 0.185853
-0.0383594 0.216872 0.453589
0.0301101 0.17994 0.152477
0.0149883 0.315606 0.247423
-0.0231416 0.184032 0.307832
-0.0267261 0.096345 0.17639
-0.0293262 0.226303 0.252074
0.00690526 0.392104 0.289802
0.0140746 -0.262822 0.342925
0.00952851 0.421297 0.300956
-0.0111997 0.339095 0.344582
0.0228129 0.032493 0.118257
0.0146978 0.289133 0.250348
0.00878375 0.395337 0.321161
-0.0321261 0.0693217 0.119901
-0.000876746 -0.180055 0.477254
-0.0143601 -0.364877 0.215871
-0.0394514 0.103857 0.164698
-0.0421462 0.193075 0.452726
-0.0102199 0.271131 0.269995
0.0153432 0.359167 0.142291
-0.0761654 0.0807709 0.185078
-0.00546548 0.124368 0.192154
-0.00931995 -0.147288 0.142659
0.00922136 0.0323695 0.148048
-0.0265199 0.184294 0.158843
0.0241807 -0.32219 0.156244
-0.0356621 -0.008199 0.162192
0.00345624 0.454982 0.255385
0.000263289 0.0481989 0.147712
0.00710871 -0.299273 0.0176817
-0.0345677 0.00195744 0.140937
-0.0089148 0.350787 0.0257594
0.00185809 0.439804 0.280724
0.0100168 -0.218179 0.0370617
-0.00548923 -0.391285 0.320961
-0.0100106 -0.1599 0.0995534
0.000645547 0.42366 0.0574881
0.00968671 0.324777 0.0166157
0.00773298 -0.0604709 0.280546
0.0101555 -0.385608 0.313125
0.0061323 -0.236981 0.342316
0.116667 -0.192491 0.573387
0.00838766 0.286187 0.00610278
0.0102687 0.20324 0.307178
0.0135426 0.243832 0.339082
0.0123936 -0.250374 0.341679
0.0134037 0.195679 0.31733
0.0174008 0.277706 0.118785
-0.0345677 0.00707227 0.131172
-0.0375314 -0.240346 0.287351
-0.0161191 -0.331611 0.110753
0.00957175 -0.262111 0.328281
-0.129958 -0.170257 0.565935
-0.00776056 0.421049 0.060134
-0.0266315 0.200276 0.286045
-0.0321261 0.0625555 0.156656
0.00824353 -0.140108 0.215465
0.0203367 0.0947982 0.134288
0.00994294 -0.226435 0.358793
0.00690083 0.299601 0.353704
-0.0112924 0.472362 0.178805
-0.139301 -0.160014 0.563291
0.00829939 0.050857 0.192962
-0.00762948 0.038646 0.169893
-0.0297682 -0.299065 0.172908
0.00691187 -0.413549 0.281215
0.00424814 0.0569177 0.170315
-0.0133388 -0.139939 0.237132
0.0057806 0.0554285 0.168624
-0.00678604 0.144773 0.20079
-0.00962289 0.34028 0.331978
-0.00998271 0.324984 0.332336
0.0102206 0.368403 0.335741
-0.00127776 -0.174261 0.44551
0.00927183 -0.245462 0.260883
0.00691215 -0.182801 0.269328
-0.0141474 -0.29699 0.254456
-0.00703259 -0.126648 0.350533
-0.00446304 0.447816 0.25073
0.0498683 -0.0414091 0.0792602
-0.037813 0.0159804 0.152504
0.00494756 -0.303414 0.00237877
-0.0832492 0.0849406 0.18966
0.115582 -0.19219 0.569625
0.0081471 0.102484 0.274161
-0.0379952 0.0559566 0.125485
-0.0119797 0.385368 0.323673
-0.00107572 -0.130737 0.166094
-0.0337218 0.0414723 0.170549
0.00823916 0.474894 0.174872
-0.00976121 -0.46095 0.206243
-0.0898553 0.0823329 0.195135
-0.00180953 -0.131193 0.161326
-0.028615 -0.295575 0.172841
-0.00890874 -0.470222 0.168574
0.0221603 0.192752 0.462486
-0.126355 -0.170887 0.562834
-7.76472e-05 0.41924 0.257228
0.00566661 -0.157982 0.412951
0.0968721 -0.0336678 0.0728619
-0.0129825 -0.145133 0.247552
0.00523007 0.473386 0.20303
-0.00876729 -0.140867 0.134828
0.009267 -0.368065 0.327194
-0.00831745 0.177968 0.0673821
-0.0155983 -0.246621 0.134765
-0.00288053 -0.2091 0.0293991
-0.000488879 -0.190993 0.530709
-0.0321261 0.280138 0.170464
-0.0288475 -0.246964 0.282425
0.00852833 0.472625 0.18505
0.036495 -0.305542 0.173516
0.0327388 0.245501 0.167981
-0.0321261 0.0284313 0.157395
-0.0241416 0.206325 0.273308
-0.0135618 0.467312 0.183519
-0.0110771 0.0194448 0.126405
0.027407 0.210511 0.277373
-0.0377193 0.0503731 0.120727
-0.0521654 0.0758687 0.170265
0.00792139 -0.414995 0.180791
0.0408187 -0.0172313 0.0883748
-0.0349649 0.248497 0.134347
-0.0247557 0.165963 0.459535
-0.00666603 -0.0986044 0.321338
-0.0381651 0.0304039 0.0719393
-0.0103399 -0.437622 0.265643
0.118277 -0.194501 0.576216
-0.00617376 0.430971 0.111599
-0.000402375 -0.183789 0.264562
-0.0062112 -0.27577 0.0569533
-0.00679272 -0.210974 0.0496975
-0.0378798 0.0855236 0.176625
0.00403846 0.474053 0.198963
-0.010694 -0.264896 0.346658
0.0248135 -0.29231 0.193989
0.00982402 -0.285483 0.350633
-0.00536985 0.1996 0.428127
0.0146802 0.123309 0.177674
-0.0374587 0.125341 0.182994
-0.00238588 -0.341057 0.319497
0.00344449 0.436294 0.224085
-0.00439181 0.174453 0.467697
0.00691195 0.30673 0.0211138
0.00267835 0.0349655 0.139232
0.00705098 -0.209366 0.362345
0.00690086 0.155438 0.118137
-0.00929044 -0.137678 0.173592
-0.0270806 0.165393 0.181049
0.0144986 0.191219 0.310527
0.00751548 -0.25052 0.321284
0.0106768 0.216924 0.332726
