-0.00429367 -0.420264 0.25557
-0.00504951 0.124881 0.177308
-0.0409935 0.338273 0.144259
-0.0208775 0.104587 0.117864
-0.0022867 -0.352964 0.273004
-0.0269123 0.170652 0.415399
0.0359655 0.276473 0.224758
0.00253025 -0.400468 0.228477
0.00271709 0.411572 0.0262067
-0.00375078 -0.312114 0.0540393
-0.00173085 -0.344891 0.00230979
-0.0640236 0.120212 0.053176
-0.0070876 0.452075 0.0806648
0.00424277 0.13373 0.419576
0.00432036 -0.407343 0.119901
0.00379862 0.422284 0.196521
-0.0136791 -0.332195 0.166327
-4.46652e-06 -0.279407 0.273586
-0.00928632 0.210169 0.400083
0.0085758 0.368889 0.0243417
-0.00956648 0.175516 0.335278
-0.0071365 -0.136396 0.387424
0.00284848 0.202619 0.0713108
-0.0348608 0.255323 0.247708
0.0270869 0.0896137 0.211932
-0.0284136 0.136234 0.152943
-0.00554259 0.118321 0.34821
0.0362641 0.335535 0.147278
0.000423094 -0.225598 0.0701206
-0.0272948 0.174721 0.144423
0.00574025 0.0725945 0.35453
0.057146 -0.161637 0.504451
0.0444956 0.0644844 0.209623
-0.000592366 0.204928 0.229617
-0.00489132 0.190769 0.195905
-0.0298539 0.200303 0.412363
-0.000727084 -0.424118 0.0599745
-0.0284057 0.096941 0.173762
0.0040763 -0.391873 0.27627
0.00230557 -0.202809 0.208331
0.0350939 -0.226508 0.304455
0.00613165 -0.0185163 0.223802
-0.00253581 0.36557 0.306914
-0.0070921 0.0460463 0.181407
0.00156106 -0.215484 0.355853
-0.00046828 0.175946 0.159521
-0.0071054 0.118774 0.161173
-0.0330522 0.0857345 0.157647
0.00131185 0.436245 0.269586
0.038195 0.278801 0.156865
-0.0305638 0.0585357 0.132549
0.00449027 0.363439 0.244205
-0.0413571 0.267056 0.149098
-0.00699834 -0.192015 0.12509
-0.00444853 -0.377089 0.0282352
0.00043045 -0.18895 0.215324
0.0103086 0.319868 0.148199
-0.0138669 0.168887 0.421213
0.00505381 0.0867633 0.139989
0.0248536 0.0863024 0.19717
0.00643621 0.464038 0.0849871
-0.00272389 -0.206932 0.246237
0.000439867 0.179654 0.194201
-0.00241125 -0.152363 0.44869
0.0363291 -0.264827 0.239087
0.00561685 -0.264294 0.132075
0.00394373 0.0275808 0.365464
-0.0294906 0.143435 0.126177
-0.00221522 0.18054 0.356733
-0.00671752 0.194453 0.0960132
-0.0259893 0.150752 0.178199
0.00120791 0.330358 0.0279153
0.00607874 -0.0316784 0.373731
-0.00551648 0.425937 0.059554
-0.00833323 -0.240018 0.0434509
0.018966 0.225747 0.278267
-0.0078341 -0.134962 0.291031
-0.00061825 -0.330619 0.287198
-0.0508338 0.14705 0.0514698
0.00869703 -0.360483 0.134061
0.0684702 0.0669617 0.209666
-0.00523243 0.327139 0.293466
-0.0226379 0.316288 0.163782
0.00600749 0.148081 0.310893
0.00357523 -0.326862 0.00118618
0.00746857 -0.471926 0.113703
0.00456333 0.420581 0.269952
0.00662491 0.137431 0.267701
-0.0496525 -0.154064 0.50658
-0.00721825 0.239271 0.0515969
-0.0112035 -0.334125 0.180236
-0.00409573 -0.447262 0.253492
-0.0372258 0.309585 0.187562
0.0816594 -0.170867 0.497068
0.00732183 -0.190765 0.33596
0.00689589 -0.281991 0.0238085
0.00661103 -0.186922 0.406507
-0.0136494 -0.152065 0.50188
0.0085758 0.277821 0.0282581
-0.00505167 -0.398768 0.291217
-0.0112457 -0.221806 0.333483
-0.00540524 0.2965 0.289263
0.0376357 0.315627 0.152238
0.0194888 0.163896 0.134276
0.112574 -0.150599 0.495003
0.00788919 0.322198 0.110684
-0.026681 0.208847 0.177507
-0.00319236 -0.22087 0.174757
-0.00599028 -0.387786 0.282098
-0.00638025 0.362832 0.192021
-0.00683693 0.44242 0.244985
-0.008532 -0.467658 0.156669
-0.0074039 0.241003 0.273075
-0.00738113 0.149138 0.27572
-0.00309918 -0.176138 0.314125
-0.00626813 -0.340545 0.231827
-0.0958307 -0.159038 0.494794
-0.00288302 -0.259619 0.0187031
0.00703147 0.356923 0.291045
0.0319461 -0.244083 0.280166
0.0050113 -0.155001 0.38999
-0.00415167 -0.0647157 0.239852
0.023629 0.212258 0.149884
-0.00533876 0.312154 0.00745892
-0.0024799 0.389366 0.0356787
-0.0402306 0.118115 0.0866183
0.0056113 0.167927 0.395004
0.00375353 -0.469504 0.151337
0.023109 -0.334402 0.156818
0.00397024 0.293244 0.0637601
0.00277722 -0.391991 0.0151547
-0.0208775 0.116269 0.142435
0.00246729 0.369411 0.00803865
-0.00557299 -0.266323 0.293043
0.00439089 0.0167004 0.202136
0.00149081 0.473561 0.1771
0.0333469 0.259161 0.242239
-0.00865493 0.12169 0.204947
0.0415619 0.299959 0.193937
0.00689589 -0.450122 0.0766987
0.00689599 -0.293095 0.289055
-0.00028155 0.120808 0.2228
0.015543 0.196184 0.313027
0.0450635 -0.284712 0.206507
-0.0385264 0.100234 0.141136
0.00689599 -0.239257 0.26703
-0.0253342 0.347048 0.148375
0.0218939 0.0982145 0.150506
0.0426197 -0.323463 0.177091
0.00458989 -0.408868 0.040068
-0.0404301 -0.260541 0.262082
0.00332223 -0.198043 0.184945
-0.00708595 -0.475754 0.113212
0.00712944 0.429801 0.0442742
-0.00171521 0.243611 0.217343
-0.00631697 0.381857 0.160343
-0.0833344 0.12366 0.0569681
-0.00110931 0.233866 0.093533
-0.0056545 0.469781 0.172822
0.0085758 0.472399 0.15097
-0.00478063 0.275863 0.298513
-0.00917304 0.131741 0.233957
0.0177362 0.188403 0.419085
0.0110694 0.210406 0.416352
0.00733336 0.0667665 0.162757
0.00891462 -0.166411 0.428767
-0.0284057 0.126884 0.114873
-0.0034262 -0.101357 0.283712
-0.00560651 -0.252109 0.266309
0.0362641 0.341824 0.168048
-0.00797297 0.015535 0.36142
-0.00882396 -0.224624 0.256559
0.00360634 -0.483444 0.156934
0.00580584 0.445245 0.235932
0.0085758 0.243624 0.0443408
-0.02535 0.325266 0.178487
-0.00799246 -0.459681 0.0799417
-0.00721818 0.388998 0.281215
0.00744678 0.159477 0.341506
-0.0296574 0.0950047 0.10441
0.00121655 -0.480108 0.191837
-0.00544507 -0.449701 0.227047
0.00638452 -0.0778215 0.380873
0.00513827 0.247139 0.188484
-0.0792037 -0.170895 0.497819
0.00324656 0.197208 0.180402
-0.00748854 0.116248 0.41645
-0.0397783 -0.244997 0.269892
-0.129345 -0.145497 0.501482
0.0038219 -0.36128 0.0230238
-0.0157795 0.12948 0.408657
0.00745007 -0.28582 0.179784
-0.00910381 0.0259074 0.187032
0.0121726 -0.33508 0.143646
-0.00453532 0.413352 0.268895
0.141612 -0.144366 0.500228
-0.000265738 0.108983 0.178536
-0.00828149 -0.337233 0.299415
-0.0288803 0.329293 0.155475
0.0041597 -0.411319 0.159047
0.0134277 0.140323 0.407125
0.00546962 -0.309839 0.019613
-0.00106632 -0.106355 0.377895
-0.010407 0.319917 0.166557
-0.023725 0.213867 0.145526
0.00548555 -0.213919 0.0833123
0.0118198 0.189985 0.395721
-0.0112465 0.212768 0.409919
-0.0036437 0.112914 0.125206
0.00176631 -0.32593 0.152102
0.00506468 0.202736 0.241335
0.0085758 0.393073 0.279529
-0.00897548 0.151547 0.297498
-0.00824205 -0.20413 0.100925
-7.11858e-05 0.190486 0.221622
-0.00701644 0.472677 0.143028
-0.00830783 -0.288242 0.0169703
0.00157599 0.177236 0.415674
-0.00682679 0.354551 0.0166053
-0.00684378 -0.27371 0.111178
0.00510739 -0.430745 0.246961
-0.00857157 -0.308388 0.29179
-0.00506218 0.190865 0.14193
0.00621034 -0.121183 0.386007
-0.00360584 0.266881 0.277103
-0.00257278 -0.179215 0.384659
0.00550952 -0.200141 0.111844
0.00120837 0.236814 0.0350516
-0.005957 -0.304259 0.0178107
0.00765952 0.135105 0.242247
-0.00496967 -0.40206 0.207071
0.00740623 -0.13056 0.292746
0.00412941 -0.010642 0.372708
0.0247533 0.0727421 0.201826
-0.00299258 -0.254306 0.0391536
0.0359606 0.272126 0.147669
0.10245 -0.160014 0.507972
-0.00900749 -0.170291 0.437869
-0.00714833 0.226176 0.0674855
-0.0071357 0.431022 0.250236
-0.00759292 -0.176815 0.331341
0.00588257 -0.0792689 0.253164
0.0239772 -0.231678 0.318393
0.00383372 -0.068261 0.372548
0.00953708 0.301868 0.141671
-0.00802328 0.331025 0.143656
0.0090916 0.0987603 0.123505
0.025864 -0.159066 0.49708
-0.00588412 -0.19456 0.164442
-0.0124337 0.17659 0.319029
0.0085758 0.461713 0.115893
-0.00615094 0.0780719 0.145897
-0.00945297 -0.361365 0.18485
-0.0456737 -0.299933 0.182174
-0.0106184 -0.20518 0.357369
-9.17925e-05 -0.40846 0.264875
-0.00857153 -0.40031 0.277145
-0.0179138 -0.226202 0.309203
-0.00857154 -0.368484 0.289698
-0.00556371 0.224648 0.250715
0.000259534 -0.284103 0.0407145
-0.00567132 -0.180916 0.18323
-0.00378783 -0.310335 0.256873
0.00291379 0.228152 0.199298
0.00738634 -0.195896 0.386515
-0.0189382 0.19713 0.29663
0.0085758 0.297165 0.294219
0.00886013 0.316772 0.30297
0.00656005 0.195945 0.1146
-0.00817147 -0.214742 0.0618219
-0.0073194 -0.089885 0.272912
-0.00522865 -0.380484 0.225555
-0.0085715 -0.464613 0.203554
0.00861524 0.199822 0.0877038
-0.00266045 0.234693 0.141622
0.00689599 -0.452235 0.225405
0.00737074 -0.156457 0.30967
-0.00542262 0.422054 0.263551
-0.000762564 -0.160051 0.493268
0.00445942 -0.223941 0.324555
0.0266979 0.333025 0.161012
-0.00701906 0.273163 0.020879
-0.0072182 0.466618 0.113447
0.0080891 0.40963 0.0451157
-0.0400758 -0.238722 0.305856
-0.044028 0.294838 0.150939
0.00496333 0.242359 0.161088
-0.0222322 0.16435 0.396746
-0.0476599 -0.33548 0.151618
-0.0185731 0.347488 0.176714
0.0241451 0.178639 0.401566
-0.00707078 0.380398 0.0225344
0.00213606 0.483283 0.169372
0.00169898 0.20182 0.1573
-0.0385733 0.26648 0.22603
-0.0204697 -0.162723 0.50097
-0.0512584 -0.265627 0.235959
-0.00457246 0.205103 0.21049
0.00264731 -0.290516 0.0636001
0.00510058 0.472715 0.211273
-0.0055558 0.0882984 0.353945
0.00844752 0.187633 0.131516
0.00178915 0.344354 0.290861
-0.00519488 0.223491 0.265122
0.0081597 0.446299 0.0752885
-0.0324676 0.246425 0.154483
-0.00203536 0.464594 0.162622
-0.00781569 -0.0456252 0.37199
0.0295853 0.231749 0.268666
0.00776054 -0.233917 0.045682
-0.00633876 0.336739 0.0126923
-0.00416512 0.245947 0.0392428
0.00745229 -0.217985 0.249667
0.0423439 0.308126 0.18226
0.00654163 0.124965 0.140918
-0.0298974 0.107765 0.143205
0.013132 0.330899 0.169233
-0.025682 0.217236 0.275043
-0.126236 -0.15892 0.495484
-0.0260434 0.109099 0.100652
-0.0065219 -0.463649 0.128334
0.0085758 0.313964 0.014595
-0.00280467 0.262462 0.040199
0.004118 0.0334955 0.174552
-0.0279561 0.156913 0.0994066
-0.0473948 -0.316962 0.15932
-0.0492795 0.129387 0.0573729
0.0085758 0.246985 0.268892
-0.00213088 -0.020301 0.209432
0.00561429 -0.15041 0.300564
-0.0245517 0.0733057 0.143307
-0.0197227 -0.333292 0.155935
0.00704581 -0.36869 0.0167799
0.00629834 0.0540032 0.35343
-0.00917878 0.163018 0.350862
-0.00419847 -0.192441 0.142457
-0.00399988 -0.463897 0.100422
-0.0057431 -0.415413 0.0295756
-0.00334739 0.481271 0.135898
-0.00325449 0.31457 0.0681287
0.00865364 -0.323263 0.191822
0.00238097 0.462597 0.0994222
0.00772985 -0.441482 0.0611953
0.0756645 -0.15305 0.494358
-0.0348547 0.0982292 0.126788
-0.00517478 0.145968 0.256663
-0.0356711 0.224138 0.145234
-0.00729535 -0.265031 0.146794
0.00838186 0.469228 0.192961
0.0049246 0.177179 0.333484
-0.00823779 -0.199479 0.19769
-0.010936 0.110294 0.144373
0.00860922 0.381294 0.0226171
0.00689589 -0.336837 0.0159092
0.00689589 -0.396352 0.0342873
-0.00862822 -0.333626 0.0100294
-0.0074045 -0.165111 0.41889
0.00880635 0.411259 0.279176
0.00672165 0.382946 0.282728
-0.0243861 0.276413 0.126262
-0.0358404 0.285912 0.217488
0.00763304 -0.268281 0.286479
-0.00441573 0.153819 0.324385
0.00689599 -0.375161 0.2896
-0.00671541 0.062935 0.156698
-0.023475 0.319674 0.143096
0.00497057 -0.463131 0.198274
-0.00750069 0.301825 0.13
-0.000960146 -0.0353746 0.239854
0.00715044 0.310385 0.0951757
0.00775063 -0.334675 0.301479
0.00579156 0.399719 0.189952
-0.00412203 -0.347619 0.254779
0.00552365 0.21969 0.23651
0.0433389 -0.259621 0.256411
-0.00791416 -0.120801 0.38929
-0.0340179 0.135169 0.0483833
-0.00419114 0.467059 0.222904
0.00676827 -0.214017 0.0610841
-0.0518145 -0.286822 0.214401
0.00341033 -0.157688 0.463596
0.00331625 -0.0270427 0.364283
-0.00796396 0.290046 0.156754
-0.00493494 -0.428182 0.271722
0.00609889 0.163757 0.355467
-0.000447599 0.177091 0.142826
-0.0044252 -0.441492 0.231591
-0.00584828 0.290389 0.0215302
0.00649863 -0.186225 0.11161
0.00704931 -0.199806 0.352974
-0.00365913 -0.156676 0.402095
-0.00721821 0.441244 0.0687489
-0.000456787 -0.294863 0.305698
0.00689589 -0.457925 0.102516
-0.0246552 0.233058 0.177358
0.0085758 0.191076 0.187725
0.00897909 0.216863 0.0662781
-0.0219 0.0904862 0.147562
-0.00699422 -0.283249 0.283342
0.00578233 -0.0619551 0.253748
-0.0260434 0.126121 0.1321
-0.000870171 0.456865 0.202435
-0.00404929 0.0289724 0.352848
-0.0201312 0.186213 0.420129
0.00413627 -0.444275 0.0542987
0.0287304 0.243983 0.143876
-0.00721816 0.369561 0.290286
-0.00382028 0.178914 0.389907
-0.0290327 0.173202 0.401029
-0.00709414 -0.144808 0.481459
-0.0161611 0.150024 0.395925
-0.0298974 0.0797247 0.16979
-0.00730012 -0.434111 0.054155
-0.00708778 -0.196852 0.225522
0.00858776 0.339919 0.200533
-0.00743892 0.469659 0.202372
0.00345907 -0.467729 0.168144
0.0107792 -0.344718 0.165131
-0.00813386 -0.293604 0.198827
0.00726793 0.271993 0.175313
0.0289153 0.0829609 0.184658
-0.0669896 0.136178 0.0574914
-0.027765 0.256513 0.236977
0.00421872 -0.462494 0.0783898
0.0031591 0.155964 0.421376
0.0447647 -0.309647 0.17475
0.00728789 -0.19599 0.0936464
-0.00133295 0.448095 0.0921121
-0.0425519 0.32847 0.160557
0.00476604 0.0406106 0.362162
0.0326461 -0.232796 0.292732
0.00129091 0.276671 0.0130953
-0.023475 0.341279 0.162983
-0.00235398 -0.238252 0.277721
0.0296199 0.203456 0.142095
-0.0255116 0.240449 0.117328
-0.00894168 0.157656 0.336593
-0.0409935 0.323573 0.177305
-0.00418683 -0.447738 0.088852
-0.00699148 0.188891 0.111345
-0.0233428 0.156616 0.143337
-0.0047873 -0.0100841 0.221342
0.00508688 0.431866 0.0677665
-0.00784705 0.0633763 0.35164
-0.0197835 0.306425 0.151193
0.00776666 -0.207508 0.234628
0.00521305 -0.186855 0.204389
-0.00464379 0.338432 0.085802
0.0419636 -0.270914 0.225676
-0.00900764 0.13265 0.394817
0.103044 -0.14913 0.502077
0.0085758 0.257687 0.276981
-0.00421701 -0.466084 0.226495
0.00279643 0.279276 0.281708
-0.0177297 -0.227762 0.324326
0.0085758 0.34312 0.0152257
-0.00480202 0.386663 0.112867
0.00161611 0.23958 0.281264
-0.00222953 -0.265694 0.273449
-0.00145069 0.195282 0.12686
-0.00862266 -0.226402 0.0503217
0.0122664 0.14883 0.140041
0.0056628 0.290528 0.304751
-0.00590828 -0.218455 0.318155
-0.00581067 0.208112 0.0950242
0.00593483 -0.250517 0.0262467
-0.0202133 0.184759 0.139295
0.0422321 -0.248934 0.273174
-0.0258762 0.19509 0.109151
0.04298 -0.334281 0.156264
-0.00444076 -0.190353 0.364528
0.0367768 -0.295545 0.200408
-0.00669295 -0.469862 0.141581
0.0048214 -0.304306 0.226619
0.00807878 0.435288 0.252639
-0.00748595 -0.31808 0.295605
-0.0327375 0.121643 0.151659
0.00109307 -0.219225 0.236775
0.0192926 0.163966 0.399602
-0.00257777 -0.455274 0.212961
0.00770196 0.11527 0.169059
-0.0073009 0.401515 0.0307875
-0.00752675 0.209685 0.238507
-0.00441127 0.181276 0.400643
-0.00279167 -0.119645 0.296177
-0.0785217 -0.160366 0.507949
0.0650757 -0.151126 0.500728
0.0085758 0.223705 0.253054
-0.0024923 -0.186547 0.321066
-0.0541043 -0.302289 0.189237
0.0249905 0.217063 0.288871
0.127988 -0.160941 0.498848
-0.0335813 0.243619 0.258143
-0.0332702 0.125574 0.0761067
0.0010841 0.436936 0.0749829
0.00190762 0.47177 0.0982867
0.00710408 -0.00615775 0.207411
-0.0269714 0.226251 0.280223
0.0123076 -0.31759 0.15422
-0.0258055 0.110711 0.166476
0.00363047 0.0956555 0.149919
-0.0073088 0.213046 0.068828
-0.000113125 0.156591 0.291637
0.0442591 0.0793619 0.209882
0.00609968 0.189477 0.100708
-0.0119378 -0.342466 0.154066
0.00682732 -0.0518446 0.23702
-0.000761963 -0.404586 0.0311494
0.0048793 -0.363284 0.225327
0.00657743 -0.42447 0.264492
-0.00695618 0.355503 0.298215
-0.0032748 0.126301 0.333822
0.00604807 -0.421864 0.047886
-0.0324068 0.075334 0.127517
-0.00833668 -0.203201 0.0852883
0.00492664 -0.385603 0.288477
-0.00283938 -0.344594 0.288879
9.4604e-05 0.454054 0.0665352
0.00591308 -0.465061 0.131975
-0.00857156 -0.436093 0.244745
0.00786063 0.42291 0.0563559
0.00580203 -0.0330408 0.221735
-0.010235 -0.214191 0.344038
-0.00372319 -0.34131 0.0173756
-0.00449835 0.284492 0.0987739
-0.0294805 0.0576656 0.148049
0.00722995 0.357442 0.015097
-0.00780902 0.32966 0.168951
-0.00977748 -0.290318 0.15472
-0.00272244 -0.195136 0.396979
-0.0167261 0.164216 0.137954
-0.00645665 -0.195656 0.114209
-0.0911424 -0.158142 0.509644
0.0085758 0.185916 0.151212
0.00652862 -0.278668 0.295686
-0.0338671 0.118286 0.0989756
0.00296385 0.331604 0.269286
-0.00445944 -0.325028 0.308121
0.0127926 0.110481 0.130859
-0.044683 0.313775 0.18015
-0.00440763 0.12929 0.192542
0.0085758 0.266041 0.286912
-0.0410774 -0.263307 0.24329
0.0109953 0.337706 0.14601
0.0585945 0.0736527 0.216485
-0.00352172 0.340452 0.301303
0.00816048 0.472608 0.1648
0.0076831 -0.317224 0.299637
-0.00428884 -0.17994 0.123488
-0.00839918 -0.419389 0.0424597
0.0394391 0.32725 0.159261
0.00130678 -0.191481 0.155022
0.0225234 0.227155 0.148037
-0.0177359 0.33624 0.151967
0.00885603 -0.182879 0.394769
0.0687018 -0.168617 0.493248
-0.0136791 -0.326172 0.144875
0.00624448 0.200398 0.396492
0.00890887 0.254109 0.0330891
-0.113542 -0.148115 0.496783
0.00119501 -0.149559 0.504128
-0.00362075 -0.373648 0.0169234
-0.0274364 0.266738 0.178222
-0.130605 -0.154753 0.509701
0.00764472 0.0427858 0.177561
-0.0047318 -0.258581 0.280794
-0.0325788 0.0925257 0.118613
-0.00485364 -0.154272 0.436018
-0.00376063 0.463033 0.130465
-0.0315552 0.25714 0.146879
0.00717124 -0.188206 0.174938
0.089661 -0.15583 0.496527
0.00458443 -0.352744 0.011914
0.00689589 -0.38189 0.0256655
0.00670973 -0.266973 0.0281189
-0.00582816 0.190089 0.171243
0.000234145 0.448772 0.254606
0.00817622 0.328914 0.300342
-0.0233854 0.199125 0.398002
-0.00451281 0.377156 0.0932883
-0.00511333 0.43607 0.0485594
0.00670796 0.35919 0.305595
-0.00589654 0.417822 0.0470856
-0.00618183 -0.024756 0.230326
-0.00721826 0.305617 0.0210984
-0.00365973 -0.211377 0.21897
0.00730177 -0.315625 0.205065
-0.00816764 -0.192282 0.209696
0.0250266 0.25133 0.253468
-0.0255467 0.347866 0.160764
-0.00721822 0.468311 0.187627
0.00689589 -0.297238 0.0200808
0.00343329 -0.280445 0.010134
-0.142869 -0.150671 0.510223
-0.000542803 -0.230389 0.0378959
-0.000245266 -0.235152 0.0601012
0.00795404 0.20906 0.221842
-0.0177624 0.321693 0.183612
0.0421225 0.0895845 0.213604
-0.00857148 -0.355677 0.297194
-0.00694259 -0.362941 0.017363
-0.00021823 -0.0669867 0.385566
-0.0727357 -0.162204 0.496428
0.00449098 0.423365 0.255084
-4.01265e-05 0.460603 0.0754468
-0.044188 0.284628 0.156173
0.00298162 -0.201106 0.221041
0.00180886 -0.418315 0.269657
0.00902487 0.191001 0.200568
0.0351362 0.265058 0.15639
0.00231981 -0.198081 0.126987
-0.00495805 0.184374 0.415137
-0.00327916 0.11956 0.139228
-0.0471872 -0.322292 0.168948
0.0317042 0.293825 0.157596
0.00577743 -0.186047 0.376781
0.00060473 -0.0810335 0.27041
-0.00470607 0.367057 0.0215348
-0.00581248 0.392474 0.150003
-0.000533397 0.382231 0.291999
0.0256176 0.268354 0.231579
0.00397947 -0.362644 0.286783
0.00578614 -0.219558 0.342632
-0.031408 0.185635 0.411409
0.00540643 0.399483 0.0359422
-0.00266423 -0.441138 0.0786498
-0.0340591 -0.236855 0.295725
0.00406182 -0.472313 0.100582
-0.0334317 0.114369 0.129387
0.00147399 0.309571 0.292975
0.0289261 0.245876 0.244851
0.00705333 -0.301659 0.300853
0.00626684 -0.189289 0.145547
-0.00921287 0.161465 0.361466
-0.0390836 -0.162791 0.501373
0.00380539 -0.318912 0.0109086
-0.00204672 0.185321 0.207076
-0.00684649 0.0642775 0.16941
0.00701238 0.181283 0.180892
0.000557878 0.133175 0.204541
-0.00555339 -0.295039 0.290749
-0.0246653 0.247521 0.251886
-0.00284668 0.254073 0.273193
-0.00567388 0.3213 0.0209198
2.76865e-06 -0.240814 0.25984
0.00589169 0.185416 0.10953
-0.000398474 0.11211 0.336095
-0.0223692 0.117628 0.123833
-0.0796246 0.133421 0.0574433
-0.00794972 -0.394984 0.0280252
-0.00658229 0.259965 0.0304835
-0.0294532 0.232233 0.15237
0.00982898 0.177178 0.421226
-0.0258794 0.331793 0.167957
-0.0251112 0.317 0.151501
-0.00780909 0.322909 0.156336
0.00500462 0.480072 0.18518
-0.0101597 -0.193131 0.386786
0.00303987 -0.479589 0.122002
0.0364598 -0.280782 0.224078
-0.0284057 0.0844176 0.0968907
-0.0319411 0.0886094 0.137098
-0.111009 -0.162553 0.500737
1.14714e-05 -0.459368 0.116996
-0.00709797 0.318228 0.304309
-0.00610034 -0.154645 0.467039
0.0085758 0.370462 0.291346
0.00417685 -0.146765 0.485292
-0.00584693 0.132359 0.345211
-0.0298974 0.057948 0.118349
-0.0371571 0.280072 0.208613
0.00144804 0.0134158 0.369712
-0.00805306 -0.292347 0.108667
0.0374076 0.309426 0.193017
-0.000776559 -0.440762 0.0620816
-0.000807632 0.377905 0.031338
-0.004232 0.134216 0.269919
0.0706739 0.0818733 0.209926
-0.0065629 0.291519 0.302319
-0.00778601 -0.218411 0.241715
-0.056926 0.130446 0.0506891
0.00670496 -0.2298 0.256306
-0.00664704 0.328652 0.307235
-0.00809089 0.157501 0.311346
-0.0151714 0.142804 0.142476
0.0126929 0.343501 0.158052
-0.14257 -0.146747 0.495409
0.0362211 0.2791 0.210898
-0.0072186 0.251922 0.282637
-0.0063926 -0.104775 0.268965
0.00107896 0.169881 0.421982
0.006323 0.0904733 0.346703
0.0085758 0.237768 0.0530431
-0.100052 -0.149322 0.502079
-0.00706199 -0.0854822 0.25663
-0.00536591 -0.161644 0.306165
0.000217446 0.175133 0.371963
-0.0284057 0.138071 0.139499
-0.00722578 -0.280449 0.0278146
-0.00257014 0.246378 0.0997411
0.00529678 -0.309669 0.00546122
-0.00170358 -0.210618 0.0734167
0.00269084 0.230066 0.273331
0.00997946 0.326144 0.12394
-0.0022226 0.420178 0.280691
0.00245384 0.166054 0.329702
-0.00484152 0.236314 0.261048
0.0205706 0.239535 0.260847
0.00794726 0.264601 0.0221292
-0.0208775 0.0995685 0.15661
-0.00325665 -0.415611 0.0511159
-0.00319525 0.461677 0.236918
-0.00775086 -0.189944 0.173398
-0.00670721 0.223824 0.0517022
0.013132 0.318632 0.16138
0.00543802 0.104063 0.349041
0.0085758 0.332887 0.0142944
-0.0439438 -0.274973 0.233077
0.0441771 -0.268834 0.246196
-0.00701197 0.478726 0.157693
0.00689599 -0.255671 0.274212
0.00355804 0.230791 0.065081
-0.00268063 -0.193464 0.345915
0.0391467 -0.313872 0.185374
-0.00697996 0.0905321 0.151525
0.0104672 -0.230956 0.319833
-0.0298974 0.123254 0.163046
-0.00520698 0.450073 0.231238
0.00693811 -0.477341 0.135567
0.0074244 -0.46325 0.21031
-0.00617974 0.113953 0.189331
-0.0178152 0.33302 0.130411
0.00720982 -0.47552 0.181596
-0.00721825 0.200822 0.106267
0.0414147 -0.293665 0.212664
0.0058675 0.3041 0.00744487
-0.0701068 -0.177515 0.493618
0.137219 -0.156432 0.494552
-0.0290048 0.163925 0.178577
-0.00402477 -0.188646 0.409469
0.00625363 -0.169882 0.441064
0.0221434 0.193379 0.304152
-0.00603333 0.325213 0.00666385
-0.00132703 0.19506 0.0834744
-0.00048435 -0.219739 0.334068
-0.00982343 0.170372 0.360077
0.000408694 0.348673 0.0235488
0.00336115 0.28772 0.289072
0.00665004 -0.386156 0.17204
-0.00597769 -0.184549 0.111405
-0.00829377 0.132372 0.21885
0.0429623 -0.27901 0.234713
-0.00903433 0.00890304 0.200437
0.00767256 -0.438388 0.252567
-0.00794732 -0.323731 0.00534427
-0.0193547 0.327165 0.156633
0.0289595 0.103916 0.140762
0.00292867 0.118069 0.150733
-0.00670591 0.2087 0.0813598
-0.00117889 -0.0116433 0.359791
-0.0036183 -0.352745 0.0187064
-0.0624251 -0.151561 0.504207
-0.00557965 0.141523 0.240991
-0.0212979 0.0926803 0.111096
0.00257466 -0.244295 0.0507898
-0.0069223 -0.209032 0.326692
0.0754394 -0.159633 0.505861
-0.0287894 0.184357 0.145494
-0.00774937 -0.146894 0.395312
-0.00121468 -0.1865 0.137553
0.00556543 0.12679 0.232989
0.00305328 0.204019 0.204511
-0.00960995 0.161171 0.39485
-0.00473638 -0.12606 0.281758
0.000387549 0.105641 0.165628
-0.00597168 0.191524 0.185092
-0.00702111 -0.305466 0.0066877
0.0260423 0.19178 0.40844
-0.00815137 0.137927 0.42057
-0.0072181 0.406816 0.279064
0.00739957 -0.402016 0.283844
0.000402476 0.0130108 0.187553
-0.0177359 0.321548 0.1348
-0.00663535 -0.241982 0.0324954
-0.00176529 -0.360387 0.305596
-0.0081767 -0.235935 0.263006
0.00674696 -0.157151 0.435751
0.0239358 0.175995 0.136118
0.00193276 0.213085 0.407484
-0.00264314 -0.189762 0.189846
-0.00597578 -0.468017 0.0926578
-0.0245517 0.0682885 0.118163
-0.00481909 0.26047 0.291777
0.0066021 0.122493 0.413516
-0.000895737 0.0337444 0.193323
-0.0177359 0.341511 0.138532
-0.0454495 -0.281006 0.206271
0.00098439 -0.209193 0.368728
-0.0085266 -0.225325 0.24366
-0.00787862 0.0760938 0.349433
-0.00792264 -0.0644507 0.376209
0.0974853 -0.175381 0.495857
0.00668077 -0.432639 0.0567859
-0.0362902 0.298027 0.192915
0.00443651 0.319858 0.292387
-0.00435116 -0.346275 0.30701
-0.00875555 -0.470816 0.19316
0.120526 -0.182292 0.490549
0.00689589 -0.455627 0.0889279
0.000367834 0.381338 0.0118962
-0.000808463 -0.109984 0.39392
-0.00363819 -0.33202 0.159606
0.109715 -0.15503 0.50979
-0.000467586 0.0676329 0.150597
0.0850491 -0.177648 0.492874
0.0200245 -0.220893 0.320011
-0.00723459 -0.21721 0.232301
0.0289559 0.0927702 0.162455
0.00858341 0.47364 0.119867
0.0342792 -0.237509 0.307716
0.014184 0.210422 0.404008
0.0085758 0.266183 0.0339681
-0.00293349 0.142683 0.303657
0.00459054 -0.13005 0.394932
0.0085758 0.389979 0.0302269
0.01485 -0.152162 0.50116
-0.00771604 -0.187734 0.156369
0.00756988 0.137198 0.255121
-0.00790374 -0.0153217 0.369408
-0.00468444 0.185503 0.152372
0.00672476 -0.288153 0.299005
0.00626032 -0.0898424 0.380402
-0.0345958 0.264125 0.240204
0.000204039 0.433502 0.243159
0.0085758 0.449659 0.0884827
0.035827 0.343978 0.156637
-0.0201918 0.311828 0.173388
0.00396727 0.43024 0.261557
-0.0283575 0.339113 0.151912
0.0266627 0.0786471 0.211153
-0.0609268 -0.161962 0.502037
0.00397708 0.12802 0.395326
0.00143987 0.209736 0.109771
-0.00742057 0.460212 0.092464
0.0136552 0.15283 0.396658
-0.0633269 0.147054 0.0512675
0.00763476 0.0554449 0.168031
-0.00721815 0.306564 0.295272
0.04454 -0.302801 0.198441
0.000892535 0.325487 0.154144
-0.00438134 0.102783 0.152133
0.00437315 0.454687 0.104983
0.00456302 0.340076 0.00421733
0.00397511 -0.0432463 0.226162
-0.0016427 -0.163633 0.454057
-0.00759885 -0.0535338 0.235835
0.00891873 0.187166 0.31449
0.00533687 0.402242 0.271889
-0.0021026 -0.45768 0.0691795
-0.000167013 0.170901 0.353486
-0.00644656 -0.253303 0.143071
0.0024772 0.194762 0.231792
-0.0283193 0.206997 0.111043
0.0387751 -0.157171 0.496839
-0.0272462 0.192795 0.179604
0.0172098 -0.230311 0.310805
0.00555119 0.481518 0.143995
-0.0446307 -0.294663 0.192999
-0.00508515 -0.408575 0.0406303
0.00448366 0.253108 0.0458498
-0.0198511 0.351892 0.149219
-0.0185731 0.331684 0.147745
-0.00540993 0.219733 0.243816
-0.00547334 0.35006 0.306408
0.000457931 -0.324769 0.299652
-0.00169389 0.0965458 0.125146
-0.000520354 0.226889 0.0426517
-0.0385051 0.109414 0.0990135
0.0178701 0.20053 0.418087
0.00388358 -0.284548 0.286038
0.00742026 -0.119543 0.287721
-0.00698847 0.0360013 0.36224
-0.000818189 -0.0383829 0.364821
0.00459369 -0.144888 0.397792
0.00192658 -0.142009 0.291722
-0.0272106 0.125257 0.0931583
0.0382649 0.0733044 0.216479
0.0193174 0.103205 0.13511
-0.00273302 -0.386005 0.0217445
0.12972 -0.145706 0.501505
0.000681209 0.126433 0.243262
-0.020001 0.335196 0.180059
-0.0262193 0.112648 0.0918038
-0.00529874 0.269233 0.288434
0.093331 -0.15145 0.506004
-0.0295617 0.184717 0.400142
0.136208 -0.15258 0.507031
-0.0275203 0.330793 0.147406
-0.00814215 0.368428 0.157872
0.0023104 -0.214591 0.224649
-0.00864742 -0.275979 0.0189212
0.00262826 0.464214 0.146739
-0.0245517 0.112648 0.111244
-0.015111 0.187796 0.321991
0.00305647 -0.0940408 0.277897
-0.0723647 0.129155 0.0506666
-0.00721145 -0.000691161 0.368801
0.11733 -0.15915 0.500713
0.00190171 0.196471 0.138836
0.00716376 -0.33502 0.155976
-0.0245517 0.128502 0.144863
0.00436455 0.150521 0.275757
0.00360396 -0.202445 0.101644
-0.0339318 0.0914594 0.145213
0.00273629 0.46621 0.107934
0.00155124 -0.0537629 0.368308
0.00713995 0.305194 0.0185174
0.00851267 0.346433 0.299599
0.00598906 0.0179749 0.359014
-0.00721824 0.270183 0.0307632
0.00656784 0.00651179 0.196752
-0.0260434 0.0683409 0.135919
0.0316761 0.216337 0.144755
0.000407382 0.115192 0.201359
-0.0136791 -0.335272 0.144731
0.00866875 0.442732 0.246787
-0.00856076 -0.460146 0.218285
-0.0185731 0.352891 0.156866
4.47379e-05 -0.468862 0.195803
-0.00868097 -0.431688 0.25903
0.000727682 0.244638 0.0556084
-0.0468834 -0.250944 0.26089
0.00503303 0.296603 0.0258927
0.0443816 -0.293123 0.19377
-0.00811465 -0.272855 0.279565
-0.0274939 -0.232714 0.309283
-0.00927973 0.116259 0.172879
0.00195263 -0.370875 0.252052
-0.00820182 -0.301443 0.300749
-0.00289136 -0.157429 0.510075
0.0085758 0.46189 0.209291
-0.00665822 0.182886 0.134206
-0.00112024 0.0570179 0.361713
-0.00716545 -0.159845 0.429118
0.00478683 -0.226825 0.243772
-0.0397847 -0.228676 0.302377
-0.00590047 -0.199673 0.204892
-0.00723444 -0.259899 0.0320129
-0.0492055 -0.281975 0.223772
0.000914931 -0.38337 0.299039
0.000439577 -0.315531 0.288745
-0.00311426 -0.215969 0.0519244
0.0161249 0.152727 0.414836
-0.00615255 0.315959 0.293156
0.00697887 0.388668 0.187325
0.013328 0.127085 0.13284
-0.00928285 0.146732 0.28737
-0.00606282 0.394214 0.0214369
-0.00630282 0.478193 0.179232
-0.0433652 -0.237913 0.285763
0.0190727 0.214083 0.27962
-0.0086647 -0.382645 0.29171
0.00917021 -0.157861 0.493001
-0.003772 0.110311 0.405486
-0.0444377 0.305629 0.195139
0.000502906 -0.214237 0.255886
4.11761e-05 0.286186 0.0295819
-0.00287175 0.191395 0.160426
0.00324406 0.158396 0.302271
-0.0042159 0.220436 0.0766589
-0.0202769 0.205641 0.287768
-0.00715539 -0.193333 0.151774
-0.0851529 -0.160098 0.499213
0.00879374 0.302209 0.299017
-0.0457663 -0.247891 0.278967
0.0334299 0.307865 0.159208
-0.0245517 0.080808 0.152909
0.00743509 -0.109019 0.280022
0.0344513 0.25861 0.146109
0.0085758 0.21407 0.0764226
0.00149517 0.456879 0.156475
-0.00151595 -0.4726 0.129868
0.00362771 0.229964 0.247291
-0.019111 0.208517 0.416639
0.104055 -0.159005 0.498927
0.0145601 -0.328833 0.15003
-0.025716 0.167143 0.10327
0.00689589 -0.347042 0.0165962
-0.00723673 -0.224806 0.324289
0.00385957 -0.259244 0.290879
-0.00818492 -0.420329 0.265721
-0.0975105 -0.161811 0.506605
-0.00243186 0.361767 0.288129
-0.0025248 -0.0401992 0.380089
0.00352643 0.46009 0.192507
0.00739302 -0.13931 0.30094
-0.033353 0.290444 0.207845
0.00478817 0.286711 0.0101391
-0.00602853 -0.481578 0.161969
-0.00730129 0.400933 0.286735
-0.117343 -0.15846 0.504562
0.00721331 -0.410708 0.031185
0.0282035 -0.155787 0.507312
0.00660121 0.465549 0.172475
0.00591438 0.318015 0.00590609
-0.00593348 -0.186157 0.374236
0.0554396 0.0635941 0.209607
-0.0201918 0.307947 0.162851
0.00507785 -0.480774 0.167476
0.00246212 0.315016 0.309832
-0.00815059 0.127044 0.419238
-0.00820435 -0.181418 0.15213
0.0270929 0.257287 0.233432
0.00639205 -0.16753 0.415098
-0.0467147 -0.325105 0.152052
-0.0389951 0.306063 0.152373
0.00689599 -0.188112 0.164048
-0.00716416 -0.165978 0.499301
0.000573112 0.44506 0.0818043
0.00429936 0.113335 0.188444
-0.0193547 0.348896 0.167532
-0.00729432 0.198897 0.224116
-0.00404157 0.247268 0.0292826
-0.000225071 -0.330324 0.0202838
-0.0385589 0.13983 0.0567781
-0.000147611 -0.129199 0.382357
0.00246209 -0.00447975 0.218145
-0.00857155 -0.327307 0.295067
-0.000930118 -0.476732 0.201845
-0.010608 -0.182091 0.398902
0.0190832 0.229261 0.268164
0.0351763 0.315822 0.166257
0.031173 0.301546 0.195583
0.0282874 0.273754 0.217682
-0.0330169 0.106144 0.121187
-0.00428169 -0.135719 0.397754
0.00448873 0.0435703 0.351657
0.0027407 0.169046 0.363721
-0.00190674 0.296702 0.0164714
0.0100817 0.130324 0.405445
-0.00521715 0.171861 0.326242
-0.0166174 0.144014 0.41767
-0.00721822 0.407764 0.0389188
-0.0217836 0.191377 0.305092
-0.00813351 -0.114252 0.277827
0.00689589 -0.251972 0.0410413
0.00429559 0.126879 0.18753
0.0468449 -0.162592 0.502054
-0.0122033 0.110635 0.133857
-0.0380924 0.318961 0.154837
0.00832503 0.198494 0.101787
0.00891323 0.198066 0.220429
-0.0103367 0.191398 0.422111
0.0087786 0.411661 0.0348089
0.035954 0.249985 0.148954
-0.00846775 -0.183019 0.165939
-0.00895922 0.0723079 0.154599
-0.0355519 0.262426 0.156489
-0.00822748 -0.220528 0.0721243
0.00266845 -0.165201 0.390028
0.00689598 -0.203896 0.0858982
-0.00199631 0.170839 0.340745
0.00884865 0.187824 0.119385
0.0221274 0.162069 0.144142
-0.00857153 -0.465792 0.11561
0.00689599 -0.195291 0.194237
-0.00688712 -0.450655 0.0750771
0.00988128 0.169498 0.327989
0.00224023 0.177515 0.172566
-0.0316727 0.233026 0.261139
-0.0140416 0.333221 0.161552
-0.0185731 0.323481 0.171716
0.00428528 0.200367 0.195133
-0.018826 0.214437 0.282188
-0.0116696 0.341983 0.152206
0.00429749 0.206581 0.0819891
-0.00615994 0.470499 0.122905
0.0046846 -0.446098 0.232527
-0.116574 -0.147471 0.506359
0.0369004 0.290459 0.149405
-0.00625328 -0.407578 0.286088
-0.00620957 0.427475 0.0431113
0.0025639 0.186048 0.422193
0.00135327 -0.395426 0.0257432
0.00667778 -0.260977 0.0220442
0.0106305 0.0949053 0.137355
0.00188034 0.195922 0.166536
0.00191753 -0.228957 0.327638
0.00297783 0.473506 0.138243
-0.0208775 0.0834404 0.140269
0.00203023 -0.0835279 0.388108
-0.0243165 0.340776 0.172227
-0.0258069 0.340092 0.140074
-0.019211 0.174823 0.137504
-0.00307318 -0.198465 0.21515
-0.0158174 0.177085 0.395269
0.00280452 -0.166969 0.308933
0.00297756 0.186335 0.140474
-0.00878883 -0.275316 0.289364
-0.0409935 0.336593 0.154233
-0.0141221 -0.323174 0.154406
0.000788503 -0.439181 0.110633
0.00734487 -0.174687 0.323399
-0.00858174 0.132375 0.244034
-0.0260346 0.282776 0.178917
-0.00450582 -0.431493 0.0657041
0.019125 0.151162 0.133046
-0.00399609 -0.192868 0.201294
0.0151119 0.18049 0.396358
-0.00276882 0.362358 0.0162318
-0.0105965 -0.197962 0.366774
0.0064144 -0.0891978 0.260719
-0.00743875 0.19375 0.206299
-0.00721818 0.461152 0.212022
-0.00457485 -0.153282 0.498778
0.00885192 0.454267 0.235901
-0.000198532 0.33967 0.0195851
0.00663687 -0.466641 0.142171
0.000429993 -0.214279 0.322418
0.00730745 0.431761 0.0582392
-0.026594 0.230215 0.116541
-0.00759508 0.438534 0.0591252
0.00240616 0.148274 0.330155
0.00658977 0.323202 0.0170149
-0.0482561 -0.271733 0.242801
0.00616167 -0.248339 0.269754
-0.00043578 0.274616 0.0311716
0.00438159 0.0573529 0.158785
-0.0104818 0.178257 0.421837
-0.0334224 0.207386 0.143736
-0.0213432 0.231115 0.268242
0.00712337 -0.177986 0.423351
0.0014162 -0.154462 0.473551
0.0044133 -0.394702 0.292457
-0.00157913 -0.200106 0.387377
-0.0526524 0.120166 0.0558595
0.00301628 0.360786 0.0223767
-0.0377881 0.249482 0.145849
-0.00721821 0.462108 0.104604
0.0362641 0.332178 0.165723
0.0085758 0.441671 0.066524
-0.00689124 0.0889261 0.344141
0.00678858 0.0342372 0.187077
-0.0409935 0.335884 0.172087
-0.00660345 0.281507 0.29059
0.0241592 0.176432 0.411201
0.00525671 -0.463632 0.227874
0.00836092 -0.207262 0.359322
0.00836691 0.456425 0.0790063
-0.0275886 -0.156362 0.507479
-0.00279706 0.189264 0.395079
0.0283706 0.285018 0.210279
0.00382827 -0.43947 0.240057
0.0389314 -0.239917 0.299385
-0.0225079 0.201084 0.146335
0.0300876 0.068071 0.209685
0.008372 0.226915 0.0572504
-0.0081024 0.0318654 0.179285
-0.00802273 -0.203155 0.337507
0.00557008 -0.223917 0.2636
0.00696942 -0.359223 0.300733
-0.13553 -0.156118 0.494105
-0.00423929 -0.148523 0.386836
-0.00716537 -0.201957 0.0756408
-0.0465491 -0.309553 0.183759
0.00604837 0.467752 0.202178
-0.0298974 0.0948115 0.155844
0.00717245 -0.28932 0.0118046
0.00364922 0.120707 0.162028
0.0444126 -0.317984 0.165085
-0.0143243 0.199816 0.3048
0.0375257 0.299513 0.202805
-0.0141045 -0.158072 0.507553
0.00765277 0.128897 0.222028
0.00449911 -0.275288 0.0304916
-0.009044 0.110418 0.156552
0.0010796 0.374922 0.287005
0.00243687 -0.45008 0.217539
-0.00650972 0.368996 0.0117781
-0.00106833 -0.409821 0.275727
-0.00972714 0.321172 0.146391
-0.0525211 -0.292525 0.205215
0.00519637 0.364809 0.0818314
-0.00227415 0.476275 0.204363
-0.0381776 0.318766 0.168009
-0.0245517 0.0763909 0.120106
-0.0177359 0.322227 0.148637
-0.00223193 0.222419 0.060541
0.0344495 -0.329703 0.155594
-0.0385589 0.128861 0.0541925
-0.00496728 -0.271954 0.0325186
-0.0305008 0.217835 0.151213
0.00629105 -0.45019 0.0651658
-0.0056636 -0.163046 0.324064
0.00550074 0.461893 0.125081
0.00684644 -0.0554263 0.246668
0.00719417 0.465849 0.221857
-0.00616574 -0.180411 0.132967
0.00715101 -0.209386 0.0697237
-0.0860023 -0.148131 0.499632
0.00945423 -0.321083 0.181829
0.0064765 -0.0180277 0.213144
0.00664908 -0.286981 0.189321
-0.0260476 0.292483 0.129549
-0.00109897 -0.361654 0.296073
0.00437763 -0.37373 0.00902248
-0.00296283 -0.238959 0.0513706
-0.0050241 0.478013 0.189019
0.00775452 0.419519 0.047935
-0.0502787 -0.310281 0.165594
-0.000857772 -0.337609 0.309244
0.0369059 0.311787 0.175242
-0.0704696 0.146679 0.0576747
0.00269167 -0.433008 0.268453
0.00493339 0.480663 0.131084
-0.0088507 -0.314215 0.0101462
-0.0110774 -0.160976 0.438859
0.000801679 -0.353388 0.287721
-0.00748315 -0.433766 0.0453016
-0.0301152 0.113572 0.151294
0.0338507 -0.259267 0.254996
0.0906866 -0.158901 0.509165
-0.044922 -0.266745 0.228305
-0.0334287 0.120922 0.123281
0.00242393 -0.482841 0.142653
0.0623532 0.0638437 0.216313
-0.0359957 0.289283 0.157763
0.00689599 -0.46642 0.184478
0.00399519 0.175161 0.385939
-0.00723665 0.135006 0.336158
0.0752639 -0.162611 0.496671
0.0248308 0.2117 0.140019
0.00902926 -0.210722 0.341152
0.0104172 0.18259 0.327887
0.000600029 -0.126915 0.301308
0.0235386 0.237105 0.147926
-0.00630429 -0.212405 0.086579
-0.000989246 0.448499 0.0738925
0.0036144 0.219911 0.26494
-0.000539619 0.143569 0.421348
0.00409224 -0.417617 0.0396134
0.00639531 -0.474696 0.160295
0.000774464 -0.289183 0.022807
0.0334481 0.330847 0.178569
-0.00188687 -0.0508372 0.382312
-0.0233667 0.154387 0.40027
-0.0339318 0.104202 0.133859
0.00365152 0.157406 0.333086
0.00113342 -0.193697 0.357109
-0.0266055 0.116389 0.178607
0.000616408 -0.46738 0.109044
-0.00813648 -0.0341369 0.233837
-0.0267166 0.336415 0.160676
0.0277293 0.219596 0.2802
-0.0201918 0.3116 0.141651
0.00462973 -0.438036 0.0472409
-0.00857148 -0.45937 0.0899252
0.0370022 -0.274935 0.24031
0.00220535 0.0642085 0.172008
-0.00836779 -0.168377 0.314958
-0.00672099 0.371882 0.0262767
-0.00719446 -0.358799 0.288495
-0.000942071 -0.302184 0.286734
-0.000947252 0.408857 0.0475989
0.00107452 -0.19974 0.200454
-0.000623396 -0.481602 0.182761
0.0341523 0.304222 0.184625
-0.00857157 -0.425219 0.0549568
0.00809642 0.46413 0.185393
0.0218993 0.0875028 0.180425
-0.00169258 -0.164441 0.437871
-0.00717545 -0.0511333 0.246889
-0.00808245 -0.161855 0.395666
0.00868141 0.238018 0.271575
-0.00483792 0.204107 0.421498
0.00736063 -0.162931 0.316429
0.0263657 -0.229728 0.305421
0.0991466 -0.152828 0.494424
0.015504 0.331035 0.15076
0.0741083 -0.172507 0.499794
0.0359035 -0.253999 0.277809
0.00208965 -0.0273486 0.233792
0.00510896 -0.164769 0.401048
0.00844775 0.234295 0.0441968
-0.010753 -0.17641 0.412399
-0.00751109 0.184467 0.161174
-6.43642e-05 0.196119 0.102799
0.00835824 -0.219926 0.326498
0.00655482 0.0804566 0.146653
-0.0201918 0.327689 0.164559
-0.0104854 0.0939763 0.128654
-0.00147637 -0.220587 0.249417
-0.00597874 0.372453 0.301738
-0.0319224 0.242517 0.249007
-0.0212221 -0.233101 0.317614
0.00738591 -0.185397 0.152374
0.00506929 -0.272404 0.278597
-0.0041054 -0.186073 0.340529
-0.00209454 0.0172286 0.354486
-0.00160815 -0.473164 0.177803
0.0072003 0.243766 0.0339655
-0.0245517 0.121965 0.153497
0.00108094 -0.411073 0.0242814
0.00545262 -0.415936 0.261131
-0.000746294 0.359413 0.00647483
0.00696936 -0.333919 0.00608272
0.000565737 0.214084 0.231104
-0.00554375 -0.134215 0.492342
0.00369402 -0.269897 0.295251
0.00273534 -0.166013 0.499382
0.00440149 0.0641893 0.358092
0.00501023 0.119472 0.208108
0.00140525 -0.466112 0.204439
-0.00228229 -0.0789809 0.2489
-0.00400018 -0.457009 0.201081
-0.00112639 0.21964 0.136614
-0.0287229 0.242022 0.177295
-0.00317533 0.441541 0.234033
-0.0075121 0.146638 0.26687
-0.00721825 0.230805 0.0595512
-0.0283978 0.265955 0.233698
0.128625 -0.157504 0.50855
-0.0225901 -0.152511 0.499953
0.00159476 0.324268 0.301607
-0.0137059 0.123684 0.401869
-0.0113607 -0.22093 0.312819
0.00232536 -0.260371 0.0348853
-0.0185731 0.31534 0.152847
0.00319673 0.329715 0.295902
-0.00135842 0.158905 0.349323
-0.00474604 0.469923 0.151441
-0.0213208 0.19372 0.140635
-0.00124747 -0.374352 0.285568
-0.00144915 0.20267 0.0884981
-0.00364237 0.0694349 0.344878
0.00258341 0.217475 0.247916
-0.0063882 0.303345 0.00950987
-0.033992 0.107557 0.106698
0.0240395 0.188251 0.400297
0.00356347 0.395332 0.0277095
-0.00510885 0.210031 0.248682
0.000946906 0.195624 0.189604
-0.00892837 -0.152728 0.309684
-0.0750664 0.137806 0.0508176
-0.0251487 0.166378 0.135412
-0.0302094 -0.162232 0.499648
0.0319105 -0.223967 0.312537
-0.00376185 0.399411 0.278258
-0.00772618 -0.196033 0.358309
-0.00193 0.436219 0.255475
-0.0272526 0.0643015 0.110185
0.0261289 0.231017 0.260358
0.000987196 -0.384505 0.0319684
-0.00056501 -0.309078 0.29828
-0.0100073 0.188329 0.314577
-0.00794096 0.123085 0.340951
0.0119652 0.32753 0.143263
-0.00699815 0.16311 0.421801
-0.0260452 0.179823 0.417887
-0.00858421 -0.0842712 0.265399
-0.0392975 0.279438 0.222667
-0.00371107 0.24508 0.262615
-0.000850925 0.233211 0.049795
-0.00231042 -0.0756013 0.386938
-0.00395354 -0.22864 0.333756
-0.0392384 0.10776 0.127422
0.0376727 -0.317495 0.172613
-0.021332 0.076609 0.133151
7.34243e-06 -0.401125 0.273895
-0.0387406 -0.253125 0.277136
-0.0396266 -0.246007 0.293637
-0.00686678 0.432158 0.0656584
0.00305551 0.273712 0.290243
0.00534272 -0.218709 0.0757866
-0.0245517 0.0871572 0.159947
-0.00322838 0.0228242 0.367803
-0.023475 0.322028 0.159736
0.00446381 0.403824 0.281469
-0.0441582 -0.268116 0.250127
-0.00523358 0.480976 0.149267
0.0085758 0.211382 0.235606
0.0279104 0.269117 0.14997
-0.0466362 0.124289 0.0505817
0.00301021 0.279546 0.0215396
0.00180453 0.448409 0.0591011
-0.0343947 0.259794 0.230132
-0.00526184 0.39913 0.0396823
-0.00500674 -0.460536 0.191309
0.014004 0.138389 0.142271
0.0355739 -0.162846 0.502873
0.0209244 0.206599 0.408345
-0.0387619 0.121932 0.0676804
0.00122657 0.348574 0.0135201
-0.00254968 0.0888102 0.135893
0.0455555 -0.309317 0.189733
0.0264911 0.111048 0.136106
-0.00114955 -0.20257 0.0691541
-0.00708952 0.422204 0.272248
0.00689589 -0.23411 0.0549673
-0.00612927 -0.112664 0.381497
0.040721 -0.237665 0.291015
0.00264426 0.233181 0.25601
-0.134848 -0.158284 0.502787
-0.0245517 0.126943 0.122824
0.004201 -0.182582 0.196683
-0.0317637 0.193446 0.407143
0.0416404 -0.259132 0.266499
0.00676619 -0.214208 0.331332
-0.00394998 -0.295548 0.0146487
-0.0073034 0.188842 0.125445
-0.00701657 -0.350847 0.00607192
-0.0177359 0.345646 0.160931
0.0356245 0.0810721 0.209912
-0.0168035 0.206398 0.39749
-0.00408523 -0.244936 0.272268
-0.00391666 -0.146064 0.463737
-0.0117209 -0.157435 0.495816
0.0249381 0.201099 0.149151
-0.00526041 0.0453001 0.362464
-0.00447585 0.474377 0.16543
-0.000199056 0.313127 0.300828
-0.00855844 0.13765 0.263099
-0.0282035 0.0892005 0.177853
0.00517418 0.203999 0.21519
0.0403001 -0.279559 0.211736
0.035751 -0.275683 0.231038
-0.00158261 0.266976 0.296639
0.0657878 0.079015 0.216578
-0.0048013 -0.46141 0.23397
0.0338761 0.271162 0.23168
0.00888088 0.288479 0.296909
0.0136591 0.188097 0.321958
-0.00674237 -0.456101 0.103179
0.000523949 -0.190839 0.115956
0.00602325 0.4433 0.258127
0.0076877 0.307207 0.305214
0.00733183 -0.187239 0.13798
0.00681914 -0.357253 0.205074
-0.0249878 0.207595 0.410295
0.00335598 -0.180681 0.31842
-0.00623597 0.275594 0.282582
0.034641 0.0648027 0.21633
0.0221116 0.0808026 0.191036
0.00648049 -0.384143 0.0153644
-0.0328443 0.0987521 0.111558
-0.00162876 0.186522 0.103313
0.00658012 0.47371 0.10993
-0.000284792 0.192255 0.149202
-0.0053985 -0.449651 0.0612718
0.00689599 -0.426067 0.254022
-0.0260434 0.0723495 0.151846
-0.0056962 0.47055 0.103472
-0.0529208 -0.274139 0.222847
-0.00671505 0.314401 0.0158074
-0.0284057 0.118536 0.170136
-0.00421188 0.468201 0.0934947
-0.00320502 0.1394 0.291109
0.00769386 -0.259182 0.283136
-0.00589677 -0.233149 0.271721
0.00689589 -0.328365 0.0158081
0.00396588 -0.193153 0.221975
0.00162864 0.153311 0.343091
-0.000732998 0.385613 0.0236696
0.127223 -0.15216 0.496399
-0.00110489 -0.300421 0.0237841
0.00169539 0.128814 0.251461
-0.00534824 -0.479091 0.123824
-0.0983614 -0.152818 0.509747
-0.00696364 0.429603 0.267353
-0.00127762 -0.325541 0.010445
-0.00442458 -0.464428 0.168995
0.007241 0.129012 0.212845
0.00826741 0.167491 0.338553
-0.00445917 0.147391 0.318703
-0.0281438 0.0634174 0.154265
-0.0099016 0.167203 0.331685
-0.00725148 -0.250313 0.28275
0.0384009 0.298219 0.1606
-0.042457 -0.329772 0.157944
-0.023475 0.330164 0.173767
-0.00347514 0.297418 0.0257951
-0.00636287 -0.346983 0.298734
0.00488461 -0.156337 0.399674
0.0641686 -0.158892 0.497277
0.00157046 0.261697 0.284666
-0.00774084 0.131239 0.210408
0.00173557 -0.192811 0.16896
0.0157539 -0.160469 0.497756
-0.00718894 0.238479 0.0420386
0.00378202 -0.125737 0.281619
-0.0281296 0.219305 0.285015
-0.0314415 0.2736 0.218592
-0.0032521 -0.199929 0.120826
-0.0828084 0.12937 0.0506703
-0.00695927 0.109353 0.168493
-0.00608192 -0.19306 0.0900824
-0.0282489 0.166633 0.40636
0.00288822 -0.432937 0.256999
-0.00197448 -0.121033 0.380929
-0.0259394 -0.327776 0.157647
0.00638349 -0.0219271 0.370314
0.00854599 0.273061 0.282083
0.00402935 0.45468 0.208825
-0.00568689 0.195316 0.134197
-0.00567855 0.254803 0.037994
-0.0600754 0.142467 0.0576012
0.00429099 0.115938 0.140326
0.0070334 0.472164 0.129582
0.00632255 -0.301255 0.0077466
-0.00511181 -0.463236 0.211215
-0.0547701 -0.319063 0.167079
0.0253219 0.172844 0.14383
-0.00342809 -0.218031 0.326114
0.0277846 0.267556 0.223365
-0.0369961 0.256103 0.239283
-0.00720007 -0.392129 0.0180761
-0.00171587 -0.194638 0.179124
-0.0077103 0.0543609 0.357202
0.0107551 -0.3283 0.138864
0.00142451 -0.371413 0.0266699
0.00865658 0.472009 0.181228
-0.00391278 -0.195753 0.101517
-0.116336 -0.159095 0.495234
0.0466762 -0.294643 0.201706
0.00591815 -0.0472003 0.371196
-0.00915144 0.15092 0.306257
-0.00774583 0.361108 0.153804
-0.00857158 -0.369842 0.0225162
-0.000803384 -0.216415 0.0654448
0.000372375 0.244068 0.273644
-0.00187881 0.466685 0.138157
-0.00866053 -0.189346 0.329877
0.0221082 0.0717708 0.209715
0.0219738 0.073863 0.220537
0.00414789 -0.176182 0.393045
-0.00252245 -0.441108 0.247598
0.000358345 -0.425499 0.0347176
-0.00844665 -0.380068 0.0192245
0.00836708 0.25134 0.283658
-0.0111069 -0.301198 0.157726
-0.0755595 -0.172883 0.489332
-0.00897687 -0.105243 0.276879
0.0393714 -0.241707 0.276192
0.000936075 0.373585 0.295234
-0.0148041 0.155061 0.138357
0.00704987 -0.184714 0.122302
-0.0298974 0.0830263 0.130992
-0.0255758 0.223949 0.267944
-0.00592755 -0.452517 0.0954442
0.0123933 -0.338341 0.151304
-0.0035584 0.287548 0.295646
-0.0292913 0.24736 0.146846
-0.0534882 -0.305116 0.175025
0.000251573 0.46552 0.207703
-0.001783 0.210972 0.0746817
0.0498099 0.0895275 0.216762
0.00256198 -0.187915 0.181845
-0.0105924 -0.326604 0.183704
-0.00380979 0.247567 0.0493053
0.0035645 0.178295 0.393636
0.00142605 0.185623 0.164553
3.89777e-05 -0.460394 0.0917508
0.000792868 0.187448 0.182582
-0.0448553 -0.288033 0.198917
0.00553564 0.294719 0.00818269
-0.0284057 0.105165 0.172877
0.00466912 -0.425961 0.272399
-0.103468 -0.156634 0.496863
-0.00421848 0.182681 0.116042
-0.00721814 0.383175 0.287236
0.00348956 -0.0593897 0.236808
-0.00234847 -0.425701 0.263459
-0.0319539 0.250742 0.254327
0.00689599 -0.191553 0.129058
0.000821254 0.197139 0.213889
0.0241928 0.192066 0.148016
-0.00228184 -0.144402 0.498756
-0.00713074 -0.214634 0.331531
-0.00167616 0.479521 0.118856
-0.00713924 0.261275 0.283955
-0.00546289 -0.205187 0.0927012
0.0085758 0.340269 0.294205
0.00592189 0.0822924 0.346696
0.00302435 -0.342471 0.0110152
-0.142922 -0.15267 0.502286
0.0208275 0.21911 0.273415
-0.00370341 -0.224213 0.0564737
-0.00728557 -0.411045 0.270566
0.000240748 -0.304781 0.012517
0.00472823 0.163156 0.324115
-0.00334764 0.338061 0.00398256
-0.0260434 0.0872711 0.104168
-0.00663039 0.201405 0.233828
-0.00857148 -0.251979 0.0334334
0.00690451 -0.181565 0.14519
-0.000781442 0.106008 0.121992
-0.00331803 -0.266938 0.285251
-0.00721821 0.392212 0.0292307
-0.00747515 -0.204204 0.219228
0.00522994 -0.318442 0.0188889
-0.0428962 0.285392 0.210779
9.18424e-05 -0.283559 0.301733
-0.0112636 0.19359 0.395562
0.00726192 0.352815 0.0222166
-0.00848325 -0.34317 0.0110763
0.069904 -0.176613 0.492605
-0.0256015 0.265393 0.123943
-0.0315064 0.265475 0.150171
-0.0410158 0.306164 0.181277
-0.0058732 -0.474903 0.15422
-0.00227644 -0.430827 0.250266
-0.00721827 0.19843 0.197025
-0.0318714 0.0766336 0.135523
-0.0232608 0.148806 0.141285
-0.0071348 -0.188515 0.104468
0.00310619 -0.400888 0.0397867
-0.00686194 -0.178147 0.427149
-0.00783715 -0.202235 0.234279
0.00793675 -0.196301 0.362796
