-0.00494778 -0.259178 0.279236
-0.00494776 0.267427 0.125815
-0.0366311 0.0922121 0.127812
0.0965221 -0.269628 0.47866
0.00174832 -0.0170287 0.32318
-0.0770959 0.0891498 0.0577081
-0.00494775 0.392995 0.281135
-0.00349519 -0.0167438 0.220528
0.00193004 0.309503 0.196216
-0.13128 -0.247545 0.506363
0.00193001 -0.358265 0.19614
-0.0198816 0.129264 0.455582
0.00193003 -0.226373 0.197696
0.00164195 0.317905 0.00108608
0.0271056 0.0504258 0.184712
0.00193003 0.231966 0.0639266
-0.00917097 -0.0864529 0.306906
-0.0298736 0.16168 0.11541
-0.00494778 -0.318906 0.209749
0.0290755 0.227998 0.26862
0.00413784 -0.0587761 0.345421
-0.0444473 0.265481 0.242592
-0.0272386 0.229484 0.129473
-0.0160508 0.179654 0.329256
-0.009499 0.0888774 0.218981
-0.00494778 -0.319896 0.189845
0.00496171 0.0900933 0.188879
-0.0286647 0.301779 0.190684
-0.00570088 0.0936485 0.432763
0.0093803 0.144436 0.397107
0.00193006 0.443365 0.192537
0.00294541 0.0384036 0.189681
-0.00704396 -0.175797 0.090154
-0.020347 0.347008 0.166595
0.00193002 0.191615 0.222508
0.00193005 0.316431 0.114772
0.00193003 0.19601 0.16133
-0.00494777 0.232534 0.248342
-0.00968471 0.0944581 0.236655
0.00814941 0.0952785 0.154804
-0.00494774 0.391983 0.153058
-0.00494774 0.431688 0.229775
0.000181876 0.359362 0.33095
0.00193004 0.291753 0.0641802
-0.00494777 -0.208037 0.239682
-0.00896418 -0.156598 0.367371
0.00192999 -0.448927 0.218644
-0.0273057 0.221893 0.284546
-0.0049478 -0.426953 0.11793
0.0466575 0.305476 0.171097
-0.00494778 -0.299847 0.108733
0.00193 -0.414811 0.274472
-0.00494777 0.27067 0.300263
0.00193 -0.380934 0.224713
0.000221577 -0.192508 0.280515
0.0884666 -0.249291 0.501616
0.00994333 -0.168807 0.392912
-0.0013557 0.158091 0.431788
-0.00494776 0.261227 0.212785
0.0498979 0.270687 0.229137
0.00214135 0.015339 0.287402
0.00469765 0.199904 0.05594
0.0424102 0.026191 0.238945
0.00193005 0.363792 0.02513
0.0388349 -0.272664 0.230555
-0.00494776 0.340543 0.298524
-0.000707129 0.475177 0.109914
0.00193007 0.450209 0.144175
0.00193005 0.322276 0.0711077
-0.0049478 -0.418461 0.164907
-0.00494779 -0.371013 0.070645
0.00718405 0.0113437 0.198335
-0.0310887 -0.245211 0.47698
-0.00688797 -0.236591 0.472543
-0.00494775 0.35001 0.225274
-0.0226937 0.181257 0.462377
-0.00494781 -0.45456 0.150849
0.00193003 -0.221029 0.0589721
0.00346324 0.307098 0.334024
-0.00494773 0.415981 0.0996741
-0.00494778 -0.302297 0.267799
0.00193004 0.279089 0.162708
-0.0385638 -0.271936 0.222791
-0.0514693 -0.297339 0.182737
-0.0049478 -0.389948 0.280992
-0.0301937 0.315593 0.165581
0.00193004 0.255294 0.139021
0.00041936 0.477327 0.221342
-0.00494778 0.2129 0.270389
-0.00494774 0.381154 0.0940367
-0.0124995 0.145714 0.367342
-0.00494777 -0.184906 0.238879
0.000208337 -0.191429 0.335867
-0.0251561 0.0458552 0.159371
0.00193001 -0.340967 0.158067
-0.00686355 -0.269674 0.0148942
0.00193002 -0.291061 0.238084
0.0585048 0.0505244 0.238945
0.00193 -0.43313 0.0793739
0.00193004 0.259867 0.186181
0.00193002 -0.324928 0.109655
-0.00848863 -0.0882878 0.356405
-0.00494779 -0.348182 0.300969
-0.0031872 -0.473693 0.108553
-0.00494776 0.293405 0.227729
-0.00494776 0.282696 0.10404
-0.0049478 -0.407245 0.128028
-0.0175566 -0.310749 0.170152
-0.00494776 0.294555 0.181892
0.00193003 0.211316 0.180079
0.00193 -0.400374 0.226023
-0.0314021 -0.21404 0.317512
0.0457424 -0.288708 0.18737
0.00193001 -0.386492 0.0217283
-0.0408524 0.0771259 0.111223
-0.00494778 -0.302454 0.0293812
-0.00833151 -0.127398 0.336422
-0.00494778 -0.253711 0.258795
-0.00494776 0.247062 0.17269
-0.000869446 -0.15128 0.146033
0.000886736 -0.0810809 0.285567
0.00193003 -0.232669 0.158449
0.00193006 0.43493 0.266636
-0.00494776 0.294368 0.259542
0.00193002 -0.274704 0.200195
0.00282971 -0.018761 0.306859
0.00193006 0.416791 0.274792
0.00193006 0.38274 0.189754
-0.0049478 -0.41125 0.197284
0.00316292 0.153056 0.14567
-0.0234064 0.129754 0.432327
0.00193003 0.191033 0.11869
-0.00494776 -0.202563 0.10346
0.00193005 0.338453 0.0238443
-0.00494776 -0.176253 0.16171
-0.00379051 -0.185003 0.387918
-0.00494776 0.320348 0.308243
-0.00365396 -0.369819 0.326891
-0.00494777 0.226151 0.109594
0.00347745 -0.483471 0.163715
0.0117929 0.0790719 0.155796
-0.112047 -0.261153 0.498692
0.00193004 0.339623 0.266115
-0.00494777 -0.234338 0.132924
-0.00494777 -0.236327 0.0994636
-0.00494777 -0.277172 0.0781928
-0.0353835 -0.239264 0.258778
0.00193002 -0.26749 0.228251
0.00848421 0.0997219 0.250405
0.00193003 -0.235015 0.0671381
-0.0483574 0.306872 0.167978
-0.00969324 -0.0317855 0.244112
0.00193003 0.266928 0.258927
0.00193006 0.39114 0.0458809
-0.00494777 -0.274574 0.136525
0.00193003 0.23244 0.212507
-0.00494778 0.176236 0.209246
-0.00454764 0.403734 0.310971
-0.0137024 0.147751 0.459997
0.0498744 0.302061 0.185179
-0.0391993 0.199267 0.154368
-0.00494779 -0.348718 0.270557
-0.00681162 -0.393431 0.312353
-0.00494776 -0.177477 0.204267
-0.0049478 -0.425983 0.0984117
-0.0107736 -0.180885 0.362451
0.00193003 -0.270414 0.0891391
-0.0012117 0.125575 0.304984
-0.00494778 -0.336392 0.0226966
-0.0077141 -0.160891 0.433073
0.00193 -0.405302 0.149053
-0.00494773 0.464538 0.137136
0.00193001 -0.288604 0.291653
-0.00494774 0.409291 0.168782
-0.00168101 -0.445711 0.0597724
0.0248897 -0.209414 0.306135
-0.00956962 0.108937 0.269003
0.00193005 0.364615 0.148532
-0.00494778 -0.336545 0.0801427
0.132648 -0.259229 0.511709
-0.0350077 0.0870427 0.14326
0.00193002 -0.314278 0.143594
-0.00494774 0.423725 0.210794
0.00193004 0.292276 0.125769
0.00193 -0.414032 0.0745419
-0.00494776 0.333264 0.312928
-0.00370368 0.116564 0.339667
-0.00494774 0.391927 0.198024
0.00193003 0.232824 0.262064
0.101232 -0.247018 0.49018
-0.00494779 -0.335829 0.319272
-0.00777464 -0.0534687 0.330117
-0.0394479 0.0626781 0.163501
-0.00494776 0.311194 0.219356
-0.0292971 0.239826 0.193988
-0.00474841 -0.239889 0.0322414
-0.00494779 -0.35271 0.124393
-0.00494777 0.23879 0.151842
0.0787143 0.0540316 0.233446
-0.00494778 -0.295204 0.314174
0.00193005 0.333686 0.0618606
-0.00632921 0.195255 0.277871
0.00193005 0.328549 0.214628
-0.00578458 0.482601 0.15767
-0.0538113 0.0891498 0.0623921
-0.00494776 -0.168675 0.185856
-0.00494778 0.176052 0.17531
0.00884515 0.0988932 0.452062
0.000143863 -0.204232 0.451118
-0.00494779 -0.325372 0.272837
0.00193005 0.320569 0.156626
0.00193004 0.244536 0.0303426
0.00153358 -0.157746 0.120379
0.023204 0.170736 0.458852
0.0403529 -0.242442 0.259903
-0.0680728 -0.252826 0.490296
-0.0339303 0.074284 0.193995
0.0373423 0.251954 0.163907
-0.0319682 0.187892 0.194689
-0.00542064 -0.164144 0.230478
0.00496111 -0.423604 0.290316
0.00193005 0.37943 0.242555
-0.00494776 0.31247 0.260591
0.0089246 -0.243788 0.486114
-0.00494775 0.354455 0.179093
0.000375064 0.272142 0.00773614
0.00193006 0.42499 0.179643
-0.00494777 -0.247183 0.217379
0.00193003 0.21182 0.141816
-0.00991472 0.057382 0.15652
-0.00844181 0.0442408 0.179203
-0.00231478 -0.484244 0.189779
0.00193004 0.25458 0.0672204
-0.00494778 -0.318797 0.0479253
-0.00225501 0.470274 0.202253
-0.00602854 0.136619 0.378968
-0.0360444 0.0389291 0.140772
-0.00564863 0.155098 0.196686
-0.00849714 0.0664042 0.27093
-0.00494779 -0.358384 0.159705
-0.00494775 0.298315 0.0204008
-0.00619545 -0.132135 0.371629
-0.00494776 0.220611 0.0781922
-0.00629667 0.176419 0.243607
-0.00494781 -0.452005 0.196479
-0.146902 -0.256638 0.522567
-0.00436846 0.174329 0.463892
-0.00494775 0.347639 0.114955
-0.0284571 0.260934 0.134192
0.00193002 -0.261913 0.178616
-0.0066468 -0.0698143 0.277002
-0.00494777 -0.241482 0.179051
-0.00494779 -0.36997 0.0936312
-0.00494777 -0.212581 0.195855
-0.00494774 0.388928 0.131417
-0.000804861 -0.315354 0.0124139
-0.00494774 0.40624 0.289073
0.034724 0.214706 0.16614
0.022717 0.165396 0.340466
-0.00494777 -0.272687 0.0491656
0.00193 -0.387757 0.142188
0.134249 -0.248442 0.502339
-0.00662953 0.447986 0.0708968
-0.00494775 0.347841 0.157913
-0.0319537 0.162086 0.160304
0.00193001 -0.378358 0.178463
-0.00494779 -0.3933 0.0714237
-0.00494773 0.414592 0.112171
-0.00849064 -0.105941 0.366143
0.00192999 -0.428654 0.251297
0.00193001 -0.362825 0.213674
-0.00598378 0.184924 0.0721624
-0.0346594 0.0287401 0.124302
0.00503051 -0.472737 0.121104
0.034563 0.186326 0.162983
-0.0256606 0.125626 0.147069
-0.00632274 0.0398079 0.289295
0.00193001 -0.332777 0.233468
-0.00148268 -0.263425 0.327019
-0.0697031 0.10746 0.0554169
-0.0196365 0.110419 0.447714
0.000483074 0.00239202 0.312626
0.00193002 -0.243435 0.28113
0.00193003 0.204473 0.103125
-0.00494775 0.345562 0.248666
0.00193003 0.217926 0.234397
-0.00494777 -0.201832 0.263039
-0.0209621 0.0683217 0.148444
-0.0338087 0.0291162 0.175454
-0.00862778 0.0245647 0.198437
0.0293724 -0.317445 0.169772
0.00193001 -0.3355 0.201278
-0.0126498 0.174548 0.434668
-0.00340701 -0.202204 0.35126
0.00335175 -0.201553 0.050107
-0.0307663 0.0990344 0.150796
0.029981 0.193109 0.31231
-0.033308 0.178032 0.444643
-0.00494774 0.360284 0.0869468
-0.020347 0.297235 0.15673
0.00193 -0.441596 0.13103
-0.00494775 0.378943 0.286889
0.00193001 -0.354536 0.139271
0.00193004 0.255539 0.114357
0.00830081 -0.0465116 0.260707
0.00364658 0.466022 0.242004
0.00193 -0.369365 0.278196
0.0476488 -0.25296 0.485586
0.0026535 0.163111 0.107608
0.00442012 0.060549 0.16663
-0.00494777 -0.217937 0.220032
-0.00315164 0.079957 0.139559
0.00193005 0.365651 0.191784
-0.00494773 0.409277 0.0842287
-0.0049478 -0.452683 0.0916396
0.00193001 -0.367369 0.0356409
-0.00977122 -0.102071 0.317862
-0.00494776 0.296006 0.286934
-0.00494777 -0.191613 0.25212
-0.00494777 0.210795 0.199753
-0.00494778 -0.302945 0.224141
-0.00494781 -0.449751 0.174284
-0.00494777 0.247127 0.261844
-0.0373537 0.228988 0.166399
0.00193002 -0.300553 0.065499
-0.023014 0.325555 0.170125
0.00193005 0.380706 0.223307
0.00193003 -0.201023 0.131728
-0.00494775 0.328974 0.103
0.00193005 0.390958 0.260861
0.00193 -0.371809 0.238525
-0.00494777 0.309478 0.318529
0.00193005 0.363761 0.105714
-0.00348478 -0.0331736 0.332192
-0.0022859 0.0980021 0.209231
0.00699343 -0.0124168 0.235319
-8.84732e-05 0.0864963 0.168192
-0.00123034 0.0274604 0.176604
0.00193001 -0.393473 0.0382118
-0.00494775 0.321853 0.0195591
-0.00494779 -0.33746 0.182022
0.00193 -0.426493 0.208408
-0.00494779 -0.379076 0.156863
0.0229067 0.187302 0.450531
0.00193002 -0.283887 0.027014
-0.000708154 0.118232 0.458841
-0.0194256 0.340664 0.151283
-0.0417542 0.264674 0.228187
0.00193006 0.442934 0.211936
-0.00290902 0.143187 0.414036
-0.00494776 0.280744 0.144358
-0.00766602 -0.131856 0.357269
-0.0841967 -0.242138 0.487263
-0.00494776 -0.208429 0.0866275
-0.00494775 0.280474 0.0580466
0.00193002 -0.29909 0.189064
-0.0463022 0.0770094 0.130872
-0.00494778 -0.252691 0.299898
-0.00494774 0.435521 0.248949
-0.00167847 0.138025 0.348609
-0.00494778 -0.312471 0.124297
0.0337405 0.221667 0.287668
-0.00731985 0.0891984 0.260986
-0.0244998 0.167426 0.338261
0.00636247 -0.145355 0.381198
0.03145 0.240366 0.256562
-0.00494775 0.37521 0.310368
0.00817571 0.113737 0.430628
0.00193001 -0.330948 0.255665
0.0248798 0.150626 0.452275
-0.00494774 0.36216 0.0430535
-0.0049478 -0.373408 0.259707
0.00479537 -0.348146 0.0101152
-0.00494778 -0.294624 0.158423
-0.00494773 0.40296 0.0338129
-0.00494778 0.193097 0.250938
-0.00771394 -0.218465 0.465994
-0.0360154 0.0844272 0.16702
-0.0394379 0.0942471 0.070004
0.0785303 -0.249333 0.483828
-0.00905808 -0.160903 0.383378
-0.00494778 -0.238883 0.299852
0.00167631 -0.467603 0.227126
-0.00494779 -0.351581 0.287012
-0.00494775 0.284383 0.0873151
0.030841 0.0671861 0.143974
-0.0350077 0.0626108 0.140229
0.00241362 -0.153388 0.415067
-0.00494778 -0.339574 0.108364
-0.00494778 -0.273901 0.28986
-0.00494779 -0.328839 0.306142
0.00603688 -0.173104 0.443051
-0.00488122 0.46244 0.0850418
-0.001234 0.379422 0.0124056
0.00193004 0.246347 0.0526832
0.00444602 -0.452331 0.261322
-0.00431586 -0.104422 0.333132
-0.0502154 0.269087 0.171663
0.00360476 -0.303885 0.333345
0.00390402 -0.0603837 0.265801
0.00314452 -0.0728731 0.301331
-0.00494774 0.384419 0.173895
-0.00494775 0.317515 0.133186
0.00193003 0.234489 0.089276
-0.00476425 0.191604 0.461871
0.00193003 0.289156 0.323891
-0.109824 -0.266247 0.485694
0.00193006 0.406835 0.0581154
0.00193002 -0.281955 0.113994
-0.00494773 0.461009 0.191753
-0.00698685 0.156488 0.158581
0.00193005 0.353126 0.132224
0.00193001 -0.383602 0.0973078
0.00193006 0.424672 0.127444
-0.00494777 -0.239406 0.260363
0.00193001 -0.366164 0.10869
0.00393613 0.137972 0.459359
0.00193006 0.409778 0.151046
0.00470828 0.209162 0.286815
-0.00494777 0.257176 0.242076
0.00193 -0.437073 0.162834
-0.0350077 0.0570231 0.119079
0.00193004 0.308255 0.162926
0.00765694 -0.132002 0.35362
-0.00494773 0.435669 0.141063
0.00193 -0.409594 0.255618
0.00193 -0.40371 0.182387
-0.00494773 0.450462 0.109428
0.00193004 -0.183152 0.179082
0.00193006 0.396845 0.0923113
-0.00566646 -0.482111 0.147627
-0.103131 -0.251263 0.50707
-0.0212889 -0.201079 0.322679
0.0538859 0.302914 0.199318
0.0190405 0.14966 0.433055
-0.00342158 -0.432017 0.0470975
0.00170604 -0.254596 0.474539
-0.00494775 0.326995 0.0381744
-0.0049478 -0.369789 0.306472
0.00193003 -0.238347 0.120308
0.00193004 0.325534 0.292783
0.00143708 0.426074 0.0554058
0.00595073 -0.182374 0.350692
0.00193003 -0.210703 0.277056
-0.00494776 0.269171 0.0314533
-0.0460339 0.292887 0.206295
-0.0294046 0.0928605 0.176627
0.00193001 -0.3792 0.124401
-0.00494777 0.252891 0.295643
-0.092345 0.0971513 0.0627919
-0.00363224 -0.27832 0.320454
0.00193 -0.396597 0.294553
0.00193003 -0.264089 0.0302904
0.00500172 -0.182505 0.0805294
0.00193003 0.260346 0.229179
-0.0049478 -0.438654 0.105289
0.00192999 -0.436259 0.264791
0.0242257 0.0314903 0.23977
0.00266323 -0.100804 0.305864
-0.00494776 0.242331 0.119814
-0.0397375 0.249439 0.243393
-0.00494775 0.367885 0.227665
0.0195308 0.152566 0.150444
0.00193005 0.344705 0.208206
-0.00494774 0.380095 0.144262
0.00247228 -0.0886457 0.317566
-0.020347 0.314215 0.176614
-0.00704992 0.34189 0.328514
0.00193004 -0.191205 0.161393
-0.00494777 -0.240102 0.0484892
-0.00494774 0.378307 0.0404114
0.00193004 0.276239 0.180807
0.00193003 -0.233496 0.0862365
-0.00494777 -0.259398 0.16216
-0.0289201 0.18406 0.317983
0.00193001 -0.335013 0.221417
-0.00494773 0.442783 0.157737
-0.00494778 -0.326495 0.160332
-0.00494773 0.433231 0.104921
0.00193001 -0.362414 0.0600597
0.00391725 -0.170725 0.242654
-0.00494773 0.469823 0.18142
-0.00494777 0.273408 0.313635
0.0414945 0.321896 0.172233
-0.00734592 -0.144318 0.390794
-0.00622252 0.158326 0.451041
0.0321573 0.0621947 0.171608
-0.0514245 0.317936 0.188149
0.00193003 0.255428 0.308739
-0.0121402 0.143169 0.430575
-0.00182576 -0.22616 0.308886
-0.00494778 -0.276616 0.245347
-0.00731968 0.123728 0.356001
-0.0302807 0.331172 0.151906
0.00193001 -0.344278 0.241822
0.00193002 0.194944 0.200895
0.00193002 -0.284323 0.14751
-0.00494778 0.177579 0.224839
-0.0049478 -0.41548 0.223037
-0.00494774 0.350088 0.0656203
-0.123998 -0.262224 0.50581
-0.0313728 0.143911 0.194508
-0.0333661 0.10208 0.117706
0.00193003 -0.217255 0.1272
-0.00494777 0.244517 0.221707
-0.00933826 -0.00110179 0.221773
0.0503137 0.0416826 0.23157
0.00193 -0.420537 0.129333
0.00437633 -0.00417526 0.209533
0.00193005 0.334818 0.232866
0.00193006 0.419748 0.239246
-0.00494777 -0.283379 0.0999958
0.0118291 0.112207 0.153274
0.00584276 -0.226564 0.468614
-0.00674657 -0.155455 0.162874
-0.00192714 -0.150971 0.188047
-0.00864666 -0.0678642 0.34137
0.00682301 0.0459574 0.177569
0.00193003 0.267004 0.27656
0.00193001 -0.322557 0.223285
0.0524304 0.279344 0.213841
-0.00611179 0.205556 0.0491364
0.00193004 0.301949 0.2686
-0.00494777 -0.223941 0.229516
0.00344307 -0.197804 0.366175
0.00193006 0.449315 0.241381
0.00923089 -0.197126 0.351518
-0.00494777 -0.248942 0.0622839
0.00193002 0.186407 0.234732
-0.00494775 0.296323 0.0388002
-0.025081 0.0631981 0.171939
0.00193003 0.209558 0.121463
0.00193002 0.205767 0.254002
-0.00494775 0.295089 0.102723
-0.0433346 0.240147 0.15731
-0.0486643 0.292405 0.172345
0.00193005 0.366834 0.255896
-0.0100845 0.119677 0.318878
-0.00494776 0.293273 0.155835
0.00193002 0.170447 0.138561
-0.00494781 -0.439263 0.204561
0.112692 -0.272112 0.48681
-0.00494778 -0.325997 0.0909358
-0.00494781 -0.424351 0.263208
0.00193002 -0.332014 0.03939
0.00193004 0.274857 0.044589
0.00193003 0.24782 0.206741
-0.00494778 -0.277485 0.210068
-0.025081 0.0816511 0.13295
0.00193003 0.236119 0.137963
-0.00494776 0.231254 0.0487765
0.00193004 0.273201 0.221632
0.00193005 0.322795 0.191132
0.00193004 0.299724 0.0769159
0.00388578 -0.400543 0.310966
0.0021623 -0.0483683 0.277275
-0.0114027 0.139592 0.394499
0.00193001 -0.355284 0.0797107
0.00193006 0.422004 0.264092
0.0436596 0.226749 0.158988
0.00857208 0.0921582 0.221243
0.00192999 -0.466073 0.157603
0.000782995 0.117091 0.275891
-0.00494779 -0.391273 0.0871834
-0.0100799 0.10895 0.429794
-0.0190738 0.187451 0.439672
-0.0040791 0.36123 0.0116106
-0.010045 0.100959 0.25434
0.00193005 0.351956 0.0324402
0.00193005 0.318128 0.0876906
0.00421426 0.481702 0.167115
-0.00494776 -0.196217 0.116321
-0.00494779 -0.36809 0.183557
0.00854431 0.128643 0.348173
0.0105881 0.182135 0.463557
0.00193004 -0.176572 0.225189
-0.00494776 0.310446 0.296187
-0.00494775 0.310068 0.180558
0.00193004 0.302544 0.210787
0.00193001 -0.289967 0.259313
0.0104724 0.165976 0.347248
0.00193004 0.35152 0.289418
0.00356544 -0.175122 0.101171
-0.0291247 0.0724858 0.112876
0.00193 -0.391381 0.23755
0.00193004 0.358424 0.307136
0.00193003 -0.250504 0.132587
0.00193001 -0.315161 0.28548
-0.0356363 0.0396621 0.11159
-0.00494781 -0.443756 0.237545
0.000847719 0.249623 0.321967
0.112938 -0.261361 0.500499
-0.0239494 0.161615 0.459165
0.00858825 -0.168625 0.410246
-0.00821937 0.103973 0.458126
0.00781263 0.11674 0.295192
0.0596629 0.0251731 0.238106
-0.00494778 -0.285194 0.193651
0.00413978 0.328445 0.00962783
0.00193002 -0.309056 0.179686
0.00193004 0.267447 0.198753
0.00193005 0.329585 0.0907412
-0.00494774 0.401762 0.141386
-0.00494773 0.466159 0.1159
-0.00494779 -0.34059 0.146124
-0.023815 0.196154 0.317601
-0.114611 -0.245461 0.495872
0.00427468 0.138419 0.373035
0.00193005 0.30157 0.00934602
0.0165521 0.0719422 0.140676
-0.0282647 0.316491 0.146485
-0.032459 0.101065 0.102616
0.0286984 0.0352812 0.224119
0.0404616 0.265604 0.241476
0.00193003 0.234541 0.162426
0.00193001 -0.305212 0.241953
-0.00990104 0.0794359 0.156119
0.00193007 0.460578 0.124435
0.00193005 0.310265 0.0597374
0.003939 -0.250008 0.319366
-0.0469449 -0.284181 0.192194
-0.00494776 0.281094 0.19269
-0.00371763 0.47446 0.125978
0.0440053 -0.302235 0.191502
-0.00937159 0.0824075 0.199676
-0.00268829 -0.121694 0.326163
-0.00494778 -0.273906 0.272482
-0.00494781 -0.463697 0.214324
-0.00494778 0.230556 0.280032
-0.00505061 -0.402239 0.0256306
-0.0299718 -0.229114 0.278659
0.00428918 0.113492 0.325025
-0.0393698 0.322714 0.172201
0.00193002 0.190613 0.176576
0.00193003 -0.218996 0.167063
0.00363611 -0.162116 0.141408
0.00480677 -0.0823223 0.357756
-0.00494774 0.429175 0.193714
-0.00494778 -0.292184 0.278834
0.000477309 0.0175457 0.304034
-0.000969224 0.103807 0.228881
0.00573543 0.0305194 0.293586
-0.00494775 0.312588 0.0297383
-0.00494777 0.198408 0.0646408
-0.00665269 -0.207574 0.288157
0.00193 -0.411213 0.115186
-0.0354029 0.223401 0.271255
-0.00494774 0.40234 0.267475
-0.000527519 0.269686 0.0205354
0.00193001 -0.315092 0.262096
0.000353099 -0.467747 0.0942993
-0.00267578 0.243004 0.0190176
-0.00494778 -0.354393 0.0219731
-0.00494779 -0.405957 0.0616003
0.00193004 -0.169727 0.175537
0.000228298 -0.422738 0.0380509
0.00193004 0.329572 0.251016
0.00193002 0.163161 0.208405
-0.00494778 -0.255475 0.245349
-0.00494779 -0.345746 0.189654
0.00193 -0.393784 0.267664
-0.0957041 -0.259455 0.499047
0.00193005 0.38169 0.206356
-0.00501182 -0.0337884 0.26152
0.00348306 0.176745 0.435233
0.0035207 0.111842 0.260641
-0.0072439 -0.0157502 0.241426
-0.0350077 0.112705 0.154581
-0.00901875 0.0743364 0.174641
-0.0789071 -0.262268 0.470228
0.00193006 0.396684 0.181167
0.0474056 -0.285062 0.20549
0.00193003 0.21209 0.065639
-0.00494778 -0.282764 0.225323
-0.0343942 0.0759525 0.0984411
-0.00433673 0.449487 0.270393
-0.00494778 0.234237 0.291981
-0.0174807 0.158 0.432238
-0.0416137 -0.303541 0.174801
0.00193003 0.194589 0.146909
0.0735351 -0.248479 0.494594
0.00193005 0.348376 0.0166543
-0.00494779 -0.316811 0.321029
0.00193003 0.21898 0.250562
-0.00494774 0.384265 0.0561906
-0.00579084 -0.476386 0.172322
-0.00537155 -0.196475 0.0677361
0.00317723 0.140785 0.361393
-0.025081 0.0697612 0.125436
0.00193007 0.46355 0.226296
-0.00746106 0.0497678 0.272435
0.0231725 0.178421 0.1568
-0.0115015 -0.172981 0.392564
-0.0350077 0.050326 0.151113
0.02579 -0.20367 0.31927
0.00193 -0.379387 0.210308
-0.00494776 0.253959 0.0287554
0.00193002 0.164889 0.16547
-0.0048836 -0.46408 0.235948
0.00193 -0.344061 0.313035
-0.0049478 -0.411146 0.287174
-0.00579173 0.153458 0.355437
-0.00985963 0.11348 0.289907
-0.00494776 -0.211272 0.0473788
-0.00494779 -0.351018 0.206533
0.000469643 0.187454 0.0824922
-0.00216122 0.107698 0.242691
-0.0296831 0.33168 0.181901
0.00193003 -0.235621 0.143119
-0.00473683 -0.477141 0.218395
0.00193 -0.417672 0.185253
0.00193006 0.40212 0.109047
-0.00544027 -0.162703 0.196955
0.145761 -0.262204 0.518872
-0.023014 0.319978 0.189738
0.00193002 -0.243673 0.248091
0.00193003 -0.210314 0.182428
0.00193003 0.225606 0.151019
-0.00494776 -0.188897 0.103332
0.00193004 0.271316 0.113148
0.00193003 0.192909 0.0975302
-0.00368791 0.028125 0.280237
0.00239711 -0.230024 0.0273041
-0.0537581 0.322014 0.173017
0.00615231 0.322302 0.172135
0.0879483 -0.256453 0.479121
-0.00494776 0.245557 0.0769054
0.00721069 -0.167264 0.37753
-0.0049478 -0.458518 0.106912
-0.0063937 0.160484 0.1397
-0.0194256 0.288903 0.169306
-0.0824809 -0.254548 0.497512
-0.025081 0.045504 0.143768
-0.00494779 -0.313987 0.235043
0.00192999 -0.458013 0.123989
-0.0295495 0.0632581 0.185665
0.00343445 -0.375887 0.0132339
-0.0288725 0.337625 0.164634
0.00193004 0.321063 0.320857
-0.0341271 0.21022 0.299495
0.00193006 0.412061 0.0448472
0.00193001 -0.31311 0.198106
-0.0301497 0.176964 0.162372
0.00193002 -0.31488 0.0968441
-0.0555533 0.102868 0.0554169
-0.0121123 -0.191821 0.35739
-0.0328617 -0.314297 0.171838
0.00193003 -0.217802 0.0931247
-0.0102017 -0.24412 0.486503
-0.102026 -0.247352 0.492608
-0.137717 -0.263013 0.511617
0.00374468 -0.0617084 0.331586
-0.00494775 0.356282 0.200001
-0.00609116 0.373479 0.322976
-0.00494779 -0.358095 0.318449
-0.025081 0.0909264 0.15866
0.00193003 -0.207492 0.116511
0.00482895 0.146303 0.383741
-0.00494773 0.43207 0.170229
0.00193003 0.222533 0.20179
0.0958986 -0.260105 0.495071
0.00126144 0.129271 0.384289
0.0435845 0.246879 0.249926
0.00193003 0.21705 0.0458221
-0.00494773 0.446517 0.132113
-0.00286935 -0.118567 0.362305
0.00193002 -0.288254 0.074061
0.00590725 0.088744 0.441407
-0.0309974 0.14301 0.443719
-0.00494776 -0.193256 0.0830049
-0.00494774 0.432375 0.277895
-0.00565813 0.23281 0.0271613
-0.0257417 0.305504 0.170113
0.00119253 -0.447691 0.0811592
-0.00494774 0.375996 0.0263537
0.00193004 0.306867 0.127289
0.00193003 0.249544 0.156117
-0.00494776 -0.226627 0.0429697
0.00193002 -0.234429 0.290694
0.0356788 -0.243159 0.479023
-0.00902949 -0.0705954 0.2912
0.00193004 0.287275 0.249663
0.00193004 0.262632 0.101449
-0.00494779 -0.409063 0.0902607
-0.0292937 0.0297655 0.154649
0.00193005 0.318011 0.0974385
-0.00494775 0.389752 0.30645
-0.00546749 -0.478632 0.128964
-0.0120259 -0.189664 0.343315
-0.00494776 0.351098 0.318418
-0.041727 -0.244695 0.486949
-0.0485935 -0.283556 0.210075
-0.00385097 -0.311964 0.00181311
0.123549 -0.250315 0.51108
0.0281336 -0.223522 0.308033
-0.00173176 -0.144301 0.432309
-0.0291247 0.0513426 0.171652
-0.00494777 0.2507 0.281032
-0.0087253 -0.0110714 0.310819
-0.00494777 -0.21436 0.273599
-0.0350077 0.0846349 0.184366
-0.00494777 -0.245578 0.161334
0.00193004 0.252102 0.04042
0.00193002 0.179208 0.200053
0.000743266 0.0599886 0.279938
-0.000541097 0.470932 0.100547
0.00193004 0.305406 0.287681
-0.00669401 -0.447742 0.263231
-0.00494776 -0.182799 0.217541
-0.0722315 0.118304 0.0627919
-0.00854202 -0.0248103 0.317026
0.000233256 0.0807744 0.268203
-0.00494778 -0.334756 0.123632
0.00193002 -0.242023 0.203611
-0.00996166 -0.172596 0.375342
-0.00494778 -0.264563 0.31328
-0.00857508 0.129251 0.332929
-0.0183676 0.0632589 0.135507
0.0184059 -0.194276 0.336168
0.00193003 -0.260836 0.0726514
-0.00961764 0.131552 0.370062
-0.00565002 0.167193 0.235973
-0.00494779 -0.371358 0.020731
-0.00494773 0.468068 0.159784
0.00193004 0.264291 0.0774388
-0.0049478 -0.399999 0.208592
-0.0194256 0.316592 0.159281
0.00193004 0.337552 0.280006
0.00193002 -0.253736 0.23497
-0.0292119 0.089854 0.116004
0.00193002 -0.262907 0.262253
-0.0026947 -0.455507 0.250797
0.00193003 0.223255 0.0977603
-0.00494777 0.234446 0.17873
0.00367923 0.416101 0.302349
0.00193007 0.447455 0.171015
-0.0282414 0.137082 0.156983
-0.00494777 -0.283556 0.0579246
-0.00494779 -0.367057 0.225041
-0.00494779 -0.347253 0.172856
0.00193003 0.229646 0.226871
0.00193005 0.335826 0.117471
-0.00674611 -0.190966 0.270265
0.00193003 -0.20703 0.206535
-0.0291247 0.0997482 0.134879
0.00193002 -0.286934 0.130674
-0.00482423 0.481848 0.196081
-0.020347 0.311239 0.19119
-0.0333661 0.0233076 0.162413
-0.00494775 0.351189 0.144509
-0.0485398 -0.259301 0.234187
-0.00494776 -0.206117 0.058463
-0.00494774 0.374993 0.158857
-0.00494777 0.25956 0.267254
-0.0049478 -0.425475 0.176742
-0.00494774 0.40197 0.189555
0.00193005 0.373486 0.181094
-0.0404229 -0.251836 0.261101
-0.0456388 0.0871513 0.11101
0.00193006 0.417444 0.20072
-0.00494778 0.176294 0.190236
0.0117929 0.0658794 0.152985
-0.00611727 -0.332561 0.331901
0.00312207 0.282782 0.0146989
0.00193002 0.180578 0.164375
0.128819 -0.261071 0.502198
-0.020347 0.30804 0.152687
0.00193002 -0.302765 0.150968
0.00193004 0.276523 0.0961296
0.00193005 0.352609 0.260944
0.00193 -0.392809 0.125557
0.00193004 0.291192 0.21785
0.00193 -0.387714 0.304436
-0.00494775 0.299413 0.0552208
0.00193006 0.413897 0.0691154
0.00193003 -0.229641 0.184451
0.0542128 0.316807 0.171104
0.0368789 -0.259818 0.22648
0.00193002 0.177576 0.120776
-0.00494776 0.324697 0.267144
-0.0177413 -0.253671 0.484516
0.0388646 0.237345 0.26976
0.0446902 -0.315099 0.164884
-0.0434826 0.0821593 0.0969329
0.00193006 0.374688 0.131903
0.00193001 -0.364835 0.149991
-0.00494779 -0.374088 0.113543
0.00499113 -0.0251452 0.231177
-0.00388792 -0.192363 0.0581153
-0.00494776 0.266291 0.142846
-0.00636349 -0.151507 0.442768
-0.0062004 -0.139431 0.346171
-0.00494774 0.412507 0.21885
0.00193004 0.306956 0.305879
0.000530746 -0.280015 0.0104418
-0.00494776 -0.166815 0.148057
-0.00963274 0.113892 0.306754
-0.0845626 0.106236 0.0554169
0.00257699 0.195186 0.266851
-0.0133623 0.193934 0.451838
0.00193001 -0.350026 0.258224
-0.00494778 -0.323137 0.0185971
0.00192999 -0.455126 0.164122
-0.00494775 0.332631 0.153185
-0.00494775 0.318957 0.202699
-0.00494776 0.280497 0.123068
0.111909 -0.244403 0.498833
-0.000765403 -0.251051 0.0274952
-0.00860074 0.0215593 0.295139
-0.00771357 -0.193534 0.452173
0.038215 -0.290269 0.197394
0.0644596 0.0386527 0.238945
0.00193007 0.435727 0.0645438
0.00193001 -0.301647 0.288245
0.000449151 0.337786 0.323502
-0.00494777 -0.225069 0.139988
0.00193003 -0.230116 0.210434
-0.0424781 -0.295063 0.198323
0.00193001 -0.364036 0.123895
0.00621191 0.0244558 0.199987
-0.00494776 0.264177 0.168814
-0.0350077 0.0608183 0.194885
-0.00691863 -0.221606 0.298877
0.00303222 0.434453 0.287071
-0.00445919 -0.165435 0.445384
0.00193001 -0.293764 0.303806
-0.0049478 -0.385653 0.187035
-0.00506041 0.470776 0.233324
0.00803296 0.0262975 0.185908
0.00193001 -0.377037 0.191549
0.00193006 0.39901 0.0784739
0.00193 -0.407552 0.169821
0.0077291 0.114157 0.312408
-0.00494779 -0.333308 0.243717
-0.0010997 -0.472021 0.191747
-0.0333661 0.109828 0.127552
0.0819663 -0.258358 0.494309
-0.00494778 -0.305968 0.254019
0.00510598 -0.160759 0.43061
0.00193002 -0.293641 0.0183368
0.00193 -0.379638 0.248624
0.00193005 0.342155 0.0863259
-0.0049478 -0.360808 0.265746
-0.00494774 0.35149 0.0504703
0.00192999 -0.452241 0.185015
0.00583057 -0.175622 0.403174
0.0217533 -0.215734 0.321812
0.0121712 0.101351 0.14409
0.00524145 0.071536 0.134446
0.00193005 0.383442 0.275762
-0.0293093 0.311178 0.181909
-0.0049478 -0.397683 0.191735
-0.00707121 -0.427362 0.287465
-0.00494776 -0.171247 0.112963
0.00577074 -0.238097 0.474638
0.000743801 0.0849091 0.230317
0.0274571 0.0449246 0.199043
0.00780146 0.0909836 0.205335
0.00193002 -0.275878 0.0371108
0.00193003 -0.251125 0.170709
-0.00558237 -0.144914 0.378075
0.0081368 0.081259 0.176557
0.146159 -0.249524 0.520067
0.00193 -0.402402 0.24414
-0.00494778 0.172208 0.100973
0.0109088 0.103298 0.437579
-0.00494775 0.324126 0.0567849
0.00510479 -0.16538 0.223258
-0.00494775 0.394767 0.294785
0.00193001 -0.306814 0.214047
0.00193 -0.415575 0.10133
6.16193e-05 0.390609 0.0305158
-0.020347 0.336892 0.17457
0.0662803 -0.253422 0.482268
-0.00558663 0.15985 0.172533
-0.00494779 -0.339131 0.211242
-0.00494777 -0.247296 0.109722
0.00154405 0.401361 0.0243804
0.0303982 0.156747 0.156601
0.00193003 -0.270896 0.107644
-0.00324905 -0.0486339 0.341009
0.00445135 0.0777157 0.199646
-0.00494779 -0.385672 0.168764
0.00193002 -0.326541 0.058568
0.0894907 -0.247231 0.488459
-0.0448887 -0.26076 0.222104
-0.00476839 0.483042 0.146652
-0.030133 0.0341082 0.134888
-0.0320327 0.210365 0.159037
0.0335443 -0.228822 0.274424
-0.0341052 -0.221999 0.303142
-0.0252885 0.189695 0.452728
-0.00494775 0.312451 0.0752212
0.00193002 -0.265714 0.24989
0.00193001 -0.327665 0.147668
-0.00494776 0.294122 0.138243
0.00470515 -0.135202 0.341332
-0.00781906 0.0767926 0.25854
-0.00494773 0.399898 0.0498336
-0.0322721 0.0867729 0.197406
-0.00494779 -0.323112 0.292474
-0.00494777 0.221896 0.180443
-0.00494774 0.369305 0.137471
0.00377245 0.220201 0.293732
-0.00907852 0.0532259 0.168395
-0.0391333 0.0733622 0.156817
-0.0194256 0.322771 0.151261
-0.153919 -0.262707 0.510362
0.00192999 -0.460239 0.203044
0.00193006 0.410493 0.120329
0.00193006 0.367983 0.0764012
-0.00494776 0.253173 0.12458
-0.00494775 0.342823 0.13417
-0.0054493 -0.441959 0.0711191
0.00193001 -0.370113 0.162278
0.00193003 -0.197759 0.1892
-0.00494775 0.36679 0.283852
-0.0297985 0.0512204 0.112069
-0.0224029 0.112701 0.155401
-0.0495547 -0.272194 0.216873
-0.00664548 -0.17795 0.249104
0.0105743 0.082456 0.143848
0.00193006 0.378282 0.0840437
0.00193001 -0.369712 0.0478839
0.00193003 0.250375 0.194233
0.00193001 -0.315997 0.303172
0.00467949 0.156991 0.44261
-0.00494777 -0.217782 0.152342
0.0340033 -0.253966 0.256964
0.00193 -0.439035 0.144839
-0.00494776 0.23945 0.0394404
0.00193001 -0.339266 0.0980287
0.00193001 -0.341926 0.0319161
-0.00287468 -0.432293 0.0612858
-0.0322737 0.194856 0.163668
-0.118994 -0.248511 0.507787
-0.00499575 0.0937838 0.197373
0.00193004 -0.167003 0.209668
-0.0576321 0.297457 0.165447
0.00193004 0.321476 0.228213
0.00193006 0.431171 0.217891
-0.00816633 -0.116998 0.373374
0.00495574 -0.339231 0.329309
-0.0291247 0.0377786 0.167823
-0.0049478 -0.414751 0.137818
-0.00755162 -0.123069 0.348612
-0.00262534 -0.0536474 0.2578
-0.0311151 0.326821 0.16699
-0.0303171 0.272459 0.138129
-0.00494778 -0.348477 0.0652388
0.0552203 0.282333 0.166348
0.00193003 0.273139 0.322589
-0.00494773 0.431224 0.0815152
-0.0372859 0.214219 0.288327
-0.00860822 -0.0214663 0.230652
0.0071771 -0.202203 0.340539
0.00199001 -0.10659 0.355738
-0.00494779 -0.367405 0.200529
-0.0287357 0.248936 0.131794
0.00193 -0.375146 0.315057
-0.0386326 -0.257695 0.246236
0.00193006 0.426307 0.144842
-0.00494781 -0.464775 0.134913
0.00193007 0.454733 0.208809
0.0380312 0.202834 0.16362
0.0426135 0.260927 0.229748
-0.00494779 -0.305899 0.321354
0.0122671 0.152359 0.349913
-0.00494774 0.338241 0.0529005
0.0241855 0.141748 0.443979
0.00193005 0.378654 0.296913
0.00372278 0.259531 0.021209
-0.0049478 -0.415958 0.235173
-0.00457606 -0.123867 0.382719
-0.0160084 0.170204 0.462417
-0.0403225 0.0998233 0.0807509
0.00275636 -0.167257 0.121721
0.00193002 -0.302498 0.124631
0.00193007 0.461998 0.180759
0.0257504 0.0758822 0.150688
-0.00357636 0.09642 0.26995
-0.00494778 -0.299313 0.170499
0.0031082 -0.245665 0.308463
0.0455896 0.244472 0.1686
0.00193002 -0.265154 0.154065
0.00485648 -0.172637 0.366975
-0.00494776 0.275913 0.250452
-0.0635937 0.0962004 0.0627919
-0.148445 -0.246248 0.515151
-0.00494775 0.33709 0.219637
0.00193007 0.429407 0.114053
-0.0304137 0.173013 0.458166
-0.00494777 -0.274045 0.0260867
0.00193003 -0.212138 0.26622
-0.0102604 -0.184513 0.377032
-0.00494777 -0.213669 0.250324
0.00206237 -0.161086 0.152946
-0.00569913 0.209355 0.292841
-0.00494776 0.301824 0.17038
0.00193001 -0.338236 0.302538
-0.00494777 -0.271163 0.117467
-0.0301937 0.32022 0.177668
-0.00494778 -0.313584 0.0805822
0.00193004 0.303687 0.256229
0.00193005 0.320346 0.141051
-0.026153 -0.20791 0.333534
-0.0357153 0.0848367 0.155306
-0.0362443 0.17166 0.154571
-0.00494774 0.335526 0.0142004
-0.00494777 0.299874 0.29773
-0.00985299 0.00494871 0.211481
-0.00522788 -0.0378642 0.318268
0.00706173 0.00769508 0.30284
-0.00904107 -0.14523 0.356162
-0.0049478 -0.402953 0.270843
0.00193002 -0.324945 0.077905
0.00193002 -0.261566 0.295988
-0.131 -0.256406 0.498181
0.0278325 0.161651 0.448991
0.00428293 0.477435 0.154372
0.00193003 -0.262073 0.129918
-0.0755255 0.100222 0.0627919
-0.0350077 0.03754 0.183709
-0.0331509 0.0223605 0.134177
0.0336427 -0.223383 0.289743
0.00193002 -0.237 0.269702
0.00193004 0.330109 0.303258
-0.0209282 0.114246 0.436589
-0.00494777 -0.229461 0.116598
0.00503473 -0.322807 0.330844
-0.00494776 0.257693 0.150951
0.00845823 -0.00444107 0.220415
0.00201175 -0.43799 0.284452
0.00386102 -0.191103 0.263869
0.0371345 0.211061 0.154596
-0.0162524 0.0987256 0.444792
-0.0453254 0.282063 0.223616
-0.0049478 -0.36606 0.294565
0.00193005 0.334616 0.202133
0.00193002 -0.261895 0.190387
0.00362579 0.262783 0.316827
0.000341551 0.151293 0.406149
-0.00699564 0.32337 0.00689482
-0.0243855 0.149664 0.159361
-0.00494778 0.196488 0.210299
-0.00145994 -0.242946 0.484961
0.0222519 0.19302 0.321153
-0.0886083 -0.260493 0.489746
0.00351063 -0.47509 0.149722
-0.0449789 0.247412 0.256931
-0.0033254 -0.169845 0.41809
0.00193006 0.421025 0.0916269
-0.00494774 0.399614 0.210352
-0.046578 0.274 0.233385
-0.00494774 0.355051 0.0982305
-0.0453546 0.280265 0.169634
-0.00494777 -0.200864 0.213719
0.00193002 -0.314496 0.115049
-0.0427428 0.226403 0.156339
-0.00494778 -0.331065 0.0487957
0.120146 -0.251918 0.495327
-0.00494778 -0.320344 0.170257
0.00193003 -0.238931 0.0395126
0.0552828 -0.245682 0.477012
-0.00494777 0.200457 0.111603
0.00193002 0.18338 0.214298
-0.0288613 0.218495 0.126046
-0.00845514 -0.155629 0.393717
0.00193005 0.341362 0.179256
-0.00227604 0.447717 0.255426
-0.0307663 0.0428848 0.121615
0.00193 -0.426558 0.107736
-0.00494779 -0.391663 0.150666
-0.00684195 0.0916482 0.248234
-0.0278909 0.228398 0.192703
0.00193005 0.3623 0.206337
-0.00494779 -0.358873 0.0883112
0.00193003 -0.265242 0.0418438
0.00193006 0.371053 0.0967262
0.00474885 -0.363673 0.0125835
0.0357188 -0.243777 0.249401
-0.0510658 -0.25369 0.483826
-0.020347 0.305349 0.163477
-0.0340357 0.0896541 0.102632
0.015516 0.126782 0.149427
0.00442646 -0.350925 0.325927
-0.00494774 0.359004 0.074359
-0.00656368 0.157504 0.183649
0.00193005 0.35694 0.120917
-0.00494779 -0.395982 0.0520088
-0.0469057 0.0953314 0.0554169
0.00193005 0.366053 0.238099
-0.00494776 -0.184904 0.154728
0.00193002 -0.294335 0.227282
-0.0164595 -0.196566 0.33204
-0.0144417 0.0558807 0.146103
-0.00494773 0.459324 0.233506
0.00193002 -0.288964 0.0927407
0.00193004 -0.175423 0.192041
-0.00494777 0.214894 0.111658
-0.00494777 -0.266518 0.0587965
-0.00179117 -0.214899 0.456891
-0.0131454 0.0947795 0.154949
-0.0207438 0.0764803 0.158143
-0.0438265 -0.315369 0.174823
-0.00494774 0.418729 0.283691
0.00193003 -0.215328 0.140687
0.0223089 0.201484 0.311233
-0.0049478 -0.402358 0.303152
0.00193001 -0.358142 0.226837
-0.0216336 -0.216491 0.312179
0.00193005 0.410652 0.265031
0.00193003 0.244042 0.287205
-0.00536045 -0.181233 0.349992
-0.00494774 0.369137 0.115156
0.00193005 0.393398 0.247747
-0.00494773 0.438158 0.185116
0.026093 0.183133 0.316159
0.0406586 0.0346609 0.23157
0.00193 -0.403517 0.285542
-0.00494777 -0.236625 0.168325
-0.0418821 0.260621 0.167865
-0.0503322 0.24685 0.164958
0.025545 0.190604 0.157622
0.00193007 0.451593 0.159582
-0.00494774 0.391852 0.0848303
0.0121593 0.112794 0.452636
0.0348082 -0.254918 0.236474
0.00193003 0.229524 0.0770267
-0.0310993 0.173713 0.195954
-0.00494776 0.312149 0.244941
0.00193002 -0.267967 0.169068
-0.00494777 0.26393 0.29119
-0.00494777 0.263562 0.309783
0.00127023 0.176692 0.0792132
-0.00481846 -0.164521 0.134364
-0.0389785 0.255952 0.252545
-0.00641317 -0.159327 0.409272
-0.0049478 -0.377737 0.286467
0.0279856 0.0546696 0.207041
0.00356681 0.336419 0.332957
0.00193007 0.456603 0.102989
0.0543797 0.291256 0.209525
0.0456942 0.287807 0.216906
-0.00494779 -0.361386 0.0512259
-0.00494773 0.431014 0.0939009
-0.0388213 0.0914642 0.162807
-0.00494778 -0.308669 0.190394
0.0263573 0.179555 0.44316
0.00193003 -0.2458 0.0539765
-0.0254619 0.185747 0.328573
0.00193006 0.40763 0.0954265
0.00193005 0.380845 0.255992
-0.00494775 0.359253 0.16392
0.00193006 0.43885 0.237349
0.00193002 -0.251076 0.272922
0.00193006 0.4129 0.227695
-0.0049478 -0.446552 0.161925
0.00192999 -0.453388 0.102533
-0.00494777 0.224725 0.216825
0.00193003 -0.195811 0.171611
-0.0049478 -0.446015 0.121566
-0.027753 0.250719 0.191921
0.00193003 0.243662 0.253737
0.00438674 -0.154458 0.163174
-0.00494774 0.38959 0.163964
0.0673386 0.0465235 0.23157
0.00192999 -0.452397 0.239163
0.00193001 -0.320527 0.181077
-0.0049478 -0.370382 0.247193
0.00808516 0.150795 0.431316
0.00767294 0.193827 0.451003
0.00193003 -0.271911 0.0711739
0.00193003 0.278482 0.296281
0.00193002 0.183495 0.145877
-0.00647222 -0.157724 0.178039
0.00193003 0.209807 0.0765344
-0.0194256 0.327745 0.183131
0.00193007 0.469167 0.144539
0.00193003 0.206419 0.190054
0.0189217 0.161255 0.352702
0.00193003 -0.257361 0.0571719
0.00193001 -0.324209 0.197853
0.0316354 0.057407 0.192055
0.00193007 0.440042 0.148626
-0.00494777 -0.214983 0.17479
-0.00494776 0.291799 0.117076
0.0467203 0.309015 0.193452
-0.00494774 0.37328 0.0546776
0.00193003 -0.220387 0.0745725
0.00193004 0.295308 0.164289
-0.0434755 -0.303087 0.187829
-0.0023164 -0.191803 0.37448
-0.00494775 0.345099 0.235194
-0.0250378 0.158485 0.14993
-0.0112005 0.122948 0.458235
-0.0393894 -0.243884 0.273408
0.00193003 -0.213547 0.233027
-0.00582283 -0.0992751 0.353021
0.00212574 -0.137931 0.367264
0.00830795 -0.0797451 0.294413
-0.0131609 0.0764924 0.136469
-0.00631248 0.46874 0.222559
0.00192999 -0.431415 0.238667
0.00481418 0.155485 0.165441
-0.00162531 0.162213 0.15155
0.00193004 -0.167033 0.164868
-0.00558235 -0.251864 0.312959
-0.00468004 0.484035 0.179603
0.00193004 0.263724 0.0380807
-0.00494778 -0.26825 0.216025
-0.00965658 0.0676619 0.16039
-0.00494781 -0.468592 0.124556
-0.00436003 0.110453 0.317272
-0.00494776 0.239323 0.0595929
-0.00494776 -0.228054 0.05413
0.00193003 0.218214 0.263718
-0.00558034 0.458094 0.0950751
-0.00494779 -0.33077 0.173615
0.00192999 -0.440766 0.254809
-0.00859668 -0.0815745 0.291007
0.00326191 -0.0714579 0.336532
5.05773e-05 0.164438 0.196874
-0.00494778 -0.350699 0.0332705
-0.0023446 0.0815753 0.441851
-0.000175982 0.348777 0.333647
-0.0070237 0.18459 0.260355
0.00512119 -0.325489 0.00694743
-0.00494777 0.271767 0.265904
0.00193003 0.240324 0.301529
-0.00494778 -0.281554 0.182929
-0.00494776 0.247365 0.13382
0.00711655 0.125787 0.457982
0.000242672 0.316066 0.0119052
-0.000874231 -0.341551 0.00252926
0.00193 -0.403607 0.135636
-0.033179 0.168764 0.438943
-0.0266211 0.324186 0.159067
0.0241966 0.0584961 0.178019
-0.00317758 0.300301 0.324073
0.00193001 -0.344324 0.125059
-0.00494777 0.22876 0.125432
0.00319417 0.468707 0.215345
0.00193 -0.389875 0.176043
0.00193003 -0.197619 0.148307
-0.00494775 0.285598 0.0403887
0.0294883 0.0251731 0.232706
0.00193003 -0.223993 0.10202
-0.0471044 -0.270347 0.229265
-0.0012664 -0.21209 0.298849
0.00193004 -0.206207 0.0759433
-0.00983758 -0.0568856 0.273929
0.00193004 -0.206734 0.0962359
-0.00494778 -0.286234 0.300218
-0.00618161 -0.234942 0.309843
-0.00494774 0.433003 0.205262
0.00193005 0.335144 0.0364871
-0.0049478 -0.383475 0.241246
0.00193001 -0.327168 0.210702
-0.0102719 0.163935 0.346034
-0.0267766 0.141532 0.433913
0.00193003 -0.229028 0.173692
0.00193006 0.383657 0.125012
-0.00494777 0.28368 0.311346
-0.00595173 0.0396798 0.275879
0.0299183 -0.240319 0.261375
0.0113495 0.171478 0.462381
-0.00978801 0.0340444 0.182309
0.00193006 0.37009 0.0338293
0.00241461 -0.0466793 0.25137
0.00263819 -0.17123 0.0893566
-0.00494779 -0.36557 0.0799227
-0.00351666 -0.229042 0.479385
-0.00454022 -0.180096 0.397432
0.0217088 -0.242745 0.479691
-0.00494773 0.432221 0.151216
-0.0049478 -0.411692 0.179606
-0.0271296 -0.205861 0.312058
0.00193005 0.406108 0.298896
0.00193002 0.206575 0.265159
0.0278286 0.220238 0.275892
0.00193002 -0.231315 0.233103
-0.030618 0.291296 0.191361
0.00193003 0.247678 0.243853
-0.00494777 -0.228529 0.218893
0.0428807 -0.26557 0.219823
0.00192999 -0.464432 0.184585
0.00193004 0.313192 0.208403
-0.00429469 0.419585 0.0490564
0.0260726 -0.214942 0.297131
-0.00494775 0.361517 0.262399
0.00469716 -0.480542 0.182701
0.00193002 -0.313707 0.0416245
0.00193004 -0.19319 0.124548
-0.00494776 0.236827 0.0704042
-0.00494775 0.35643 0.275899
-0.00494774 0.35055 0.0390834
0.00193003 0.228647 0.0366874
-0.0377632 -0.226541 0.285819
0.00193003 0.241722 0.111764
-0.00494777 0.220039 0.145179
-0.00494775 0.314009 0.146728
-0.056014 0.29234 0.209762
0.00408006 0.16386 0.128078
0.00227032 0.14098 0.404832
0.00277885 0.102516 0.430865
0.00120644 -0.410737 0.295501
0.00193006 0.41497 0.163116
-0.0310869 0.312257 0.158245
-0.00494779 -0.324486 0.233918
0.00193 -0.395862 0.0937434
0.0378169 0.195089 0.156468
0.00193005 0.345544 0.165556
-0.019805 0.159604 0.343527
0.00193007 0.438556 0.131596
0.0295596 0.166214 0.161124
0.00193004 0.296343 0.14609
-0.00494778 -0.325258 0.101707
0.00193006 0.414611 0.211182
0.00467696 -0.140075 0.390131
0.00193005 0.397891 0.274875
-0.00494779 -0.313332 0.311115
0.00831753 0.0523654 0.16133
4.82542e-05 0.069901 0.177528
0.00193001 -0.381826 0.107654
-0.00494776 0.299208 0.276937
-0.00494779 -0.32393 0.25935
0.00193004 0.282777 0.1367
0.00503351 -0.181491 0.256274
-0.00675116 0.0989556 0.219943
0.000179731 0.00216056 0.202334
0.00193 -0.415568 0.151203
-0.00494781 -0.436003 0.245117
-0.00494777 0.20972 0.0861705
-0.0155207 0.12029 0.153195
0.00193002 -0.232534 0.279176
-0.0307663 0.071808 0.179741
-0.00482109 0.0204413 0.207275
-0.00181825 0.146924 0.372811
-0.00494774 0.401544 0.124747
-0.00494777 0.202204 0.0744638
-0.00156452 0.0863371 0.147683
-0.00494776 -0.206277 0.142167
-0.0335905 0.049339 0.102526
-0.0350077 0.0619115 0.174892
0.00166447 -0.198072 0.270183
-0.00494778 0.183926 0.156419
-0.00494779 -0.390612 0.0283973
-0.00494778 -0.267942 0.185422
0.00193004 0.304938 0.0281336
0.0112618 -0.250534 0.473806
-0.00494776 -0.209603 0.128755
0.00193007 0.426426 0.101094
0.145525 -0.252328 0.50754
0.00193006 0.397994 0.0372986
0.00379107 0.355762 0.00759491
0.00193 -0.438243 0.212282
0.00193006 0.379894 0.152813
0.00193005 0.353578 0.213597
0.00193004 0.305749 0.224906
0.00193001 -0.331527 0.18704
-0.0049478 -0.414792 0.207037
0.00398036 -0.26097 0.317134
0.00193003 0.285993 0.285553
-0.0483254 0.30979 0.182541
0.00193005 0.320026 0.0348402
-0.00494777 0.254056 0.202187
-0.0385991 0.0632916 0.150691
0.00193005 0.348095 0.198451
0.00193001 -0.300906 0.277952
-0.00494777 0.188326 0.125888
-0.00494773 0.420692 0.120865
0.00193002 -0.275434 0.189908
-0.00494776 -0.170856 0.220056
0.00193004 0.286391 0.0531566
-0.00494777 -0.225631 0.127409
0.00193 -0.426769 0.162852
-0.000896327 0.136937 0.390823
0.00193003 -0.241954 0.186703
-0.0244235 -0.216896 0.300924
0.00188105 0.0687808 0.274707
0.00193006 0.399699 0.153131
0.00193006 0.40892 0.192758
-0.0049478 -0.441102 0.187238
-0.0157167 0.10212 0.435025
-0.00494775 0.308507 0.0190317
-0.00691373 0.361677 0.323885
-0.0194256 0.305707 0.176454
-0.0061079 -0.477549 0.20596
-0.00494773 0.423982 0.13504
-0.00494781 -0.443879 0.224361
0.0331136 -0.253689 0.484479
0.00193001 -0.293478 0.321586
0.00446756 0.296582 0.330494
-0.0186707 0.184128 0.318335
0.00192999 -0.450423 0.229104
0.00193 -0.397216 0.0649133
0.00193005 0.373042 0.198872
-0.00494779 -0.358017 0.303802
0.0206884 0.104857 0.148552
-0.00494774 0.416419 0.154671
0.00193 -0.436199 0.173019
-0.00494775 0.386498 0.266955
-0.0334592 0.106958 0.144941
0.0034184 -0.311249 0.326271
-0.145802 -0.257498 0.507005
0.0392154 0.249695 0.258712
0.00193005 0.382635 0.309117
0.00193005 0.353505 0.240736
-0.00494778 -0.293643 0.147253
-0.00494777 0.245904 0.182805
-0.063316 0.0891917 0.0554169
0.00193004 0.287129 0.197144
0.00294224 -0.0379132 0.266347
0.00193002 -0.238335 0.216435
-0.00494777 0.198377 0.0917652
-0.00494777 0.217324 0.207557
-0.00494778 -0.250423 0.289985
0.00193004 0.275251 0.0860438
0.0385007 0.046653 0.238945
0.00428804 -0.0393426 0.334397
0.00193004 0.281875 0.115716
-0.00494775 0.356211 0.295205
-0.00494777 -0.253945 0.0858149
0.00395147 0.108847 0.250968
-0.0049478 -0.388112 0.226678
0.00193006 0.406206 0.177714
0.00193001 -0.292096 0.269212
0.00193007 0.446999 0.183089
-0.00549862 0.483288 0.16947
-0.00494776 0.257077 0.079161
0.00193002 0.194189 0.243603
0.00193003 0.254534 0.261491
-0.00494777 0.206412 0.213579
-0.0229513 0.172486 0.327488
-0.00350909 0.478978 0.212187
0.0376237 -0.271372 0.213453
-0.0938175 0.108326 0.0588606
-0.00756787 0.126327 0.429231
0.00415648 -0.158917 0.186775
0.00193 -0.429206 0.195758
0.00319052 -0.413115 0.0319503
0.00193001 -0.343117 0.282416
-0.0379209 0.259132 0.238271
0.00193002 -0.278911 0.267079
-0.00494777 0.213771 0.189899
-0.00494776 -0.176433 0.172527
0.00193007 0.454649 0.195427
-0.0834146 -0.244573 0.496991
0.00193006 0.420454 0.254155
-0.00494778 0.213691 0.280408
0.00193001 -0.356132 0.108257
-0.00494777 -0.253912 0.227661
0.018981 -0.197858 0.326809
-0.00494777 0.229046 0.136134
-0.00250656 -0.200788 0.338235
0.0408728 0.271949 0.233721
0.00193004 0.253454 0.0903183
-0.00494776 -0.190437 0.176523
-0.00370154 0.00219855 0.294774
-0.023014 0.313753 0.167998
0.00193 -0.420052 0.228691
-0.00653081 -0.00449086 0.211427
0.00193001 -0.301106 0.259419
0.00193001 -0.352791 0.164333
0.00476608 0.472654 0.123766
0.00193004 0.294622 0.18913
0.00193005 0.361003 0.176011
0.00193004 0.336022 0.243397
-0.0834292 -0.256482 0.476986
-0.00494777 -0.200085 0.276607
0.0476854 -0.243 0.485281
0.00193 -0.440225 0.0982537
0.00741765 0.0702995 0.160761
0.00193002 -0.274128 0.279676
-0.106047 -0.257655 0.491561
0.00193003 -0.261935 0.0839412
0.00193002 -0.291496 0.0405749
0.00193003 -0.230383 0.0759194
-0.120682 -0.257353 0.495609
-0.00990727 -0.0102076 0.225642
-0.00667179 -0.41632 0.041108
-0.00279194 -0.193618 0.357715
0.00370846 0.185383 0.0701817
-0.00494779 -0.40139 0.0840015
-0.00494777 0.292587 0.317654
0.00193 -0.417974 0.199617
-0.00494773 0.444624 0.0872256
-0.0049478 -0.40897 0.162111
0.00349727 0.162785 0.453168
-0.00494776 0.351473 0.305633
-0.0339701 0.220727 0.162137
-0.00494774 0.390271 0.141218
0.0221484 -0.310736 0.170574
0.00193005 0.328135 0.110058
-0.0049478 -0.43617 0.126442
0.00193003 -0.211353 0.21737
0.00441856 0.147798 0.460302
0.00193001 -0.376355 0.136102
0.00193003 0.265613 0.249135
0.0342908 0.185691 0.153129
-0.00494778 -0.243539 0.272438
-0.0267556 0.21517 0.295171
0.00246635 -0.218933 0.473895
-0.00494777 -0.227644 0.1521
0.00193 -0.419475 0.173004
-0.0049478 -0.442466 0.138663
-0.00494775 0.31355 0.157413
0.0292952 0.0398331 0.241128
0.00153266 -0.356428 0.00590591
-0.00723073 -0.0742654 0.30015
-0.0074171 -0.189609 0.365522
0.00193002 -0.292839 0.167743
-0.00494778 -0.268233 0.197443
-0.0412684 -0.267537 0.214345
-0.00494774 0.375588 0.169568
0.00193003 0.25354 0.222084
-0.00494775 0.352367 0.188701
