-0.0119195 0.175599 0.0705136
-0.00202759 -0.224957 0.308227
-0.00657249 -0.290723 0.00148488
0.0214354 -0.338129 0.326868
0.0406972 0.116689 0.157249
-0.0488746 0.278364 0.180117
-0.00740768 -0.13887 0.11563
-0.00409162 -0.193825 0.513979
-0.0277957 0.316792 0.184751
0.0184213 0.11754 0.197019
0.00192757 0.0702878 0.286676
-0.0148629 -0.224986 0.42228
0.00700297 -0.286223 0.110046
0.0086068 0.402201 0.317016
0.0074946 0.300301 0.208097
-0.0282549 -0.210591 0.192524
0.0113746 -0.367424 0.295384
0.021174 -0.111617 0.171251
-0.0179429 -0.0413512 0.154949
-0.0117585 0.433411 0.19774
0.0502146 0.162806 0.37039
-0.00800131 -0.409264 0.0538527
-0.0120152 0.302134 0.0139213
0.0084738 0.19972 0.47347
0.000803962 0.178156 0.178633
0.0395511 0.225559 0.161113
-0.0221426 0.0865785 0.106034
0.00417729 -0.317768 0.255709
0.00130113 -0.159216 0.325728
0.00362308 -0.0243121 0.20348
-0.0225725 -0.429714 0.278498
0.0537833 -0.252896 0.36504
-0.0473829 0.212895 0.287519
-0.00748705 0.298728 0.0977443
-0.0234859 0.0968504 0.216296
0.0506813 -0.162313 0.572743
-0.0202055 0.174424 0.287437
-0.0524399 -0.163086 0.573045
-0.0120047 0.350387 0.29909
0.0322195 -0.00469101 0.182615
0.0012476 -0.209133 0.067715
-0.00786107 0.348878 0.148357
-0.0108073 0.277267 0.00712035
0.0254532 0.146615 0.469993
0.00859704 -0.254927 0.192577
-0.00466161 -0.302197 0.0597281
-0.0592044 -0.223836 0.372324
0.00242036 0.161741 0.256206
-0.0233019 0.200687 0.117409
-0.0227346 -0.264482 0.331487
0.00520939 -0.149266 0.234445
0.00208499 -0.171843 0.161616
-0.0361787 0.13254 0.155933
-0.0708998 -0.293407 0.164544
-0.00365973 -0.42733 0.248524
-0.00523745 0.117529 0.37785
-0.0022888 0.0836153 0.42633
-0.00241614 -0.399049 0.204819
-0.0344517 0.0507921 0.128391
0.0185518 0.345092 0.329792
-0.00219653 -0.405992 0.152282
-0.0223293 0.191912 0.205287
0.0185465 0.443628 0.246284
-0.00386136 0.372575 0.227368
-0.00316144 0.2794 0.0449466
-0.00223352 0.0236205 0.192194
-0.00366443 -0.223521 0.250166
0.00604256 0.233129 0.184271
-0.00380192 -0.189071 0.115206
0.00977998 0.365362 0.0258747
0.0563446 -0.276567 0.238014
-0.00899676 -0.212739 0.498969
0.0211222 -0.473119 0.16943
-0.013491 -0.286218 0.311087
0.021826 -0.307241 0.334126
0.0956291 -0.0481189 0.211937
-0.00268239 0.287926 0.270774
-0.0204428 0.309553 0.333898
0.0169379 0.37386 0.252636
-0.0521815 -0.247668 0.350054
0.0177029 0.15174 0.514121
-0.00804761 -0.120901 0.247832
0.0213024 -0.236402 0.325076
-0.0200458 0.225582 0.320315
-0.0230997 -0.370257 0.315824
0.00151905 -0.258252 0.0561602
-0.0017658 0.408306 0.135246
0.00385295 -0.354353 0.0133836
0.00828879 -0.238051 0.16131
0.0121767 -0.143792 0.165049
0.0023927 -0.17068 0.442264
0.0192266 0.154032 0.269923
0.00271006 -0.365048 0.0908827
0.0211907 -0.445686 0.239349
-0.00942715 -0.316976 0.189824
0.00151506 0.153221 0.439798
0.0382256 0.295773 0.162132
-0.0243731 0.168528 0.115385
0.106843 -0.177333 0.562022
0.0185648 0.208319 0.312702
-0.00734527 0.414962 0.261971
-0.104858 -0.177326 0.563906
-0.00938834 -0.442537 0.113472
0.000145898 0.0831552 0.480084
-0.00629535 0.206633 0.0262751
-0.0198986 0.459203 0.204463
-0.00541794 0.106652 0.419873
0.00979694 0.379878 0.0348908
-0.00618859 -0.358799 0.188233
0.00887062 0.137001 0.142759
0.00337131 -0.214003 0.366364
0.00242075 0.00700224 0.157999
0.0191962 -0.186311 0.202851
0.00329871 -0.0745 0.24313
0.00824898 -0.3042 0.318971
0.00367778 0.355805 0.0895184
-0.0423745 0.250409 0.238881
0.0348173 0.058292 0.164136
0.0104373 0.324452 0.309832
0.0211325 -0.406522 0.296199
-0.0222301 -0.320546 0.338888
-0.0224879 -0.123248 0.20219
-0.0043194 -0.225719 0.0147886
-0.048923 0.185323 0.3396
-0.0310003 0.164298 0.495727
-0.00287833 -0.157418 0.564161
0.136218 -0.171595 0.575659
0.049434 -0.249304 0.314674
-0.019912 0.339637 0.328264
-0.070861 0.0792094 0.112079
-0.0194666 0.253437 0.123441
0.00395787 0.374923 0.202808
-0.00317172 -0.194676 0.0902399
-0.0199302 0.424965 0.271457
-0.0225143 -0.460107 0.215466
-0.0173044 0.00595233 0.104407
-0.00330633 0.338287 0.266382
-0.00458294 0.225361 0.307708
-0.00229866 -0.453017 0.164426
0.00803918 -0.294263 0.215747
0.0078798 0.443765 0.121577
0.00454007 -0.390221 0.2881
0.00303669 0.241943 0.0819904
0.0345766 0.134875 0.422125
-0.00341808 -0.189743 0.138405
-0.0216989 -0.200237 0.317745
0.00125648 0.199567 0.254317
-0.0131399 -0.322126 0.0121936
-0.0124967 -0.178586 0.266647
0.029224 0.300589 0.174415
0.0219254 -0.166531 0.282298
-0.00900126 0.328987 0.17915
-0.00674233 -0.241477 0.106142
0.0370448 0.173649 0.15706
0.0020045 0.171181 0.488989
-0.0117153 -0.346937 0.292551
-0.0191486 -0.27384 0.143705
0.000832134 0.137661 0.209336
0.00122676 0.199978 0.225091
-0.0104751 0.321057 0.0220581
0.0153688 0.282748 0.137409
0.0379392 0.110008 0.491882
0.00309691 0.385104 0.141527
-0.0208435 0.261986 0.200173
-0.0225006 -0.157481 0.271029
0.0219812 -0.120768 0.211748
-0.00128878 -0.180081 0.216929
0.0231239 0.337764 0.209725
-0.0588373 -0.285503 0.204653
-0.0171501 0.0623511 0.182693
-0.0210941 0.118965 0.471857
-0.00314197 -0.132072 0.139752
-0.00747939 -0.1623 0.068255
-0.0192861 0.136618 0.253992
3.29784e-05 0.147851 0.08843
-0.00540787 0.0500853 0.236958
0.00541648 -0.256374 0.362889
0.00342786 0.25163 0.23471
-0.0214534 -0.250754 0.382176
0.040174 0.188236 0.485785
-0.00793315 -0.237977 0.206105
-0.0415681 0.0181042 0.165544
-0.00335864 -0.369069 0.246905
-0.0018786 0.404246 0.227924
-0.0172353 0.105485 0.176028
-0.0112524 0.285977 0.153457
-0.0367369 0.182094 0.156453
0.0951827 0.00261429 0.213685
0.00164372 -0.359596 0.0493367
0.000318204 0.232345 0.0453553
0.00323119 0.362171 0.305836
0.0434369 0.270889 0.195324
0.00688377 -0.229017 0.133015
0.00718439 -0.174623 0.0540194
-0.0144241 0.266311 0.348306
-0.0171983 0.370666 0.261727
0.000886997 -0.240704 0.273967
0.00244359 -0.396445 0.0819876
0.000333014 0.187943 0.0986709
-0.0029584 -0.39616 0.127244
0.00356131 0.0399194 0.424588
-0.0032794 0.313497 0.270638
0.0103524 -0.44268 0.1998
-0.0117543 -0.225893 0.455659
0.00756559 0.268242 0.125731
-0.0317481 -0.262327 0.175273
0.0168742 -0.266277 0.148999
0.00234237 0.324641 0.0573778
-0.00272552 0.102877 0.336006
0.00115822 0.375811 0.0672389
-0.00774506 -0.353174 0.124371
-0.0205685 0.438061 0.256191
-0.0178018 -0.0114676 0.213849
-0.00532023 0.204605 0.153821
-0.0199108 0.398003 0.298433
0.0105426 0.422534 0.0874437
0.0190308 0.294923 0.341159
0.00685659 0.449911 0.153163
0.0124108 -0.29974 0.167067
0.010693 0.148479 0.122554
-0.00967343 0.152685 0.139307
-0.0188769 -0.00532516 0.181699
0.00105983 0.234394 0.265068
-0.0176316 -0.0124937 0.116205
0.0182707 -0.469996 0.212894
0.00987037 0.275893 0.304728
-0.0247219 0.342091 0.225241
0.00104714 -0.178433 0.187719
0.0133287 -0.37941 0.329447
0.0218572 -0.198892 0.308194
0.00454942 -0.134673 0.19359
0.0473412 -0.280654 0.199842
-0.0610938 0.0383307 0.111072
-0.0290337 0.133908 0.422417
-0.0117107 0.128198 0.508956
-0.0178384 -0.121956 0.239723
0.0432343 -0.223026 0.379492
0.00803167 0.434334 0.287372
0.00703334 0.170324 0.309164
0.0120655 -0.195398 0.278216
-0.0327037 0.053812 0.156323
-0.00647581 -0.33047 0.101608
0.0078373 -0.230828 0.03738
0.00681253 -0.451894 0.266628
-0.0142976 -0.4092 0.309117
0.00705828 0.324776 0.123569
0.0180371 -0.159736 0.558988
-0.00687208 -0.35774 0.156438
0.0104002 0.163022 0.242113
0.0494118 0.18212 0.336631
0.0142781 0.123447 0.243076
0.00389095 -0.418029 0.260795
-0.0199914 0.134317 0.230134
-0.0109021 0.259967 0.301205
0.0105344 0.4338 0.200559
0.0523832 -0.0381744 0.210061
0.012127 -0.265506 0.308983
-0.00812206 -0.251201 0.31529
-0.0778592 -0.174069 0.561805
0.0214657 0.0201186 0.155612
-0.0981934 0.0334935 0.11189
-0.00674657 0.43425 0.233267
-0.0226328 -0.170752 0.283186
-0.0140053 0.481491 0.169602
0.00733873 0.255349 0.15026
0.000114476 -0.287369 0.29168
-0.133143 -0.162758 0.553269
0.00274547 0.34724 0.234228
0.0185364 0.460433 0.211963
-0.0120297 0.143259 0.1655
0.0213813 -0.276057 0.332554
-7.18881e-05 -0.429212 0.0767663
0.00448809 -0.194078 0.0703171
-0.0126403 -0.100569 0.170432
0.0431843 0.226507 0.273543
0.0417802 0.26328 0.159541
0.0121925 -0.160315 0.0934997
-0.000722327 -0.278683 0.0313885
0.0103037 0.296426 0.0151297
0.00688885 0.194149 0.505124
0.0169394 0.395748 0.279557
-0.00523676 -0.233745 0.34492
0.010645 0.184654 0.0568247
0.0133279 0.0791563 0.498577
0.0212227 -0.139005 0.24603
-0.00781365 0.194605 0.286905
-0.0189397 0.033203 0.146833
0.0231397 -0.154008 0.21004
0.0028413 -0.137384 0.439622
0.00826187 0.274051 0.182231
-0.0111286 0.353414 0.341544
-0.00972018 -0.289468 0.352197
-0.00237453 0.262365 0.268461
-0.00253381 0.139687 0.406666
0.0121706 -0.257643 0.0142669
-0.000364866 -0.321634 0.288151
-0.0225928 -0.468352 0.17754
0.00443434 -0.345862 0.221293
-0.0128465 -0.434954 0.136962
0.00876596 -0.314539 0.0236345
-0.00752874 0.162003 0.206446
0.00367352 0.325254 0.237564
0.0010976 -0.216225 0.338703
-0.0108343 0.292686 0.316141
-0.00330674 -0.330694 0.0520791
-0.009477 -0.37996 0.0302824
0.00428599 0.384699 0.258487
0.0736125 -0.169684 0.572764
-0.0178349 0.156823 0.469932
0.00997282 0.329282 0.0122866
-0.00341045 0.403072 0.187556
-0.0108559 -0.278445 0.192726
0.00362048 -0.0048715 0.182867
-0.0158684 0.0384298 0.102202
-0.0410913 0.230503 0.259073
0.000216237 0.471754 0.226851
0.0106609 0.212882 0.287171
-0.0160117 0.312132 0.143437
0.0117949 -0.392516 0.0467746
-0.0104908 -0.192236 0.0398916
-0.0265966 -0.295739 0.162055
0.027919 -0.269084 0.175269
0.00829292 -0.332992 0.168337
-0.000701116 -0.181987 0.545413
-0.0164493 0.0597396 0.219955
-0.0101507 -0.256814 0.144911
-0.00575397 -0.208247 0.160861
0.00990762 0.247969 0.0137162
-0.0170022 0.0695767 0.154764
0.0219942 -0.216227 0.192885
-0.0119739 0.428687 0.102724
0.00512387 -0.347121 0.345555
-0.0024769 0.402719 0.161879
-0.0113245 0.316541 0.350404
-0.00297088 -0.198037 0.239291
0.0115421 -0.14097 0.133113
0.0156833 -0.296561 0.137212
0.00747541 -0.267501 0.216774
0.00331607 0.220922 0.340298
-0.022485 -0.445696 0.2479
-0.0115534 0.314799 0.305453
0.00298473 -0.0796347 0.434579
-0.0118366 0.373809 0.0397436
-0.0148347 -0.230555 0.396869
0.0239325 0.194467 0.472478
0.0109608 -0.431334 0.128843
0.00594261 0.343009 0.204399
0.00665711 0.343849 0.172983
0.0105097 0.141458 0.182044
-0.0199859 0.290206 0.196527
0.0051577 0.232202 0.142502
-0.00804545 -0.32115 0.213926
-0.0621773 -0.252515 0.320946
-0.0260241 -0.220267 0.373013
-0.0117777 -0.13663 0.173343
-0.0119956 0.441722 0.171023
0.00888978 0.115103 0.471275
-0.021823 0.196106 0.482885
-0.0128 -0.431052 0.200423
-0.0422584 0.171614 0.369242
-0.0244038 -0.165727 0.203783
-0.00577006 -0.159358 0.144177
0.0105807 0.407979 0.0659168
-0.0233271 0.132806 0.111603
0.0434402 0.152617 0.476195
-0.0518354 -0.237847 0.370624
-0.00743103 0.14409 0.283237
-0.0188794 -0.0075923 0.148803
-0.011144 -0.25676 0.0248378
-0.00108831 0.19804 0.329704
-0.0133982 -0.421592 0.0859906
-0.0360297 0.288885 0.159659
0.00199725 -0.0926878 0.26662
-0.00436995 -0.0477248 0.226148
-0.00893277 0.187329 0.254058
-0.0470344 0.0569595 0.115685
0.0538104 -0.242712 0.341346
-0.0134865 -0.424527 0.225723
0.0491031 0.144209 0.401013
0.014851 0.320011 0.157078
0.0761667 -0.019494 0.212407
-7.36627e-05 -0.191834 0.342951
-0.0101719 0.0951685 0.500942
0.00537171 -0.431666 0.292815
0.0305818 0.0882461 0.15996
-0.0180388 0.379264 0.324706
0.000909243 -0.398209 0.235193
0.0117726 -0.425161 0.21979
-0.0016104 0.205293 0.0774774
-0.0281636 -0.168568 0.55677
-0.0113245 0.232658 0.0193649
-0.0130222 -0.209379 0.28112
0.00923568 -0.137881 0.27428
0.00247054 -0.202863 0.45005
0.00920803 -0.233555 0.383566
-0.00938673 0.255354 0.166384
-0.0304534 -0.224564 0.355644
0.0297109 -0.236395 0.357856
0.00541025 -0.279979 0.353309
-0.00504603 -0.283371 0.0770402
-0.00528701 -0.103894 0.200436
0.00372215 -0.218497 0.474775
-0.00916749 0.280964 0.131975
0.0492401 -0.257747 0.285512
-0.00994379 -0.303613 0.128945
0.00933651 -0.226514 0.285822
-0.0053872 -0.134961 0.272231
-0.00577887 0.212894 0.052468
0.00808331 0.170068 0.513115
0.00327512 -0.24423 0.0769775
0.116378 -0.153893 0.566215
-0.0267328 0.0163253 0.170719
-0.127748 -0.166037 0.577121
-0.00956801 -0.165737 0.256714
-0.0565339 -0.260151 0.30791
-0.00565311 -0.29453 0.249034
-0.0132165 -0.310417 0.306705
-0.0062226 0.288959 0.226587
-0.0110129 -0.164105 0.101929
0.0106261 -0.420312 0.0996934
-0.0417 0.204118 0.315525
0.00876783 0.380249 0.329899
-0.00532357 0.329184 0.0963514
0.0404926 0.195992 0.155721
0.0120783 -0.298718 0.0145168
0.00156733 0.183377 0.125825
0.0666876 -0.234108 0.368675
-0.0171208 0.0311693 0.176159
0.0105018 0.184129 0.261828
-0.0109977 -0.272763 0.170989
-0.0437593 0.139005 0.422401
-0.00985912 0.340314 0.310301
0.0161651 -0.288579 0.188558
-0.00547346 0.351676 0.11695
-0.00398687 0.415119 0.209067
0.00163926 0.173488 0.152336
0.00313654 -0.318703 0.351633
-0.0204903 0.126409 0.21311
-0.0051526 0.344816 0.0389349
0.0309081 -0.252434 0.379852
-0.00410145 0.256742 0.061483
-0.0118581 0.437254 0.139817
0.00713714 -0.373895 0.271456
-0.0225935 -0.234275 0.324679
0.041704 0.131059 0.495607
0.00953706 0.310087 0.00769321
0.00252867 -0.376499 0.21997
-0.00380665 0.301959 0.0667546
-0.101384 -0.155631 0.568334
-0.00103701 0.105568 0.206559
-0.0494871 0.264978 0.205888
0.0185155 0.110414 0.170395
-0.00710458 0.47991 0.196947
0.0080716 0.431675 0.17251
0.0142724 0.16773 0.468767
-0.0172271 -0.18343 0.197846
-0.00933106 -0.423852 0.1193
0.00996661 -0.34363 0.30885
0.00536736 -0.180829 0.317448
0.0688396 -0.167875 0.556516
-0.0199125 0.196846 0.307073
0.0122461 -0.172585 0.251568
0.00352808 -0.22809 0.433199
-0.0169392 0.0325516 0.211736
-0.021342 -0.238464 0.180356
0.00434263 -0.241437 0.228573
-0.000312915 0.452391 0.266493
-0.00477928 -0.152626 0.29341
-0.0183742 0.460137 0.233614
-0.00735414 0.369344 0.274425
0.00728668 0.335073 0.293693
-0.00975636 0.291368 0.352392
-0.0235172 0.162339 0.208009
-0.0225584 -0.136318 0.216998
-0.00788686 0.272945 0.109305
0.00317884 -0.46035 0.252258
0.0045274 -0.365716 0.137712
-0.00523883 0.086461 0.31352
0.0185258 0.424652 0.276404
0.00192494 -0.113836 0.232021
0.0216968 0.321397 0.190105
-0.0216022 -0.350312 0.333512
0.0185289 0.176162 0.290822
0.0101246 0.42916 0.113136
0.00989942 -0.1671 0.22787
0.0065691 -0.410881 0.228177
-0.0347912 0.107933 0.155947
-0.00135258 -0.480233 0.197143
0.0218 -0.430189 0.275478
0.00700478 -0.253532 0.117604
-0.0227186 -0.285021 0.333289
0.0121773 -0.438806 0.149775
-0.00259834 -0.137047 0.306369
0.0296484 0.11861 0.471152
-0.00907119 0.420901 0.302426
-0.0437235 -0.25493 0.371357
-0.0111473 0.189627 0.0459718
-0.00732929 0.27589 0.297585
-0.00635877 0.224635 0.120778
0.000792919 0.386595 0.291872
-0.00832468 -0.256425 0.0062995
-0.00690218 -0.199031 0.259771
0.04314 0.144554 0.161385
-0.0198099 -0.310777 0.154793
0.00831889 -0.311469 0.00467797
0.0134269 -0.17213 0.306963
-0.0383799 0.203653 0.156322
-0.0120192 0.412721 0.246858
0.0159154 0.271333 0.345565
0.0262703 0.179392 0.507767
0.00203237 -0.224615 0.408035
0.021212 -0.360351 0.320019
-0.00127332 0.136375 0.470106
0.000739401 0.398313 0.112684
0.00766564 -0.388608 0.259882
-0.0104367 -0.216013 0.0436623
0.0107419 -0.362256 0.0368655
-0.0785483 0.0570528 0.110922
-0.0014311 -0.329784 0.318289
-0.00955563 0.232279 0.288611
-0.00140459 0.14887 0.236521
0.00209713 0.416556 0.307035
-0.0105409 -0.38871 0.325301
0.0120628 -0.207911 0.0348244
-0.00572179 0.375783 0.181003
-0.0259696 -0.160589 0.571668
0.0129354 0.294819 0.158114
-0.0318258 0.13991 0.488187
-0.0125698 -0.388121 0.0543738
0.13527 -0.169813 0.553526
-0.00545944 -0.450791 0.138782
0.0506184 0.261977 0.217996
-0.00533842 0.0623624 0.260966
0.00696419 0.24537 0.346703
-0.00222415 0.461232 0.252265
-0.00948593 -0.254604 0.362
0.00861916 -0.225118 0.355657
-0.0185488 -0.178021 0.308528
-0.00461594 0.252655 0.00570554
0.0499406 0.28066 0.173114
-0.0134671 0.169264 0.510062
0.0703129 -0.00325891 0.215177
-0.00638576 0.353832 0.19148
0.0106736 0.221446 0.0303246
-0.0412105 0.155853 0.157907
-0.0169651 -0.0253224 0.175164
-0.0127073 -0.381047 0.274972
0.000443717 -0.46958 0.232584
-0.0117795 0.35529 0.0230868
-0.0085965 0.158669 0.0763593
0.00204529 0.19921 0.198479
0.0258829 0.0949316 0.476256
0.0177376 -0.254721 0.344203
-0.00693947 0.117587 0.239157
-0.0614532 -0.27774 0.227922
-0.0081166 -0.174111 0.231361
-0.00556144 -0.215905 0.105222
0.0404055 -0.170335 0.557415
0.0100098 0.421797 0.243327
0.00378764 -0.252355 0.250955
-0.0169045 0.0309939 0.124242
0.011457 -0.435384 0.177348
-0.00897621 -0.340048 0.0320557
-0.0241146 0.333444 0.202984
0.0143552 0.00662386 0.165462
0.0321048 0.0328021 0.164232
-0.0131702 -0.233236 0.295272
0.000559911 -0.267823 0.282771
-0.00226977 0.256313 0.0357338
0.00769867 0.429878 0.139398
-0.0211795 0.363492 0.239381
0.00830438 0.309098 0.183137
0.0572464 -0.279756 0.220973
-0.00630185 0.17676 0.232776
0.011258 -0.172387 0.570793
-0.0129757 -0.149256 0.190423
-0.00718167 0.136453 0.126503
-0.0233606 0.107053 0.493193
-0.00928648 -0.267973 0.121407
-0.0269572 0.14069 0.406624
0.0185644 0.319934 0.332226
0.0215165 -0.29592 0.1622
0.00383074 0.332752 0.34883
-0.00403844 -0.38535 0.104632
-0.0180577 -0.033469 0.130899
-0.0199847 -0.29278 0.175137
-0.0119051 0.393284 0.273578
-0.0109767 0.140257 0.191481
0.0047734 -0.208643 0.123705
-0.00780131 0.345124 0.0120749
0.0217332 0.132823 0.40737
0.00261761 0.0998765 0.181682
-0.0117621 0.285432 0.173045
-0.00421275 -0.340745 0.249663
0.0104851 0.402735 0.258503
0.00832294 0.374232 0.275552
0.0215999 -0.38316 0.307624
0.000346742 0.122543 0.395826
0.00761674 -0.158751 0.198098
-0.0188316 0.246372 0.338386
0.018959 0.121565 0.219412
0.00418564 0.202749 0.175006
0.00367754 -0.164846 0.122662
0.00848508 0.301384 0.317625
0.00134627 0.303323 0.0423404
-0.0124185 -0.232852 0.371468
0.0543064 -0.246664 0.382679
0.00142791 0.128683 0.26193
0.00933233 -0.250497 0.027395
0.00578639 0.254308 0.103364
-0.0224733 -0.140908 0.253779
-0.00348588 -0.346009 0.0762601
-0.00380168 -0.144925 0.0955239
-0.0103463 -0.206396 0.481066
0.00912969 -0.417908 0.0677721
0.0192868 0.224707 0.324279
0.00913933 -0.319636 0.191872
-0.0146904 0.313383 0.165697
-0.00313582 0.406699 0.0981069
-0.0757067 -0.158056 0.568438
0.0217515 -0.116202 0.194189
-0.00546067 -0.339137 0.347317
0.00338614 0.448678 0.196494
0.00445045 -0.201885 0.182
0.00918851 0.163857 0.0986644
-0.0082896 -0.368544 0.336611
-0.0614074 -0.286522 0.174357
0.0281334 0.197641 0.49605
0.0186719 0.188437 0.298919
-0.0172447 0.0111199 0.136129
-0.0131201 0.181083 0.46845
0.0022539 0.347952 0.0632678
-0.0150205 0.0639826 0.107462
0.0107769 -0.401857 0.316137
-0.0475735 0.281237 0.156647
-0.0119378 0.170878 0.245587
-0.0129855 -0.298506 0.0163046
0.00871764 0.152788 0.292016
0.00569393 0.307546 0.29718
-0.0115271 0.143442 0.421996
-0.0226553 -0.219481 0.317258
0.015062 0.312034 0.14274
0.0969818 -0.0200644 0.208462
0.00487494 0.156529 0.1638
-0.00513347 -0.319586 0.0805198
-0.0168949 0.011753 0.203707
-0.00515862 0.0411783 0.21514
0.000272585 0.20635 0.487051
-0.00683773 0.212522 0.272193
0.0131332 0.273374 0.161537
-0.00155425 0.271544 0.321559
-0.00954923 -0.369367 0.299025
0.00256224 -0.296762 0.271088
0.00304134 0.105968 0.357415
-0.0517499 -0.168642 0.556791
0.0095281 0.160434 0.21871
0.00517979 -0.276015 0.239299
-0.0124483 -0.156024 0.23488
0.006836 0.273871 0.0241446
-0.00815917 0.0232852 0.163994
0.0072313 0.32361 0.203659
-0.0228571 -0.408403 0.288256
-0.00379554 0.376054 0.0986266
0.00836321 -0.273233 0.129085
-0.0042892 -0.248786 0.383721
0.033188 -0.170532 0.572345
0.000509804 0.062794 0.491213
-0.000649601 0.0625982 0.419628
0.00829071 -0.194898 0.325645
-0.00397108 -0.409465 0.10242
-0.0129079 -0.435653 0.178065
-0.0169836 0.0627434 0.136449
0.0101424 -0.177233 0.078038
0.00654649 0.118456 0.510253
-0.00870541 -0.404848 0.272777
-0.0349209 0.029398 0.149112
0.0269956 -0.248489 0.181754
0.0563852 0.139114 0.419215
0.00251598 0.222902 0.0948968
0.0288539 -0.232769 0.180822
0.00258531 0.192313 0.0350321
0.0990745 -0.159336 0.57306
0.0729299 -0.0457891 0.213627
0.00320879 -0.384169 0.154244
-0.0113994 0.391869 0.0569157
0.0220219 0.351425 0.226468
0.0370993 -0.0247042 0.213901
-0.0205983 0.151941 0.267415
0.00715051 -0.344814 0.143722
-0.0418639 -0.241756 0.384991
0.0186045 -0.138462 0.21044
-0.00880958 -0.249137 0.292552
0.000389417 0.128497 0.421472
0.014308 0.475802 0.191835
0.00662632 0.158519 0.197212
0.0557931 -0.232391 0.358774
-0.00571966 -0.42544 0.162598
0.00865166 0.312454 0.350741
0.00234699 -0.378245 0.0624836
0.00155773 -0.442286 0.219306
-0.0395735 -0.2932 0.157963
0.00984646 -0.315711 0.146212
-0.00799222 -0.164814 0.304226
-0.0226282 0.00808528 0.156445
0.00911542 -0.128147 0.258064
-0.00938096 0.167989 0.0953561
-0.0190663 -0.473951 0.198735
-0.00470014 0.370579 0.126345
0.0202657 0.355677 0.244633
0.00441041 0.31855 0.0792743
-0.012829 -0.265301 0.349408
-0.0225089 -0.395628 0.301018
0.0213207 -0.462583 0.188745
0.00798645 -0.308452 0.111737
0.0573311 -0.288087 0.185289
0.00253472 -0.418947 0.195307
-0.011689 -0.444009 0.275984
-0.0133147 -0.277879 0.0100776
0.00127718 -0.0996328 0.181023
-0.0263275 -0.246349 0.359885
0.00277072 -0.281213 0.0526211
-0.00229412 0.359918 0.250834
0.000887151 0.0203764 0.432077
0.00508117 0.111905 0.226634
-0.0192165 0.146949 0.508701
0.0150251 -0.273242 0.164226
-0.00747406 -0.221466 0.178505
0.0132082 0.146113 0.41812
-0.00631042 0.248326 0.209569
-0.024367 0.185463 0.497612
0.0191653 0.4034 0.300069
0.00377698 -0.418196 0.30545
0.0105279 0.392549 0.0538644
0.00548296 0.341346 0.105904
-0.0106265 -0.187813 0.52998
0.0220372 -0.151298 0.267217
-0.0172188 0.0447557 0.195455
-0.00888207 -0.180956 0.0794057
-0.00871662 -0.244385 0.127294
-0.0199139 0.118633 0.19353
0.00583327 0.326563 0.0291822
0.00409969 0.265827 0.0852619
-0.036099 0.0700212 0.156055
0.00609086 0.278211 0.212537
0.0129937 0.291549 0.174931
-0.0024011 0.388496 0.241784
0.0495086 0.218769 0.290304
0.0210667 -0.214134 0.323204
-0.0202055 0.268667 0.156225
-0.0201262 0.362984 0.317798
-0.0020574 -0.233692 0.0590525
0.00372364 -0.368141 0.114825
-0.0127357 -0.407161 0.248319
0.0558835 -0.253601 0.301439
0.00959249 0.358642 0.288439
-0.00904915 0.304386 0.189057
-0.00370247 0.299051 0.000611312
-0.0133656 -0.28501 0.156518
0.0114145 -0.337815 0.0245219
0.00685209 0.253168 0.17709
-0.0128273 -0.181848 0.0542532
-0.00807079 -0.155066 0.168596
0.00554171 -0.311493 0.235481
0.00663454 -0.108591 0.214065
-0.0108239 0.253914 0.023453
-0.0101643 0.265336 0.179803
-0.0164622 0.17891 0.30918
0.0034901 0.438675 0.0967067
0.0106365 -0.239469 0.0154253
-0.00272214 -0.187595 0.443008
-0.00886944 -0.29783 0.102487
0.0185425 0.141994 0.25047
0.0315441 -0.0191626 0.19697
0.0104052 -0.283713 0.316845
-0.00852432 -0.281533 0.217887
0.00208137 -0.140268 0.216112
0.0133576 -0.251568 0.381124
-0.0054619 0.247546 0.315502
-0.0116326 0.160401 0.297705
-0.0129898 -0.265333 0.304939
0.00927023 0.349599 0.0174428
0.00496382 -0.346155 0.10913
-0.0203006 0.291693 0.145837
-0.0169482 0.0478091 0.1666
-0.146171 -0.17386 0.572157
-0.0134491 -0.148608 0.206047
0.0036628 0.212781 0.135424
-0.00921755 0.328474 0.145555
0.0435711 0.248426 0.155846
0.00585619 -0.366387 0.173341
-0.00791371 -0.215331 0.437868
0.0153034 -0.232568 0.340348
0.0036525 -0.224427 0.217093
-0.0408624 0.19144 0.3246
0.0117099 -0.278559 0.0168049
0.0860108 -0.157413 0.563169
0.0122225 0.462381 0.239892
0.0480107 0.240671 0.255102
-0.00519412 0.00623166 0.427995
0.0022964 0.483916 0.180661
0.00359597 0.267274 0.247643
0.0187119 -0.123194 0.238093
0.0185238 0.378717 0.314023
-0.00154132 0.174027 0.271773
0.00999712 0.201994 0.0479841
-0.0105286 -0.287362 0.126268
-0.0955467 -0.162758 0.555491
-0.0114989 -0.314812 0.17001
0.00524214 -0.209167 0.298406
0.00731174 0.268652 0.0053156
0.00711545 -0.436953 0.0967361
0.00987773 0.423739 0.219384
-0.0305451 0.175601 0.479363
-0.0531336 -0.233031 0.357512
-0.00730828 -0.474872 0.215218
-0.00549218 0.425771 0.0733945
-0.0109917 0.402679 0.315385
0.0443662 0.171295 0.481661
-0.0135444 -0.355445 0.0277931
0.0117271 -0.192746 0.0452257
-0.0172476 0.00680571 0.182069
-0.013187 -0.172052 0.571077
-0.0488796 0.241572 0.249706
-0.000305391 -0.116099 0.444909
0.0148245 0.418573 0.298873
0.0211927 -0.453767 0.222834
-0.00192745 -0.173794 0.33898
-0.0111389 0.432058 0.289111
0.0118757 -0.14698 0.114256
-0.00937032 -0.260669 0.186602
-0.01412 -0.429904 0.291176
0.00639011 0.18498 0.31981
-0.00898906 0.301322 0.131677
0.00205984 0.167167 0.119524
0.055258 -0.0189749 0.211015
-0.00699838 0.237188 0.157117
0.0070503 0.367511 0.33679
0.00336196 0.393786 0.0757692
0.0314731 0.0138287 0.170645
-0.0256925 0.297544 0.173794
-0.00499199 -0.229591 0.0906226
-0.00936316 -0.303264 0.205979
-0.0594136 -0.237563 0.386502
-0.00539992 0.327008 0.290678
-0.00714189 -0.261187 0.228209
-0.0333073 -0.278993 0.169227
0.0145634 -0.463423 0.236878
-0.0191345 -0.0164809 0.197668
-0.0158934 0.0940189 0.478146
0.00784665 0.305899 0.118443
0.0185663 0.451172 0.226363
-0.00684295 -0.241791 0.0359582
0.0296484 -0.220438 0.36868
-0.00435868 0.323891 0.00398946
-0.00744124 0.388782 0.0354065
-0.0108043 0.213359 0.294934
-0.0110836 -0.480794 0.189043
0.0489831 0.192321 0.319124
0.00610343 -0.419685 0.115536
0.0241119 -0.19874 0.189503
-0.0156525 -0.222186 0.360856
-0.0196743 -0.245523 0.341613
0.00511278 -0.350977 0.202587
0.00256968 -0.345508 0.0413352
0.0192911 -0.292683 0.346227
-0.0118273 0.474221 0.212618
0.00501768 -0.210476 0.268334
-0.0149272 0.282812 0.183543
-0.012822 -0.293348 0.14446
-0.00566918 0.280365 0.353397
-0.0670461 -0.244254 0.363228
0.00364743 -0.153779 0.442678
-0.0135123 -0.441472 0.156942
-0.0516593 -0.287644 0.186548
-0.00254544 0.131169 0.175279
-0.00470358 -0.0341412 0.213426
-0.00555769 0.33712 0.22028
-0.0233377 -0.301458 0.338033
0.0211728 -0.443131 0.262263
0.135418 -0.154238 0.567869
0.0104496 0.194621 0.277732
-0.0393405 -0.17158 0.571485
0.00377194 0.242589 0.285578
0.00407469 -0.176932 0.273626
-0.0121483 -0.462618 0.24329
-0.0117857 0.437974 0.119324
-0.00535648 0.152993 0.513889
-0.00471003 0.376853 0.162048
-0.0142366 -0.452736 0.260891
-0.0225325 -0.111779 0.18743
-0.0478693 0.075268 0.11527
-0.000104123 0.420781 0.179586
0.0347239 0.178981 0.470594
0.0105169 -0.43929 0.112221
0.0138562 -0.478761 0.189851
-0.0547453 0.143094 0.413156
0.0208516 0.289299 0.158043
-0.116387 -0.155072 0.559623
-0.00553497 0.425848 0.163915
-0.00352953 -0.0172995 0.190778
0.00471848 -0.25249 0.093833
0.00428213 -0.220778 0.4548
0.00831415 -0.337643 0.292742
-0.00479973 0.425573 0.2503
0.00291942 0.336811 0.0833126
-0.00913317 -0.163848 0.213909
0.0107345 0.140607 0.276182
-0.0117484 0.194832 0.271338
-0.0360916 0.038825 0.164395
0.00922585 0.271024 0.141457
0.00236307 -0.421771 0.142314
-0.00564817 0.350978 0.281975
-0.00804316 -0.341348 0.181675
0.016381 0.444549 0.264159
0.00338289 0.094717 0.32437
-0.0421312 -0.224043 0.379851
-0.015772 0.200001 0.32469
-0.000161784 -0.110585 0.271538
-0.0130231 0.216034 0.335059
-0.0230035 0.104444 0.110888
0.00260302 -0.294805 0.0298241
0.00478646 -0.208541 0.142328
0.00143121 -0.241906 0.368781
0.00567141 0.285617 0.0965717
-0.0153081 0.442235 0.273367
-0.0229502 -0.11479 0.173707
0.010673 -0.42671 0.237866
-0.016366 -0.220944 0.336252
-0.0145923 -0.482012 0.17056
-0.0032028 0.395858 0.284293
-0.00978374 0.157636 0.11854
0.0203992 -0.324903 0.339727
0.10141 -0.15979 0.556106
0.00506931 -0.328586 0.227742
0.00178482 -0.151869 0.308818
-0.00642711 -0.362241 0.275923
-0.00950968 0.321865 0.16217
-0.000626842 0.151869 0.456374
-0.0413858 0.129601 0.411422
-0.0109269 0.220682 0.0366042
0.033516 0.147268 0.50826
-0.00985397 -0.307022 0.352277
-0.0112017 -0.156959 0.119513
0.0190492 -0.172055 0.198461
-0.0457692 0.261671 0.221312
0.0305574 0.146366 0.412404
-0.00701678 0.244225 0.133167
0.0120306 -0.154518 0.292784
-0.0132082 0.336612 0.345428
0.00735809 -0.30838 0.298023
0.02831 0.0873066 0.493896
0.1492 -0.16024 0.556751
-0.042602 0.162309 0.384488
-0.00893093 0.265887 0.135281
0.00434625 0.357624 0.215052
0.00292817 0.18669 0.0807255
0.00568789 0.26124 0.218963
-0.00109521 -0.20534 0.0250842
-0.0154939 -0.145669 0.280699
0.00128408 0.0868009 0.303019
-0.0188616 0.473244 0.185207
-0.0062714 -0.131764 0.156195
-0.0230554 0.136935 0.471395
0.0078967 0.240121 0.0312643
0.00278935 -0.269596 0.00200494
0.00706483 -0.446726 0.125754
-0.0231262 -0.456892 0.232194
0.00776097 0.180636 0.246419
0.0205835 0.382269 0.268648
-0.00732156 0.389533 0.325624
0.0105904 -0.270017 0.178812
-0.00724693 0.447432 0.127986
0.0441874 -0.222619 0.361633
0.0106869 0.17385 0.0706857
-0.0172363 0.0468927 0.124613
0.018667 -0.306233 0.161399
0.00878261 0.456893 0.256052
0.0344434 0.102793 0.16408
0.00222847 -0.171264 0.109528
-0.00554137 -0.238463 0.408492
0.00487773 0.232785 0.201959
-0.00585175 -0.347795 0.311638
0.0108557 -0.287245 0.172148
-0.00488223 0.236501 0.222638
0.0410536 0.131636 0.47391
-0.00259047 -0.199438 0.361203
0.00829191 -0.364972 0.337862
-0.00821663 0.199586 0.49824
-0.079183 0.0431087 0.112178
0.00454442 -0.1317 0.171188
-0.0205692 0.384465 0.310031
-0.0091289 -0.235525 0.161243
-0.00809499 -0.255431 0.208036
0.00307559 0.366987 0.05218
0.0104763 0.232036 0.295659
0.0354885 0.165516 0.506659
-0.119168 -0.173151 0.555145
-0.0131124 -0.40611 0.0702929
-0.0973404 0.0578489 0.108895
-0.00604275 -0.311244 0.0289509
-9.62106e-06 0.00993215 0.176565
0.00579639 0.303443 0.225209
-0.016953 -0.0100726 0.132973
-0.0169869 0.0232544 0.102332
-0.0198594 0.417885 0.287202
0.0197732 -0.422807 0.290878
-0.0120793 0.299703 0.155836
-0.130332 -0.177162 0.569759
-0.0114839 0.113074 0.222899
-0.0166964 -0.268041 0.159382
-0.0172589 0.0501931 0.145879
-0.0201989 0.393251 0.283846
0.0186865 -0.283252 0.150592
-0.0299729 -0.224946 0.186236
0.00510868 -0.183599 0.241226
0.0103826 -0.190963 0.261612
0.0149205 0.291692 0.189453
-0.00462868 -0.0300902 0.434951
-0.00403865 0.443744 0.108944
0.00589279 -0.245322 0.288859
0.0323868 -0.283511 0.164231
-0.00743071 0.370778 0.335557
0.00489168 -0.263898 0.351144
0.0496403 0.152356 0.386913
-0.0514517 -0.251095 0.331601
0.00931668 -0.3185 0.159398
0.0534154 -0.162056 0.557251
0.00533429 -0.450789 0.17923
-0.0560006 -0.29498 0.160249
-0.0200178 -0.274155 0.34521
-0.0055883 -0.169744 0.554832
-0.0108873 -0.222904 0.284298
-0.00722075 0.360081 0.161429
-0.0116091 -0.291792 0.181186
-6.5089e-05 0.452404 0.17656
-0.00342426 0.294645 0.165291
-0.00439668 -0.422419 0.181617
-0.00838899 -0.419499 0.211921
-0.112014 -0.167719 0.576925
0.00253068 0.225188 0.0150151
0.00752429 -0.349977 0.169698
-0.0172606 -0.00658236 0.167496
-0.000945225 -0.227333 0.376277
-0.0166316 0.130626 0.410161
-0.0135345 -0.327231 0.306913
-0.0119494 0.422023 0.0887604
0.00226003 0.423122 0.152324
-0.0097896 0.104828 0.195377
-0.0195066 -0.160512 0.293162
0.119535 -0.165707 0.552838
0.00717588 -0.316743 0.208545
0.00454037 -0.243441 0.346974
0.00170514 0.183935 0.205157
-0.0227351 -0.186934 0.297711
0.0105072 -0.104732 0.193749
0.0314548 -0.256167 0.363775
-0.00716656 0.420815 0.116086
-0.0111864 0.149016 0.180421
-0.0248682 0.152071 0.113694
-0.00218319 -0.06283 0.229852
-0.00819597 0.24787 0.34806
0.00217636 0.140545 0.430664
-0.00831254 0.196621 0.0606692
-0.000887944 0.0794949 0.498606
-0.0102654 -0.236783 0.357381
0.00558682 -0.211025 0.0530392
0.0111904 -0.295384 0.305342
-0.0189961 0.028344 0.196225
0.00123368 0.476909 0.210135
-0.00761615 -0.295006 0.232697
-0.0205102 0.278726 0.340487
-0.00531106 -0.447154 0.202102
0.0119608 -0.40447 0.256234
0.0155875 0.230864 0.337515
-0.0109229 -0.112171 0.222593
-0.0177949 -0.335846 0.342839
0.00646733 0.322623 0.107325
0.0121103 -0.402331 0.0636325
-0.0169938 0.014346 0.122807
-0.0671174 -0.167899 0.573409
0.00308956 0.281357 0.0599629
-0.00747589 0.245148 0.11599
-0.01809 0.154937 0.283947
0.0387688 0.133718 0.406365
-0.0100167 -0.290368 0.165909
0.015488 -0.219966 0.372031
0.0200647 -0.351734 0.33357
-0.00592368 -0.398521 0.0417308
-0.02016 0.292702 0.342285
-0.0212112 0.0807045 0.216638
-0.0113343 0.423409 0.221034
-0.00979585 -0.353309 0.342606
-0.00202857 0.162224 0.177094
-0.0201878 0.277853 0.140246
0.0284487 -0.227373 0.382435
0.0152407 0.134055 0.47012
-0.0195915 0.450016 0.246364
0.00522842 0.222109 0.155122
-0.00986782 -0.191438 0.32425
0.00556763 -0.225068 0.112343
-0.00431323 0.232743 0.344681
-0.00726653 -0.353158 0.141059
-0.0171483 0.2294 0.335632
0.012028 -0.42229 0.0843561
0.0355616 0.00982938 0.159023
-0.0192338 0.386814 0.267786
-0.0198332 0.463351 0.219618
-0.0106109 -0.251409 0.161233
0.00564345 0.157094 0.139339
-0.00673576 -0.221803 0.128973
0.00498085 -0.389266 0.326911
-0.0135061 -0.42661 0.101038
0.00501964 -0.358905 0.306817
-0.00366738 -0.164393 0.193668
-0.0196953 -0.111207 0.203472
-0.0119296 0.442157 0.155242
0.00665832 0.340344 0.125957
0.0038909 0.143971 0.223386
-0.00706669 -0.218273 0.145802
-0.147107 -0.159244 0.572869
-0.0103927 -0.300452 0.318516
0.00438169 -0.336657 0.0920923
-0.0225064 -0.135527 0.236365
-0.00645474 0.352144 0.175906
-0.0044591 -0.381337 0.131998
0.0110688 -0.302383 0.180012
-0.0396684 0.142797 0.407246
-0.010978 -0.391827 0.281929
0.0529209 -0.233244 0.386183
-0.000123121 0.2659 0.351895
-0.0454648 0.225615 0.281037
-0.0617202 0.0577059 0.111127
0.0158619 0.20545 0.490576
-0.0174974 0.304148 0.177576
0.00614475 -0.156217 0.171616
-0.0112001 0.134047 0.266258
0.0063721 0.35485 0.0391396
0.00207303 0.388769 0.184248
0.0192457 0.128598 0.231753
0.00817448 -0.329225 0.149128
-0.00743572 -0.343523 0.196995
-0.0105308 -0.223198 0.4712
-0.00343426 -0.203113 0.332496
0.0928757 -0.0334278 0.215736
0.0184839 0.464874 0.197651
-0.00360572 -0.209004 0.465111
-0.0103563 0.187095 0.320151
0.0122269 -0.328789 0.306669
-0.0195003 0.354403 0.228374
0.00960354 0.105462 0.195866
0.00274347 0.180186 0.0456594
-0.0134122 -0.162311 0.0869915
-0.0169669 -0.123357 0.217282
-0.0171987 -0.0211085 0.160605
0.0128431 -0.441639 0.276226
-0.00907969 -0.206846 0.295248
0.00703006 0.406102 0.240009
-0.0119025 0.123856 0.249553
0.00973874 0.281729 0.152538
0.0089549 -0.155561 0.129579
0.0121379 -0.388789 0.27499
-0.00742855 0.112279 0.47174
-0.010596 -0.413528 0.260297
0.0032903 -0.085926 0.253146
-0.0228263 0.140944 0.209642
0.00750396 0.134264 0.16883
-0.00652568 0.241832 0.0352808
-0.00444165 -0.185433 0.161229
0.00854093 -0.235674 0.308916
0.0383445 0.181014 0.498938
0.00961603 -0.291771 0.157384
-0.00694017 -0.257087 0.102126
-0.0484131 0.293311 0.165553
0.000610698 -0.153891 0.0777216
-0.0212293 -0.390451 0.315058
-0.00592495 0.157358 0.153423
-0.0095849 -0.410185 0.23419
0.0576069 -0.25054 0.329437
-0.0121619 -0.302542 0.172669
0.0131729 0.182434 0.467905
-0.0224713 -0.430517 0.2637
0.0513974 0.226991 0.265171
-0.0475694 0.032113 0.112572
-0.0172872 -0.307811 0.141282
0.00673892 0.298104 0.105749
-0.00370467 -0.324539 0.0665402
-0.00193594 -0.354909 0.0620542
-0.0280988 -0.231305 0.382784
-0.008139 0.145389 0.100624
0.0162904 0.306102 0.169559
0.0438269 0.181904 0.350408
0.00785511 0.173078 0.0870831
0.0419313 -0.244508 0.360221
0.00667115 0.260149 0.316757
-0.0109272 0.161342 0.220878
0.0111069 0.0948497 0.475802
0.00893101 -0.159453 0.246908
0.0122508 -0.379143 0.0404977
-0.00704248 0.375857 0.296776
0.0131253 0.294929 0.143106
0.0513655 0.285733 0.159314
0.0460688 0.207468 0.163165
0.00824424 0.0182402 0.170168
-0.0200098 -0.150728 0.216335
-6.45081e-06 -0.377731 0.33386
-0.0370293 0.218161 0.158688
-0.0203859 0.285319 0.161358
-0.0416112 0.172646 0.354551
-0.0434592 -0.24564 0.359931
0.00204843 0.207062 0.298408
-0.017262 0.0177799 0.146549
-0.00719333 -0.340359 0.115013
0.00627105 0.253617 0.125068
-0.0194326 -0.277757 0.180815
0.0114475 -0.100643 0.171719
0.00300114 0.347069 0.31229
0.00679026 0.349095 0.148619
0.0168555 0.210747 0.3278
0.0105588 0.141919 0.156396
-0.0134296 -0.243677 0.0187985
0.0559775 -0.29208 0.171327
0.00749142 -0.473017 0.220302
-0.00863082 -0.449549 0.178817
-0.034542 0.0361238 0.136206
-0.0087384 -0.307622 0.219839
-0.00751213 0.108766 0.505343
-0.0189331 0.0191482 0.183766
0.00351555 0.0985069 0.504366
0.00628437 0.237328 0.170405
-0.0104804 0.177074 0.05619
-0.00679673 -0.205723 0.511805
-0.0104681 0.153515 0.19511
-0.0138987 0.0828317 0.487094
0.00223426 0.485324 0.170157
0.00535865 0.23744 0.311339
0.00880517 0.258144 0.0238789
0.0868676 -0.00913825 0.212955
0.0928765 -0.174323 0.560147
0.00188659 0.187891 0.152516
-0.0549173 -0.274672 0.213287
-0.00806762 -0.252052 0.34915
-0.020339 0.30835 0.156501
-0.00227081 -0.175557 0.136321
-0.00207666 -0.254419 0.0427712
-0.0451753 0.248078 0.227035
0.00118234 -0.206518 0.49097
-0.00664035 0.33816 0.199474
0.0576692 0.000599212 0.210452
0.00726568 -0.333383 0.348771
0.00591032 -0.119787 0.244342
-0.00431065 0.281226 0.0293721
-0.0106779 -0.388517 0.263252
-0.00767002 0.358727 0.0412443
-0.0187033 -0.31109 0.180633
0.0105143 -0.475956 0.20606
0.00856512 -0.154452 0.185602
0.0391171 -0.15741 0.565923
0.069404 -0.157474 0.566301
0.0383366 0.0764852 0.162306
0.0063357 0.355621 0.161754
-0.0148141 0.411536 0.299038
0.148822 -0.161477 0.574006
0.0067139 -0.22267 0.177775
-0.00807756 -0.35919 0.0423414
0.0182161 0.161846 0.28649
0.00682026 0.24086 0.156646
-0.0012354 -0.134386 0.292476
-0.0179501 0.00154203 0.219555
-0.00480483 -0.155866 0.247385
0.0368332 0.0443436 0.158734
-0.0107274 -0.151505 0.15512
-0.0175706 -0.0387408 0.179663
0.0197269 -0.270434 0.344878
-0.0236666 0.132534 0.503006
-0.0126962 -0.17762 0.249774
-0.0122048 0.00613071 0.160356
-0.00548793 -0.324619 0.032258
0.0172033 0.109657 0.184399
-0.0120263 0.362766 0.292406
-0.0171205 0.000301394 0.122018
0.00889424 0.354904 0.341391
-0.0199066 0.209135 0.31384
-0.00795387 -0.174374 0.0915477
-0.00163547 -0.287658 0.322761
0.0502062 -0.235966 0.371047
-0.0020606 -0.411696 0.123532
-0.00121415 -0.408576 0.314761
-0.00385021 0.31088 0.256982
-0.0323769 0.0106892 0.155181
0.0216159 -0.170877 0.295795
0.00491674 0.416762 0.109668
-0.00872809 -0.325702 0.350088
0.00694777 0.288589 0.300002
-0.0190333 -0.0213015 0.146928
-0.000775891 -0.265113 0.0340444
0.00509769 0.393663 0.0385931
0.00215906 0.222924 0.273563
-0.0125372 -0.197412 0.0525309
-0.0130858 -0.139649 0.14559
0.0226436 0.139579 0.51197
-0.0232709 0.118176 0.109899
-0.0424527 -0.221016 0.366427
-0.0063277 0.348176 0.208878
-0.00818052 0.399604 0.24829
-0.0120703 -0.240517 0.307602
0.000486019 0.316005 0.283612
-0.00517709 0.139067 0.112457
0.00177883 0.0411165 0.226991
0.0176466 0.100181 0.503816
0.01832 -0.12911 0.221997
-0.00635199 -0.433258 0.236473
-0.00939681 0.288755 0.301788
0.00331576 -0.236883 0.395465
-0.00115821 -0.234615 0.422125
0.036936 0.156539 0.163601
-0.00606418 -0.37168 0.0539345
0.0101595 0.44267 0.186294
0.00262361 0.199537 0.132335
0.0214857 -0.378262 0.320196
0.0044781 0.291298 0.0267791
0.0116777 -0.113407 0.225675
-0.00413085 0.195147 0.471129
-0.00424458 0.1669 0.306812
0.00530951 -0.356045 0.121945
0.00668044 -0.358561 0.156641
0.0202268 0.131568 0.420801
-0.0119109 0.421957 0.235777
-0.0153069 0.270541 0.147456
-0.0134495 -0.190609 0.272845
-0.0248238 -0.25123 0.171711
-0.00274546 0.0959208 0.475462
0.0109473 -0.280116 0.14047
-0.0045683 0.162695 0.130466
-0.0102591 0.182195 0.507596
0.018621 0.396461 0.309939
0.00047562 0.368404 0.261006
-0.019599 0.356009 0.329372
-0.0339903 0.169034 0.158618
-0.00226353 0.152396 0.469771
0.0274612 0.16498 0.469164
0.0220116 -0.224108 0.356544
-0.0151593 0.449526 0.263335
0.0153017 0.465758 0.227252
-0.0208332 0.273821 0.164486
-0.0379357 0.19308 0.164594
0.00693675 0.276321 0.115021
-0.0106177 0.368242 0.0264296
0.00714489 0.339737 0.03102
0.000158349 0.442437 0.280131
0.0120838 0.0680336 0.486933
0.0186631 -0.300925 0.149523
0.0101797 0.437038 0.154606
-0.00911568 0.430015 0.183084
-0.00815736 0.261904 0.195962
0.00733913 -0.242016 0.124374
0.00626223 0.374834 0.296807
-0.0283578 0.0222818 0.158282
0.011488 -0.252222 0.309925
-0.00844721 -0.25369 0.117752
0.0130068 0.395638 0.292704
0.0667754 -0.0341231 0.211715
0.0319952 -0.240518 0.385682
0.0344659 0.0977305 0.488108
0.0229699 -0.160177 0.571321
-0.00690306 0.328957 0.316501
0.00339609 0.120483 0.246657
0.0243543 0.339108 0.222159
0.0070774 -0.44962 0.14292
-0.0112661 0.274237 0.159741
-0.0182175 -0.201991 0.193391
-0.0115246 -0.379314 0.290523
-0.0184486 -0.294937 0.188168
-0.00751159 -0.226803 0.386521
0.00948979 -0.361361 0.28379
-0.0205758 -0.225074 0.183339
0.0282192 0.310667 0.186034
-0.00484987 0.179506 0.0899492
0.0217186 0.16418 0.512338
0.0186873 -0.148683 0.279103
0.00513225 0.419973 0.0662206
-0.0214923 -0.368452 0.32849
0.0107219 -0.281477 0.303869
0.0185204 0.261145 0.335174
-0.000891395 -0.389585 0.0329237
0.021317 -0.458738 0.201312
0.0119087 -0.155283 0.215142
0.0154482 -0.455766 0.251308
0.00230328 -0.190429 0.0363786
0.00505726 -0.284631 0.00136042
0.0198467 -0.173567 0.560942
-0.00229584 0.173673 0.468303
0.00587315 -0.318029 0.0874825
-0.0189662 0.00481564 0.193219
0.00762955 0.414433 0.228294
-0.0081373 -0.191792 0.0678134
0.0212259 -0.396319 0.304354
0.0187763 0.142394 0.263524
-0.0123381 0.40454 0.290052
-0.0129544 -0.218141 0.486119
-0.00778765 0.448479 0.186313
1.84158e-05 0.133244 0.191443
-0.0246738 0.173241 0.502802
-0.00196014 -0.227378 0.0476431
-0.00414315 0.305953 0.352877
-0.0172743 0.0319245 0.158883
0.0129816 0.281953 0.168812
0.0503319 0.272972 0.156978
-0.00100061 -0.245682 0.00674062
-0.00783734 0.310357 0.103545
0.00465601 -0.136925 0.12005
-0.0199087 0.327043 0.331447
-0.00862604 -0.391149 0.0663598
0.0191018 0.465724 0.183542
0.00725127 0.405023 0.0809524
-0.0119175 0.268823 0.310626
-0.0512121 -0.274098 0.234998
0.0585953 -0.243964 0.353635
-0.0168172 -0.0327461 0.143787
0.0444174 0.193935 0.331142
-0.00619402 -0.176094 0.314027
-0.00421977 -0.31311 0.0018762
-0.0090543 -0.294411 0.216748
-0.00713676 0.260997 0.114166
0.0101189 -0.405733 0.0773633
0.00821348 0.28152 0.00501251
0.00552439 0.357829 0.194414
-0.00817861 -0.2317 0.437233
-0.00796051 0.449109 0.141874
-0.0188323 0.00521102 0.147515
-0.00534585 0.0564839 0.249495
0.0323772 -0.00636043 0.198084
0.0170718 -0.336881 0.343067
-0.011491 0.159835 0.23899
0.00608104 0.20274 0.26582
0.0185532 0.306618 0.335809
-0.0262699 -0.191966 0.193765
0.0438389 0.262152 0.207069
-0.00519087 -0.483624 0.179036
0.00881345 -0.332304 0.136675
-0.00508151 0.0312851 0.428485
0.0146069 0.439857 0.275621
0.00344291 0.319718 0.319463
-0.00189498 0.30743 0.32199
-0.00930896 0.338803 0.293611
0.045364 0.280585 0.187278
0.00730643 -0.371129 0.0490835
0.00648917 0.145838 0.515348
-0.0224985 -0.461812 0.19707
-0.000160345 -0.168874 0.205046
-0.00635151 0.164285 0.0651678
0.00848317 -0.294133 0.352783
-0.00879939 0.464092 0.242114
0.021217 -0.247047 0.331984
-0.00558279 0.362264 0.109966
-0.00662709 0.0993577 0.172739
-0.00690312 0.300317 0.0253829
-0.0185422 0.304796 0.345682
-0.0423158 0.273565 0.199943
-0.0106766 0.294898 0.180821
-0.0328121 0.146386 0.158207
-0.00158401 -0.385718 0.251749
0.0042718 -0.282806 0.0685039
-0.00798694 -0.290105 0.024767
-0.00684673 -0.2267 0.114052
-0.125184 -0.154359 0.568654
0.00635989 0.189733 0.0689676
0.0205488 -0.139061 0.258628
0.0184163 0.330316 0.339352
-0.0133332 -0.339759 0.305488
-0.0200429 0.163038 0.275333
-0.0106983 -0.469954 0.226784
-0.0231879 -0.245957 0.32927
0.00186755 -0.165666 0.261869
0.00468584 -0.425466 0.155612
0.00480688 0.425381 0.298341
0.014589 -0.235998 0.357352
0.00160853 -0.377748 0.0249325
-0.0362872 -0.235489 0.357365
0.00790371 -0.435536 0.227693
0.016427 -0.304596 0.348659
-9.73791e-06 0.354168 0.052683
0.0208154 -0.22354 0.331224
0.00837675 0.159937 0.111569
-0.0998451 -0.167725 0.575512
-0.00440088 -0.20026 0.12067
-0.00173464 0.234048 0.278359
0.00374259 -0.300964 0.0688449
0.00147399 0.4147 0.161474
-0.0174368 0.0501176 0.106221
-0.0170431 0.0540062 0.201975
-0.00950911 -0.276633 0.352437
-7.16448e-05 0.418316 0.191788
-0.0178709 -0.233017 0.338599
0.00118004 0.338142 0.00704627
0.00973663 -0.216065 0.0424616
-0.0397042 0.118298 0.160728
-0.157829 -0.166762 0.569281
0.00296035 -0.186642 0.0817994
0.00223418 0.287776 0.259382
0.000186351 0.347389 0.34598
-0.0124751 -0.213562 0.455871
0.000897091 0.293054 0.322683
-0.0169751 -0.0365573 0.166281
-0.00814638 -0.138076 0.202409
-0.00977957 0.404793 0.269758
0.0465591 -0.248137 0.33298
-0.0203305 0.300005 0.136327
-0.011305 0.409912 0.0632141
0.0144361 0.387834 0.321237
0.000540669 0.145501 0.419503
0.0184105 -0.307772 0.174139
-0.00533418 -0.0590944 0.435639
0.0106137 0.141292 0.407105
-0.00728658 -0.358506 0.0164501
-0.000354112 -0.164964 0.573499
0.0107003 0.31008 0.309261
0.0948297 -0.17277 0.572156
0.00301178 -0.0680514 0.438564
-0.0326512 0.154693 0.488309
-0.00493344 0.452171 0.156063
-0.00468594 0.261424 0.0727765
-0.04052 -0.163782 0.556624
0.00868511 0.320875 0.16761
-0.00820708 0.187256 0.070615
0.0178342 0.242466 0.338343
-0.00733267 0.342901 0.186075
0.00489938 0.288415 0.231644
0.0528418 -0.26056 0.26977
0.0526103 -0.274044 0.252772
0.0140245 0.471626 0.210186
-0.00531059 0.0666122 0.272393
0.0154259 0.165871 0.297636
0.00229027 -0.334098 0.0371004
-0.0604089 -0.25101 0.339844
0.142301 -0.176813 0.560553
-0.00629107 0.359155 0.130172
-0.0253027 0.186073 0.476189
0.000397188 0.116108 0.414979
-0.0200266 -0.294036 0.152328
-0.0285524 -0.287337 0.159946
0.00369269 0.073046 0.423994
-0.00958404 -0.244611 0.370511
0.00213762 -0.216737 0.443578
0.0534865 0.135087 0.407675
0.00926651 -0.319918 0.134869
-0.000706306 0.358108 0.273525
0.0485618 -0.271934 0.229978
0.0102808 0.423576 0.0994897
-0.0849554 -0.158902 0.559872
0.00872307 -0.199371 0.289132
0.00715191 0.129853 0.411562
0.0138541 0.221191 0.334867
0.0096574 0.15241 0.0948881
0.0520666 -0.222713 0.370759
-0.018819 0.169974 0.29915
-0.0302395 0.176286 0.492452
-0.00909032 -0.240492 0.138697
-0.00155702 0.130474 0.161853
-0.00195365 0.31095 0.00124541
0.0103906 -0.389667 0.0583894
-0.0581355 0.0698973 0.111992
-0.00197541 0.13629 0.273656
-0.00763055 0.342533 0.124475
-0.00587209 0.260778 0.318384
0.0107288 0.101305 0.171352
-0.0359593 -0.253131 0.362226
0.0088436 0.308432 0.133126
-0.0273804 0.150225 0.472922
-0.0199152 0.181713 0.296937
0.0188707 -0.202677 0.3226
4.4078e-05 0.118489 0.367155
-0.00932727 -0.129447 0.262379
-0.0387626 0.0817093 0.160402
0.064138 -0.237739 0.379775
-0.0027276 0.210037 0.335855
0.00593195 -0.176998 0.0892086
0.0470854 -0.281342 0.211758
0.0047144 0.479102 0.199074
-0.000910912 -0.442637 0.280924
0.0185298 0.276751 0.335264
-0.00126817 0.164233 0.479882
0.00399181 -0.333218 0.23866
-0.00740164 0.143828 0.219609
0.0122948 0.0837153 0.479845
-0.0200261 -0.301061 0.163393
0.00670085 0.22771 0.283836
0.0307807 -0.0157609 0.208333
0.0283424 0.0486298 0.158231
0.0114256 -0.139872 0.18541
-0.0234328 -0.234044 0.356879
-0.0121848 -0.368811 0.0272793
-0.00899344 0.329777 0.133775
0.0186197 0.1984 0.306211
-0.0732262 -0.164605 0.556377
-0.00821878 -0.396347 0.250059
-0.00956159 0.141114 0.20482
-0.00782681 0.482757 0.179629
-0.00370621 -0.189172 0.186274
0.0141024 -0.163834 0.206588
-0.0190028 -0.00135945 0.207829
-0.00417368 -0.223104 0.358183
-0.005082 -0.37539 0.111721
0.00403538 0.182059 0.278402
0.0119119 0.108637 0.206814
-0.0155791 -0.103507 0.181476
0.00533672 -0.248506 0.219187
0.0056538 0.334913 0.217374
0.017188 0.178698 0.305392
-0.00634883 -0.205652 0.0582274
0.0105053 0.383445 0.282535
-0.00215714 -0.163638 0.132803
0.00058193 0.382498 0.028071
0.00518237 -0.425662 0.175269
-0.017006 -0.298013 0.348734
-0.00991825 0.278583 0.317249
-0.0171159 0.0283505 0.135621
0.0121952 -0.179365 0.261227
-0.0209248 0.300403 0.184046
0.0134748 0.479521 0.180633
-0.0203886 0.467395 0.196098
-0.0127046 0.202217 0.48697
0.0420837 0.146442 0.414482
0.0298891 0.130902 0.470448
0.0024143 0.131258 0.150865
0.0178586 0.328215 0.205365
-0.00515708 0.0477066 0.424147
-0.00404212 -0.239719 0.0690624
-0.011969 0.175573 0.256272
0.00459065 0.394042 0.2493
-0.00728005 -0.212182 0.271359
-0.040177 0.22773 0.16456
