-0.0180767 0.0345601 0.352919
0.0305775 0.171146 0.223497
-0.00371631 0.0772475 0.324954
-0.0218538 -0.317064 0.140442
0.00367946 0.218311 0.474325
0.0877851 -0.222861 0.545342
0.127584 -0.217388 0.54734
-0.0644894 0.0727552 0.158569
-0.00516566 0.314877 0.00498466
-0.00259163 0.298389 0.302381
-0.000276486 0.451362 0.114981
-0.00276068 0.035395 0.22369
-0.00259163 0.363849 0.041877
-0.00658559 0.0851804 0.319001
-0.0251153 0.134795 0.175024
-0.000116459 -0.403103 0.29999
-0.00270153 -0.208939 0.0659603
-0.0122226 -0.373893 0.0359432
0.000391391 0.301305 0.316328
-0.0452763 0.0605929 0.13131
0.0342783 -0.30729 0.161561
-0.000158063 -0.254278 0.0120893
-0.0131294 -0.458795 0.156023
0.0335077 0.314858 0.168204
-0.0174459 -0.182267 0.0773425
-0.00803876 0.357906 0.305033
-0.0155512 -0.421906 0.252691
-0.0180568 -0.464573 0.187264
-0.00821013 0.205262 0.080256
0.0202495 0.248012 0.164554
-0.0100384 -0.305719 0.295103
0.0268429 0.27369 0.151741
-0.00851996 -0.361888 0.0282334
-0.00307796 0.156489 0.339562
-0.00131593 -0.161597 0.507426
0.0114914 0.16601 0.177275
-0.0126122 -0.00888456 0.393217
-0.0138752 -0.181261 0.103956
-0.0138518 0.316449 0.315784
-0.0180568 -0.306388 0.318182
-0.0016984 -0.450746 0.167072
-0.00644828 -0.422494 0.252242
-0.0165623 -0.117941 0.311556
-0.0142008 0.321427 0.00944643
-0.0137993 0.432988 0.274816
-0.00586509 -0.0134224 0.258296
0.00220756 -0.333917 0.0162806
-0.00446902 -0.442834 0.188971
-0.0151511 0.290293 0.020938
-0.00845562 0.163535 0.1045
-0.0304401 -0.219728 0.551524
0.00463713 0.234807 0.442092
-0.0114575 0.431937 0.222964
-0.00257869 -0.262612 0.229759
0.02046 0.26165 0.159493
-0.0280359 0.109387 0.197612
-0.00165087 -0.27 0.0976803
-0.0126447 0.405356 0.0545324
0.00306297 -0.288027 0.195551
-0.0107058 -0.316836 0.000135417
-0.0105623 0.190107 0.214907
-0.0165628 -0.374829 0.1863
-0.00810629 0.238852 0.254891
0.0368433 -0.304313 0.18843
0.0197608 0.0633345 0.177696
-0.00540755 0.175252 0.148014
-0.0100076 -0.176205 0.14749
-0.00653568 -0.237674 0.260729
-0.0437056 0.140953 0.124615
0.00172342 0.254383 0.469447
-0.0439432 0.070468 0.120727
-0.00284205 0.0900348 0.202097
0.0245239 0.271707 0.242941
-0.0432821 0.102322 0.18619
-0.0221712 -0.307854 0.138194
0.00372827 -0.460363 0.119937
-0.007888 -0.426069 0.210285
-0.0158742 -0.252334 0.145407
-0.000552542 0.0659044 0.197181
-0.0127806 -0.427688 0.0971456
0.0269593 0.313884 0.164986
-0.00866843 0.443908 0.190264
-0.0525812 0.0330871 0.184051
0.00525119 0.303376 0.182876
-0.0306958 0.175971 0.170809
-0.00530713 -0.298244 0.326603
-0.0104344 -0.0503919 0.416945
-0.0016984 -0.405605 0.0598426
-0.000960826 -0.041049 0.270156
-0.0183896 -0.296862 0.113887
-0.00132802 0.180204 0.225904
-0.00806947 0.0682363 0.199831
-0.0257401 -0.315197 0.137329
-0.0483885 0.0769116 0.227598
-0.0136739 0.41943 0.0888401
-0.0180568 -0.199322 0.263319
-0.0155512 -0.437832 0.207163
-0.0179801 -0.316376 0.313401
-0.0144088 -0.33113 0.304757
-0.0283908 0.227859 0.443293
-0.138066 -0.222327 0.561229
-0.118679 -0.229268 0.557934
-0.0127282 0.413097 0.29552
-0.00151574 0.218284 0.0590224
-0.043066 -0.28431 0.235922
-0.018145 -0.0167174 0.250916
-0.0026489 0.280099 0.0283874
-0.0291007 0.198724 0.472456
-0.00398131 -0.390747 0.307801
-0.00973328 0.075506 0.175404
0.0739969 -0.232139 0.552429
-5.42485e-05 -0.137377 0.458075
0.00292648 0.291206 0.182865
-0.0155512 -0.204924 0.0800233
0.00383207 0.30429 0.164063
-0.0164969 -0.372476 0.185164
-0.10744 0.0403735 0.115894
-0.0379297 0.299578 0.115191
-0.0108592 0.174207 0.16948
-0.00253134 0.424601 0.260755
-0.00574602 0.357502 0.0433001
-0.0290376 0.234696 0.323422
0.016622 0.240404 0.294236
-0.0345065 0.257967 0.450011
0.000345164 -0.21247 0.384976
0.00174965 0.388303 0.302432
-0.041338 0.154334 0.123575
-0.0143127 0.137207 0.289432
0.000463641 0.20659 0.475737
-0.0427487 0.124997 0.18798
0.0408762 0.190667 0.231066
-0.00457349 0.131728 0.479723
-0.0427076 0.12008 0.178283
-0.0143728 0.435434 0.254244
0.00820436 0.20934 0.453296
-0.00989209 0.296996 0.0371075
-0.013698 0.0161978 0.358038
-0.013043 0.247137 0.0220626
-0.0155512 -0.30869 0.0325084
-0.0164164 0.32395 0.156545
0.00120901 -0.358184 0.304
0.0573056 0.168288 0.22549
-0.0089302 0.453327 0.169807
-0.0442174 0.114103 0.197787
-0.0776983 0.0210395 0.116516
0.00174965 0.203947 0.273417
-0.0874504 0.0239377 0.112956
0.00347177 0.333198 0.155904
-0.0155512 -0.225044 0.265884
-0.00640296 -0.404528 0.0556695
-0.0119248 0.189403 0.131488
-0.00777489 0.227785 0.443333
-0.0117782 0.169702 0.178686
-0.0180568 -0.353661 0.31095
-0.0503196 0.0944665 0.124252
-0.00917266 -0.234049 0.267543
-0.0156784 0.461716 0.118518
-0.00387077 -0.282939 0.00307936
-0.00736073 0.430893 0.135285
-0.00835103 -0.204416 0.0712566
-0.0113772 0.353209 0.24975
-0.000883743 0.452607 0.0845758
-0.00975679 -0.454333 0.149231
-0.0136739 0.446878 0.13375
0.0920764 -0.215829 0.54924
-0.00498606 -0.369951 0.292366
-0.0119629 0.473243 0.199794
0.0146525 0.229584 0.442354
-0.00259163 0.228891 0.0610847
-0.0134059 -0.213657 0.290701
0.0145429 0.167156 0.170915
0.000766299 -0.305204 0.0900196
-0.0126837 -0.4447 0.185245
-0.015324 -0.16971 0.50859
-0.00135496 0.386315 0.165153
0.000522436 -0.0169788 0.385668
-0.00560941 0.22936 0.228552
-0.00218398 -0.302367 0.0666673
-0.000206864 0.176775 0.115267
0.000567126 0.0877937 0.208758
-0.0112463 -0.205584 0.429017
-0.0191182 0.335261 0.146936
-0.0156784 0.230608 0.299053
-0.000619985 -0.119033 0.317082
0.00514738 0.308127 0.145678
-0.00603385 -0.368225 0.317586
-0.00744174 -0.173698 0.0801643
0.0282399 0.261271 0.154624
0.00358849 0.158903 0.173919
-0.0440233 0.152496 0.121175
0.0073444 -0.314911 0.185442
-0.0138978 -0.312509 0.30531
-0.0222087 0.181741 0.477537
-0.0539 0.311995 0.167259
0.0763157 0.183885 0.223741
-0.00374568 0.391609 0.2048
-0.0125282 0.460691 0.23684
0.0320366 0.312809 0.161315
0.0758039 0.19417 0.229549
-0.0156784 0.470245 0.168113
-0.0101385 0.00953019 0.244059
0.0351422 0.096668 0.186097
-0.00462473 -0.203732 0.364791
-0.00912571 -0.367136 0.0338647
-0.0462031 0.270505 0.171369
-0.000695436 0.185406 0.393803
-0.0410485 0.0933938 0.155939
-0.0180568 -0.468325 0.146021
-0.0146865 0.284321 0.314026
-0.000266066 -0.381463 0.312387
-0.0144966 0.113662 0.263515
-0.00446902 -0.31437 0.303977
-0.00805679 -0.371854 0.274482
-0.00218811 0.151179 0.184996
-0.0136739 0.196119 0.111588
0.000117 -0.207419 0.0637585
-0.0457429 0.0601772 0.192605
-0.0122679 -0.430375 0.0786752
-0.00123952 0.171817 0.1358
0.0267935 0.289531 0.215848
-0.0119538 0.197719 0.439776
0.00166857 0.165052 0.119694
-0.0359518 0.239596 0.169152
-0.0016984 -0.194628 0.108938
0.0562129 0.171238 0.223796
0.0641142 0.202514 0.2288
-0.0016984 -0.238236 0.273195
-0.00892168 0.12148 0.246258
-0.0127806 -0.197639 0.0851106
-0.010719 0.350669 0.00882883
0.000577394 -0.209031 0.396996
-0.00445432 -0.243113 0.311136
-0.00714126 -0.182733 0.154082
0.00372827 -0.291655 0.318014
-0.0067122 -0.368999 0.317313
-0.122046 0.0394986 0.109776
-0.00293314 -0.160232 0.501131
0.00174965 0.191489 0.0736971
-0.0315662 0.251073 0.116048
-0.00915482 0.203656 0.0479482
0.0487528 0.203152 0.233035
-0.0213347 -0.329026 0.140504
-0.0412553 0.276744 0.117555
-0.0482688 0.0562916 0.151498
-0.00778113 -0.214475 0.408409
0.065633 -0.232191 0.55727
-0.00259163 0.176061 0.199467
0.00372827 -0.463287 0.145382
-0.0487567 0.307214 0.166652
-0.0136578 0.237478 0.471722
-0.0764207 -0.226202 0.546317
-0.0146901 -0.2426 0.285743
-0.0107109 -0.221035 0.0690519
0.00633476 -0.301005 0.156784
0.0259931 0.0987996 0.180472
-0.0119995 0.124891 0.296918
-0.0132986 -0.323755 0.0764507
-0.0127806 -0.454193 0.185886
-0.0116171 0.268214 0.0993266
-0.0155512 -0.43617 0.106516
-0.0156784 0.260654 0.0234117
-0.0136739 0.311389 0.0360275
-0.0236433 -0.221245 0.548677
-0.0169448 0.0261959 0.227723
-0.0104762 0.0835119 0.195494
-0.00276299 -0.186677 0.0974899
-0.00731105 0.106297 0.209739
-0.048978 0.0646725 0.133566
-0.0466352 -0.320623 0.152321
-0.00865676 -0.449526 0.198299
-0.0530931 0.127328 0.221072
-0.00569733 0.163614 0.351378
-0.00923843 -0.442707 0.119478
-0.102792 -0.222023 0.544139
-0.0131898 0.199506 0.228627
-0.00376951 -0.188212 0.229332
-0.0100271 0.268029 0.0442593
0.00824846 -0.319674 0.164549
-0.0180568 -0.462221 0.120164
-0.0391959 0.325038 0.176295
-0.0406032 0.319104 0.131678
0.00227305 -0.246065 0.0315266
-0.0168993 -0.192849 0.441904
-0.0124104 -0.0115226 0.2572
-0.0045133 0.45441 0.151147
-0.00401963 -0.313744 0.255197
-0.00669654 -0.193617 0.129125
-0.0517289 0.0445733 0.151385
-0.0155785 0.273496 0.142551
0.00764351 0.112373 0.192078
-0.00318345 -0.362833 0.283245
-0.00190495 0.103494 0.2154
-0.00765744 -0.256009 0.316065
-0.0215208 0.151557 0.176966
0.00372827 -0.436258 0.25953
-0.0250433 0.142912 0.173992
-0.00879982 -0.431923 0.238439
-0.0378331 0.110276 0.175904
-0.0014803 0.245143 0.0401873
-0.00428301 0.200886 0.453793
-0.00150217 0.192927 0.386662
-0.0158019 -0.232906 0.361049
-0.00111752 0.201108 0.260676
-0.00847021 0.192358 0.23638
-0.00196766 0.453105 0.254504
-0.0131684 0.173793 0.125896
-0.0128284 0.335732 0.0409159
0.00321505 0.151346 0.177761
-0.0470501 0.140318 0.121894
-0.000314054 0.377895 0.316037
0.0173077 0.23766 0.471553
0.0222324 0.256187 0.163668
0.0878287 -0.230256 0.560509
-0.00311073 0.455983 0.169971
-0.0118711 -0.357426 0.00534839
0.00429401 0.103521 0.183084
-0.00652306 0.243816 0.470829
-0.0180568 -0.390074 0.293643
-0.0841898 0.0171103 0.110362
-0.0164164 0.306471 0.167057
0.0306994 -0.301714 0.189248
-0.0211773 0.258579 0.45637
0.00513534 0.145248 0.180701
-0.0205136 0.162871 0.476688
0.0263803 0.0924518 0.168211
-0.0112673 0.349715 0.303192
-0.0180568 -0.44112 0.083016
-0.00679991 -0.180829 0.216273
0.0419527 0.210251 0.228013
-0.00344923 -0.416951 0.0639182
-0.0323189 0.28311 0.123347
-0.0892534 0.0402608 0.114724
-0.00259163 0.428523 0.100364
-0.00986544 0.231209 0.280949
0.0307282 -0.276316 0.271957
-0.0128078 -0.185827 0.177703
-0.0292625 0.222983 0.345119
-0.00446902 -0.350611 0.0261308
-0.0473752 0.065834 0.131711
0.00555482 0.160025 0.177468
-0.00392281 0.437387 0.238717
-0.017566 0.0637826 0.194341
-0.0126502 -0.424677 0.0710945
-0.0114574 0.424217 0.0815229
-0.0371411 0.230389 0.454118
-0.0329816 -0.224267 0.336648
-0.00700988 -0.208262 0.103456
0.0285616 -0.25949 0.320092
-0.0155512 -0.410196 0.251621
-0.00950539 0.449177 0.119994
-0.0156784 0.225929 0.0437402
-0.0127474 0.222608 0.0762747
0.0364729 -0.275127 0.268364
-0.0142952 -0.224697 0.376613
-0.045536 0.292501 0.214721
-0.00234855 -0.15455 0.557128
0.0177236 0.221411 0.449699
-0.00711187 0.11757 0.27743
-0.0457429 0.1134 0.169087
0.0756305 -0.23494 0.545684
-0.0091253 0.0936431 0.219731
0.00345282 -0.284832 0.120426
-0.0455782 0.200893 0.203601
-0.009622 -0.195982 0.550796
-0.0476507 0.105893 0.227314
-0.0494121 -0.277426 0.245908
-0.0164005 -0.151469 0.453509
0.00113605 0.452379 0.244672
0.0160264 0.221009 0.168758
-0.0391569 0.274649 0.117592
-0.0172478 -0.111655 0.446455
-0.0180141 -0.209191 0.376336
-0.00596025 -0.472894 0.203478
-0.0150404 -0.292232 0.097544
-0.0180568 -0.390311 0.0331566
-0.000904283 0.394701 0.027969
-0.0381196 0.241478 0.451274
0.00648607 0.0625284 0.188676
-0.0155512 -0.422289 0.24628
-0.0233013 -0.322623 0.161358
-0.00150146 0.0994784 0.215873
0.0106428 0.310794 0.165605
-0.0164773 -0.238953 0.0356852
-0.00879799 -0.249637 0.0394247
-0.00480822 0.360268 0.290605
0.0207045 0.238977 0.445124
0.00372827 -0.163778 0.182299
0.000816786 0.159929 0.130046
-0.0016374 0.16431 0.376361
-0.0309997 0.235734 0.117881
-0.0135822 -0.185833 0.352707
-0.0261958 0.104623 0.162147
-0.0163571 -0.449909 0.0811479
-0.0189143 0.101213 0.323919
0.00295732 -0.310725 0.312567
0.00284659 -0.459282 0.198385
0.0389745 0.189573 0.223746
0.00650324 -0.303292 0.145284
-0.0457429 0.0575653 0.178594
-0.00596745 0.126018 0.259232
0.0553921 0.176556 0.23413
-0.00208059 0.240676 0.0220775
-0.013513 0.449797 0.207312
1.28115e-05 -0.384885 0.291001
0.0130328 0.216364 0.474322
-0.00188772 0.477447 0.157939
-0.00365412 0.116028 0.239123
-0.041087 0.0964731 0.200151
0.00862917 -0.322741 0.138626
0.0189997 0.25205 0.158475
-0.00259497 0.305808 0.312295
-0.0284698 -0.223659 0.550777
0.0301096 0.14074 0.20586
-0.00321755 -0.218671 0.0564137
-0.00361434 -0.219044 0.296957
0.00412998 0.17628 0.407634
-0.0408517 0.0531636 0.141681
-0.0016984 -0.435922 0.101867
0.000331015 0.472891 0.149774
-0.0101907 0.164242 0.479378
-0.0146799 0.162541 0.458205
-0.00973972 -0.238487 0.0415778
-0.0728695 -0.213045 0.557003
-0.0438467 0.111977 0.194722
-0.0103451 0.174897 0.185578
-0.0191263 0.342006 0.171346
-0.00480822 0.270095 0.301458
-0.0180551 -0.130623 0.326299
-0.0196143 0.320541 0.159776
0.0413232 -0.315151 0.157914
-0.0487941 0.129779 0.122501
-0.0161917 -0.439462 0.0656959
-0.00796661 0.17743 0.478227
-0.0136739 0.180016 0.123794
-0.00205691 -0.0609819 0.274175
-0.0205365 0.311339 0.16601
-0.0448225 0.0526785 0.175525
0.00293699 -0.221615 0.360735
0.00372827 -0.283259 0.0121812
0.000237717 0.462126 0.172516
-0.0162996 -0.204951 0.36813
-0.0136314 0.251305 0.281701
-0.0210542 0.163759 0.470255
-0.0117179 0.378707 0.0388011
-0.0436052 0.061058 0.133218
0.00139227 0.464492 0.120957
-0.0180568 -0.462517 0.11567
-0.014531 -0.0417448 0.390707
-0.0306341 0.266402 0.104646
-0.0155512 -0.43434 0.0902385
-0.0119841 -0.163226 0.356971
-0.0434016 0.0525314 0.17438
-0.0115628 -0.324796 0.306901
0.0235883 -0.243121 0.317473
-0.00898946 0.0643998 0.330128
0.0261512 -0.249334 0.340524
-0.0178834 -0.283731 0.00949452
-0.00259163 0.332101 0.306204
0.0742306 0.203289 0.23469
0.0718351 -0.250246 0.54805
-0.0113604 0.236146 0.284766
-0.015435 -0.0593773 0.419457
-0.00259163 0.347085 0.298339
0.0339473 0.192485 0.232855
0.0142024 -0.223334 0.553792
-0.0124101 0.182096 0.23036
-0.0016984 -0.192292 0.23228
-0.00385058 0.253538 0.282029
0.0311778 -0.31021 0.160747
-0.0178489 -0.0326014 0.40131
0.0210464 0.236575 0.455882
-0.00877086 -0.200153 0.218343
-0.00035923 -0.248727 0.312982
-0.00684544 0.150297 0.317728
-0.0236815 0.174735 0.463486
-0.00176638 0.0858216 0.186458
-0.0136739 0.177785 0.128629
-0.0714921 -0.215735 0.561879
-0.0179442 0.306346 0.172993
-0.00566622 -0.294944 0.301294
-0.00358173 0.028107 0.371229
-0.111124 -0.225163 0.544469
-0.00958297 0.176226 0.0805115
0.000234548 0.420304 0.0648614
-0.0099074 0.063142 0.19089
-0.00781795 -0.311399 0.0227904
-0.0447965 0.256308 0.172583
-0.00656563 0.220402 0.0631142
0.0288702 -0.275078 0.262459
0.024105 0.10696 0.194406
0.00052696 -0.408535 0.275418
-0.0118133 -0.441676 0.105379
-0.00272698 0.183725 0.107118
0.026743 -0.25871 0.319007
-0.0190468 0.04966 0.351687
-0.0226035 -0.325709 0.174858
-0.0153946 0.417462 0.0498758
-0.000877419 0.379762 0.163743
0.0439424 -0.215555 0.552521
-0.00864168 0.206401 0.453806
0.0372569 0.171587 0.231267
-0.0414695 0.0883442 0.1687
-0.0155512 -0.304315 0.0322801
-0.00734615 -0.0350489 0.252723
-0.0225079 0.292241 0.130209
-0.0408517 0.0670352 0.163066
-0.00468875 -0.249272 0.0131734
-0.0180568 -0.305774 0.0125442
-0.015187 -0.21725 0.0593581
0.00174965 0.183976 0.0825246
-0.00192563 -0.18894 0.0586176
-0.0107584 0.287354 0.0380661
0.000536518 -0.218917 0.371863
-0.0490083 0.0751411 0.131172
-0.0152929 -0.208249 0.257742
-0.0147984 0.167919 0.36557
0.00271048 -0.467607 0.204098
0.00207988 -0.33844 0.00600976
-0.00825837 0.443623 0.105591
-0.0488322 0.0345413 0.183931
-0.00274583 0.168339 0.479001
-0.00480822 0.278786 0.304539
-0.0304602 0.223151 0.118796
-0.0165524 -0.198692 0.431801
-0.0123862 -0.444257 0.140695
-0.0478499 0.121871 0.224671
-0.0113942 0.0283964 0.231436
-0.0105126 -0.193649 0.215674
-0.00802907 0.437037 0.10242
-0.0110953 -0.158266 0.556993
-0.00323653 0.201793 0.0793187
-0.0136165 -0.277543 0.242661
-0.0412493 0.265082 0.189567
-0.0152593 0.359885 0.125133
0.00372827 -0.160304 0.177326
0.0303949 -0.320356 0.15742
-0.0127806 -0.439762 0.0995374
0.0233806 -0.23662 0.349542
-0.0016984 -0.402421 0.0520758
-0.00169806 0.314514 0.00498783
-0.0144169 -0.174393 0.083793
0.00223789 0.166561 0.458123
-0.0436187 0.0954455 0.234699
-0.00298518 -0.226984 0.275182
-0.00696086 0.203461 0.454241
-0.00780211 0.423702 0.0947439
-0.0406947 0.261766 0.278505
0.00372827 -0.174462 0.218386
0.116819 -0.245735 0.546979
0.0276276 0.0904358 0.180399
-0.0176951 0.0262139 0.219646
-0.0324507 0.24517 0.306902
-0.0141331 0.271207 0.321683
-0.0135181 -0.42104 0.261557
-0.0155512 -0.411904 0.251076
-0.0104648 -0.364947 0.0293771
-0.0114575 0.357128 0.302539
-0.011056 0.448612 0.218883
-0.0156784 0.436259 0.0701633
0.000940937 -0.470332 0.204416
0.00222071 -0.298616 0.311399
-0.00821786 -0.22139 0.0686982
-0.0143968 -0.455277 0.202836
0.0562133 -0.215884 0.554547
0.096514 -0.214598 0.55203
-0.0177165 -0.000532001 0.243195
-0.0651097 0.0307356 0.122912
-0.00811858 0.254892 0.0161293
-0.0156784 0.441107 0.259306
-0.112392 0.00653465 0.120509
-0.00564239 0.441604 0.131945
-0.0387416 0.290703 0.116046
-0.00329621 -0.212047 0.0634917
-0.00420772 -0.334667 0.291892
-0.00848255 -0.270624 0.321484
-0.0111863 0.174501 0.13216
0.033007 -0.320546 0.152741
-0.00259388 0.183861 0.169227
0.00390617 0.214918 0.351035
-0.0236516 0.174824 0.465746
-0.0360121 0.107381 0.197226
-0.0155512 -0.183803 0.148275
0.000759699 -0.169076 0.14166
-0.0472927 0.0459583 0.18469
-0.00480822 0.425939 0.235264
-0.0167708 -0.227952 0.354231
-0.00572506 0.252458 0.298103
-0.0214792 -0.33995 0.161344
-0.00557521 0.384658 0.259379
-0.0529252 0.0879039 0.123733
-0.013224 0.419642 0.0937185
-0.0077543 -0.150935 0.155304
-0.0149122 0.435814 0.0813743
-0.00722654 -0.443225 0.0631907
-0.125968 0.0345895 0.113707
-0.0351948 0.318238 0.125386
-8.53932e-05 -0.239997 0.288852
-0.00210308 -0.210317 0.0374127
0.0371097 -0.309565 0.177104
-0.00438158 0.173028 0.250473
0.00174965 0.468022 0.158109
-0.010163 0.453302 0.254155
-0.00511682 -0.0903643 0.417171
-0.0156784 0.169657 0.120161
-0.0185481 0.131362 0.177855
-0.000498974 0.027274 0.222177
-0.0426178 0.150605 0.121741
-0.0374598 -0.316168 0.158417
-0.000327846 -0.214623 0.358563
-0.0268578 0.206136 0.359564
0.0263803 0.0780786 0.189672
-0.052894 0.0935962 0.148342
-0.0118024 0.101433 0.309869
-0.0016984 -0.375448 0.0363285
-0.00512896 -0.334337 0.0247428
-0.0155512 -0.408905 0.0628739
-0.0193096 -0.0747821 0.41887
-0.0122293 -0.214399 0.364592
-0.029115 0.190107 0.177695
-0.0075733 0.442722 0.115494
-0.00832042 -0.454051 0.164259
0.00372827 -0.406016 0.0434874
-0.00385778 0.0390615 0.222383
-0.0363216 0.237523 0.315741
-0.0026024 -0.32263 0.0209322
-0.0452831 0.141118 0.155168
-0.000322918 -0.19241 0.271863
-0.0123402 -0.036244 0.273458
-0.0525388 0.0532014 0.216275
-0.0898105 0.018804 0.119319
-0.0278526 0.163197 0.172039
-0.0120951 -0.163706 0.490139
0.0163881 0.234381 0.44203
-0.0016984 -0.176197 0.149961
-0.0186333 -0.324815 0.204083
-0.0129945 -0.154058 0.350513
-0.00529635 0.084628 0.340951
0.0136105 0.215105 0.162804
0.00359923 -0.225016 0.353486
-0.00890728 0.252789 0.0762074
-0.0490461 0.31193 0.185742
-0.0136739 0.312842 0.305357
-0.00502874 -0.394862 0.0862778
-0.00754467 0.207955 0.475605
0.00402354 0.234615 0.472135
-0.00659592 -0.454004 0.165677
-0.0157959 -0.0139467 0.256147
-0.0016984 -0.322754 0.300226
-0.0325434 0.318492 0.157306
-0.00997398 -0.315468 0.306819
-0.00716806 0.234102 0.472204
-0.00259163 0.446431 0.174084
-0.00143646 0.419223 0.292767
-0.0176887 -0.165813 0.21504
-0.00431139 -0.385951 0.0929593
0.00128501 -0.432653 0.271814
-0.0169286 -0.396552 0.0286093
0.0158091 0.219527 0.160634
0.0262607 0.296462 0.189636
0.0352368 -0.31471 0.151206
-0.0158296 -0.251355 0.297458
-0.0408517 0.0680381 0.21718
-0.013604 0.307686 0.0212543
0.0191507 0.241664 0.443877
-0.00125052 0.476557 0.154581
-0.0156784 0.28932 0.319675
0.00174965 0.351197 0.320701
-0.00596724 0.195583 0.0972735
-0.0112676 -0.311879 0.326765
-0.0122789 0.398632 0.282527
-0.0016984 -0.423189 0.0778972
-0.0100953 0.186045 0.134647
0.0199702 0.252112 0.445644
-0.0172492 -0.0784972 0.414068
0.00584674 0.170243 0.462363
-0.0422973 0.0747211 0.200286
-0.0480252 0.0631113 0.145594
-0.0132022 -0.187512 0.0936064
0.0362153 -0.214672 0.553387
-0.0289832 0.0648698 0.194923
0.0067687 -0.30005 0.169317
-0.0180899 -0.0506105 0.27275
-0.0129298 0.137721 0.288098
-0.0136679 0.45486 0.212136
-0.0766486 0.0144446 0.110794
0.0551999 0.173167 0.237591
-0.00238042 0.189318 0.0630462
0.0377692 -0.29196 0.205791
-0.0134702 0.17866 0.0832372
-0.125201 -0.00138567 0.115314
-0.00394224 -0.162133 0.538667
-0.0120335 -0.288385 0.0224224
-0.0180568 -0.376178 0.306971
0.0332379 -0.261908 0.310342
0.0358623 -0.254148 0.306327
-0.0457429 0.0992465 0.154476
0.000314777 0.166984 0.186094
-0.0155512 -0.415375 0.258014
-0.0113982 0.246963 0.295798
-0.0408517 0.0967174 0.2219
-0.00966236 -0.288735 0.324841
-0.00704326 -0.150999 0.148018
-0.00760226 -0.084167 0.412683
-0.0490083 0.131669 0.159397
0.00322311 -0.338336 0.319052
-0.00917589 -0.159072 0.454306
-0.0011969 0.0808496 0.325883
-0.0138288 -0.179888 0.488774
-0.0133123 0.172216 0.0941615
-0.0098534 0.348108 0.328156
-0.00108271 0.182105 0.231776
-0.00264238 0.230109 0.282708
-0.00722331 0.189058 0.160502
-0.0135706 0.372327 0.0520137
0.00372827 -0.252145 0.302829
0.0816422 0.189925 0.233813
-0.0403964 0.0965821 0.201452
-0.00619943 0.37027 0.300411
-0.0110999 0.154013 0.136143
0.0273651 -0.267601 0.27796
-0.0136339 -0.177545 0.212189
-0.0414695 0.0970572 0.185932
-0.0503487 0.048627 0.146928
-0.0423066 0.118209 0.202718
-0.00366977 -0.222944 0.253967
-0.0138271 0.208069 0.453537
-0.0032739 0.251561 0.108159
-0.00683814 0.418681 0.293888
-0.000318021 0.000398323 0.372365
-0.0218712 -0.31026 0.145562
-0.0505728 -0.282277 0.21895
0.0017887 0.344573 0.12191
-0.0508073 0.0437649 0.212176
-0.0189795 -0.313975 0.147988
0.0711148 -0.22865 0.547455
-0.0123299 0.19177 0.123316
0.00191099 -0.156648 0.138387
-0.00689057 0.0191633 0.355555
0.0994831 -0.249808 0.5485
-0.00800806 -0.361664 0.00682215
0.00174965 0.444705 0.0910122
0.034469 -0.257414 0.272555
-0.00480822 0.313923 0.29828
-0.00227514 0.12384 0.300476
-0.0180568 -0.410419 0.0445191
-0.0155512 -0.344984 0.0253053
-0.0250216 0.180206 0.460916
-0.0120728 0.25265 0.296806
-0.0151365 -0.21721 0.291098
0.00174965 0.349488 0.316306
-0.00141256 -0.0141839 0.392367
-0.00279701 0.313846 0.258713
-0.0414695 0.0870763 0.190516
0.0585111 0.168989 0.224013
-0.00734581 0.343904 0.296143
-0.0411734 0.0909887 0.128069
-0.0133446 -0.220852 0.0302806
-0.0155512 -0.224971 0.268153
-0.00982775 0.427211 0.0498152
-0.0162853 -0.170336 0.200678
-0.0490083 0.131163 0.201815
-0.0016984 -0.348277 0.288655
-0.0140109 0.276263 0.323279
-0.0111489 -0.473336 0.124809
0.0877587 -0.235645 0.541757
-0.00463089 -0.190279 0.228874
0.00383207 0.309707 0.161494
-0.0369265 0.30168 0.137014
0.00551038 0.210346 0.452828
-0.0135836 0.448677 0.229244
-0.0100577 -0.184782 0.436001
-0.0134119 -0.403038 0.277924
-0.00268103 0.171143 0.152146
-0.00527767 0.404482 0.304709
-0.0016984 -0.29991 0.295507
-0.00431827 -0.150934 0.155432
0.00539268 0.19259 0.381909
-0.00658593 0.222317 0.304002
-0.0061629 0.181264 0.40088
-0.00831934 -0.0897777 0.43883
-0.0408517 0.0963536 0.225732
-0.0136739 0.437565 0.101567
-0.00806947 -0.295597 0.326113
-0.0180568 -0.387437 0.0270995
-0.0156357 0.213548 0.288477
-0.0408517 0.136274 0.181962
-0.0155512 -0.317189 0.0322202
-0.0016984 -0.264253 0.29396
-0.0269031 0.223693 0.332074
-0.0016984 -0.376829 0.282026
-0.019812 -0.218306 0.358195
-0.0140309 0.263672 0.319171
-0.0132276 0.203977 0.285108
-0.0128926 -0.458723 0.238578
-0.00747961 -0.211967 0.0360522
-0.0156784 0.262422 0.0214111
0.118476 -0.246225 0.548242
-0.0868091 0.0369889 0.122429
-0.0408517 0.0388545 0.170518
-0.0136739 0.412911 0.0763281
-0.0016984 -0.197765 0.236518
-0.0567478 0.307551 0.161396
0.00331595 -0.315253 0.157929
-0.00338426 0.174022 0.381462
0.00132334 0.237129 0.29639
-0.00975665 -0.185281 0.226705
-0.0124257 -0.195219 0.235828
-0.00480822 0.301185 0.0380501
7.38454e-05 0.474177 0.175063
-0.00955593 0.2669 0.0116393
-0.0208193 -0.303161 0.163958
-0.0121538 -0.361303 0.320038
-0.0119433 -0.42808 0.245042
-0.00157684 0.235153 0.0255966
0.000274065 -0.171381 0.49832
-0.0016984 -0.313809 0.300667
-0.0108786 0.173904 0.1611
-0.0410483 0.332744 0.159799
-0.00409819 0.442865 0.228711
-0.0189795 -0.310827 0.160707
-0.00590541 0.339921 0.304716
-0.0160886 -0.0623101 0.40366
-0.0016984 -0.415726 0.251488
-0.0151253 -0.185691 0.354077
-0.00259163 0.255422 0.0508736
0.0171907 0.186919 0.166938
-0.00373686 -0.254747 0.034238
-0.0126815 0.253426 0.130033
-0.0178787 -0.395484 0.0292574
0.00174965 0.454984 0.236137
-0.0155512 -0.209881 0.0839117
-0.0134879 -0.348258 0.00503676
0.0782188 0.176351 0.223918
-0.0756753 0.0540465 0.15196
-0.000273409 -0.204496 0.419965
-0.0180568 -0.209425 0.0511234
-0.0113785 0.456769 0.0893966
-0.00361788 -0.164702 0.527442
-0.0152738 0.190103 0.265167
-0.0147544 -0.280722 0.300967
-0.060051 0.315487 0.155481
-0.00742638 0.258268 0.275232
-0.0132637 0.339124 0.312857
-0.0145499 -0.173347 0.177857
-0.0180839 -0.0499339 0.273135
-0.00538977 -0.315827 0.306823
-0.013524 -0.0369431 0.387493
0.00453715 0.187662 0.455786
-0.0149142 -0.371592 0.126882
-0.0171896 -0.227798 0.0311698
-0.00277121 -0.200666 0.401216
-0.00819181 0.445191 0.227875
-0.00482243 -0.215521 0.351076
-0.000217402 -0.36236 0.300815
-0.0678306 0.0217265 0.125234
-0.00756524 -0.19674 0.184735
-0.00597633 -0.129856 0.315555
-0.0445287 -0.325157 0.157078
-0.0499102 0.0501716 0.219018
-0.0136739 0.451235 0.159073
-0.00834463 0.474468 0.200209
-0.00516599 -0.134252 0.441537
-0.0347852 0.222226 0.460194
0.0345352 -0.258876 0.268936
-0.0134938 0.188267 0.440051
0.00273762 -0.170986 0.231593
-0.0155512 -0.451032 0.128084
-0.100908 0.0401493 0.113566
-0.0155512 -0.221124 0.266469
-0.00772317 0.366975 0.0392256
-0.0213018 0.164782 0.466183
0.000174151 -0.0490334 0.408178
-0.0183964 0.080421 0.328082
0.00372827 -0.283206 0.316375
-0.0252913 -0.316123 0.16195
-0.00754853 0.343516 0.285518
-0.0136739 0.333314 0.0377065
-0.0138587 -0.284228 0.0046823
-0.0136739 0.333985 0.306025
-0.0389014 0.333637 0.148991
-0.0236102 0.313794 0.163596
-0.0119583 0.214258 0.0660222
0.0205637 0.258621 0.161454
-0.0154227 -0.188742 0.0644031
-0.00306778 0.326101 0.0707664
-0.0154183 -0.187227 0.190909
-0.0149715 -0.211839 0.40667
-0.00429062 -0.214784 0.267062
0.0373408 -0.265961 0.279858
-0.0016984 -0.427119 0.229453
-0.0304241 0.268914 0.10262
-0.0209682 0.0627025 0.189304
-0.00259163 0.393283 0.0559587
-0.00355281 0.394605 0.0491112
-0.0118256 0.219061 0.0362091
-0.0155512 -0.367571 0.29232
-0.0152423 0.112978 0.180157
-0.00957371 0.428982 0.089337
-0.00280935 -0.170559 0.475796
-0.0151203 0.470616 0.187776
-0.106348 -0.245011 0.541524
-0.041602 0.112155 0.163294
-0.0378304 -0.266953 0.278615
-0.0140223 -0.156455 0.532099
-0.0111253 0.449395 0.203323
-0.0165889 -0.276256 0.0194799
-0.0136739 0.325681 0.0298274
-0.0168194 0.0889453 0.156255
-0.0175333 -0.346239 0.198585
-0.00310929 0.130221 0.314024
-0.140594 -0.213007 0.546327
-0.00176649 -0.0330716 0.26681
-0.111843 0.000825626 0.125911
-0.033058 -0.246309 0.321018
-0.0101929 -0.388737 0.249355
-0.00245623 0.199936 0.0804231
-0.00866777 0.44375 0.146983
-0.00406501 -0.220672 0.352384
-0.0236949 0.163997 0.178548
0.00150603 0.356462 0.142338
-0.0408517 0.086784 0.224275
-0.00259163 0.439416 0.126816
-0.0019814 -0.456387 0.16299
0.0555186 0.17597 0.23674
-0.00741622 0.0536902 0.19444
-0.00841711 0.2184 0.0766488
0.123773 -0.219499 0.545777
-0.00131262 0.280393 0.228774
-0.0136739 0.217463 0.0734567
-0.00880011 -0.419377 0.261035
0.01073 0.104324 0.203019
-0.00868346 0.0642904 0.330189
-0.00267643 0.424297 0.260802
0.0063313 -0.309364 0.151
-0.0136739 0.268798 0.0377337
-0.00259163 0.391171 0.0505228
0.0106428 0.307369 0.166132
0.00412998 0.176896 0.404821
0.0374161 -0.278725 0.247168
-0.0044059 -0.459024 0.0877367
-0.00895765 -0.266282 0.268395
0.00147173 0.28979 0.020683
-0.00846162 0.442242 0.13757
-0.011271 0.175376 0.478402
-0.0673737 0.0819992 0.166109
-0.036896 0.263067 0.185795
0.0339311 -0.247338 0.330886
-0.00259163 0.238554 0.0615227
-0.00367346 -0.148516 0.55648
-0.0156784 0.171684 0.108289
-0.0525417 0.0922979 0.123391
-0.0137244 -0.242653 0.142408
-0.00207962 0.114045 0.179669
-0.0170814 -0.463123 0.164532
-0.00130569 -0.08948 0.302886
-0.0132711 0.397133 0.289692
-0.0323189 0.303972 0.122072
-0.020293 0.228157 0.44313
-0.0126962 0.170589 0.241725
-0.0259347 0.109888 0.168108
-0.0345605 -0.257562 0.309398
0.0126807 -0.309971 0.169144
-0.0643926 0.0601077 0.15089
-0.0172125 0.163961 0.369561
-0.00242233 -0.247661 0.037298
-0.0120337 0.170751 0.18968
0.00223654 0.147909 0.173676
-0.00828162 0.328211 0.0253255
-0.0127806 -0.455389 0.156425
-0.00389578 0.435515 0.241481
-0.000778018 0.158847 0.123049
-0.0129979 -0.20218 0.227798
-0.00996317 0.185313 0.0679043
-0.0155512 -0.19518 0.225367
-0.0483419 0.110832 0.126472
-0.00921582 0.214516 0.474834
-0.0123328 -0.293441 0.0334284
0.00244713 -0.380751 0.0189531
-0.00373416 -0.451155 0.122169
0.108313 -0.21474 0.55594
-0.0370358 0.313292 0.113871
-0.0132815 0.178245 0.25305
-0.0324611 0.217704 0.45019
-0.0508574 0.300163 0.168513
-0.00259163 0.435517 0.0959994
-0.014352 0.0742781 0.182645
-0.0463454 -0.277615 0.212987
-0.0406986 0.252125 0.287608
-0.0105671 -0.46328 0.231099
0.00383207 0.314995 0.164717
-0.014982 -0.211328 0.370763
-0.0127806 -0.186418 0.140674
-0.0694773 0.0804685 0.165418
-0.0502318 -0.294033 0.204086
-0.0408517 0.0510111 0.211728
-0.00259163 0.394118 0.275594
-0.0114575 0.3592 0.301997
0.0710949 -0.215024 0.560119
-0.00749828 0.389715 0.0597477
0.00723456 -0.224345 0.357748
-0.0275189 0.135195 0.182343
-0.000418414 0.197144 0.378391
0.000594084 0.257732 0.463127
-0.0138715 -0.17502 0.120659
-0.00593931 -0.405545 0.25856
-0.0344157 0.184078 0.178804
-0.0408517 0.0728512 0.188545
-0.0311863 0.0626849 0.17597
-0.0128578 0.252855 0.0353018
-0.00761443 0.393413 0.288045
-0.0260951 -0.300061 0.156221
0.131165 -0.218421 0.546474
-0.042748 0.0986297 0.151078
-0.0376983 0.233774 0.459321
-0.00231796 -0.242858 0.122312
-0.00240842 -0.181411 0.25914
-0.0956446 -0.000402234 0.124778
-0.00259163 0.198368 0.23947
-0.0490083 0.0417719 0.186511
0.00137058 0.275933 0.321517
-0.0496491 0.0568759 0.201419
-0.0117188 -0.455635 0.18698
-0.0132116 0.402108 0.0569773
0.0359436 -0.312616 0.158156
-0.00956319 -0.38623 0.24583
0.0129656 -0.231402 0.360036
-0.0016984 -0.387428 0.275428
0.0325877 -0.266505 0.301733
-0.00355547 -0.393107 0.0203696
-0.00117602 0.348977 0.238139
-0.000535003 0.210992 0.292012
0.0682508 -0.248673 0.539773
-0.0155512 -0.184853 0.174471
-0.00262655 -0.330138 0.000291003
0.0263803 0.091138 0.193754
-0.0190309 -0.130845 0.448178
-0.0149043 0.163321 0.383983
-0.00480822 0.184065 0.182383
-0.0134482 -0.190732 0.559543
-0.0072872 0.174613 0.201823
-0.00919625 -0.188442 0.232292
-0.0124231 0.397655 0.288015
-0.0109469 -0.362569 0.0322113
-0.00419916 -0.151438 0.180416
-0.012758 -0.11901 0.308483
-0.0155745 -0.155672 0.143287
0.000982579 0.331286 0.31663
-0.0133609 0.438983 0.132404
-0.0125473 -0.398864 0.280117
-0.00259163 0.379346 0.287678
0.0479327 0.176553 0.234098
-0.0155512 -0.17587 0.164751
-0.0487019 0.0396981 0.200758
-0.00668553 0.191083 0.4108
-0.00279394 -0.189399 0.357217
-0.0188668 0.293955 0.15286
-0.0016984 -0.379984 0.043135
-0.0139147 0.314747 0.162701
-0.00803926 -0.453592 0.1781
-0.0174453 -0.104541 0.304586
0.0143349 0.244598 0.443511
-0.0509063 0.315682 0.163052
-0.0490083 0.12976 0.173916
-0.0133356 -0.201557 0.0461727
-0.0140162 0.307191 0.104463
-0.0802595 0.0215778 0.119708
-0.00446902 -0.190885 0.231472
-0.00524025 0.373935 0.0374163
-0.0016984 -0.382548 0.0421644
0.00142643 0.262037 0.148587
0.00116163 0.183331 0.240091
-0.0180568 -0.224083 0.0383403
-0.0038642 0.453889 0.202147
-0.00800068 0.0157503 0.239976
-0.0124415 0.377111 0.0194261
-0.0151625 0.0269684 0.214514
-0.0376491 0.264192 0.26332
-0.0152546 -0.265445 0.115885
-0.0409191 0.161823 0.120904
-0.0136739 0.224737 0.264451
-0.00552497 -0.163445 0.489625
-0.0155512 -0.447623 0.176705
-0.00679877 0.0665394 0.351641
-0.0646822 0.0559386 0.152426
-0.0443267 0.311447 0.133991
-0.00593398 0.130406 0.307672
-0.0127807 -0.357874 0.286751
-0.0326106 0.219234 0.120039
0.0424033 0.179113 0.230551
-0.00684698 0.0651822 0.195577
-0.0448826 0.293212 0.165182
-0.00770851 0.153732 0.13766
-0.0485032 0.128271 0.147971
-0.0446402 0.0954308 0.119464
-0.00190308 -0.260443 0.230189
-0.0115402 -0.0733943 0.278009
-0.0132885 -0.209054 0.0883722
-0.0535569 -0.318426 0.158034
-0.0221896 0.0634869 0.173086
-0.00691219 -0.421677 0.0973345
-0.0863606 0.0218167 0.121255
0.00268442 0.145332 0.469191
-0.00719733 -0.186272 0.478351
0.00372827 -0.33662 0.0126427
-0.0104137 -0.261454 0.283753
-0.0149836 0.203291 0.281246
0.00253501 -0.438694 0.0815803
-0.016916 -0.469538 0.192299
0.0183054 0.0932708 0.157538
-0.00946813 0.233575 0.0494454
-0.0121991 -0.197013 0.551789
-0.016026 -0.375411 0.0285949
0.0254986 0.107192 0.175074
-0.0117995 0.390767 0.181669
-0.0016984 -0.185875 0.145305
-0.0010709 -0.14701 0.332687
-0.00713245 -0.445736 0.145006
-0.0138425 0.195232 0.438054
-0.00459779 -0.171791 0.361537
-0.0336708 -0.236139 0.325242
-0.00640639 0.0997244 0.310995
0.00340662 0.10188 0.160262
-0.0408517 0.0379719 0.178918
-0.0114485 0.0220991 0.235547
-0.0016984 -0.216278 0.25611
-0.0205371 0.16092 0.475963
-0.0168295 0.121554 0.182906
-0.0105657 -0.122622 0.434052
3.07108e-05 -0.213259 0.290793
-0.00805338 -0.399056 0.262533
0.000517637 0.453572 0.244991
-0.00449389 0.214297 0.08496
-0.00518237 0.304033 0.0368676
-0.0166252 0.282247 0.204343
-0.00573811 0.260576 0.267952
-0.0229178 0.156179 0.180213
-0.0499925 0.0682928 0.229085
0.00348516 0.33744 0.165326
-0.0102378 -0.414195 0.266801
-0.0104387 0.218656 0.269827
-0.000918062 -0.083221 0.291554
0.0343207 -0.313338 0.151267
-0.00816295 0.437077 0.190926
-0.0226061 0.0973144 0.207028
-0.00478794 0.168901 0.478953
-0.00765415 0.103099 0.308624
0.0260214 -0.262962 0.296354
-0.0473191 0.212877 0.198485
0.0375984 -0.312866 0.162163
0.0183426 0.22383 0.462775
-0.00887298 -0.019256 0.262956
-0.0155512 -0.196049 0.228626
-0.00259163 0.177319 0.200649
-0.042184 0.165281 0.120512
-0.0148271 -0.102804 0.424926
-0.00151021 -0.149765 0.333587
-0.000646233 0.286182 0.327185
-0.0216706 0.308537 0.16604
-0.00732111 -0.172523 0.244723
0.00174965 0.302845 0.319552
-0.0016984 -0.445338 0.126694
0.00174965 0.442825 0.0807339
-0.00491451 -0.102801 0.444938
-0.00187554 0.153958 0.199993
0.00138002 -0.46151 0.170361
-0.00282869 -0.258377 0.0311412
-0.0470746 0.150394 0.215308
-0.0552354 -0.320252 0.152556
-0.0136739 0.334643 0.307007
-0.0196787 0.300222 0.17264
-0.0117146 0.171976 0.167855
-0.0179721 -0.00165386 0.239815
-0.049077 -0.317808 0.14547
-0.00283109 0.178033 0.417119
0.0226425 0.253515 0.164374
-0.00483037 -0.152757 0.331123
0.000804299 0.314076 0.227985
-0.0144594 0.162213 0.214226
0.00306106 -0.304007 0.312626
-0.0016984 -0.254464 0.288671
-0.143133 -0.219454 0.548664
-0.0171538 -0.220491 0.548468
-0.0136739 0.447808 0.176364
-0.0202832 -0.296292 0.199558
-0.00713621 -0.187671 0.353003
0.002698 -0.198913 0.257608
-0.0443267 0.315386 0.144412
-0.00667394 0.0713129 0.326669
-0.0765584 0.0510816 0.143618
0.00372827 -0.178902 0.0846585
-0.00468545 0.369832 0.297999
-0.00470197 0.187788 0.477346
-0.0155512 -0.233975 0.0590891
-0.0142213 -0.194405 0.451902
0.00907152 0.184851 0.471155
0.00144403 -0.286954 0.220518
0.0263803 0.104484 0.184745
0.00384244 0.185894 0.417207
-0.0119208 0.453719 0.250949
-0.0136739 0.332465 0.0340957
-0.115908 -0.220284 0.56235
-0.0016984 -0.203311 0.236046
-0.0016984 -0.446192 0.216803
-0.0766226 0.0546517 0.14974
-0.0131729 -0.150118 0.329084
0.0321248 -0.242667 0.340695
-0.00121633 0.0701768 0.197895
-0.014324 -0.00190666 0.38861
-0.0282076 0.169758 0.181022
-0.0369767 0.245999 0.304599
0.0232321 -0.24807 0.319586
0.00243468 0.318177 0.156559
-0.0175589 -0.212481 0.0536057
-0.0532623 0.312143 0.193669
-0.0158936 -0.122927 0.45432
-0.0016984 -0.186114 0.215128
-0.00638141 -0.447651 0.119046
-0.0127885 0.171327 0.198556
-0.0016984 -0.410152 0.0717538
-0.0118016 -0.450493 0.208257
0.00846484 -0.325253 0.179385
0.000549649 -0.127639 0.44937
-0.0335045 -0.248018 0.331838
0.00714665 0.111714 0.193525
-0.0139996 -0.164169 0.49252
0.00174965 0.159956 0.150667
-0.0127085 -0.0809842 0.43324
-0.0446876 0.0621846 0.229737
-0.00446902 -0.339507 0.292068
-0.00358637 -0.291475 0.303478
-0.00434809 0.0680592 0.199634
0.00241136 -0.365927 0.143594
-0.00743589 -0.313488 0.280514
-0.0147495 -0.298163 0.0350738
-0.00978266 0.399379 0.235802
-0.00301032 0.0953177 0.207645
-0.0171368 0.0953349 0.205527
0.00372827 -0.390668 0.0323792
-0.0116515 0.191709 0.121969
-0.0151863 -0.2573 0.31299
-0.00175642 0.187098 0.45584
-0.00703057 -0.314519 0.0306033
-0.0177658 0.0149698 0.227505
-0.00890214 0.214986 0.0691874
0.00291475 0.153344 0.173527
-0.0109228 0.305499 0.0285282
-0.0755598 -0.219042 0.546323
-0.0457429 0.107514 0.161145
-0.0177696 -0.15778 0.34606
-0.00422312 0.365068 0.035419
-0.0261802 -0.316117 0.161552
-0.00259163 0.42696 0.23976
-0.00149304 0.121245 0.268945
0.00361542 -0.469568 0.141576
-0.0490083 0.0581092 0.213543
-0.0147458 -0.330953 0.323386
0.000120144 -0.197172 0.0757508
-0.0130246 0.201635 0.231808
0.032974 0.109469 0.185304
-0.00724842 0.326493 0.0365196
-0.0198661 0.312679 0.171908
0.004399 0.304346 0.171416
0.0041525 -0.351336 0.167714
0.00781369 -0.299237 0.180776
-0.00404767 -0.172593 0.164507
-0.00542519 0.33118 0.306822
-0.0153279 0.27973 0.314163
0.0269909 0.294364 0.156909
0.0280006 -0.269858 0.267269
-0.00559722 -0.26237 0.26788
-0.0164164 0.31345 0.145278
0.0349517 -0.27373 0.225381
-0.00205645 0.363116 0.0322006
0.00372827 -0.187011 0.253074
-0.0506455 -0.297621 0.194233
-0.00640983 -0.16651 0.527342
-0.018897 -0.0911948 0.425258
0.031655 -0.305551 0.167362
-0.00285173 0.368916 0.087877
-0.00694002 0.254408 0.285924
-0.0155711 -0.183758 0.474006
-0.0585041 0.0855812 0.18662
-0.0136739 0.201997 0.0974352
0.00680974 0.307956 0.16954
-0.00315587 0.431412 0.221825
-0.0038995 0.154907 0.363819
0.00263149 -0.350392 0.129079
-0.00995949 0.135587 0.280738
0.0152747 0.17064 0.172624
-0.0102334 -0.475193 0.135907
-0.130818 -0.212899 0.547291
0.000561843 0.155149 0.159226
0.0106428 0.313772 0.164814
-0.0258165 0.0780796 0.15819
-0.00660837 -0.450698 0.207708
-0.0036476 0.357117 0.0463064
-0.0460373 -0.253162 0.293136
0.00372158 -0.448037 0.0953771
-0.00259163 0.423958 0.0929159
-0.010593 0.0891228 0.208667
0.00319029 -0.242839 0.0228584
-0.0267262 0.11425 0.18233
-0.0088714 -0.194493 0.242986
-0.0141896 0.0956882 0.157428
-0.0180998 -0.0972412 0.303428
-0.0522256 0.0896089 0.172222
0.00372827 -0.371483 0.0235735
-0.00206649 -0.407236 0.253517
-0.0121491 0.172184 0.405675
-0.00496661 0.338683 0.0270776
-0.0217661 -0.297135 0.157383
-0.0178812 0.0174235 0.230292
-0.0147141 -0.29838 0.00331893
-0.0543638 0.0670597 0.190608
-0.0136739 0.260773 0.291392
0.0336443 -0.324975 0.151711
-0.0103196 0.2616 0.0892777
-0.0447487 0.0352874 0.205043
-0.00947118 -0.464945 0.0998418
-0.0156828 0.283808 0.200856
-0.00362016 -0.380964 0.0140387
0.111183 -0.247575 0.548495
-0.0476735 -0.278705 0.210038
-0.010739 0.266425 0.0118169
-0.00259163 0.320518 0.304952
-0.0099588 0.174125 0.162333
-0.0187729 0.0919408 0.322673
-0.00989349 0.212932 0.209369
-0.00325045 -0.418072 0.0651936
-0.0136739 0.375163 0.290392
-0.0109958 -0.141819 0.343348
-0.0171576 0.102794 0.223446
-0.0290807 0.26761 0.113394
-0.0155512 -0.314703 0.295828
-0.00735493 0.0547009 0.358456
-0.00615981 0.0631493 0.190916
0.0311795 -0.314409 0.16741
-0.0522256 0.0865678 0.181642
-0.0041708 0.242667 0.0443298
-0.0179495 -0.198581 0.269697
-0.0180568 -0.271443 0.312682
-0.00610166 0.207951 0.264658
-0.0176554 -0.0414906 0.270496
-0.000288895 -0.477073 0.16547
-0.0169568 0.039023 0.209334
-0.00259163 0.205895 0.0766543
-0.0490083 0.134254 0.174948
0.00755284 0.207976 0.35177
-0.0156784 0.409823 0.0518363
-0.110721 0.0324444 0.114687
0.00288858 -0.211358 0.552612
-0.00188122 -0.240909 0.284116
-0.0155512 -0.413636 0.252746
0.000858235 0.160146 0.206291
-0.00437554 -0.287699 0.324649
-0.0180568 -0.205208 0.272629
-0.0179038 -0.0417061 0.268954
-0.0133873 -0.442018 0.187971
0.0281757 0.272034 0.161522
0.0127352 0.155967 0.175636
0.0124066 -0.224975 0.555398
-0.0163151 0.34551 0.138331
-0.0016984 -0.378193 0.0438933
0.000872775 0.402465 0.300136
-0.0433527 -0.304154 0.174685
-0.00828807 0.140521 0.334303
0.0294342 0.161966 0.209695
0.00253907 -0.206113 0.0471238
0.000279661 0.291386 0.0103266
-0.0304057 0.216772 0.352067
0.0214205 0.24409 0.45574
-0.00407586 -0.330959 0.291949
-0.00327891 -0.211312 0.376608
-0.0110213 0.212655 0.160714
-0.0113386 0.444712 0.10629
0.0276487 0.277446 0.160887
-0.0414012 0.235963 0.191837
-0.00155789 -0.378269 0.207015
-0.0483031 -0.27341 0.229591
-0.046542 0.29474 0.160775
0.0605581 0.176644 0.235041
-0.0118876 -0.187279 0.126155
0.0797408 0.179051 0.23189
-0.00691126 -0.342065 0.282117
-0.0097084 -0.452863 0.201919
-0.0395756 0.162784 0.122731
-0.0163327 -0.205849 0.381314
-0.0452844 -0.259463 0.267684
-0.0142055 0.179567 0.252657
0.00183787 0.133184 0.173573
-0.00259163 0.28994 0.0378977
-0.0154608 -0.0745789 0.281474
-0.00532016 -0.474339 0.130805
-0.0164138 -0.373413 0.126925
-0.00259163 0.435784 0.225314
0.00132674 -0.266113 0.135662
-0.0420371 0.218189 0.172546
-0.00552084 -0.394808 0.268784
0.00319102 -0.469604 0.137818
-0.00175621 0.142116 0.323895
-0.0103386 0.20996 0.267009
-0.0045195 0.196032 0.456298
-0.00445335 -0.211077 0.414706
-0.00572417 -0.455043 0.0807003
0.0294406 -0.217037 0.551774
0.00449549 0.338143 0.164394
-0.0410999 0.133648 0.198577
-0.0375516 0.231359 0.448362
-0.0467206 -0.257013 0.283472
0.137614 -0.225508 0.561418
-0.00087661 0.475875 0.159132
0.00194034 -0.36184 0.315716
0.00103672 -0.3445 0.216872
-0.00450377 0.127793 0.464402
-0.000530056 0.302783 0.315233
-0.0440605 -0.260438 0.310417
0.0333931 0.190038 0.227449
-0.00829785 0.175061 0.204238
-0.016186 -0.16636 0.152636
-0.00772682 -0.0509191 0.394208
-0.0136739 0.322373 0.301321
-0.0198635 0.332808 0.168846
-0.000648454 0.309026 0.00705945
-0.0120279 -0.156491 0.118881
-0.00512057 -0.357977 0.287418
-0.0136739 0.252937 0.286355
-0.00364608 -0.172795 0.471289
-0.0123756 -0.184162 0.176405
0.0156059 0.263222 0.255045
-0.0139459 0.292997 0.0103655
0.0148447 -0.307818 0.162664
-0.013101 -0.203316 0.256097
-0.00259163 0.33861 0.0312532
-0.0445397 -0.243273 0.314429
-0.0437055 0.118647 0.139796
0.0588941 -0.221733 0.550125
0.00601801 -0.329952 0.187669
-0.0427388 0.276496 0.168493
-0.00777292 0.187181 0.129522
-0.00676923 -0.472138 0.120156
-0.0108072 -0.220123 0.180007
-0.00391374 -0.256508 0.292517
0.01338 0.0636125 0.192289
-0.00835392 -0.0567542 0.39745
-0.00366472 -0.443579 0.169143
-0.0475637 0.282976 0.229762
-0.0016984 -0.260574 0.281641
-0.0377561 0.235816 0.468441
-0.0267041 0.247889 0.115247
-0.00160734 0.158449 0.353152
0.000822442 0.335568 0.315606
-0.0270869 -0.22468 0.351891
0.00875733 -0.29666 0.160084
-0.0708963 0.0322239 0.122713
-0.0528952 0.101056 0.181324
-0.0016984 -0.267609 0.295534
-0.007393 0.442222 0.103213
-0.0218544 -0.308091 0.190962
0.00207143 -0.193523 0.0766355
-0.027044 -0.213385 0.550236
-0.00970701 -0.169756 0.340964
-0.00954343 0.349545 0.0401294
-0.00635376 -0.312598 0.294899
-0.0012601 -0.0260349 0.261143
0.0283104 0.291628 0.149417
-0.000287188 0.400219 0.0324618
-0.000249959 -0.197985 0.0754423
-0.0148115 0.360138 0.205963
-0.0156784 0.407994 0.286471
-0.0201526 0.1235 0.185329
-0.00480822 0.375521 0.294825
-0.00860617 0.156406 0.12463
-0.0127807 -0.433195 0.218945
-0.0356572 0.226236 0.468224
-0.00464957 -0.329163 0.302623
-0.0457429 0.0648124 0.19329
0.0305095 -0.274178 0.27991
0.00174965 0.390196 0.0371938
-0.00314182 0.249546 0.0401153
-0.0136739 0.225128 0.271773
-0.0155512 -0.269591 0.0391508
-0.0176633 -0.113363 0.317623
-0.00186736 0.180851 0.419603
-0.0136739 0.188117 0.119124
-0.0114574 0.437794 0.127517
0.00372827 -0.447278 0.0880405
-0.036712 0.313699 0.154145
-0.0154502 0.265886 0.317775
0.0352797 -0.24698 0.313766
-0.0016984 -0.312472 0.0254865
-0.0180568 -0.29961 0.319224
0.0462902 0.169282 0.236446
-0.0137657 0.0148344 0.379547
0.000118297 -0.379443 0.294217
-0.0712604 0.0347436 0.135368
-0.0042822 0.191233 0.124077
0.00372827 -0.459742 0.116881
-0.000810281 -0.162178 0.344116
-0.000572889 0.0482519 0.355975
-0.00259163 0.211153 0.255817
-0.100199 0.032862 0.119024
-0.117281 -0.21201 0.554962
-0.023196 0.161842 0.178066
0.0818304 0.186766 0.228519
-0.00903746 0.360392 0.325431
-0.00842141 0.163239 0.348321
-0.051451 0.107721 0.225457
-0.00440206 0.0695597 0.328609
-0.00878844 0.313777 0.301112
-0.00241001 0.184931 0.477589
-0.0155512 -0.280839 0.290797
-0.012089 0.284627 0.0263239
-0.00823111 0.195105 0.056025
-0.0164902 -0.0379857 0.390537
0.00936395 0.186148 0.471668
0.00435325 0.307821 0.173573
-0.0278174 -0.322344 0.165098
0.00372827 -0.314234 0.317018
0.00075603 0.380146 0.301962
-0.0234869 0.317258 0.149766
-0.0107223 0.343656 0.0835497
-0.00870425 -0.227839 0.0817079
-0.0041079 0.371523 0.240014
-0.00868609 -0.456505 0.145266
-0.000284267 0.104445 0.314617
-0.0399087 0.327341 0.138868
-0.0156784 0.419983 0.0536586
0.0346534 -0.27077 0.286864
0.0150714 0.178152 0.167423
-0.00407395 -0.410828 0.129412
-0.0136739 0.193318 0.102017
-0.0306903 0.282653 0.110003
-0.0138041 0.386469 0.0260865
-0.0140213 0.461066 0.150217
-0.0447956 0.108562 0.186906
-0.0432854 0.253806 0.192215
-0.0131631 -0.34295 0.302303
-0.00107947 0.173266 0.128862
-0.0125462 -0.341224 0.0249789
0.00437417 0.123022 0.183792
-0.0095918 0.432717 0.226242
-0.0259013 -0.317819 0.164391
-0.0409303 0.298967 0.115258
-0.00634516 -0.424865 0.126721
0.00137674 0.455806 0.216276
-0.00253718 -0.118667 0.311048
-0.00259163 0.172655 0.158857
-0.00782086 0.282417 0.0390509
-0.00369978 0.272295 0.0309502
-0.0154858 0.0362943 0.366245
0.0877482 -0.222041 0.547628
0.00630901 0.212664 0.475083
-0.00306036 0.218225 0.474336
-0.0687913 0.0616297 0.149495
-0.0113196 -0.47485 0.133854
-0.0016984 -0.183076 0.179103
0.000494157 0.370481 0.305552
-0.128738 -0.243856 0.543665
-0.0494588 -0.310821 0.160181
-0.0125371 -0.373457 0.0320129
0.00268911 -0.445806 0.251883
-0.0409807 -0.265036 0.256813
-0.015583 0.176814 0.389407
-0.0117532 -0.212977 0.352813
0.0357449 -0.274278 0.225668
0.00143958 0.46156 0.194006
0.00174965 0.467581 0.199645
-0.00973206 0.157177 0.333504
-0.00813961 0.353381 0.0415252
-0.0420755 0.318802 0.138797
-0.0378797 0.248273 0.446299
0.0017108 0.144979 0.177889
-0.00954258 -0.33771 0.268756
-0.0176358 -0.463659 0.173869
0.00231192 -0.449391 0.225657
-0.0382089 0.311744 0.141939
-0.0156784 0.372248 0.028681
0.00253831 0.0863188 0.156334
-0.0230469 0.251627 0.46985
-0.0155578 -0.0742326 0.281344
-0.0223889 -0.311849 0.181996
-0.00259163 0.381233 0.0450302
0.00174965 0.164492 0.213334
-0.0286724 0.230979 0.320103
-0.0156784 0.304242 0.323617
-0.0125053 -0.159503 0.476956
-0.0532034 0.0958573 0.125844
-0.012345 -0.367727 0.0836298
-0.0102977 0.44581 0.159842
-0.0155512 -0.229982 0.0564899
-0.00405627 0.254908 0.459221
-0.0457429 0.0749741 0.203848
-0.0326195 0.250546 0.291221
-0.0160538 -0.360101 0.315862
-0.0234677 -0.306129 0.179272
0.0465441 0.202762 0.231373
-0.0129588 0.308932 0.00775624
-0.0206781 0.313024 0.167507
-0.0120569 -0.161563 0.478292
-0.00489956 0.340459 0.00711975
-0.0180568 -0.307816 0.313802
-0.0411177 0.179597 0.119027
-0.0394991 0.25995 0.169108
-0.0103883 -0.118525 0.431775
-0.0155512 -0.368058 0.289449
-0.00745844 0.275203 0.0511025
-0.00590177 0.0439891 0.36379
0.00492494 0.101868 0.204771
-0.0399547 0.326008 0.152352
-0.0409311 0.0918932 0.162578
-0.00483758 -0.211966 0.0624165
-0.0156784 0.16621 0.204629
-0.00739798 -0.0888532 0.288021
0.0253082 0.0693623 0.192072
-0.0227643 0.0958915 0.207486
-0.0516623 0.295163 0.211006
-0.0115697 -0.0949713 0.441496
