0.000257176 0.473817 0.174506
-0.0549119 -0.244817 0.542083
-0.0180568 -0.175438 0.0969274
-0.000218546 -0.27538 0.304295
0.00372827 -0.330178 0.00907797
-0.0057331 -0.210563 0.21364
-0.00455435 0.166434 0.360326
0.00174965 0.170759 0.229822
-0.00321031 0.324554 0.297253
-0.0355786 0.275895 0.182752
-0.0139967 0.252954 0.163024
-0.00933844 -0.391877 0.254732
0.00174965 0.322521 0.322832
-0.0142773 -0.290788 0.0943144
-0.00485878 0.232022 0.0891519
0.00369759 -0.329712 0.319751
-0.0101302 0.191547 0.117305
-0.00710102 0.38182 0.0690636
0.0382578 0.175421 0.237093
-0.0119308 -0.370515 0.0768179
-0.143177 -0.21715 0.557134
0.0227224 0.110898 0.178099
-0.0350049 0.178195 0.177575
-0.00988062 0.000757024 0.365493
-0.0141351 -0.154368 0.185114
0.00399042 0.207248 0.354357
-0.00909912 0.290949 0.266581
-0.0180568 -0.196199 0.260534
0.0875718 -0.223046 0.538631
-0.00345756 0.374518 0.244267
-0.0144059 0.217685 0.280882
-0.051901 0.319811 0.180115
-0.00878435 -0.287333 0.271568
-0.0190054 0.287075 0.177335
0.0190637 -0.224532 0.348957
-0.0210531 0.234682 0.472126
-0.00824515 -0.222177 0.235728
0.00326049 -0.220744 0.548538
-0.0103738 -0.155557 0.514063
-0.0116151 0.407321 0.18524
-0.0166893 -0.191129 0.436853
0.00111531 0.123749 0.174646
-0.0422454 0.152464 0.121399
-0.0171736 -0.142145 0.337756
0.02202 0.243816 0.156237
-0.0898338 -0.2128 0.551975
-0.0253307 -0.231591 0.342231
-0.0016984 -0.325051 0.29351
-0.0225128 0.169616 0.462123
-0.0141271 -0.393557 0.156664
-0.0119768 -0.456682 0.0835973
-0.0107636 0.388933 0.0974919
-0.002495 -0.0863349 0.303282
0.00174965 0.325708 0.0154837
-0.0408517 0.0606026 0.215893
-0.0155512 -0.249473 0.279975
-0.0721536 0.0317771 0.133058
-0.0176141 0.0156164 0.233283
-0.00357831 0.223488 0.445673
0.0134065 -0.320629 0.137811
-0.0140734 -0.355489 0.040712
-0.0155748 0.457369 0.213003
-0.0440017 0.144778 0.166902
0.0768714 -0.229475 0.561818
0.0349005 -0.272796 0.281705
-0.0106196 0.0923356 0.175027
-0.00536154 0.063002 0.174347
-0.0273067 -0.330996 0.16136
-0.0107641 -0.212501 0.13443
-0.0027585 0.254473 0.0162858
0.00519576 -0.279984 0.159322
-0.041454 0.260395 0.27921
-0.00444181 0.185396 0.430542
0.0226381 0.0792269 0.20409
-0.0279501 0.214535 0.358788
-0.0130875 0.354682 0.0124764
0.000503094 0.388054 0.309454
-0.0078143 -0.403946 0.075364
-0.00860623 -0.426552 0.208764
0.00353797 -0.165839 0.11205
-0.0135594 -0.322201 0.0753296
0.00479535 0.302578 0.187832
0.102191 -0.216092 0.559476
-0.0016984 -0.221313 0.0704766
-0.0152745 -0.263211 0.205083
-0.0897285 0.0307169 0.119968
-0.0156784 0.469474 0.154705
-0.00265255 0.293241 0.0395651
0.000568935 -0.0399319 0.39873
-0.0016984 -0.183547 0.163499
-0.0180568 -0.280388 0.0154915
-0.047464 0.046818 0.168806
-0.0220259 0.0996124 0.158968
-0.0111414 -0.0357864 0.273679
-0.1254 0.0017137 0.124768
-0.0234869 0.32093 0.172017
-0.0169111 0.348017 0.134342
-0.0130736 0.240026 0.294553
0.00174965 0.219231 0.0479752
-0.00126764 0.153771 0.194446
0.0144022 0.243264 0.286846
-0.0152571 -0.262393 0.112871
-0.00478423 0.123748 0.318996
-0.0506631 0.121674 0.179432
-0.0180568 -0.171152 0.210078
-0.0108844 -0.474336 0.130788
-0.0155512 -0.418476 0.249451
-0.0148922 -0.21205 0.0398602
-0.000602238 0.162235 0.114499
0.0376741 0.202734 0.233763
0.00706546 -0.337031 0.176721
-0.0016521 -0.194328 0.372429
0.00604891 -0.292941 0.131331
-0.077068 -0.22986 0.560562
-0.00630932 -0.446605 0.153737
0.0733898 0.168099 0.227415
-0.0478307 0.300095 0.159928
0.000532757 -0.313739 0.223004
-0.0283557 0.264993 0.112789
-0.0105424 0.120837 0.244687
0.00220001 0.163088 0.478647
-0.00799568 0.291828 0.330186
-0.0159781 -0.214878 0.272855
-0.0227063 -0.288768 0.165994
0.0188692 0.184169 0.221873
-0.027185 0.193336 0.474788
-0.0081196 0.369987 0.279543
-0.0133816 0.185066 0.150041
0.000525436 0.0361256 0.358532
0.00372827 -0.459914 0.217077
-0.0148757 0.0704151 0.201972
-0.00480822 0.354501 0.0435879
-0.00793515 -0.371591 0.274002
-0.0496959 0.0833747 0.123121
-0.0008266 -0.236468 0.160187
0.00174965 0.402556 0.042018
-0.0190557 -0.124181 0.448228
-0.00584052 -0.351029 0.0544857
-0.00284322 -0.230821 0.203963
-0.0524019 0.0920072 0.202518
-0.0157353 -0.359924 0.0104084
-0.0123321 -0.375392 0.232594
-0.000120576 -0.279179 0.232757
-0.00252567 0.277816 0.23644
-0.0148833 0.340901 0.0218193
-0.0128545 0.278594 0.0114268
-0.0407667 0.318718 0.127673
0.0316855 -0.249719 0.336396
-0.0115808 0.409546 0.256091
0.00087457 0.199899 0.263584
0.0375748 -0.293811 0.204438
-0.0127806 -0.202964 0.0945204
-0.00706015 0.208003 0.102788
-0.0155512 -0.378967 0.0406892
0.0106032 0.300824 0.150733
-0.0164174 -0.0847019 0.432567
-0.0471192 -0.299041 0.17528
-0.110147 -0.2136 0.54803
0.000327032 0.457761 0.130727
-0.0158217 -0.165317 0.460636
-0.0240887 -0.218264 0.565674
0.0290745 0.0908612 0.173985
-0.0142038 -0.247498 0.03376
-0.00908693 0.256076 0.0804919
-0.0542816 0.0946749 0.157493
-0.0156784 0.443686 0.0916758
0.00177019 -0.288189 0.00588236
0.082292 -0.255847 0.546652
-0.0115045 0.226217 0.203541
0.00372827 -0.253399 0.307895
-0.0180568 -0.357576 0.309719
-0.00417523 0.313807 0.270501
-0.0136739 0.192258 0.237373
-0.0129395 -0.176288 0.133253
-0.0217299 0.0650263 0.169707
-0.0180568 -0.462748 0.190136
-0.00811139 0.444122 0.187963
0.000452113 -0.188757 0.452552
-0.00219368 -0.166062 0.342871
-0.0172723 -0.267755 0.149121
0.0280325 0.290458 0.201783
0.00151356 -0.434384 0.0773295
-0.0408517 0.0888514 0.219231
-0.00184754 -0.448711 0.256904
0.00443123 0.33416 0.154251
-0.0528343 0.0661249 0.191183
-0.0140244 -0.283474 0.321846
0.00362809 0.195192 0.38985
0.00174965 0.364389 0.311479
0.0211723 0.269918 0.252926
-0.0189715 -0.338215 0.126287
-0.00393112 0.0711581 0.347649
-0.0169751 -0.404867 0.0451908
0.0034206 -0.169507 0.203209
-0.0156784 0.229368 0.0425421
0.00847241 0.232134 0.472469
-0.0153498 0.357305 0.201641
-0.0055547 0.267951 0.291847
-0.0180568 -0.382784 0.300195
-0.00249689 -0.194423 0.116332
0.000433805 0.207907 0.287042
0.00107027 0.46778 0.207791
0.00359333 -0.23241 0.0375412
-0.01795 -0.329847 0.312808
-0.00743384 -0.194912 0.561637
0.0243017 -0.255657 0.304942
-0.0187432 0.336466 0.159362
-0.00259163 0.414793 0.0796795
-0.0148344 -0.184204 0.231035
-0.0125905 -0.441937 0.131169
0.000667948 0.105321 0.319138
0.00179874 -0.395504 0.287307
0.00372827 -0.435534 0.261863
0.00372827 -0.193712 0.257604
-0.00898067 -0.0596212 0.422073
-0.0115801 0.153132 0.364277
-0.0356263 0.224688 0.453326
-0.0501081 -0.278914 0.230636
-0.0110773 0.0738101 0.324911
-0.0156784 0.388755 0.0346039
-0.00139487 0.386246 0.202605
-0.0115161 -0.0976784 0.420389
-0.0116564 0.341572 0.32852
0.000987147 -0.356122 0.022269
-0.0157223 -0.313586 0.016026
-0.0056183 0.276306 0.0526497
-0.0180568 -0.431258 0.0665117
0.00142504 -0.176454 0.0815883
-0.00925366 0.142998 0.479685
-0.00427389 0.252898 0.446532
-0.0136739 0.44679 0.124223
0.0199026 -0.221366 0.552025
-0.00174743 0.00224778 0.383801
-0.00555293 -0.187378 0.198161
5.62174e-05 0.176699 0.0865517
-0.00289551 0.140911 0.30232
-0.0508999 0.307037 0.202838
-0.0135715 0.173007 0.190262
-0.0210207 -0.320043 0.190436
-0.0457429 0.0757688 0.156498
-0.00661841 -0.327114 0.0362272
-0.0394572 0.27543 0.253593
-0.00259163 0.354967 0.298894
-0.0156784 0.160698 0.165199
-0.0143847 0.440796 0.245557
-0.016642 0.129001 0.27739
0.00346 0.169288 0.458094
-0.0118144 0.395992 0.288011
-0.0156784 0.175408 0.101462
-0.00584642 0.164131 0.390013
0.00982013 0.150823 0.170856
-0.0390382 0.251083 0.192945
-0.0107223 -0.143608 0.323799
-0.0155512 -0.299035 0.293998
-0.0114491 -0.239507 0.0922935
-0.0156784 0.213941 0.0523802
-0.00259163 0.222203 0.261378
-0.0192374 0.0286937 0.362075
-0.00139277 0.349281 0.237582
0.00921207 -0.313941 0.152625
-0.0141878 0.17653 0.385265
-0.0101813 0.346451 0.0752472
-0.126497 -0.211896 0.554982
-0.0113709 -0.17362 0.508166
-0.00999624 -0.04665 0.391836
-0.00895999 -0.314918 0.150054
-0.0180568 -0.253505 0.302525
-0.0423531 -0.234693 0.322413
-0.0136739 0.297516 0.304102
-0.0368086 -0.256362 0.286819
-0.00438979 0.299722 0.0267758
-0.0250585 -0.236809 0.358259
-0.00307608 0.097076 0.194359
-0.0385377 0.251258 0.465437
0.00290073 0.277012 0.171882
0.00174965 0.242574 0.0319585
-0.0323808 0.306709 0.149619
-0.00892179 0.197479 0.456089
0.00202435 -0.205992 0.280532
0.00107995 -0.448703 0.102817
-0.0103309 -0.0609648 0.290336
0.00372827 -0.413619 0.0479832
-0.0131082 0.193101 0.273508
-0.00492161 -0.116446 0.325515
0.00174965 0.441626 0.0782808
-0.00237511 0.32267 0.090412
-0.0156784 0.407963 0.286493
-0.0180568 -0.15951 0.158514
-0.0691912 0.0177697 0.109266
0.0638244 -0.228367 0.547438
-0.0164164 0.30792 0.157452
-0.0180568 -0.457768 0.106332
0.0223972 0.21396 0.165689
-0.0490083 0.131354 0.191475
-0.00224632 0.206321 0.0722135
0.00372827 -0.462755 0.129335
-0.0471657 0.16641 0.211227
-0.0338257 0.203299 0.168254
-0.0155512 -0.38396 0.273456
-0.0161475 -0.204403 0.0642929
0.0158794 0.213895 0.454584
-0.0134125 0.156601 0.33484
0.0199292 0.123436 0.196464
-0.0101234 0.0392055 0.224579
-0.0106061 -0.085047 0.285357
-0.0128455 0.248542 0.315635
0.125189 -0.230119 0.559399
-0.0117991 -0.289698 0.00194809
-0.00535616 -0.313795 0.279472
-0.00021183 -0.441449 0.234239
-0.027147 0.114091 0.180149
0.00372827 -0.46632 0.194631
-0.0412612 0.0993207 0.140962
-0.0425305 0.293558 0.116553
-0.00133703 -0.232723 0.282928
-0.0016984 -0.274154 0.0290187
0.000245359 -0.12893 0.452102
-0.0185547 0.308552 0.194086
0.0144454 0.102064 0.204631
-0.0172579 -0.00892474 0.241432
-0.0274032 0.0738691 0.204546
0.000533937 0.303294 0.316728
-0.0217582 0.173008 0.408219
-0.00862697 -0.340499 0.280636
0.030807 -0.262672 0.25952
-0.11325 0.0174463 0.115093
-0.00486911 -0.162479 0.492652
-0.0151054 0.168051 0.22717
0.00907775 0.225767 0.334499
-0.00952867 -0.270296 0.256543
0.000684039 -0.460698 0.173517
0.0571405 0.189962 0.226015
-0.0159316 0.115421 0.304746
0.00174965 0.274163 0.313725
-0.0179614 -0.203534 0.372266
0.0359436 -0.324452 0.155156
-0.00278698 0.108678 0.166411
-0.0172337 -0.253004 0.174148
-0.00312452 0.176115 0.13247
-0.00952263 0.303226 0.0539752
-0.0187212 -0.351664 0.176477
0.00305712 -0.166598 0.185731
-0.0155512 -0.273437 0.288717
0.00174965 0.450876 0.0930518
-0.0408517 0.0348941 0.180856
-0.00318061 -0.361728 0.253725
0.00220944 -0.344193 0.218984
-0.044211 0.281711 0.162175
-0.00166174 0.395513 0.163478
-0.0144608 -0.157603 0.540062
0.0251642 0.2676 0.162337
-0.0167354 -0.430938 0.270364
-0.0153029 -0.449876 0.205151
0.00361491 -0.217246 0.0491252
-0.0136739 0.31801 0.0339969
0.0382302 0.168618 0.225138
0.000789807 0.462264 0.151452
-0.005188 0.081767 0.156993
-0.00136699 -0.35364 0.302528
-0.00247399 -0.375621 0.10342
-0.0155512 -0.177016 0.175147
-0.0156784 0.468827 0.190647
0.0320144 -0.230159 0.331909
-0.0151033 -0.160335 0.352937
-0.0155512 -0.433447 0.2328
-0.0703658 -0.215234 0.555673
-0.00522548 0.108946 0.254423
-0.0141767 0.057232 0.355813
-0.0156784 0.162289 0.129995
-0.00186952 -0.213906 0.354041
0.00599209 -0.340182 0.137434
-0.00175098 -0.0487171 0.277048
-0.0482965 0.125182 0.124434
-0.0114574 0.238605 0.061611
-0.00231191 -0.403344 0.177428
-0.0287774 0.153919 0.182113
-0.0346777 0.300587 0.181267
-0.0407154 0.177682 0.121212
-0.00259163 0.189302 0.211971
0.00383207 0.31591 0.167605
-0.0361487 0.107796 0.196474
-0.00499546 -0.226867 0.114047
-0.0436634 0.0707773 0.236216
-0.0122295 0.17945 0.478055
-0.0156784 0.427847 0.275021
-0.00340153 0.175115 0.20453
-0.00820343 0.40459 0.304646
0.000494834 -0.083358 0.425127
-0.00507866 -0.263121 0.00826911
-0.00359863 0.457579 0.170369
-0.0753168 0.0498361 0.148737
-0.0137224 0.381046 0.18045
-0.0151524 -0.187516 0.190973
-0.0087751 0.397356 0.233723
-0.00224491 -0.380508 0.210051
-0.0941129 -0.229667 0.559418
-0.0322291 0.312344 0.162702
-0.00225233 -0.20238 0.432257
0.0173207 0.0899416 0.15678
-0.0127806 -0.439088 0.095841
-0.017973 -0.320238 0.101352
0.0359335 -0.255003 0.287087
-0.0155512 -0.230205 0.0550571
0.0015469 -0.291312 0.211094
-0.0038374 -0.414511 0.263929
-0.0189714 -0.219822 0.548352
-0.0166253 -0.335046 0.00628577
0.000272692 0.229062 0.289858
-0.000274158 -0.151279 0.169652
-0.038609 -0.267674 0.270772
-0.0333158 0.221124 0.47209
-0.0016984 -0.205336 0.0819991
-0.00115865 0.464044 0.231376
0.00101775 0.285143 0.0129346
-0.0170129 -0.205253 0.40728
0.0553166 0.207317 0.220322
-0.012567 -0.380617 0.0142262
-0.00683905 0.218897 0.301436
-0.00258296 -0.265454 0.0920272
-0.0122253 0.255237 0.235669
-0.0586869 0.316435 0.155561
0.00412998 0.180723 0.408898
-0.0490083 0.118413 0.213306
-0.0136739 0.443328 0.144037
-0.0160546 -0.297829 0.231226
-0.00765194 0.339991 0.309344
-0.037357 -0.254723 0.3297
-0.0684188 0.0806326 0.178007
-0.00437288 -0.208604 0.158014
-0.0021435 0.474345 0.136127
-0.0149202 0.307104 0.10424
-0.0136739 0.183777 0.172912
-0.00161997 -0.234514 0.355897
-0.00413507 0.0211515 0.217657
-0.00138628 -0.313993 0.251347
-0.0100452 -0.326277 0.0517603
-0.0180568 -0.465332 0.151451
-0.0100707 -0.410712 0.0310856
-0.00259163 0.331272 0.0377024
0.1119 -0.227049 0.545682
-0.00148943 0.258828 0.113451
-0.0136739 0.436097 0.210875
-0.000348089 0.167059 0.159153
-0.00190924 0.232721 0.17933
-0.00051601 -0.34139 0.0812018
-0.00732943 0.188852 0.404743
-0.0150371 0.25629 0.466163
0.00372827 -0.28617 0.317206
-0.0451342 0.123046 0.163629
-0.00645392 0.0996782 0.233069
-0.0016984 -0.442263 0.194421
-0.0136739 0.400921 0.0589312
-0.00229699 -0.115258 0.433315
-0.00743449 -0.0397008 0.255739
-0.0016984 -0.354624 0.287647
0.00372827 -0.465032 0.150169
-0.0366998 -0.312018 0.153181
-0.00259163 0.421442 0.241925
-0.00887249 0.0539251 0.194129
-0.0151614 -0.35114 0.107052
-0.00259163 0.440208 0.229337
-0.0136739 0.19589 0.0914597
-0.00448168 -0.186475 0.136355
-0.0201363 0.154354 0.465282
-0.00236474 -0.15122 0.554808
-0.0155512 -0.29542 0.0297574
-0.012959 -0.23837 0.140383
0.000938661 -0.280101 0.112706
-0.00399622 0.39501 0.123506
-0.0225548 -0.310442 0.169369
-0.00301309 0.314642 0.247327
-0.00932554 0.0327751 0.347701
-0.00488164 0.213312 0.252782
0.0299142 0.310449 0.156252
-0.0121705 -0.24327 0.221055
0.0200058 0.284428 0.219102
-0.0152316 -0.188225 0.464409
-0.0489308 0.0415623 0.153029
-0.0114933 -0.263909 0.319019
-0.0026874 -0.389505 0.0418937
-0.0977761 0.0199108 0.119417
-0.0521965 0.104778 0.123398
-0.00343164 0.267585 0.032711
-0.0177349 -0.173663 0.469345
0.0194992 0.0627861 0.18331
0.00197718 0.355697 0.144467
-0.0865932 -0.249356 0.543888
-0.000974512 -0.175999 0.358836
-0.0442565 -0.24436 0.308463
0.00294706 -0.310135 0.116899
-0.00668631 -0.215437 0.251022
-0.0149814 0.30871 0.326063
-0.0142542 0.364545 0.119265
-0.0367885 0.327464 0.146146
-0.00259163 0.441246 0.108952
-0.0111332 0.304164 0.0763321
-0.00246004 -0.0304208 0.386013
-0.0145667 0.371519 0.0207114
-0.0175119 -0.365086 0.15862
-0.0100895 0.197125 0.436801
-0.0189694 0.112349 0.317365
-0.0103302 -0.307635 0.326728
-0.0396129 0.301691 0.137132
0.0783859 0.18398 0.23655
-0.0288034 0.0843679 0.156522
-0.0202403 0.184227 0.456117
0.0726057 -0.240279 0.539328
0.00424966 0.253603 0.469584
-0.0429899 0.102815 0.21532
-0.0177515 -0.277697 0.128698
0.071231 -0.213573 0.554365
-0.0016984 -0.421809 0.244725
-0.103514 0.0398939 0.110914
-0.00325586 0.146977 0.343011
-0.00229892 0.0841417 0.208471
-0.0526508 0.0596701 0.15936
-0.0754263 -0.233337 0.539878
-0.00791356 0.342752 0.28252
-0.128834 -0.245323 0.543587
-0.00160562 0.0843828 0.337986
0.00372827 -0.252007 0.0220846
-0.00259163 0.221965 0.0668934
0.000265369 0.315137 0.225687
-0.00658676 0.201595 0.0497084
-0.0169132 0.329487 0.121861
-0.0216764 0.181868 0.419505
-0.0701334 -0.242459 0.552363
0.00669943 -0.3311 0.155242
-0.0156784 0.186595 0.253327
0.00249262 -0.1796 0.0991322
-0.00667126 -0.432141 0.122778
-0.0042263 -0.349398 0.32316
-0.00814531 -0.469797 0.21367
-0.00812306 -0.1551 0.125617
0.000890935 0.338279 0.219011
-0.102699 0.00661476 0.121341
-0.00259163 0.385828 0.0492549
-0.0276102 0.282561 0.10798
0.0125005 -0.237316 0.351889
-0.0100659 0.356874 0.261534
-0.0116573 -0.204173 0.389361
-0.00885261 0.0944531 0.313429
0.00212893 -0.257878 0.158913
-0.0187305 -0.143922 0.453455
-0.0366129 0.242322 0.298422
-0.00106077 0.106825 0.20065
-0.0155512 -0.42003 0.0813215
-0.0314969 0.219658 0.338142
-0.0170851 0.135422 0.297902
0.0136713 0.257714 0.271062
0.00174965 0.348753 0.0186786
-0.0522256 0.0934524 0.181509
-0.0168705 0.0750547 0.185502
-0.0123237 0.29636 0.241296
0.0314234 -0.27946 0.213909
-0.0102385 -0.468665 0.110349
-0.0016984 -0.393207 0.0587322
0.0035698 -0.356323 0.168275
0.000368765 0.108711 0.18628
-0.0152429 -0.315518 0.0330288
-0.0136739 0.409667 0.0702632
-0.0155802 -0.175322 0.241975
-0.0173876 -0.228548 0.0310092
0.03272 -0.283185 0.247346
-0.0210807 0.194882 0.378765
-0.0180568 -0.440639 0.251734
-0.0401194 0.26952 0.127117
0.00295668 -0.307404 0.014242
0.0231366 -0.244963 0.319885
-0.0156784 0.324571 0.0157735
-0.0099346 0.454809 0.0852224
-0.0153449 -0.032758 0.404753
-0.0016984 -0.204484 0.233382
-0.00259163 0.387892 0.27648
-0.0136739 0.259261 0.295752
-0.0177645 -0.091532 0.302606
-0.0157947 -0.182364 0.253918
0.00160365 0.275613 0.192922
-0.000446419 -0.420881 0.0644244
-0.00121439 -0.212275 0.404869
-0.00189029 -0.158411 0.530234
-0.0408517 0.105536 0.164543
0.000639016 -0.350543 0.00598673
0.000358691 -0.167721 0.468347
0.017588 0.232345 0.166815
-0.0198806 -0.340692 0.14513
0.00247936 0.337272 0.134271
-0.00396146 -0.237928 0.267613
-0.0465478 0.133816 0.145854
-0.0186697 -0.0729028 0.413832
-0.0765089 -0.220573 0.539408
0.000162367 0.166492 0.17663
0.0366054 -0.294035 0.187211
-0.0148388 -0.443844 0.163943
-0.0093839 0.0541648 0.214759
-0.0203293 0.0864139 0.20865
0.0926354 -0.231767 0.557933
-0.0156784 0.324549 0.320453
-0.000897262 -0.137382 0.332963
-0.0134002 0.273998 0.106015
0.0074606 0.202696 0.372799
-0.0476202 0.0328779 0.163503
-0.0180568 -0.402989 0.289919
-0.0233636 0.0617445 0.183556
-0.00815743 0.318271 0.160319
-0.0198019 -0.216344 0.351549
-0.00259163 0.438888 0.126054
-0.00685874 0.128132 0.263542
0.0164104 0.239405 0.442758
-0.0490083 0.0522094 0.207808
0.0589359 0.17573 0.225547
-0.0136739 0.424038 0.0842805
-0.0107986 -0.15179 0.473289
-0.0134635 0.244623 0.195118
-0.0129893 -0.334558 0.0227796
0.00163438 0.190381 0.253374
0.001715 0.415559 0.0575321
-0.0490083 0.0719459 0.139899
-0.0128203 0.460987 0.101732
0.000213888 0.287912 0.216965
-0.132109 0.0189984 0.117546
-0.00494813 -0.444744 0.0650329
-0.00562646 -0.155846 0.205567
-0.0136739 0.187367 0.22579
0.00174965 0.163346 0.140891
-0.0115132 0.381851 0.221145
-0.00989868 -0.0168525 0.375278
-0.00355748 0.2189 0.474246
-0.0016984 -0.309173 0.0270969
-0.00801392 0.286022 0.28972
0.0172833 0.317748 0.1553
-0.0139743 0.267541 0.219928
0.00141611 0.257342 0.306835
-0.00119551 0.182736 0.104481
-0.00421954 -0.100953 0.297728
-0.00446902 -0.184201 0.215803
-0.00292101 0.204022 0.236613
-0.0125824 -0.413421 0.156011
-0.00084735 0.143674 0.461358
-0.0475531 -0.291795 0.214532
-0.0128473 0.406363 0.0359438
-0.0420556 0.0805138 0.19668
-0.0156784 0.265217 0.0246014
-0.0136739 0.251202 0.0453159
-0.00290837 0.149962 0.324384
-0.0155512 -0.190293 0.211026
-0.000901679 -0.372443 0.0306451
-0.0180455 -0.0226408 0.254089
-0.0180568 -0.168332 0.113264
-0.0180568 -0.238714 0.293623
0.00372827 -0.181706 0.244953
-0.0111169 0.427631 0.256583
-0.01069 0.0207861 0.377394
0.000368478 0.0175923 0.365438
-0.142833 -0.230046 0.549478
-0.0130889 -0.164122 0.226237
0.00484574 -0.336417 0.201142
-0.0122745 -0.226888 0.560257
-0.0127356 -0.292135 0.252943
-0.0188397 -0.109673 0.435147
-0.0189795 -0.321646 0.141354
-0.0170849 -0.410465 0.277102
-0.012925 0.214593 0.0853979
0.00347351 -0.211587 0.561701
0.00383207 0.315697 0.143053
-0.0051911 -0.175358 0.15163
0.0303017 0.30228 0.191688
-0.00352712 -0.102007 0.314655
0.0992268 -0.247861 0.544382
-0.0253452 -0.310363 0.158138
-0.0136739 0.366897 0.0388914
-0.0653841 0.0460774 0.139646
-0.00789475 -0.237089 0.307587
-0.0156784 0.161063 0.20172
-0.12391 -0.226591 0.544652
0.000472618 -0.214237 0.382511
-0.0180568 -0.187048 0.0767927
-0.0183565 0.0777783 0.338949
0.039423 0.189791 0.224082
-0.0171939 -0.128563 0.328798
-0.0016984 -0.245891 0.0493682
-0.00507423 -0.290471 0.0220734
-0.0016984 -0.30226 0.300099
-0.0224292 0.240976 0.442986
-0.000801282 0.3688 0.194614
0.0096509 -0.30528 0.167023
-0.0116954 -0.330783 0.326276
-0.0146876 -0.18891 0.0959765
-0.00599249 -0.363011 0.319433
-0.0106315 0.186746 0.131485
0.0360513 -0.276594 0.266435
0.00185966 -0.166319 0.160019
-0.0180568 -0.163518 0.13787
0.0311467 -0.267917 0.299476
-0.014355 -0.0445272 0.412262
0.00311274 -0.269248 0.137884
-0.00880943 0.353268 0.0576515
-0.0136739 0.395588 0.272697
-0.0140035 -0.362486 0.218921
-0.0067826 -0.26291 0.273691
-0.0120162 0.383513 0.295687
-0.0150539 0.127103 0.478253
-0.00662408 -0.477333 0.148692
-0.0456935 -0.271296 0.28454
-0.00259163 0.251351 0.285282
-0.00530977 -0.00292093 0.232518
0.0536442 -0.21885 0.561521
-0.0480773 0.0875822 0.233497
-0.0069636 0.338495 0.00679109
-0.0147245 -0.261058 0.045748
-0.0166431 -0.271904 0.306109
-0.00124926 0.424325 0.07279
0.0113835 0.170811 0.167216
-0.0408517 0.0590915 0.170139
-0.00599724 0.234867 0.274413
-0.0156784 0.456237 0.231451
-0.0155512 -0.315712 0.297533
-0.0461768 -0.302873 0.193797
-0.0451933 0.0704769 0.206842
0.0653737 0.204009 0.234273
-0.0499072 -0.314479 0.166872
-0.0177989 0.102018 0.187593
-0.0016984 -0.387373 0.272239
-0.00125821 -0.24658 0.194734
-0.00261368 -0.261364 0.229279
-0.000923812 0.0737198 0.194565
-0.00480822 0.308444 0.297876
0.000240931 -0.171705 0.130685
-0.0143683 -0.448038 0.222108
-0.0119202 -0.209512 0.288831
0.00372827 -0.200616 0.0562886
0.0311783 -0.286113 0.22868
-0.0492619 -0.272679 0.244655
-0.0136739 0.430579 0.107083
-0.00334707 0.283436 0.0773311
0.0319701 0.118472 0.193206
0.00174965 0.464573 0.189815
-0.00259163 0.370981 0.0504352
-0.00538859 -0.373031 0.290302
-0.00458824 -0.453276 0.140793
-0.00446902 -0.368215 0.0434087
0.0296432 0.16099 0.218424
-0.0144607 -0.181621 0.553244
0.00383045 0.28414 0.15541
0.13016 -0.223882 0.5446
0.000492331 -0.458057 0.237777
-0.0323189 0.307496 0.11909
-0.00304835 -0.346424 0.0374298
-0.0024509 0.0202241 0.23324
-0.0136598 -0.263845 0.027336
-0.00705987 -0.261083 0.291975
-0.0289225 0.273688 0.0972731
-0.0119614 0.170512 0.149423
-0.0156784 0.462856 0.137101
-0.00259163 0.446869 0.159284
0.000129379 0.259897 0.175729
-0.00259163 0.448365 0.209402
-0.0430821 0.315465 0.162797
-0.0398828 0.0675415 0.190137
0.00129144 0.343667 0.323107
-0.00491873 0.241521 0.471154
0.0297243 -0.312759 0.151301
-0.0408517 0.129582 0.202997
-0.0401331 -0.235379 0.340175
-0.111318 -0.00183128 0.114166
-0.0462231 0.0487427 0.225043
0.000372233 -0.0560114 0.406362
0.0208911 0.233675 0.458222
-0.0146309 -0.289535 0.307564
-0.0183147 0.29948 0.145554
0.0263803 0.0786765 0.1813
0.00107875 -0.424687 0.280722
-0.0165463 0.329028 0.198429
-0.0832752 0.0155787 0.11051
-0.00376614 0.0785258 0.176843
-0.0143047 0.441884 0.262873
-0.0155512 -0.203096 0.242994
-0.0110107 -0.446011 0.180741
-0.0016984 -0.291473 0.0325109
-0.00103229 -0.211027 0.26555
-0.0180568 -0.421941 0.0513042
0.0094189 0.258431 0.454835
-0.0180464 -0.0473951 0.270345
-0.0144414 -0.0615537 0.401626
-0.0181018 0.319248 0.142721
0.0250127 0.0768316 0.164135
-0.0155512 -0.276483 0.0380457
-0.0529447 -0.224164 0.559425
-0.0338069 -0.244577 0.348223
0.00432774 0.141837 0.181124
-0.0047986 -0.431614 0.103367
-0.00391088 -0.288839 0.289608
-0.0190658 -0.269411 0.169259
-0.00716881 0.366633 0.297206
-0.0136739 0.350052 0.298802
-0.00941855 0.421287 0.0449319
-0.017156 0.165325 0.376299
-0.0154896 0.440837 0.0749409
-0.0124052 0.0437509 0.364057
-0.00594028 0.195976 0.476649
0.0211291 0.134958 0.204901
-0.0152035 -0.373291 0.0287805
-0.0149287 -0.456754 0.127514
-0.0118634 0.207256 0.265918
-0.0535616 0.0831678 0.169484
-0.0239509 0.165529 0.175003
-0.00539705 -0.152487 0.451571
-0.120547 -0.226871 0.560341
0.000283357 0.0896932 0.32481
-0.0155512 -0.206968 0.0785028
-0.0038109 -0.186542 0.17858
-0.0119933 -0.072696 0.277748
-0.0130154 -0.377299 0.313507
-0.00365562 0.248677 0.0562207
0.00174965 0.19148 0.0756773
-0.0204773 0.213281 0.475
0.00692239 -0.306975 0.140714
-0.0145549 0.287557 0.0222891
-0.00741597 0.262563 0.323311
-0.0181687 -0.358763 0.133773
-0.0278174 -0.318599 0.145861
-0.00297086 0.404725 0.276563
0.03295 -0.260052 0.314772
-0.0523915 0.0361594 0.192502
-0.0480867 0.0878984 0.138686
-0.014105 -0.304723 0.308983
-0.0649069 -0.227164 0.548869
-0.00796314 0.404697 0.0828993
0.00578188 0.19151 0.455415
-0.0156784 0.352257 0.316924
-0.11033 0.0329024 0.119444
-0.00259163 0.180151 0.161432
-0.000813031 -0.248853 0.293115
-0.0155351 -0.335799 0.291965
0.00053219 -0.0979915 0.433011
0.00968663 -0.226903 0.560226
-0.000757454 0.0536028 0.353375
-0.0168576 -0.171476 0.488123
-0.0180568 -0.265971 0.0167988
-0.0140037 -0.459681 0.166182
-0.0141021 -0.210189 0.557713
-0.0875071 0.0369209 0.108455
-0.0186094 0.344436 0.172534
-0.0180568 -0.298715 0.0133844
-0.00203938 0.288199 0.31066
-0.00253642 -0.160362 0.21832
-8.97283e-05 -0.364455 0.115401
-0.0486105 -0.278255 0.213497
-0.00258772 -0.190972 0.0901995
-0.0433453 0.102283 0.185812
-0.0155512 -0.189129 0.119744
-0.000143314 -0.16553 0.517043
-0.0098748 0.315732 0.311674
-0.0124552 -0.133748 0.462666
-0.000250332 0.158526 0.209311
-0.0157783 -0.00477563 0.38878
-0.00981447 -0.176069 0.457495
0.0866635 -0.240493 0.550113
-0.0332766 -0.247545 0.317011
-0.0155512 -0.227984 0.262677
-0.00279405 0.183471 0.266754
-0.00544394 -0.210693 0.368852
-0.00647727 -0.303509 1.89733e-05
-0.0155512 -0.363995 0.284362
-0.0121721 -0.226305 0.178327
-0.00700335 0.428504 0.222055
0.000184922 -0.0146161 0.388982
-0.0323189 0.312878 0.136649
-0.0148071 0.238852 0.0294152
-0.0525388 0.066766 0.224178
-0.00458108 0.0677287 0.186634
0.141423 -0.229734 0.559223
0.00372827 -0.192499 0.071526
-0.0155951 0.306813 0.0184895
0.0217751 -0.239946 0.337972
-0.00251387 -0.410409 0.249723
0.0265326 0.103973 0.19223
-0.0412176 0.21729 0.174233
-0.00315497 0.236077 0.222435
-0.0119861 0.0031421 0.247757
-0.0155512 -0.22631 0.0648124
-0.0534059 0.307264 0.188192
0.00104998 -0.373545 0.0139519
-0.00170275 0.0634582 0.334589
-0.0391101 0.320541 0.179989
-0.0184992 0.218343 0.448474
-0.00506503 0.374325 0.320222
-0.014264 -0.343832 0.302591
-0.00426393 0.181144 0.396922
-0.00811656 0.190996 0.416161
-0.00259163 0.194907 0.110135
-0.00423226 -0.202155 0.044141
-0.01408 -0.0967125 0.441397
-0.0408517 0.0897127 0.164867
0.000818929 -0.450763 0.0775211
-0.0308388 0.191471 0.178583
-0.00259163 0.443588 0.174618
0.00174965 0.391105 0.0320856
-0.0157143 -0.218503 0.363223
0.00174965 0.311188 0.0182298
-0.0016984 -0.426771 0.228677
-0.00333361 -0.193268 0.273523
0.0188623 0.170059 0.214356
-0.0456834 0.0595218 0.194893
-0.0188175 0.00763057 0.376561
-0.0412419 0.242243 0.164428
-0.0218933 -0.345414 0.160886
-0.0056141 -0.476141 0.185956
-0.0073827 -0.229942 0.023461
-0.00319839 0.243963 0.0993177
-0.00985782 -0.351214 0.0281008
-0.0106955 0.469215 0.219882
-0.019526 0.321973 0.184691
0.00122026 0.242417 0.308899
0.0352365 0.0957928 0.186381
-0.00166052 -0.187545 0.467606
0.00261016 -0.410624 0.27674
-0.0225704 -0.332547 0.18108
-0.00219847 -0.455578 0.187284
-0.0536578 0.292447 0.166978
0.055324 0.169831 0.237239
-0.0479345 0.139969 0.180364
0.0700429 0.191512 0.230407
-0.00210671 0.126094 0.299388
-0.0137903 -0.243676 0.0550835
-0.0574787 0.0827206 0.187652
-0.0111242 -0.137231 0.4422
-0.0130611 0.20917 0.0656296
-0.0016984 -0.263589 0.0388534
-0.038096 0.240912 0.450334
-0.0136739 0.199298 0.250023
-0.00617499 -0.155479 0.332289
-0.00480822 0.420454 0.093724
0.00372827 -0.430215 0.0595216
-0.0123165 0.140718 0.333231
-0.0171211 0.110068 0.16836
0.00410819 -0.314547 0.197582
0.000456503 -0.223679 0.365881
-0.0138571 0.461768 0.177794
-0.0146909 0.157405 0.189895
-0.0409321 0.124665 0.189421
-0.0103757 0.356565 0.326588
-0.00259163 0.223674 0.273551
-0.00648334 -0.190464 0.421851
-0.0656347 0.0209078 0.124367
0.00038438 0.380302 0.164251
-0.00595458 0.150861 0.167887
-0.0136739 0.353914 0.033512
-0.0171136 0.116289 0.257087
-0.0155512 -0.417368 0.0664358
-0.0961866 -0.226723 0.545796
-0.0394917 0.093246 0.204072
-0.0130827 0.413393 0.269248
-0.00896235 -0.162298 0.479128
-0.00107505 -0.273401 0.321999
-0.0136739 0.265196 0.0452057
-0.0158307 -0.289075 0.217796
-0.00323911 -0.323948 0.021059
-0.0010432 -0.247592 0.03496
-0.0119566 -0.386582 0.287205
-0.00456875 -0.39599 0.219988
-0.0418491 0.236585 0.191698
-0.0221309 0.298707 0.163361
0.0148447 -0.320396 0.163166
-0.023493 0.258333 0.453814
-0.0151576 0.42403 0.0670512
0.0693546 -0.249745 0.54663
-0.0107646 0.214894 0.0383508
-0.0136739 0.183208 0.192927
0.071478 0.175826 0.237068
-0.0021675 0.241948 0.0431938
-0.0155512 -0.399843 0.265252
-0.00188095 0.11618 0.305119
-0.0333461 -0.219955 0.551587
-0.00617659 0.281774 0.0313184
-0.0180568 -0.391207 0.0342259
0.00403648 -0.284377 0.198896
-0.0478097 -0.317036 0.145444
-0.0136739 0.182743 0.210923
-0.107533 -0.220018 0.562726
2.92482e-05 -0.166708 0.094233
-0.00904766 -0.445027 0.111983
-0.014418 0.450727 0.110137
-0.00259163 0.394675 0.0601048
-0.0156784 0.292921 0.317538
-0.0016984 -0.44949 0.125853
-0.000821659 -0.0654349 0.280532
-0.0132381 -0.215911 0.0570145
-0.00504508 0.17089 0.413323
-0.0495803 0.179004 0.203853
0.00213692 -0.299666 0.32246
-0.00581669 -0.195595 0.22111
-0.0126019 0.378339 0.107624
-0.0189795 -0.324094 0.155369
-0.0323189 0.281146 0.121512
-0.0209028 -0.304608 0.182736
-0.00902201 -0.0142201 0.25965
0.00372827 -0.277822 0.016236
-0.00316268 -0.355373 0.240494
-0.0155512 -0.442958 0.191346
-0.00690469 -0.410319 0.0607853
0.00174965 0.437681 0.256946
-0.0213739 0.306896 0.173253
-0.0537878 0.107488 0.179232
-0.00659278 -0.1739 0.193611
-0.00187753 0.312218 0.331682
-0.0126632 -0.184488 0.148102
-0.0134041 -0.420468 0.237905
-0.0408517 0.100009 0.151918
-0.0136739 0.223157 0.0659201
-0.0155512 -0.451954 0.143773
-0.00296554 0.437274 0.0967498
-0.0917907 0.00536638 0.11281
-0.0100725 -0.397814 0.0231425
-0.0117343 0.266224 0.0940043
-0.0136739 0.224751 0.266691
-0.0408517 0.0612884 0.139279
0.128891 -0.215246 0.555074
-0.0114575 0.281567 0.304818
-0.00402125 0.181245 0.456404
-0.0314131 0.209179 0.464496
-0.00259163 0.201264 0.0858958
-0.00160069 0.378067 0.299331
-0.0278174 -0.308248 0.143327
0.0122915 0.197675 0.163893
-0.0422905 0.0650802 0.153599
0.0198637 0.102558 0.162189
-0.0154697 0.114014 0.185332
-0.00172314 -0.190102 0.236264
0.000404388 -0.221526 0.276648
-0.017632 0.0492357 0.204106
-0.0128304 0.344083 0.0422242
-0.0164164 0.32517 0.166112
-0.0020831 -0.176891 0.49509
-0.00963928 -0.210453 0.418191
-0.00282122 0.310172 0.0381467
-0.0457429 0.0554366 0.179368
-9.62596e-05 -0.153049 0.185532
-0.00148755 0.164131 0.37368
-0.00303769 -0.448781 0.211233
0.00457528 0.332126 0.175429
-0.017136 0.0905209 0.18892
-0.0113325 0.170288 0.174638
-0.0103675 0.384879 0.0206561
-0.0104994 0.420504 0.292331
-0.0136739 0.334169 0.0339765
-0.00265853 0.186636 0.141656
-0.0155512 -0.352448 0.289027
-0.0457738 0.0706551 0.126502
-0.00853013 -0.318739 0.306848
-0.00291003 0.185235 0.232015
-0.0118589 -0.364186 0.297825
-0.0195092 0.167666 0.478489
-0.0141176 -0.230954 0.278695
-0.0179971 -0.164099 0.521842
-0.0120644 -0.442926 0.264222
0.00372827 -0.399633 0.0367384
-0.00519606 0.18507 0.196187
-0.0164795 -0.254822 0.144352
0.00585225 0.314742 0.181418
-0.0222978 0.18669 0.408453
0.00229947 -0.221757 0.293392
-0.0114718 -0.170835 0.164062
-0.0122223 -0.432334 0.0811319
-0.0174056 0.0276225 0.225833
-0.0068789 -0.199261 0.360724
-0.0156784 0.169681 0.118418
-0.00971205 0.168411 0.402467
-0.0127906 0.0127699 0.359557
-0.0415147 0.10588 0.129832
-0.000215781 0.461048 0.102868
-0.0053069 0.0992649 0.332823
-0.0424568 -0.282475 0.24139
-0.0461499 0.140134 0.202964
0.0150755 0.0654365 0.195957
-0.00213416 0.0866599 0.190612
-0.0408517 0.114363 0.171991
-0.0151513 0.176343 0.244486
-0.0474009 0.30016 0.214077
-0.0112837 -0.251161 0.314253
-0.00749667 -0.383237 0.0502114
-0.0227076 -0.322574 0.169411
-0.00407435 0.355402 0.249435
0.0148447 -0.327057 0.150395
-0.0381064 0.297144 0.163457
-0.012268 0.123655 0.291575
-0.0114255 -0.234976 0.0435643
-0.0116509 0.114598 0.270031
0.00447294 0.301784 0.174326
-0.0408517 0.0873735 0.129529
-0.00220369 -0.311577 0.292412
-0.0127807 -0.431634 0.220549
-0.00237674 -0.173345 0.175393
0.00271411 0.296687 0.199782
-0.00769565 -0.433437 0.155276
0.0886685 -0.220911 0.563513
-0.03677 0.331796 0.158169
-0.0246295 0.104751 0.202713
-0.0133516 0.443679 0.166604
-0.00118278 -0.454402 0.199778
-0.0245428 0.179301 0.472733
0.00190932 -0.396554 0.300096
-0.0136739 0.186999 0.107303
-0.0122324 0.177663 0.0813572
-0.0119363 -0.400153 0.278377
0.0850685 0.187256 0.227061
-0.00321179 0.43813 0.202857
-0.0175069 0.125239 0.314295
-0.0406636 0.308958 0.171793
-0.0131375 0.394214 0.182232
-0.0150472 -0.185099 0.164693
0.0175877 0.112604 0.189881
0.112756 -0.215026 0.551495
-0.00757829 -0.204671 0.25595
-0.0179421 -0.0613758 0.278816
-0.0155512 -0.429964 0.244342
-0.04493 0.282688 0.243989
-0.00149133 0.0968622 0.209327
-0.0266209 -0.210311 0.555433
-0.0180568 -0.314682 0.318657
-0.00241271 0.131698 0.479723
0.00174965 0.456571 0.216587
-0.00430907 0.325809 0.311586
-0.00862768 0.338566 0.270042
0.00778213 0.0794155 0.157644
0.00493809 0.320858 0.15512
0.0168398 0.24978 0.470098
-0.0016984 -0.191946 0.209219
-0.00390764 0.156052 0.125631
-0.015634 0.14903 0.346958
0.00174965 0.166394 0.196509
0.0012246 0.356974 0.18928
0.00174965 0.470473 0.161915
0.0267385 -0.261845 0.280718
0.0307837 0.17488 0.216868
0.0273858 0.255741 0.155494
-0.00311407 0.160424 0.223414
-0.0145425 -0.193394 0.0573852
-0.0135243 -0.342849 0.0361505
-0.0326495 -0.236841 0.330916
-0.00480822 0.323761 0.0266198
-0.00850459 -0.0745406 0.430364
-0.00357753 -0.302063 0.059087
-0.0153544 0.10518 0.240884
-0.01492 -0.154209 0.147018
-0.00572482 -0.18195 0.126211
-0.0156464 0.461204 0.114004
-0.00298183 0.136158 0.29031
-0.0177258 -0.0849794 0.418634
-0.0136087 0.30655 0.0888829
-0.0377537 0.281945 0.13015
-0.0129968 0.197908 0.0794324
-0.0016984 -0.251678 0.277764
-0.0216677 0.0739445 0.160284
-0.0185298 -0.341632 0.193182
-0.0179195 -0.0328415 0.263029
-0.10753 -0.230705 0.550631
-0.011359 -0.148383 0.347499
0.0327081 0.27856 0.156965
-0.0440775 -0.322366 0.160156
-0.0441052 0.313515 0.151031
0.00237321 -0.473002 0.160212
-0.142391 -0.214247 0.544607
-0.00272094 -0.196613 0.246175
0.0042874 0.332186 0.188301
-0.0148008 -0.123055 0.436153
-0.0403676 0.165601 0.120622
-0.0148362 0.459851 0.199767
-0.00562156 0.174777 0.181971
-0.0118249 0.390934 0.31144
-0.0443042 0.190681 0.203892
-0.0136739 0.325716 0.304552
-0.0158407 -0.29474 0.106395
-0.00285569 0.184509 0.17888
-0.0117994 0.207577 0.290756
-0.0429244 -0.258535 0.317423
-0.00239603 0.449889 0.119572
-0.00985903 0.45634 0.187504
-0.0156784 0.227565 0.295226
0.00372827 -0.341642 0.0146347
-0.0149519 0.077072 0.173078
-0.0438139 0.267806 0.162287
0.0849649 -0.241752 0.539086
0.0142433 0.206862 0.465027
-0.00284984 0.230685 0.0509446
0.000276821 -0.408376 0.295775
-0.0136739 0.239189 0.281205
-0.047523 -0.275652 0.26654
-0.0355812 0.317645 0.153757
0.00505284 0.303781 0.161817
-0.0146919 -0.128929 0.316381
0.0372151 -0.263025 0.273697
-0.0016984 -0.342581 0.296375
-0.00701037 0.344384 0.0317407
0.0333995 -0.314056 0.163198
0.00995191 0.24191 0.299757
-0.0495038 -0.308725 0.157202
-0.0135395 0.395241 0.0452419
0.00416388 -0.313712 0.210895
0.0739775 -0.238784 0.551312
-0.010221 0.0810829 0.197088
-0.0490083 0.051058 0.144718
-0.00301619 0.365295 0.0343444
-0.0170422 -0.0801161 0.297309
-0.0139805 -0.361658 0.0287814
-0.00819356 0.476431 0.147383
-0.0136739 0.418043 0.247077
0.00803616 -0.292118 0.160849
-0.00798678 0.105975 0.307026
-0.0182085 -0.0372459 0.393086
-0.0744976 0.0621898 0.150765
-0.0291554 0.228126 0.443147
-0.0015541 0.112578 0.241834
0.0434882 -0.314917 0.156642
-0.00157612 0.044868 0.34511
0.0244521 0.0916076 0.204444
-0.0143715 -0.154528 0.553565
-0.00905506 0.164814 0.100889
-0.050197 0.0976316 0.147045
-0.00775959 -0.425554 0.253802
-0.0159708 0.337401 0.217174
-0.00309248 -0.274836 0.00443546
-0.00812656 0.233016 0.262119
-0.0109671 0.245565 0.0196168
-0.00206139 -0.212014 0.0621608
-0.0443267 0.3118 0.118287
-0.0284132 0.065208 0.195631
-0.0633615 -0.234944 0.542528
0.0328856 -0.246639 0.295781
-0.0047937 -0.457624 0.156078
-0.0377872 0.235789 0.461659
-0.00532614 0.474569 0.199605
-0.0443267 0.314914 0.138486
0.00886356 0.0623257 0.176959
-0.00332677 -0.237571 0.120052
0.0139272 0.251411 0.444499
0.00190339 0.207872 0.475613
-0.0454198 -0.25033 0.297682
0.00174965 0.26499 0.0209786
-0.0133154 0.160296 0.21383
0.0368 -0.268251 0.250267
-0.00532549 -0.0387295 0.40951
-0.000741357 0.254113 0.0343881
-0.0114768 0.225744 0.0315378
-0.00987265 0.0977633 0.158125
-0.0016984 -0.400514 0.271169
-0.0155512 -0.285394 0.29169
-0.0107811 0.471089 0.121559
-0.0408517 0.0463819 0.205308
-0.00411595 -0.280804 0.0373382
-0.0088197 0.335391 0.298061
-0.0193502 0.296365 0.185276
-0.015998 -0.197004 0.417842
-0.0524386 0.11463 0.227643
-0.00505519 0.194389 0.223968
-0.0169283 0.14308 0.461893
-0.00259163 0.405576 0.266504
-6.13951e-06 0.398291 0.290027
-0.0180568 -0.346521 0.0101203
-0.00990626 0.456611 0.150061
-0.00774759 0.0106157 0.222572
0.000487966 0.280538 0.324018
-0.0172696 0.200369 0.476275
0.000101341 0.228632 0.303584
0.00236529 0.141019 0.472739
-0.00114377 -0.0279688 0.399483
0.00860041 -0.231728 0.361992
-0.01157 0.111327 0.326862
-0.00448466 0.178944 0.120829
-0.00320309 0.25502 0.458338
-0.0490083 0.0967654 0.131462
0.113985 -0.226635 0.562094
-0.0011876 0.0453573 0.214128
-0.0307717 0.221795 0.116798
-0.00975164 0.161877 0.344991
-0.0454654 -0.266208 0.294658
-0.00141991 0.15541 0.351355
-0.0158069 0.0451576 0.343667
-0.00810076 0.430244 0.284011
-8.41348e-05 0.208645 0.271742
-0.0133115 0.0606131 0.333194
0.00761084 -0.32513 0.178042
-0.0850548 -0.229857 0.548915
-0.0448657 0.135137 0.122055
-0.0129021 0.434262 0.122126
0.00372827 -0.425734 0.269109
-0.0114574 0.37757 0.0423292
-0.0419929 0.295568 0.128316
0.0343231 -0.218669 0.562533
0.00641664 0.229213 0.442556
-0.0155512 -0.441484 0.106404
-0.0234869 0.308759 0.150983
-0.0176329 -0.228354 0.354334
-0.0163005 0.190093 0.425143
-0.0370621 0.207167 0.177173
-0.0128907 -0.296067 0.325516
-0.0124682 0.155103 0.141636
-0.0117031 0.17191 0.16544
0.00474062 0.292224 0.181396
-0.0169275 -0.430008 0.256904
0.00174965 0.3534 0.316334
0.00205274 -0.292627 0.0168771
-0.00259163 0.446235 0.146257
-0.0136051 0.228575 0.0548029
-0.0180568 -0.384707 0.0239034
-0.019635 0.323657 0.156
-0.0167955 0.178442 0.39893
-0.0113412 -0.150846 0.165443
0.0653728 -0.227355 0.563699
-0.000819142 -0.152671 0.34247
0.00174965 0.203875 0.0613384
-0.0155512 -0.18578 0.136691
-0.0168403 -0.447468 0.0779709
-0.0430453 0.115677 0.129749
-0.0180568 -0.163341 0.178487
0.0420057 0.180009 0.22686
-0.0447263 0.126237 0.220212
0.0489663 0.202656 0.230275
-0.00446902 -0.4439 0.221598
-0.0117997 -0.216374 0.261905
-0.122814 -0.000223836 0.112032
-0.00628317 -0.0705193 0.295959
0.00174965 0.452816 0.233538
-0.00259163 0.366934 0.289003
0.00961993 0.214983 0.339234
-0.0120215 -0.186283 0.108863
-0.0763269 0.041684 0.137875
-0.00287501 0.131532 0.279492
-0.0445274 -0.244566 0.328421
0.0400561 0.186698 0.234297
-0.0177528 -0.115087 0.318149
-0.0381064 0.299842 0.149079
-0.0151301 -0.182752 0.449425
-0.0156784 0.196729 0.262457
0.000314949 0.248396 0.178119
-0.0010297 0.414483 0.295782
-3.3602e-05 -0.169306 0.505931
-0.0140051 -0.167684 0.550987
-0.0562214 0.303618 0.164026
-0.0135352 -0.424137 0.282656
-0.0156784 0.205301 0.27997
0.00285454 0.345506 0.150072
-0.0482141 -0.267365 0.254371
0.000492668 -0.26306 0.316934
0.00708364 0.0775713 0.206543
-0.0155512 -0.279579 0.0268528
-0.0155022 -0.102591 0.299904
0.001053 0.365521 0.138361
-0.0136739 0.198503 0.103568
-0.00879565 0.187801 0.44358
-0.00457234 -0.172547 0.141097
-0.0223135 -0.293504 0.179809
-0.0171606 -0.161926 0.341667
-0.00424456 -0.0489942 0.414721
-0.00446902 -0.400731 0.261287
0.00249309 -0.241028 0.304396
-0.00078137 -0.126043 0.320591
-0.0952969 -0.218744 0.562979
-0.00241934 -0.335668 0.0223715
-0.0120738 -0.177961 0.0729269
-0.0016984 -0.438383 0.114439
-0.0115606 -0.192947 0.551041
0.0255571 -0.257141 0.291656
-0.0108995 -0.0237348 0.265873
0.00331467 -0.236385 0.0267313
-0.00773876 0.394626 0.0261703
-0.0694896 -0.2528 0.547386
-0.0143112 -0.273578 0.00702518
-0.0108987 0.227965 0.307197
0.0190354 0.151521 0.207624
-0.0126216 0.373359 0.301822
-0.0408517 0.134945 0.173066
-0.0331166 0.0745765 0.160625
0.0341911 0.315399 0.165656
-0.0985516 -0.00169097 0.116206
-0.0180568 -0.447123 0.242212
-0.00249799 0.101326 0.178009
0.000702361 0.388963 0.296681
0.00174965 0.170407 0.106855
-0.0165115 -0.460381 0.224953
-0.00270839 -0.253731 0.240379
0.00206714 0.100917 0.159601
-0.00236593 0.13206 0.311565
-0.0112118 0.259629 0.0352157
-0.0414818 -0.2487 0.338586
-0.00259163 0.437157 0.216134
-0.0461684 0.0954093 0.235253
0.00787522 -0.222523 0.34914
-0.00521713 -0.433114 0.0904735
-0.0016984 -0.189187 0.103543
-0.00104713 0.232099 0.0285836
0.000620251 0.430358 0.0597308
0.0148447 -0.305138 0.154894
-0.120995 0.035127 0.122608
-0.0198201 -0.299877 0.19437
-0.00961842 -0.404367 0.108379
-0.0127807 -0.332791 0.303173
-0.0443267 0.279325 0.121319
0.0190575 0.0662942 0.169393
-0.0182878 0.0467093 0.356352
-0.0185341 0.149284 0.478223
-0.0124215 -0.45447 0.195361
-0.0520426 0.0345478 0.179491
0.0894896 -0.229408 0.54774
-0.0418847 0.13452 0.156093
-0.0156784 0.15826 0.177294
-0.00710184 -0.168965 0.525179
-0.00314128 0.430214 0.248924
-0.0173924 0.104018 0.17782
-0.00346148 -0.346091 0.0642814
-0.0457429 0.102675 0.199243
-0.0364368 0.192817 0.120467
-0.04233 0.265736 0.258444
-0.00287535 -0.226339 0.0500933
-0.00470008 -0.301222 0.0202745
-0.00187768 -0.406046 0.0540553
-0.00441889 -0.128892 0.438876
0.0116428 -0.211174 0.554063
-0.0180568 -0.167242 0.127323
-0.0145347 -0.42728 0.0999966
-0.0136739 0.217439 0.258306
0.0184075 -0.216982 0.56219
-0.00406139 -0.211714 0.241541
-0.00303177 0.172917 0.144041
0.00132305 -0.300333 0.310633
-0.00814087 0.0231118 0.353071
-0.0080444 0.289644 0.27757
-0.0145292 0.184798 0.0956533
-0.0178103 -0.462061 0.139783
-0.013227 -0.160438 0.215352
-0.011557 0.332923 0.245656
-0.0180568 -0.368626 0.0168829
-0.00261476 0.348604 0.00848303
-0.0016984 -0.184855 0.149718
-0.00991807 -0.0818685 0.411406
-0.0131827 -0.296265 0.242668
-0.0147623 0.0610912 0.207925
-0.0192101 0.0579543 0.345997
-0.121317 0.0288495 0.110631
-0.0155512 -0.304417 0.0233432
-0.0117966 -0.194093 0.242279
-0.0424631 0.259582 0.186782
-0.0111901 -0.216984 0.0740855
-0.00245645 0.150952 0.178354
0.00372827 -0.164909 0.123042
-0.0170966 0.0967379 0.203525
-0.0134808 0.452053 0.137232
-0.0532054 0.0766321 0.180701
0.0187894 0.279473 0.230062
-0.0114575 0.380429 0.280552
-0.0113343 0.293875 0.251963
0.139991 -0.228644 0.545785
-0.0420095 0.0454582 0.142334
-0.0121777 -0.408986 0.296985
-0.0457429 0.0887674 0.153948
0.028877 -0.275445 0.258215
-0.0113654 0.304269 0.312428
-0.0408517 0.0410915 0.160871
0.000346479 0.0741975 0.333838
0.021772 0.260396 0.264207
-0.0110702 0.194511 0.0567454
-0.0189233 -0.149222 0.463018
0.00543497 0.244596 0.443511
-0.0063283 -0.164678 0.357789
-0.00259163 0.442901 0.136316
-0.0134726 -0.191883 0.269727
-0.0319052 -0.22659 0.33458
0.000442216 0.133292 0.464409
-0.0408517 0.0488741 0.153106
-0.0071071 -0.204138 0.551956
0.0319669 -0.290188 0.215707
-0.0205847 0.25307 0.444739
-0.00905833 0.164769 0.479328
-0.0132805 0.442203 0.229385
-0.0445486 0.0615645 0.230515
-0.048195 -0.265562 0.27543
-0.075422 -0.225017 0.550259
-0.0510988 0.276006 0.168293
-0.0306782 0.242153 0.116544
-0.00749134 0.433876 0.191422
-0.00789174 0.300797 0.0435531
-0.0136739 0.451046 0.176361
-0.003761 -0.23881 0.0184437
-0.0107791 0.148046 0.311266
-0.00480822 0.311964 0.0267826
-0.108999 -0.000180161 0.125099
0.0377441 -0.27936 0.223404
-0.0018028 0.403625 0.054122
-0.00638346 0.297912 0.00523451
-0.00170757 0.17198 0.396156
-0.00950481 -0.221384 0.352565
-0.00252645 0.18029 0.421243
-0.0556001 0.0932168 0.191726
0.00326946 -0.360795 0.0128489
0.00178299 -0.183096 0.255444
-0.124255 0.0160896 0.110791
-0.00259163 0.257663 0.296864
-0.0176578 -0.170532 0.355189
-0.00176452 0.47709 0.184538
-0.0163602 -0.30022 0.220773
0.000653293 -0.310772 0.324852
-0.0174143 0.0666609 0.192137
-0.014641 -0.165068 0.10365
-0.00544196 -0.00628215 0.253425
0.0721023 -0.221816 0.54572
-0.00259163 0.415258 0.257013
-0.0293287 0.213165 0.348276
0.00802577 0.131832 0.18082
-0.00446902 -0.3642 0.283862
-0.00160254 0.118988 0.265067
-0.00888622 -0.198459 0.0856905
-0.0284068 -0.225332 0.350274
-0.0483324 -0.21884 0.551474
-0.0156784 0.188008 0.0846274
-0.00740135 0.248869 0.296072
-0.0205604 0.316418 0.162666
0.00212401 -0.176158 0.217611
-0.0180568 -0.17451 0.23045
-0.0156649 0.172468 0.217546
-0.00355891 -0.214316 0.0822567
-0.0137583 0.177857 0.111959
-0.0223445 0.122064 0.185599
-0.05565 0.0926631 0.170237
-0.0133309 -0.177381 0.116065
0.0271115 -0.257467 0.323206
-0.051792 0.31248 0.16304
-0.00459655 0.322428 0.331593
0.0250806 0.160435 0.208911
-0.0189795 -0.311589 0.150245
-0.0318248 0.0828501 0.207907
-0.0061398 0.364616 0.270674
-0.0127807 -0.409899 0.267103
-0.0338308 0.227874 0.33195
-0.00360194 0.454754 0.140042
-0.0128935 0.256571 0.018304
0.0574312 -0.220522 0.550375
0.058878 0.210418 0.229741
-0.0707511 0.0254393 0.116314
-0.0470424 -0.258414 0.285431
0.0145457 0.228822 0.318915
-0.00733962 -0.243668 0.283063
-0.0166966 -0.305066 0.00511566
-0.0016984 -0.182642 0.189602
-0.00259163 0.433127 0.237107
-0.00315213 -0.176795 0.348584
0.00210913 0.172981 0.405915
-0.0028761 -0.336417 0.325333
0.0196946 0.204836 0.170136
0.0017457 0.302935 0.0117406
-0.011281 0.0727088 0.161165
-0.0969198 -0.248005 0.542591
-0.0201668 -0.349981 0.139161
0.028616 0.128847 0.194205
-0.00285045 -0.437168 0.203496
-0.0072359 -0.1532 0.135869
0.0129134 0.161066 0.170698
-0.013262 0.361187 0.0476356
-0.0344746 0.293961 0.142115
-0.0146331 -0.209704 0.381016
0.00167657 -0.157987 0.198431
0.134367 -0.222453 0.561606
0.0785815 -0.229472 0.550664
-0.0490083 0.132844 0.163489
0.0485725 0.168037 0.226062
-0.0063461 0.272153 0.0427663
-0.0408517 0.111939 0.21981
-0.0324527 0.0940505 0.157469
-0.0491814 0.148169 0.211539
-0.0470202 0.0492546 0.195699
-0.0136908 -0.198084 0.443957
-0.0414191 0.0789913 0.139203
-0.0335579 0.213693 0.168235
-0.00260792 0.213535 0.0852636
-0.00966193 -0.178868 0.210736
-0.0490083 0.119424 0.147376
-0.0545484 -0.21392 0.558137
-0.00767788 0.175023 0.377359
0.0314879 0.18694 0.229665
-0.137526 -0.228013 0.558128
-0.0706284 0.0759893 0.169026
-0.000613231 -0.227233 0.559326
-0.0467645 0.126192 0.138727
-0.0156784 0.449925 0.0999123
-0.0266657 0.107768 0.165167
-0.00259163 0.315751 0.306187
0.00383207 0.308564 0.151509
-0.0299858 0.203061 0.472846
-0.0428097 -0.272333 0.233731
-0.0139102 -0.251177 0.214698
-0.0152894 0.0461136 0.217229
-0.00573348 -0.165465 0.45864
0.000859542 -0.43035 0.253459
-0.0221808 -0.330674 0.145295
-0.0116583 0.178991 0.258951
-0.0865502 0.0194064 0.119466
0.00174965 0.368328 0.0218211
-0.0434445 -0.285051 0.207292
-0.0527226 0.0629688 0.201515
-0.00800259 -0.0312091 0.250015
-0.0111385 0.417771 0.0741121
-0.00115149 0.331677 0.0233006
0.0166416 0.217641 0.464094
-0.000104539 -0.105182 0.440287
0.00813297 0.223195 0.324594
-0.0136317 -0.356897 0.0987205
-0.0149344 -0.324599 0.0214103
-0.0155512 -0.176488 0.189382
-0.0116476 -0.236506 0.356402
-0.00611975 -0.33704 0.0327718
-0.0278174 -0.30162 0.158331
-0.00415773 0.0314873 0.227655
-0.0490083 0.105484 0.138412
-0.0140992 -0.47548 0.161671
-0.00869614 -0.093434 0.290863
0.00738346 0.0927235 0.156661
-0.0145013 -0.441194 0.0647183
-0.0137005 0.31745 0.00875633
-0.00871912 -0.255487 0.0369053
