0.0014456 0.330668 0.0214114
0.00514996 0.0297323 0.168726
0.0231297 0.253055 0.524943
0.0121855 -0.244161 0.0445927
0.00729542 -0.278068 0.033392
-0.0291426 -0.0370416 0.104374
0.0392637 0.197613 0.150667
-0.00317365 0.245842 0.295203
-0.00284694 0.0127595 0.130963
0.0157625 -0.230275 0.440788
-0.0176122 0.314239 0.129381
0.00862009 0.301108 0.0299688
0.00382685 -0.452035 0.165407
-0.0313366 -0.250446 0.290166
0.0692057 -0.254607 0.600588
0.0280382 0.139262 0.157427
-0.00457257 -0.221833 0.387864
0.0114732 0.294163 0.00291299
-0.00580537 -0.215267 0.524927
-0.0224315 0.00240575 0.182425
0.00848532 -0.00185577 0.116263
-0.00594165 -0.396935 0.0575408
-0.0269899 0.152603 0.559556
-0.021758 -0.00437251 0.0997111
0.0130097 0.40868 0.318802
0.00224541 -0.182485 0.403674
-0.0222974 0.321426 0.157437
0.0383242 -0.330892 0.162766
0.00448771 0.208075 0.207004
0.0011079 -0.432641 0.105214
-0.0204962 -0.00202151 0.140264
-0.0218846 -0.0546833 0.113377
-0.0249079 0.00493644 0.113418
-0.00606382 -0.407506 0.0625195
0.00411443 0.418269 0.184504
-0.0249079 -0.031515 0.157987
0.0197684 0.183282 0.535178
0.00885278 -0.166152 0.179839
-0.0767621 0.310248 0.103791
0.0245654 -0.23159 0.312948
-0.044785 -0.31313 0.14608
0.041455 0.177872 0.147574
-0.0262465 -0.268748 0.280266
0.00312792 -0.0904172 0.24693
-0.00588834 -0.217132 0.40122
0.0460706 0.205286 0.159182
-0.0285406 -0.0211171 0.196919
-0.0100926 0.0452279 0.212134
-0.00834183 0.308079 0.158701
-0.00147861 -0.235592 0.258538
-0.0110449 -0.202775 0.37758
0.0150336 -0.25416 0.324323
-0.0465186 -0.318765 0.14772
-0.00594004 0.440923 0.121936
-0.00290971 0.189879 0.225806
-0.0182452 0.220159 0.523516
-0.000315462 -0.39169 0.285821
0.0219886 0.292963 0.146844
-0.0244591 0.170287 0.536927
-0.0254653 -0.325086 0.118554
-0.0131327 0.327205 0.142091
0.0985901 -0.24171 0.590676
-0.00980267 0.023471 0.166912
-0.0138294 -0.336339 0.139763
-0.000635604 -0.192123 0.126034
0.00923962 -0.439801 0.100383
0.00915535 0.45777 0.186193
0.0050604 -0.0874608 0.24451
-0.00838614 0.0854643 0.367521
0.00687427 -0.232811 0.0363812
0.0122147 -0.191293 0.0882694
-0.00745488 -0.44017 0.232723
0.00231875 0.276075 0.0285336
0.00204875 -0.240039 0.0609031
0.0104168 -0.230687 0.285266
-0.0249079 -0.0178574 0.128036
0.0202729 0.0426628 0.153838
0.00882397 -0.243573 0.258105
-0.0030059 0.358451 0.0423963
-0.0659121 -0.278468 0.591287
-0.00370467 0.407015 0.079265
-0.0366864 0.186125 0.161982
0.00937924 -0.195521 0.193658
0.00500917 0.453895 0.121885
-0.0223169 0.0648151 0.17745
0.0069537 0.196024 0.210503
-0.00240309 -0.000932842 0.364327
-0.00770619 -0.347133 0.0198194
-0.0249079 0.04246 0.141666
-0.0291426 -0.0479138 0.164944
-0.00174662 -0.196895 0.349449
0.0134365 0.166065 0.202955
-0.0594874 0.00614229 0.0860638
0.0116453 0.460986 0.163337
0.00510177 0.3275 0.0480476
0.00668731 0.296538 0.312734
0.0112944 -0.186174 0.16928
0.00353318 0.348768 0.0273121
-0.00697773 0.168398 0.496436
-0.00477114 0.296222 0.290538
0.0111994 0.253456 0.298353
0.0327071 0.344319 0.227919
0.00831585 0.15487 0.427349
-0.0581904 0.301928 0.159712
0.00306553 0.107368 0.360861
-0.0336681 0.0694284 0.205726
0.00708553 0.172807 0.178904
-0.00410367 -0.427331 0.0579645
-0.0253397 -0.0616922 0.157819
0.00876885 0.324026 0.0624489
-0.00553534 0.241299 0.293074
-0.00023475 0.162386 0.206975
-0.0210122 -0.0223429 0.0827583
-0.00470139 -0.22153 0.281367
-0.00013631 -0.394713 0.254075
0.00679641 0.428479 0.159175
0.00929127 0.448092 0.224643
-0.0176042 0.428934 0.32189
0.00942158 0.234792 0.258434
0.0139315 -0.1811 0.133297
-0.00607354 0.439323 0.104508
0.0434722 0.195876 0.159423
0.00783057 -0.272876 0.016066
-0.00862741 -0.152443 0.314166
0.0110254 0.0188556 0.363705
-0.0690814 -0.00517344 0.0415334
0.00158192 0.194063 0.533259
0.0447814 -0.247456 0.589401
-0.0298508 -0.315867 0.15128
0.000854831 -0.186735 0.333164
-0.0622262 0.000348945 0.0811158
0.00726941 0.20838 0.228365
-0.00372118 -0.240063 0.264142
0.00530635 0.152979 0.422126
-0.0267647 -0.0462464 0.137429
0.0385974 0.233867 0.271234
-0.0059468 -0.413273 0.0786933
3.50837e-05 0.172282 0.135923
-0.0484324 0.225716 0.151146
0.00043368 0.328873 0.0209305
0.0175212 -0.235961 0.372158
-0.00263129 0.383618 0.285263
-0.008263 -0.452634 0.14338
-0.00796626 -0.210093 0.263808
-0.00340513 0.217773 0.273468
0.0150304 -0.215288 0.413459
0.00478137 -0.198474 0.18486
0.0814946 0.0436854 0.284448
0.0043351 0.441896 0.0870152
-0.00370014 0.323486 0.00509994
0.0148607 0.336515 0.320368
0.0418895 0.179089 0.147535
-0.00576303 -0.178969 0.131395
0.00682495 0.339321 0.0342085
-0.0666268 0.304409 0.15066
-0.0446419 0.197182 0.157455
0.00423898 -0.254305 0.262299
0.00486841 -0.220123 0.38328
-0.00793422 -0.14586 0.385056
-0.00632725 -0.101449 0.22665
0.118197 -0.239524 0.596402
0.0280292 0.179417 0.56268
0.000796246 0.18131 0.258245
-0.00936394 0.296563 0.177819
0.000613148 0.185943 0.112235
-0.0394218 -0.272703 0.266585
0.0294572 0.00824051 0.16157
0.00942158 0.176316 0.16749
0.00663239 0.325868 0.0535402
0.0293407 0.235192 0.551979
-0.012995 0.164343 0.375274
-0.0175998 0.256562 0.178024
-0.00425607 0.206216 0.275666
0.0152289 -0.170779 0.168988
0.0413149 0.290842 0.317733
-0.0717933 0.00162377 0.0303457
0.0123633 0.167312 0.15978
0.0436669 0.179766 0.549536
0.0463519 0.211334 0.158909
0.031294 0.0207252 0.183077
0.00426907 0.189832 0.100263
-0.0125604 0.404657 0.319364
-0.00408113 0.177447 0.229026
0.0434354 -0.23898 0.599872
-0.00547984 0.286556 0.300283
-0.00899391 0.146718 0.39948
0.0129018 -0.0904819 0.375518
0.0114154 -0.204809 0.524185
-0.0235794 -0.0531056 0.115068
-0.0366301 0.295107 0.321235
0.0130423 0.22257 0.275239
0.0329914 0.0192787 0.154974
0.0580838 -0.328961 0.14788
-0.026037 -0.268621 0.278408
0.0135759 -0.192488 0.38617
-0.00452414 0.159187 0.209514
-0.00370467 0.360065 0.032499
-0.00161691 -0.0226229 0.366055
-0.0251434 0.210453 0.299126
0.0255868 0.123662 0.563718
0.00193468 -0.42445 0.108436
0.010068 0.347698 0.0243848
0.00834762 -0.462915 0.139783
0.0489169 0.21124 0.54713
0.0458679 -0.304562 0.200094
-0.00919878 -0.220344 0.320523
0.0114533 -0.370082 0.131891
0.0581951 -0.319324 0.151
0.0121086 0.170866 0.183238
0.00384839 -0.210687 0.23059
0.00150505 0.19898 0.560091
-0.0225926 -0.00396401 0.0816829
0.00470444 -0.435968 0.211819
0.0114671 0.340433 0.284377
-0.0185647 0.0304671 0.0961659
-0.0793112 -0.257486 0.605319
-0.0352777 -0.0238923 0.133261
-0.085452 0.310564 0.0750942
-0.0235398 0.186172 0.114183
0.0432799 0.0218172 0.254152
0.0549734 0.0191638 0.275666
-0.112464 -0.246738 0.586748
0.010055 0.358614 0.295199
0.00174134 0.150714 0.400487
0.015405 0.0357347 0.37006
-0.00479908 -0.44777 0.133
0.00346686 0.167906 0.537244
-0.00120456 -0.121105 0.27306
0.0020935 -0.328887 0.276433
-0.00370467 0.293228 0.283938
0.00768722 -0.376831 0.0392747
-0.00437423 -0.177814 0.382394
0.0252122 -0.229476 0.320756
0.0143754 0.215357 0.278914
0.00613002 -0.263262 0.0356714
-0.000322571 0.0222675 0.36141
0.0260934 0.174266 0.35475
-0.00710667 0.1694 0.537045
0.014768 -0.0174661 0.371979
0.0111673 0.166258 0.211717
-0.098391 -0.245011 0.603105
-0.00673137 0.165641 0.49531
-0.00885579 -0.223183 0.46745
-0.0544369 0.31052 0.157749
-0.00789134 -0.163398 0.30384
0.00139716 0.452228 0.115663
0.0341349 0.153184 0.545748
0.00638797 -0.407677 0.256391
-0.00808351 -0.212239 0.379876
-0.0320641 0.192104 0.15845
0.0141256 0.369832 0.0219238
-0.00961926 -0.219478 0.469487
0.0144956 0.110263 0.369411
-0.0222974 0.29367 0.139879
0.0099213 0.145673 0.398885
-0.00609182 -0.424837 0.0967764
-0.027142 -0.0532124 0.179728
0.0129295 0.0364767 0.378992
-0.00205816 0.0126175 0.130072
0.00417883 -0.425882 0.0776563
0.0110873 -0.216654 0.27735
0.0574311 0.253009 0.145426
0.0609625 -0.268269 0.594054
0.0058792 -0.164166 0.156194
-0.0597793 -0.270633 0.600571
0.122617 -0.234236 0.603191
-0.00602817 -0.334291 0.203785
0.0330291 0.304116 0.172547
0.0282335 0.108999 0.16223
-0.0108359 0.303534 0.136538
-0.0344066 0.0221396 0.115953
-0.00943956 -0.00621423 0.169093
-0.0185647 0.0575386 0.155428
-0.00607354 0.443698 0.194029
0.00665974 -0.170303 0.348768
0.00110638 -0.348074 0.0118195
0.00691083 0.0141562 0.134631
-0.0064334 0.239626 0.290565
-0.00370904 -0.447398 0.140355
-0.00372676 0.366387 0.29654
-0.00555037 -0.363066 0.037682
0.0536569 0.290312 0.181993
-0.00301202 -0.188859 0.186086
0.0556256 0.221674 0.154731
-0.00450563 -0.272657 0.279254
-0.0437477 0.226373 0.536395
-0.00626711 -0.425096 0.0950172
-0.0500701 0.302374 0.176509
-0.0121091 0.241437 0.185429
0.0163427 -0.292308 0.155754
-0.0392959 0.25344 0.227755
0.00649398 -0.445219 0.146242
0.013549 0.16727 0.174638
-0.0149852 0.374862 0.320369
-0.0249079 0.0227551 0.118501
-0.012203 0.317543 0.136232
0.00942158 0.390274 0.0584971
0.00942158 0.42692 0.198312
-0.00607354 0.240957 0.0275206
0.00789967 0.397569 0.273169
-0.0337212 0.00631071 0.221846
0.00258488 0.232659 0.295878
0.0142014 0.424851 0.0734517
0.0121603 0.183665 0.256767
-0.010324 -0.334965 0.17053
-0.0280018 0.174017 0.111312
-0.0027676 0.350675 0.196485
-0.00978057 0.151717 0.401071
-0.0983435 0.0128707 0.0478003
0.0372483 -0.326057 0.118477
-0.0136886 -0.324158 0.151296
-0.0329452 0.252914 0.317986
0.0161677 -0.185486 0.229951
-0.030858 0.0249191 0.195308
-0.0065693 -0.451259 0.168826
-0.0326413 0.0131233 0.10805
0.00854033 0.303888 0.159136
0.0370403 0.430191 0.319043
-0.013584 0.162981 0.362995
-0.0156921 -0.339942 0.15585
-0.00370467 0.301836 0.277745
0.00223547 -0.281432 0.310766
0.00850897 -0.270837 0.275739
-0.0347513 0.213908 0.284431
-0.000216862 -0.0808771 0.241157
0.00223858 -0.167188 0.188158
-0.00678823 -0.399591 0.263649
-0.00122041 -0.440633 0.177442
0.010298 -0.0526721 0.198812
0.0145612 -0.210007 0.456092
0.00177254 0.0479922 0.196734
0.0332899 -0.272221 0.261521
-0.0133814 -0.317526 0.136143
-0.00799842 -0.221383 0.501379
-0.00234329 0.147304 0.125625
-0.00416234 0.441837 0.163173
0.000442932 -0.403657 0.256264
-0.0117857 0.0233279 0.15304
0.0253209 0.187125 0.342846
-0.00370467 0.177617 0.112449
0.110714 0.053771 0.28515
0.0142014 0.342563 0.293048
0.0134074 -0.226456 0.0533504
-0.00721114 -0.452422 0.159587
-0.039816 0.240649 0.153034
-0.0677038 0.303429 0.154675
-0.0336544 -0.283741 0.257864
0.0656248 0.0224259 0.287563
-0.00463673 -0.294219 0.0256227
-0.00720544 -0.232623 0.410943
0.00692397 -0.188937 0.148168
0.00216677 0.308486 0.00032703
0.00537209 0.236629 0.322881
-0.00773529 0.185807 0.24887
0.0181364 -0.309429 0.154307
-0.00513606 0.213899 0.0474741
0.00109599 0.357689 0.0390063
0.0107039 0.337205 0.30045
0.00796243 0.247491 0.0296022
-0.05494 0.286466 0.173091
0.0913542 -0.246752 0.586752
0.0114399 0.259963 0.549296
0.00149677 0.390196 0.0268511
0.00399901 -0.436238 0.122065
0.00186735 0.238324 0.267318
-0.00460136 0.451681 0.13943
-0.0203862 -0.0116379 0.188308
0.0074428 -0.384356 0.289282
-0.027376 -0.271969 0.277875
0.0146948 0.0997858 0.569356
-0.00287735 -0.441819 0.197329
-0.0409757 0.00947637 0.172725
-0.062286 0.298196 0.132507
-0.00492381 -0.209166 0.505481
-0.00370467 0.248745 0.263157
-0.00993361 0.0214864 0.177607
-0.00498031 -0.378617 0.174418
0.00625082 0.153867 0.133087
0.00519872 -0.211676 0.094712
0.00988923 -0.00770651 0.365216
-0.0270041 -0.0335793 0.213061
-0.00607354 0.357958 0.0172786
0.0140064 0.32188 0.298397
-0.0313945 0.30723 0.320706
0.00290389 0.44905 0.201375
0.013599 0.218061 0.276856
0.00181911 0.0131908 0.191166
-0.0220436 0.311843 0.134304
0.0102034 0.00715083 0.17066
0.00942158 0.435743 0.132905
0.00622622 -0.447703 0.189653
0.0475013 0.241033 0.149361
0.005141 0.461458 0.178169
-0.00177619 -0.197682 0.58393
-0.00595813 -0.398358 0.261132
0.0137731 -0.108892 0.244945
0.00279472 0.370121 0.267386
0.0396945 0.368129 0.318249
-0.00370467 0.292689 0.0239725
-0.0185647 -0.0501884 0.126393
0.0127371 0.0223053 0.168102
0.0139726 -0.00622502 0.186637
0.00680191 0.250295 0.294922
0.00812679 -0.219292 0.282192
-0.0161986 0.300671 0.138798
-0.0476977 -0.236718 0.594279
-0.00460678 0.310403 0.156105
0.0428935 0.240015 0.24405
0.00488257 0.111991 0.3686
0.0379248 0.214365 0.296059
-0.0203693 0.17075 0.194893
0.000691329 0.324638 0.284779
0.0107497 -0.332166 0.290378
0.010878 -0.445365 0.217979
0.00261753 -0.432315 0.205613
0.00910645 0.211362 0.250258
-0.0462883 0.303754 0.160263
0.00542952 -0.21963 0.531676
-0.0282296 -0.0584018 0.161199
0.0143141 0.392391 0.271844
0.0029722 -0.227268 0.481585
-0.109949 -0.254265 0.595934
-0.00727676 -0.462351 0.153291
0.0501213 -0.320002 0.13678
0.12333 0.0297803 0.29213
-0.00235011 0.461374 0.181114
0.00772148 -0.291729 0.226366
0.0291552 0.201382 0.304063
-0.00665272 -0.255961 0.2814
-0.00210513 0.264571 0.540606
0.0258775 0.237578 0.551595
0.0196538 -0.321831 0.158242
-0.0588527 -0.00883281 0.0536404
-0.0220083 0.0143173 0.17132
-0.00980567 -0.170715 0.339245
0.00133758 0.061271 0.272564
0.000623898 -0.221642 0.515104
0.0791708 0.0436854 0.288052
0.00942158 0.239114 0.262083
-0.00371012 -0.283081 0.0156291
0.0520069 0.272467 0.194642
-0.0193795 0.188828 0.336454
0.0099171 0.430947 0.250899
0.011374 0.402539 0.0379869
0.019017 0.15512 0.375806
0.0103155 -0.00836259 0.385457
0.05714 -0.317358 0.145361
0.0323692 0.383227 0.298787
-0.0307991 -0.0158412 0.217928
0.0156724 0.0956904 0.568971
-0.0220237 0.24217 0.524247
-0.00860851 0.11361 0.360621
-0.00242555 -0.217364 0.068761
-0.0347136 0.399641 0.31784
0.00942158 0.389845 0.0564798
0.0112904 -0.409674 0.260667
-0.00177788 -0.365892 0.297209
0.00559464 -0.211799 0.0829401
-0.00137679 0.380865 0.262302
0.0131968 -0.174694 0.204909
0.0219886 0.312435 0.152744
-0.00119905 -0.363874 0.072266
-0.0133297 0.300236 0.12715
0.000850582 0.270369 0.308625
0.00430381 -0.415317 0.0447536
-0.0224914 0.174722 0.108981
0.0109108 -0.38691 0.282556
0.0140175 0.0341275 0.365879
0.00705667 -0.189369 0.12565
-0.0148048 0.319643 0.125518
0.0015 0.271353 0.273382
0.0142014 0.281222 0.0136286
-0.003295 0.193028 0.05355
-0.00352118 0.172956 0.0832033
0.00777724 0.35856 0.302472
-0.00352645 -0.187913 0.153853
-0.0240355 0.0544559 0.137376
-0.0248166 0.0636328 0.101237
0.00579227 0.183968 0.54484
-0.0136838 0.166629 0.359012
-0.00170315 0.281726 0.307146
-0.074131 -0.0130108 0.0483922
0.0432587 0.169124 0.159242
0.0130476 0.292056 0.0148594
0.0128025 -0.0131795 0.194855
-0.00471924 -0.266509 0.291853
-0.0243385 0.235229 0.321955
-0.122835 -0.247372 0.597001
-0.000168315 -0.198259 0.394644
0.013927 -0.229134 0.465529
-0.0291426 -0.048135 0.149746
0.00942158 0.339059 0.0322132
0.131 -0.242458 0.590455
-0.0146126 -0.232682 0.310423
0.0126468 -0.0685892 0.38909
-0.00362103 -0.196103 0.157758
-0.00832552 -0.220945 0.403557
0.0472368 0.269409 0.204609
-0.00174153 -0.375371 0.0203892
-0.0337212 0.025067 0.215345
0.0446934 -0.280627 0.254305
0.014031 -0.276979 0.307853
0.030951 -0.337113 0.123905
0.0607121 0.250164 0.154418
0.0399196 0.357632 0.318119
-0.000264037 0.179798 0.165754
0.00822969 -0.190018 0.192394
-0.0435537 0.22681 0.528575
0.0085768 -0.153305 0.320183
-0.00656512 0.156314 0.462806
0.00842594 -0.231795 0.591254
-0.00326504 0.330517 0.284176
-0.0222974 0.295033 0.149495
-0.00107478 -0.120033 0.271456
0.00323371 0.161503 0.205081
-0.0401967 0.015827 0.153906
-0.00678768 -0.241698 0.313556
-0.0475278 0.00161572 0.103434
0.011241 0.00724322 0.171697
0.0124886 -0.114845 0.393521
-0.00607354 0.390485 0.0353188
0.0391019 0.414548 0.322085
0.00204002 0.120365 0.35615
-0.00332965 0.377638 0.138296
0.018038 -0.22053 0.413377
-0.0465598 0.299937 0.162321
-0.0249079 0.0354186 0.13606
-0.0248973 0.299775 0.155386
0.00702857 -0.39896 0.256693
0.00409981 -0.282549 0.281629
0.00915358 0.149701 0.38916
0.00942158 0.209163 0.230358
-0.0269722 0.070222 0.206434
-0.00107951 0.281574 0.283707
-0.0193823 0.0234224 0.0853758
-0.00914023 -0.28252 0.166093
-0.00768646 0.156614 0.204057
0.0387142 0.344298 0.321019
-0.0272399 -0.0471866 0.141653
0.0123485 0.343386 0.104044
-0.00752826 0.00449526 0.13673
0.0127906 0.134896 0.382656
-0.039624 0.167432 0.157945
-0.00148271 -0.180324 0.224205
0.0138914 -0.184576 0.199324
0.00873988 -0.278043 0.3089
-0.00506642 -0.00482745 0.197427
-0.0326155 0.0265448 0.0812763
-0.00125955 0.169819 0.154391
-0.0277327 0.0791166 0.0923918
0.0108967 -0.443742 0.209968
0.0160029 0.276311 0.29802
0.0156151 0.118526 0.363947
0.0287693 -0.00885157 0.152526
-0.0673355 -0.252631 0.586872
-0.00608354 -0.409205 0.253877
-0.0016156 -0.236777 0.293987
-0.021671 0.0975624 0.198463
-0.128529 -0.0135989 0.0315208
0.125248 0.0292397 0.281954
-0.0724814 0.298196 0.116485
-0.0230881 0.00987655 0.079537
-0.00603843 -0.220803 0.053491
0.028413 0.291787 0.137462
0.0174476 0.256461 0.525404
0.0152817 0.402971 0.264066
-0.0452667 0.206149 0.158983
-0.0210026 -0.00988135 0.201453
-0.000781268 -0.407285 0.0387132
-0.0268501 0.0430946 0.0958651
-0.024649 0.158712 0.108191
-0.0641198 -0.00211265 0.0391504
-0.01701 0.267638 0.322228
-0.000959524 -0.200861 0.246589
0.012439 0.419937 0.257832
0.0187637 0.0435979 0.163601
0.00386352 0.263438 0.0062894
0.00459136 -0.422267 0.162501
-0.0415169 0.01071 0.159496
0.000998152 -0.302636 0.285776
-0.00562259 0.0352467 0.161466
-0.021324 0.0702517 0.153124
0.0223318 0.290127 0.318655
0.00529391 0.150811 0.201856
-0.00947539 0.076685 0.286652
0.0216865 0.342973 0.32141
-0.00607354 0.223347 0.0351015
-0.0159263 0.0986238 0.558025
0.0166031 0.186188 0.561781
0.0111574 0.0900036 0.316338
-0.0155405 0.146172 0.389198
0.0034346 0.0987494 0.344353
0.0345917 0.19875 0.560122
-0.0057364 0.236959 0.552163
-0.00279773 0.171814 0.540776
-0.00767983 0.15809 0.205387
0.00760772 -0.234006 0.453544
0.00518907 0.362223 0.299044
-0.115508 -0.24045 0.586594
0.0134574 0.0994957 0.35883
0.00583259 0.192667 0.0800568
-0.00283566 0.159418 0.117108
-0.0158061 0.290968 0.177032
-0.00629365 -0.427392 0.0814843
0.0474032 0.193686 0.555829
-0.0287524 0.0114549 0.216738
0.000433681 0.0940525 0.354463
0.00124879 -0.251791 0.604871
0.00912679 -0.369801 0.293905
0.0026105 0.178333 0.547383
-0.00946318 0.00359724 0.127088
-0.0196651 -0.0539522 0.114161
-0.0212046 -0.0133215 0.169023
-0.102445 -0.0325524 0.0386896
0.0326667 0.354212 0.24637
0.00694397 0.447905 0.220327
0.0468422 -0.323629 0.135402
-0.026906 0.215222 0.117856
0.0129932 0.0304576 0.185083
0.0131896 0.326357 0.304461
0.00015169 0.305742 0.312156
0.000954856 0.225175 0.259745
0.0464275 0.0244455 0.2188
-0.0245934 0.144998 0.556145
0.013034 -0.220997 0.279813
-0.0289239 0.0679069 0.170952
0.0128539 0.440009 0.181362
-7.8673e-05 -0.250948 0.220996
0.0129531 -0.038407 0.206541
0.0126526 0.349959 0.0219727
0.00211822 0.411436 0.272227
0.00776037 0.149703 0.199068
-0.017751 0.0260388 0.170976
-0.00370467 0.413588 0.0878882
-0.0170094 0.153983 0.375739
-0.0221209 0.015559 0.134117
0.00831537 -0.321547 0.317653
0.0795843 -0.229947 0.593028
-0.0243505 -0.0015133 0.0852492
-0.0229595 0.286899 0.134474
-0.070745 0.00622297 0.0432762
0.00819514 0.464521 0.158803
0.0230777 0.268314 0.322218
-0.0191653 0.00683134 0.192537
0.00794518 -0.214085 0.568795
-0.00140564 0.266335 0.298854
-0.0177628 0.321432 0.164136
-0.0102798 0.0733403 0.268273
-0.00569038 -0.381958 0.0270396
-0.0794434 0.008436 0.0388192
-0.0274254 -0.0373014 0.0954362
-0.0236031 0.107768 0.163427
0.00942158 0.17778 0.148904
-0.0601302 0.313348 0.129586
-0.0111074 -0.11561 0.248044
0.0166325 -0.181324 0.220859
0.0102399 -0.275653 0.307299
-0.0625643 0.00020466 0.0970275
-0.00893872 -0.453794 0.179433
0.0216691 0.27451 0.321524
-0.024136 0.185923 0.113027
0.00710103 -0.184794 0.0936696
0.0505838 0.259796 0.151649
0.0121698 -0.106963 0.24943
-0.0624646 0.000446534 0.0923133
0.0134277 -0.289395 0.174115
0.00773737 0.417969 0.265289
-0.00548211 0.374872 0.289941
0.00032096 0.182069 0.177876
-0.0200751 0.0408216 0.0961332
-0.0867739 0.302996 0.0707396
-0.0050168 0.172468 0.536023
-0.027518 -0.341088 0.130243
0.0554769 0.289454 0.170293
-0.0468904 -0.0013041 0.0516504
0.0120313 0.102572 0.337149
0.0301699 0.00846208 0.170205
0.00415537 -0.339237 0.278442
-0.00462505 -0.210007 0.26996
0.00659863 -0.213657 0.389717
0.00909718 -0.125673 0.397141
-0.0519662 0.298509 0.161385
0.00621941 0.268965 0.300374
-0.00607354 0.164661 0.192911
0.0163926 0.174352 0.536385
0.0301431 0.313396 0.134083
-0.0291426 -0.0473009 0.134673
-0.0291426 0.0630205 0.172367
-0.00561379 0.317432 0.304499
-0.00153188 0.115144 0.353221
-0.0249079 -0.0333609 0.149771
0.0066082 0.315273 0.00092106
0.00316652 0.238001 0.0365066
-0.00371837 -0.194268 0.107462
0.00664425 0.387754 0.0602032
-0.119508 -0.0199824 0.0397538
-0.02305 0.213988 0.556517
0.000527386 0.3938 0.136077
0.016835 0.32585 0.124802
0.0012966 0.42648 0.321203
0.0116722 0.413212 0.255871
-0.0320502 0.0103148 0.0860095
-0.0107087 -0.169271 0.322065
-0.00163224 0.147996 0.170886
0.00874725 -0.188581 0.14928
0.00530564 0.3634 0.0327297
-0.00361897 -0.195921 0.199095
0.00604485 0.436785 0.130948
-0.0249863 0.296408 0.135462
-0.0291426 0.0661824 0.147726
0.0103356 0.200763 0.0419158
-0.00090471 -0.248614 0.047326
0.00113273 0.227019 0.0946032
-0.0254031 -0.0641797 0.120291
0.00928355 0.280695 0.00210555
-0.0282431 -0.0600228 0.156035
0.0385731 0.412597 0.320084
0.00962763 -0.44006 0.0797931
0.00720419 0.192056 0.268551
-0.00319089 -0.213139 0.375514
0.00277772 0.224681 0.228383
0.00760762 -0.173035 0.214204
-0.00259685 0.0871046 0.56104
0.0729709 -0.262974 0.601732
-0.0104001 -0.355632 0.149417
-0.103844 -0.240706 0.589347
0.0114575 -0.361385 0.02829
0.0112342 0.443433 0.211063
-0.0207646 0.0388961 0.207443
0.033159 0.262729 0.29036
-0.00526195 0.145495 0.42981
-0.0102783 0.0284003 0.176133
-0.0411379 0.245326 0.157602
-4.46081e-05 0.279762 0.27488
-0.013485 -0.233114 0.309139
-0.0239492 -0.00422877 0.0809876
-0.0136148 -0.317768 0.149225
-0.00370467 0.408647 0.085335
0.00256646 -0.00105717 0.115903
-0.00748896 0.0425679 0.366159
0.0333283 -0.312523 0.120345
-0.0261115 0.356228 0.244689
0.00156013 -0.202857 0.508913
-0.00480033 -0.41694 0.24698
0.00458433 -0.434388 0.215204
0.00916867 -0.248256 0.160136
-0.100355 0.304932 0.033259
-0.0238779 0.145073 0.197526
-0.0366301 0.308835 0.321284
0.0062656 0.16314 0.50493
-0.0361154 -0.0159954 0.171377
-0.00045231 0.450095 0.221018
-0.0172388 0.333358 0.165917
-0.0131588 0.160435 0.382082
0.0136173 -0.015572 0.187332
-0.00385968 0.258498 0.116627
-0.0251153 0.0383628 0.221286
0.0137749 -0.194659 0.226256
0.0142014 0.434767 0.100791
-0.000214354 0.297935 0.000596575
0.00247439 0.255611 0.525525
0.0088855 0.185621 0.121125
-0.00489007 0.119184 0.379806
-0.0427957 0.19256 0.540828
-0.00486341 0.132141 0.404673
0.0117609 0.277996 0.301887
-0.0103139 0.11453 0.347588
0.0307416 0.202927 0.55941
-0.0125436 0.305533 0.142671
0.031104 -0.33294 0.120861
0.00201092 -0.38612 0.288431
-0.00168929 0.15655 0.208696
-0.0505297 0.00459682 0.0724462
-0.0270782 0.0184619 0.218084
-0.0105771 0.291326 0.153691
-0.0724563 0.0113107 0.0389484
-0.0110329 -0.132264 0.267586
0.00454982 0.303632 0.0308287
0.000898269 0.249924 0.0309468
-0.0023126 0.125179 0.568578
-0.0542087 0.303978 0.142895
-0.0392868 0.227409 0.552799
0.0140078 0.174927 0.101157
-0.00187076 -0.431724 0.206758
-0.0222057 0.0654026 0.126295
0.00983114 -0.379015 0.276229
-0.00356549 -0.330731 0.28934
-0.0279556 0.380963 0.2968
0.0110354 0.357044 0.278315
0.0243786 0.277642 0.319019
-0.082713 -0.0283834 0.0483922
0.0123918 0.0448978 0.225325
-0.00110909 0.257379 0.525778
-0.00293598 -0.30941 0.0262333
0.108898 0.0476094 0.274083
-0.00633282 0.206156 0.266361
-0.00690453 -0.426207 0.0614843
0.00613001 0.370252 0.0461294
0.00480915 0.112128 0.320645
0.0238354 -0.245368 0.321987
0.00737009 0.363186 0.0311015
0.0391664 0.218373 0.278917
-0.00370467 0.180073 0.189029
0.0142014 0.43478 0.208336
-0.00836734 0.0732013 0.367165
0.0102068 0.00676886 0.177269
-0.0185647 0.0171112 0.0911617
0.00942158 0.403171 0.242185
-0.000168641 -0.318124 0.0510305
0.007872 -0.322803 0.30492
0.00631284 0.0860873 0.317859
-0.00878868 -0.230382 0.347957
-0.0237449 0.0124902 0.0855605
0.0152551 -0.197759 0.25309
-0.00995702 -0.202534 0.57376
-0.00607354 0.274208 0.290184
0.0113292 0.354105 0.0251317
-0.0291426 0.0206511 0.0955013
0.0138959 -0.0881327 0.229405
0.0100136 0.179085 0.202281
0.000670366 -0.432713 0.0624773
0.00753566 0.306535 0.275024
0.0116727 0.0403325 0.195252
0.0108841 -0.368998 0.0225039
0.0132316 -0.19545 0.229853
0.0416468 0.395754 0.322923
0.000307551 -0.319367 0.045917
-0.00141505 -0.174275 0.314266
0.00994921 0.0788855 0.298524
0.009589 0.179657 0.53596
-0.000850947 -0.194967 0.403985
0.00532472 -0.370368 0.0465028
-0.00370467 0.370676 0.0405179
-0.00454626 0.256425 0.292431
-0.0366301 0.391247 0.320994
-0.0756398 -0.00170867 0.0357399
0.0565419 0.230006 0.148665
0.00271788 -0.0445502 0.189649
0.00464248 -0.277074 0.309984
-0.0078055 -0.0933045 0.379439
-0.0795543 -0.257505 0.589034
-0.00614725 0.121347 0.366716
-0.0341068 0.2625 0.322982
-0.0288141 0.172255 0.536665
0.00264273 0.3192 0.259668
-0.00444771 -0.024339 0.368194
-0.130741 -0.00540363 0.0350715
0.00745688 0.219212 0.278265
-0.00505224 0.0185039 0.144232
0.0112475 -0.217025 0.373106
-0.000912214 -0.169874 0.201721
-0.00320792 -0.323319 0.0257683
0.0098929 -0.287397 0.309678
-0.00370467 0.435664 0.153132
0.0186749 -0.233043 0.371203
0.00360951 0.368577 0.290553
0.0562975 0.300539 0.163936
-0.0185647 -0.0519544 0.160778
0.0384979 0.314465 0.320291
0.000467222 -0.21947 0.346247
0.0123615 0.253693 0.129003
-0.0212453 0.29156 0.13784
0.0130205 -0.173111 0.19713
0.00201395 0.215659 0.0640477
0.0139245 -0.117622 0.249131
0.0151688 -0.331893 0.311367
-0.0209733 -0.0348662 0.204654
-0.00607354 0.449392 0.162857
0.0135848 0.154993 0.392377
0.0156055 -0.0929754 0.383163
-0.00860428 -0.233262 0.373613
-0.00710511 0.280719 0.107732
-0.00607354 0.183396 0.22701
-0.048602 0.240501 0.149072
0.0452935 0.251887 0.226386
0.00984755 0.180441 0.545695
-0.0185647 -0.0193067 0.199324
-0.00438962 -0.194106 0.0839001
0.00668102 0.414154 0.0776241
-0.0258687 0.201311 0.1135
-0.0185647 0.0211237 0.18502
-0.00863603 0.38115 0.279878
0.00881461 -0.244387 0.0586188
-0.00921382 0.0348992 0.164481
-0.00282026 -0.241937 0.178617
0.0119707 -0.203546 0.0692304
0.0819834 -0.249789 0.582149
0.00713236 -0.389976 0.0561286
0.0157596 0.215897 0.523685
0.0135597 -0.181523 0.341763
-0.0296503 0.0598946 0.2054
-0.00607354 0.160656 0.137242
0.00617491 0.251225 0.3046
-0.0159268 0.302486 0.179875
-0.022573 -0.0482731 0.110645
-0.00589892 -0.19072 0.206297
-0.0412437 0.236332 0.250086
0.0206947 -0.318782 0.146836
-0.0226755 0.126528 0.15199
-0.0254544 0.330717 0.202401
-0.0488588 0.00299118 0.0579144
0.112396 -0.237461 0.587974
-0.0081732 0.0323229 0.17729
0.00722527 -0.322146 0.315813
-0.00081791 0.07811 0.356402
0.0485836 0.244767 0.245588
-0.0338116 -0.0136991 0.136185
0.00942158 0.176614 0.159839
-0.0297193 -0.304481 0.127882
-0.0130048 0.303564 0.17541
-0.0291426 0.0587287 0.177238
-0.0016169 -0.318674 0.0578418
-0.00498658 -0.34789 0.275044
-0.00607354 0.274456 0.292732
-0.00575432 -0.449037 0.0931753
0.00405867 0.0872643 0.354713
-0.0110213 -0.0644395 0.214649
-0.06016 0.298196 0.159376
-0.0185647 -0.0285612 0.150714
-0.096944 -0.022469 0.0355684
0.0887688 -0.253128 0.602141
0.00144949 0.138965 0.417086
0.00942158 0.25413 0.268595
0.0280393 0.404657 0.32009
0.00923533 -0.207973 0.0921652
0.00940068 -0.193668 0.162936
0.0177598 -0.230943 0.407065
0.0354443 0.369399 0.26973
0.0106141 -0.0529333 0.389348
-0.0032727 -0.172631 0.400641
-0.00370467 0.349207 0.278116
-0.0859783 0.0217867 0.0450621
-0.00157432 0.0708948 0.290281
0.0728722 0.0470549 0.274083
-0.00917594 -0.229731 0.375543
-0.00649812 -0.445097 0.174569
-0.0237805 0.0223688 0.190114
-0.0109826 -0.0498428 0.205664
0.00625695 0.198511 0.0438571
-0.0262484 0.070777 0.161083
0.0109621 -0.131718 0.25512
0.0341828 0.206704 0.310323
0.00944939 0.267425 0.321202
-0.0107868 0.295172 0.137436
-0.0308881 -0.0533704 0.126653
-0.0279821 -0.0522236 0.180045
-0.00440224 -0.295052 0.0134486
-0.0954349 -0.249813 0.597624
-0.0780734 -0.236033 0.589765
-0.0104892 -0.218044 0.492861
-0.00286188 -0.431216 0.0898197
-0.0328548 0.0610709 0.0889749
0.0168731 -0.244267 0.313665
0.00160525 0.232063 0.293236
-0.0224451 -0.0624762 0.181751
-0.0231968 0.109145 0.163403
-0.00383336 0.239567 0.551908
-0.0184721 0.267703 0.182031
-0.0110827 0.154212 0.403703
0.00849781 0.157116 0.415671
0.00807906 -0.2346 0.591077
-0.00063712 -0.408937 0.252275
-0.0390444 0.0290087 0.159968
0.0142014 0.27123 0.292486
0.00754508 0.12785 0.353131
-0.0433219 0.2029 0.150421
-0.00624128 0.170962 0.233813
0.00769369 0.145811 0.178716
0.00675785 -0.422382 0.0804989
-0.00370467 0.410929 0.223283
0.0146501 -0.3223 0.192197
0.00686135 -0.188527 0.134903
0.00942158 0.246746 0.264752
0.00153031 -0.461426 0.194211
0.00846713 0.168138 0.479924
0.0127262 -0.281662 0.139326
-0.00673068 0.161469 0.463982
-0.0223256 -0.245595 0.291538
-0.00370467 0.388106 0.243438
-0.00576417 0.061478 0.361402
0.0105029 -0.137112 0.262845
0.0142014 0.360276 0.0228564
0.00854801 0.450865 0.219619
0.0131342 0.398286 0.254799
-0.0296871 -0.301698 0.144142
-0.00133116 0.325194 0.302689
-0.116159 0.0198649 0.0303457
0.0136501 -0.206353 0.400305
-0.0133063 0.263758 0.545399
-0.0291426 0.00387002 0.207334
0.00558651 0.293815 0.263503
0.00888211 -0.116413 0.261801
0.00304442 0.227287 0.226449
0.00867666 -0.446232 0.118711
-0.00964799 -0.173923 0.344718
-0.0142163 0.0786868 0.153182
-0.0138822 0.319131 0.151925
0.000588778 -0.16495 0.299473
-0.0102838 -0.0234528 0.198758
0.0315327 0.0188216 0.199882
-0.00131578 0.173966 0.184698
0.00691639 0.237035 0.0361911
0.0153401 0.105574 0.547409
0.0119725 -0.138889 0.379163
0.0154504 0.183125 0.249676
-0.0291426 0.0587287 0.13469
0.00521707 -0.166651 0.170984
-0.0209744 -0.00358553 0.195035
0.00908605 -0.2209 0.0749058
0.00559944 -0.206864 0.0899887
0.0543986 -0.238427 0.594776
-0.128022 -0.0179608 0.0418253
-0.00329764 -0.318331 0.136631
-0.0212156 0.121757 0.195139
-0.130316 -0.00517344 0.0399676
-0.0675394 -0.242781 0.589099
0.0036349 -0.188539 0.161533
-0.00359714 0.259765 0.303501
0.0136538 -0.20514 0.0744962
0.00812048 0.279622 0.00219948
-0.00368983 -0.326221 0.315375
0.0384778 0.209919 0.526332
-0.00125955 0.153553 0.409556
0.0612978 -0.265645 0.599177
-0.0257114 -0.267758 0.277775
-0.0194141 -0.248534 0.29195
-0.0185647 0.0641546 0.145311
0.0324898 -0.250847 0.304034
0.0151978 -0.190544 0.395045
-0.00457746 -0.174695 0.212889
-0.0022372 -0.387836 0.287608
0.0275858 0.195799 0.532584
-0.00495654 0.312054 0.301446
0.00511414 0.192096 0.206997
0.00507576 0.218946 0.25324
0.00404658 0.234961 0.321636
0.0135695 -0.191901 0.22183
0.00765323 -0.291915 0.284532
0.0882498 -0.000568234 0.284035
0.131 -0.247666 0.598342
-0.0619071 0.00304715 0.10608
-0.00361435 -0.108524 0.228878
0.0134072 0.255096 0.291514
0.000385706 -0.191158 0.340004
-0.00716992 0.446649 0.216265
0.0219977 -0.324028 0.126021
0.00415522 0.171198 0.540457
0.00545539 0.206018 0.558601
0.0260937 0.12303 0.15137
0.0627718 0.0197778 0.28185
-0.0422528 0.192483 0.151185
-0.0586547 -0.23875 0.59069
0.0131989 0.14058 0.398538
-0.0291426 0.0640771 0.125283
0.00725355 -0.231947 0.471537
0.0390705 0.341985 0.321998
0.0224371 0.357646 0.318656
-0.0985463 -0.249794 0.595023
-0.0221209 0.0174712 0.167967
0.0545345 0.295183 0.16922
-0.0279207 0.167953 0.153392
0.00741057 -0.424032 0.0538335
0.00958693 -0.00631906 0.169376
0.00568367 -0.00635975 0.173255
0.0147938 0.101773 0.569295
-0.0321516 0.112302 0.0987862
0.00683741 0.464786 0.157131
0.0819443 0.00833865 0.291551
-0.0060319 -0.0625007 0.387767
-0.0415169 0.0155713 0.168676
-0.0049735 -0.223392 0.324104
-0.0060315 0.389733 0.0417143
0.00911917 -0.202089 0.192497
-0.0793061 -0.259739 0.598074
-0.0950083 -0.0230061 0.0320693
0.0116386 0.365741 0.27501
0.0218631 -0.335676 0.15668
-0.0043523 -0.366231 0.295158
0.000496423 -0.224316 0.311484
0.0306592 -0.340643 0.127374
-0.129014 -0.00337244 0.0303457
-0.0197427 0.0028725 0.173389
0.00839118 0.168162 0.219361
-0.0291426 -0.0394775 0.198454
-0.0059545 -0.432259 0.113179
0.0111898 -0.418374 0.059639
0.0154707 0.0362206 0.370389
0.00753219 0.208342 0.52703
-0.0323878 0.234187 0.260934
0.00794426 -0.227511 0.273711
-0.0185647 0.0190027 0.213066
-0.0831555 -0.247447 0.607315
0.00245606 0.156498 0.417355
-0.0537718 0.295665 0.176697
0.0059502 0.317011 0.283529
-0.00739425 0.01836 0.176046
-0.0225134 0.0991524 0.203699
0.00532657 -0.214259 0.261829
0.0212425 0.0262074 0.169937
-0.00419131 -0.325806 0.302397
0.0360455 0.256591 0.305985
0.00288512 0.28244 0.284567
-0.00334464 0.134878 0.421377
0.0067582 -0.222836 0.507601
-0.00680682 0.161576 0.466106
-0.027504 0.3058 0.160819
-0.0328408 -0.0233549 0.0872553
0.0130006 0.0588688 0.239595
0.0529615 -0.252279 0.598398
-0.00571128 -0.212199 0.24129
-0.0230599 0.133576 0.160917
0.00507276 -0.173997 0.314412
-0.0228459 0.243655 0.125376
-0.00443511 0.0578588 0.263065
0.0226268 0.240058 0.52417
-0.00620217 -0.419486 0.227651
-0.0576217 0.00954479 0.110645
0.0107986 -0.219899 0.404709
0.000782766 0.367147 0.0442054
0.00898689 -0.323542 0.31707
0.00312348 -0.227091 0.481817
0.0162391 0.293044 0.300776
-0.0325247 0.0559102 0.08508
0.00819535 -0.435756 0.244135
-0.0415199 -0.299059 0.210927
-0.0339808 0.273694 0.323005
0.00893361 -0.234084 0.255655
0.0219886 0.312018 0.151396
0.00425994 -0.413664 0.249142
-0.0220428 0.0614743 0.158061
0.00607558 -0.289113 0.0388246
0.0329662 0.366747 0.264847
0.00285545 0.427904 0.129178
0.0148324 0.328949 0.122853
-0.00454816 -0.386242 0.0275076
-0.00637402 -0.249734 0.606125
0.123911 0.0268108 0.28812
-0.0259543 0.391261 0.316843
0.0135987 0.115337 0.56888
0.0127253 0.243832 0.290769
-0.00639341 0.316802 0.298185
0.003028 -0.429669 0.0591186
-0.0291426 -0.0358369 0.201029
0.00398311 0.0778724 0.25438
-0.0416164 0.254184 0.536912
-0.00156958 0.223113 0.13945
0.00429818 0.397397 0.208586
-0.047986 0.00083868 0.0872105
0.00613737 0.15777 0.113809
-0.0323402 0.198231 0.155536
-0.0353281 0.2095 0.158682
0.00942158 0.429383 0.114445
-0.00532263 -0.358118 0.283553
0.0142014 0.448916 0.158769
0.0123965 -0.302967 0.200668
0.00677293 -0.20888 0.405723
-0.0275714 -0.0208424 0.0870093
0.00659274 -0.436676 0.207627
0.0354429 0.300671 0.165683
0.00600132 0.188576 0.216327
-0.0133971 -0.233574 0.599821
-0.051578 0.305618 0.177727
-0.0263544 -0.0597635 0.133171
-0.00474419 -0.409085 0.0583211
-0.0174274 0.274409 0.175849
0.00943199 -0.201988 0.566508
0.00942158 0.354701 0.272387
-0.0291426 -0.0161705 0.0995839
-0.00806001 0.263276 0.537693
-0.00659142 -0.250652 0.0325102
-0.00239224 -0.183071 0.102017
0.00396927 0.239637 0.253409
0.00830033 -0.125669 0.375464
0.0498105 0.0251417 0.282991
-0.0574217 0.306564 0.149301
0.0377928 0.241556 0.550961
0.0115696 -0.19511 0.0799251
0.00489022 0.277347 0.00256233
0.0111305 -0.229222 0.495373
-0.00533243 -0.32338 0.301248
-0.0022172 0.212767 0.251979
-0.0829701 -0.25282 0.602899
0.025737 0.105206 0.150104
0.00942158 0.29979 0.0270782
-0.00486135 0.411399 0.0510428
0.0360149 -0.313599 0.163295
-0.0885168 -0.0232785 0.0471561
-0.00637046 0.145686 0.393617
-0.0412237 0.016745 0.171215
-0.00349969 0.337768 0.322113
0.0514293 0.257618 0.155084
0.0138327 -0.0721054 0.222485
0.00980179 0.165111 0.487169
-0.00620941 -0.442745 0.1084
-0.0210932 0.143443 0.19813
-0.020007 -0.0612682 0.177336
0.00446829 0.0889482 0.324787
-0.126742 0.0121863 0.0430709
0.0232629 0.184898 0.329826
0.0110087 0.379031 0.287077
-0.00323745 -0.147314 0.27367
-0.0291426 0.0525633 0.11726
-0.0312511 -0.0549363 0.129205
-0.00647529 -0.443116 0.118739
0.0121051 0.0271467 0.380649
-0.0679462 -0.274164 0.58802
0.0154496 0.0245788 0.371351
0.0109222 -0.441541 0.0986112
0.0505836 -0.318036 0.152902
0.032751 0.269529 0.260524
0.0017043 -0.38285 0.270002
-0.00107951 0.382236 0.0422385
0.00856325 -0.266143 0.0401358
0.00612675 0.0711329 0.243154
-0.0372119 0.00416007 0.135634
0.00360592 -0.187565 0.164599
0.00872415 -0.0271121 0.206537
-0.00977745 0.0791079 0.273175
-0.0249079 -0.0252313 0.126632
0.00942158 0.430725 0.162826
-0.005187 -0.372459 0.278006
-0.0102213 0.102577 0.329416
-0.00301504 -0.172527 0.195688
-0.00881457 -0.443053 0.213915
-0.0346781 0.376646 0.317834
-0.0249079 -0.0058016 0.184412
0.00471402 -0.32553 0.137407
-0.0213364 -0.249258 0.591334
0.014148 0.0835905 0.361509
-0.0693897 -0.24988 0.60096
-0.0189058 0.192226 0.533625
0.106642 -0.242987 0.602516
0.0142014 0.253976 0.288784
0.00238497 0.427379 0.322458
0.0366125 -0.257764 0.273113
0.00242578 0.0951497 0.353981
-0.0286553 0.132319 0.0981706
-0.0165956 0.148371 0.391743
0.0442674 0.23237 0.266417
-0.0610499 0.00702941 0.109664
0.00559646 -0.225299 0.272181
-0.00561483 -0.368652 0.0385343
-0.0108359 0.309585 0.143338
0.00942158 0.370037 0.265613
0.0330721 -0.249933 0.601604
-0.00972673 -0.301177 0.30955
0.0173955 -0.235472 0.377977
0.0103678 -0.124095 0.242468
-0.0882559 0.0143235 0.0483922
-0.00459173 0.320953 0.301638
0.016156 -0.293715 0.143762
0.00508578 -0.0688523 0.393114
0.00740299 0.243746 0.0319465
-0.00325696 -0.174599 0.17407
-0.0271257 0.185108 0.113701
-0.00424633 -0.198159 0.556658
0.0316716 -0.00224967 0.144258
0.00945281 -0.133788 0.288294
-0.00145593 -0.283794 0.0831078
-0.0311842 -0.0300041 0.172109
0.00436227 -0.244796 0.056461
-0.0103369 0.244687 0.55089
0.0235705 0.0519291 0.158765
0.00723316 -0.185696 0.158066
-0.0265829 0.204696 0.298871
-0.00528323 -0.44931 0.142581
0.107774 0.00951524 0.282115
-0.00370467 0.201013 0.230146
-0.0082772 -0.0993759 0.247122
0.00909011 -0.197085 0.241325
-0.00681108 -0.226687 0.47011
0.0343335 0.156703 0.555153
-0.00855811 0.135489 0.376343
-0.0134287 0.263448 0.18281
0.0116916 -0.29218 0.312077
-0.0043936 -0.396218 0.249568
0.00942158 0.318388 0.283215
-0.0208172 0.0222876 0.136813
-0.0314267 0.230089 0.272984
-0.017442 -0.331061 0.120452
-0.0082787 -0.227514 0.440506
0.0152879 -0.0688692 0.379113
-0.0154415 0.144769 0.403052
0.0246343 0.00950121 0.177506
0.0120561 0.446206 0.104318
0.0099025 -0.442261 0.210017
0.0219886 0.309553 0.163698
0.0177403 -0.225438 0.358069
-0.024227 0.076939 0.1555
-0.0215475 -0.23775 0.599767
-0.0191547 0.173701 0.536472
-0.0300495 0.0901671 0.20019
-0.0323589 -0.00917916 0.162052
-0.00672405 0.269171 0.125223
0.0122007 0.0169705 0.172545
0.0109088 0.240523 0.189123
0.00523804 0.417406 0.0841324
-0.00995088 -0.250223 0.323739
-0.0755633 0.0217867 0.0373181
0.0152266 0.227805 0.553193
0.00309496 -0.359392 0.279887
-0.0344294 -0.310925 0.175583
-0.0109763 -0.29809 0.140508
0.0126117 -0.337737 0.31422
-0.000598305 0.0297323 0.183422
-0.0108359 0.298858 0.141688
-0.0126882 0.287147 0.180163
-0.0287166 0.199246 0.305526
0.01081 -0.221138 0.278138
-0.0185647 0.0404928 0.142392
-0.00485675 -0.246055 0.585169
0.00697374 0.263059 0.535806
-0.028279 0.329493 0.196498
0.047132 0.2485 0.528637
0.01073 -0.267234 0.303723
0.00859535 -0.0286834 0.366559
-0.00990143 0.0291314 0.192645
-0.0785678 -0.280639 0.594027
0.0142014 0.281119 0.296597
0.00830452 0.416634 0.2001
0.0343839 0.14664 0.148568
0.00816284 -0.31353 0.304872
-0.0334249 -0.0250905 0.0913265
-0.00038154 -0.212909 0.233355
0.007722 -0.338938 0.0252871
-0.0267173 0.129092 0.150561
-0.0326285 0.215869 0.297215
-0.00818797 0.411365 0.260024
0.103736 -0.245839 0.607809
0.0137064 -0.20058 0.0833526
0.00852193 0.140257 0.424688
0.00696504 -0.43582 0.0980937
-0.00612596 -0.191543 0.245375
-0.00354625 -0.326251 0.0106954
-0.000243415 0.138275 0.369669
-0.0733502 0.302635 0.100613
-0.00230118 0.000113696 0.364192
-0.000417095 -0.226204 0.394205
-0.0259683 0.0757909 0.127431
-0.0194227 0.0108445 0.174021
0.0142014 0.445873 0.161789
0.0789385 -0.239093 0.598344
-0.0645266 0.299357 0.110882
-0.0437683 0.225344 0.533782
0.00475987 -0.189061 0.22935
0.0127713 -0.137209 0.26871
0.0139653 -0.195624 0.251297
-0.000598709 0.341144 0.00497111
-0.0129844 0.303703 0.155388
0.0155305 0.31501 0.182982
-0.0185647 0.0107059 0.210906
0.0232376 0.159637 0.538345
-0.0173823 0.053319 0.163703
-0.0257578 0.136655 0.0993244
0.00419156 0.175299 0.122029
0.00749711 -0.424151 0.259667
-0.0212329 0.000261458 0.217216
-0.0291426 -0.0472684 0.167062
-0.0162163 0.241859 0.318799
0.0320533 0.0104329 0.188357
-0.00347157 0.158463 0.123519
-0.00539708 -0.406996 0.255493
-0.0064677 -0.442457 0.114073
-0.0291426 0.0290665 0.202516
-0.0281632 -0.061996 0.131094
-0.00330491 -0.458969 0.110641
0.0426565 -0.320558 0.135574
0.117736 -0.000568234 0.287315
-0.0970247 0.305109 0.0618409
-0.00170651 -0.464967 0.136707
-0.00335259 0.173169 0.489738
-0.008518 -0.460836 0.152867
0.00580402 0.329909 0.0426813
-0.00492461 -0.186498 0.234018
-0.0044592 -0.388394 0.0283651
-0.00197825 -0.0954279 0.372953
-0.00150727 -0.393668 0.0512574
0.0073909 0.0192101 0.144752
-0.00607354 0.392772 0.0400112
-0.022404 0.118298 0.201016
-0.00860657 -0.227995 0.356986
-0.0261411 -0.0348997 0.0954351
0.0199249 0.29834 0.157116
-0.0338663 0.0196118 0.191488
0.0108425 -0.23285 0.45284
0.000186961 0.435409 0.0741696
-0.0129539 -0.306069 0.145695
-0.00866146 -0.0105971 0.17961
-0.00434475 -0.344077 0.0270802
-0.0251326 0.370927 0.274611
0.00897831 0.214536 0.0536909
-0.00182972 0.103144 0.548021
-0.003085 0.394076 0.277691
-0.0153867 0.109992 0.567283
0.0115797 -0.132684 0.258237
0.0106821 -0.325598 0.315344
0.00300713 0.143259 0.433573
-0.043794 0.0063549 0.130009
-0.00604963 -0.225975 0.331666
0.00830235 0.150089 0.408685
-0.00769242 -0.276023 0.307887
-0.0392712 -0.286845 0.228131
-0.0342718 0.226361 0.281951
-0.0185647 -0.0549328 0.132435
0.126457 -0.241939 0.591321
-0.0185647 0.047177 0.107246
-0.0018211 -0.229052 0.495759
-0.00456605 -0.261226 0.112178
0.0456376 0.0176558 0.23936
-0.0776086 0.306744 0.0879509
0.0967925 -0.000568234 0.288525
-0.0166912 0.256673 0.178023
0.0152928 -0.188943 0.390301
0.011816 0.242208 0.274507
-0.00648568 -0.444018 0.127486
-0.00273158 0.214791 0.235514
-0.0307996 0.0144355 0.193245
0.0107949 -0.220619 0.400934
0.00521937 0.315333 0.276578
0.00868481 0.296002 0.0299041
0.00707839 -0.0268096 0.182362
0.0122561 -0.224797 0.311446
-0.0134177 -0.300709 0.149819
0.071819 0.0371159 0.286256
-0.0212579 -0.0387587 0.168977
-0.0177844 0.286544 0.148367
0.0123248 -0.195639 0.248204
-0.00838081 0.0266488 0.167197
0.000709291 0.180312 0.535591
-0.00576687 0.0939344 0.550338
0.00832083 -0.111589 0.231884
0.00240763 -0.167577 0.176669
0.0130066 -0.171229 0.201012
0.0146059 -0.287941 0.309345
0.015339 -0.00665088 0.377152
-0.000598143 0.138085 0.412912
0.0307379 0.326215 0.159489
-0.00984713 0.203177 0.559345
0.00950457 -0.24206 0.585331
0.00539045 -0.220266 0.32429
0.0109455 -0.439512 0.221558
0.0342487 0.385944 0.299796
-0.0306294 0.0134393 0.195629
-0.0321089 0.16801 0.538541
0.0926098 0.0246129 0.28666
0.00378005 0.38417 0.248406
0.0189944 -0.229492 0.366024
-0.00389714 -0.18774 0.376097
0.0795843 -0.24652 0.589128
-0.0216956 -0.0300427 0.172681
-0.0315017 0.320087 0.321
0.00178668 -0.299499 0.285501
0.00333775 -0.229222 0.0710745
-0.0410004 0.198477 0.533196
-0.00428568 0.459282 0.18266
0.00903464 -0.213347 0.234638
0.0142014 0.301175 0.0108021
-0.00133728 0.325599 0.310908
0.00312376 -0.178912 0.37945
-0.0330445 0.0271572 0.0861399
-0.0338002 0.153006 0.150682
-0.00686309 -0.0328862 0.208424
0.0663618 0.0246091 0.29213
0.0515392 0.0321307 0.282699
0.0156195 0.0738913 0.367735
0.0264353 0.13334 0.15506
-0.0778823 -0.245728 0.587076
0.0094547 0.160298 0.45775
0.00140051 -0.369739 0.296065
-0.00607354 0.408549 0.249436
0.00942158 0.412322 0.216898
0.0719562 0.0118216 0.274683
-0.00930724 -0.21095 0.381231
0.00510754 -0.152156 0.376964
0.0137852 0.42555 0.0825167
0.0101269 -0.19351 0.349791
-0.0521226 0.00199638 0.149527
0.0130289 0.187209 0.22583
-0.0639595 -0.00120187 0.0356721
0.00357075 -0.14428 0.309763
-0.00184327 0.437767 0.129972
-0.0741804 0.301504 0.132156
0.0151693 0.272753 0.11541
0.000840381 0.283431 0.0212366
0.00980454 0.264882 0.211142
-0.0321335 0.251138 0.549425
-0.00907234 -0.260131 0.298522
0.00420903 -0.222463 0.270045
-0.00403971 -0.299747 0.312075
0.0329838 0.166219 0.152454
0.0286833 -0.314821 0.163847
0.00415602 -0.440759 0.165922
0.0360884 0.269271 0.263362
0.0107657 0.457599 0.183994
-0.00178922 0.391722 0.281856
-0.00796665 0.436108 0.231639
-0.0266067 0.0717456 0.132592
0.022276 0.25685 0.527128
0.012987 -0.118702 0.393313
0.124448 -0.238478 0.587387
0.00834158 0.24251 0.300506
0.000928262 -0.345436 0.0360289
0.0127723 -0.243494 0.0442673
-0.0192983 0.0456995 0.155666
0.0137055 -0.0119956 0.190845
0.0160371 -0.239801 0.313299
-0.0176315 0.198334 0.191514
-0.00683334 -0.433794 0.0708669
0.0312138 0.0203367 0.191082
-0.0246728 0.0391108 0.0814436
-0.00790672 -0.454231 0.20201
-0.0668929 -0.25356 0.597702
-0.00806016 -0.377766 0.0331429
0.0154603 0.157329 0.206096
0.00881752 0.436588 0.176541
-0.0111165 -0.0427606 0.204293
-0.024381 0.150514 0.157011
-0.00188184 0.11034 0.353796
-0.00607354 0.171728 0.103602
0.0107822 0.119906 0.373144
0.0272129 0.0922503 0.16236
-0.0253052 0.0384286 0.0845506
0.00352891 0.404722 0.076466
-0.00906085 0.0207331 0.174955
-0.0108359 0.309745 0.136099
0.00659619 0.258612 0.0268955
-0.00689128 0.240101 0.524503
-0.0078173 0.116703 0.35999
-0.00542463 0.126592 0.393028
-0.0752359 0.305296 0.0930752
-0.00688646 0.30851 0.186261
0.0042383 0.268389 0.280973
-0.0222974 0.316542 0.162827
0.013271 -0.102201 0.377249
-0.00457538 -0.200822 0.49772
-0.00185782 0.0720335 0.292239
0.0107527 0.369271 0.297143
0.11389 0.053771 0.281605
0.019326 0.0694535 0.15109
0.0118024 0.454567 0.149427
-0.00217029 -0.425004 0.232982
-0.0034411 0.312312 0.274774
0.00942158 0.42472 0.123821
0.0443561 -0.289912 0.232684
0.0151305 0.391982 0.275607
0.0255405 0.431534 0.320617
-0.0616111 0.00415248 0.107386
-0.00833894 -0.446037 0.219824
-0.0214736 0.0275281 0.169281
-0.00405484 -0.417438 0.0666681
-0.123959 0.00891345 0.0483922
0.0213723 0.0434185 0.155261
-0.00195643 -0.30693 0.0253265
-0.00370467 0.376153 0.252883
0.0126585 0.137169 0.385393
0.0701541 -0.269231 0.601878
-0.00250098 0.235409 0.552377
-0.00381422 -0.302744 0.0257476
-0.00204028 0.0321944 0.167557
-0.00535665 -0.431931 0.228773
0.0122806 0.284841 0.306702
-0.0651099 -0.27188 0.601386
-0.00675531 -0.210359 0.521314
-0.00322127 -0.352463 0.28308
-0.00194308 -0.402342 0.0574205
0.00942158 0.283331 0.0295303
0.0637396 0.302559 0.147915
-0.0056201 -0.338459 0.213867
-0.00357247 -0.23551 0.0521807
0.00733354 0.189723 0.263795
0.0122221 0.296163 0.308199
-0.0102903 -0.342618 0.152156
-0.00607354 0.165474 0.171903
-0.106755 0.0117012 0.03425
-0.0671253 -0.00343143 0.0398727
-0.0231283 0.0239153 0.172959
0.00654855 -0.440507 0.186485
0.0192035 -0.323049 0.1588
0.00238522 -0.323244 0.136078
0.00586972 0.0903703 0.354499
0.0065034 0.0641359 0.357168
-0.033273 -0.0244389 0.0879895
-0.00592523 -0.193005 0.213962
0.000693574 0.42944 0.153141
-0.0066308 -0.257202 0.278201
-0.045729 0.00548174 0.115987
0.00942158 0.4286 0.18396
0.00470634 0.11615 0.352029
0.00684921 0.226804 0.247758
-0.00578226 -0.2285 0.465677
0.0120075 -0.347608 0.0206594
0.0113048 0.0242579 0.152444
-0.00807337 -0.160856 0.392194
0.00524029 -0.226538 0.244687
0.0191091 -0.232069 0.343301
-0.000513694 -0.411834 0.0646062
0.00882323 -0.304928 0.313282
0.0435637 -0.306485 0.201686
0.0116159 0.368299 0.016927
-0.00466508 -0.286448 0.0341594
0.015623 0.407305 0.264888
0.00174074 -0.184905 0.380007
-0.0753237 0.30247 0.100669
0.0838753 -0.234025 0.606204
0.00549315 0.0941673 0.33398
-0.00370467 0.429891 0.115003
0.00756952 -0.236801 0.261615
-0.0278019 0.303061 0.158116
0.00438515 0.092265 0.550758
0.00942158 0.427662 0.135202
0.0406793 0.287861 0.31768
0.00910999 -0.272232 0.306923
-0.0299679 -0.325998 0.148212
0.0110438 -0.230667 0.312136
-0.0283893 0.317647 0.175147
-0.00405046 0.270799 0.0883631
0.0197001 0.297947 0.147965
0.00942158 0.198517 0.222971
0.00627771 -0.207655 0.440501
-0.0326397 0.427987 0.322884
-0.0149948 0.200512 0.559867
0.000130143 -0.438851 0.108288
-0.0476118 0.00933075 0.161879
-0.00161929 0.170131 0.143688
0.00767304 -0.343183 0.280461
-0.00830353 0.140945 0.395076
-0.0111163 -0.163438 0.316956
