-0.0128357 0.0745414 0.328975
-0.0325348 -0.227779 0.350152
-0.0121433 0.205743 0.0915121
-0.0438397 -0.225349 0.321962
-0.00548069 -0.156156 0.595365
-0.00797645 -0.429989 0.182807
-0.00652707 -0.0710848 0.484952
-0.0173882 -0.405491 0.287651
0.0148539 -0.298868 0.169412
-0.0193492 -0.421033 0.224432
0.0117497 0.233206 0.46003
-0.0213508 -0.210839 0.339405
-0.0531356 0.238453 0.217331
-0.0126446 -0.168431 0.195303
-0.0101782 -0.435546 0.168371
-0.00264764 -0.223182 0.025098
-0.0125244 0.222215 0.0614119
0.00021426 0.0519655 0.209767
-0.137926 -0.174311 0.592262
-0.00977374 -0.107941 0.58214
-0.00202881 -0.166445 0.405882
-0.00856778 0.256713 0.25909
-0.0281812 0.295129 0.355973
-0.033834 -0.221163 0.351942
0.00609503 -0.158577 0.583255
-0.101121 0.0240697 0.0925098
-0.000469353 0.0715714 0.221274
-0.0530495 0.0559243 0.198159
-0.0118192 0.222433 0.036039
-0.0672139 0.0838463 0.142807
-0.0211846 -0.367583 0.0217395
-0.00858351 -0.10518 0.396737
-0.0168263 -0.157021 0.0938286
0.0763578 -0.177028 0.577889
-0.00538522 0.390066 0.238814
-0.0193492 -0.194299 0.0749988
0.0314395 0.2615 0.14684
-0.0425647 0.0841392 0.18774
-0.0152508 0.131366 0.331555
-0.00258861 0.232781 0.242763
-0.00395209 -0.143562 0.430853
-0.00402529 0.384895 0.104105
-0.000556888 0.0382811 0.327766
0.029164 -0.21261 0.342675
0.000901285 0.193219 0.0801123
-0.0171307 0.261871 0.152708
0.108038 -0.172597 0.581454
-0.00125838 0.0342058 0.27486
-0.00834742 -0.210402 0.072774
-0.0731959 -0.188148 0.581569
-0.00519519 -0.0284257 0.417662
-0.0149786 0.0163446 0.23698
0.00119201 0.385373 0.262117
-0.013036 -0.137958 0.468672
0.0191458 0.198025 0.150505
0.00309097 -0.321628 0.151694
-0.0218367 -0.275043 0.314014
-0.0422787 0.0659592 0.154026
-0.0376583 0.303168 0.134982
0.00193891 0.190633 0.0978457
-0.00124315 0.289586 0.353561
-0.0152868 0.30255 0.0226101
-0.00595467 0.442772 0.139866
-0.00596135 0.224326 0.173198
-0.0137436 -0.0377236 0.287255
-0.0125528 0.425883 0.34098
-0.0416603 0.104082 0.120628
-0.0120685 0.244551 0.456911
0.0202632 0.232539 0.445025
0.00614685 -0.17962 0.381606
0.0380139 0.177581 0.272343
-0.0129848 0.0856281 0.287104
-0.0414471 0.0511071 0.185796
-0.00104693 -0.213576 0.0452395
-0.00894241 0.384717 0.0489191
-0.044582 0.313425 0.151155
-0.0159665 -0.178168 0.268617
0.00320817 0.165047 0.401887
-0.0181067 0.386434 0.34883
-0.0183181 0.354388 0.177356
-0.0175254 0.184523 0.169355
-0.0367191 0.0883109 0.170632
-0.00982295 0.399332 0.231866
0.0285989 -0.283024 0.204349
-0.0193492 -0.39543 0.261754
-0.0097073 -0.236402 0.0157188
-0.0442205 -0.314953 0.145544
0.00141504 -0.190797 0.387354
-0.0055969 -0.362924 0.0458374
-0.0137504 -0.204347 0.0606686
-0.0434546 0.325475 0.131636
-0.013501 -0.0615759 0.353593
-0.00307958 -0.448455 0.167834
0.00173198 0.272857 0.360421
-0.0143085 -0.229582 0.0825006
-0.0065728 0.213533 0.201643
-0.0446813 0.211462 0.10537
0.0370633 0.308536 0.16411
-0.000910187 0.322699 0.204608
-0.0647663 0.0766294 0.150139
0.0272739 -0.258713 0.253877
-0.0463029 0.0847642 0.182423
-0.0230279 0.171131 0.410905
-0.00371029 -0.0704433 0.361216
0.00237455 -0.300536 0.151355
-0.0135728 0.444407 0.127143
-0.0055969 -0.275333 0.028996
-0.0453569 0.0615472 0.205267
0.00455311 0.131986 0.153809
-0.00372393 -0.0239888 0.41342
-0.0113158 0.377304 0.0442507
-0.0523554 0.0584686 0.178825
-0.0344711 0.421571 0.337223
-0.00562617 0.333435 0.270371
-0.0293978 0.325791 0.349584
-0.0506632 0.271284 0.155725
-0.0206045 -0.227151 0.0255104
-0.0142981 -0.258958 0.00755048
-0.00269042 -0.413345 0.0683742
-0.0226876 -0.328849 0.130598
-0.00532603 0.173135 0.135559
-0.028125 -0.31167 0.165978
-0.0152909 -0.38191 0.277521
-0.00834742 -0.210595 0.0721994
-0.0165988 -0.413423 0.248934
0.0430934 0.268236 0.194806
-0.0134819 0.316462 0.35953
-0.014765 0.0258213 0.365651
0.0168799 0.181709 0.202759
-0.0143687 0.383903 0.259859
-0.00538522 0.275343 0.254239
0.0113124 -0.230168 0.313321
-0.0117403 -0.130159 0.527885
-0.0193343 -0.380193 0.0601269
0.0371113 0.227942 0.236873
-0.0175254 0.225633 0.0428555
-0.0208589 -0.33289 0.308588
-0.00362317 0.137469 0.279583
-0.0525383 0.323717 0.119787
-0.00834213 -0.342694 0.300453
-0.00652002 0.194984 0.343085
-0.0457196 0.28816 0.0894976
-0.0163093 0.126278 0.333978
-0.00728211 0.200266 0.139983
0.0269323 -0.214707 0.357503
-0.00785615 -0.353485 0.296864
-0.0218367 -0.250325 0.307859
-0.00706078 0.200634 0.340031
0.0285675 0.149379 0.191266
-0.0134959 0.0445224 0.325674
0.00623445 -0.196454 0.357585
-0.0623229 0.0818267 0.142081
-0.00290971 0.290443 0.266071
-0.0112187 0.246051 0.251987
-0.0110181 0.303926 0.0289444
-0.00682738 -0.327209 0.304314
0.00293353 0.129729 0.168003
-0.00066281 -0.0238257 0.424654
-0.0170052 -0.18391 0.399646
-0.120332 -0.176465 0.588254
0.00395279 0.355968 0.360023
-0.00290971 0.440325 0.137291
-0.018527 -0.403924 0.0406087
-0.000209599 -0.453544 0.194323
-0.0148521 0.318275 0.0192501
-0.000209599 -0.339972 0.312258
-0.0193492 -0.312235 0.0240113
-0.0065093 0.240259 0.351609
-0.019433 -0.310814 0.23184
-0.0537855 0.0965354 0.170653
-0.0165987 -0.181542 0.116787
-0.00235332 0.362734 0.285641
-0.00460674 0.408027 0.0547118
-0.00773873 0.358649 0.268245
-0.0190497 -0.458483 0.133636
-0.000209599 -0.436756 0.0867675
-0.015175 0.220061 0.0661287
-0.0315519 0.352164 0.346073
0.0296146 0.165872 0.201145
-0.00562065 -0.333587 0.0381888
-0.00290971 0.197742 0.147973
-0.0437042 -0.316515 0.14797
-0.0123831 0.0699245 0.229497
-0.00797302 0.433301 0.203883
-0.041196 0.179858 0.189774
-0.0163742 -0.13853 0.476941
-0.029093 0.188242 0.464189
-0.00503654 0.181913 0.440008
-0.0166919 0.152753 0.454908
-0.0175363 0.135808 0.165583
-0.0176866 -0.337644 0.0238223
-0.0159292 -0.440416 0.180394
-0.0335212 0.0991502 0.168408
-0.0152445 -0.0997564 0.506523
-0.0291362 -0.202366 0.383304
-0.000941349 0.289391 0.273957
-0.00330947 0.253563 0.242604
-0.00633397 -0.42512 0.20296
-0.0446167 0.191033 0.185384
-0.00290971 0.414253 0.0723319
-0.0342276 -0.218674 0.355597
-0.0503034 0.284987 0.183509
0.00738303 0.32115 0.150231
-0.0428841 0.101782 0.195899
-0.00374422 0.445156 0.145296
0.0120937 -0.155684 0.591491
-0.00263294 0.107003 0.243146
-0.0014035 0.0994613 0.16588
-0.0131683 0.359867 0.364365
-0.0125425 -0.38013 0.30671
0.0425879 -0.15773 0.590629
0.00774341 -0.30333 0.170798
-0.0201582 0.322066 0.173347
0.125582 -0.175617 0.594561
-0.0165988 -0.423759 0.235542
-0.0344711 0.360121 0.360559
0.020659 0.242114 0.452724
-0.0310573 0.235894 0.156902
-0.0293193 0.408625 0.339967
-0.0985541 -0.169529 0.597678
0.0799358 0.188605 0.205284
0.0384408 -0.165593 0.595456
-0.000327035 0.402954 0.335861
0.0320966 0.1707 0.269482
-0.0287352 -0.177439 0.409308
-0.0474084 0.0970137 0.211134
0.00260018 -0.325496 0.157137
-0.0116786 -0.44496 0.168805
-0.0109158 -0.167519 0.0736034
0.006163 0.182734 0.157177
-0.0216162 -0.188618 0.379794
0.00158632 0.23547 0.25986
-0.0570277 0.269022 0.192319
-0.0769139 0.0554327 0.123923
-0.0070564 0.359795 0.263549
-0.011941 0.436072 0.0950181
-0.0352693 -0.18028 0.37411
-0.00941836 -0.102587 0.561435
-0.0344711 0.356807 0.363102
-0.0443366 0.0724782 0.21449
3.66308e-05 -0.276427 0.206348
-0.0055969 -0.202735 0.245503
-0.0164566 -0.162534 0.439871
-0.0100828 -0.142103 0.191208
-0.0767075 -0.170679 0.577721
-0.0133978 0.455057 0.0969405
-0.00451988 0.216373 0.223587
-0.0265005 -0.197116 0.38858
0.00981194 0.24856 0.441175
-0.00706185 -0.0750517 0.32076
-0.00290971 0.223551 0.226512
-0.041991 0.0900028 0.188227
-0.0416811 -0.16124 0.585429
-0.00290971 0.400422 0.0574678
-0.0408478 0.257359 0.177691
-0.0456919 0.333396 0.163105
0.00206377 -0.0342343 0.312519
-0.0161141 0.00199917 0.390011
-0.0373358 -0.168618 0.591643
-0.0055969 -0.426918 0.203787
-0.0333008 0.402645 0.347094
-0.0847744 0.00897605 0.0905564
-0.0177401 0.162681 0.395362
0.0179318 -0.188939 0.400959
0.0269075 0.288893 0.154467
-0.0133933 -0.341443 0.0300847
-0.0255141 -0.293908 0.176089
-0.014328 0.196068 0.192283
-0.0132971 0.032756 0.306353
-0.00238593 0.183737 0.090724
-0.0192482 -0.16341 0.0871318
-0.0203405 -0.150231 0.40845
0.00193891 0.250038 0.0284657
0.0122761 -0.197676 0.341363
-0.0235026 0.164347 0.362763
0.00384291 0.308012 0.349317
0.0244726 -0.199939 0.359872
-0.0087486 0.201421 0.150531
-0.010477 -0.148045 0.441616
-0.00693386 0.127073 0.356906
-0.0495446 0.137986 0.166495
-0.000209599 -0.415788 0.0590818
-0.0547072 0.195351 0.264286
0.129817 -0.192543 0.593287
-0.0152868 0.347631 0.026806
-0.0166881 -0.166322 0.209993
-0.0416136 0.216855 0.103005
-0.0120062 0.275262 0.256035
-0.0426723 -0.218785 0.354237
-0.000209599 -0.156933 0.123474
0.0810257 -0.180732 0.591298
-0.0142057 0.439744 0.0974103
-0.0103263 0.0556089 0.197037
-0.0188785 -0.189866 0.102764
-0.00966581 0.312634 0.0278531
0.00246198 0.0731014 0.3144
-0.0125354 -0.157459 0.0910974
-0.100363 0.00698473 0.101369
-0.0218367 -0.441104 0.23369
-0.0160313 0.369788 0.024336
-0.00604348 0.181572 0.0955865
-0.00951234 -0.17698 0.232057
0.00426464 0.309825 0.14787
-0.0219449 -0.191337 0.362889
-0.00654683 0.177176 0.182481
-0.0155489 -0.450165 0.230725
-0.00575623 -0.439829 0.202109
-0.0150297 0.334579 0.0848947
0.0247759 -0.296877 0.145994
-0.00854431 0.41227 0.341041
-0.00834742 -0.401534 0.263491
-0.00108547 0.372462 0.281174
0.00045813 0.169381 0.417261
0.00193891 0.439572 0.212999
-0.00749182 0.244171 0.442126
-0.012335 -0.165292 0.1829
-0.0162785 -0.301807 0.156484
-0.0123811 -0.376334 0.0416488
0.00143243 0.193105 0.0823872
-0.0179472 -0.269776 0.301107
-0.0536088 0.130708 0.201069
-0.00344405 -0.186868 0.252365
0.00884521 0.214875 0.435388
-0.00772578 -0.246829 0.25148
-0.00580172 0.245581 0.0906375
-0.0178416 0.0846708 0.342623
-0.0414693 0.290843 0.147471
-0.0231991 -0.263044 0.166653
0.0198613 0.0945168 0.152331
-0.0115069 0.361428 0.224358
-0.0353951 -0.189023 0.354495
-0.0192761 -0.352861 0.282241
-0.0152868 0.207108 0.202843
0.00602772 -0.211501 0.33303
-0.0172078 -0.257092 0.318227
-0.0423227 0.0977042 0.106573
-0.0125224 -0.434631 0.198325
-0.00121579 0.0992676 0.219864
-0.0128113 0.267701 0.0308607
-0.0140933 -0.251017 0.297116
-0.0130402 0.374847 0.0856962
-0.00880987 -0.222991 0.0597372
-0.0527238 0.312817 0.141462
-0.0100258 -0.190035 0.251762
0.00193891 0.219379 0.244309
0.00416207 -0.301295 0.170016
-0.0143723 -0.461937 0.133516
-0.105051 0.0136238 0.0989262
0.0454247 -0.158091 0.589052
-0.00177212 0.261694 0.280615
-0.00578834 0.190218 0.469446
-0.0204095 0.0385091 0.230343
0.00596634 -0.301533 0.164404
0.0731434 0.208598 0.204236
-0.00970172 0.43944 0.190096
0.0169743 -0.237247 0.315784
-0.0124931 0.133686 0.33045
-0.016536 -0.44365 0.188041
-0.00881536 -0.302547 0.00127715
-0.042351 0.0474921 0.187549
0.0240158 -0.191451 0.366806
-0.0195672 -0.219529 0.0431342
-0.00133921 0.18585 0.20505
-0.00290971 0.196374 0.168801
0.00631951 -0.181894 0.369448
0.0146076 -0.198793 0.382296
-0.0177226 -0.354906 0.298451
0.0644968 0.20501 0.204425
-0.0193492 -0.184928 0.220011
-0.0552295 -0.309774 0.162626
0.0198421 -0.168244 0.59275
-0.0218367 -0.363333 0.0243356
0.0380953 0.18512 0.219301
-0.0156107 0.178191 0.430405
-0.0177306 -0.241465 0.312461
0.0108084 -0.170445 0.389079
0.00713188 0.177802 0.163057
-0.0260488 -0.184537 0.398726
0.00188873 0.164625 0.399289
-0.0102712 -0.187551 0.237868
-0.00602437 -0.226942 0.284993
0.00179906 -0.341416 0.171972
-0.0152868 0.199406 0.124297
-0.0414471 0.113527 0.165811
-0.00589269 -0.387541 0.144009
-0.0134612 -0.198104 0.123117
-0.00914702 -0.328813 0.0290233
-0.0162418 -0.14026 0.167937
-0.0245177 0.406955 0.346617
-0.0124935 -0.16822 0.212382
-0.0055969 -0.360158 0.0417345
-0.00740338 0.174959 0.348039
-0.0285045 -0.227538 0.349002
-0.00217176 0.23679 0.459154
-0.0115965 -0.327369 0.0349989
-0.0193492 -0.184809 0.11009
-0.0218367 -0.447698 0.206566
-0.00459013 0.404776 0.180062
-0.0132824 0.223812 0.0362749
-0.0193492 -0.421409 0.21949
-0.0214894 -0.315307 0.0158335
-0.0542483 0.0716135 0.176198
-0.0149789 -0.0757485 0.471435
0.0124825 -0.235601 0.316648
-0.0055969 -0.413841 0.0900878
-0.00834742 -0.412748 0.250368
0.00385249 -0.30452 0.14905
-0.0323778 0.203437 0.458229
0.00404418 -0.293562 0.178004
0.0318123 0.0939614 0.166122
-0.0262463 0.315185 0.15938
-0.0183949 -0.182271 0.404311
-0.0134023 -0.210005 0.266459
-0.0110673 -0.414151 0.281311
-0.0963071 0.0424283 0.099848
-0.0134557 -0.374739 0.27379
0.0885307 0.192322 0.212186
-0.0175254 0.454362 0.153064
-0.000956259 0.10892 0.275541
-0.000789849 -0.0474159 0.451094
-0.0236442 -0.158514 0.583297
-0.0448786 -0.193007 0.357804
-0.00796405 0.212732 0.353102
-0.0164767 -0.341038 0.00664902
-0.0228482 -0.176471 0.386399
-0.013024 -0.263265 0.275181
-0.0419896 0.0574566 0.134152
0.00206453 -0.175777 0.388417
-0.0209249 -0.183379 0.0612218
-0.00382074 -0.242031 0.186194
-0.00142661 0.100008 0.347751
-0.0570174 0.198936 0.251864
-0.0371047 0.247235 0.437557
0.00290011 0.275159 0.351341
-0.000209599 -0.214807 0.0422642
-0.0146124 0.254655 0.182901
-0.0284093 -0.206311 0.369962
-0.00615265 -0.351694 0.282253
-0.0218367 -0.261065 0.311747
-0.0132016 0.407413 0.261206
-0.0430799 -0.241843 0.275685
0.0662157 -0.194501 0.589741
-0.0414471 0.0765262 0.20341
-0.0117465 0.197795 0.112174
-0.0198938 -0.443477 0.0927911
-0.00307455 -0.104363 0.351637
0.0119548 -0.186836 0.406232
-0.0167826 -0.272574 0.250986
-0.000369424 0.0919845 0.342633
0.0113145 -0.174218 0.379583
0.00360238 -0.324058 0.155852
-0.0463029 0.101846 0.179371
-0.00327859 0.395167 0.139931
-0.00903735 -0.150352 0.105785
-0.0441088 0.331249 0.130496
-0.0109278 0.216729 0.0685379
-0.0445411 0.320243 0.130612
0.00165251 0.152243 0.163851
-0.0205553 0.0652247 0.216033
-0.0218367 -0.162324 0.223119
-0.0443136 -0.231558 0.338759
0.00247172 -0.0341356 0.303504
-0.0165987 -0.433014 0.168103
-0.0414471 0.104032 0.135815
0.0283261 0.169023 0.204763
0.0277617 0.160043 0.189716
-0.00174214 0.194485 0.18462
-0.0237825 0.164919 0.462417
-0.00366618 -0.353702 0.299736
-0.04016 0.237383 0.148371
-0.048873 -0.258112 0.246839
-0.00669948 -0.328785 0.303921
-0.121378 -0.174378 0.581462
0.13963 -0.19462 0.591349
-0.0293978 0.296876 0.353872
-0.044889 -0.305133 0.145607
-0.00181462 0.11032 0.274257
0.014176 -0.168551 0.589184
-0.018784 0.326543 0.115223
-0.00878714 0.394447 0.0627728
0.00174484 0.297275 0.0141645
-0.0044636 -0.0295823 0.279639
-0.0471676 -0.277999 0.218432
-0.0106121 0.333096 0.26312
0.00193891 0.430588 0.222824
-0.0495446 0.135888 0.176489
-0.0218367 -0.435886 0.0974292
-0.0211082 -0.449641 0.146374
0.0392917 0.177718 0.219689
-0.0199655 0.322415 0.130106
-0.0055969 -0.42968 0.202503
-0.0153947 -0.434179 0.168924
-0.00310088 -0.059689 0.454648
-0.0259652 -0.306234 0.184057
-0.014185 0.0361943 0.264665
-0.0149671 -0.430539 0.225724
-0.00699255 -0.17222 0.0671324
-0.0191488 -0.300913 0.292213
0.00215669 -0.150277 0.42154
-0.0127388 0.400072 0.157381
-0.0426567 -0.203642 0.36966
-0.0495446 0.122239 0.183168
-0.0347857 -0.221146 0.353307
-0.0203217 0.0372825 0.245217
-0.0363152 0.149187 0.271479
-0.00290971 0.421649 0.0731058
-0.0478866 -0.207539 0.360078
-0.00955402 0.152085 0.395994
-0.00290971 0.42252 0.209028
-0.0127287 -0.326012 0.0422488
0.0808921 0.190058 0.217799
-0.0342843 -0.211444 0.32395
-0.0060596 0.082284 0.166262
-0.0438225 -0.20014 0.349206
-0.00970834 0.0424111 0.209531
-0.031443 -0.169833 0.41041
-0.018211 -0.272555 0.0219485
-0.000209599 -0.319467 0.318174
-0.00501165 -0.198644 0.262992
-0.0420605 0.0910245 0.156988
-0.00276448 -0.430565 0.0926962
-0.0141305 0.258907 0.0467928
-0.0189607 -0.0486365 0.332093
-0.0177858 0.150276 0.372774
-0.0112194 0.265454 0.0333931
-0.0141315 -0.444352 0.153889
-0.0414898 0.333807 0.13292
-0.0152868 0.438721 0.169896
0.0021169 0.144182 0.470914
-0.0423956 -0.310182 0.154851
-0.00637697 -0.377357 0.0587609
-0.0558097 0.292914 0.17667
-0.00470984 -0.208318 0.273294
-0.0156247 0.0297974 0.335219
-0.0495446 0.138876 0.159013
-0.00482974 0.0794507 0.190671
-0.014856 -0.0613241 0.310432
0.00430067 0.190455 0.469402
-0.0166479 -0.223246 0.0445482
-0.0656563 0.0226107 0.0863019
-0.00961054 0.175554 0.406757
-0.0262007 0.124691 0.155722
-0.00406349 0.00116719 0.293457
-0.000209599 -0.229935 0.298703
-0.0173034 -0.406789 0.0666216
-0.0136853 0.165952 0.390519
-0.0462288 0.30651 0.158007
-0.0155043 -0.160835 0.149123
-0.0389703 0.100678 0.161064
-0.0544647 0.274261 0.185229
-0.0099211 0.360153 0.267814
-0.0115466 -0.107013 0.515559
-0.00651541 0.153049 0.396066
-0.00128751 -0.161458 0.119427
-0.0525078 0.308221 0.164834
-0.0144097 0.276603 0.353069
-0.00774915 0.287536 0.355203
-0.00783958 -0.206838 0.078363
-0.00376057 0.264473 0.344432
-0.0396929 0.292642 0.1547
-0.00292845 -0.184973 0.0772893
-0.0480131 0.107871 0.207091
-0.0191985 -0.443286 0.154146
0.02762 -0.276996 0.198068
-0.0176183 0.144322 0.359663
0.0128622 0.14159 0.275211
-0.00519297 -0.265935 0.0969406
-0.054406 -0.301069 0.155598
-0.0142181 0.0335361 0.306223
-0.0350855 -0.190098 0.361513
-0.0152868 0.240615 0.0561465
-0.0414471 0.136023 0.158971
0.00193891 0.454828 0.116895
-0.0206437 -0.457461 0.189596
-0.00167385 -0.362021 0.177173
0.00509703 -0.208422 0.366333
-0.00398524 -0.253981 0.317828
-0.0125281 -0.439098 0.203367
-0.0041621 -0.3302 0.227279
0.00288653 0.337634 0.187027
-0.0534407 -0.15934 0.587061
-0.00884831 -0.367597 0.290581
-0.0429543 0.268054 0.146653
-0.0161949 0.370881 0.0148005
-0.0502739 0.126456 0.103317
-0.0428819 -0.243812 0.293483
0.00193891 0.262839 0.0199816
-0.0117539 -0.180863 0.114003
-0.0463029 0.0706735 0.135146
-0.0055969 -0.426368 0.112423
-0.00298315 0.0132496 0.280922
-0.0117057 -0.0576008 0.448384
-0.0128113 0.42242 0.0752738
-0.00641325 0.174527 0.171213
0.00886081 0.130905 0.165522
-0.0062192 0.07929 0.184461
-0.00461556 0.31727 0.371605
-0.0193492 -0.234789 0.279484
-0.00767163 0.439884 0.172171
-0.0105168 -0.0976806 0.487777
-0.0158375 0.116867 0.167536
-0.00918246 0.350894 0.289036
-0.00438681 0.244025 0.0423748
-0.00861382 -0.230416 0.240631
-0.00787215 0.422135 0.0909067
-0.0409724 -0.234597 0.338977
-0.0220861 -0.17367 0.401454
-0.0179661 -0.152325 0.220213
-0.0117645 -0.0571247 0.447816
-0.00567417 -0.204308 0.0600836
0.000877979 0.248113 0.443844
-0.0188837 -0.358481 0.298276
-0.00780438 -0.168181 0.122405
-0.0102219 0.135247 0.331582
-0.0165988 -0.359433 0.291449
-0.0175254 0.420305 0.0561499
-0.0175497 -0.461858 0.143476
-0.00144096 0.331549 0.00180626
-0.027152 0.304036 0.359036
-0.0237071 -0.172635 0.398865
-0.0319995 0.145632 0.269605
-0.0151373 -0.254503 0.00866129
0.00022774 -0.141079 0.481966
-0.0554228 0.096797 0.14056
-0.045247 0.337388 0.160679
0.00161549 0.298986 0.196441
0.00125587 0.383932 0.2629
-0.0180552 -0.138593 0.420453
-0.00290971 0.388136 0.0499193
-0.0193492 -0.397358 0.0610696
-0.0171483 0.078504 0.324815
-0.0193492 -0.419454 0.232163
-0.000209599 -0.25093 0.0236781
0.0400446 0.169318 0.213555
-0.0221064 -0.190393 0.381337
-0.00600696 0.294986 0.261379
-0.0193492 -0.396788 0.0710478
-0.002443 0.130833 0.337036
0.000392259 0.42738 0.0538875
-0.0166899 -0.159061 0.166928
-0.0527576 0.0414764 0.172334
-0.0131122 -0.160431 0.414046
-0.0471009 -0.220937 0.342134
-0.00199375 0.0923281 0.204133
-0.00695149 -0.366872 0.0369449
-0.0422262 -0.16681 0.594666
0.00871109 0.178502 0.456657
-0.0175254 0.189866 0.189652
-0.0809219 0.0292391 0.0934068
-0.0218568 0.203127 0.443334
-0.0152868 0.353714 0.265275
0.0294541 0.108455 0.172545
-0.0208015 -0.432704 0.233735
-0.0216726 0.239327 0.432531
-0.0139855 -0.00391044 0.255419
-0.0462718 0.240564 0.156192
-0.0172777 -0.0830347 0.488658
-0.0152868 0.336539 0.0223526
-0.0435104 -0.300432 0.155007
-0.0428452 -0.216135 0.359733
0.00237455 -0.307843 0.14471
-0.00166548 -0.0796729 0.33068
0.0718385 0.178768 0.21603
-0.0108676 -0.363573 0.287733
-0.0227526 -0.311948 0.152721
-0.0178133 -0.31648 0.0222843
-0.000209599 -0.157058 0.208229
-0.00141329 0.0343361 0.278731
-0.0288409 0.271763 0.342197
-0.00597027 0.0659469 0.307695
-0.0433272 0.109341 0.134802
1.77093e-05 -0.136385 0.498092
-0.0193492 -0.304556 0.0230395
-0.0405745 -0.231968 0.334998
-0.0218367 -0.340484 0.31329
0.00193891 0.307591 0.282898
0.0756355 0.195957 0.218733
-0.0472685 0.150204 0.103377
-0.00309035 -0.0500226 0.443141
-0.0414471 0.109232 0.203737
-0.141856 -0.16295 0.578206
-0.00994546 0.235254 0.243978
0.0039952 -0.181605 0.376752
-0.00834175 0.113008 0.224387
-0.0487126 0.257643 0.152861
-0.142094 -0.16169 0.584589
-0.014293 -0.0821198 0.47639
-0.0192454 -0.205033 0.264206
-0.00280335 -0.185599 0.251776
-0.013456 0.418046 0.251852
0.0418117 0.25 0.2094
-0.0135528 -0.432421 0.144287
-0.0116151 -0.306693 0.150684
0.0591245 -0.164179 0.585429
-0.0192515 0.325203 0.120316
-0.0131477 0.297265 0.0212496
-0.0122618 0.214195 0.0721391
-0.0172856 0.162323 0.352646
-0.0165988 -0.339847 0.287871
-0.00408907 -0.307048 0.150794
-0.0152134 0.460892 0.13491
-0.0452109 0.194148 0.103038
-0.00777112 -0.349477 0.0435586
0.00143276 0.334784 0.0064877
-0.0445559 0.0745125 0.194849
0.0191101 -0.23304 0.295379
-0.0430705 0.310331 0.165359
-0.0193492 -0.16948 0.188529
-0.0297434 -0.162404 0.393297
-0.0442789 0.162745 0.271683
-0.0206353 0.313325 0.13087
-0.00423227 -0.25992 0.231891
-0.0089728 -0.434673 0.111057
-0.00658866 0.135358 0.36313
-0.125946 0.0459629 0.0958119
0.0356096 0.263396 0.151527
-0.0206424 -0.287125 0.0993855
-0.0193492 -0.179116 0.211242
-2.2509e-05 0.302072 0.34754
-0.0184947 -0.178846 0.194537
-0.0899262 -0.194742 0.591524
-0.00545355 -0.223877 0.283562
-0.0209327 -0.240507 0.298225
-0.0055969 -0.362415 0.0455539
0.0372659 0.312849 0.160637
-0.000832855 0.391813 0.337403
-0.020766 -0.327713 0.319093
-0.00337638 -0.0969055 0.489923
-0.0495446 0.0923073 0.109135
-0.0144197 -0.182172 0.404819
-0.0175254 0.304327 0.0105513
-0.0103291 0.00755301 0.38982
-0.0326473 0.309408 0.372234
-0.0151962 -0.254557 0.285232
-0.0808785 0.0268782 0.0960555
-0.0137399 -0.00784045 0.412229
0.0273279 -0.276095 0.200172
0.0433102 0.250948 0.211272
0.00139324 0.243893 0.265902
-0.01193 -0.395995 0.256331
-0.0325403 0.216414 0.434348
-0.042956 0.315518 0.163293
-0.0137744 0.352119 0.210044
-0.0518744 0.230802 0.226232
-0.00271569 0.127578 0.354246
-0.0228797 -0.165831 0.396513
-0.0055969 -0.18119 0.102308
-0.0165987 -0.293069 0.0245574
-0.00588033 -0.441707 0.140192
0.00395279 0.3317 0.361328
0.000537229 0.220384 0.0575645
-0.0386851 0.191611 0.160108
-0.00708351 0.126433 0.252987
-0.0165412 -0.102084 0.351699
-0.0104036 0.067896 0.310201
-0.0124589 0.376265 0.280648
0.0219982 -0.207012 0.375628
-0.0442582 0.0515408 0.119316
-0.0530879 0.322001 0.113293
0.0113755 0.249638 0.446724
-0.0433361 0.0986789 0.174921
0.0164145 0.236168 0.155914
-0.00984444 -0.43989 0.200607
-0.00355613 0.220914 0.228102
-0.0193492 -0.191101 0.083142
0.00889701 0.332127 0.147653
-0.00290971 0.279263 0.258354
-0.0577644 -0.159149 0.589344
-0.0211031 -0.179078 0.0674937
-0.0916183 0.0137512 0.0970117
0.000901718 -0.203859 0.351173
-0.00687743 0.149745 0.476424
-0.00276706 0.0870546 0.346363
-0.00652002 0.17424 0.356689
-0.0218367 -0.336368 0.0168067
-0.00620147 0.0870802 0.170932
-0.029052 -0.211489 0.372606
0.0464412 0.173724 0.219898
-0.0091214 -0.274476 0.0272673
-0.0178092 0.0901168 0.192914
-0.0156539 0.284587 0.273959
-0.0193492 -0.188659 0.090583
-0.0111161 0.205214 0.0863687
-0.0169631 0.154516 0.475948
-0.00244126 -0.105849 0.498145
-0.081039 0.0291909 0.0926708
-0.0104916 0.316693 0.144546
-0.00340477 -0.0189884 0.426931
-0.0164887 -0.440359 0.0791596
-0.0419396 0.112725 0.138147
-0.0030579 0.080139 0.217509
-0.0444679 0.0842927 0.197471
-0.0092008 0.343037 0.052187
-0.0258042 -0.193409 0.385786
-0.0129372 -0.406473 0.256119
-0.055292 -0.19057 0.593539
-0.0019205 0.291902 0.0909578
-0.0152229 -0.255512 0.293372
0.011871 0.312124 0.140103
-0.0112346 0.0605976 0.239206
-0.00931987 0.311572 0.359658
-0.0847744 0.0119768 0.0993725
-0.00811532 -0.217088 0.103623
-0.00173428 0.175146 0.174425
-0.10577 0.0243871 0.0918857
-0.0188791 0.249433 0.451738
0.0226775 -0.215497 0.361047
-0.0175254 0.376758 0.269591
0.00688499 0.318117 0.152253
-0.0530495 0.0527101 0.19232
-0.0273208 0.137496 0.154382
-0.0105234 0.251738 0.252401
-0.0218367 -0.207937 0.279661
-0.000209599 -0.173852 0.0844361
0.0165027 0.210512 0.444375
-0.00869537 -0.224464 0.0447291
0.00713791 0.303237 0.143258
-0.00538522 0.404629 0.0684269
0.0279472 -0.213217 0.356929
0.0688506 -0.197014 0.589262
-0.0297397 -0.289754 0.150056
0.0320699 -0.279009 0.185325
0.00729967 0.316197 0.133494
0.00159462 0.0172299 0.247499
-0.0106406 -0.290674 0.276321
-0.0174693 0.236089 0.0408632
0.00534273 0.152295 0.166384
-0.00504942 0.0881431 0.208974
-0.00290971 0.404825 0.230454
-0.00705323 0.00182787 0.247987
-0.0210788 0.150679 0.466853
-0.0152868 0.242059 0.0573225
-0.00593033 -0.209246 0.075563
-0.00972087 -0.299899 0.0556757
-0.00030829 0.222685 0.236588
-0.0145606 -0.375833 0.308623
-0.016971 -0.160343 0.430219
0.0331118 -0.28659 0.197787
0.00395279 0.305558 0.356137
-0.0441694 0.102927 0.149265
-0.0152868 0.425558 0.205833
-0.0188216 -0.179427 0.398037
-0.00694088 0.218414 0.12558
0.00822514 -0.224756 0.349154
-0.0152868 0.203059 0.119438
-0.0152868 0.197962 0.114944
-0.00366894 0.250677 0.0524024
-0.000209599 -0.447407 0.198649
-0.05206 0.0396027 0.152319
-0.0193492 -0.395849 0.259294
-0.00569404 -0.363817 0.277106
5.08982e-05 0.410387 0.256461
0.00313518 0.173186 0.472561
0.0679222 -0.170378 0.599302
-0.022992 0.322227 0.359379
-0.00614784 0.337999 0.0194243
-0.0169006 0.168631 0.41777
-0.0235635 -0.191208 0.389562
-0.0165674 -0.270968 0.0276124
-0.000209599 -0.4501 0.189253
-0.0193492 -0.376788 0.271214
-0.0158266 0.0713103 0.18629
-0.00112331 0.175198 0.165987
0.0079715 -0.179768 0.409898
-0.0205581 0.0053049 0.272827
-0.0193492 -0.41112 0.0822552
-0.00339547 0.200928 0.194286
-0.0425999 -0.312218 0.146274
0.0117263 -0.194948 0.353297
-0.0298671 -0.201088 0.383951
0.0204636 -0.249977 0.256343
-0.00444956 0.37283 0.0445109
-0.0236522 0.247823 0.342261
-0.0829867 -0.163036 0.580931
-0.025042 -0.228814 0.337934
-0.0213268 0.167798 0.398481
-0.0470211 0.0504684 0.125703
-0.0058413 0.167505 0.394321
-0.0524181 0.112532 0.105673
-0.000519572 0.450024 0.0878076
0.0256166 -0.185351 0.375812
-0.0138254 -0.0156297 0.4233
-0.0170994 -0.340721 0.299573
0.0188008 -0.219425 0.360712
0.0373339 0.200041 0.218519
-0.0175254 0.342164 0.0138433
-0.0266374 0.142666 0.167366
0.0337698 0.0996592 0.156815
-0.0354865 -0.165731 0.395787
-0.000807087 -0.145968 0.169856
-0.020033 0.286391 0.373294
-0.0508359 0.118035 0.15228
-0.0279172 -0.206234 0.368829
0.00178303 0.362479 0.144886
-0.00106974 -0.459538 0.169338
-0.0130208 -0.404457 0.0805201
-0.00244462 0.130042 0.478389
-0.0218367 -0.249976 0.0227887
0.0316241 0.192819 0.211062
-0.0125423 -0.231755 0.0398113
-0.00290971 0.378612 0.249238
-0.0430662 0.129422 0.161145
-5.5332e-05 -0.02674 0.313818
-0.0951286 0.00591421 0.0992953
-0.0203833 0.396778 0.350277
-0.0473773 -0.203056 0.349878
0.0692042 0.177098 0.214503
0.0255531 -0.179435 0.40019
0.00486702 -0.225761 0.330008
-0.0414471 0.0581158 0.182515
-0.000209599 -0.151372 0.15495
-0.0424289 0.0746362 0.149718
0.00349155 0.346275 0.149483
-0.0160411 -0.243784 0.280467
-0.047616 0.0402972 0.143575
-0.00405721 0.10749 0.216607
-0.0657417 0.0321988 0.104108
-0.0439614 0.212047 0.183185
-0.0142656 0.0839526 0.154457
-0.0195226 -0.323671 0.320947
-0.011509 -0.179034 0.101882
-0.0334965 -0.159127 0.594199
-0.0323624 0.313807 0.347243
-0.0173759 0.110575 0.241333
0.000655378 0.312572 0.288354
-0.0300714 0.0926268 0.171904
-0.0247746 0.329949 0.140654
-0.0215682 -0.178238 0.245559
-0.00400095 0.20261 0.142254
-0.0138587 -0.0479662 0.439216
-0.00527332 0.183866 0.444513
-0.0177021 -0.373721 0.129217
-0.0484353 -0.204465 0.358053
0.0163104 -0.169089 0.38129
0.00395279 0.35313 0.364053
-0.025785 -0.190896 0.357578
0.000294205 -0.21369 0.339336
0.0740106 -0.174353 0.596964
-0.00834742 -0.332099 0.28952
-0.00726116 0.173648 0.128229
0.0060276 -0.208309 0.339472
-0.0218367 -0.433915 0.0855248
-0.0103668 -0.17401 0.139594
-0.0136872 0.0539974 0.243671
-0.0432822 0.274969 0.104214
-0.0113769 -0.170019 0.394661
-0.00864857 -0.255064 0.318942
-0.0218367 -0.172279 0.0876662
-0.00368679 0.426016 0.216354
-0.0197746 -0.205688 0.0533764
-0.00390747 -0.0868337 0.480807
-0.000445447 -0.127726 0.378272
-0.0152868 0.327016 0.267627
-0.0385461 -0.249515 0.26955
-0.0414471 0.0655917 0.165447
0.0015164 0.278645 0.162633
0.00564426 -0.302807 0.16097
-0.0055969 -0.421016 0.219539
-0.00389551 0.134238 0.356367
-0.0055969 -0.304363 0.298805
-0.00529719 0.284633 0.23181
-0.0130936 -0.430371 0.129998
-0.00720776 -0.45513 0.108248
-0.00837201 -0.280025 0.0254427
-0.00961816 -0.0164933 0.398362
-0.0573173 0.204574 0.256479
-0.041947 0.234213 0.104138
-0.00338779 0.224665 0.431948
-0.00252017 0.119806 0.464781
-0.00610919 0.124866 0.343132
0.015268 -0.191579 0.355746
-0.0402447 -0.230888 0.314474
-0.0471855 0.085024 0.106385
-0.0703257 0.0574446 0.128648
0.00231607 0.149341 0.458551
0.0831352 -0.165621 0.598874
-0.0148381 -0.299753 0.00147271
-0.0480131 0.106907 0.209677
0.0234313 -0.223638 0.346426
-0.0503388 0.127769 0.103462
-0.0218367 -0.215947 0.28618
0.00211185 0.298125 0.107577
-0.049628 0.0473906 0.134289
0.00199447 0.0272358 0.239827
-0.0181551 0.0613833 0.325151
-0.0157754 0.449672 0.201354
7.64059e-05 -0.150285 0.459803
-0.0218367 -0.351521 0.0188787
-0.00575517 -0.106214 0.542328
-0.000313689 0.437718 0.202346
-0.0193492 -0.37247 0.0485037
-0.00232362 0.356673 0.0802065
0.0196863 -0.191849 0.399634
-0.00105766 -0.459056 0.155813
-0.0175254 0.408105 0.251172
-0.0196574 0.0723596 0.32313
0.0860943 -0.169328 0.582879
-0.0132347 0.402312 0.241541
-0.00191714 -0.433872 0.229577
-0.0207363 -0.128289 0.39752
-0.00214881 0.356038 0.0813994
-0.0239789 0.30832 0.155381
0.00230544 -0.121379 0.392404
-0.0166471 0.459483 0.137403
0.0248249 -0.18125 0.392276
-0.019289 -0.351009 0.302096
-0.0269883 -0.207294 0.367108
-0.020686 -0.00403435 0.280224
-0.0156706 0.390618 0.0358232
-0.0472802 -0.27056 0.211325
-0.126112 0.0264344 0.0903936
-0.0193492 -0.310391 0.298952
-0.0172541 0.220842 0.431644
0.00421827 -0.203439 0.354895
-0.0244984 0.247328 0.45673
-0.0152868 0.280796 0.257511
0.0339598 0.1832 0.27208
0.0861571 -0.189175 0.587128
-0.00464139 -0.182501 0.403128
-0.0175254 0.335827 0.282186
-0.00972518 0.190647 0.447542
-0.0232076 0.230469 0.46067
-0.00761268 -0.385547 0.279402
0.0238715 -0.213711 0.335381
-0.00353266 -0.142014 0.429069
-0.0220216 0.158018 0.46647
-0.044889 -0.316264 0.161197
-0.00122424 0.400058 0.0266221
-0.0397486 -0.234055 0.316812
-0.0442583 0.0645906 0.135318
-0.0528484 0.295124 0.115081
-0.011665 0.321209 0.274988
-0.00788245 -0.105356 0.515201
-0.0270133 -0.320015 0.164191
-0.0181821 -0.142066 0.160703
-0.039859 -0.206897 0.331573
-0.0182999 -0.233083 0.136557
-0.00417776 0.196339 0.107635
-0.0285215 -0.3178 0.165605
-0.0117999 0.406384 0.233921
-0.0124248 0.193369 0.154855
-0.0439366 0.0899342 0.140158
-0.00789367 0.360777 0.0291321
-0.00945495 -0.200283 0.256033
-0.0463402 -0.195717 0.380677
-0.0193086 0.445227 0.339663
-0.0055969 -0.172747 0.152902
-0.0417434 -0.225605 0.343343
0.0138171 -0.166713 0.39023
-0.0141608 -0.127049 0.415309
-0.0090609 0.191484 0.129011
-0.015823 0.360269 0.180788
-0.00352757 0.44089 0.178036
-0.0285715 0.12736 0.157968
-0.00953063 -0.425164 0.228458
0.0079199 0.315209 0.157015
-0.00816794 -0.423064 0.117314
-0.019345 0.314833 0.162887
-0.0682044 -0.191231 0.582832
-0.0103948 0.153688 0.398983
-0.00268728 0.118728 0.469359
-0.0218367 -0.205894 0.044343
-0.0486191 0.128764 0.149821
-0.00485928 0.244438 0.0892742
-0.00290971 0.306499 0.263895
-0.0193492 -0.385125 0.0592604
-0.00698713 0.0343728 0.217227
0.025854 -0.275731 0.219994
-0.00812142 -0.402798 0.140758
-0.0201628 -0.368535 0.0208865
-0.012721 0.328116 0.369899
0.011871 0.306464 0.14433
0.00237455 -0.30774 0.159689
0.000264307 0.434821 0.0637927
-0.0101474 0.0800506 0.194579
-0.0161511 0.458045 0.172628
-0.00847769 0.434857 0.15764
-0.0152868 0.440925 0.119023
-0.0118439 -0.111554 0.569416
-0.016799 -0.44376 0.138453
-0.0160581 0.424922 0.0521216
-0.0158979 0.195371 0.217312
-0.00479656 -0.170368 0.407934
-0.00707656 -0.25491 0.0445253
-0.0188914 -0.31524 0.0980403
-0.00841608 0.412284 0.0817685
0.00988541 -0.204069 0.341679
0.0633788 -0.168323 0.584005
-0.0193492 -0.340426 0.29482
-0.0139029 -0.396753 0.214368
-0.0126488 0.181169 0.195327
-0.0189643 -0.18738 0.245208
0.00287246 -0.322728 0.168116
-0.0218367 -0.252128 0.308885
-0.0173632 0.176456 0.362149
-0.0344711 0.371333 0.349647
-0.00193656 -0.0296769 0.31993
-0.0218367 -0.156288 0.129381
-0.0247515 0.323427 0.370637
-0.0671147 -0.172136 0.591133
-0.0129099 -0.309619 0.155215
-0.0175254 0.451014 0.190063
-0.000129312 -0.136138 0.500104
-0.00739772 0.389295 0.248302
-0.0495084 0.0777075 0.108517
-0.0233877 0.246821 0.341022
-0.00361746 0.0619547 0.320438
-0.0327297 -0.206272 0.330134
0.0310131 -0.300262 0.155156
0.011871 0.318615 0.138249
-0.00152362 -0.448708 0.142643
-0.0111712 0.236452 0.0478777
-0.055961 0.0794214 0.156016
-0.0414471 0.0610323 0.129328
-0.0384997 0.245527 0.176649
-0.00072067 0.322364 0.348728
-0.0222193 0.230388 0.460688
-0.00213535 0.352985 0.271279
-0.0172994 -0.06174 0.463197
-0.053544 0.0624718 0.113606
0.00192444 0.297202 0.285313
-0.067289 0.0538726 0.125084
-0.0344711 0.31572 0.361684
-0.0207201 -0.448957 0.182142
-0.0256645 -0.305852 0.190035
-0.000577803 0.322014 0.278032
-0.022096 -0.217946 0.335449
0.00395279 0.389437 0.350775
-0.0128113 0.254863 0.0364569
-0.0147107 0.200322 0.0904368
-0.075433 -0.176536 0.588024
-0.00625352 0.362606 0.0297191
-0.0191441 0.117267 0.169085
-0.0167446 0.283559 0.282915
0.00229625 -0.0458409 0.320873
-0.000107548 0.411169 0.0526826
-0.015295 0.296408 0.0165331
-0.0414412 0.317682 0.114152
-0.0263011 -0.305696 0.171225
-0.0175471 -0.282277 0.303527
-0.005364 -0.386263 0.142603
-0.00290971 0.426465 0.206253
-0.0481955 0.276612 0.108639
-0.0175254 0.314028 0.00747195
-0.00290971 0.208322 0.105344
0.00720224 -0.173883 0.380449
-0.0175254 0.347926 0.0107381
-0.0169329 -0.32105 0.0703565
-0.014025 0.426925 0.0803755
0.0842638 -0.194311 0.592028
-0.00818376 -0.307073 0.304438
0.009024 -0.317278 0.165992
-0.00103643 -0.448137 0.136667
0.0545876 0.169337 0.213908
-0.00304083 -0.120116 0.515429
-0.015582 0.396455 0.0398788
-0.00299793 -0.20071 0.039807
-0.00722756 -0.398073 0.14006
0.00417553 -0.2029 0.349498
-0.0036172 0.286772 0.257483
-0.0498508 -0.270933 0.206972
0.000570714 -0.120061 0.400219
-0.0114795 0.0214078 0.322301
0.0096033 0.207339 0.440485
-0.0527531 0.0999965 0.124087
-0.0274845 0.115184 0.162752
-0.0151387 0.35073 0.0073462
-0.0181669 -0.444894 0.161116
-0.0146757 0.230025 0.237886
-0.044327 -0.162901 0.596006
-0.0157165 -0.439587 0.141512
-0.00515554 -0.339205 0.0804877
-0.0199011 -0.0280297 0.309232
-0.0444121 -0.203708 0.361014
-0.0717162 0.0281423 0.0888061
0.00390188 0.279922 0.347394
-0.0206814 -0.382692 0.0396864
-0.139232 -0.157574 0.586843
-0.00106026 -0.149081 0.129426
-0.0219413 0.330171 0.147742
-0.00704051 0.108397 0.216002
-0.00128742 -0.00843812 0.394007
-0.00671472 0.238544 0.0856125
-0.00533228 -0.232357 0.0384
-0.0805416 0.0268043 0.0921017
-0.0495446 0.0564663 0.190774
-0.0133936 0.0762262 0.17912
-0.00290971 0.199013 0.108155
0.0241389 0.315803 0.151947
-0.00104611 -0.0195582 0.415233
-0.0123513 -0.0507179 0.298531
-0.0434939 -0.220787 0.320403
-0.00808362 0.159589 0.369535
0.0205781 0.198095 0.162451
-0.0344711 0.285185 0.357445
-0.0124447 -0.437087 0.254291
-0.00245914 -0.365373 0.0316811
-0.000953972 -0.342802 0.0213671
0.00441662 -0.19527 0.366371
-0.042716 0.168645 0.105558
-0.0110634 0.32788 0.274287
-0.0109428 0.301077 0.0610668
-0.0411616 0.185594 0.103263
-0.0143218 0.159771 0.413874
-0.0169909 0.352931 0.0101073
0.00177485 0.277704 0.0189705
0.00966772 0.328647 0.138653
-0.0042177 0.10412 0.240259
-0.01814 -0.324402 0.322502
-0.0055969 -0.269602 0.0344539
-0.0190841 -0.245749 0.199796
-0.0106337 0.316842 0.35952
-0.0102143 0.273328 0.00765404
-0.0128137 -0.412899 0.109779
-0.018144 0.113181 0.34232
-0.0193492 -0.424131 0.232965
-0.0387263 -0.177232 0.404919
-0.00538522 0.297882 0.270364
-0.00708952 0.265671 0.263079
-0.0149147 0.0461774 0.314823
-0.0193492 -0.430864 0.147249
-0.00747333 0.202839 0.172556
-0.0530158 0.322888 0.126353
-0.013312 -0.40646 0.261169
0.00826143 0.188789 0.161089
-0.0168702 -0.110833 0.508862
-0.0152868 0.381563 0.253579
-0.0434223 0.250864 0.148114
-0.021577 -0.334665 0.123098
-0.012181 -0.241117 0.0519283
0.00511693 -0.200249 0.343375
-0.0188327 -0.338853 0.318624
-0.00457799 0.0693046 0.311766
0.0161763 -0.247078 0.287255
-0.0519282 0.220119 0.238728
-0.0123841 -0.405181 0.113092
-0.0256814 -0.294538 0.188326
-0.00268012 0.12691 0.340827
-0.0520226 0.324684 0.140714
-0.0550884 -0.281166 0.202844
-0.00455968 -0.266918 0.0968192
-0.0193492 -0.177875 0.223992
-0.0173252 0.277802 0.353201
-0.0083988 -0.171243 0.259367
-0.0366623 -0.311922 0.150485
-0.0256457 -0.214391 0.354624
-0.0184472 -0.204594 0.0620606
-0.0197275 -0.0248456 0.306815
0.100788 -0.166578 0.580828
0.0228764 -0.195638 0.389859
-0.0510361 0.250277 0.209338
-0.00538522 0.392435 0.236686
-0.0234514 -0.321726 0.156272
-0.0365906 -0.222771 0.319153
-0.0152868 0.352765 0.26122
-0.00726124 -0.240543 0.035965
-0.0124952 -0.177438 0.200593
-0.0127664 -0.208936 0.225691
-0.0954683 -0.16306 0.580198
-0.0156425 -0.440896 0.152292
0.0114957 -0.201742 0.386173
-0.017345 0.0386546 0.312408
0.00136937 -0.0365298 0.318113
0.00193891 0.453862 0.166154
-0.0174348 -0.0260572 0.429413
0.0247759 -0.295173 0.160566
-0.0480131 0.0651605 0.201877
-0.00273484 -0.376301 0.290176
-0.0457433 0.0718134 0.208296
-0.0055969 -0.435209 0.183842
0.00193891 0.45292 0.108451
-0.00951273 -0.344954 0.265029
-0.0223896 -0.212472 0.346115
0.00129292 0.44927 0.199724
-0.00269532 -0.302678 0.31029
-0.0232469 -0.192604 0.357849
-0.0253506 -0.289126 0.154055
-0.0442034 0.0837944 0.197421
-0.00854198 -0.438608 0.197931
-0.0153832 0.130442 0.461069
0.0314195 0.118277 0.170123
-0.0193492 -0.250182 0.0372021
-0.01582 -0.117173 0.544752
-0.0247781 -0.198155 0.359069
0.00166527 0.350882 0.346196
-0.0174015 -0.166879 0.423697
-0.0203799 0.0712419 0.212328
-0.0189983 0.126559 0.271932
-0.0464623 0.147199 0.149908
-0.00213371 0.383038 0.14211
-0.0861166 -0.17613 0.591992
-0.0255328 0.247699 0.344102
0.0339343 0.192378 0.210145
-0.0522162 0.312118 0.151758
0.00179897 0.442913 0.0814069
0.0199303 0.226785 0.450383
-0.0165988 -0.403483 0.245381
-0.00375618 -0.131209 0.524128
-0.00976948 0.386673 0.0699361
-0.00302057 -0.0103611 0.262721
-0.0092569 -0.155723 0.594701
-0.0152868 0.241868 0.0480559
-0.013484 0.177078 0.471849
-0.00691884 0.41872 0.184926
-0.0177181 -0.313576 0.241361
-0.0154071 -0.334758 0.0250633
-0.014576 0.135133 0.361544
0.0199451 -0.222669 0.354208
-0.000209599 -0.448489 0.200422
-0.0206214 -0.307964 0.151318
-0.0203434 0.442694 0.341194
0.00201344 -0.0949151 0.370678
-0.00541502 0.103667 0.268321
-0.0186432 -0.191431 0.0762583
-0.0200884 0.29965 0.177814
-0.0314336 0.381881 0.355709
-0.023131 0.108695 0.155997
-0.0209725 0.148559 0.464032
-0.0148309 -0.144882 0.202351
-0.00386624 -0.149043 0.113817
-0.00484236 0.214749 0.0714737
0.0277195 -0.210013 0.343038
-0.00537567 -0.224399 0.0438275
-0.00501074 0.402782 0.0271829
-0.00290971 0.240669 0.241516
-0.030534 -0.176633 0.381823
-0.036442 -0.217715 0.360174
-0.00958535 0.386947 0.241862
-0.00142887 0.0906864 0.31037
-0.0055969 -0.236989 0.278632
0.000130906 0.29936 0.0157754
-0.135399 -0.16143 0.594285
-0.00409704 0.18834 0.0803866
-0.0381971 0.299388 0.131398
-0.0114167 0.216285 0.354068
-0.0344711 0.376918 0.342352
-0.0145721 0.196112 0.221768
-0.00996738 -0.299891 0.0534618
0.0123356 -0.184873 0.36029
-0.00545416 -0.167981 0.0729668
-0.0116164 -0.336111 0.302094
-0.0182121 0.206444 0.44109
-0.00420477 0.379648 0.0347427
-0.0202478 -0.222332 0.330258
-0.0427344 0.132895 0.184118
0.0058053 0.324042 0.169057
-0.0440569 0.240518 0.103084
-0.00595976 -0.390458 0.257826
-0.0253915 -0.189973 0.365506
-0.00492663 -0.167213 0.213293
-0.00406264 0.443906 0.125037
0.0139195 -0.1913 0.395413
-0.0440513 -0.29342 0.165996
-0.0102611 0.268803 0.253025
0.00271221 0.440844 0.335093
-0.0354279 -0.312842 0.167331
-0.000669059 0.0413 0.298356
-0.00193254 0.212139 0.464951
-0.0118947 -0.159795 0.414302
0.0330564 -0.282161 0.205693
-0.0121334 -0.388002 0.0501252
-0.0300153 -0.196405 0.347521
0.00211975 -0.104111 0.378186
-0.0156883 0.0614289 0.319516
-0.017525 -0.168134 0.419273
-0.0128115 0.249732 0.253118
-0.00249162 -0.129891 0.376811
-0.00501632 0.266327 0.042781
-0.0198737 0.289624 0.140187
-0.0488789 -0.259806 0.235494
-0.00264274 -0.425123 0.243597
0.133705 -0.160871 0.587121
-0.0414471 0.127159 0.184196
-0.00257297 0.376443 0.357847
-0.0186218 -0.163504 0.085284
-0.0193492 -0.244885 0.043104
0.000662887 0.401266 0.261917
-0.00663626 0.321145 0.000352885
-0.0239976 0.188004 0.448056
0.0242211 -0.309009 0.138296
-0.0104366 -0.313542 0.305714
0.0285787 -0.210345 0.338427
-0.00101285 -0.1553 0.436235
-0.0313509 -0.207227 0.37894
-0.0184521 0.0863587 0.300862
-0.0417848 0.323207 0.132564
-0.013141 0.0246445 0.368183
-0.0110288 -0.211144 0.0611341
0.0302336 0.244712 0.149244
0.0104494 -0.309645 0.170401
-0.0414471 0.0766859 0.147872
-0.0168319 -0.204234 0.268552
-0.0055969 -0.207158 0.259692
-0.0143644 0.442515 0.119695
-0.0103674 0.166568 0.452222
-0.0055969 -0.247626 0.285319
0.0183572 -0.172472 0.377687
-0.0152854 -0.415534 0.0831677
-0.0214968 0.171209 0.399248
-0.0306695 0.0914345 0.151146
0.0275039 -0.274292 0.201773
0.0800186 0.190089 0.209419
-0.0193543 -0.192076 0.260007
-0.00374416 0.444971 0.169302
-0.000434666 0.243736 0.433341
-0.0193492 -0.437515 0.12757
0.00166911 0.0703442 0.197417
-0.0349768 0.195515 0.15096
-0.0165988 -0.174028 0.168875
-0.0120659 -0.376811 0.0197264
0.0399147 0.309214 0.165929
-0.00903687 -0.422921 0.215258
0.0321263 -0.271164 0.207904
-0.015166 -0.0218195 0.430225
-0.00283779 0.0110072 0.382049
0.135065 -0.163701 0.595152
0.078963 -0.178665 0.590208
0.00395279 0.377863 0.347131
-0.0429654 0.0669678 0.17813
-0.00290971 0.228904 0.221345
-0.0241078 -0.194862 0.368509
-0.0128508 0.244703 0.356513
-0.00290971 0.20141 0.125053
-0.132042 0.0279024 0.0939304
0.00568968 0.321458 0.165623
-0.0279952 0.185868 0.467663
0.00193891 0.178592 0.145552
0.00154224 0.459418 0.149042
0.00123176 0.410319 0.0497617
-0.00556802 0.424067 0.196462
-0.0176426 -0.147337 0.122647
-0.00246105 -0.172435 0.231857
-0.00354712 0.396847 0.0615536
-0.0426711 0.0948676 0.211851
-0.00303615 -0.248258 0.124272
-0.00588725 -0.334967 0.0883323
-0.00840756 0.256562 0.254698
0.00269956 -0.302418 0.137567
-0.0102016 0.221178 0.067839
-0.0198663 -0.0275674 0.289802
-0.00771804 -0.301725 0.291837
0.0223931 -0.226037 0.341156
-0.0567894 0.191028 0.2687
-0.037846 -0.235394 0.335653
-0.0137052 0.158664 0.370667
-0.125946 0.00816571 0.0935555
0.0593166 0.170537 0.206231
-0.00378558 0.135956 0.359167
0.019916 0.155356 0.270279
-0.0129241 0.459586 0.110743
-0.00909126 -0.108187 0.399594
0.000724493 0.452185 0.19534
-0.0464976 0.0742921 0.120977
-0.0485371 0.307643 0.144578
-0.0414471 0.0450201 0.164471
-0.0232509 0.178123 0.162275
-0.0301791 -0.210816 0.324895
-0.0155356 0.114193 0.167759
-0.0193492 -0.201249 0.246484
-0.0321591 -0.291209 0.163085
-0.0161212 -0.313288 0.305977
-0.0462923 -0.220319 0.349299
4.43208e-05 0.207001 0.235917
-0.00337009 -0.0504799 0.461179
0.0299996 -0.263979 0.232902
-0.0177696 -0.462466 0.173844
-0.0153369 -0.131482 0.418375
-0.0414412 0.312752 0.124176
0.0689702 -0.187508 0.587801
-0.00417343 -0.354269 0.0105279
0.00708027 -0.193829 0.356812
-0.00290971 0.211382 0.203959
-0.00562482 -0.231935 0.270891
-0.0497799 -0.261232 0.242144
-0.0103658 -0.246649 0.0612482
-0.0230231 -0.309028 0.207263
-0.0136089 -0.179624 0.11804
-0.013634 -0.299713 0.0251463
-0.0740209 0.0558413 0.127049
-0.00253235 -0.385876 0.0436472
-0.000209599 -0.286845 0.0106116
0.0140238 -0.169752 0.388786
-0.0175254 0.441157 0.212172
-0.00671078 0.177907 0.408276
-0.017618 0.108963 0.266219
-0.0184044 -0.15883 0.187846
-0.0193492 -0.212425 0.065552
0.000219014 0.297957 0.288009
0.0774873 0.19291 0.211899
-0.0492278 0.1387 0.145517
-0.000339285 -0.0585994 0.312971
-0.00877245 0.396861 0.229037
-0.0128099 -0.376317 0.0542812
0.0353961 0.271956 0.157482
0.00451364 -0.196768 0.364275
-0.0174308 -0.0883408 0.34021
-0.0156028 0.101197 0.15585
-0.00575727 -0.254531 0.240852
-0.0212173 -0.195106 0.379031
0.00236017 -0.0615078 0.328188
-0.0825198 0.0205198 0.0994696
-0.0357018 -0.321885 0.157024
-0.0181487 -0.222222 0.0432237
-0.00319457 -0.298697 0.0181761
-0.00996009 -0.118628 0.409514
-0.0344711 0.357416 0.356204
-0.0109119 -0.400487 0.251713
-0.0132646 0.195311 0.185345
-0.0218367 -0.387228 0.0383843
-0.0587493 0.230048 0.227861
-0.00244364 0.16109 0.393457
-0.0158904 0.18603 0.0955434
0.00193891 0.383396 0.0275657
-0.0577095 0.248118 0.215814
-0.0405746 -0.188706 0.39612
-0.053362 0.31775 0.137188
0.00192539 -0.0561742 0.318223
-0.0218367 -0.314538 0.317669
-0.000997385 -0.0379398 0.326166
-0.0159749 0.0670855 0.329475
0.0300058 -0.309582 0.157831
-0.011379 0.339946 0.368039
0.00155381 0.194975 0.197637
0.00193891 0.189037 0.0994892
-0.0300651 -0.18722 0.407445
-0.0161831 -0.440592 0.181009
-0.00599999 0.446858 0.149315
-0.0152868 0.331347 0.266484
-0.00446962 0.00983522 0.242311
-0.0128113 0.219083 0.0837742
0.00330634 -0.193821 0.370353
0.00141551 0.302471 0.0066021
-0.0144449 0.352512 0.0362399
0.0360008 0.176474 0.212992
-0.132737 -0.160105 0.580223
-0.0202452 -0.158186 0.193736
-0.00168213 0.354117 0.21024
-0.0130742 0.418443 0.0884917
-0.0218367 -0.454048 0.187887
-0.053299 -0.290626 0.192245
0.0218095 0.222234 0.162553
-0.0463029 0.109219 0.134739
-0.0509313 0.248786 0.213589
-0.026955 0.0946072 0.171536
-0.0043927 0.216586 0.0697561
0.0245786 -0.213172 0.339277
0.0318121 0.0894353 0.162375
-0.0214419 -0.172306 0.391913
-0.000209599 -0.377752 0.298474
-0.00834742 -0.176671 0.103883
-0.0263201 0.143941 0.275878
-0.00294133 -0.440994 0.244083
-0.00834742 -0.383842 0.277707
-0.0165329 0.152313 0.389505
-0.0246015 0.180619 0.449571
-0.0884507 -0.175878 0.592653
-0.00399283 0.029177 0.271239
-0.0129837 0.0470488 0.314763
-0.00924688 -0.195558 0.201999
-0.00327154 0.206345 0.441157
-0.0152868 0.292196 0.0243904
0.00785466 0.0816677 0.158403
-0.00290971 0.285628 0.0267842
-0.0085312 -0.218441 0.274334
-0.00934508 0.19529 0.353493
-0.0516652 0.307463 0.104632
-0.0055969 -0.184724 0.105003
0.00317804 0.145586 0.153667
-0.0023109 0.329448 0.36969
-0.0119171 -0.257373 0.0328871
-0.0170515 -0.143415 0.469607
-0.0175254 0.377713 0.269744
-0.0192665 -0.0343889 0.317479
-0.0336435 0.331491 0.367994
-0.0201072 0.0816952 0.204387
-0.00347069 -0.430414 0.260807
-0.00290971 0.220325 0.212895
-0.000209599 -0.157575 0.127965
-0.0155106 0.247765 0.0227041
-0.0128115 0.39606 0.245471
-0.0365361 -0.1827 0.363541
-0.00524661 -0.422404 0.242344
0.0109964 0.134382 0.162327
0.00272769 -0.290772 0.174052
-0.0358999 -0.223386 0.350205
-0.0372882 -0.320768 0.148813
-0.0484546 0.136851 0.102569
0.000272213 0.149234 0.157126
-0.0162552 -0.012489 0.414332
-0.041345 -0.179029 0.382023
-0.0338618 -0.17638 0.38093
0.00329131 -0.200932 0.376807
-0.00329472 -0.386072 0.026483
-0.0158872 0.119031 0.156339
-0.0347949 -0.306841 0.15028
0.0164493 -0.206873 0.377233
0.0242524 0.103272 0.165801
-0.0196855 -0.253443 0.314194
-0.0103411 0.381144 0.014545
0.0467352 -0.160928 0.595299
-0.00538522 0.191231 0.147999
0.115397 -0.162023 0.58371
-0.0402654 -0.203162 0.379165
-0.00148414 -0.431813 0.253657
-0.00612127 0.161076 0.410681
-0.00582272 -0.461578 0.196925
-0.0675147 -0.194469 0.585609
-0.0201984 -0.361325 0.135116
-0.017616 0.0750816 0.18574
-0.00290971 0.301257 0.0296546
-0.0576897 0.25702 0.203467
-0.00333898 -0.0861258 0.496397
-0.0535021 0.0826759 0.161754
0.0127574 -0.172732 0.378281
-0.0038695 0.245875 0.0564669
0.00242695 -0.314849 0.142045
