0.0122401 0.145081 0.270101
0.00217674 0.291772 0.343361
-0.0412342 0.0753639 0.23521
0.0110037 0.315889 0.184653
0.0083256 -0.430273 0.239946
-0.0615767 -0.225841 0.591897
0.00503851 0.0713911 0.529607
-0.00603019 0.0658456 0.18665
0.00407929 0.289035 0.190834
-0.0955442 0.0229584 0.0649699
0.0177677 0.0495623 0.183539
-0.0314181 0.291838 0.135974
-0.00892086 0.324933 0.0116764
-0.00820986 -0.0975395 0.320966
0.0183987 -0.277633 0.182034
0.00460671 -0.194055 0.559169
-0.149138 -0.210781 0.597409
-0.0111791 -0.144693 0.117879
0.00027626 0.036924 0.464164
0.00773671 -0.166157 0.0556701
0.0712198 -0.223637 0.591421
-0.0877426 0.0230332 0.0663962
0.00233336 0.26701 0.0333888
0.00828376 0.171741 0.540079
-0.0425727 0.0572431 0.181254
-0.118009 -0.22244 0.593273
0.00879362 0.468578 0.214094
-0.00442514 0.313383 0.33539
-0.0433472 0.11291 0.114123
-0.076555 0.0230695 0.0651078
-0.0130167 -0.189018 0.320659
0.0117914 0.358802 0.0377212
-0.00411969 -0.46369 0.123623
-0.00402112 0.136755 0.447115
0.000980333 0.194369 0.299187
0.00740478 -0.164484 0.406514
-0.0222274 0.0874839 0.177829
-0.0189675 0.136562 0.180492
-0.0117326 -0.135906 0.139575
-0.0103802 0.272613 0.178255
-0.0862997 -0.244657 0.590785
0.0233461 0.227833 0.286114
-0.0347783 0.0201045 0.157034
-0.00776294 -0.377444 0.305145
-0.0160779 0.282624 0.192959
0.00769303 0.272941 0.335696
-0.00746709 0.323667 0.11758
0.0404 -0.236682 0.592502
-0.0422865 0.0331048 0.183632
-0.00465238 0.202331 0.0580548
-0.0120072 -0.454112 0.165628
0.00650817 -0.199391 0.498884
-0.0123272 0.142549 0.272037
-0.00819742 0.168327 0.515045
0.00268032 -0.112961 0.158885
-0.0914473 -0.223279 0.593176
-0.00756475 0.454061 0.109583
0.0240308 0.210733 0.323895
-0.0968447 -0.218041 0.594063
0.0672584 0.055206 0.29299
0.00653579 0.47229 0.179099
-0.0433472 -0.0100365 0.169635
0.0177672 0.0499849 0.193881
-0.0130167 -0.185942 0.0466402
-0.0128116 -0.2658 0.121771
0.00526456 0.463993 0.130107
0.10569 -0.217639 0.614404
0.0115505 -0.130123 0.128756
-0.0174547 0.114428 0.179099
0.0302747 0.180968 0.185792
0.00852987 -0.160969 0.110238
-0.0427948 0.281067 0.138125
0.00921954 0.159271 0.105703
0.00401593 -0.175119 0.154665
-0.000367206 0.0473913 0.463613
-0.00194017 0.372073 0.0524773
-0.0106829 0.429996 0.103294
0.0356774 -0.243979 0.266265
0.00185675 0.274842 0.343294
-0.000973975 0.471687 0.159668
-0.0295739 0.183016 0.17798
-0.0319191 0.134345 0.497407
0.00640378 -0.13164 0.261696
-0.0310808 -0.27313 0.216061
-0.0130167 -0.377405 0.0334288
-0.00540745 -0.145626 0.233603
-0.0123272 0.43915 0.0970637
-0.00955265 -0.116937 0.213718
-0.0121627 0.397489 0.313596
-0.00922293 0.437808 0.290488
0.00563084 -0.240178 0.00931719
-0.00566809 0.327902 0.104173
-0.00222519 -0.146349 0.211985
-0.00359403 0.150844 0.489285
-0.012327 0.197117 0.0512307
-0.0329559 0.306439 0.179859
0.00768608 0.266743 0.365256
0.00411139 -0.270105 0.36144
-0.00858372 0.43209 0.111235
-0.00873901 0.144417 0.509524
-0.0120122 0.294448 0.215855
0.0122401 0.45713 0.23842
0.00654874 0.277738 0.256872
-0.0299734 0.211724 0.220267
-0.00824811 -0.232102 0.249329
-0.00347027 -0.257375 0.333772
0.00738505 -0.282971 0.331105
0.018017 -0.309505 0.176214
-0.00649682 -0.0467432 0.264968
0.0105798 -0.144372 0.275356
-0.012609 -0.383932 0.0336975
0.010142 0.128954 0.446403
0.00587342 0.128464 0.462411
0.00264539 -0.199449 0.515894
0.0115504 -0.222602 0.0286318
0.0148486 -0.299367 0.220469
-0.0115245 0.197878 0.335636
0.00797663 -0.185301 0.427003
-0.00659632 -0.461333 0.118098
0.0340701 0.244056 0.261414
0.00453456 -0.315024 0.0276744
0.00231212 0.337692 0.0369498
-0.0722824 0.0296094 0.0634083
-0.0400277 0.261525 0.240316
-0.0132977 0.286627 0.176675
-0.0233223 0.0535007 0.186209
0.0112424 0.441631 0.123129
-0.0782962 0.0335757 0.0705232
0.00632138 0.351142 0.324727
-0.0424721 0.0207915 0.137709
0.0122401 0.242383 0.352406
0.011718 0.44824 0.10873
-0.00568238 0.055572 0.176672
0.133747 -0.213825 0.612273
0.0192589 0.161525 0.511659
0.0122401 0.455271 0.153744
0.0719928 -0.226983 0.590976
-0.0100118 0.329131 0.168371
0.0381766 -0.23207 0.321273
-0.00731893 0.146686 0.251355
-0.0302509 0.250075 0.214894
0.091466 -0.253402 0.588333
-0.00397581 -0.416505 0.277474
-0.111585 0.0597241 0.0690831
-0.0123272 0.148282 0.106617
0.00852987 -0.394043 0.0712846
-0.00926987 0.147037 0.291725
-0.00321389 0.139955 0.457993
-0.0131238 0.176829 0.538346
-0.00894868 0.0808894 0.289303
-0.0405992 0.153871 0.103706
0.109152 -0.229897 0.597147
-0.00243895 0.225575 0.0535703
-0.0108164 -0.186224 0.0614962
-0.0159808 0.289894 0.172259
0.00655772 0.437218 0.153249
-0.00393693 -0.187639 0.531685
-0.00643683 0.111221 0.356847
0.0103933 0.190643 0.0422176
0.0112675 0.225369 0.349807
-0.0143052 0.300667 0.174337
-0.0103104 -0.391362 0.0649245
-0.00643771 -0.303228 0.0679627
-0.00594578 0.295768 0.00639184
-0.0217186 0.157394 0.511758
0.0336966 -0.276886 0.208883
0.00921942 0.171469 0.0927073
-0.0963837 -0.240722 0.591407
0.0338896 0.0498551 0.232994
-0.0286882 -0.261823 0.23762
0.0316088 0.174465 0.504093
0.00994903 -0.416174 0.285433
0.0122401 0.45527 0.24243
-0.0372113 -0.224543 0.357661
0.00985719 0.137722 0.143161
0.035082 0.0557815 0.244444
0.0375761 0.0450143 0.222121
0.00500342 -0.130277 0.260953
-0.00104059 0.0903423 0.342882
-0.0103951 0.307775 0.0109671
-0.00495764 0.316673 0.00785378
-0.0109694 -0.117602 0.209279
-0.00908481 -0.383466 0.0516214
0.00409497 0.25082 0.339266
0.004577 -0.467308 0.136852
-0.00156713 -0.198156 0.553827
0.0113668 -0.184874 0.305764
-0.0142513 0.270229 0.182826
-0.00709147 -0.188105 0.54515
-0.00287441 -0.189883 0.0736326
-0.0338859 0.0111415 0.192741
-0.0157735 0.278469 0.19199
-0.020467 -0.286511 0.168265
-0.0229398 0.120536 0.502023
-0.00195627 -0.145069 0.131635
0.010709 -0.12045 0.213945
0.00175732 -0.256567 0.0294995
-0.00712178 0.447318 0.181408
0.00460687 -0.154467 0.065214
-0.117026 0.0422412 0.0630213
-0.0423821 0.0487261 0.188764
0.00771887 0.239875 0.234961
0.0512915 0.0695213 0.288989
-0.0344384 0.259731 0.240957
0.00811966 -0.161089 0.272269
0.0287165 -0.226666 0.343427
-0.0130167 -0.449813 0.131232
-0.00473036 -0.207158 0.573633
-0.0139628 -0.335828 0.204731
-0.0115371 -0.372347 0.322244
-0.00640635 -0.247761 0.0769891
0.00413858 0.208991 0.0536491
-0.00403291 0.218134 0.0484899
0.00377799 -0.166679 0.273909
-0.00211667 0.164538 0.0577401
-0.0398206 0.0911819 0.145414
-0.00738915 0.0142591 0.462318
0.00748036 0.283454 0.252411
0.00605496 -0.204223 0.310296
-5.80773e-05 0.256313 0.332696
-0.0852147 -0.252401 0.587765
0.0122401 0.452028 0.141011
-0.0457539 0.0526401 0.189005
0.00314292 -0.184784 0.0786779
-0.00617672 -0.409622 0.0446392
-0.00982 -0.133092 0.191028
0.000509764 0.346569 0.0486052
0.0947845 -0.241483 0.595982
-0.00494416 -0.144802 0.132536
-0.0425196 0.0493006 0.172254
0.0315921 0.239396 0.275638
0.0440238 0.233334 0.181838
-0.0130167 -0.2676 0.0177252
-0.0101944 0.0887778 0.298539
-0.00506573 -0.373162 0.0471564
0.0118466 0.41867 0.0836585
0.024878 0.122117 0.175349
-0.00962069 0.282998 0.339612
0.00700632 0.134218 0.444651
-0.0158288 -0.323427 0.152932
-0.00599043 0.05365 0.461472
-0.00741725 -0.45041 0.189065
0.0122401 0.413806 0.0760942
0.00472371 0.171307 0.0988633
0.0512915 0.0456966 0.29014
0.00996603 0.31219 0.364333
-0.021628 0.14725 0.510593
0.0271469 -0.228232 0.341369
0.0901425 0.0359094 0.292538
0.0294966 -0.231725 0.594419
0.00957954 0.280642 0.00957243
0.00612673 0.2599 0.116204
0.000580788 0.32355 0.0347737
-0.000646964 -0.296736 0.183395
0.0757564 -0.213942 0.594473
0.06285 -0.227695 0.586069
0.0122401 0.417744 0.300932
0.0158613 -0.298882 0.215379
-0.00962069 0.212039 0.321418
0.0155139 -0.295139 0.206999
0.0411871 0.0507587 0.20535
0.00853062 -0.0639673 0.455664
-0.0389748 0.0167532 0.133475
0.166502 -0.223449 0.593163
0.074759 0.0343164 0.288424
0.0102777 0.140126 0.241842
-0.00962069 0.146195 0.137284
-0.00290381 0.0436243 0.445542
-0.00515398 0.250272 0.0353476
0.00627615 0.0336812 0.462267
-0.00525708 -0.442086 0.181112
-0.011013 -0.133082 0.160923
0.0122401 0.456695 0.18817
-0.00296773 -0.350508 0.0372871
0.00135128 -0.43038 0.107517
0.161668 -0.219386 0.593068
0.0887678 0.0547402 0.290098
-0.00056073 -0.145969 0.168925
-0.00507925 0.238299 0.334135
-0.0385954 0.160992 0.518894
0.00539332 -0.38973 0.303894
0.00132916 -0.0777224 0.320866
-0.0787119 -0.231632 0.607719
-0.0403583 0.291567 0.104739
-0.00467129 0.443995 0.220073
0.0049543 0.386431 0.177354
0.0125944 0.102724 0.517408
0.0030206 -0.23803 0.329033
-0.0123272 0.363372 0.338728
0.0119807 0.454504 0.166044
-0.00420116 -0.160153 0.250911
-0.0155962 0.271291 0.188696
-0.00503839 0.067614 0.190857
-0.00480204 -0.143468 0.19029
0.0122401 0.371239 0.0412303
0.00809254 -0.145781 0.209378
-0.0211148 0.220361 0.303351
2.80968e-07 0.142324 0.491498
-0.00906657 -0.380361 0.172509
-0.00297508 -0.130375 0.454718
0.0322781 -0.259026 0.2434
0.0306443 0.052168 0.206652
0.0122401 0.45074 0.126746
0.000940988 -0.416142 0.277469
0.0122401 0.132746 0.137643
-0.00250513 0.433518 0.123106
0.0227493 -0.288821 0.191769
0.00213019 -0.202835 0.548165
0.00352847 0.147221 0.492794
0.0110731 -0.162235 0.083367
-0.0423821 0.0512404 0.187293
-0.00223129 -0.120611 0.240014
-0.00962085 0.434298 0.137688
0.00705717 -0.184962 0.547214
0.0298063 0.132254 0.498028
-0.00200732 -0.371545 0.316353
0.0885103 -0.213655 0.598491
-0.00600739 0.140767 0.491611
-0.0092811 0.270948 0.335391
-0.000472475 -0.447138 0.161101
-0.0521305 0.295737 0.188162
0.00789174 0.0869084 0.525835
0.00424418 0.223505 0.0473409
-0.00607606 -0.23337 0.593714
0.0122401 0.449379 0.235823
-0.0424721 0.0178464 0.142802
0.00570723 0.00948661 0.22742
-0.0111682 -0.155541 0.0702462
-0.0321268 0.042646 0.148267
0.033864 -0.241421 0.26539
-0.00967713 0.336072 0.165424
0.16709 -0.210185 0.601556
-0.0107512 -0.200965 0.029811
-0.00182965 0.0819409 0.240204
0.0380564 0.211797 0.187898
0.0054481 -0.157859 0.0997772
0.00739158 0.136898 0.168671
-0.0398155 -0.00557426 0.160893
0.0033453 0.154189 0.128476
-0.0185554 0.0469679 0.163195
0.0122401 0.121056 0.208637
-0.00207822 0.148488 0.125376
-0.0307259 0.285639 0.179211
0.00506981 0.204124 0.149652
0.0024061 0.135705 0.202542
-0.0324173 0.195014 0.221482
-0.0130167 -0.443204 0.256637
-0.0116393 -0.175926 0.29461
0.0160632 0.160444 0.400622
0.0371184 0.268865 0.222752
0.00612844 0.09763 0.305637
-0.0101677 0.305553 0.0271929
0.0115505 -0.120913 0.163986
0.00960025 0.117183 0.151885
0.00275348 0.420876 0.274515
-0.00923802 -0.0859446 0.311681
0.000706283 0.181062 0.0773551
0.00363427 -0.152489 0.373202
0.0115505 -0.270322 0.00983505
0.0300325 -0.243084 0.256565
-0.0791198 0.0230757 0.0652258
-0.0103104 -0.438485 0.222504
0.000375451 -0.348959 0.045978
-0.00962085 0.445575 0.201211
0.0053931 0.11399 0.514799
0.00456881 0.163922 0.109854
-0.00626967 -0.351534 0.280817
-0.00829666 -0.120224 0.231322
-0.11002 0.0610824 0.0683157
0.00467349 -0.0475084 0.287798
0.00833805 -0.155055 0.123957
0.0118676 -0.302819 0.237707
0.00562589 0.365139 0.0218069
0.0107199 0.155867 0.0997142
-0.0773676 -0.217771 0.590931
0.00742239 -0.31342 0.273572
0.00669923 0.374906 0.055712
-0.0864092 0.0244098 0.0766134
0.00145905 -0.259494 0.327603
0.0120461 0.283024 0.176369
0.00341026 0.136297 0.503602
-0.17505 -0.21191 0.59595
-0.0123272 0.34958 0.344187
0.000590935 -0.191969 0.440294
-0.0355008 -0.281399 0.188832
-0.00709611 -0.211405 0.252481
-0.0875117 0.0593351 0.0616614
-0.0130167 -0.396687 0.310673
-0.0175665 0.123499 0.510261
-0.00548594 -0.17979 0.550007
0.0114637 0.231847 0.0228031
-0.00251824 0.323204 0.0335668
0.0111297 0.116235 0.184421
-0.007731 0.202497 0.0675896
-0.0092162 0.256166 0.149727
0.00868652 0.212865 0.326046
0.026638 -0.24245 0.289645
-0.128901 -0.271229 0.593149
-0.0314039 0.29566 0.185268
-0.0130167 -0.124577 0.170542
-0.00431485 0.386375 0.0325658
-0.000631514 0.137141 0.45609
-0.0339847 -0.291992 0.189669
-0.0767855 0.0233837 0.073084
-0.0478226 0.0740483 0.192597
-0.00623436 0.32859 0.105075
-0.00997457 0.268616 0.23373
0.0064672 0.0685493 0.253477
0.000403329 -0.209926 0.314217
-0.00324301 0.139418 0.456014
-0.0463768 0.296131 0.171124
-0.00359988 0.159484 0.0632707
-0.00649637 -0.0939283 0.334503
-0.00922748 -0.318347 0.358742
0.0120117 0.346283 0.0325854
0.00145471 -0.216734 0.457699
0.00936546 0.383305 0.340802
-0.00122179 -0.214348 0.409534
-0.0338702 0.289911 0.172645
-0.0124329 -0.201223 0.0465491
-0.00682385 -0.275973 0.0335115
0.124979 -0.213761 0.611187
0.0122401 0.391327 0.324048
-0.00471314 0.0984887 0.369491
0.00807546 -0.411305 0.0491329
0.0347305 0.0499033 0.241101
0.00251797 0.447493 0.186162
-0.0155792 0.277537 0.18645
-0.00171549 0.425683 0.310468
0.00712898 -0.430483 0.10347
-0.030803 0.295942 0.18476
0.00909565 -0.106215 0.332866
-0.0387223 -0.23764 0.319818
0.00690208 -0.32814 0.336284
0.00747583 0.0574195 0.180443
-0.00686432 -0.114659 0.151506
-0.00930864 0.156015 0.10305
-0.0288493 0.223881 0.22224
0.0012754 -0.235122 0.0371657
0.0115505 -0.122869 0.153546
0.0375028 0.0500755 0.270533
-0.00549035 -0.455801 0.259324
-0.0424721 0.0207515 0.23487
-0.0322963 0.287696 0.131378
-0.00345432 -0.384388 0.337861
0.00868152 0.109525 0.517235
-0.00391209 -0.198589 0.264622
0.00786275 0.260718 0.343405
0.0517693 0.299313 0.186109
0.0115505 -0.164949 0.0769618
-0.00879186 -0.396198 0.0363279
0.00979287 -0.000313435 0.224325
-0.00950829 0.457432 0.121205
-0.0428578 0.282284 0.123231
-0.00281511 -0.172277 0.270612
0.0031712 0.435377 0.127339
-0.00952135 -0.113766 0.342614
0.0727132 0.0542373 0.286432
0.00945007 -0.46899 0.195211
-0.00328735 0.150948 0.30149
0.0065363 0.251134 0.0117123
-0.00556395 0.215648 0.0493711
-0.00455914 -0.320655 0.0276819
-0.0106205 -0.327 0.258129
-0.0072558 -0.158361 0.247348
0.00551206 -0.198702 0.544019
0.0457814 0.163836 0.497894
0.00899406 0.470273 0.197853
0.000775588 -0.187836 0.485942
-0.00395693 0.197485 0.0631648
0.0132448 -0.315633 0.140062
0.00309205 0.121893 0.123078
-0.0190254 -0.309385 0.191521
-0.0118252 0.175507 0.0720778
0.0869488 0.0732384 0.282701
-0.00475078 0.350315 0.0431524
0.000690577 -0.25458 0.0308571
-0.0113885 0.465829 0.164408
-0.0770224 -0.230543 0.598791
-0.0102002 0.118278 0.416322
-0.0351029 0.307393 0.17011
0.000490498 0.363731 0.0482239
-0.00962085 0.424704 0.257994
-0.0975251 -0.233342 0.59258
-0.00396343 -0.288718 0.183347
-0.0430768 0.0526852 0.165714
0.0165629 -0.236695 0.591751
0.00306705 -0.103252 0.471026
-0.00815189 0.421064 0.280926
-0.00159221 0.410052 0.2789
0.00939513 -0.357596 0.328682
0.0122401 0.458557 0.140267
-0.010755 -0.431358 0.291904
-0.0246037 0.31331 0.181996
-0.00317269 0.282667 0.0306058
-0.000114109 0.433977 0.154571
-0.0271324 0.287114 0.110015
-0.00103363 -0.389248 0.0283718
-0.0389748 0.103256 0.232405
-0.0266377 -0.220227 0.396379
-0.00887801 0.348689 0.198772
-0.00633586 0.275415 0.110107
0.0133342 -0.300254 0.227976
0.00852987 -0.365399 0.0448264
0.00852987 -0.284119 0.0266473
-0.00682523 0.0344755 0.44809
0.00852987 -0.436741 0.134692
-0.00221558 -0.380992 0.0530831
-0.00401528 0.290343 0.343324
-0.0411092 0.158969 0.229872
-0.00579048 0.0356151 0.183873
0.123501 -0.210734 0.599524
-0.0108008 -0.14452 0.119974
-0.00906398 -0.448663 0.177625
-0.00607279 -0.204092 0.559543
0.00391015 0.284578 0.343174
-0.00975547 0.0553716 0.186533
-0.0399186 0.170197 0.510303
0.00918992 -0.0522719 0.285589
-0.0130167 -0.242919 0.345289
-0.00308225 0.468187 0.231065
-0.00345036 -0.192455 0.0306901
-0.00554519 -0.381095 0.103629
-0.0366037 0.304297 0.176277
-0.010459 0.127597 0.253233
0.00532546 -0.198415 0.487961
-0.00219637 0.157368 0.122154
-0.00986427 -0.0342259 0.260968
-0.00315583 0.315824 0.36741
0.0108261 0.426672 0.300948
0.0965764 -0.230637 0.596504
-0.02768 0.285518 0.136756
0.0910866 -0.216046 0.607096
-0.0795055 0.0372542 0.0661145
0.076565 -0.226543 0.594565
-0.00886008 0.128007 0.504597
-0.031138 0.202804 0.185509
-0.00160317 0.0733576 0.208093
0.0058492 0.0348105 0.183102
0.00635196 0.197137 0.313896
0.00345205 0.0994083 0.374853
-0.0290711 0.0465634 0.187798
0.0349778 -0.244542 0.287168
0.00849953 -0.157634 0.298182
0.0113522 -0.303511 0.238554
-0.0025238 -0.101335 0.453069
0.00635893 -0.298976 0.361398
7.23265e-05 0.250054 0.330914
0.0109339 -0.447415 0.131629
-0.094622 0.0214598 0.0669493
-0.0278119 0.147103 0.180289
-0.0258391 0.167696 0.177522
0.00207162 0.211041 0.27948
-0.0178238 -0.306475 0.207614
-0.00753755 0.265966 0.0307
-0.00964678 -0.371423 0.0432482
0.0516701 0.287258 0.178986
-0.0104252 -0.248834 0.00959738
-0.0471937 0.240812 0.184366
0.00738252 0.348068 0.042194
0.0951056 0.0573981 0.292314
0.00232883 0.352101 0.0160977
-0.116518 -0.259636 0.591839
-0.00866406 0.283887 0.127344
0.0670003 0.0707877 0.285044
0.00290101 -0.454652 0.102019
-0.0279696 0.307651 0.179885
0.00674528 0.133467 0.191673
0.0479027 0.0568096 0.294811
-0.0074538 -0.431909 0.295054
0.0072129 0.439416 0.128984
0.0198161 -0.301744 0.168531
0.00844087 -0.400985 0.293985
-0.0163293 -0.261663 0.185795
-0.00877345 0.134945 0.502437
0.00235796 0.411524 0.0505342
-0.0342822 0.182294 0.222843
-0.001784 -0.190068 0.290609
0.00825057 0.350688 0.335715
-0.0114703 -0.373884 0.0421818
0.00195327 -0.351511 0.353028
0.0075452 -0.284562 0.331264
-0.00960933 -0.450037 0.204935
0.0965905 0.0559074 0.286649
0.00305707 0.319335 0.0674694
0.0108963 -0.21026 0.0411086
0.00175085 0.124685 0.39972
-0.0161725 0.113762 0.520967
0.144651 -0.20933 0.606469
-0.0234379 0.0986754 0.1763
-0.000183233 -0.227234 0.591082
0.0115793 0.441301 0.0962983
0.007317 -0.165961 0.308642
-0.0386519 0.0543875 0.18545
0.00617852 0.431528 0.301682
-0.0300696 0.293174 0.118218
0.0248463 0.143627 0.176475
-0.0398206 0.0943666 0.190095
-0.0424721 0.0804556 0.233111
0.0759388 -0.21593 0.592082
-0.00672777 0.236588 0.333405
-0.00676982 -0.254935 0.333213
0.01635 0.129429 0.511895
0.00966375 -0.0639275 0.291594
-0.000365841 -0.314493 0.336282
0.00541235 -0.040403 0.27974
0.00586848 0.464539 0.240511
0.0115505 -0.145532 0.0944291
-0.0347783 0.0529104 0.214808
0.00479252 0.382866 0.313852
-0.0357294 -0.223204 0.585558
-0.012327 0.217275 0.343806
0.000253479 -0.145648 0.127813
0.0191378 0.102507 0.17665
-0.111279 0.0258151 0.0683898
0.0121504 0.233303 0.0337765
-0.00050327 0.373639 0.321093
-0.0169821 0.181057 0.362799
-0.00384376 -0.194711 0.0592592
-0.00211921 0.21572 0.0500738
0.0335997 -0.283948 0.186866
-0.00998813 0.0322943 0.194664
-0.00962085 0.441146 0.21593
-0.0398206 0.0307652 0.236369
-0.0122525 0.309254 0.187983
-0.0380091 0.132897 0.230541
-0.00642522 0.0935356 0.347131
-0.00250125 0.204145 0.31675
-0.0212863 0.156942 0.512083
-0.0118516 0.211037 0.0325832
-0.0245365 0.0999242 0.178474
-0.0129894 -0.150337 0.281692
0.00161181 0.280156 0.311436
0.0122401 0.305457 0.355232
0.00921942 0.442701 0.158344
0.0008883 -0.470236 0.217773
0.00536444 -0.157926 0.263989
-0.00856575 0.0558643 0.448842
0.00171573 -0.440665 0.202018
-0.0130831 0.279688 0.20037
-0.0123272 0.278367 0.36051
0.0617592 0.0361901 0.297894
-0.0034336 -0.320036 0.00293932
-0.0470815 0.163668 0.498745
-0.0961378 0.035361 0.0691196
-0.0168964 0.0949191 0.518925
0.0192393 0.201166 0.334736
0.00639854 -0.285894 0.0328243
-0.0472833 0.0549323 0.170081
-0.00264157 0.147916 0.496166
0.0406447 0.290687 0.185566
0.00852987 -0.244362 0.0348831
-0.00784366 -0.23072 0.0390428
-0.0130167 -0.447811 0.108579
0.00683785 0.0699249 0.257342
0.000290442 -0.194604 0.41615
-0.0449684 0.309588 0.171809
-0.10412 0.0598145 0.0708078
-0.00764194 -0.112982 0.190213
-0.00919887 -0.120318 0.35614
-0.00962085 0.423211 0.106185
-0.0361334 -0.28868 0.17835
0.0811645 0.0523375 0.294298
0.00214331 0.142482 0.194618
0.00499739 -0.36325 0.0158328
-0.00846954 0.470801 0.191879
-0.00339392 -0.176474 0.0424528
-0.00663035 -0.113176 0.334706
-0.0130167 -0.250174 0.0216085
0.0159163 -0.315598 0.20582
-0.0324235 -0.219507 0.389673
-0.0312099 0.203376 0.22307
-0.0103104 -0.448033 0.19503
-0.0273036 -0.25831 0.229114
-0.0389749 0.0630683 0.117662
-0.0103104 -0.446351 0.172321
0.0110333 -0.121793 0.21885
0.00926471 -0.241637 0.125034
-0.00597933 0.139034 0.500078
-0.0405667 0.0521924 0.237892
-0.00237918 0.197197 0.0716634
0.13918 -0.26456 0.595843
-0.0127402 -0.336707 0.132665
-0.00142493 0.142561 0.178182
0.00615717 -0.0633251 0.452867
-0.000218105 -0.413949 0.0948337
0.00839157 0.116262 0.383446
-0.00280183 -0.235708 0.036043
-0.0018733 0.417623 0.198706
-0.00962069 0.139183 0.189714
-0.00348747 0.172921 0.0964611
-0.0130167 -0.457719 0.192377
-0.0040024 0.183176 0.332333
-0.00459941 0.163239 0.314839
0.0122401 0.121186 0.199264
-0.0422865 0.0406908 0.163385
0.00918846 -0.13586 0.371788
-0.0968823 0.0565451 0.0575305
-0.00605544 -0.181177 0.532499
-0.00820541 0.357468 0.0462024
0.0044076 0.378534 0.225845
0.0106275 0.140653 0.425393
-0.0424721 0.0204994 0.131429
-0.0660593 0.0455075 0.114606
0.00603447 -0.395975 0.205291
-0.0353599 0.151878 0.516994
-0.0424721 0.0335034 0.238657
0.129844 -0.216999 0.613626
0.00944731 -0.0890912 0.32225
-0.0130167 -0.249976 0.0162992
0.00468596 0.418254 0.317273
-0.0998603 0.0455643 0.0657372
-0.00444903 -0.251752 0.33359
0.00620377 -0.253161 0.0380043
-0.0392068 -0.2289 0.347955
-0.00933993 -0.375143 0.0457982
0.0122401 0.123212 0.172825
-0.100157 0.0382326 0.0673289
-0.00829381 0.431125 0.117656
-0.00140481 -0.0336764 0.449292
-0.00903036 0.117085 0.424287
0.00918082 -0.155307 0.462695
0.123718 -0.230234 0.599601
0.0113315 -0.443851 0.24375
-0.0722824 0.0487826 0.0635939
-0.00822935 0.434133 0.124506
-0.0810973 0.0592504 0.0639374
0.0115505 -0.434669 0.268275
7.90097e-05 0.386145 0.0636418
-0.00558924 -0.157162 0.244964
-0.00849411 -0.277768 0.339939
0.00290247 0.186601 0.335096
-0.0389756 0.200223 0.105592
-0.0326417 0.244315 0.268526
-0.00668175 0.303453 0.00756659
0.00806678 -0.197839 0.426139
0.00862823 0.0889436 0.320811
-0.170343 -0.227673 0.611353
0.0334655 0.190748 0.179014
0.140025 -0.215678 0.613672
-0.00166086 -0.179519 0.279482
-0.0426988 0.0935829 0.193994
-0.00655718 -0.444605 0.221516
-0.054583 0.0573405 0.174513
-0.0777728 0.0598871 0.0721934
0.0122401 0.457259 0.236367
0.0390343 0.0592761 0.274634
0.00828805 0.171999 0.0876449
-0.00071337 0.0154692 0.223601
0.00952239 -0.360729 0.151624
-0.012208 0.263238 0.181382
0.0115505 -0.133466 0.13416
0.0637414 0.0735781 0.287202
-0.0096622 0.387148 0.0363896
0.00854623 0.399017 0.0836994
-0.00629421 0.131063 0.105391
-0.0168205 0.179202 0.367178
0.0404243 0.0595421 0.280071
-0.0415653 0.16572 0.515765
0.000508195 0.157602 0.537301
-0.0143956 0.307564 0.187239
0.00857648 0.0276478 0.450557
-0.00627222 -0.219325 0.437374
-0.153907 -0.230925 0.605938
-0.0115423 -0.452201 0.255716
-0.0206896 -0.292505 0.197842
0.00529864 0.218626 0.251977
0.0080132 0.0690068 0.205588
0.00128097 0.376954 0.026799
-0.0408577 0.0480125 0.236895
-0.00962085 0.421049 0.264541
-0.00207771 -0.227669 0.398256
0.00436053 -0.191845 0.458578
-0.0424721 0.000484703 0.146324
-0.00929937 0.181644 0.526958
-0.00496149 -0.231044 0.586543
-0.0195019 0.0613769 0.180331
-0.00805442 -0.0717824 0.455227
0.103706 -0.216536 0.61392
-0.0424721 0.0421018 0.229191
-0.00696297 0.444205 0.283235
-0.109507 0.0625973 0.0709387
-0.0168307 -0.215645 0.386989
0.00882931 0.081989 0.457035
0.134002 -0.210073 0.607538
-0.0130167 -0.203337 0.034885
-0.0366037 0.289325 0.157084
-0.00962085 0.371897 0.316277
-0.0103104 -0.349705 0.0382956
0.00917329 0.0930086 0.531664
-0.0398206 0.00395548 0.155061
-0.0053864 0.419914 0.0986045
0.00369685 -0.136884 0.177876
-0.0150822 0.304449 0.182197
0.00159183 -0.172802 0.420148
-0.00962085 0.333323 0.0375994
-0.102249 0.055929 0.0647521
-0.00558865 -0.402672 0.293574
-0.0195029 0.0612923 0.17483
-0.0111009 -0.448445 0.142577
-0.0246496 -0.225857 0.367105
-0.0109033 0.271504 0.191163
0.0469436 0.267816 0.188695
0.00516819 -0.22227 0.579706
-0.046469 0.299393 0.167049
-0.0109679 0.261233 0.0139324
0.029593 -0.23125 0.304585
0.00505786 -0.420194 0.273753
-0.0534611 0.265019 0.183097
0.00315948 0.404499 0.235969
-0.00822283 0.238441 0.0410669
-0.0123272 0.452654 0.24207
0.00574145 0.0882984 0.329058
0.0137294 -0.271343 0.22335
-0.00608262 0.298155 0.0318215
-0.00342341 -0.201282 0.571562
-0.00788753 0.263755 0.0102123
-0.0130167 -0.399 0.0473441
0.00941004 -0.0551566 0.462037
-0.0111001 -0.288536 0.182678
-0.025161 0.302576 0.206403
-0.022608 0.178359 0.520946
-0.0123132 -0.431506 0.266507
0.000761968 0.344365 0.310714
-0.00645189 0.394123 0.304861
0.0316908 0.191278 0.183991
0.0056132 0.183719 0.290777
0.00173019 0.0656487 0.462539
-0.00757289 -0.397781 0.297155
0.0122401 0.447119 0.128423
-0.00336661 0.131067 0.480885
-0.0143527 0.0667119 0.185261
0.0330983 -0.244055 0.256287
-0.0130167 -0.430294 0.271296
-0.0117263 -0.27431 0.35681
-0.00367063 -0.0690994 0.311021
-0.0123272 0.459444 0.17459
-0.00659185 -0.236222 0.0855528
0.00511637 0.0312996 0.463143
0.0115505 -0.411656 0.0625276
0.00921942 0.282028 0.342456
0.0018531 0.340189 0.299875
-0.00342098 -0.180909 0.538189
-0.0114828 0.266099 0.198852
-0.00676872 -0.249862 0.0806073
0.0327214 -0.238174 0.345596
-0.0412133 -0.00662433 0.205217
0.00404674 0.470074 0.220664
-0.00755428 -0.115651 0.33867
-0.0389748 -0.00881412 0.201586
0.00142264 -0.0379292 0.252618
0.0166231 -0.319553 0.185514
0.0070261 -0.191884 0.516357
-0.0205517 -0.301443 0.194646
-0.00367364 0.06724 0.461962
-0.00413083 -0.47254 0.16337
0.00527889 -0.440431 0.203445
0.00674379 -0.0974201 0.468521
0.0802535 0.0373201 0.288881
0.00475511 -0.422115 0.270973
-0.0102599 0.127408 0.448812
-0.00969653 0.390997 0.0391319
0.00693165 0.148443 0.255125
0.00792403 0.267046 0.365124
0.00852987 -0.28922 0.0293582
-0.00582033 -0.422847 0.269864
-0.0347783 0.0807604 0.200155
0.02889 0.175848 0.509065
0.00514683 -0.190896 0.501776
-0.0691459 -0.235724 0.590878
-0.00562231 0.0963291 0.299302
0.0297756 -0.228916 0.322166
-0.0481598 0.0386676 0.174675
-0.0123272 0.390002 0.323187
-0.00278012 -0.145127 0.158846
0.0080062 0.377532 0.309649
-0.0126466 -0.300828 0.345567
0.00879505 0.271004 0.144642
0.00731163 0.135736 0.187616
-0.00557779 0.279733 0.344436
0.00363167 0.439502 0.210233
-0.0462542 0.0158663 0.184393
-0.0599057 0.0512584 0.170366
0.00559323 0.0554224 0.537854
0.0102355 0.122833 0.427857
-0.00517641 0.234253 0.0425996
0.0059979 -0.195713 0.224736
0.00852987 -0.326347 0.0307994
-0.0198876 0.20378 0.32385
0.0167208 0.0537395 0.174222
-0.00273005 0.403992 0.120592
-0.0044784 0.181444 0.17732
0.0148876 0.290926 0.200177
0.0136203 0.0913181 0.527566
-0.00919236 -0.381857 0.336384
0.00540935 -0.296389 0.03255
0.00582943 -0.298005 0.0260204
-0.0367022 0.298079 0.187751
0.072026 -0.226021 0.589149
0.011197 0.223974 0.335574
-0.000537309 -0.124413 0.342842
-0.0123272 0.441966 0.11502
-0.0116548 -0.28145 0.0205101
-0.023121 0.19524 0.347716
0.0322314 -0.293346 0.186157
-0.040843 0.0656784 0.223976
0.0571757 0.0577192 0.287689
0.0109516 0.142481 0.509693
-0.0123272 0.177668 0.0591897
0.00730758 -0.443102 0.222616
0.0115505 -0.328188 0.0154064
-0.00673333 0.450026 0.274373
-0.00757804 -0.274438 0.36079
-0.0018577 0.206779 0.310599
-0.0123272 0.450806 0.254314
-0.0550581 0.282686 0.18851
0.00210073 -0.388349 0.265325
-0.0123271 0.217568 0.0363534
0.0582854 0.0541137 0.289873
0.0122401 0.438573 0.111523
-0.00714262 -0.38049 0.233103
-0.0336385 -0.23874 0.58767
-0.0130167 -0.388175 0.318206
0.00439877 -0.172733 0.474064
0.0122401 0.121724 0.161552
0.0449342 0.0536344 0.242741
-0.000960693 -0.170081 0.47496
-0.00144775 0.365849 0.0641669
0.00437855 0.15165 0.488067
9.14315e-05 -0.35062 0.043263
-0.0232067 0.289008 0.172213
-0.0339453 -0.294699 0.188081
-0.0147592 0.302031 0.197602
-0.0717085 -0.219483 0.606341
0.0103436 -0.298344 0.00653734
0.00704469 -0.196904 0.553314
0.00130696 -0.223762 0.570378
-0.0107729 -0.236606 0.243008
-0.0117195 0.315038 0.212408
-0.0398206 0.0075332 0.202571
0.00811744 -0.434759 0.227944
-0.0389936 -0.233439 0.316374
0.00852987 -0.183551 0.0739898
-0.0707918 0.0515761 0.0610218
-0.00264399 -0.437184 0.219759
-0.037619 -0.232065 0.366895
-0.0188599 -0.286198 0.18803
0.00058643 -0.280618 0.0462803
0.00457344 -0.229359 0.324683
-0.0117624 0.369895 0.343779
-0.00650632 -0.181716 0.206878
-0.0111688 -0.277342 0.258552
0.069015 0.035735 0.287436
-0.00780962 -0.450648 0.188328
0.0115505 -0.434916 0.0926615
-0.0339509 0.300244 0.18861
0.0947118 -0.256607 0.592467
0.00921942 0.365235 0.322812
-0.0172333 0.10828 0.182851
0.0944772 0.0400374 0.29551
-0.00547345 0.255496 0.340583
-0.0029384 -0.110705 0.471463
0.0122401 0.324297 0.0253823
-0.000308516 -0.168367 0.0869582
0.00564555 0.0838863 0.253191
0.126896 -0.223519 0.613395
-0.00178647 -0.195026 0.294441
-0.00986669 0.338216 0.166052
-0.0424721 0.0308109 0.225007
0.00327792 -0.448813 0.194134
0.0028537 0.11405 0.224119
-0.00147332 0.0338979 0.204263
-0.0422865 0.0486425 0.182008
-0.00209519 0.158872 0.063549
-0.0422865 0.0214633 0.192188
0.0105107 -0.120147 0.214224
0.0280438 0.0384146 0.177038
0.0040661 -0.403417 0.192244
0.0293989 -0.226564 0.341415
-0.0194607 0.052646 0.16543
-0.00362721 0.425651 0.267409
-0.00759302 -0.413387 0.0803423
0.00232043 0.416147 0.269925
0.00763531 0.389182 0.0741453
-0.0424721 0.0913538 0.214322
0.00475029 -0.443804 0.223738
-0.0130167 -0.369733 0.0282296
-0.00935309 0.0673614 0.235539
-0.0249202 0.29062 0.154391
0.0109713 0.464583 0.152212
-0.00084673 -0.411388 0.272553
-0.00538245 0.182454 0.076114
-0.0898132 -0.228499 0.591331
0.0359611 -0.285849 0.192775
0.00640313 -0.113034 0.171178
0.00888041 0.120517 0.455093
-0.0130167 -0.434928 0.280097
0.00968858 -0.384493 0.313832
-0.0266117 -0.238052 0.303589
-0.0218844 -0.223748 0.398265
0.0102732 -0.360442 0.195216
0.00706832 -0.392779 0.0712538
0.00430281 -0.454971 0.103354
-0.0130167 -0.121147 0.200647
-0.0106532 0.429656 0.271903
-0.007455 0.06974 0.254751
0.0317567 -0.263451 0.232521
-0.0027672 -0.0353541 0.467573
-0.000836513 0.324139 0.33009
-0.0115917 -0.236721 0.591581
-0.00281108 -0.427176 0.1172
0.0064955 0.0494872 0.172263
0.00700203 -0.189725 0.531931
-0.00742852 -0.153841 0.0673798
0.0106604 0.320348 0.201967
-0.00880228 0.262606 0.364018
0.025648 -0.233146 0.343278
-0.00243841 0.166946 0.105353
0.0122401 0.381492 0.0396647
0.0115505 -0.119295 0.190235
0.000367953 0.134154 0.493384
-0.0329368 -0.257376 0.248973
0.0143325 0.0554132 0.176267
-0.00607279 -0.204083 0.554574
0.0109159 -0.454769 0.165749
-0.0123272 0.384846 0.0404292
-0.00545363 0.282632 0.100622
0.0191207 -0.284601 0.192788
-0.0059068 -0.329344 0.0372402
-0.00582875 0.438701 0.161612
-0.0583699 0.0457861 0.179401
-0.00429768 -0.380956 0.302451
-0.00381876 0.368933 0.274285
0.0642084 -0.233643 0.591923
0.0077497 -0.0144658 0.233112
-0.00599806 0.300872 0.281279
-0.0399068 -0.235801 0.593499
0.00297193 -0.119418 0.338279
0.00921942 0.162713 0.267071
0.0612322 -0.230498 0.600584
0.0252284 0.0409374 0.187882
0.00277528 -0.359892 0.0698861
-0.0123271 0.198146 0.0434944
-0.0461089 -0.231388 0.596832
0.0751467 0.0713844 0.289881
-0.0280783 -0.24083 0.270816
0.0101765 -0.294076 0.18188
-0.00179181 0.232419 0.359055
-0.0266592 0.292352 0.198874
0.00191472 0.139294 0.45439
-0.0010784 0.323369 0.366404
-0.0422865 0.0517466 0.175504
0.00525898 0.285521 0.03154
-0.00769073 -0.190815 0.0637623
0.0115505 -0.154585 0.287398
0.128413 -0.221346 0.61394
-0.0481598 0.0374614 0.18481
-0.0760155 -0.227704 0.586914
0.0878027 -0.230913 0.595707
0.00324742 0.110846 0.34949
0.00981568 -0.0259201 0.45842
-0.0739317 0.023179 0.0671957
0.0037228 -0.230291 0.587704
-0.00878672 -0.276764 0.0238969
0.00477549 -0.458146 0.110537
0.0377121 0.142469 0.498196
-0.00527025 0.149656 0.141136
0.00531647 0.418179 0.108188
0.0951056 0.0611796 0.2942
-0.0339453 -0.288201 0.184316
-0.00964734 -0.0955031 0.462778
-0.000532013 0.23183 0.332029
-0.00596332 0.050654 0.531108
-0.000304545 -0.143643 0.229584
-0.00614542 0.131049 0.461772
0.00257419 0.206812 0.0270294
0.0497319 0.039545 0.288214
-0.00630024 -0.469206 0.145246
0.0378686 0.213902 0.179552
-0.00689328 0.363354 0.0219705
-0.00529769 -0.368708 0.0459485
0.00963099 -0.106331 0.337569
-0.0126369 -0.118981 0.166355
-0.0454829 0.302478 0.175837
0.00691554 -0.234963 0.577959
0.00466389 0.446969 0.171974
0.0371882 0.220032 0.180708
-0.0155074 0.310306 0.194217
0.00388746 -0.137829 0.200068
0.00165803 -0.424177 0.19385
0.00921942 0.299258 0.0370899
-0.00107509 0.311912 0.0395546
0.000525323 -0.324148 0.334966
-0.00784841 0.243819 0.0143635
0.0104318 -0.249482 0.0118865
-0.0564356 0.296946 0.188844
0.00332868 -0.229392 0.3247
-0.00991811 0.33761 0.194356
0.00967332 -0.198921 0.478694
-0.0602271 0.0381229 0.0946154
0.0116408 0.434034 0.106745
-0.0236951 -0.298749 0.18243
-0.02038 -0.280958 0.190756
0.0628057 0.0738264 0.29194
-0.00590803 0.447156 0.177006
0.0111856 -0.318142 0.34402
-0.00750218 0.132868 0.529786
0.0332868 0.241406 0.267637
0.000176135 0.440746 0.233167
0.0103605 0.0620541 0.168508
-0.00125666 0.389717 0.0337239
-0.00357538 0.280129 0.0679619
0.00133763 0.0841891 0.443115
0.00339806 -0.430556 0.239302
0.00666681 0.311346 0.344764
-0.00336217 -0.221975 0.0630594
-0.00636002 0.121247 0.394039
0.00721327 0.100701 0.320479
-0.0130167 -0.31763 0.353275
-0.046469 0.282779 0.156198
0.00921942 0.179976 0.289397
-0.0085187 0.284903 0.123439
0.0826553 0.0578724 0.289803
0.00373483 -0.111803 0.188572
0.0211412 0.157214 0.3944
0.00129675 0.337321 0.336692
-0.0123272 0.133195 0.132448
0.0115505 -0.363485 0.0289921
-0.0123272 0.231367 0.0265433
0.00852987 -0.159926 0.104367
0.00391512 0.301155 0.075747
-0.0130167 -0.413098 0.0687957
-0.0130167 -0.439346 0.0925974
0.00282509 0.448338 0.203313
-0.00389279 -0.231287 0.326441
-0.00652068 -0.281134 0.024976
-0.0326477 0.0183324 0.207203
-0.00439491 0.207079 0.32022
-0.0640683 -0.229977 0.584606
0.00473119 0.0969478 0.510652
0.015456 0.169169 0.538484
0.0115505 -0.12982 0.159244
-0.0128059 -0.454209 0.245072
-0.00447987 -0.215415 0.39039
-0.00358334 0.143485 0.239533
0.0081872 -0.227089 0.124062
-0.0355993 -0.291404 0.180087
-0.0309659 0.228673 0.22169
-0.000264136 -0.193005 0.301913
0.0111087 0.132216 0.218875
-0.00838196 -0.0251771 0.245366
-0.0105756 0.16814 0.538658
-0.00457729 0.0702287 0.529094
-0.097398 0.0468427 0.0698697
-0.0476578 0.0484481 0.21044
-0.000676262 0.0303293 0.181212
-0.0481598 0.0579479 0.170398
0.00713196 -0.184223 0.0657759
-0.00274023 0.218765 0.353694
-0.0130167 -0.363254 0.338767
0.0028966 -0.138586 0.472914
0.00524386 -0.421151 0.0910734
-0.003194 -0.207409 0.467701
-0.00867876 0.0656163 0.233704
-0.0844645 -0.233881 0.599446
-0.019383 0.149164 0.416439
-0.00959384 0.130156 0.461957
0.0317274 -0.241441 0.317813
-0.00764538 0.126166 0.416566
-0.0130167 -0.393395 0.0477936
-0.0137084 0.277622 0.196612
0.000458411 0.354979 0.0168061
-0.00969596 -0.0802797 0.31185
0.0210624 0.189443 0.357143
0.10904 -0.209424 0.604354
-0.0318688 0.310661 0.180338
-0.000511524 -0.178617 0.278447
0.0122401 0.121764 0.164242
0.0102706 0.312282 0.0113027
-0.0402663 0.0244976 0.132088
-0.0316236 0.233537 0.220421
-0.00889404 -0.210908 0.417409
-0.0130167 -0.242561 0.340348
0.00921942 0.293424 0.0363874
0.00530499 -0.168508 0.265002
-0.0894713 -0.217371 0.60074
-0.00472698 0.215864 0.316166
-0.00940209 0.0736808 0.258841
-0.00947165 -0.181743 0.416847
-0.0722824 0.0454061 0.0737723
-0.0389748 0.0203389 0.234937
0.00133621 0.137438 0.21568
0.000348495 -0.433409 0.214063
0.0491791 0.281324 0.202473
-0.00760908 -0.335534 0.279217
-0.0902378 0.0213335 0.0645396
-0.00181549 -0.438311 0.237773
-0.0338014 -0.22012 0.369812
-0.00330616 -0.350758 0.0373789
0.0100166 -0.126038 0.23994
0.0115505 -0.125828 0.217598
0.00371191 -0.295162 0.3378
-0.0787618 -0.223873 0.588289
-0.0114691 -0.371711 0.339115
-0.0126556 -0.285543 0.244055
-0.00867708 -0.163719 0.0575552
-0.00621871 0.235008 0.0423235
-0.0591012 0.0557055 0.174835
-0.0433472 0.142625 0.109635
-0.0103104 -0.443708 0.156356
0.0077897 -0.0642311 0.285403
0.00331603 0.337394 0.363332
0.00770829 0.26703 0.344746
0.00200581 -0.22684 0.576929
-0.0713443 0.0252729 0.0749167
0.00997951 -0.394156 0.0564389
0.0438315 0.0573228 0.238246
-0.0130167 -0.225581 0.335036
-0.00147332 -0.23694 0.327536
0.000547962 -0.352481 0.0108631
-0.00349943 -0.416736 0.23369
-0.00696832 -0.182014 0.425616
0.0388335 0.0481607 0.292313
-0.0671566 0.0425737 0.0860658
0.00387728 -0.205722 0.411056
-0.00658274 0.432895 0.121687
-0.0123272 0.345736 0.346438
-0.0123272 0.195118 0.331191
0.0208932 0.174244 0.380495
-0.00709527 0.00894562 0.226505
0.00203854 0.0366381 0.167938
-0.0922318 -0.227716 0.598439
-0.0339352 0.298315 0.187065
-0.0130167 -0.138939 0.111114
-0.0560303 -0.223353 0.585464
-0.0123272 0.174092 0.31047
0.00163672 0.335179 0.0109574
-0.00576228 -0.148725 0.457105
0.0122401 0.423455 0.0834181
0.0115505 -0.351028 0.0231661
0.0122401 0.276864 0.359671
-0.0130167 -0.124981 0.20049
0.00612876 0.27377 0.274085
-0.00769235 0.313828 0.0298204
0.00354147 0.204171 0.346004
-0.0130167 -0.202519 0.0356428
0.104827 -0.251686 0.591895
-0.00988244 -0.272739 0.330083
0.00262497 0.183684 0.299867
-0.113871 -0.218399 0.59306
-0.0053238 -0.196106 0.561468
-0.00569505 0.161914 0.313136
-0.00442951 0.152359 0.260243
0.00716606 -0.177377 0.319011
-0.00322229 -0.203016 0.0544012
0.072584 -0.231929 0.598979
-0.00967207 -0.198755 0.561356
-0.00186975 -0.447874 0.197603
0.00921942 0.156419 0.258668
-0.0123272 0.148141 0.106735
-0.00830379 -0.340811 0.00929036
-0.0215624 0.175213 0.378645
0.00222759 0.0248179 0.446397
-0.0418182 0.244918 0.0997054
0.0863885 0.0706136 0.281725
0.00100014 -0.161436 0.0978524
-0.0123272 0.152278 0.0942029
-0.00779585 0.201261 0.0605694
0.0115505 -0.140949 0.116548
-0.0304688 0.0497454 0.172337
0.0160335 0.0690078 0.185385
-0.00930699 0.156398 0.102451
-0.0148959 0.158963 0.395614
0.00487326 -0.263563 0.328535
-0.00734929 0.340558 0.240193
0.0699874 0.0769357 0.294408
-0.0065942 0.435584 0.24775
0.00852987 -0.297146 0.335824
-0.0423063 0.0850864 0.225465
-0.00962069 0.260316 0.340263
-0.0130167 -0.446393 0.243599
0.0286909 0.123564 0.180962
-0.141681 -0.208879 0.603422
-0.00950454 0.265122 0.3345
-0.0167984 -0.26822 0.170905
-0.00361084 -0.150984 0.1345
0.031101 0.137235 0.507306
0.00921955 0.225646 0.327287
-0.104949 0.0206354 0.0743778
-0.012952 -0.317885 0.237238
-4.1564e-05 -0.195494 0.564053
0.0119053 0.167484 0.0647634
-0.00962072 0.215861 0.0535392
-0.0251005 0.130512 0.176508
-0.0450249 0.0631281 0.17922
0.00978814 -0.0283158 0.257103
-0.0101132 -0.439953 0.156756
0.0007145 -0.427718 0.213334
0.0122401 0.221215 0.343563
0.00763401 0.130283 0.109367
-0.0546795 0.273757 0.181995
-0.0101087 0.135267 0.271333
-0.00188574 0.341277 0.0717831
0.128257 -0.210574 0.607531
0.00921942 0.168324 0.276552
0.00921942 0.443697 0.153624
-0.109999 0.0372474 0.0657311
-0.0103761 0.322781 0.0127039
-0.00690499 -0.168113 0.312246
0.0115505 -0.372498 0.0350806
-0.00464272 -0.226312 0.590354
0.00307567 -0.155683 0.256457
-0.0123272 0.348872 0.347828
-0.00717335 -0.188042 0.528416
-0.000504106 0.030357 0.181163
-0.0293327 0.29057 0.109369
-0.0130167 -0.129799 0.218656
-0.00435787 0.0740504 0.21374
-0.00530171 -0.373095 0.343608
-0.0118623 0.459494 0.138079
-0.020333 -0.285636 0.169206
-0.00560443 0.196822 0.165665
-0.00254891 0.379377 0.346594
-0.0103104 -0.312296 0.0287193
-0.00236559 -0.11442 0.216703
0.00261292 0.339226 0.299333
0.0073945 0.29693 0.0284551
-0.00218068 0.423134 0.271155
0.0133312 0.279502 0.196739
-0.00219435 -0.198812 0.551711
-0.0113143 0.325128 0.170393
-0.0423821 0.0512275 0.178126
0.00522633 0.318083 0.0318625
0.0258436 0.0972219 0.179289
-0.0481598 0.0646218 0.163447
0.00352468 0.399497 0.23326
-0.00785809 0.462049 0.244375
0.00102913 -0.00448995 0.217638
-0.0297504 -0.241653 0.309983
0.0122401 0.303782 0.353916
0.006076 -0.198488 0.550403
-0.00577902 0.250831 0.331135
0.00197959 0.142084 0.183755
-0.047874 0.0506505 0.172597
-0.0321268 0.0140019 0.178695
-0.0105018 -0.45994 0.241362
0.00364465 -0.403575 0.324366
0.000836599 -0.235046 0.31613
-0.00983277 0.452224 0.186917
0.00601466 0.0945631 0.293923
-0.00867695 -0.158921 0.26777
-0.139038 -0.272228 0.595361
-0.00826721 0.289744 0.0280481
0.0885978 -0.238502 0.601936
-0.002462 0.445607 0.283914
-0.0426214 0.28534 0.136588
-0.02366 0.229978 0.285039
-0.00221113 -0.135298 0.380777
-0.0103104 -0.384113 0.0563019
-0.000557865 -0.441453 0.228888
-0.00728744 -0.171035 0.314525
-0.012862 -0.181783 0.0477049
1.47233e-05 0.387906 0.0758025
-0.00408769 -0.163839 0.0918828
-0.000883506 0.104855 0.397095
-0.0103104 -0.444602 0.206341
0.00429701 -0.447458 0.164087
0.00921958 0.22314 0.321571
-0.0123272 0.45685 0.155524
-0.00864371 0.304559 0.24923
-0.00698726 0.366609 0.316838
0.00852987 -0.142693 0.1645
-0.00407692 0.179276 0.0793015
-0.00133535 0.209833 0.0252604
-0.0276012 0.145064 0.179783
0.00325925 -0.386097 0.298507
0.00601408 -0.457817 0.251817
-0.00657823 0.136983 0.207183
-0.0150626 0.173619 0.510267
0.0037751 0.103529 0.442691
0.17505 -0.219208 0.598689
-0.00663921 -0.130356 0.102082
-0.00962085 0.428421 0.115136
0.00650433 0.442458 0.227125
0.0150769 0.153251 0.412675
-0.0196606 -0.293354 0.19386
-0.00326365 -0.193102 0.566934
0.0375696 0.157791 0.503442
-0.110275 0.0376046 0.0703121
-0.00166153 -0.166832 0.101464
0.0122401 0.406123 0.309888
0.00179738 0.441128 0.232087
-0.139454 -0.223286 0.614478
0.00952557 -0.138943 0.371127
0.00413611 -0.158017 0.263167
-0.0125766 0.0580284 0.52971
-0.00962069 0.19152 0.299289
0.00725102 0.134909 0.44808
-0.0115797 0.454598 0.173939
-0.022852 0.161192 0.178839
0.00924241 0.469506 0.206322
0.000653444 -0.287715 0.0327767
-0.0401048 0.059606 0.118149
-0.00776735 -0.192961 0.55209
0.0501453 0.290655 0.185556
0.00222633 0.134901 0.192275
0.00852987 -0.139334 0.200411
0.0512915 0.0412066 0.299018
-0.171081 -0.217685 0.613779
-0.0145533 0.180649 0.521476
-0.0389756 0.215571 0.103391
-0.0295076 0.0418522 0.184472
0.0269874 0.0420068 0.190367
-0.00788032 -0.14744 0.37267
-0.010752 -0.448907 0.0980067
0.0637327 -0.221492 0.588162
-0.00201771 0.106196 0.401624
-0.00467818 -0.356982 0.291001
0.00886319 -0.139585 0.228584
0.0115504 -0.228768 0.0305412
-0.00339078 -0.149185 0.473343
-0.00661806 0.175935 0.513721
-0.0952671 0.027014 0.0662673
-0.00981023 -0.0660318 0.460332
-0.00415058 0.223401 0.0458712
0.0346013 -0.240952 0.317802
-0.0422865 0.0385895 0.159108
0.0198883 -0.292838 0.198238
0.00960128 0.164397 0.0624662
0.0091975 0.125649 0.252133
0.0338865 0.0574745 0.186335
-0.000393791 -0.193777 0.566949
0.0102975 0.294054 0.185634
0.00260378 -0.359676 0.323651
-0.0032015 -0.36823 0.0174562
0.00821092 -0.349942 0.244884
-0.00962069 0.207549 0.0635116
0.00639465 -0.141159 0.134864
-0.0103104 -0.437189 0.136858
0.00613737 0.212919 0.0502391
0.00810036 -0.0509264 0.287029
-0.00937923 0.294942 0.0382252
0.16078 -0.230742 0.60406
0.00733727 -0.387143 0.202635
0.00386198 0.0491385 0.188008
0.0731587 0.0751384 0.286396
0.00863533 0.344711 0.0367704
-0.0105685 0.391543 0.333471
-0.00379431 -0.169715 0.474223
-0.0310794 0.233915 0.282251
-0.00707509 0.468905 0.219712
-0.00421524 -0.194344 0.333918
-0.0428586 0.0662255 0.117134
-0.00137937 -0.183154 0.293135
-0.100166 0.0570025 0.0662586
-0.00814863 -0.407153 0.291125
-0.0839678 0.0624454 0.0680418
-0.012022 0.12911 0.167632
-0.0036794 -0.448108 0.193831
0.0485139 0.281838 0.194993
-0.0108911 0.060487 0.167097
-0.00824568 -0.144929 0.160055
0.00852987 -0.418879 0.0939467
0.0166771 0.0798993 0.185723
0.0112824 -0.138942 0.23959
0.00974693 0.2734 0.149071
-0.0282865 0.14248 0.508195
0.00313986 0.182103 0.53252
0.00306094 0.257748 0.365612
0.0112832 -0.192544 0.324219
0.00803982 0.0800713 0.246923
-0.116096 0.0412675 0.0653278
-0.000728979 0.143154 0.153271
-0.000356836 -0.296833 0.000463791
0.0372027 0.0558155 0.179318
-0.00682586 0.171298 0.0848247
-0.00784832 -0.110379 0.467989
-0.0366037 0.291831 0.158029
0.000224236 -0.203513 0.301939
-0.0733529 0.0229937 0.0636614
-0.0422865 0.0253693 0.183699
0.00395876 0.0611318 0.231123
0.00146171 -0.467754 0.226944
-0.00962069 0.140328 0.193957
-0.000700738 0.0238608 0.464818
0.0652027 0.0740152 0.295542
0.00278347 -0.147422 0.393195
0.00900089 0.160289 0.516471
-0.000779719 0.129276 0.530804
-0.0413535 0.284859 0.0994161
-0.0187367 -0.289198 0.174194
-0.000224938 -0.211211 0.490994
0.00826584 -0.233409 0.590407
-0.0123364 -0.143624 0.0904734
-0.00962085 0.438565 0.142088
-0.000351884 0.341218 0.335266
0.0115505 -0.323597 0.015666
0.0227493 -0.291075 0.173295
-0.00740626 0.155425 0.111582
-0.00879362 -0.140163 0.227069
0.00969684 0.0446219 0.456708
0.0101586 -0.34224 0.227907
0.000786251 -0.1481 0.144234
-0.00698164 -0.269266 0.337891
0.00981227 0.420624 0.0917312
-0.00363033 -0.203892 0.489226
-0.00703955 0.438552 0.160706
0.0175737 0.094091 0.515992
0.0453134 0.0585367 0.265557
-0.00115046 -0.20017 0.514902
-0.000108177 -0.369025 0.0174574
0.00970033 -0.347017 0.0305112
0.00916374 0.105053 0.346413
-0.0424721 0.0799259 0.144439
0.00921945 0.245377 0.0435093
-0.00719427 -0.285856 0.339488
0.00693654 -0.383999 0.027773
0.0111389 -0.185332 0.305668
-0.023689 0.281028 0.175259
-0.00969304 0.318774 0.363573
0.00691257 -0.125179 0.469751
0.0242446 -0.21734 0.38213
-0.0204192 0.276732 0.1778
-0.00802641 -0.364637 0.0410706
0.00852987 -0.420646 0.266888
-0.00229538 -0.18867 0.545164
-0.0130167 -0.331722 0.0202385
-0.0307762 0.293023 0.195671
0.0108748 -0.176898 0.050734
-0.0130167 -0.458124 0.151693
0.00921942 0.412952 0.28482
-0.0481598 0.0438144 0.17125
-0.0392539 0.275835 0.099215
0.0498007 0.0529315 0.286362
0.0106409 0.31545 0.162822
-0.0328835 0.291932 0.176493
0.01578 -0.262769 0.195665
-0.00438441 0.471352 0.212283
-0.003259 -0.159584 0.380321
-0.0433472 0.13796 0.109984
0.00414801 0.181193 0.535741
0.000654374 0.448304 0.198795
-0.00849427 -0.139311 0.154233
-0.00815955 -0.0426703 0.453753
0.029668 -0.291251 0.180449
0.0365772 0.0577909 0.243197
-0.0260917 -0.235131 0.332872
0.00892396 -0.356887 0.347456
-0.0117233 0.306582 0.160899
0.00945457 -0.211523 0.415849
-0.00935576 0.241645 0.016143
0.0322963 -0.252302 0.239062
-0.17505 -0.229592 0.604892
-0.0156463 0.299523 0.178034
-0.03774 -0.23958 0.279379
-0.0079535 0.171203 0.0990174
-0.0103332 0.273264 0.363656
-0.100236 0.059174 0.0624797
0.00748015 -0.189535 0.532122
-0.0838997 0.0592565 0.0640538
0.00752849 0.0894314 0.445851
-0.017874 0.294268 0.198416
-0.0130167 -0.242958 0.0252023
-0.00739724 -0.471539 0.196573
-0.00464686 0.113788 0.154514
-0.0134117 0.306744 0.196055
-0.0579102 0.0447658 0.0959795
-0.0116204 0.464156 0.154448
0.00936721 0.0160995 0.204838
-0.00527414 0.324456 0.0333303
0.00921101 -0.461446 0.128176
0.0120844 0.242031 0.344432
-0.000880396 -0.217044 0.410156
0.0122401 0.423967 0.0802317
-0.0121058 -0.403185 0.0630439
0.00901426 -0.190944 0.327739
-0.0123272 0.33236 0.0220161
0.00295094 0.0948927 0.522551
-0.0228274 0.214372 0.304127
-0.00611526 -0.284919 0.0328498
0.000485871 -0.254659 0.326495
0.00458343 -0.0386091 0.450565
0.0122401 0.203427 0.0474002
-0.0027448 -0.354406 0.352069
0.0148982 -0.270642 0.161234
0.00852987 -0.442802 0.179224
-0.0130167 -0.206706 0.324068
-0.0673078 0.047922 0.0732836
0.00561304 -0.219412 0.321699
0.0258418 0.205476 0.329029
0.0115505 -0.448353 0.237457
-0.0130167 -0.369715 0.0350684
0.00832691 -0.271397 0.0342113
-0.0125212 -0.13447 0.107767
0.0951057 0.0490089 0.288489
-0.0147121 0.276369 0.187128
-0.00440507 0.144165 0.241591
0.0122126 0.35486 0.339596
-0.00809223 -0.179898 0.0704383
-0.0113309 -0.308243 0.104669
0.00852987 -0.164979 0.260053
0.016653 0.17761 0.366824
-0.00519916 0.469922 0.220321
-0.110467 0.0615807 0.0640052
-0.00773704 0.351765 0.0401218
0.0122401 0.305411 0.0201074
-0.00569209 -0.198349 0.546588
-0.00340789 0.133285 0.433283
-0.024935 0.292722 0.157011
-0.00562128 0.222473 0.354455
-0.0093411 0.161712 0.101513
-0.033897 0.292602 0.163794
0.0156156 0.07346 0.173193
0.0132213 -0.285389 0.138337
0.00534658 -0.103685 0.469946
0.0103098 0.12558 0.442001
-0.0123272 0.380643 0.0427425
0.0325576 -0.229888 0.31168
-0.00962085 0.429762 0.257861
-0.00768474 -0.065462 0.286282
-0.0382001 0.128711 0.228984
