0.0103159 0.0552306 0.432854
0.0169089 0.215243 0.280617
0.00244907 0.302429 0.157687
0.0161661 0.272464 0.250093
0.0132845 0.182233 0.1552
0.0141353 0.25425 0.272203
0.00668194 -0.0328453 0.273297
0.00113567 0.335424 0.177685
0.00602005 -0.334008 0.157911
0.00686341 -0.00823344 0.438051
-0.0218198 0.11266 0.186733
0.0217887 -0.304095 0.0158644
-0.0198109 0.118468 0.215818
0.00872484 -0.286323 0.104091
0.00823989 -0.263491 0.0221427
0.00437179 0.335711 0.170779
0.0151366 -0.31802 0.30059
0.0228632 0.349573 0.182968
0.0161969 -0.00694761 0.263399
0.00602253 -0.163123 0.515534
0.0100988 0.194083 0.433698
0.0401091 0.216955 0.450555
0.0254671 -0.306642 0.180695
0.0249538 0.348008 0.17176
0.0251769 0.3291 0.146675
-0.0855587 0.119245 0.24764
0.0200185 -0.0284742 0.272787
0.0129545 0.215207 0.195886
-0.0228676 0.0855205 0.187915
0.00413344 0.295042 0.143202
0.00942585 0.115252 0.164703
0.00843712 -0.468158 0.175459
0.00978422 0.149873 0.242939
0.0196512 0.233339 0.292665
0.0139719 0.187132 0.192089
0.0223545 -0.392525 0.0252741
-0.0216034 0.137321 0.175059
0.0308868 0.128856 0.185816
0.0164547 -0.29801 0.0270249
0.0208241 -0.423125 0.0549279
0.00986902 0.148987 0.240169
0.00944508 0.38041 0.0356127
0.0117355 0.166759 0.188674
0.0208437 0.147836 0.408742
0.00290062 0.209099 0.357237
0.0220016 -0.41392 0.0459144
0.0133159 -0.186816 0.122275
0.0210703 -0.286013 0.0911346
0.0130982 0.00770326 0.237894
0.04319 0.120063 0.164651
0.00902819 -0.355065 0.108255
-0.0202487 0.0994899 0.155381
0.0240201 0.356627 0.159097
0.0210688 0.404739 0.0397542
0.0196234 0.247872 0.182226
0.00563469 -0.299339 0.155725
0.0202377 0.478915 0.162354
0.020266 0.153098 0.260675
-0.000609542 0.21933 0.461792
0.0122467 0.146448 0.270284
0.00937609 0.32913 0.322973
0.0357417 -0.235686 0.314562
0.0207638 0.468597 0.182278
0.020079 -0.179615 0.46837
0.0199884 -0.446416 0.0880946
0.0153631 -0.452046 0.13504
-0.021604 0.148744 0.180285
0.00723327 -0.168296 0.50688
0.0186514 0.399509 0.209814
0.00632343 -0.329344 0.158281
0.0172444 0.326929 0.323485
0.00636711 -0.201725 0.364193
-0.00876561 0.107831 0.174639
0.0185789 0.172928 0.340461
0.00831101 0.227534 0.0574114
0.0106511 -0.175385 0.514351
0.0134483 0.383742 0.0538877
-0.0216028 0.128265 0.174805
0.0138837 0.0166573 0.232545
0.00904039 0.273285 0.0328709
0.0203157 0.39241 0.303664
0.024565 -0.324168 0.167469
0.0121632 0.319761 0.166438
0.00735227 0.387445 0.0255978
0.00308386 0.300976 0.1811
-0.00190236 -0.164286 0.512391
0.0170286 0.373438 0.0327641
0.0192854 -0.480907 0.169891
-0.00741729 -0.253566 0.237587
0.0224196 -0.392891 0.291948
-0.0122041 0.230426 0.315146
-0.0119977 0.327075 0.14458
0.0158159 -0.247042 0.039668
0.0166713 0.310721 0.272705
-0.00921039 -0.229248 0.329336
0.00841559 -0.167745 0.518348
-0.00638954 0.327756 0.147061
0.0203262 0.278903 0.131647
0.00700917 0.279668 0.303376
-0.0100871 0.322661 0.168092
-0.00489905 -0.326505 0.156969
0.00955536 -0.419333 0.267347
0.0165526 -0.296311 0.291525
0.01869 0.273241 0.314416
0.00666257 -0.367221 0.1609
0.0135553 -0.424631 0.183576
0.0207924 0.46978 0.164608
-0.0228677 0.0927798 0.189434
0.0135364 0.185535 0.191714
-0.0141608 0.346573 0.153202
0.00772486 0.126607 0.183118
0.00939756 0.107703 0.411555
0.0244263 0.119685 0.181777
0.0134089 -0.167254 0.337723
-6.42636e-05 0.151511 0.4502
0.0291711 0.220872 0.335262
0.0202093 -0.0159044 0.44291
0.0144434 0.200073 0.191904
-0.0139183 0.30292 0.189414
-0.0109416 0.329192 0.157714
0.0877858 0.112509 0.109995
0.00701991 0.278343 0.0214421
0.0207431 -0.328161 0.0157641
0.0197952 0.25412 0.0259823
-0.024456 0.107315 0.167654
-0.00916426 0.318034 0.155057
0.0315294 0.12841 0.167581
-0.0228674 0.093691 0.187412
0.0207307 0.413208 0.0521583
-0.00403418 0.32011 0.163721
-0.0228695 0.127251 0.203293
0.0209281 -0.193365 0.0727443
0.0631115 0.109492 0.109889
-0.00819996 -0.219556 0.320804
0.0220303 -0.2741 0.0137205
-0.0100945 0.323396 0.157824
0.00516734 -0.305429 0.148518
0.0191449 -0.404423 0.177451
0.0103789 0.218418 0.283363
0.0112691 -0.43971 0.0777884
0.0141666 0.339672 0.323652
-0.0228656 0.151426 0.167456
0.0245627 -0.330357 0.125763
0.0241487 0.322582 0.185633
0.0167534 0.145847 0.267589
0.0151902 -0.230058 0.0830412
-0.0116446 -0.220895 0.318469
0.0155475 0.437111 0.131202
0.0209969 0.385411 0.179096
0.00725428 0.145511 0.253126
0.00446282 0.153664 0.455916
0.0207809 -0.450543 0.0913498
0.0625875 -0.163518 0.527608
-0.0562279 -0.204571 0.454407
0.0020816 -0.172148 0.511301
0.0200655 0.177248 0.34819
0.019493 -0.301533 0.235564
0.0204132 0.377296 0.309331
0.0199731 -0.440149 0.239726
-0.02025 0.117036 0.167063
-0.0966169 0.129306 0.247911
0.0154224 -0.189524 0.170581
0.00948431 -0.0120866 0.265384
-0.0207113 0.11217 0.215184
0.0161493 0.00144273 0.443232
0.020834 0.182762 0.129616
0.00469409 0.330233 0.160343
0.023248 0.352796 0.193833
0.0155058 -0.0438801 0.284701
0.00817855 -0.15508 0.469891
0.0124005 -0.207291 0.4
-0.010517 0.243672 0.443507
0.0266417 0.331528 0.175395
0.0195324 -0.421595 0.282402
-0.0114278 -0.270468 0.201895
0.00763614 0.00332503 0.243889
0.00893408 -0.45757 0.104111
0.0072059 0.281348 0.132444
-0.057435 -0.204124 0.450448
-0.000623316 0.216923 0.432455
0.0448265 0.237072 0.443867
0.0382452 -0.246084 0.242203
0.088208 0.107624 0.111961
-0.0244622 0.136837 0.212257
0.00797846 0.389522 0.199568
0.0087498 -0.190082 0.0835411
0.022051 -0.182945 0.191871
0.0152504 0.439242 0.0887284
-0.0563313 -0.221029 0.502023
0.0134675 -0.336836 0.275606
0.026637 0.316669 0.177732
0.0125337 -0.426914 0.25606
0.0141945 0.441808 0.129075
0.0373755 0.212063 0.431605
0.021861 -0.47741 0.16861
0.0203196 -0.00466131 0.258847
-0.0608626 -0.229915 0.475614
0.00724133 0.468267 0.113956
-0.0178979 0.219892 0.123282
-0.0100776 0.22247 0.169069
0.00379141 0.331517 0.132181
0.00828118 -0.370037 0.0191813
0.0225166 0.330784 0.131592
-0.0164385 0.324401 0.120603
0.0138099 -0.349947 0.0407684
-0.00374485 -0.231603 0.324425
0.00826857 -0.461343 0.0988767
0.0141629 0.261362 0.0193205
0.0153688 -0.207613 0.0501413
0.00627649 -0.221031 0.349269
0.00210853 0.197965 0.433452
0.0171098 0.347799 0.266468
0.0170898 0.0176158 0.439963
0.0144452 0.0216762 0.247582
0.0167715 0.423915 0.0430201
0.00717068 0.330803 0.0135666
0.0117007 0.42955 0.0713586
-0.00820222 0.340827 0.160019
0.0169116 -0.15564 0.45956
0.0207842 0.181541 0.19501
0.00676812 0.363988 0.0220903
0.0184755 0.358245 0.0989001
0.0460506 -0.272306 0.213778
0.00893613 -0.466526 0.180537
0.0215473 0.115959 0.176868
0.00855646 -0.210756 0.249573
0.0457567 0.276318 0.23812
0.019129 0.435609 0.252388
0.0132678 0.195217 0.153181
0.0212261 -0.250165 0.137265
0.0107296 0.112466 0.171608
0.019392 0.412628 0.0523742
0.0230562 0.297636 0.148172
0.0086134 0.456552 0.216858
0.0477152 0.279296 0.16724
-0.0228675 0.133772 0.184814
0.0274689 0.197733 0.379042
0.0119486 0.458788 0.123817
0.0191337 0.464582 0.180541
0.00689527 0.444609 0.256832
0.00907329 0.388736 0.308787
0.0119552 -0.360762 0.295574
0.0152034 -0.425766 0.0937102
-0.0159421 0.27066 0.166774
0.00833623 -0.208764 0.0671815
0.0210957 -0.475461 0.195712
-0.0490139 0.117301 0.201838
0.0182052 0.182594 0.408354
0.0127784 0.120088 0.174639
-0.0128221 0.330851 0.145135
0.0128841 -0.259513 0.240667
0.0275776 0.210012 0.458116
0.00486527 0.36339 0.17741
-0.00819224 0.340792 0.173082
0.0136556 0.348663 0.28317
0.00582562 -0.312975 0.167184
0.0205079 0.383281 0.143718
0.00682971 0.43439 0.0641615
0.00714034 0.404101 0.296375
0.0071328 0.421202 0.0484807
0.0191 0.451857 0.225131
0.0191317 0.191587 0.396692
-0.0129267 0.349406 0.175973
0.0122393 0.464328 0.239469
0.024544 -0.315705 0.160361
0.0482639 0.285284 0.166121
0.0193336 0.452691 0.227155
0.04011 0.24061 0.304545
0.00824414 -0.222389 0.314609
0.0220732 -0.197441 0.0884401
0.0212871 -0.447301 0.0640338
0.0144777 0.385249 0.0499181
0.0217987 -0.190623 0.35951
-0.021602 0.111891 0.167614
0.0109884 0.4423 0.27026
0.00839909 -0.421049 0.0433457
0.006203 -0.0613488 0.28756
0.0211281 0.371061 0.201257
0.0197076 -0.0323806 0.275369
-0.0464103 -0.168607 0.518615
0.00668137 0.33846 0.314461
0.0234448 0.325531 0.151584
0.00992076 -0.265805 0.304135
-0.0244558 0.148276 0.158795
0.0129052 -0.056825 0.29229
0.00865618 0.461699 0.199649
-0.010086 0.339085 0.147841
0.0236005 0.30738 0.162492
0.00687809 0.415523 0.278813
0.0131383 0.252219 0.0757017
0.00751188 0.190656 0.398536
0.0066053 -0.285505 0.169625
0.0162988 -0.387657 0.259861
-0.058835 -0.177038 0.52067
0.0359682 -0.230239 0.326947
0.0207064 0.458892 0.0961327
-0.0202542 0.114147 0.205451
0.0402499 0.322263 0.168655
0.0192517 0.465952 0.173109
0.019774 0.0812245 0.198999
0.0230164 0.296443 0.184036
0.0195254 -0.465098 0.15224
-0.00938545 -0.268154 0.213797
0.0102904 -0.478886 0.181102
0.0219276 -0.211708 0.0527504
0.0185637 -0.392104 0.0350553
0.0222202 -0.466664 0.132266
0.0317594 -0.23514 0.308621
0.0299584 0.116517 0.164293
-0.0228665 0.111567 0.17924
-0.020251 0.124033 0.175005
0.0398857 0.245807 0.16948
-0.0130931 0.293303 0.169065
0.0145777 0.309956 0.279327
-0.00806282 0.330649 0.185688
0.00825854 -0.409914 0.281679
0.0199171 0.466218 0.187845
0.0137316 -0.323372 0.155099
0.0432199 0.120794 0.127342
0.025738 -0.347167 0.167343
0.00693673 0.419796 0.283223
0.0163142 0.300126 0.0705121
0.0117046 -0.251781 0.203099
0.0189547 0.286057 0.234804
0.0199052 0.378292 0.0196833
0.0281116 -0.319616 0.175846
-0.00079811 0.121142 0.18166
0.0196647 -0.403642 0.111886
-0.020252 0.145135 0.18671
0.0252033 -0.339583 0.176808
0.00680586 0.135642 0.411844
0.0219748 -0.285753 0.215846
0.0162735 -0.295841 0.295083
0.0054092 0.182346 0.433913
0.00921317 0.180366 0.101294
0.0102637 0.245114 0.225659
0.0218528 -0.390243 0.18074
0.0199842 -0.141533 0.337398
0.0216063 0.100937 0.192203
0.0186022 0.352341 0.303901
0.0179267 0.407457 0.145916
0.0863028 0.136315 0.110269
-0.0232862 0.116123 0.21877
0.00360729 0.339932 0.180928
0.00451133 -0.309026 0.136349
0.0135256 -0.414704 0.232809
0.0011346 0.330787 0.154443
-0.0800846 0.125222 0.244116
0.0203768 -0.122287 0.462111
0.0072856 -0.148137 0.466523
0.0137247 0.348874 0.283827
-0.0242152 0.0823424 0.160035
0.00690883 0.335219 0.0157258
0.00762301 0.121572 0.176987
0.0168357 0.35177 0.32144
0.0239398 0.289124 0.163294
0.0264568 -0.346262 0.160691
0.0222675 -0.313177 0.30998
0.00602253 -0.161542 0.512113
0.0146103 -0.444361 0.237949
0.0205383 0.430873 0.0557788
0.0201996 -0.405449 0.0248262
0.0217769 -0.112999 0.316165
0.0161063 -0.469759 0.0961644
-0.0229702 0.159871 0.180998
-0.0213326 0.120417 0.141563
0.00675741 0.394356 0.035135
0.0155782 -0.152109 0.472004
-0.0141411 0.338403 0.180954
0.0109306 -0.383494 0.304498
0.00659602 0.124354 0.176856
-0.014169 0.330542 0.142089
0.0205838 0.446967 0.0747781
0.0157505 -0.20073 0.381294
0.0138549 -0.186684 0.195778
0.0172051 0.424985 0.178891
0.0224827 -0.443846 0.245967
0.0077999 0.198578 0.387087
0.0127789 0.203118 0.201126
0.0206979 0.17138 0.158268
0.00708423 -0.149038 0.463467
0.0242404 0.334339 0.185385
0.0234022 0.331573 0.190259
0.0537862 0.320626 0.163318
0.0496736 0.123058 0.123132
0.00846425 -0.195486 0.0891055
0.0842448 -0.219217 0.462129
0.00652441 -0.130557 0.328432
0.0108373 0.336953 0.0757459
0.00827615 -0.465751 0.196635
-0.0567869 -0.223307 0.477866
-0.0228637 0.124921 0.157412
-0.0109687 0.303362 0.151294
0.0206987 0.448134 0.251628
0.0186172 -0.189926 0.448574
0.00310801 0.316668 0.185762
0.0206195 0.170667 0.159633
-0.0178029 0.25023 0.169014
0.00817326 -0.345661 0.305633
0.0146845 -0.440088 0.235743
0.0198575 -0.229388 0.333406
0.0221988 -0.301706 0.00874621
0.0148068 -0.170189 0.478222
-0.0196706 0.122631 0.214547
0.0264586 0.203218 0.457114
0.03107 -0.231922 0.301057
0.00777712 -0.0459062 0.441818
0.0125171 0.194759 0.366907
0.0154678 0.446376 0.229459
0.017466 -0.0536071 0.453124
0.0844756 -0.218102 0.509557
0.0367538 0.208271 0.444688
0.0210709 -0.258327 0.147975
-0.0119971 0.320174 0.145831
0.0247975 -0.346108 0.144162
-0.0584178 -0.210978 0.461684
0.0133359 -0.333829 0.317448
0.0111087 0.192899 0.362763
0.0153457 -0.246704 0.0448134
0.0448254 0.258266 0.269904
-0.043551 -0.168515 0.518586
-0.0120003 0.329151 0.141419
0.00522577 -0.333612 0.140141
0.023288 0.33404 0.169945
0.00601985 0.369359 0.162905
0.00906966 -0.148075 0.328743
0.0224899 -0.363951 0.113715
-0.0243155 0.081907 0.190979
-0.0573466 -0.208982 0.510176
0.00945866 -0.295533 0.100271
0.0100918 0.12845 0.216991
0.00847982 0.202304 0.0891135
-0.0045455 0.119117 0.174558
0.0225396 0.147035 0.447025
0.00987156 -0.205864 0.0754728
0.0155264 0.348244 0.00864772
0.00669557 0.461147 0.219952
0.0245095 -0.324402 0.151268
0.0191385 0.385108 0.0369622
0.0123802 -0.211331 0.0476589
0.00865208 0.350891 0.0114458
0.0179796 0.00997746 0.429375
-0.00738306 0.333793 0.182133
0.00988097 -0.286967 0.298082
0.0192897 -0.237633 0.0265047
0.0462197 0.26637 0.168661
0.00691406 0.195852 0.0868817
0.0136902 0.198886 0.420213
0.0126141 -0.396925 0.299316
0.019865 0.132184 0.408501
0.00711634 0.126825 0.190424
0.0168478 0.465036 0.162579
0.0101758 -0.1287 0.332514
0.0115832 0.274356 0.0148282
0.00605141 -0.282162 0.157642
0.0111484 0.471899 0.10951
0.00593904 0.157024 0.455791
-0.0499617 0.118001 0.218911
0.00728624 0.173037 0.194748
0.0068295 0.206995 0.421131
0.0217487 0.366749 0.143643
-0.0228678 0.0854608 0.190024
0.0122253 -0.408797 0.220565
0.0166526 0.22793 0.152571
0.00813215 -0.333669 0.097475
0.0196072 -0.0147652 0.265421
0.014636 -0.00826637 0.264625
0.00469027 0.147012 0.446792
0.0182992 0.314665 0.306704
0.0208864 0.19722 0.395653
-0.0129453 0.339877 0.150262
0.0100745 -0.355998 0.00583358
-0.00649991 0.32935 0.171193
0.0203794 0.140977 0.227563
0.0491944 0.123336 0.134063
0.00600159 0.360765 0.146984
0.0109365 0.250477 0.305863
-0.0228623 0.126606 0.146821
0.0157391 0.378231 0.068595
0.0172805 0.191816 0.39758
0.01738 0.031947 0.240829
0.0201728 -0.179931 0.359116
0.00565012 -0.22532 0.317215
0.00866501 -0.198967 0.247236
-0.0244537 0.106099 0.142192
0.0598693 0.109947 0.109904
-0.0133782 -0.240166 0.255506
0.0176487 -0.168158 0.189535
0.00930793 -0.383556 0.157041
0.0152974 -0.198167 0.11965
0.00683919 0.131124 0.205731
-0.0129343 0.31485 0.166546
-0.0202536 0.143287 0.198617
0.00763975 0.178769 0.164636
0.0204677 0.110966 0.414197
0.0084923 0.231932 0.27541
0.0188714 0.345553 0.0254018
0.0265015 0.107304 0.172716
0.0116119 0.419865 0.218461
0.0102696 0.135747 0.417803
-0.0244569 0.083976 0.170157
-0.0141416 0.344908 0.180434
0.019399 0.18697 0.118249
0.0279108 0.203993 0.37382
-0.020651 0.112693 0.214946
0.0204954 -0.40605 0.144695
-0.0627765 -0.181653 0.523233
-0.0211007 0.0793274 0.192286
0.0165013 -0.460359 0.121367
0.049301 -0.304209 0.171672
-0.0109869 0.34212 0.185115
-0.0504504 -0.164681 0.51402
0.0254696 0.317401 0.185565
-0.0141716 0.323867 0.139036
0.0218643 0.275868 0.192216
0.00837156 0.393412 0.170345
0.0133394 0.174769 0.109863
0.0180171 -0.219225 0.171374
0.0307013 -0.165727 0.510334
0.0193724 0.26201 0.034817
-0.0228685 0.0940384 0.195471
0.0154317 -0.192066 0.117078
0.00722704 0.157771 0.437603
0.0348182 -0.240024 0.296497
0.015536 -0.25522 0.302545
0.0085282 0.273177 0.209592
0.00823248 -0.357531 0.105419
0.020616 -0.465248 0.14072
-0.0244566 0.154749 0.164168
0.00806811 0.249459 0.187106
0.0112831 -0.258373 0.112159
0.00840564 -0.348769 0.307896
0.00893848 0.04731 0.230848
0.0129326 0.155784 0.297325
0.0477606 -0.281966 0.198751
0.0191194 0.162262 0.308576
0.0075491 0.121004 0.411379
0.0222957 -0.462295 0.11245
0.00692849 0.386587 0.0288331
0.00829894 -0.41853 0.0467979
0.00814773 0.358688 0.0251549
0.0390187 0.230432 0.309655
0.0311456 0.221353 0.342053
-0.0141486 0.326616 0.170807
0.0103701 0.197723 0.0701429
0.0187026 0.205003 0.438399
0.08706 -0.216975 0.501422
0.00768999 0.165605 0.402535
0.0161315 -0.213177 0.0704716
0.00490689 0.293613 0.198568
0.014542 0.323104 0.00669027
0.0129691 0.30478 0.00783459
0.0108155 0.449447 0.261659
-0.0411175 0.121909 0.187123
0.00759936 0.0893206 0.194816
-0.0228681 0.135604 0.189126
0.0111622 0.283817 0.318751
0.0114302 -0.182382 0.149883
0.0446725 0.291266 0.216658
0.00656646 0.0181171 0.243709
-0.0872836 0.103808 0.246681
0.0466396 -0.234668 0.286738
0.0215867 -0.277285 0.215239
0.0128572 -0.425117 0.0371504
-0.0104872 0.315002 0.127257
0.0164734 -0.311751 0.0341841
0.0188095 -0.267787 0.231476
-0.00819814 0.322703 0.165957
0.0125188 -0.47675 0.117932
0.0829241 -0.164874 0.528122
0.0236529 0.339612 0.170542
0.0875084 -0.219832 0.520075
-0.0103345 0.317015 0.156462
0.0162056 -0.376457 0.00907153
0.013382 0.110733 0.409233
-0.0920638 0.116723 0.24755
0.0201364 0.188413 0.379074
0.0221891 -0.463027 0.0991539
0.00978333 -0.254577 0.0321025
0.0380077 -0.230244 0.287544
0.0240408 0.342532 0.168404
0.00528973 -0.339917 0.134969
0.0169152 0.236785 0.29793
-0.0204309 0.127074 0.14335
0.0122423 -0.412872 0.269024
0.0219354 0.354032 0.19092
0.02924 0.218695 0.461476
0.0129202 0.417616 0.270936
0.020505 0.287227 0.0156706
0.00822986 -0.241287 0.283627
0.00851765 0.440941 0.0620254
-0.0141549 0.351579 0.160989
-0.0186047 0.19098 0.206331
0.0139757 0.292644 0.00959061
0.0168795 0.401118 0.108298
0.021123 0.217721 0.0600597
-0.0157567 -0.260226 0.22269
0.0209734 -0.0412846 0.444768
0.0116227 -0.187664 0.119562
0.0210054 0.121645 0.179749
0.0121443 -0.412556 0.104609
0.00699184 0.285095 0.312501
0.0717844 -0.168711 0.518647
0.0223825 -0.454059 0.233278
0.00476086 0.323107 0.201814
-0.0202476 0.132826 0.147913
0.00716771 0.323425 0.31899
0.0224604 -0.458304 0.223692
0.0165395 -0.457916 0.131679
-0.0216019 0.0976501 0.166312
0.0187332 0.15733 0.41253
0.0235642 -0.356174 0.128828
0.0238013 0.164279 0.454609
0.02245 -0.19884 0.236781
0.0176302 -0.295798 0.297889
0.0225269 -0.428665 0.26413
0.0124933 -0.0820237 0.306557
0.00702644 -0.353124 0.129918
0.00465831 -0.351631 0.164954
0.0187677 -0.17057 0.341666
0.00113397 0.33081 0.178844
0.0218851 -0.185862 0.228985
-0.0118462 0.214413 0.441965
0.0150599 0.0941408 0.188648
0.0227905 -0.344982 0.209651
0.010504 0.452504 0.0737913
0.00113475 0.331775 0.148173
0.011608 -0.166516 0.144172
0.0348479 0.161265 0.170865
0.0144573 -0.124842 0.331257
0.00841649 -0.00474121 0.247617
0.0100896 -0.211306 0.342462
0.0122765 0.219044 0.285278
0.00614674 0.309515 0.215086
-0.0216041 0.114273 0.183542
0.01137 -0.335095 0.244258
-0.064049 -0.217674 0.45812
-0.0145031 0.321942 0.129617
0.0205805 -0.112037 0.459434
0.00387625 0.33328 0.148077
-0.0473267 0.117006 0.193623
-0.0151853 0.315364 0.132272
0.0176849 0.416401 0.177956
0.0248511 -0.308977 0.137027
0.0165197 0.265944 0.0893439
-0.0228687 0.121497 0.197321
0.0120646 0.359092 0.0108313
0.0172588 -0.446536 0.0882811
0.0209225 0.112067 0.187642
-0.0228709 0.100895 0.210991
0.0149194 0.0846774 0.428052
0.0117267 -0.443777 0.233856
0.0916432 -0.210572 0.516264
0.0124657 0.206578 0.0580238
0.0208586 0.245449 0.043061
0.00939925 0.181958 0.233855
0.0206802 0.406001 0.0369416
0.0218571 -0.465412 0.186794
0.00878109 -0.340568 0.31199
0.0149057 -0.440034 0.0505619
0.02694 -0.30503 0.148639
0.0765176 -0.171957 0.517508
0.0152218 -0.182095 0.164093
0.008457 -0.190524 0.424143
0.0127926 0.433294 0.183471
-0.0109455 0.344245 0.152142
0.0108286 0.250895 0.219428
0.017741 -0.46486 0.149036
-0.0158129 -0.310724 0.164713
0.0265937 -0.300994 0.167534
0.0199712 -0.23151 0.324724
0.0207834 0.138939 0.410173
-0.00915387 0.341001 0.168151
-0.00776987 0.321992 0.168616
0.00388174 0.326863 0.137754
0.00547723 -0.316403 0.141319
-0.0129191 0.316172 0.187727
-0.0119088 0.346598 0.179815
0.00672355 0.338643 0.113887
0.034648 0.23503 0.31003
-0.00186255 0.108897 0.170443
0.0274631 -0.216493 0.331047
-0.023387 0.320157 0.168257
0.0087503 -0.186095 0.43634
0.0207242 -0.0294022 0.272522
-0.0228684 0.0929662 0.195009
0.0926306 -0.223802 0.502395
0.00602253 -0.166201 0.517668
0.025201 -0.33049 0.181515
0.00946234 0.368287 0.0907054
0.0193279 0.333215 0.0218329
0.013162 -0.16881 0.192785
0.0281096 -0.327531 0.169212
-0.000177044 0.224329 0.463349
0.0216519 -0.358673 0.207815
0.00900655 -0.366588 0.111571
0.0160711 0.187418 0.24664
0.0104049 0.472849 0.113774
0.0207459 -0.371932 0.0981572
0.0145918 0.432117 0.23746
0.0904892 -0.184826 0.52367
-0.0119896 0.333138 0.155227
0.00906314 -0.259447 0.191781
-0.029722 0.1189 0.164785
0.0170072 -0.198028 0.427262
0.00682895 0.144148 0.242803
-0.0129235 0.34792 0.179992
0.0114606 -0.425598 0.0385388
0.0165667 -0.190445 0.116188
-0.0185777 -0.168789 0.509393
0.0120745 0.239541 0.0512017
0.00876055 -0.373237 0.123674
0.00838456 0.377686 0.0189945
0.0257462 -0.339031 0.144185
0.0210466 -0.233469 0.0315925
0.0152508 -0.382502 0.266048
0.0191148 -0.103812 0.316835
0.007317 0.478077 0.164266
0.00628857 -0.0870612 0.302603
0.00462516 0.315931 0.170859
-0.024458 0.134362 0.180342
0.0174058 0.132564 0.418455
0.0104358 0.26489 0.294233
-0.0228633 0.125649 0.155346
0.0532364 -0.315234 0.167059
0.0112544 0.211042 0.420161
0.0315644 -0.218041 0.325336
0.0213724 -0.451606 0.247945
0.0324519 0.247712 0.448703
0.0771763 -0.164957 0.512025
0.011747 0.430587 0.135617
0.0117619 0.382675 0.24674
0.0124285 -0.309771 0.0570222
0.0118357 -0.170125 0.479183
0.0106275 0.410962 0.29738
0.0190245 -0.460268 0.196382
0.00848202 -0.41262 0.0444369
0.00985675 0.347007 0.00976344
0.019008 0.260442 0.207534
0.00694624 0.0107487 0.435642
-0.0244597 0.139437 0.192317
0.0130497 0.432307 0.0744904
-0.00893953 0.121784 0.18988
-0.0140451 0.294029 0.169182
0.00862758 0.192629 0.0802379
0.0203223 0.262334 0.133292
0.0262773 0.198201 0.372355
0.0011307 0.317073 0.155961
0.0457579 0.260308 0.168448
0.0227311 0.288512 0.135244
0.0147524 0.309841 0.279633
0.00113626 0.337606 0.164685
0.0364796 0.236003 0.301434
0.0190078 0.179209 0.434138
0.00408114 0.310395 0.153531
-0.0216038 0.104903 0.180829
0.0100538 -0.298148 0.29956
0.0112273 0.309491 0.267021
0.0123813 0.164863 0.15948
-0.0129305 0.320355 0.171751
-0.0180512 -0.245427 0.267014
0.00826386 -0.25047 0.28726
0.00900473 0.179241 0.35781
0.021609 -0.408433 0.275929
0.00767487 -0.0761285 0.447653
-0.000609133 -0.218937 0.336769
0.0045241 0.325861 0.129953
0.0906396 -0.215252 0.455092
-0.0213899 0.318713 0.170626
-0.00149847 0.209918 0.457878
0.0110679 -0.204799 0.262235
-0.0119905 0.331538 0.154306
0.00852813 -0.389549 0.0303719
0.0130058 0.297806 0.0546379
0.0252265 -0.321988 0.177961
0.0152432 -0.337416 0.31745
0.0139743 -0.42794 0.0630786
0.00684502 0.435279 0.259573
0.0150895 0.428342 0.233979
-0.0240717 0.118875 0.221382
0.0142305 0.244372 0.0675571
0.0168132 0.212494 0.427322
0.0232142 0.318837 0.192736
0.00931146 0.368888 0.0150552
0.0238371 -0.30053 0.202912
0.00959882 0.244951 0.186843
0.020924 0.216506 0.270655
-0.0129278 0.341682 0.174774
-0.02065 0.0936059 0.157605
0.00664173 0.221028 0.273333
0.00730215 0.0464496 0.219636
0.0211023 0.0693405 0.214854
0.0164367 0.248616 0.44797
0.00248973 0.153461 0.455742
-0.0571113 -0.220867 0.498384
0.0119216 -0.270602 0.307707
0.00672031 0.334758 0.315194
-0.0119713 0.313114 0.182483
0.0460511 -0.288686 0.183981
0.0155058 -0.297206 0.292919
0.0172872 0.383509 0.248109
0.0263132 -0.330616 0.180699
0.0229624 -0.303516 0.214179
0.0139437 0.117763 0.169958
0.014511 -0.435308 0.190562
0.00831443 -0.469986 0.164941
0.0167065 0.0379717 0.221223
-0.0244573 0.119236 0.177944
-0.0102871 -0.253289 0.254122
0.0106264 0.10077 0.411835
0.0203785 0.38088 0.126759
0.00816162 -0.471735 0.153922
0.0236417 0.206669 0.362754
0.0320662 0.14792 0.170842
0.019016 -0.0997543 0.46016
0.0235373 0.171339 0.453754
0.0207798 0.45159 0.236885
-0.0141351 0.313756 0.190091
0.0223179 -0.20324 0.241034
0.0193747 0.181101 0.141715
-0.0698985 0.124219 0.244486
0.00812864 -0.43032 0.263065
0.0129527 0.21521 0.195638
0.00568417 -0.317751 0.131512
0.0207815 -0.180516 0.163987
-0.0148225 0.116518 0.189032
0.0142811 0.0718184 0.430621
0.0209677 -0.447654 0.253801
0.0679329 0.116069 0.107825
0.0242797 -0.343239 0.134093
0.0181744 0.286165 0.23387
0.0105463 0.480859 0.147491
-0.0119748 0.339749 0.175577
0.00824156 -0.332195 0.308512
0.0215802 0.32364 0.218805
-0.0178251 0.177121 0.208321
0.010404 0.236663 0.112821
0.0149363 0.434609 0.224923
0.00770133 -0.165849 0.471387
0.0200166 0.398309 0.288987
0.0467159 -0.264805 0.219089
0.018573 -0.207649 0.266486
0.0211896 0.211949 0.0671628
0.0172795 -0.377756 0.0281142
0.0136254 -0.351965 0.29736
-0.0109439 0.307581 0.156084
0.0200721 -0.0480601 0.27317
-0.0117 0.234284 0.168001
0.00836053 -0.41564 0.0450276
0.0121456 0.347404 0.267216
0.0269192 -0.304008 0.150627
0.0201178 0.157736 0.410886
0.00501887 0.332266 0.19621
0.015311 0.438357 0.241174
0.0284893 0.147936 0.174066
0.0148859 0.442219 0.246088
0.00830924 -0.223024 0.35169
0.0201419 0.363 0.207486
0.0839448 -0.194988 0.518295
-0.0216018 0.141556 0.163055
0.0212477 -0.345892 0.0859732
0.00396257 0.314531 0.199821
0.0119222 0.192506 0.360992
-0.0216024 0.0918926 0.170394
0.0217094 -0.177788 0.104924
0.00685973 0.473613 0.149392
0.0186163 0.432167 0.278948
0.0146236 -0.0112083 0.248682
0.00646372 0.338431 0.106897
0.0139941 0.401171 0.280403
0.028379 0.147129 0.174042
-0.017129 -0.227029 0.306544
0.021976 -0.178469 0.107801
-0.0463559 0.122696 0.23534
0.0322177 -0.236735 0.297985
0.0160885 -0.426876 0.245682
0.00632893 0.342308 0.205874
0.0165228 0.356866 0.320348
0.0207031 -0.4739 0.202253
-0.0100872 0.314432 0.168404
0.0180211 0.279657 0.233049
0.0959502 0.117074 0.108042
0.0191464 0.388952 0.039022
-0.00313377 0.221637 0.462754
0.0453312 -0.286575 0.187113
0.00836521 0.226222 0.0591349
0.0205199 -0.479868 0.168726
0.00677259 -0.289544 0.166401
0.0171157 -0.174865 0.102934
0.0266416 0.331995 0.182797
0.0134814 0.210201 0.458553
0.0198494 -0.109464 0.453519
0.0193459 0.189846 0.219272
-0.0184841 0.271404 0.165276
0.00933031 0.450954 0.226687
0.00784709 0.363445 0.224105
0.00163937 0.331651 0.147216
0.0066062 0.345989 0.313002
0.0145391 -0.341316 0.316911
0.0102701 -0.345208 0.0925445
0.017447 0.20607 0.458048
0.0115585 0.0342468 0.239871
-0.00386611 -0.223154 0.336613
0.0155538 0.153819 0.251002
-0.0216019 0.108407 0.165703
0.0098302 -0.0865003 0.308272
0.0227446 0.298947 0.186017
0.0115707 -0.459941 0.0792417
0.0104689 -0.463557 0.08792
0.0083428 0.379855 0.203111
0.0200389 0.393642 0.152104
0.0184481 0.448235 0.232302
0.0225041 -0.250121 0.0287719
0.0202243 0.18594 0.405228
0.0164775 0.188785 0.408228
0.0158705 -0.255204 0.258988
0.00841457 0.221953 0.462962
0.0110265 -0.271492 0.307563
0.0327133 0.122945 0.167469
0.00857199 -0.222292 0.0559155
0.0210889 -0.229006 0.334544
0.0148622 -0.33977 0.000907765
-0.0129489 0.307005 0.145935
-0.0235267 0.109352 0.220134
0.00321595 0.299652 0.17354
0.00639813 -0.354293 0.165294
0.00856856 -0.323732 0.105199
0.00434567 0.35144 0.137703
0.015766 0.461927 0.135625
0.015363 -0.241138 0.258069
-0.0119755 0.334232 0.175393
0.0110152 0.1468 0.445034
0.0093927 0.13102 0.190628
-0.0244566 0.0833016 0.167715
0.0235257 -0.356572 0.128055
0.0197319 0.167817 0.170703
0.0144714 0.131956 0.171316
0.0176094 -0.303133 0.0189099
0.0206348 0.111442 0.417571
-0.0228667 0.152513 0.177588
0.00688535 0.327444 0.167619
-0.0612822 -0.206058 0.519667
0.00454204 -0.345747 0.174039
0.0163547 0.106992 0.174784
0.0194677 0.187831 0.11533
0.0108351 0.300274 0.0682299
0.0175554 -0.455475 0.106891
0.0476903 -0.273388 0.206567
0.0219782 -0.220395 0.0449935
0.0134657 0.282456 0.319012
0.0143318 0.30436 0.305507
0.0189493 0.40874 0.0522818
0.00735423 -0.0935808 0.456616
0.0190802 0.31874 0.233765
0.0153378 -0.362333 0.0314318
0.00857639 -0.378061 0.158832
0.0448358 0.287318 0.221498
0.00422783 0.33433 0.128595
-0.0691124 0.113332 0.244287
0.0184086 -0.427872 0.141394
0.00420952 -0.346639 0.168515
0.0137087 -0.447365 0.0946031
-0.0649959 -0.223745 0.468982
0.0163556 -0.215902 0.218
0.0133774 -0.0607239 0.27689
0.0198384 -0.391961 0.300922
0.0232092 0.331862 0.171052
-0.0141509 0.345313 0.167151
0.0200716 0.163811 0.288882
0.0134403 0.0413383 0.422151
0.0397814 0.242325 0.289551
0.0149622 -0.448567 0.136162
0.0343042 0.247713 0.454041
0.0222107 0.296274 0.190674
0.0178921 -0.180071 0.346108
0.0126497 0.17742 0.317609
0.0156589 -0.00320539 0.261425
-0.0216054 0.136128 0.196449
-0.0141579 0.334576 0.157752
0.0117006 0.306316 0.272782
0.0216732 0.367842 0.19855
0.0212311 0.288352 0.13009
0.031758 0.214177 0.354096
-0.00650928 0.323946 0.158316
-0.00947934 0.299719 0.17271
0.012343 -0.309674 0.0610091
0.0222955 -0.379798 0.143863
0.0200518 0.0123515 0.238646
0.0142779 0.382353 0.294249
0.00762076 -0.0949406 0.310603
0.0374424 -0.220919 0.325026
0.0171906 -0.219997 0.215515
0.0183268 0.269485 0.0920632
0.0182389 -0.221532 0.279935
0.00861744 0.230713 0.0573906
0.0202973 -0.251794 0.198199
-0.0144191 -0.224961 0.306609
-0.0387625 -0.167808 0.518369
-0.0244579 0.149509 0.178509
-0.0128254 -0.291739 0.180334
-0.0105709 0.320731 0.152009
-0.0103219 0.31592 0.135951
0.0192348 0.256431 0.160169
0.00788456 0.206982 0.437189
0.0143694 0.220514 0.0677311
0.0171859 -0.441485 0.0793574
0.00402329 0.347215 0.164064
-0.00820685 0.332494 0.153834
0.0220649 -0.310525 0.00649028
0.021467 0.27813 0.149862
0.0144814 0.482246 0.156165
0.00619727 -0.0344197 0.269348
0.00418428 0.318287 0.150112
-0.0602238 -0.188534 0.512387
-0.0144451 0.324046 0.127882
0.0193019 -0.0364527 0.43936
0.0103071 -0.3711 0.00935943
0.00438956 0.29694 0.163312
0.0321825 0.197896 0.450253
0.00792463 0.211385 0.431713
-0.0397434 0.119765 0.187141
0.0145053 -0.360719 0.0362239
-0.00579578 0.315467 0.172577
-0.0433247 0.118469 0.186143
0.0178731 0.174805 0.39855
0.0323022 0.197868 0.447843
-0.0129398 0.300735 0.159798
0.0106128 0.197199 0.229584
0.0150462 -0.422858 0.0578884
0.0138978 -0.380166 0.263715
0.0186482 0.32118 0.168966
-0.00739773 0.309836 0.1637
0.0221736 -0.388422 0.0295041
-0.0228705 0.108481 0.209201
0.0909704 -0.182576 0.528206
0.0841735 -0.204524 0.45514
0.0216347 -0.443608 0.257696
0.0180514 0.233074 0.152403
0.0108692 -0.359806 0.0220905
-0.0240327 0.103689 0.218743
0.00681397 -0.175041 0.469528
0.00671122 0.43976 0.0730625
0.00582181 0.206113 0.458053
0.0132132 -0.274104 0.309744
0.0183509 -0.218302 0.171443
0.00816784 -0.467137 0.121785
-0.0215425 0.149299 0.194385
0.0247736 -0.299758 0.140417
0.0135938 -0.264244 0.0633782
0.0090979 -0.205632 0.242438
-0.0203553 0.154084 0.181197
-0.0216039 0.098568 0.18146
0.0191815 0.285914 0.302838
0.00615126 0.0267157 0.237052
0.0165625 -0.336856 0.2678
0.0140201 0.350269 0.031247
0.0118396 0.0439039 0.217599
0.0146038 0.132755 0.174793
-0.02039 0.143437 0.152262
0.0212522 -0.385209 0.128419
0.00816115 -0.21149 0.359204
0.0105559 -0.367677 0.234858
0.0199201 -0.202973 0.397217
0.00494207 0.278251 0.16793
0.00720256 0.0409093 0.222912
0.00715066 -0.365591 0.17907
-0.00914853 0.309502 0.178098
-0.011968 0.315184 0.186036
-0.0566268 -0.22074 0.506511
0.0158765 -0.449813 0.185831
0.0153433 0.192299 0.206922
0.0139774 -0.461684 0.191223
0.0131908 0.310228 0.294215
0.0252552 -0.335994 0.125316
-0.0433987 0.120673 0.230265
-0.0209604 0.156463 0.167232
0.00837305 0.195417 0.231009
0.0350419 -0.234179 0.284692
0.0670519 0.126942 0.108398
0.0190067 0.180092 0.359499
0.0393593 0.212202 0.168058
0.0353213 -0.220359 0.318403
0.0185713 -0.237352 0.138529
0.0157942 -0.0150204 0.433051
-0.0167825 0.235783 0.447567
0.0187654 -0.298127 0.00310339
-0.0242086 0.112814 0.136705
-0.0141455 0.342938 0.174762
0.00766591 -0.142373 0.46688
0.0315756 0.21011 0.358871
-0.0139531 0.304293 0.190031
-0.0137204 0.324704 0.114507
0.00869688 -0.228834 0.316765
0.0101673 -0.422365 0.0573843
0.010265 -0.190925 0.109144
0.00975114 -0.351304 0.312736
0.0193012 0.455155 0.249867
0.0192147 0.203542 0.243287
0.00956576 0.450948 0.258706
0.00903592 0.16046 0.402086
0.00641102 -0.196732 0.365744
0.0062693 -0.016299 0.262112
0.0223172 -0.305964 0.303909
0.0266371 0.315624 0.153387
0.0224564 -0.472541 0.146815
0.0177079 0.192389 0.362722
0.0197867 0.182839 0.0987402
0.0208126 0.441187 0.253665
0.0199428 -0.0538322 0.443245
0.0926728 0.106586 0.108683
0.00260618 -0.313336 0.175117
0.00618376 -0.352119 0.166918
0.0208845 0.181385 0.215365
0.00894403 0.123441 0.409079
0.0139584 -0.23969 0.294203
0.0138006 -0.166272 0.181819
0.0499894 -0.30843 0.168273
0.0108428 -0.168834 0.462023
0.0208165 0.179935 0.144203
0.00603512 -0.0506875 0.279322
0.0206251 0.394044 0.292064
0.0829924 0.11434 0.112195
0.0060888 -0.365566 0.162602
0.0166403 -0.221447 0.223932
-0.025418 -0.16469 0.511944
0.0148596 0.325107 0.324468
0.0113892 0.261807 0.292971
-0.0100975 0.32817 0.153619
0.057984 0.128838 0.111358
0.0152011 0.343555 0.0485459
0.096347 0.119759 0.112384
0.0177868 -0.396146 0.0181455
0.0109897 -0.188883 0.0777379
-0.00812261 0.34046 0.17835
-0.00820335 0.336811 0.158047
-0.0194663 -0.315166 0.164849
0.0239694 0.303857 0.193345
0.0120289 -0.181889 0.161305
-0.0206237 0.13698 0.21133
0.0123087 0.295325 0.0244521
0.017066 -0.0685439 0.443369
0.0144945 -0.195979 0.0977947
0.0121502 0.182486 0.151791
0.0223804 -0.405228 0.285303
0.023497 0.338353 0.144607
-0.0113843 0.321039 0.134165
-0.0129326 0.297669 0.169553
0.0106511 0.386628 0.247122
0.0147046 -0.360088 0.036455
0.0176125 0.208489 0.450328
0.0188646 0.345923 0.248121
-0.0129243 0.326533 0.179792
-0.022867 0.0843081 0.18237
0.0179635 -0.168841 0.192126
0.0140024 0.29566 0.301796
-0.0141181 -0.297867 0.171886
0.00674738 0.150043 0.455759
0.0155706 -0.217654 0.0712658
0.0103294 0.462146 0.13684
0.0238033 -0.373232 0.160429
0.0878502 -0.219534 0.473073
0.022386 -0.355421 0.0155754
0.0298626 0.241003 0.441896
0.0214024 -0.216608 0.272005
0.0155621 -0.125678 0.467082
0.0157309 -0.0486651 0.270409
0.00594495 0.368026 0.162194
0.0327133 0.125351 0.170076
0.0115398 -0.181025 0.482826
0.0123056 0.163524 0.436471
-0.0244569 0.102908 0.174363
0.0234044 0.328999 0.177277
-0.0179851 -0.247117 0.253425
-0.0244536 0.12096 0.148474
-0.0115386 -0.271429 0.200802
0.0282322 0.200643 0.369467
0.0189862 0.420681 0.0623839
0.0210805 0.277582 0.191488
0.0102892 -0.252645 0.197477
0.00822252 -0.273635 0.299735
0.0209234 0.124592 0.174206
-0.00740067 0.313915 0.158805
0.00712554 0.236183 0.290848
0.0147887 -0.482678 0.160082
0.0072898 0.17467 0.129677
0.0187307 0.200623 0.235793
0.0117619 -0.211442 0.0479808
0.010195 0.479957 0.188618
0.0201691 -0.155749 0.462769
0.00215441 0.24808 0.459291
0.00160193 0.124453 0.172931
0.0145568 -0.214195 0.127649
-0.057121 0.131451 0.246116
0.0184657 -0.206122 0.264762
0.0111062 0.227554 0.269428
0.0201011 -0.136529 0.323727
0.0242109 -0.173061 0.514243
0.0237565 -0.322113 0.121747
0.0145227 0.397574 0.273333
-0.0357797 -0.168501 0.509397
0.0125739 -0.470566 0.0994798
-0.0074306 0.326116 0.18561
0.000359218 0.167231 0.451868
-0.0202482 0.120125 0.150055
-0.0129359 0.305795 0.165079
0.0298443 0.222201 0.462998
0.0174944 -0.2291 0.0925934
0.00580484 -0.345432 0.142979
0.0177954 -0.259225 0.30389
-0.00650279 0.326625 0.167578
-0.00915953 0.346317 0.172538
-0.0117647 0.298497 0.154789
0.00886745 -0.178585 0.106332
-0.0113661 0.320343 0.117572
0.0188151 -0.463314 0.233128
0.0218272 -0.172192 0.192082
-0.0201041 0.0757033 0.176766
0.0132996 -0.346985 0.0594952
0.0192071 0.387849 0.114122
0.0120895 0.195454 0.393793
-0.0141666 0.310319 0.14632
-0.00132471 -0.17304 0.514561
0.00845502 -0.263185 0.291714
-0.0561502 -0.226147 0.476755
0.00354267 0.291898 0.161995
0.0204077 0.19253 0.398774
-0.0237982 0.124294 0.137632
-0.0123553 -0.24048 0.254362
0.00647084 0.326497 0.211149
0.0897218 0.10848 0.106357
-0.0244568 0.0843107 0.169647
-0.0138445 0.242643 0.444064
0.0094804 0.267566 0.0186708
0.019693 0.340935 0.308621
-0.0228684 0.0866454 0.196617
0.0217893 -0.198171 0.250792
0.0183025 -0.183017 0.17659
0.0154324 0.142548 0.21893
0.019291 -0.345668 0.0801253
0.0130613 0.452631 0.139437
-0.0910889 0.106791 0.245597
0.0154981 0.192196 0.359832
0.0432199 0.120955 0.129512
0.0148401 0.449144 0.18884
0.00718882 0.434373 0.272486
0.0101336 -0.219116 0.255611
0.076714 0.114651 0.112206
-0.0202505 0.0994286 0.175746
0.0208185 0.178222 0.166231
0.0390169 0.235305 0.438968
-0.0116701 0.234888 0.170405
0.0121172 0.254479 0.28887
-0.0679598 0.123267 0.246183
0.00587119 -0.323178 0.17204
0.0122094 0.23747 0.231758
0.0716543 0.107121 0.111444
0.00822401 -0.470091 0.14046
0.096871 0.128871 0.110751
0.00653197 0.0905387 0.202207
0.0881005 -0.188273 0.53029
0.0211893 0.112994 0.189553
0.0204102 -0.172275 0.512634
-0.0552555 -0.165658 0.516049
0.0131546 0.230918 0.0365755
0.0139645 -0.199406 0.425895
-0.0659652 0.116588 0.247546
0.0121935 -0.219968 0.25558
0.09174 0.134428 0.111087
-0.00738729 0.315763 0.176939
-0.0136389 0.210294 0.170542
0.0107066 -0.0209688 0.447162
0.0185828 -0.377664 0.0879675
0.017375 0.250538 0.286645
0.0214099 -0.37993 0.179616
-0.0141543 0.318229 0.163211
0.0105207 0.181938 0.0959963
-0.00914939 0.327842 0.175552
-0.00739862 0.339698 0.160276
-0.0129355 0.306083 0.165483
0.0138443 0.249618 0.306212
0.0203585 0.261434 0.306703
0.0129895 -0.430476 0.146574
0.0065049 0.376333 0.190198
-0.0216033 0.105457 0.175857
0.0271756 -0.224477 0.31973
-0.00710269 -0.219612 0.320642
0.0182123 -0.318854 0.300581
0.00398483 0.1929 0.433698
0.0220916 -0.208021 0.258939
0.0211576 -0.0273561 0.263581
-0.016455 0.33059 0.147899
-0.0202489 0.142894 0.15475
-0.020248 0.13466 0.149929
0.0204102 0.213342 0.446815
0.0258402 -0.318817 0.129035
-0.0241912 0.126754 0.219319
0.00854972 -0.310704 0.0073555
0.0160775 0.0335605 0.223553
0.0208671 -0.00507052 0.437321
0.00601881 -0.334011 0.157833
0.0224395 -0.32269 0.0091004
0.00858634 0.238805 0.0507011
0.0186061 0.193216 0.395858
0.0156238 0.205645 0.144514
0.00592688 0.319757 0.119676
0.0196935 -0.399732 0.145434
0.0223782 -0.33661 0.305319
0.00715595 0.158301 0.288301
-0.0228622 0.107502 0.145129
0.00792471 0.167818 0.162272
0.0245064 -0.334325 0.127919
0.0204666 -0.464685 0.172792
0.0480246 0.291831 0.215053
0.0103383 0.22827 0.152535
0.0111567 0.197372 0.0699511
0.0178289 0.417293 0.179324
0.0874521 -0.196159 0.522099
0.017822 0.466381 0.232394
0.015559 -0.29739 0.281145
0.0131993 -0.157568 0.459287
0.0281448 0.179154 0.450874
0.00866192 -0.170257 0.486631
0.0360406 -0.320297 0.159458
0.00844956 -0.197685 0.232829
0.00696219 0.31715 0.310312
0.0208548 -0.0932468 0.299937
-0.023587 0.0786726 0.171322
0.0191543 0.126383 0.165359
0.0239272 -0.291873 0.124018
0.0118006 -0.410192 0.04681
0.021797 0.289881 0.209313
0.00605099 0.0625379 0.216173
0.00754558 -0.163053 0.518387
0.0180569 -0.299861 0.250141
-0.00915401 0.317551 0.169526
0.00972948 -0.170472 0.18863
0.0204867 0.180054 0.108589
0.0208035 0.337065 0.105946
0.00404756 0.308943 0.193166
0.0218767 -0.171163 0.348966
0.0341583 -0.321794 0.155949
0.021896 0.348881 0.133907
-0.0109217 0.312277 0.186493
0.0147595 -0.165771 0.178209
0.00830444 -0.443216 0.250263
0.0290658 -0.327226 0.158177
0.00423849 0.312786 0.175994
0.0102726 -0.344849 0.0923483
0.00757492 0.185623 0.237257
0.0224257 -0.322354 0.308936
-0.00820349 0.335222 0.157999
0.0139512 0.453685 0.124156
-0.024462 0.136294 0.210722
0.0187427 0.0881246 0.425419
0.010045 -0.208265 0.264681
-0.0109884 -0.28374 0.192087
0.0191254 -0.336645 0.243337
0.00954117 0.346156 0.254385
-0.061671 0.126206 0.244656
0.0171388 -0.190947 0.41481
-0.00914992 0.328799 0.174951
0.00667958 0.399628 0.292301
-0.0204637 0.138981 0.147666
0.00770175 -0.203429 0.392621
0.0710982 -0.165494 0.517064
0.0223104 -0.432771 0.262984
0.0104734 -0.433136 0.0465177
0.00559607 0.29593 0.138436
0.00972939 0.04972 0.43329
0.00533962 -0.302791 0.166361
0.0134966 0.196899 0.101753
0.020325 -0.105151 0.459112
0.0173646 -0.318972 0.30058
0.0218362 0.287254 0.184424
0.0133359 0.397677 0.274546
0.0203626 -0.396102 0.114297
0.0135767 0.25289 0.27381
0.0185563 -0.298967 0.256919
0.017924 -0.26189 0.238404
0.0134536 -0.14267 0.323669
0.0233926 0.286852 0.150111
-0.018294 0.110503 0.168914
0.00731272 0.179595 0.18066
0.0218392 -0.159361 0.342383
-0.0119691 0.315292 0.184575
0.0266432 0.338228 0.154392
0.0152582 -0.45997 0.131821
0.00725997 0.209082 0.26819
0.00480477 0.175899 0.453215
-0.0129303 0.328633 0.171392
0.00895603 -0.201283 0.0639211
0.0894768 0.120882 0.108687
0.0149163 0.431199 0.133792
-0.00128437 0.184034 0.437778
0.0126583 -0.123996 0.46689
0.00784593 0.0523764 0.215638
0.0173712 0.381143 0.018515
0.014212 -0.108838 0.304316
0.0193177 0.341855 0.307523
-0.0202484 0.139683 0.152384
0.0192619 -0.276121 0.225446
0.017287 -0.0222936 0.255816
0.0190956 0.118871 0.180613
-0.0121412 0.233406 0.316399
0.0133631 -0.180666 0.491275
0.0126897 -0.311034 0.0624996
0.0678598 0.136386 0.108381
0.0204332 0.169396 0.172768
0.00445535 0.207155 0.432388
-0.0111942 0.22468 0.462526
-0.0141552 0.30402 0.163128
0.0842411 -0.2279 0.489483
-0.0244574 0.136386 0.176225
-0.00650825 0.336958 0.159458
0.0137911 -0.348184 0.0553701
0.00599234 -0.0804097 0.297558
0.0212323 -0.403555 0.292757
-0.0121606 0.238932 0.167994
0.0166694 0.350603 0.266829
0.00988155 0.174845 0.313496
-0.024462 0.106394 0.211855
-0.0133948 -0.287648 0.195429
0.0076742 0.193752 0.388424
0.00666206 0.0117156 0.247767
0.00937013 -0.2658 0.122042
0.00352082 0.343118 0.163234
-0.00937198 0.239992 0.442249
0.00260417 -0.320746 0.168661
-0.00649444 0.316064 0.179046
0.00525872 0.310567 0.132124
-0.00915124 0.316063 0.173528
0.0190535 0.228672 0.0597268
0.0175989 -0.360173 0.313248
3.79225e-05 0.171913 0.436062
0.021002 0.117504 0.180203
0.00989302 -0.402111 0.175923
0.00665813 0.459872 0.105787
0.0221375 -0.176998 0.11675
-0.0129286 0.334772 0.154052
0.0205781 -0.2042 0.235308
-0.0185976 -0.242484 0.272651
-0.00686483 -0.246725 0.247511
0.00841176 -0.467072 0.134384
0.0110492 0.182745 0.182656
0.0298364 0.19271 0.453036
0.0164383 -0.184761 0.470556
0.00372929 0.313213 0.14506
-0.00820789 0.311751 0.153803
0.00231479 0.116522 0.179414
0.01757 0.182893 0.146299
0.0149937 -0.482233 0.14916
-0.0215385 0.097853 0.20302
0.0161216 -0.0127805 0.432722
0.016993 0.162028 0.275449
0.0187261 0.376004 0.234293
0.0230119 0.291874 0.160142
0.00752644 0.208206 0.416748
0.020883 -0.318426 0.00284224
0.00704933 0.357799 0.121869
-0.0216057 0.140662 0.194894
0.00705224 0.29608 0.315642
0.0170113 -0.239039 0.293626
0.0132055 0.203239 0.200609
0.0085366 0.224513 0.268068
0.0149655 -0.450182 0.198658
0.0143273 -0.263426 0.0642692
-0.0164544 0.32641 0.147794
0.00818122 -0.194172 0.0855862
0.0170844 0.14768 0.234819
0.0222091 -0.196889 0.24276
0.0240049 0.334008 0.184162
0.00815939 -0.378065 0.020913
0.0327225 0.20558 0.456322
0.0169422 0.202914 0.421874
0.00467988 0.204212 0.432842
0.0113184 0.203161 0.445124
0.0150439 -0.215371 0.374394
0.0120855 0.41457 0.216396
0.0214943 0.101948 0.194581
0.00693416 0.398 0.0393533
-0.00819712 0.339665 0.167416
0.0231919 0.307061 0.127066
-0.0244576 0.136435 0.177556
0.0071139 -0.0286516 0.262741
0.0166551 0.437847 0.0816158
0.0210291 0.471495 0.180867
0.0239341 -0.216085 0.333332
-0.0141436 0.348211 0.177286
0.00938599 0.248616 0.181945
0.0142766 0.385907 0.292361
0.0199313 -0.211017 0.365068
-0.016449 0.318591 0.139237
0.0103735 -0.10309 0.449897
0.00720084 0.296903 0.219895
0.00962571 0.309243 0.256828
-0.00342611 0.123525 0.179011
0.0130993 -0.299162 0.255026
0.0206033 0.180304 0.404853
-0.0133861 -0.245909 0.238201
0.0100617 0.177363 0.224837
-0.0243961 0.0828755 0.190569
0.0217121 0.352515 0.131786
0.00836674 0.402344 0.0441556
-0.0244595 0.144671 0.191179
0.00675157 0.266275 0.151534
0.0243652 -0.216299 0.330555
0.0229199 0.317467 0.165549
-0.0108343 0.238843 0.296417
0.00851468 -0.451505 0.0767044
0.0104635 0.167195 0.41203
0.0086858 0.114827 0.174117
-0.00624791 0.342439 0.171694
-0.0116981 0.3102 0.140047
0.00450192 0.351077 0.182834
0.0232686 0.306553 0.141027
0.0186972 0.437409 0.249626
0.0200588 -0.153499 0.333372
0.0126933 -0.436021 0.245134
0.0202788 -0.395222 0.0367243
0.0840819 -0.218808 0.505099
0.0102775 -0.391959 0.172761
0.0221588 -0.475616 0.157975
-0.00916607 0.341677 0.152083
0.0173986 -0.208073 0.360622
0.0184115 0.399666 0.142393
0.013296 -0.223546 0.174078
-0.00739366 0.30695 0.168704
0.0183567 0.151019 0.247316
0.0155326 0.481267 0.186699
0.00843476 -0.172701 0.158726
-0.0216851 0.114437 0.188317
0.0249962 0.303302 0.157555
-0.00651509 0.325189 0.149625
0.0253184 -0.3046 0.140811
0.0817819 0.130095 0.10901
0.0148687 -0.146048 0.325765
0.0218772 -0.170654 0.348673
0.0209614 0.334148 0.0192759
0.00844751 -0.461623 0.114056
-0.0228684 0.11849 0.19524
0.0219046 -0.376279 0.14424
0.00858254 0.405312 0.174667
0.0170887 0.140447 0.404426
-0.0210528 0.290261 0.168191
0.00674279 0.333056 0.315568
-0.0205867 -0.319366 0.158159
0.0252349 0.324765 0.188485
0.0185855 -0.411295 0.107575
0.0209146 0.195031 0.0864748
0.0217579 -0.361759 0.00857434
0.0072777 0.367442 0.124034
0.0319878 -0.233919 0.315636
0.00965435 0.466533 0.231924
-0.0232434 0.123197 0.189635
0.0135555 -0.29868 0.0195213
0.0109584 0.471955 0.110003
-0.0215994 0.125917 0.145985
-0.005794 0.322787 0.174441
0.0101221 0.413968 0.143027
0.00693643 0.188918 0.107139
-0.0647815 -0.225555 0.470944
0.0547343 -0.164287 0.524774
0.0731591 0.112705 0.108403
0.0875379 -0.208767 0.525818
0.0454862 0.272781 0.165235
-0.0145714 0.230226 0.436999
-0.0202529 0.132542 0.19004
0.0207044 0.375413 0.158675
0.0209376 -0.256977 0.201612
0.00705087 0.178488 0.158915
0.00835309 -0.282448 0.299818
0.0238772 0.354958 0.170262
-0.0169154 -0.249596 0.241148
0.039105 -0.222767 0.322965
0.00896782 0.26255 0.0372774
-0.00649174 0.327929 0.182078
0.00986972 0.31512 0.323126
-0.0244448 0.0858593 0.195881
0.0197678 0.383091 0.124412
0.0245969 -0.309706 0.195042
-0.0110768 0.329124 0.145145
0.0185754 -0.195759 0.430105
0.0161759 0.121985 0.200357
0.00977566 -0.194499 0.094088
0.0187763 -0.383438 0.0760619
0.0167065 0.212083 0.0776931
0.00842204 -0.414585 0.279819
0.0171076 0.302541 0.0776921
-0.0244579 0.145598 0.178764
0.0092188 0.242763 0.184522
0.00666418 0.312162 0.313309
0.0222377 -0.189473 0.104258
0.00703377 0.247005 0.296927
-0.022871 0.14119 0.209633
0.0198152 -0.44972 0.253166
0.0176946 0.43319 0.254665
-0.0148229 0.261473 0.118262
0.0227507 0.291439 0.161776
0.0281667 0.144101 0.172583
0.0207262 -0.380009 0.194362
0.0121438 0.064403 0.222825
0.00713079 0.364114 0.0191833
-0.0129445 0.32747 0.15182
-0.0498214 0.120938 0.1876
0.00868708 -0.267884 0.19774
-0.0228628 0.133844 0.147623
-0.0199582 0.086929 0.146503
0.011324 -0.424605 0.258278
-0.0230894 0.0811721 0.192008
0.0215398 0.315063 0.10788
0.00757093 0.0106075 0.431876
0.0177878 -0.215983 0.0427692
0.0186623 -0.422169 0.0352303
0.0131367 -0.392046 0.0712372
0.0208286 0.34941 0.0226641
0.00956191 -0.432799 0.0643542
0.00742824 0.229933 0.289149
0.0209976 0.148511 0.256187
-0.0141026 0.324543 0.138181
0.0113581 -0.183572 0.0864043
0.0133272 0.213932 0.429376
0.0188987 -0.0821328 0.456994
0.0137595 -0.187003 0.196723
-0.0565662 -0.225266 0.484019
0.0135841 -0.185515 0.237621
0.088421 -0.230097 0.476372
0.00917433 -0.253326 0.137855
0.0172259 -0.0898599 0.310443
0.0185471 0.313809 0.24487
0.00711293 0.25038 0.299564
0.0224683 -0.448962 0.237783
0.00709399 0.415 0.0532422
0.0765444 0.126753 0.108892
0.0109297 -0.408656 0.181129
0.0255253 -0.219499 0.32522
0.00941289 0.258974 0.022057
0.0158319 0.350611 0.263642
0.00681505 0.332549 0.0163684
0.01547 -0.336324 0.279369
0.00811788 0.175141 0.118272
0.0169581 0.222024 0.264116
0.00704619 -0.322606 0.121659
-0.00368973 0.199084 0.433342
0.0462655 -0.234367 0.289368
0.0130693 -0.342385 0.271228
-0.0129173 0.318411 0.190007
0.00833817 -0.422223 0.0450708
0.0151856 -0.460643 0.186341
0.024471 0.348264 0.164596
0.0130394 0.181311 0.454309
0.0931959 0.136305 0.11051
-0.00580467 0.325645 0.159527
0.0111672 0.426327 0.13601
0.0402637 0.26063 0.271485
0.0139166 0.393777 0.266282
0.0885466 -0.174251 0.511635
0.022353 -0.424008 0.27097
-0.0158222 0.315039 0.127946
0.0143153 0.193476 0.192459
0.00790705 -0.192639 0.431342
0.0166383 -0.29561 0.0222253
0.0225566 0.303496 0.124755
0.0124227 -0.192804 0.0699685
0.0257562 -0.226583 0.321925
0.0186763 0.327678 0.165806
-0.0113722 -0.247024 0.278858
0.0176824 0.339677 0.30586
-0.0141518 0.343189 0.165641
0.0232 0.326743 0.137338
-0.0109367 0.318971 0.164846
