-0.0594955 -0.231238 0.5113
0.0936352 0.108497 0.107174
0.0101021 0.29048 0.0113775
0.00891819 0.161649 0.307644
0.0193935 -0.336588 0.253322
0.021102 -0.283493 0.219868
0.0449817 0.2661 0.165592
0.00628464 0.370467 0.164432
0.0170358 0.274485 0.250306
0.0105552 -0.396641 0.113193
-0.0968076 0.120322 0.245508
0.013846 -0.416448 0.106637
0.0136909 -0.341192 0.267787
0.0170462 0.0446085 0.217535
0.0223589 -0.449856 0.0775155
0.0197011 -0.17955 0.222619
0.0115758 -0.202293 0.358287
-0.00888858 0.212735 0.169549
0.0495836 -0.285615 0.185988
0.00703249 0.454659 0.243543
0.0132739 -0.199845 0.0599531
-0.00976074 0.234335 0.463843
0.0192315 0.332278 0.0838149
0.0150986 -0.0503639 0.43945
0.0193015 0.211073 0.0566502
0.0148594 0.227329 0.231568
0.0143921 0.174437 0.411466
0.0142967 0.384683 0.0517051
0.0391535 0.201074 0.169213
0.0131466 -0.373663 0.244628
0.0190152 0.266317 0.126382
-0.00150194 0.206531 0.368532
0.0184719 -0.277974 0.0809983
0.0448173 0.289448 0.166862
-0.0175265 -0.16909 0.509486
0.08722 -0.203432 0.449837
0.020171 0.130791 0.215182
0.00937338 -0.302865 0.21594
0.0128911 -0.249453 0.298863
0.0110341 -0.397414 0.214398
0.0105541 0.386284 0.246228
0.0100099 -0.345647 0.0799054
0.0197854 0.276023 0.109161
-0.0185885 -0.239574 0.28532
0.0225122 -0.368192 0.178898
0.0183882 0.286311 0.318283
0.00665154 0.296224 0.220729
0.0105052 0.246316 0.1194
0.0200613 -0.23649 0.172515
0.0130796 0.436217 0.18505
0.0086844 -0.399029 0.025513
0.0123507 0.212476 0.189498
0.0114739 0.214721 0.152887
-0.0164996 0.261705 0.11872
0.0446683 0.116783 0.155953
0.0200802 -0.0117515 0.252443
-0.0216392 0.0849049 0.150814
0.0170962 -0.165523 0.143058
0.0148806 0.207919 0.143997
0.0149693 -0.447563 0.145654
-0.0461727 0.123108 0.222065
0.0158908 0.403485 0.102854
0.00864712 -0.192126 0.417781
0.043695 -0.229379 0.30732
0.0288239 0.214696 0.34179
0.0216208 -0.134131 0.326502
0.0411924 0.218831 0.440695
0.00411644 -0.308298 0.140534
0.00887641 -0.437125 0.264706
0.0223589 -0.3445 0.107069
0.011568 -0.242718 0.207707
-0.0138206 0.294078 0.113589
0.00229674 0.308541 0.150126
0.0242466 -0.282836 0.138647
0.0212467 0.30458 0.122454
0.0481054 0.294354 0.210731
-0.00596148 0.127975 0.16576
0.00663156 -0.306654 0.114697
0.0222815 0.338645 0.123864
0.0860922 -0.241614 0.507091
0.00875547 -0.385985 0.299641
0.0225245 0.342572 0.209593
0.0141807 -0.10016 0.448482
0.00819146 -0.313306 0.307961
0.0218782 0.322514 0.220035
0.0103934 -0.203614 0.259745
0.0225983 -0.259812 0.0243512
0.0171529 0.423149 0.288584
0.0160343 0.227154 0.29134
0.00927514 0.401015 0.210166
0.0131132 0.00851446 0.428357
0.0212296 0.263037 0.174151
0.0162452 0.350091 0.0260254
0.0134815 -0.241141 0.0939863
0.0159043 0.297421 0.0674753
0.0159097 0.442737 0.0606325
0.0161195 0.419147 0.140524
0.00826541 0.190221 0.361976
0.0131024 0.120659 0.421416
0.0209362 0.184937 0.10623
0.0224552 -0.269137 0.174093
0.00587389 0.0932641 0.197779
0.0190004 -0.382888 0.0787588
-0.00455324 0.19638 0.437983
0.00676581 0.174824 0.177054
0.0125188 -0.426401 0.188067
0.00398783 0.348107 0.191172
0.0126693 0.178246 0.22963
-0.00678971 0.233291 0.319388
0.00958766 0.481146 0.161965
0.0238529 -0.319598 0.208289
0.0181936 -0.310635 0.0644508
-0.0569072 -0.163947 0.526887
0.00733805 0.15121 0.257134
0.00458878 0.360676 0.146335
0.0289679 0.150397 0.174685
0.0285394 0.10893 0.169055
0.0476916 0.3051 0.194
0.0111068 0.331297 0.30683
0.0341845 -0.164149 0.514467
0.0199607 0.338383 0.237785
-0.000857027 0.319835 0.164836
0.00811343 0.247707 0.0419483
0.0229418 0.32559 0.170927
-0.0117546 -0.231931 0.323046
0.00815836 0.31531 0.242858
0.00741639 0.265109 0.20408
-0.0151605 -0.307488 0.170096
-0.0191889 0.284653 0.231049
0.00908757 0.456738 0.212925
-0.00714341 -0.243865 0.251433
0.0281084 -0.330649 0.154685
0.0223693 -0.187079 0.106184
0.022281 -0.358752 0.01207
0.0551395 0.12789 0.107637
0.0175771 -0.474337 0.109902
0.011844 -0.432248 0.0443835
0.00814871 0.387066 0.178718
0.0025978 -0.343592 0.159997
-0.0232047 0.301939 0.164698
-0.0409237 0.121939 0.175671
0.00622917 -0.282317 0.157199
0.0115863 -0.481479 0.16119
0.0166896 -0.288631 0.27476
0.0215505 -0.0453068 0.278454
0.00869085 -0.359042 0.20873
-0.0215999 0.129831 0.149304
-0.0212002 0.083696 0.199991
0.00605458 -0.099135 0.306911
0.00683444 0.205898 0.419705
0.0191063 0.393235 0.288788
-0.00356808 0.165969 0.174657
0.0194374 -0.402384 0.145385
0.0151957 -0.251449 0.0482874
0.0182662 0.16874 0.137361
0.0160036 -0.168117 0.485707
0.0214358 -0.221055 0.276043
0.0167735 0.25792 0.0806775
0.0279367 0.174968 0.434866
0.00724912 -0.159833 0.347245
0.021411 -0.216356 0.335168
0.00942707 -0.181086 0.182682
0.0191425 0.253377 0.158618
0.0173072 0.0181492 0.248731
0.023401 -0.345073 0.208838
-0.015889 0.229525 0.449915
-0.0138577 0.356701 0.155985
0.0111161 -0.18815 0.459376
-0.0583282 0.104328 0.243872
0.0321749 0.247369 0.458742
0.0116365 -0.459467 0.239288
-0.0177422 0.255531 0.169806
0.0387712 -0.235235 0.272461
0.0104911 0.216201 0.44677
0.00735995 0.462056 0.0972673
0.00819432 -0.345029 0.306726
0.0199674 0.408046 0.0344801
0.00841699 0.266067 0.296925
0.0144521 0.367264 0.318452
0.00792883 0.330791 0.0208781
0.0159217 -0.249788 0.249847
0.0138645 0.199501 0.264711
-0.0129158 0.338219 0.191184
0.0204999 0.36945 0.122994
0.0134536 0.434733 0.238808
0.015696 -0.20973 0.126188
0.0400591 0.231759 0.307855
0.0151373 -0.229213 0.0312195
0.0140926 0.213723 0.0920048
0.0222728 -0.465957 0.192713
0.0281132 -0.315389 0.168453
0.0235309 0.296957 0.1879
0.0127788 -0.182265 0.480033
0.0138362 0.132342 0.180703
0.0209534 -0.0759615 0.450854
0.0128344 0.241866 0.443612
0.0080502 0.345015 0.225882
-0.0231074 0.159405 0.163921
0.0206898 -0.40688 0.275244
0.0247634 -0.361483 0.144421
-0.0166481 0.209232 0.122942
0.00929839 0.178342 0.32517
0.00723569 0.370722 0.0200788
0.0218967 -0.288486 0.113503
0.0161986 -0.356284 0.0450494
0.00431271 0.108271 0.182413
-0.0145031 0.329233 0.124678
0.0147307 -0.299822 0.0317854
0.0188132 -0.166868 0.179715
-0.00066205 0.181043 0.448456
0.0439794 0.277111 0.245632
0.00838824 0.0417811 0.433416
-0.0603813 -0.200925 0.529797
0.0412173 -0.269749 0.217514
0.0114392 0.0738506 0.200617
0.014686 -0.228619 0.316692
0.054894 -0.318171 0.162335
0.0136628 0.45623 0.139104
0.011398 0.183813 0.0911022
0.0895434 -0.209283 0.525961
0.00905273 0.36566 0.226159
0.019769 -0.285604 0.311656
0.0147948 -0.216 0.230364
0.0105594 0.370823 0.0859671
0.00433198 0.287164 0.179968
0.00776986 -0.276599 0.193956
0.00787544 -0.204264 0.38586
0.0889861 -0.229849 0.475417
0.00338648 0.327582 0.135029
0.0154759 -0.422869 0.239453
0.0212416 -0.373656 0.123298
-0.0132592 0.299855 0.143051
-0.0228685 0.113488 0.195212
0.0210216 0.176986 0.195629
0.0247138 -0.323659 0.118169
0.00511883 -0.330314 0.12683
0.0098327 -0.413138 0.0459609
0.0131091 0.264767 0.0180077
0.0226822 0.359201 0.179483
0.0208784 0.194943 0.389281
0.00593865 -0.338024 0.191366
0.0222115 0.287198 0.156126
0.0130971 -0.281378 0.00625597
0.0204284 -0.377396 0.203952
0.0189297 0.243237 0.188403
0.00802143 -0.119849 0.463167
0.00386111 0.308191 0.19639
0.00948193 -0.26151 0.11754
0.00700761 0.234341 0.044185
0.0133414 0.251932 0.274933
0.0183605 0.307272 0.0911165
0.0223889 -0.329297 0.00864604
0.00482576 -0.30705 0.175762
0.00864572 -0.188986 0.230714
0.0204299 0.160509 0.283533
0.00686051 0.215062 0.26425
0.0204536 0.143605 0.408063
0.0132336 0.446071 0.266847
0.00821144 -0.468543 0.131067
0.0153208 0.341804 0.0586027
0.0177079 -0.0188799 0.434479
0.00815254 -0.368713 0.141563
0.0145383 0.423809 0.0819372
-0.0189852 0.137101 0.132568
0.0207121 0.467252 0.188334
0.0478418 0.326378 0.167689
0.00860586 0.414773 0.0554469
0.01547 -0.266314 0.0517621
-0.0697408 0.132932 0.244889
0.0220378 0.357628 0.146556
0.0175318 0.15213 0.402431
0.00797849 -0.383707 0.167818
0.00531147 0.279759 0.148087
0.0059559 -0.0275822 0.266458
0.00858032 -0.199007 0.0857522
0.0134286 0.297701 0.0365422
0.0206329 0.370116 0.199391
0.0219828 -0.309569 0.0920099
0.0106581 -0.370218 0.101486
0.00738632 0.376431 0.119523
0.0241768 -0.290705 0.189846
-0.00692079 0.217704 0.343749
0.00851904 0.301356 0.306513
0.00958046 -0.397717 0.181595
0.00827949 -0.179631 0.118443
0.0895724 0.136338 0.10957
0.0194894 0.194567 0.230775
0.0081616 -0.0529229 0.287216
0.00834956 -0.469395 0.169263
0.00984251 -0.408683 0.290356
0.0327133 0.123237 0.185922
-0.0149713 0.113887 0.165662
-0.0244576 0.137127 0.17787
0.00851439 0.361222 0.109052
0.0289575 0.19712 0.455523
0.0212027 -0.367067 0.308657
0.00113659 0.338457 0.163052
0.0101986 -0.224623 0.0575038
0.00724605 0.0918615 0.417952
0.010697 0.397765 0.305171
-0.0188044 0.192893 0.204374
0.0129277 0.407272 0.267301
0.0039152 -0.216526 0.335624
-0.0137976 -0.251921 0.225717
0.016314 -0.452081 0.099395
0.0219369 -0.262848 0.190621
0.0178417 0.347659 0.258128
-0.00569921 -0.326302 0.15677
0.0192803 0.389886 0.144585
0.0224801 -0.41001 0.0387777
0.0187209 0.135194 0.232977
0.0211079 -0.111198 0.317953
0.003266 0.215793 0.460225
0.021371 -0.272316 0.293979
0.0159638 -0.384573 0.272039
0.00746879 -0.169923 0.518234
0.0250102 -0.349355 0.183455
-0.0130845 0.244659 0.29906
0.0368685 0.172129 0.173322
0.0427551 0.23021 0.169996
0.030889 0.223125 0.463082
0.0568015 -0.165228 0.511206
0.00482273 0.280133 0.166348
-0.00914287 0.314976 0.184716
-0.016456 0.332873 0.149824
0.0236166 0.324116 0.140782
0.00826176 -0.346469 0.0108232
0.0224762 -0.382508 0.023165
0.0071508 0.180223 0.14469
-0.024457 0.0967756 0.17481
0.00911991 -0.330015 0.231442
0.0121419 0.222465 0.0657768
0.0172284 -0.207173 0.179768
0.00742908 0.316291 0.110128
0.00601023 -0.203989 0.368204
0.00840927 -0.260186 0.173444
0.0165169 0.442768 0.0890952
0.0144542 0.452529 0.124302
0.0212961 -0.180019 0.356469
0.0167446 0.476116 0.208287
-0.037862 -0.172486 0.511635
0.015968 -0.249834 0.269437
0.00643601 0.325998 0.211346
0.0224703 -0.331812 0.308458
-0.00643225 -0.227685 0.303528
0.0074728 0.13058 0.197081
0.0061108 0.0559029 0.220214
0.0215189 0.103514 0.190365
0.0205547 0.0428231 0.427221
0.0828768 -0.165463 0.513355
0.00869946 0.34824 0.320401
0.0217957 -0.147766 0.335943
0.0183304 -0.446053 0.23018
0.0878736 -0.219444 0.497588
0.0103124 0.162701 0.436633
0.00982226 0.241179 0.0310819
0.0138179 0.265207 0.273611
0.012486 -0.426236 0.146458
0.00683829 -0.312064 0.192759
0.0253803 -0.289035 0.161037
0.00811348 0.338357 0.103718
0.0203697 0.263052 0.30726
0.020999 0.312664 0.0155316
0.0205015 0.201218 0.0714761
0.00697076 0.178306 0.206673
0.0169363 0.251087 0.220376
-0.0208845 0.113065 0.135254
0.00106903 0.196878 0.383753
0.0221283 0.313015 0.201887
0.00676379 -0.0602581 0.448124
0.0244053 -0.348719 0.131597
0.0194549 -0.0690683 0.284472
0.0207991 0.46893 0.148958
-0.0460642 0.123919 0.198231
-0.0122042 -0.249481 0.270103
0.00997487 -0.234446 0.271375
0.00928983 0.280785 0.300356
-0.0135158 0.268089 0.251338
0.0208602 -0.42991 0.061336
0.0148536 -0.360066 0.295762
0.0269967 0.163966 0.453181
0.0110405 0.0190179 0.232054
-0.0145824 -0.290258 0.191504
0.020989 0.173326 0.164924
0.0138653 -0.182337 0.150769
-0.0141502 0.345144 0.168199
0.0261883 -0.30788 0.136411
0.0204562 0.313549 0.318699
-0.0582573 -0.222186 0.461806
0.00700007 0.368908 0.200411
0.00878983 -0.248492 0.0248822
0.0208014 -0.173844 0.20387
0.0212393 -0.428152 0.258877
0.0117238 0.374633 0.297211
0.0206914 0.21774 0.274347
0.0200753 0.280238 0.204836
0.0266348 0.308709 0.1559
0.0202395 -0.360393 0.225625
0.0204639 -0.479093 0.137961
-0.0115946 0.131954 0.184129
0.016026 0.307797 0.264599
0.00890433 -0.375159 0.0128175
0.0172997 0.124139 0.168206
0.021699 -0.266526 0.150112
0.0201777 0.175922 0.34317
-0.00574592 0.219756 0.433305
0.0237659 0.341142 0.195228
0.01086 -0.479335 0.181987
0.0330637 -0.231677 0.326543
0.0434503 0.122148 0.132111
0.0722243 -0.163423 0.52645
0.0202805 -0.134884 0.459301
0.00824398 -0.272633 0.138183
0.0726085 0.114066 0.107941
-0.023035 0.137443 0.214607
0.0199982 0.334258 0.0100332
-0.0239235 0.15054 0.144078
-0.0625586 -0.208105 0.518646
0.0205126 -0.27083 0.114279
0.0223741 -0.197924 0.241966
-0.0207689 0.0753867 0.172679
0.00623691 0.364008 0.127329
0.0198471 0.475902 0.132597
0.0217822 -0.0902086 0.302098
0.0208438 0.455236 0.230821
0.0470264 -0.242229 0.257231
0.0146732 0.426232 0.262898
0.0174227 0.207679 0.247199
0.0164644 -0.175369 0.512581
0.00684551 0.387965 0.0300901
0.016165 -0.446853 0.195916
0.0139778 -0.327455 0.159612
0.00683472 0.262472 0.186049
0.0205112 0.324253 0.108654
0.0194873 -0.220766 0.256521
0.0207172 0.148381 0.252354
0.0102631 -0.422741 0.280512
0.0282762 0.208738 0.432136
0.0111254 -0.0328023 0.449481
0.0189979 -0.449378 0.254383
0.0266442 0.341135 0.158552
0.0306897 -0.232013 0.303112
0.0223488 -0.301057 0.303659
0.0143769 0.196704 0.152704
0.0184785 0.454939 0.0790779
0.00711892 0.184534 0.104801
0.0259839 -0.336263 0.17521
0.00906648 -0.332388 0.0986712
0.013043 -0.194238 0.441977
0.0158484 -0.395652 0.0529904
0.0105091 -0.203275 0.410094
0.0207581 -0.466157 0.0947103
0.0103324 0.142024 0.219054
0.0157278 0.325765 0.32423
0.00688014 0.472916 0.188962
0.0197434 0.39948 0.17226
0.00818623 -0.00129355 0.257758
0.0121849 -0.30051 0.255127
0.0182135 -0.259198 0.285028
0.0193914 0.350342 0.306864
0.0120567 0.468558 0.230495
0.00837879 -0.270029 0.0227051
0.0147952 -0.170369 0.461733
0.024272 0.204637 0.362388
0.00691907 0.183459 0.121718
0.00861966 0.230853 0.273374
0.0184919 0.223455 0.43442
0.018432 0.12219 0.196953
0.0220348 -0.19274 0.079109
0.0102051 0.271346 0.0988238
-0.0111042 0.187295 0.171552
0.0131432 0.241056 0.0653871
0.0225152 -0.458919 0.221303
0.0163571 0.226114 0.110996
0.00812154 -0.460427 0.216952
0.0209099 0.250052 0.293106
0.00706832 0.201161 0.0765195
0.0137133 -0.0934284 0.461479
0.0154965 0.194134 0.433698
0.0108434 -0.231134 0.332323
-0.0799576 0.11205 0.243648
-0.021358 0.106933 0.213921
-0.0560043 -0.186363 0.516249
0.00928594 0.0432447 0.233561
0.00928228 -0.187921 0.208496
0.00692284 0.407337 0.284063
0.00649982 -0.344042 0.13403
-0.029316 0.125658 0.16458
-0.00338109 0.239558 0.443117
0.0128548 -0.223504 0.354766
0.022593 -0.175016 0.162137
0.0197385 0.198035 0.408206
0.0207255 -0.378867 0.291061
0.0210686 0.389899 0.0313122
0.0148691 0.465176 0.165257
0.021509 -0.310012 0.0150504
-0.00017355 0.143054 0.175838
0.00605501 0.287696 0.200626
0.0137813 0.426757 0.0443359
0.0111272 0.416195 0.178037
0.00802584 0.2906 0.113022
0.0100728 0.241919 0.300549
0.0164537 0.41968 0.219239
0.0181092 -0.000691086 0.243905
0.0443736 -0.243334 0.286716
0.00672075 -0.116265 0.321096
0.0183764 0.264105 0.0364432
0.0142154 0.281269 0.0332646
0.0338995 0.239198 0.440611
0.0407864 -0.252728 0.225335
-0.0155425 0.239924 0.120374
-0.0137541 0.233852 0.166855
0.0158537 0.0813326 0.213085
0.0427296 0.12269 0.17663
0.0155328 -0.221324 0.0878713
0.0212475 -0.198392 0.367168
0.00693823 0.156295 0.276045
0.00886128 0.193125 0.455656
0.00722621 -0.362587 0.16367
0.00840667 -0.283688 0.299539
0.0208622 0.179503 0.210062
0.0554385 -0.165575 0.526325
0.00208151 0.332924 0.1825
0.0904545 -0.181623 0.522567
-0.0137021 0.118075 0.180853
0.0564764 0.108316 0.111984
0.0175076 -0.173069 0.341993
0.0377127 0.242731 0.29073
0.0146304 -0.336125 0.287971
-0.0451543 0.115687 0.240597
0.0112613 0.174499 0.31044
0.0179773 -0.266293 0.237428
0.0122936 -0.000268787 0.443734
0.00689868 -0.136407 0.333346
0.00573694 -0.328354 0.173023
-0.0173556 0.282324 0.16624
0.0128515 0.240941 0.462872
0.0206629 -0.283814 0.0221285
0.0132864 -0.310073 0.0453664
0.0192957 -0.459437 0.118633
0.0114358 -0.229768 0.135261
0.0223113 -0.18043 0.133192
0.0141153 0.198562 0.202708
-0.0141471 0.33109 0.172724
0.0212879 -0.0282466 0.264637
0.0504453 -0.300407 0.167898
0.00699557 0.137918 0.412133
0.000492701 0.162895 0.452422
0.019233 0.38996 0.118036
0.0242615 -0.314284 0.189268
0.0116052 0.385056 0.0691269
0.031606 0.227344 0.325406
0.0192471 0.426063 0.0658825
0.0069563 0.401259 0.0363601
-0.013909 0.322672 0.197828
0.0189461 0.18281 0.367394
0.00739897 0.304367 0.0220451
-0.0202484 0.110222 0.151153
0.0208056 0.0958841 0.418279
-0.0138404 0.347707 0.140803
0.0105909 0.154681 0.414397
-0.0204797 0.155807 0.178412
0.0145446 -0.18066 0.089652
0.0222281 0.292779 0.138721
0.00960429 0.113008 0.194077
-0.0129267 0.299563 0.17858
0.0128921 0.455399 0.177707
0.0169474 -0.212765 0.0452751
0.00706256 0.201399 0.400557
0.0185154 0.0260542 0.437217
0.00941539 -0.412733 0.0311888
0.0252662 -0.331759 0.141395
0.0151319 0.187302 0.247156
0.0285947 -0.218951 0.323526
0.0113489 0.148571 0.236809
0.00387985 -0.301526 0.158484
0.0180201 0.173015 0.119209
0.0715927 0.135381 0.112525
-0.00987147 0.211883 0.453999
-0.0258612 -0.165248 0.524862
0.00751854 0.0554581 0.429464
0.0113062 0.347849 0.00914819
0.0211399 0.0631815 0.218214
-0.0103255 0.317114 0.142083
0.0167793 -0.225183 0.212945
0.0206577 0.37696 0.0222949
-0.0214257 -0.320309 0.156386
-0.0157924 0.313577 0.116433
0.00932445 -0.467927 0.151402
0.0167333 -0.203009 0.222726
0.00721917 0.158088 0.288405
0.0441564 0.233434 0.45258
0.00871646 0.251984 0.451653
0.00889825 -0.389965 0.144115
0.00887827 -0.18641 0.364259
0.0151021 0.365113 0.0298693
0.00530021 0.31168 0.132618
0.0087465 -0.170291 0.157944
0.00688791 0.473295 0.14562
0.0223507 -0.213369 0.0631197
0.016733 -0.427232 0.0916183
0.0434331 0.246969 0.166622
-0.0162176 0.223571 0.200663
0.00113338 0.32636 0.150747
0.0215083 -0.388758 0.155405
-0.00121345 0.117952 0.181086
0.00840343 -0.441069 0.072423
0.0438782 -0.280046 0.203247
0.0198413 -0.2008 0.395764
0.00575586 -0.289459 0.140666
0.0205097 0.0316078 0.237918
0.0209797 0.194137 0.088812
-0.0601468 -0.174188 0.511318
0.00769665 -0.285607 0.122368
0.00842273 -0.0186328 0.255543
0.0184562 0.389693 0.20086
0.0250955 -0.34826 0.158896
-0.0163835 -0.247879 0.239992
0.00888466 -0.266045 0.302386
0.0210322 -0.289458 0.0952229
0.0156286 -0.195335 0.119468
0.00395556 0.300337 0.166579
0.0194472 0.449952 0.0958387
0.0157399 -0.115958 0.451848
0.00762823 0.183272 0.344855
0.0144797 0.434833 0.132383
0.0140073 0.221409 0.24865
0.0094158 0.168716 0.400164
0.0218848 -0.296285 0.206535
0.0191497 0.18337 0.138462
0.0125083 -0.301681 0.315651
0.0200076 -0.409905 0.179829
0.00484607 0.328925 0.167537
0.0245756 -0.298425 0.173334
0.0200097 0.110201 0.412744
0.0175287 -0.215606 0.370297
0.0500997 0.308233 0.166713
0.0138125 0.0669599 0.417275
0.00767588 0.379329 0.310829
-0.0109341 0.309579 0.168953
0.020424 0.0852848 0.197413
0.00550089 0.345843 0.136164
-0.0244608 0.127606 0.204688
0.0169256 0.11675 0.178228
0.0191737 -0.268576 0.0111284
0.0185961 -0.39977 0.297397
0.0237214 0.298399 0.169562
0.00823899 -0.297728 0.01164
-0.0202527 0.139055 0.190886
0.0168604 0.481202 0.178535
0.026873 0.153725 0.438399
0.0326041 0.131383 0.171394
0.016043 -0.349361 0.030434
0.0866599 -0.213854 0.464583
0.00737757 0.43322 0.0713032
0.0143314 -0.416754 0.223747
0.0222421 -0.177247 0.118713
0.0254711 0.341314 0.174127
0.0206711 0.250363 0.0312893
0.018964 0.164773 0.316168
0.045975 0.282173 0.228903
0.0150863 -0.366259 0.0254799
0.00590441 0.369436 0.182551
0.0156817 0.290253 0.0534195
0.0160025 0.397142 0.0443037
0.00823266 -0.433835 0.057338
0.00617269 -0.315791 0.160871
0.017079 0.378262 0.235835
0.0213786 -0.344586 0.0893245
0.0188427 -0.373409 0.0889686
0.01369 0.190234 0.192118
0.00747192 0.302381 0.0974186
0.022424 -0.471412 0.155318
0.0179368 0.228899 0.150925
0.011659 -0.347903 0.0629003
0.044581 0.263037 0.25923
0.0103526 -0.193772 0.102618
0.00637815 -0.356743 0.128614
0.00948566 0.301344 0.321422
0.023123 -0.366321 0.161319
0.00742533 -0.321591 0.202144
0.0223165 0.363448 0.162172
0.0215988 -0.241569 0.0267994
0.00913073 0.404813 0.143334
0.0248172 0.180889 0.453351
-0.0132483 0.31471 0.132525
0.0207423 0.153878 0.268226
0.00873506 -0.384956 0.127712
0.00872251 0.203176 0.443349
0.00833639 0.264814 0.0332957
-0.0942501 0.104515 0.24388
0.0106941 -0.331702 0.00179362
0.0119016 -0.136043 0.468931
-0.00884669 -0.235912 0.273215
0.0209398 0.349156 0.109321
-0.0193238 0.307044 0.19121
0.00734715 -0.286365 0.173987
0.0482665 0.315489 0.180177
0.00671728 0.193194 0.236515
0.0207985 0.457673 0.108394
0.0123649 -0.268061 0.0681823
0.0234193 -0.308167 0.118004
0.0100957 0.229243 0.190523
0.00819807 -0.338818 0.213804
0.0254377 -0.331306 0.191444
0.0160334 0.190892 0.215701
0.00577759 0.3427 0.11907
0.086206 -0.191855 0.512676
-0.0202535 0.101575 0.199425
-0.0216004 0.100452 0.155283
-0.0228643 0.137452 0.161144
0.0209758 0.444012 0.252632
0.0209879 0.466032 0.207377
0.0224912 -0.350366 0.306064
-0.0107906 0.251801 0.286349
-0.006903 -0.218014 0.32695
0.00892745 -0.459008 0.0823054
0.022283 0.280277 0.185381
0.0209397 0.163276 0.297099
0.0100411 0.304062 0.0810816
0.0204942 0.296457 0.0231404
0.0185941 0.434237 0.277074
0.011639 -0.156852 0.332316
0.0279547 0.202358 0.375899
0.00835661 -0.330854 0.309428
-0.029722 0.117611 0.187846
0.0222207 -0.468815 0.16906
-0.0135629 -0.265192 0.221835
0.0078869 0.262479 0.150279
0.0112361 -0.0642476 0.296025
0.00938529 -0.316875 0.0838551
0.00676405 0.441675 0.253341
0.0101582 -0.300707 0.239223
0.0885501 -0.223818 0.518111
0.0158514 -0.163517 0.505888
0.00679534 0.465867 0.202413
0.00532131 0.295547 0.14416
0.0208762 -0.23715 0.274054
0.00814344 0.260365 0.13341
0.0221792 -0.214984 0.351503
0.0125036 0.393404 0.266981
0.00618788 -0.349276 0.179477
0.00924365 0.167155 0.152377
0.00971743 -0.0299714 0.436892
0.00398911 0.312388 0.180793
0.0206632 -0.316439 0.301652
0.00996644 -0.205496 0.240364
0.090461 -0.230795 0.488069
0.0169 -0.175938 0.497375
0.00669343 0.200894 0.249183
0.00120722 0.150719 0.43899
0.00735632 0.116039 0.170675
0.0219726 -0.344923 0.31095
0.00822249 -0.360306 0.194801
-0.0173507 -0.237675 0.301384
0.00818921 -0.243813 0.285036
0.00821488 -0.383759 0.0219024
0.00465914 0.351893 0.16932
0.000179309 0.108989 0.169929
0.0125245 0.418101 0.0980103
0.0135689 0.441416 0.226721
0.0212772 -0.38435 0.180509
0.00840093 0.315592 0.308976
-0.0109352 0.332665 0.165994
0.0216134 0.355059 0.129033
0.0817737 0.122824 0.110354
0.00738163 0.430495 0.0544247
0.0221694 -0.41928 0.0502384
0.0210023 0.465835 0.1196
0.0204429 0.37791 0.308845
0.0188437 -0.25375 0.109069
0.0263224 -0.301541 0.150122
0.00712611 -0.0148594 0.44109
0.00832151 -0.46127 0.108869
0.00857931 -0.351179 0.111944
0.00731334 0.207821 0.0654123
-0.0117951 0.315014 0.156684
0.0194138 0.238695 0.282101
0.0104569 0.31807 0.00767458
0.0191012 -0.209538 0.383735
0.0204079 0.291503 0.227356
0.00666467 0.0100714 0.248717
0.0113316 -0.183851 0.347829
0.0221052 0.320012 0.126378
0.0123582 -0.22257 0.171465
0.0365511 -0.23142 0.287276
0.012401 0.17284 0.454429
0.0142381 -0.455387 0.186212
0.0346748 -0.322341 0.155599
0.0163304 0.080743 0.415348
0.00885316 -0.085444 0.448102
-0.00470986 0.211007 0.355054
0.0222027 0.274376 0.150333
0.0126796 0.200099 0.100187
0.0075579 -0.0399843 0.279147
-0.0270321 0.109594 0.170768
0.0157248 -0.39021 0.0340422
0.0208429 -0.0806359 0.292685
-0.0556363 0.129289 0.247007
0.0209295 -0.183351 0.192527
0.0206161 0.187854 0.400429
0.013419 -0.181783 0.171258
0.0208637 0.212121 0.458788
0.0119707 0.360399 0.301923
0.0167512 0.131001 0.418923
0.0114123 -0.293969 0.29744
0.0134677 0.199177 0.378674
4.23307e-05 0.17204 0.435713
0.0110927 0.166195 0.183297
0.0209851 0.442628 0.0744256
0.0149931 0.406248 0.30155
0.0224841 -0.29201 0.0125741
-0.0243098 0.0811384 0.188831
0.0222722 -0.423914 0.271942
0.00648228 0.320863 0.225959
0.0248376 0.148909 0.453026
-0.0228648 0.0861526 0.162344
0.0116519 0.104372 0.424059
0.0130048 -0.388685 0.0661148
0.0091132 -0.394906 0.284613
0.00996714 0.242878 0.152055
-0.0624545 -0.196543 0.513321
0.0191777 0.23283 0.0380929
0.0229656 0.338915 0.139175
-0.012561 0.245462 0.457657
0.0207642 -0.191619 0.214477
0.0100506 -0.0520348 0.272932
0.0036525 -0.322089 0.138445
0.0183205 0.365426 0.0981002
0.00825503 0.344927 0.241161
0.0224444 -0.224377 0.0504386
0.00752844 -0.365562 0.177595
-0.00994412 0.301708 0.156844
-0.0760521 0.10459 0.248771
0.0133043 0.304514 0.00786555
0.00683166 0.419463 0.275855
-0.0231417 0.099761 0.140848
0.0120483 0.255441 0.0680556
-0.0175011 0.263008 0.263326
0.00978741 -0.479342 0.146618
0.0157424 0.209296 0.40854
0.0166079 -0.108067 0.304598
0.0176744 -0.108719 0.463185
0.0077521 0.188202 0.39821
0.01311 0.335464 0.0465343
0.095079 0.122928 0.108759
0.0196756 0.260039 0.208956
0.00788933 0.178791 0.162596
0.0171552 -0.438387 0.184945
-0.0643322 -0.220844 0.498119
0.00463854 0.225193 0.434939
0.0256339 0.32889 0.18381
0.00993908 -0.211421 0.0693501
0.0213064 0.118155 0.186114
-0.0181911 0.194659 0.126246
0.00524857 0.337879 0.201761
0.00981273 -0.280972 0.0918561
0.0127724 0.247905 0.0539753
0.0330614 0.320427 0.163244
0.0246299 0.307496 0.142021
-0.0100929 0.343 0.159062
0.0072188 0.447046 0.0747854
0.0146299 -0.478833 0.124819
0.0185258 -0.0147328 0.266622
0.00888975 -0.327053 0.014487
0.0152822 -0.260295 0.0382069
0.0862954 -0.167741 0.526583
0.0118481 -0.227801 0.284475
0.0100909 -0.275645 0.225995
0.0237928 -0.297445 0.126908
0.0125471 -0.168714 0.126925
-0.0889118 0.129913 0.248019
0.0212685 -0.34317 0.00442428
0.0193548 0.179753 0.155103
-0.0192904 0.155589 0.128856
0.0907807 -0.195388 0.527499
0.0135466 0.454644 0.19143
0.0902905 -0.203395 0.51156
-0.0114161 0.348632 0.181726
0.0305488 0.107757 0.18337
-0.00779268 -0.241827 0.291456
0.00613811 0.266923 0.172518
-0.0129544 0.330224 0.138052
-0.00473891 -0.165916 0.517785
0.0180113 -0.434851 0.246584
-0.0165168 0.223887 0.12302
0.020672 0.336782 0.316537
0.00849118 -0.28637 0.0186445
-0.0202501 0.146641 0.162504
0.00935844 -0.258208 0.194556
0.0210889 0.381328 0.156075
0.00934928 -0.173731 0.357548
0.0191768 0.419652 0.270084
0.0200752 0.302187 0.10833
-0.0151151 0.117517 0.189334
0.00888921 0.109601 0.411713
-0.0179614 0.27422 0.241433
0.00645229 -0.289871 0.18937
-0.0269658 0.119781 0.174521
0.0143736 -0.383525 0.254276
-0.0231914 0.147602 0.210481
0.0146431 0.167076 0.329516
0.0230803 -0.283377 0.173987
0.00429926 0.185401 0.433696
0.00725307 0.202985 0.432962
0.0105684 0.337509 0.0711013
0.0234754 0.284756 0.169946
-0.0604708 -0.217238 0.513777
0.0175747 -0.0315824 0.277053
0.0183232 0.455068 0.251885
0.00814405 0.172193 0.128075
0.0113845 0.168567 0.197707
0.0335409 0.18866 0.173162
0.010244 0.480219 0.187438
0.00989658 0.12532 0.207525
0.0112994 -0.0476789 0.4523
0.0149758 0.191207 0.114353
0.0122442 -0.257167 0.0154317
0.00641843 -0.304885 0.132299
0.0375113 0.217842 0.168173
0.0128284 0.138839 0.208008
0.00873883 -0.27391 0.18053
0.00806882 0.256484 0.306583
0.0223099 -0.179593 0.180737
-0.0766852 0.121203 0.246109
0.00755108 0.277445 0.0173746
-0.0230096 0.0941748 0.208744
0.00712146 0.387442 0.294813
-0.0141617 0.325543 0.152755
0.00337745 0.345743 0.149543
0.0229126 -0.272818 0.129215
-0.00218746 0.220924 0.332757
0.0230229 -0.359919 0.121549
0.0147415 -0.467273 0.22693
0.00842112 -0.177408 0.195915
0.020656 -0.389947 0.122586
0.0138573 0.259578 0.28621
0.0228013 -0.332828 0.0995862
-0.0631318 -0.184889 0.528011
-0.0502919 -0.164668 0.514734
0.0297215 0.187705 0.439895
0.0267098 0.136906 0.177161
0.0217702 -0.209722 0.264717
-0.00464082 0.125553 0.188985
0.0184862 -0.423544 0.0361688
0.00520995 -0.33798 0.172098
0.0210146 0.42015 0.0538042
-0.00579053 0.325347 0.179847
0.022208 -0.466666 0.132915
0.00113199 0.322801 0.176702
0.0206537 0.393779 0.299927
0.018898 0.309272 0.248999
0.0154443 -0.310595 0.0262544
-0.065661 0.11479 0.247482
0.0133629 0.346979 0.039098
0.0226958 0.326033 0.206816
0.0200117 0.380432 0.180011
0.0141924 0.440558 0.140118
-0.0202505 0.130787 0.171092
0.0203615 -0.156932 0.345768
-0.0202519 0.104186 0.185064
0.026162 -0.321212 0.131363
0.00901613 -0.232496 0.0467582
0.00824199 -0.467896 0.188654
0.0461497 0.117958 0.108501
0.0171776 0.185746 0.380442
0.000983708 0.229446 0.464128
0.0180626 0.129522 0.40718
0.0204102 0.209627 0.440504
-0.0129312 0.352047 0.168334
0.00560308 -0.348749 0.146309
0.0168985 0.0942494 0.205392
0.0145118 -0.193348 0.40419
0.0154541 -0.208505 0.0813865
0.0136641 0.138919 0.250069
0.0151341 -0.392607 0.0156819
0.00739742 0.309641 0.218814
0.0102112 0.319287 0.164912
-0.0073894 0.337835 0.173578
-0.00678223 0.154738 0.171472
0.0683364 -0.170782 0.510006
0.0440375 0.250503 0.282795
0.0197037 -0.260705 0.303436
0.00845184 0.200783 0.391383
-0.015516 0.271286 0.193108
0.0146616 0.213892 0.0755567
0.0215783 -0.382391 0.167
0.0194742 -0.182648 0.46707
0.0207526 -0.32799 0.225482
0.0239947 -0.355182 0.195271
0.0438643 -0.173044 0.513262
-0.0035398 0.195189 0.451628
0.0108113 -0.276243 0.309146
0.00819851 -0.424208 0.267315
0.0205314 -0.416919 0.284664
0.0136935 0.0126877 0.441698
0.010689 -0.207157 0.398016
0.0159851 -0.194919 0.132633
0.00517389 0.287722 0.134153
0.0144437 -0.322786 0.317856
0.0205343 -0.338342 0.0180167
0.0147347 0.303754 0.277607
-0.0107255 -0.221484 0.315039
0.0074817 0.416355 0.0415171
0.0163721 0.238733 0.22573
0.00872453 -0.372269 0.200967
0.00775762 -0.326179 0.114664
-0.0204784 0.290641 0.216416
0.0204669 0.0119993 0.239315
0.00681335 0.473906 0.172311
0.00697359 0.465279 0.132508
0.00668024 0.456648 0.229979
0.0185143 0.461958 0.0904832
0.0206287 0.288074 0.11074
0.0227118 0.357497 0.19678
-0.0112046 0.212812 0.441049
0.00700048 -0.303394 0.203121
0.0170301 -0.179122 0.452344
0.0376538 0.234734 0.46379
0.00799701 -0.211573 0.351281
0.00796402 0.378686 0.191884
-0.0491414 0.121903 0.235006
0.0499795 0.118928 0.167608
0.0199498 0.387112 0.168324
0.0145444 -0.240467 0.260579
-0.0225548 0.130885 0.185436
0.0191436 0.217714 0.26113
-0.00819241 0.310814 0.174325
-0.00446021 -0.229103 0.33333
0.0133104 0.230771 0.0559558
0.0208114 0.276675 0.304472
0.00707585 0.304046 0.114127
0.0213491 0.0382502 0.226921
0.0108074 -0.24448 0.168478
0.0211443 0.280778 0.0224558
0.00399366 -0.322635 0.182091
-0.0641514 -0.226825 0.471642
0.012089 -0.175252 0.213168
0.0210786 -0.38296 0.303205
0.0139904 -0.282179 0.289189
0.00918988 0.250997 0.180886
0.0100141 -0.385694 0.209414
0.0153185 -0.195364 0.184243
0.0223831 -0.190255 0.229038
0.0199493 0.374529 0.134694
0.0175131 0.292797 0.303589
0.00996276 -0.442492 0.2386
0.0209249 0.183834 0.122906
0.0233489 0.320857 0.153102
0.0223593 -0.308515 0.104685
0.0166317 -0.346893 0.2815
0.0208049 0.324405 0.312099
0.00388668 0.320779 0.200046
0.00810514 0.0625177 0.209554
0.0203163 0.196372 0.254253
0.00993072 -0.45942 0.204447
0.0196581 -0.310639 0.0770022
0.0234464 -0.277406 0.156442
-0.0129831 -0.292123 0.179433
0.028115 -0.309274 0.158493
0.0129162 0.146413 0.441808
0.0121832 -0.412552 0.147181
0.0142388 -0.351843 0.315456
-0.0231679 0.161398 0.18752
0.0414073 -0.225323 0.319037
0.0216832 -0.284591 0.201831
-0.01397 0.23134 0.437601
0.0201789 0.258317 0.185779
0.00727254 0.188179 0.374358
0.0416211 0.242085 0.300829
0.0178437 -0.168893 0.192686
0.021263 -0.359491 0.20855
0.00874954 0.213066 0.276517
0.0212591 -0.38353 0.143985
0.00692434 0.189778 0.224275
0.0218879 -0.319115 0.159286
0.00857362 0.375529 0.0323128
0.0204488 0.47727 0.16992
0.00760605 0.0272776 0.240788
0.0111293 -0.0707599 0.456556
0.0774709 0.106561 0.109514
0.0209498 0.305069 0.21144
0.0176562 -0.218961 0.135158
0.0205741 -0.402189 0.023526
0.0225326 -0.247572 0.286205
0.0095454 -0.271022 0.125901
0.00653084 0.375173 0.132833
0.00861341 0.120833 0.409898
0.0165904 0.182845 0.334182
0.0141824 0.214479 0.107184
0.0128648 -0.122872 0.312539
0.00826854 -0.238482 0.0358876
0.0135811 -0.401513 0.0405081
-0.0107577 -0.231389 0.285402
0.00717974 0.279546 0.312532
0.0193611 -0.368956 0.234557
0.0394669 0.216431 0.457143
0.0026002 -0.337479 0.149227
0.0207146 -0.249247 0.0370065
0.0101736 0.131185 0.224996
0.00823193 -0.344702 0.0989396
0.00157654 0.129384 0.177832
0.00746296 -0.22023 0.322121
0.0210897 0.360225 0.114747
0.0208428 -0.253278 0.198307
0.0187118 0.107348 0.180449
0.0198045 0.338272 0.0998689
0.00844903 0.459556 0.118765
-0.0142611 -0.253722 0.250581
0.0223181 -0.204488 0.252015
-0.0216028 0.14504 0.170647
0.0266355 0.310799 0.167193
0.0351265 -0.235938 0.313809
-0.0544759 0.115596 0.248525
0.00743448 0.223549 0.284432
0.0359737 -0.242277 0.262442
0.01028 -0.145941 0.326495
0.0172404 -0.123108 0.329427
0.00893811 -0.0393639 0.266803
0.0110373 -0.187504 0.0798693
0.00904312 0.414539 0.293588
0.0260514 0.12195 0.174647
-0.0110867 0.233804 0.304067
0.00711852 0.286988 0.0252794
0.0210295 0.286441 0.216365
-0.0185796 0.270707 0.16942
0.023892 0.311378 0.190023
0.0074405 0.222924 0.048866
0.0340668 0.201967 0.445966
0.0222075 -0.322659 0.106383
0.0131635 -0.0905872 0.31165
0.0117383 0.476655 0.12367
0.00882072 -0.464638 0.0957007
0.0500264 -0.32623 0.155807
0.0204319 -0.123137 0.462062
-0.0122293 -0.279172 0.192304
0.0098946 -0.449384 0.0895146
0.0132753 0.317158 0.0236129
0.0150247 -0.457017 0.133446
0.0209003 0.346819 0.0163374
0.0156152 0.0234829 0.425827
0.0191606 -0.225665 0.34475
0.0144456 0.0546014 0.228778
0.0231203 0.351974 0.169115
0.00906999 0.31345 0.322491
0.026395 -0.325189 0.179412
0.0101622 -0.362769 0.31055
0.018061 -0.347758 0.0519391
0.0147472 -0.395291 0.266826
0.0167129 0.149761 0.278726
0.0158148 0.481272 0.145917
-0.0205402 0.128119 0.215359
0.0233923 -0.342156 0.11873
0.0126397 0.428868 0.223386
0.00817251 -0.253169 0.28979
0.0122104 -0.0947896 0.296698
0.0150773 -0.478682 0.194542
-0.0216044 0.146787 0.182963
0.0206907 -0.0265361 0.443082
0.00995727 -0.168752 0.493676
0.00813064 -0.363639 0.0156396
0.0197509 0.357822 0.317531
0.00666198 0.43381 0.264255
0.0191437 0.403436 0.282723
-0.0103511 0.198931 0.173704
0.00828143 -0.263921 0.162211
-0.00916827 0.339705 0.149136
0.00853875 0.0363221 0.224026
-0.0115289 0.221135 0.461117
0.0078887 0.332508 0.224773
0.0213435 0.0731482 0.206968
0.00688122 0.254693 0.294255
-0.0141529 0.322323 0.164899
0.0211876 -0.196283 0.0903107
0.0151977 -0.192172 0.0695393
0.0141468 0.393134 0.022372
0.0440789 -0.244067 0.243267
-0.00747782 0.32658 0.145233
0.0497265 0.118212 0.145441
0.0124206 -0.306497 0.0559903
0.0196176 0.266355 0.138116
0.00966711 -0.182322 0.128792
0.0473616 -0.295913 0.178277
0.0203308 0.0593197 0.423305
0.0200597 -0.440533 0.264131
0.00798599 -0.321858 0.103802
0.010807 0.168221 0.292994
0.0145406 0.195952 0.141041
-0.0187124 0.17405 0.207082
0.0139679 -0.144346 0.45666
0.0110444 -0.183392 0.438211
0.00837496 -0.00392281 0.43339
-0.0206462 0.123012 0.141393
0.010347 -0.247825 0.143305
0.00890065 0.403485 0.173563
0.015568 -0.432945 0.233643
0.012159 0.165051 0.171773
-0.0164514 0.321783 0.142262
0.0327133 0.119995 0.169364
-0.014032 0.324571 0.187112
0.0197996 0.336994 0.0213117
-0.0173123 -0.243154 0.256966
0.00831742 -0.21494 0.258375
0.0165217 -0.33546 0.317715
0.00854368 0.332223 0.0882956
0.00925266 0.175787 0.112614
0.0246699 -0.332368 0.164662
0.00812372 -0.0408203 0.440521
0.0108905 0.157654 0.456255
0.0247216 -0.321439 0.148391
0.0169655 0.203645 0.424753
0.00820698 -0.411785 0.277551
-0.0119773 0.319739 0.173121
0.0195453 -0.0115625 0.443189
0.0194544 -0.0897524 0.449447
0.0208008 0.438284 0.262993
-0.0564781 -0.211174 0.458936
0.0090267 -0.180214 0.140534
-0.0228674 0.0942295 0.187269
0.01547 -0.188775 0.242976
0.0209518 0.312923 0.104288
0.0206912 -0.00108139 0.435916
0.0214543 0.369408 0.144869
0.0124018 -0.450707 0.221513
0.00850089 0.239469 0.280964
0.00814759 0.476561 0.13457
0.0225938 -0.366476 0.199551
0.0159453 -0.33521 0.299664
-0.0202486 0.118445 0.154532
0.0104953 0.35901 0.01162
0.016089 0.408744 0.217228
0.0174497 -0.192117 0.352854
0.0214078 0.292666 0.198289
0.0197624 -0.161953 0.516521
0.00266629 0.318914 0.146373
0.0249443 -0.296779 0.140157
0.0155942 0.18273 0.433885
0.0142441 0.268957 0.314841
0.00778185 0.252563 0.158389
0.00749427 0.0824424 0.424345
-0.0215286 0.0864484 0.175245
0.0249942 0.239746 0.463153
0.0322077 -0.220237 0.334219
0.0138286 0.432932 0.254972
0.0184476 -0.311327 0.00112939
0.0209203 0.460738 0.221076
-0.0398599 0.121859 0.187291
0.0150008 -0.405469 0.0585474
0.0106675 -0.418894 0.0542497
0.00817107 -0.0696213 0.284948
-0.00886249 0.175957 0.174482
0.0321927 0.210208 0.356559
0.0060895 -0.35454 0.156102
-0.0129342 0.298196 0.16755
0.00772564 -0.284393 0.202117
0.0210137 0.369243 0.182802
0.0147486 0.396825 0.0553387
-0.0228698 0.114198 0.205687
0.00948689 0.122116 0.180802
0.0231215 0.346285 0.147685
0.0184608 0.371142 0.223305
0.0169326 -0.353422 0.00276801
0.0210598 0.472324 0.159685
0.00971239 -0.432675 0.253865
0.0136349 -0.133861 0.318583
0.0206853 0.465429 0.136583
0.0158093 0.262123 0.262991
0.0168919 -0.440155 0.13743
0.00725344 0.234077 0.29053
0.0119935 0.0496502 0.420993
0.0415854 -0.238809 0.301656
0.014357 -0.458614 0.14734
0.0209683 -0.229254 0.327952
-0.00916948 0.309777 0.148528
0.0170254 -0.296752 0.0213025
0.0048009 0.29034 0.161842
-0.0228628 0.138023 0.146224
0.0142891 -0.231734 0.0840856
0.0193902 0.205798 0.0815887
0.00731012 0.174272 0.335331
0.0623981 0.116109 0.106714
0.0184393 0.417817 0.0396508
0.0141109 -0.426969 0.10306
0.0119067 0.248034 0.285229
-0.0202528 0.125154 0.192653
0.0199989 0.37714 0.190574
0.0117852 0.387881 0.257422
0.0120451 -0.267444 0.289018
0.00857439 -0.175013 0.472849
0.0221526 -0.456968 0.0859499
0.0137663 0.472809 0.220457
0.0104086 0.212604 0.430055
0.0120093 0.377727 0.0773263
0.0187822 -0.347208 0.0737457
0.0218308 -0.224788 0.0394769
0.0100862 -0.312232 0.0168142
0.0139939 0.172753 0.215318
0.0185919 0.368983 0.0150715
0.00772995 -0.28938 0.112084
0.00661764 -0.10644 0.315052
0.0230063 -0.338078 0.200423
0.00594373 -0.3429 0.12316
0.0208673 -0.042426 0.444282
0.0116845 -0.302804 0.00260241
0.00533594 -0.332873 0.138152
0.0102533 0.397065 0.109651
0.00764855 -0.299435 0.10658
-0.022864 0.109885 0.161028
0.00600619 0.273342 0.185951
0.0152897 -0.0599435 0.454905
0.0205465 -0.397282 0.280404
0.00900743 0.277553 0.109643
0.0111881 0.152114 0.246991
0.00954101 -0.359071 0.224111
0.00703861 -0.172304 0.34487
0.015075 -0.361854 0.0359091
0.0174539 -0.435139 0.0715828
0.00848588 -0.190986 0.218874
0.0221459 -0.254632 0.294781
0.0189694 -0.199731 0.415884
0.00731962 0.471073 0.211914
-0.0182218 0.181003 0.126054
0.0142751 0.222002 0.0989984
0.00698355 -0.22498 0.341668
0.0149131 0.38969 0.310395
0.0182858 -0.16529 0.158952
0.00868843 -0.00619586 0.248141
0.00872502 0.387874 0.119362
0.00720361 -0.192515 0.356227
0.0179923 0.47901 0.191953
0.0467095 -0.269745 0.204673
-0.00650913 0.323741 0.158577
0.0179723 0.218065 0.0485653
0.0138807 0.462909 0.24254
0.0154454 0.112374 0.171637
-0.0119431 0.306504 0.183727
0.0203965 0.327769 0.0976093
0.0723511 -0.170282 0.518187
0.0208944 0.18264 0.351517
0.0198761 -0.208126 0.373128
0.00625077 -0.319938 0.153062
0.00703469 0.325836 0.317969
0.0211854 -0.395051 0.180024
0.0117213 -0.166412 0.171709
-9.52573e-05 0.162717 0.440967
0.00956426 -0.470197 0.21284
0.00512812 -0.354128 0.16897
-0.00894114 -0.245526 0.281487
0.0220296 -0.471423 0.119177
0.0398747 -0.258768 0.23411
0.00738889 -0.160255 0.464411
0.0204668 0.288459 0.0150579
-0.0202492 0.127079 0.159893
0.0123346 0.464576 0.153759
0.0173769 -0.238994 0.0455268
0.0914706 -0.223357 0.464335
0.0182085 0.176653 0.319589
0.00999964 -0.305632 0.300816
0.0109889 0.270396 0.258042
0.0172547 -0.19466 0.251652
0.0217331 0.249309 0.45833
0.0170603 -0.387888 0.283936
0.0154406 -0.349595 0.294074
0.0223126 -0.447826 0.244426
0.0466282 -0.261267 0.220855
0.0872832 -0.230954 0.510376
0.00745203 0.18025 0.405962
0.0432106 -0.251836 0.259521
0.00831186 0.32865 0.099507
0.0424664 0.243727 0.460993
0.0896508 -0.180793 0.511244
0.010875 0.348354 0.26603
0.00862584 -0.217489 0.0496933
0.00696592 0.180742 0.13412
-0.0103719 -0.237461 0.309255
0.018936 0.233269 0.438105
0.00391169 0.303266 0.175417
0.0613823 0.135806 0.10781
0.0131242 0.300198 0.287326
0.0158452 0.0915392 0.19037
0.00393977 0.329966 0.192371
0.0136528 -0.337139 0.277432
0.0210152 -0.371587 0.101856
-0.0244597 0.0927679 0.195971
0.011751 0.464024 0.183469
0.042456 0.225839 0.460515
0.0147446 0.387956 0.0393765
-0.0902671 0.113154 0.24932
-0.0501203 0.118407 0.213646
0.0224212 -0.369621 0.0188918
0.00494917 -0.294411 0.150957
0.0164302 0.444675 0.238445
-0.0228647 0.100959 0.166055
0.0203765 -0.461695 0.233617
0.0151131 -0.171184 0.114243
0.0105114 -0.248752 0.0387026
0.00443359 0.331909 0.156452
0.0157833 0.203174 0.457694
0.0228447 -0.30439 0.20018
0.0237675 0.352215 0.187033
0.0357591 0.161939 0.171953
0.0251975 -0.291177 0.148835
0.0266379 0.318781 0.181923
-0.00786934 0.223328 0.324472
0.0905076 -0.212502 0.506697
0.00816077 -0.178298 0.491835
0.026642 0.331453 0.162113
0.0337332 0.22873 0.315412
0.0909753 -0.206243 0.459014
0.0209553 0.367736 0.30735
0.0131032 0.405275 0.049705
-0.00796744 0.338615 0.182918
0.0194547 -0.210079 0.243879
0.00740942 0.12649 0.186187
0.00527909 -0.306377 0.149536
0.00869369 0.451143 0.256829
0.00893841 0.290256 0.319015
0.0119571 -0.0807707 0.458645
0.00748219 0.0876182 0.206188
0.00112863 0.310505 0.160119
0.0216839 0.275011 0.194148
0.00122495 -0.167607 0.509635
-0.0244609 0.144016 0.201257
0.011128 0.267523 0.0894019
0.0467901 -0.251364 0.249851
0.0205518 0.121263 0.412595
0.0139431 -0.35018 0.0205038
0.0186282 -0.419369 0.263313
0.00839536 0.0265317 0.436265
0.091212 -0.172771 0.514912
0.0151445 -0.141698 0.340677
0.0255255 -0.329913 0.126116
0.0175713 -0.261694 0.0622771
0.00690756 0.368722 0.303849
0.0103883 -0.0097986 0.264672
0.0167829 -0.188223 0.200346
0.0184746 -0.302303 0.247429
0.020239 0.201189 0.396526
0.0168306 -0.259563 0.247496
-0.0253923 -0.164246 0.514829
0.00706905 0.340833 0.0212206
0.0849569 -0.221572 0.50755
0.0191096 -0.333489 0.243747
0.00440728 0.319837 0.126787
0.00872004 0.424807 0.06595
0.0193075 -0.325403 0.0173912
-0.0138596 0.293946 0.152327
0.00160423 0.121676 0.163719
0.00329941 0.336727 0.139782
0.0140715 0.427459 0.0947828
0.0134372 0.397755 0.275954
0.00850391 -0.469189 0.202843
-0.0604354 -0.208327 0.508876
-0.0141415 0.316884 0.181005
0.00842228 -0.273826 0.296137
0.00958859 -0.102513 0.461517
0.0213529 -0.170408 0.131284
0.0441368 -0.233095 0.280588
0.0184081 -0.455962 0.108333
0.0327133 0.11705 0.178109
0.0308348 0.219783 0.331851
0.012015 0.428391 0.178989
0.0155984 0.442202 0.177503
-0.0240679 0.128946 0.135164
0.0154022 0.436204 0.079584
0.0284323 0.223019 0.43429
0.0162071 0.383576 0.29361
0.0128276 0.444208 0.129399
0.0187505 -0.18734 0.364951
0.0200735 0.131887 0.198351
0.0220143 -0.428947 0.0479814
0.0153945 0.1646 0.162407
-0.014913 0.246679 0.166352
0.00260298 -0.326652 0.165063
0.0191175 -0.401755 0.218143
0.00260499 -0.317594 0.173677
0.00753115 0.164926 0.409115
0.00619179 -0.329561 0.153956
0.0171662 0.240113 0.115519
0.00722245 0.361618 0.314744
0.0144529 0.190531 0.354267
0.00838168 -0.185229 0.110295
0.0102428 0.187193 0.203853
0.00807988 0.154396 0.404181
0.0127751 -0.416008 0.182642
0.00789282 -0.273447 0.153214
0.0211337 0.245225 0.0396969
0.0116267 -0.463613 0.180442
0.0156762 -0.22299 0.223467
0.00736282 0.141186 0.228412
0.0178067 0.0562423 0.432306
0.00825109 -0.19088 0.0934503
0.0196261 0.382769 0.124741
0.0346009 -0.240119 0.287583
0.0197482 0.464207 0.197809
-0.0186324 0.29336 0.165956
0.00966287 0.31039 0.257612
-0.00234675 0.240675 0.462934
0.0114002 0.236114 0.234173
0.0206743 0.300459 0.308781
0.00668257 0.288755 0.30928
0.0105464 0.379647 0.017895
0.0084855 -0.467367 0.140759
0.0355231 -0.243883 0.275626
0.0207061 0.363043 0.206123
0.0219546 -0.186884 0.0877793
0.00705197 0.168921 0.317258
-0.0109419 0.336068 0.157112
0.0157203 0.193374 0.0747502
0.0175225 -0.133827 0.335464
0.00704819 0.0154434 0.435151
0.0164047 0.176348 0.106718
0.0178789 0.171169 0.206074
-0.0626431 -0.193605 0.523845
0.0348015 0.230306 0.436858
-0.0202512 0.110792 0.176807
0.00864019 0.210219 0.250954
0.0241076 0.294373 0.149905
0.0139139 -0.125371 0.453109
0.0218507 -0.408112 0.288428
0.0205735 0.266329 0.20167
0.0167966 -0.429885 0.277205
0.0206732 0.432949 0.0592711
0.0107407 -0.338336 0.0861553
0.00619852 0.362049 0.207143
0.021027 0.282361 0.118494
-0.068424 0.103867 0.244862
0.0127071 0.297073 0.0461319
0.0112362 -0.16516 0.337183
0.00544326 0.337691 0.130438
0.0121661 0.182785 0.23919
0.0236526 0.329656 0.149218
-0.01783 -0.231693 0.293873
0.0221259 -0.213174 0.0535116
0.00744781 0.44253 0.066426
-0.0202538 0.133187 0.198729
0.0141154 -0.212179 0.363305
0.0223601 -0.296612 0.101492
0.0193366 -0.0777435 0.301696
0.017507 0.0616119 0.207962
0.0111205 -0.197035 0.39456
0.00771545 -0.185246 0.450912
0.0103651 -0.310318 0.0747317
-0.0228626 0.0942506 0.149195
0.00682126 0.313316 0.0177134
0.0209714 0.0737845 0.423325
0.0191598 -0.366261 0.00706091
0.0525333 -0.1719 0.517098
0.0249443 -0.30661 0.178218
0.0691097 0.121353 0.110303
0.0208276 0.192091 0.239882
-0.0169005 -0.298122 0.169967
0.0176909 -0.21344 0.17261
0.0207599 0.416356 0.278876
0.0189515 0.14539 0.261212
0.0140368 -0.0220357 0.448179
0.0197458 0.315129 0.241551
0.00639105 -0.358086 0.144674
0.0361681 0.205596 0.436399
-0.0125766 -0.319645 0.159775
-0.00932294 -0.259155 0.21586
0.0111758 0.427733 0.136901
0.00818841 -0.371957 0.162563
0.0206204 0.0084146 0.43683
0.009915 -0.179594 0.159297
0.0111652 0.400619 0.0273513
-0.0244571 0.152271 0.169524
-0.0567549 -0.220865 0.471061
-0.00477979 0.248374 0.453119
0.0191666 -0.246188 0.0996273
0.0127402 0.186319 0.129124
0.00715246 0.256415 0.0374728
-0.0200719 0.146105 0.129901
0.0104028 0.4315 0.280913
0.0165968 0.209939 0.450342
-0.0141683 0.33755 0.142607
0.00747284 0.289412 0.20976
0.0200618 -0.244464 0.294722
0.0840588 -0.226332 0.482596
-0.00912841 -0.172551 0.511866
0.00635915 -0.129425 0.327091
0.00669815 0.346801 0.311342
0.01789 0.183533 0.187065
0.00781164 0.44418 0.0858874
-0.0548269 -0.171729 0.518929
0.010071 -0.360927 0.102626
0.0132045 0.351123 0.299863
0.0137614 0.162147 0.273383
-0.0141439 0.339738 0.17724
0.0205492 -0.267833 0.0287439
0.00733452 0.334533 0.0123132
-0.0134817 0.240068 0.440946
0.0188289 0.168355 0.18809
0.0101875 -0.266871 0.0130825
0.00762103 0.191512 0.38772
0.012117 0.00690751 0.255654
0.00989518 -0.195925 0.370823
-0.00650012 0.32637 0.171235
0.0222224 -0.281035 0.0133657
0.0210871 0.289434 0.207539
0.00506051 -0.295386 0.174348
0.00639486 0.236113 0.440127
0.0222526 -0.464557 0.213897
0.0155689 0.0997149 0.411607
0.0144348 0.326426 0.00672478
-0.00968738 -0.248492 0.233326
0.00836554 -0.172626 0.481835
0.00809825 0.0762102 0.213397
0.0228206 0.321649 0.198503
0.0175235 -0.232873 0.09528
-0.0354407 -0.164593 0.515902
-0.024455 0.145298 0.151727
0.0159525 -0.443164 0.0781882
-0.0153067 0.310015 0.139416
0.00310581 0.34997 0.157807
0.00686562 0.133967 0.216022
0.0260028 -0.298257 0.158795
0.0125234 0.400416 0.260916
0.0187097 0.242083 0.155008
0.00624197 -0.352619 0.188106
0.011949 -0.0317393 0.260768
0.0218405 -0.0981335 0.306869
0.022404 -0.321614 0.309117
0.0124984 -0.378771 0.0838798
0.00718507 -0.0695966 0.448279
0.0222726 -0.280503 0.298155
0.0117737 -0.341206 0.0185053
0.0205585 0.461677 0.0994707
0.010551 0.129541 0.168036
0.0273772 -0.168782 0.518601
0.00891347 -0.169733 0.143438
0.0194485 0.313109 0.309558
0.020561 0.389617 0.180065
0.0545604 0.119839 0.112037
0.0209816 0.173801 0.174095
0.00743181 0.453494 0.08132
0.0104764 0.245731 0.225024
0.0119281 -0.222962 0.0371223
0.0296016 0.188778 0.449008
0.0193682 0.143709 0.229621
0.0118111 0.171595 0.301757
0.0206044 0.358093 0.024997
0.0190939 -0.188056 0.452313
0.0224074 -0.386976 0.29507
-0.00584233 0.342117 0.168163
0.00586076 -0.230561 0.318224
-0.0601011 -0.176322 0.526833
0.0204251 0.30086 0.0123149
0.0100662 -0.223594 0.260801
0.019199 0.349019 0.319978
0.0113402 -0.407485 0.17816
0.0119135 -0.171899 0.202936
0.0205943 0.12662 0.189252
0.00862651 0.355121 0.0263642
0.0200559 -0.162376 0.338438
-0.0139641 0.321887 0.113115
0.00856618 0.274356 0.0313358
0.0221649 -0.270468 0.138008
0.0162508 -0.310348 0.0353456
0.0860298 -0.203345 0.519987
0.0211251 0.0231019 0.241169
0.0249675 -0.312394 0.149542
0.0208499 0.43439 0.0705136
-0.079123 0.129969 0.24642
0.0178913 0.457806 0.209748
0.0102678 -0.336826 0.237366
0.0189205 0.235029 0.294871
0.01565 0.205075 0.433641
