0.00569995 -0.410095 0.102313
0.0184718 -0.424185 0.262493
-0.0818737 0.0710581 0.0645924
0.0320308 -0.308393 0.511359
0.00721772 -0.189472 0.172004
-0.020226 0.0637549 0.139968
0.0186076 0.449529 0.233246
-0.0127475 0.330181 0.180561
0.00255925 0.290711 0.247779
0.0254744 -0.339411 0.141003
0.00769215 -0.44868 0.225504
0.0212125 0.374659 0.101015
0.00749073 0.150896 0.185575
0.110839 -0.296557 0.431538
0.00591008 0.35848 0.294773
-0.0306983 -0.299355 0.512748
0.00457403 0.13513 0.501103
0.0226361 0.31719 0.10105
0.00538257 0.188426 0.179248
0.0313811 0.161425 0.502188
0.0090645 0.102881 0.238438
0.0196417 0.404102 0.275334
0.00313329 0.261218 0.121078
-0.0822561 -0.357859 0.436088
0.0038585 0.390447 0.170597
0.0192536 -0.202664 0.342797
0.0206161 -0.226448 0.115735
0.0235142 -0.260096 0.167001
0.00360822 -0.328634 0.240949
0.0231643 -0.272946 0.211775
0.0232008 0.376419 0.195576
0.00674944 0.318686 0.0453478
0.0552033 0.112652 0.272774
0.0224117 0.216315 0.194804
0.00697642 0.219463 0.299215
0.00178573 -0.29768 0.125829
0.00584197 0.201662 0.113425
0.0252729 0.281999 0.214164
0.00492628 -0.417535 0.15789
0.00679835 -0.36498 0.283699
0.0210217 0.415785 0.179662
0.0156103 0.40723 0.045177
0.00686174 -0.195506 0.153185
0.0458493 0.311642 0.177282
0.0191112 -0.145409 0.310847
0.00502129 -0.331614 0.0683193
0.0114136 0.198989 0.334175
0.0252513 0.267519 0.171941
0.118684 0.111052 0.270171
-0.0839754 -0.342468 0.494478
0.00398114 0.347139 0.26271
0.0183774 0.270372 0.0286288
-0.0182634 0.257462 0.24904
0.00494323 0.260711 0.28198
0.0267124 0.169952 0.364091
0.0047021 -0.24831 0.108304
0.00647724 -0.256665 0.267719
-0.0419417 0.0887246 0.179272
0.00749956 0.450635 0.220924
0.0169519 -0.0471759 0.260319
0.0178188 0.171952 0.289617
0.00611031 0.181528 0.145666
0.00681966 0.434073 0.133731
0.0185281 -0.328743 0.0256203
0.00774525 0.382225 0.319041
0.0190498 -0.404616 0.0630268
0.0236842 0.341454 0.236421
0.0183128 -0.404123 0.283108
0.00694913 -0.344988 0.291538
0.00679843 0.30725 0.323163
0.0553062 -0.321452 0.162199
-0.0127475 0.294352 0.194471
0.00298196 0.274917 0.250653
0.0193449 0.162295 0.196438
0.0232029 -0.261112 0.193224
0.0143942 0.475575 0.121575
0.00198392 -0.35299 0.204183
0.00831117 0.438121 0.292025
0.0076394 -0.457211 0.258605
0.00211484 0.352899 0.212898
0.0211195 0.223055 0.107656
0.0866827 0.074153 0.278861
0.00768584 0.222512 0.316381
0.0215802 -0.413547 0.172898
0.0196974 -0.423851 0.0986221
0.0185452 -0.459164 0.137457
0.00732211 -0.448173 0.209566
0.00543998 0.216624 0.260644
0.0229414 0.245857 0.130138
0.0244352 -0.311785 0.211551
0.0178911 -0.293046 0.313232
0.00923218 -0.478692 0.115306
0.0252697 -0.350704 0.182965
0.00613321 -0.312032 0.0502653
0.0190222 -0.259402 0.0480782
0.0165243 0.359944 0.347832
0.0184489 0.244094 0.0377308
-0.0132741 -0.250604 0.324273
-0.020226 0.120345 0.210887
0.0136327 -0.253143 0.360441
0.00690218 0.10686 0.339559
0.00656278 0.207294 0.0872505
0.00581668 0.409334 0.244946
0.0185077 -0.46125 0.181811
0.0569616 -0.283582 0.20883
0.00834169 -0.249431 0.297344
-0.00643832 0.104795 0.171844
0.00254749 -0.277401 0.204061
0.0083328 -0.172429 0.179933
0.0225835 0.375748 0.139871
0.0078126 0.449279 0.0838195
0.0207635 0.259253 0.0754583
-0.0330807 -0.294964 0.188917
0.0194324 0.371848 0.0611601
0.0386139 -0.242793 0.330941
0.0204059 -0.419246 0.217991
0.019585 0.415695 0.104534
0.00599306 -0.394135 0.25284
0.00782982 -0.387484 0.0397231
0.00598801 -0.228701 0.230544
0.00804943 -0.181332 0.126205
0.0337127 0.203072 0.324455
0.0182458 0.186964 0.0723391
0.00804951 -0.283493 0.502403
0.0229255 -0.33802 0.234589
0.00648949 -0.222045 0.451262
0.0172056 -0.0637152 0.450588
0.0109313 -0.181036 0.456475
0.0220626 -0.373877 0.231979
0.0080546 0.148831 0.231855
0.00762549 -0.202495 0.0945373
0.00324348 -0.251766 0.164376
0.0204936 0.182601 0.196362
0.00796054 -0.203042 0.248395
0.00417675 0.391002 0.216881
0.0252136 0.313963 0.220707
0.00721329 0.450573 0.184281
0.00361683 0.313824 0.267053
0.0135391 0.213245 0.0237135
0.01267 0.109793 0.285192
0.0182624 0.462462 0.163933
0.00957549 0.484498 0.215867
0.0012017 0.0681822 0.484736
-0.0118536 0.185097 0.175253
-0.0487587 0.0830321 0.0888242
0.00812389 -0.468305 0.160376
0.0211211 0.195106 0.206758
0.00778466 -0.44012 0.0876254
0.0163546 -0.236073 0.0244818
0.00781763 0.250953 0.0147077
0.0186147 0.15527 0.291751
0.0207481 0.264979 0.294191
0.00576621 -0.293275 0.271298
0.0209081 -0.377193 0.0789628
0.0191018 0.163526 0.225324
0.0016078 0.255505 0.193732
-0.0195379 0.0967368 0.163239
0.00978573 0.385733 0.019508
0.0104106 -0.395204 0.30369
0.0206906 0.374719 0.277176
0.0186389 -0.0927082 0.282764
0.0261792 0.319467 0.16926
0.0246625 0.341226 0.153554
0.0167899 0.0483745 0.205588
0.0099864 -0.440535 0.279789
0.0205987 0.194394 0.13389
0.00857747 0.406837 0.319503
0.00801249 0.33169 0.342355
0.0197625 0.338149 0.053667
0.00441964 0.241349 0.107874
0.0185241 0.398574 0.0600758
0.00260502 0.369281 0.188187
0.00531061 -0.264862 0.0807568
0.0205711 -0.295173 0.0607172
0.019775 0.428762 0.231192
0.022089 0.210327 0.175056
0.0121398 -0.271529 0.00802688
0.0107224 0.340859 0.014667
0.0237945 0.260465 0.230642
0.00425427 -0.254157 0.218279
0.0193549 -0.370294 0.047926
0.0210267 0.316519 0.295092
0.0400911 0.192376 0.178847
0.00656306 0.176391 0.231101
0.0204181 -0.366721 0.266397
-0.0558371 0.0675925 0.0647135
0.0455236 0.28088 0.225201
0.0395004 0.243966 0.274916
-0.000235894 0.286915 0.182769
0.00456724 0.247276 0.266958
0.0250768 -0.355684 0.15151
0.0188282 0.177161 0.100438
0.0163965 -0.241304 0.412626
0.00786752 0.127853 0.191179
0.0210085 -0.25398 0.0902046
0.00192116 -0.367417 0.181807
0.00810184 -0.180069 0.202387
-0.00438548 0.185844 0.345873
0.00719257 0.417571 0.275463
0.0089695 -0.242853 0.49931
0.00415377 -0.404287 0.181399
0.106943 -0.347258 0.426987
0.00220075 0.153472 0.398231
0.0198687 0.436133 0.180317
-0.0839496 0.105864 0.0713248
0.0218245 -0.355111 0.0838513
0.0077326 0.45487 0.144241
-0.020226 0.115524 0.132614
0.0215357 0.389533 0.240724
0.0197661 -0.206034 0.130946
0.0236184 0.306615 0.117216
0.010913 0.313925 9.34289e-05
-0.000179806 -0.314022 0.179035
0.0116947 -0.178004 0.0845637
0.0211349 0.351437 0.282571
0.00752746 0.00602448 0.43896
0.0265256 0.291054 0.173972
0.0184378 -0.209792 0.0777478
0.0236636 0.23815 0.173103
-0.0241129 0.100286 0.188726
0.0239385 0.248993 0.155958
0.00143064 0.30598 0.228865
0.00372538 -0.380029 0.115016
0.0056809 0.382241 0.0924625
0.00606254 -0.331885 0.279706
0.00789707 0.223623 0.0455918
-0.120155 0.0939249 0.0637935
0.0228439 0.234009 0.223899
-0.020226 0.0611962 0.166265
0.00922048 0.119064 0.497582
0.00945889 0.486746 0.173812
0.0197141 0.275958 0.0513834
0.00103131 0.336589 0.203131
0.0123734 -0.350213 0.00291208
0.00787348 0.247203 0.349395
-0.0193175 0.240675 0.174762
0.0194671 0.0838449 0.437301
0.0403766 0.094304 0.232491
0.00647231 -0.442247 0.16128
0.01824 -0.265342 0.299082
0.0182427 -0.220857 0.270382
0.00655358 -0.413404 0.245964
0.00272146 0.245252 0.147512
0.00803663 -0.367466 0.0272837
0.0230316 0.362827 0.232144
0.00758533 0.198749 0.0705149
0.0211784 0.237585 0.0964531
-0.0101883 0.221555 0.302186
0.0191974 0.364587 0.31393
0.00848977 0.295619 0.353233
0.0453101 0.285924 0.181401
0.018191 0.195077 0.304372
0.00426486 -0.345717 0.083221
0.0202574 -0.216293 0.207082
0.0257193 -0.323834 0.139218
0.0179766 -0.185571 0.226822
0.0244019 -0.297049 0.12519
0.00745429 -0.249298 0.0503477
0.0238875 0.327934 0.126945
0.00663835 -0.349588 0.0456282
0.00150581 -0.332536 0.124804
0.0223194 -0.389128 0.121374
0.0198052 -0.202629 0.183024
0.024251 -0.274951 0.182714
0.0220627 -0.303099 0.0831907
-0.0236537 0.145429 0.17018
0.0177617 0.457661 0.253726
-0.0901077 -0.334744 0.431196
0.00644302 0.0896109 0.173381
0.0178335 0.136062 0.167975
0.00611781 0.43048 0.171133
0.0052899 0.191564 0.202474
0.0183304 0.450166 0.121696
0.020958 -0.256614 0.243868
0.00925831 -0.143841 0.443257
0.00875783 -0.434259 0.0443067
0.00831947 0.117893 0.370721
0.0177695 -0.47408 0.173827
0.00196063 0.321523 0.131805
0.0076377 -0.486297 0.164546
0.00527105 -0.283181 0.0715757
0.00496653 0.209676 0.236766
0.0205148 -0.402656 0.238376
0.00826749 0.158133 0.104271
0.00260538 0.366392 0.164323
0.00587569 0.424221 0.156518
-0.101772 0.0835628 0.0722536
0.0316566 0.115206 0.489349
0.0257585 0.0945024 0.181012
0.00657232 0.383275 0.293196
0.00751521 0.153043 0.155144
0.0183921 0.215027 0.335677
0.0184104 -0.447256 0.058852
0.0072213 0.428975 0.107265
-0.0787062 -0.319387 0.502772
0.0185445 -0.167865 0.113526
0.00454529 0.390487 0.134207
0.00850621 0.46673 0.0997704
0.0183 0.29456 0.0241054
0.00569523 -0.21379 0.175123
0.00738296 0.430668 0.26323
0.023163 -0.373048 0.208898
0.00274967 0.276786 0.12013
0.0213191 -0.228214 0.188048
0.0160563 -0.472097 0.207269
0.00450554 -0.349307 0.251037
-0.00355005 0.15182 0.502264
0.0224189 -0.243392 0.15657
0.0184416 -0.356153 0.303181
0.00151743 0.340994 0.155065
0.0076071 -0.281411 0.298294
0.0230499 0.378837 0.171708
0.018721 0.338415 0.0351631
0.00801896 -0.332541 0.310918
0.0189967 0.182014 0.268038
0.0240865 -0.330596 0.217326
0.026332 -0.33104 0.179496
0.00384819 -0.304379 0.242864
-0.026662 0.289524 0.181518
0.00942125 -0.219572 0.346871
0.0255898 0.330242 0.200956
0.00820673 0.120986 0.165446
0.00817593 0.238238 0.334002
0.00657127 0.11735 0.415047
0.0008504 -0.293466 0.150669
0.00302008 -0.288797 0.108266
0.00473305 0.203663 0.156171
0.0162919 0.262324 0.00510912
0.00504673 0.273877 0.078638
-0.0241129 0.0381384 0.178383
0.0180881 0.0912446 0.222693
0.0195921 -0.298106 0.286848
0.00809274 0.160109 0.260784
0.0200468 0.185584 0.237686
0.0189923 0.168954 0.121748
0.00765122 0.410223 0.296322
0.0212189 0.390951 0.118969
0.00275292 0.347605 0.235967
0.0181154 0.416897 0.0666439
0.102175 0.0933748 0.270788
0.0185002 -0.396453 0.0228765
0.00541488 0.340666 0.0742192
0.00804962 0.274344 0.342611
0.00313112 -0.258577 0.14114
0.0134114 -0.299956 0.32985
0.0178783 0.373811 0.335149
0.0220622 0.352052 0.103579
0.0264797 -0.313357 0.153831
0.00277102 -0.356142 0.113934
0.0243681 0.356253 0.190889
0.00927982 0.168888 0.0589417
0.0226362 -0.261667 0.119354
0.0217536 -0.406301 0.137413
0.00382026 0.289842 0.270085
0.0192614 0.275036 0.32372
-0.0241129 0.114359 0.164124
0.0138211 0.138025 0.132489
0.018534 -0.182222 0.15163
0.0166799 0.117061 0.449309
0.027589 0.0673066 0.481391
0.00498136 -0.404625 0.215962
0.0183576 -0.309819 0.00842055
0.011439 -0.252101 0.478938
0.0146038 -0.158327 0.325312
0.0202054 -0.261178 0.069347
0.00805104 0.0362706 0.436937
0.0104708 -0.241137 0.43585
0.00726233 -0.263551 0.285245
0.0079618 -0.283501 0.0261337
0.019106 -0.33259 0.296812
-0.0200382 -0.256454 0.276812
0.0209626 0.413163 0.210201
0.00239601 -0.336996 0.219994
0.0209334 0.215795 0.256482
0.0199767 0.203075 0.100246
0.00658236 -0.409109 0.0796304
0.0176515 -0.455959 0.241231
0.00620667 0.279531 0.0563337
0.105269 -0.359833 0.47467
0.00762156 0.456989 0.284185
0.00761753 0.108637 0.300944
-0.0767693 -0.305055 0.428663
0.0226303 -0.278799 0.103734
0.00774106 0.458397 0.203593
-0.04347 0.0844839 0.13036
0.0234733 0.268638 0.123652
-0.0470471 -0.304027 0.500456
0.0161046 -0.240873 0.339769
-0.0802082 -0.275763 0.430242
0.022227 0.218145 0.215012
0.0899179 -0.305295 0.501671
0.00499796 -0.364131 0.0780581
0.0694731 0.0963722 0.278782
0.00608777 -0.240569 0.24697
0.0177147 -0.21644 0.0542807
0.00642009 -0.0287015 0.444153
0.0184587 -0.161164 0.162059
0.0254109 0.162738 0.385632
0.0214095 -0.411333 0.195764
-0.0778043 -0.348023 0.476639
0.00670631 0.0684221 0.441611
0.00514083 -0.232842 0.2106
0.00440088 -0.31732 0.253241
0.0264968 -0.295666 0.506685
0.00758277 0.268934 0.0340913
0.101542 -0.314736 0.49607
0.0457705 0.152329 0.487259
0.0045286 0.355249 0.0983738
0.00163099 0.27168 0.146345
0.0263576 0.286072 0.189469
0.00593935 -0.433539 0.175262
0.00298033 0.233909 0.205043
0.0010505 -0.356391 0.160472
-0.0328243 -0.272013 0.240408
0.0206237 -0.292068 0.268626
0.0202976 0.405703 0.255673
0.00344774 -0.389701 0.139349
0.00191945 -0.279199 0.141637
0.00802188 -0.308217 0.310242
0.0175016 -0.322946 0.162356
0.0074948 -0.219652 0.256621
0.0180453 -0.38535 0.317632
0.00279556 -0.295335 0.222349
-0.0312894 0.0828272 0.163392
0.0179035 0.466561 0.219063
0.00459292 0.37044 0.25917
0.00554429 0.218963 0.101091
0.00690067 -0.393863 0.270395
0.018787 -0.193466 0.211849
0.0161884 -0.441709 0.265303
-0.064197 0.103732 0.0634509
0.0192671 0.445057 0.202261
0.104714 -0.346467 0.490734
0.0523011 -0.309566 0.506863
0.115063 -0.280323 0.42017
0.0208965 -0.222511 0.137944
-0.0241127 0.0831743 0.182633
0.0057574 -0.214678 0.141398
0.0162271 0.421726 0.32353
0.0183814 0.419428 0.291416
0.0009139 -0.306311 0.194692
0.00615168 -0.426177 0.116066
0.00581315 0.276989 0.303251
0.0218226 0.276134 0.0893777
0.0204676 0.392916 0.101222
0.0169241 -0.0984083 0.441356
0.0199891 0.225865 0.288229
0.00577737 0.193324 0.130974
0.021795 0.358443 0.265235
0.0185549 0.395924 0.0280338
0.0144431 0.143925 0.0932726
0.0183624 -0.133999 0.452302
0.0196875 -0.247439 0.262163
0.0187374 0.151849 0.169299
0.00668589 0.234109 0.0641042
0.0179081 0.363516 0.0282644
0.0242702 -0.290887 0.204176
-0.0110106 0.291947 0.171674
0.00788601 0.208651 0.311182
0.00767787 0.484109 0.194541
0.0322681 0.139153 0.177531
0.000499736 -0.340647 0.147341
0.0486117 -0.27266 0.250435
0.00438305 0.380692 0.242815
0.00440317 -0.234053 0.172784
0.00661672 -0.433717 0.216856
0.0165481 0.0109981 0.227227
0.0197327 -0.320662 0.044434
0.0192284 0.30863 0.0400031
0.00220327 0.244676 0.174356
0.00538704 0.195969 0.224495
0.0181586 0.263555 0.341279
0.021755 0.257324 0.271977
0.0255992 -0.323717 0.194016
0.0165624 -0.244481 0.311364
0.00169388 0.263709 0.21488
0.0223548 -0.319842 0.085883
-0.0127475 0.314699 0.169139
0.113094 -0.328982 0.494776
0.04135 -0.258865 0.28626
0.0249657 -0.283286 0.161355
1.61864e-05 0.291004 0.200011
0.00578488 0.226456 0.278648
0.00721289 0.44895 0.164486
0.0181983 0.435896 0.0909889
0.116711 -0.320066 0.424174
0.00673199 0.196768 0.272644
0.0185054 0.22964 0.322181
0.0112016 -0.30996 0.509944
0.01948 0.318165 0.322226
0.0181737 -0.450754 0.0978877
0.00432462 0.374682 0.118959
0.00382612 0.390518 0.191199
0.019171 0.117516 0.433551
0.00764307 -0.203936 0.280439
0.0076376 -0.314172 0.0264197
-0.00821458 -0.319719 0.164036
-0.0116921 0.116371 0.482722
-0.00060934 0.310302 0.190149
0.0184592 0.452726 0.135561
0.00738556 0.154934 0.205695
0.0178052 -0.425649 0.0544135
-0.013338 0.163616 0.496226
0.0181563 -0.195533 0.239346
0.02059 -0.418796 0.118932
0.0232198 0.233526 0.20623
0.0186535 -0.246348 0.281981
0.00779073 0.310667 0.026312
0.00851094 -0.470506 0.130473
0.00653792 0.437064 0.206065
0.00539153 0.337326 0.293697
0.0208822 -0.380246 0.250224
0.0193398 0.400121 0.0801502
0.0187779 0.33214 0.332379
0.00628331 0.17291 0.19446
0.0119329 -0.366551 0.00689485
0.0751891 0.0854417 0.271065
0.00278806 -0.26443 0.190983
0.00800956 -0.191156 0.0807021
0.00726831 -0.135194 0.305634
-0.00633659 0.0900689 0.160708
0.00881677 0.47168 0.257145
0.0206937 -0.237216 0.100631
0.0178203 -0.446418 0.0787259
0.00784485 -0.34855 0.321345
0.00518665 -0.393552 0.0953252
-0.0386013 -0.306015 0.172968
0.0274539 0.0797613 0.174919
0.00386464 0.325203 0.0979235
0.0215175 0.323638 0.0822944
0.00785911 0.473447 0.139399
0.0195873 0.138271 0.501568
0.0197159 0.168187 0.180752
0.00730191 -0.206183 0.232993
0.0182627 -0.391118 0.29294
0.0022049 0.267406 0.230456
0.00176332 -0.346282 0.126448
0.00298754 -0.354002 0.222699
0.0194471 -0.430928 0.22786
0.01611 -0.186968 0.341124
0.0250427 -0.3379 0.199374
0.0195178 0.247927 0.0566787
0.00636127 -0.246689 0.0730453
0.0208715 0.409111 0.22892
0.0183909 -0.180868 0.191083
0.00752439 -0.266467 0.0400125
0.018458 0.444267 0.0742094
0.0120465 0.299499 0.0107043
0.0181699 0.140848 0.191531
0.00809702 -0.46449 0.200338
0.0229121 -0.255298 0.140906
0.00538482 -0.259688 0.248228
0.00786484 0.206738 0.0371419
0.0216098 0.216751 0.23712
0.00729568 -0.412808 0.263529
0.0185316 0.404781 0.332633
0.0201072 0.132895 0.416338
0.0117239 0.133962 0.222244
0.00634032 0.224495 0.0782576
0.0197447 0.353769 0.0590594
0.0187732 -0.306273 0.0298741
-0.0812588 -0.342439 0.438829
-0.014505 -0.297606 0.503314
0.00427039 0.229109 0.244038
0.00660757 -0.294626 0.0458235
0.0174831 -0.111493 0.28618
0.0154369 0.074918 0.179096
0.00834993 0.280782 0.0173708
0.00240311 0.314223 0.245418
0.000559621 0.280915 0.163117
0.0179786 0.165642 0.275488
0.00622809 0.417062 0.121105
0.0115443 0.421519 0.042604
0.008004 0.356593 0.33613
0.0191348 -0.417581 0.0767822
0.00655826 -0.248096 0.451806
0.0237925 0.289944 0.245711
0.00203887 -0.310741 0.116143
0.0219641 0.226727 0.126213
0.0218714 -0.372507 0.0945897
-0.0764081 0.0942121 0.0637835
0.0193222 0.432058 0.122807
0.017572 0.355385 0.35942
-0.0652637 0.0795887 0.0723923
0.0183503 -0.166963 0.223774
0.00570222 -0.355556 0.268876
0.0419412 0.0924227 0.174965
0.0187533 -0.18789 0.135523
0.00436116 0.261288 0.0962424
-0.0223336 0.0606509 0.124216
0.0170314 0.113599 0.328843
0.0231863 0.371626 0.212959
0.0148335 0.0974859 0.292366
0.00689658 0.162741 0.16694
0.0126761 0.116512 0.467087
0.00706051 -0.449453 0.140177
0.104088 -0.273921 0.428748
0.0243274 -0.357975 0.133138
0.0180625 -0.250117 0.0358799
0.0257681 0.332149 0.184211
0.0185407 0.253379 0.357787
0.0205669 0.188591 0.148655
0.02418 0.255337 0.213868
0.0184171 0.456304 0.0961463
0.0231605 -0.320112 0.23248
0.0190715 0.207926 0.295482
0.00750074 0.195808 0.291141
-0.0552332 -0.308657 0.512016
0.0209293 0.386267 0.261475
0.0199605 0.376786 0.0757584
0.00593655 0.179905 0.16309
0.0226262 -0.247499 0.180366
0.00622068 0.23723 0.295265
-0.0255537 0.29442 0.199085
0.022425 0.21952 0.159185
0.0183095 0.094426 0.246936
0.00080524 0.289137 0.152007
0.0195059 -0.316203 0.290167
0.019287 -0.440996 0.212467
0.0161726 -0.240869 0.379758
0.024177 -0.365197 0.1923
0.0036641 0.219355 0.195346
0.000208399 -0.328373 0.186361
0.0102924 -0.0659895 0.25927
0.0076969 0.378102 0.347945
0.0234978 0.234983 0.190799
-0.0734323 -0.330441 0.490188
0.0183268 0.323348 0.0112686
0.023686 -0.380635 0.165476
0.0191913 -0.356994 0.040713
0.0188155 -0.276828 0.0374056
0.00631444 0.408362 0.262526
0.00635623 0.394217 0.279941
0.00248566 -0.36749 0.201133
0.00837464 -0.423 0.277497
0.00786957 0.255073 0.0322962
0.0231204 0.262593 0.246699
0.018611 0.212126 0.0591277
0.0071977 -0.207198 0.448186
0.000927596 0.319275 0.216725
-0.00399836 0.121352 0.174989
0.00793192 0.452522 0.127295
0.00415432 -0.277819 0.0940467
0.0044678 0.204494 0.190572
0.00796314 0.17713 0.0848709
0.0104125 0.0970534 0.181116
0.0229567 0.234854 0.14592
0.0064123 -0.438347 0.194341
0.00792169 0.177429 0.302409
-0.0208266 0.132766 0.200646
0.015957 0.185501 0.324975
0.00631147 -0.365325 0.055638
0.0178008 0.380598 0.0332372
0.00291939 -0.340708 0.103845
0.00784513 -0.251015 0.407205
0.00412631 0.216848 0.149059
0.00475787 -0.310956 0.0725114
0.0221284 -0.354092 0.242418
0.00113761 0.308205 0.143414
0.0181263 -0.356519 0.0233064
0.107562 0.0836157 0.279227
0.0213974 -0.233924 0.202805
0.00810507 -0.404006 0.044345
0.0227454 -0.280897 0.226921
0.00754475 0.403951 0.067896
0.0725544 -0.310333 0.510488
0.0021656 -0.302993 0.500871
0.0197413 0.117242 0.4111
0.0198273 0.101021 0.265816
0.00507435 -0.223449 0.156942
0.0214423 0.332561 0.284209
0.00368592 -0.361429 0.0997389
0.0219667 0.374743 0.120237
0.00876979 -0.409975 0.304885
-0.0196317 0.269641 0.234893
0.0182543 0.319044 0.343741
0.0111504 0.0959289 0.278672
0.0131707 -0.169231 0.131335
0.0186354 0.373215 0.0460213
-0.0241129 0.0441945 0.164456
-0.0241129 0.0717517 0.197525
0.0219577 0.239551 0.112236
0.00474157 -0.300059 0.256316
0.00580352 0.312728 0.0611754
0.0138865 -0.276692 0.512041
-0.0241128 0.0759263 0.166216
0.000587743 0.330047 0.168351
0.0184924 0.131538 0.234021
0.00840932 0.231362 0.0319026
0.0365517 0.100695 0.480895
0.0206545 0.405937 0.124411
0.0134514 0.146248 0.258157
-0.0763785 -0.336448 0.42591
0.0157904 -0.337089 0.0103315
0.0206732 -0.360441 0.066262
0.0212158 -0.403345 0.111059
0.0084412 -0.170614 0.151344
0.0383194 -0.323891 0.164091
0.0183695 -0.469114 0.109961
0.00847167 -0.225078 0.283157
0.022913 -0.299178 0.0980989
0.00855697 -0.241593 0.359596
0.0185869 0.479663 0.136919
-0.020226 0.0902375 0.207246
0.0135737 -0.240265 0.398523
0.00776082 -0.232844 0.0557048
0.0039703 0.308538 0.0935181
0.0239745 0.359404 0.162334
0.0186415 0.252413 0.328945
0.0195301 0.295877 0.322006
0.0276064 0.103787 0.171048
0.0193303 -0.223327 0.0839617
0.0194099 0.379567 0.301862
0.0027546 -0.275782 0.124022
-0.00142167 -0.239322 0.32833
0.0196932 0.105282 0.437558
0.0226563 -0.396753 0.170423
-0.0112344 0.277029 0.184922
0.0199075 0.321465 0.0532181
0.0203753 -0.428507 0.196305
0.0136175 -0.0322736 0.253254
0.00860038 -0.278806 0.313785
0.00826402 0.4354 0.0828871
0.0250714 0.298061 0.224403
0.00853038 0.192611 0.313915
-0.0760514 -0.267353 0.422449
0.019805 -0.357552 0.28061
0.0178765 0.257438 0.0227464
0.0223883 0.29639 0.0959024
0.0630305 -0.308135 0.170959
0.00407957 -0.403129 0.149677
0.00713301 0.244226 0.0505372
0.00497511 0.291527 0.0763637
0.0189514 0.416806 0.0877556
0.0054505 -0.349795 0.0649649
0.00502429 -0.372964 0.248742
0.113253 -0.352619 0.45705
0.0192587 -0.212636 0.0973523
0.019723 0.29246 0.0491757
0.00667365 -0.298122 0.287212
0.0238492 0.342797 0.135266
0.00816723 0.446445 0.262926
0.0992244 0.112675 0.271213
0.0201034 -0.206362 0.157851
0.0387996 0.0893254 0.216645
0.0185481 0.427718 0.277125
0.0542394 0.0956728 0.2722
0.00433168 0.395531 0.155744
0.00532289 -0.242454 0.23054
0.0212209 0.194343 0.1847
0.0108474 -0.157589 0.181531
0.017262 -0.250916 0.444149
0.00546236 -0.314747 0.269953
0.11969 0.0978749 0.278729
-0.0127475 0.299308 0.209258
0.00345417 0.0828076 0.490887
0.00688487 0.373607 0.306453
0.0161764 0.099507 0.166788
0.0225928 0.357932 0.247918
0.0176538 -0.463256 0.226889
0.00253552 0.304035 0.118868
0.0201169 -0.398416 0.0795565
0.0203494 0.270829 0.0640944
0.0184849 0.44126 0.109234
0.0192195 -0.451533 0.169881
0.0211706 0.359342 0.089592
0.0179802 0.40591 0.313245
0.0063314 0.347002 0.308294
-0.0109642 -0.246453 0.307222
0.021409 0.407055 0.165758
0.00719467 -0.452073 0.185969
0.00297234 0.317751 0.112465
0.00828016 -0.469427 0.142434
0.0353188 0.300616 0.180097
0.0907406 0.0963902 0.278781
0.01994 0.194038 0.110196
0.0062282 -0.217129 0.112791
0.00553618 0.411892 0.229827
0.00149444 -0.337038 0.204733
0.0186176 0.286579 0.366419
-0.0229361 0.100848 0.124456
0.0221744 -0.249503 0.205885
-0.0330807 -0.282835 0.199755
0.0245168 -0.326816 0.120287
0.00558271 0.412613 0.138257
0.0218204 -0.331498 0.253492
0.00787426 0.298632 0.342327
0.0149214 -0.478332 0.217028
0.00362068 0.243919 0.12379
0.00706212 -0.382895 0.280848
0.00872541 -0.384731 0.0231998
0.0081694 0.422318 0.0578597
0.0181908 -0.18483 0.116282
0.00522046 -0.234057 0.115633
0.00490795 0.280906 0.287837
0.00483048 0.220656 0.118438
0.0189163 -0.393381 0.0516753
0.022543 0.388905 0.183287
0.0972708 0.079688 0.271266
0.0178295 0.216701 0.0388691
0.000754233 0.269927 0.188737
0.0182411 -0.37119 0.301681
0.0215081 0.202185 0.16108
0.00174071 -0.28167 0.188153
0.0205302 -0.429198 0.180759
0.0215019 0.406249 0.195989
-0.0191085 -0.267978 0.269615
0.0185622 0.121867 0.182308
0.0249661 0.264432 0.201545
0.00769742 0.273637 0.00506526
0.0197238 0.171019 0.211386
0.00796007 -0.431891 0.25873
0.00300329 0.23447 0.159085
0.00314788 -0.385818 0.187946
0.0135267 -0.0544684 0.438306
0.00375469 0.329416 0.266096
-0.0843699 -0.35177 0.456464
0.00405847 -0.250483 0.123919
0.0180774 -0.462428 0.122269
0.00791229 -0.250795 0.377351
0.00134016 -0.35367 0.18916
0.00766392 0.131738 0.123147
0.0254293 0.321512 0.154347
0.00759297 0.365491 0.324132
0.0256988 0.296434 0.154358
-0.000640432 0.30923 0.1769
-0.0219616 0.106901 0.218161
0.00768993 -0.172374 0.100012
0.00560644 -0.427561 0.148142
0.00867929 0.462941 0.116486
0.0316207 0.176313 0.506679
0.00306761 0.144181 0.410654
0.0216373 -0.402123 0.208751
0.00799231 0.324309 0.356035
0.0192224 -0.338178 0.0368833
0.00868856 0.12272 0.215066
0.0077244 0.398953 0.306657
0.00843845 0.214417 0.344699
-0.0183523 0.200455 0.177279
0.026344 0.295913 0.20087
0.0254761 0.269482 0.187174
0.0217544 0.342319 0.0924346
0.0130162 -0.296044 0.513276
0.0384479 -0.30306 0.500874
0.0191104 0.444535 0.218851
0.00485915 0.210463 0.133091
0.00723028 0.282331 0.329467
0.0177467 0.206043 0.322391
0.0073277 0.166251 0.242626
0.00436188 0.301606 0.28051
0.00707321 -0.32693 0.295793
0.0238319 0.291974 0.121766
0.00928923 -0.0106367 0.448583
0.00737638 0.3202 0.332936
0.018197 0.461379 0.147367
0.0179973 0.140757 0.213425
0.00967553 -0.26357 0.310385
0.00967857 0.0877654 0.161007
0.00851386 -0.453305 0.0878506
0.0230804 0.335344 0.252474
-0.00635954 0.194911 0.332607
0.00788374 0.138193 0.239662
0.0185035 -0.226502 0.0354728
0.0152466 0.067949 0.490213
0.0184406 -0.187371 0.252086
0.071176 0.074187 0.271458
0.0185904 0.248464 0.00972931
0.0173067 -0.252236 0.508588
0.0174727 0.163302 0.507828
0.00833221 -0.458789 0.104082
0.0096286 0.281537 0.355465
0.018515 0.481613 0.20473
0.00553544 -0.300181 0.0620032
0.00692765 0.379732 0.0640596
0.00785242 -0.373455 0.314936
0.00356395 0.3601 0.244316
0.00697407 -0.198998 0.127301
-0.118276 0.081919 0.072311
0.00493072 -0.229017 0.191146
0.004329 0.207672 0.169575
0.00626209 0.397215 0.0933865
-0.00650646 0.143096 0.173717
0.00463679 0.405038 0.187589
0.0177438 0.388138 0.330871
-0.00273767 -0.250976 0.333114
0.0201696 -0.237529 0.243049
0.00597239 -0.429006 0.131551
0.0587232 -0.286067 0.189585
0.0185032 -0.28247 0.321889
0.0177772 0.308802 0.0144935
0.0203358 0.244417 0.07428
0.00856215 0.265052 0.0173691
0.0203292 0.423757 0.152103
0.0116609 0.104573 0.495411
0.0261562 -0.312013 0.18282
0.0177824 0.30192 0.352541
0.0194682 -0.231266 0.450211
0.0178155 0.160194 0.0691925
0.0185334 0.233242 0.0445995
0.00570163 -0.279588 0.265642
0.00269413 0.333718 0.122911
0.019992 -0.381312 0.0643829
0.0170727 0.115569 0.345848
0.0239317 0.357024 0.212517
0.0165791 0.430472 0.301043
0.0200657 -0.398529 0.25295
0.0203093 0.368377 0.290479
0.0256302 -0.248497 0.333041
0.0182079 0.185712 0.294146
0.00706986 -0.154755 0.314529
0.0184598 -0.333451 0.325849
0.00335511 0.374175 0.219239
0.00711068 -0.426928 0.0877553
0.00788849 0.351923 0.351013
0.0187179 0.120655 0.485023
0.0185937 0.470006 0.109277
0.00695155 0.235974 0.309879
-0.00443049 0.0905532 0.182063
0.0200947 0.276471 0.309137
0.00621641 0.132958 0.42107
0.00715916 0.365925 0.0515352
0.0104514 -0.123632 0.453987
0.00738678 0.438883 0.248116
0.0184682 0.374441 0.0205679
0.00759083 -0.16935 0.446047
0.0195134 -0.198653 0.145412
0.00793787 0.453025 0.240189
-0.01934 0.253429 0.263062
0.0200023 0.355058 0.302859
0.104016 -0.303978 0.420945
-0.01618 0.150792 0.489798
0.0195313 -0.26379 0.27573
0.0177503 0.351334 0.0202794
0.00826425 -0.181568 0.216661
0.0078386 0.157476 0.282134
0.00375588 0.255585 0.255373
0.00645773 0.423641 0.242076
0.00617943 0.336395 0.0587211
-0.096248 0.0735686 0.0645047
0.0209285 0.250542 0.284851
0.00297257 0.330157 0.251265
0.00748011 0.182933 0.277146
0.00577065 0.312834 0.304935
0.00596207 -0.395105 0.0802853
0.00352079 0.381161 0.157866
-0.0108041 0.306882 0.187605
0.0145134 -0.252324 0.34087
0.0436026 0.263476 0.237628
0.00464267 0.369245 0.105496
-0.00112651 0.16004 0.379749
0.0190217 -0.446976 0.122623
0.0180119 -0.192658 0.0922697
0.0175742 0.0865806 0.187329
0.0138064 0.163621 0.302564
0.025353 -0.354036 0.168882
0.0113487 0.302283 0.366873
-0.00608245 0.125746 0.492185
0.00544341 0.388977 0.105535
-0.0442366 0.0876203 0.0701582
0.0380716 0.231193 0.281456
0.000887651 0.273969 0.204815
0.00726794 -0.43629 0.233331
0.0187473 0.350378 0.328484
0.0217081 -0.267716 0.0936449
0.00835468 -0.470547 0.185902
0.00292727 -0.308145 0.228831
-0.00718751 0.0785617 0.479497
0.0309508 0.0858421 0.482327
-0.0813856 -0.323692 0.432408
-0.0764596 -0.289979 0.427799
0.0193666 -0.194379 0.165561
0.00794086 0.143919 0.17314
0.0178092 -0.268418 0.0236985
0.0186936 0.322335 0.0317523
0.0321256 0.138097 0.494832
0.0191086 0.223583 0.305397
0.0243433 0.328177 0.23136
0.0058732 -0.415594 0.224974
0.00856613 -0.239185 0.0359681
0.00476695 -0.337047 0.257996
-0.014442 0.16927 0.172573
0.0181864 0.197172 0.0612593
0.00671316 -0.325307 0.0413719
0.00721311 0.19378 0.0855627
0.00509537 -0.419715 0.178147
0.00277259 0.255092 0.13382
0.0216398 -0.256673 0.229767
0.0199393 -0.267429 0.0604207
0.0183467 0.4745 0.15269
0.0243523 0.283476 0.133607
-0.0236626 0.12653 0.153702
0.0251631 -0.312224 0.13124
-0.0127475 0.319839 0.19011
0.00754286 -0.195232 0.220673
0.0196505 0.168236 0.164829
-0.0356562 0.0951861 0.162169
0.0204677 -0.278233 0.26629
0.0185395 0.460922 0.271012
-0.0021775 0.112291 0.492593
0.0259633 0.316795 0.204881
0.000739636 0.298826 0.216839
0.010007 -0.0888881 0.272437
0.0177563 0.476942 0.180627
0.00454268 -0.295125 0.0790948
-0.0152118 0.0963386 0.179721
0.00688251 -0.279605 0.0455675
0.0200715 -0.305095 0.0509043
-0.112204 0.103093 0.0715723
0.00439083 0.238071 0.256471
0.0212887 -0.303452 0.260605
0.0225806 -0.376393 0.112254
0.00734353 -0.18867 0.187816
0.0184671 -0.219836 0.0679064
0.00750883 0.171978 0.106606
0.0187926 0.283517 0.0330897
0.0229557 0.225315 0.178327
0.00208707 0.358572 0.196988
0.0243475 0.261435 0.149872
0.0186208 0.458097 0.178531
0.0216655 -0.270759 0.240663
0.019601 -0.210553 0.111001
0.0165091 -0.153901 0.443352
0.108107 -0.344113 0.440355
0.0211793 -0.287164 0.0734685
0.00894446 -0.41446 0.290738
0.00791598 -0.347932 0.306504
0.0246691 -0.342677 0.127666
0.00803029 -0.0441858 0.24927
0.0184088 -0.428574 0.282871
0.0185734 0.241117 0.354156
0.0184338 -0.404616 0.301555
0.0174796 0.108549 0.374881
0.0225963 -0.333794 0.0903426
0.0076605 -0.312963 0.328967
0.01721 0.181503 0.0598025
0.0140236 -0.298202 0.500167
0.0442839 0.298979 0.18671
0.0206887 0.203777 0.119789
0.0195228 0.417028 0.263317
0.00644217 0.10645 0.316702
0.0190658 -0.22689 0.257422
0.0221818 0.393847 0.169154
0.0178665 0.246139 0.341052
0.0183231 0.134382 0.144636
0.00448444 -0.395532 0.114784
0.00693425 0.112915 0.440716
0.0373569 0.177982 0.17025
0.00304927 -0.366822 0.214699
0.0100687 -0.483191 0.130688
0.00365416 -0.397958 0.169394
0.0191905 0.167327 0.135228
-0.103138 0.0945426 0.0637719
0.00845281 -0.353527 0.0171285
0.00766654 -0.455961 0.128298
0.00304294 0.258402 0.242135
0.012909 0.109971 0.401225
0.0152758 0.449514 0.294327
0.0206414 -0.227085 0.215257
0.0163573 0.010668 0.448109
0.00657357 -0.211443 0.21853
0.0049297 -0.25852 0.238232
0.00453463 -0.233301 0.147622
0.0199642 0.385926 0.284642
0.0185748 0.303042 0.00214099
0.019816 -0.246852 0.0716669
0.00546408 0.231002 0.0926829
0.00348177 -0.274438 0.221603
0.00778989 -0.167245 0.206427
0.00791269 0.211551 0.330892
0.00585904 0.200885 0.252303
0.00661857 -0.103642 0.448217
-0.0213212 0.0689978 0.177155
0.0203981 0.183443 0.213398
0.0187232 0.186554 0.0857588
0.0069637 -0.215806 0.0928523
0.023606 -0.305833 0.223563
0.00520119 0.348549 0.285763
0.021486 0.250845 0.0935605
0.0235726 0.258921 0.133118
0.0254697 0.331261 0.164111
0.0194618 -0.415607 0.248866
0.0176376 0.243898 0.0220434
0.0213965 0.396555 0.133966
0.00568684 -0.401288 0.238852
0.0206312 0.202011 0.245894
0.0244934 -0.284096 0.192508
0.0222164 0.230055 0.238429
0.0199975 0.306183 0.313486
0.0185695 0.445846 0.245806
0.0064406 -0.280369 0.278954
0.018754 0.383497 0.0546806
0.00857119 -0.19517 0.333778
0.00522172 0.198284 0.143983
0.00230718 -0.373416 0.147905
0.00654489 0.271197 0.315233
0.00765971 -0.183604 0.147271
0.0190737 0.201523 0.0776073
0.00422877 0.221963 0.232053
0.0225406 0.377303 0.226287
0.0229055 -0.354097 0.229167
0.00921128 0.038568 0.200865
0.0232449 0.246031 0.22948
0.0239236 -0.283811 0.125546
0.00717004 0.0986481 0.22164
0.00770497 0.441253 0.0671216
0.00725696 -0.39755 0.0563014
0.00763133 -0.403953 0.0227246
0.0208458 0.279396 0.296286
0.0214698 -0.228723 0.153326
0.0231386 0.332158 0.114491
0.010537 0.123309 0.403912
0.00785463 -0.363901 0.30215
0.00419671 0.266721 0.270303
0.00463687 0.204781 0.210016
0.0181227 -0.442824 0.248356
0.00224962 -0.269607 0.178927
0.00710061 0.168955 0.127313
0.00723208 -0.220217 0.0799362
0.00383201 -0.333225 0.0872036
0.0859272 -0.317239 0.505334
0.00971035 -0.240993 0.468884
0.0177827 -0.176645 0.333249
0.112255 -0.33053 0.433323
0.00796078 -0.239031 0.283733
0.00886905 0.148851 0.505022
0.00771776 -0.483333 0.177872
0.00508593 0.409198 0.21156
0.0125096 0.0111319 0.214836
0.018453 0.167451 0.262593
0.0239991 -0.373971 0.17866
0.0192726 0.387546 0.0684702
0.0178732 0.116922 0.361946
0.00654701 -0.200954 0.183612
0.0198186 0.427097 0.13482
-0.0668237 -0.324161 0.500518
0.0196296 -0.173496 0.448656
0.0223544 -0.251049 0.128088
0.0171423 -0.281495 0.0146953
0.0183503 -0.165334 0.174288
0.0340628 -0.251456 0.322402
-0.0195395 0.304666 0.179861
0.0176526 -0.207914 0.269514
0.00560379 0.378037 0.275741
0.00722789 0.295211 0.331068
0.00431738 0.274878 0.0915518
-0.020226 0.111753 0.201176
0.0246746 0.268072 0.216274
0.0119714 0.155989 0.0923376
-0.0232252 0.109345 0.176045
0.0114841 0.181423 0.0463441
0.0216652 -0.256117 0.102961
0.0101877 0.419657 0.312265
0.00371181 -0.342416 0.240105
0.0177886 0.393035 0.040658
0.00673245 0.439235 0.155488
0.0184736 -0.214562 0.455434
0.00527781 0.400661 0.126246
0.00719026 -0.243328 0.346589
0.0228001 -0.387412 0.134182
0.0508834 -0.297338 0.510816
0.00788898 0.204908 0.0590129
0.00824052 0.408414 0.0557079
0.0187034 0.351784 0.0385201
-0.0206147 0.058339 0.208066
0.00697834 0.411763 0.0904395
0.0184828 0.476111 0.22802
0.036567 0.0943675 0.186513
0.00353211 0.285068 0.103235
0.0184897 0.393104 0.31183
0.018897 -0.200443 0.223816
0.00251018 -0.287385 0.212196
0.00762178 -0.182308 0.161322
0.047544 0.271255 0.181815
0.0169716 -0.470683 0.238002
0.0014123 -0.291773 0.137936
0.0269096 -0.314501 0.168212
0.00833834 -0.188569 0.234767
0.00627545 -0.378797 0.268707
0.00638615 -0.268687 0.272379
0.0184927 -0.446118 0.231913
0.000251 -0.299553 0.161919
0.00761048 -0.405298 0.276178
0.0119632 0.0422784 0.447536
0.00240977 0.268104 0.131819
0.0128907 -0.123509 0.305598
0.0191652 -0.210788 0.234107
0.00793625 0.364398 0.036188
0.00582174 -0.333384 0.055711
0.00781869 0.0269311 0.44562
-0.024213 0.0959026 0.173512
0.00678623 -0.222975 0.243259
0.0576212 -0.272274 0.241363
0.00763735 0.373895 0.0153449
0.0183245 -0.41874 0.0437367
0.00673831 -0.190203 0.448709
0.0182239 -0.277429 0.30402
0.00859435 0.199467 0.0475578
0.011859 0.12081 0.200947
0.0124722 -0.240022 0.482672
0.00535843 0.26754 0.292647
0.00762559 0.411104 0.331424
-0.0211093 0.12694 0.141318
0.0198647 -0.419653 0.233578
0.0203013 0.386523 0.0903139
0.0227222 0.366733 0.13102
0.0147118 -0.00134876 0.235284
0.0180127 -0.393791 0.0357379
0.116805 -0.357697 0.470025
0.0076449 -0.463699 0.247786
0.020732 -0.313768 0.0600354
0.0176883 -0.348104 0.0141437
0.0400122 0.204907 0.180153
0.103764 -0.312964 0.42976
0.00632298 0.435031 0.182867
0.00651118 0.347545 0.0562723
0.00826875 0.444628 0.0976712
0.0190883 -0.345194 0.294805
0.0235428 -0.368725 0.126678
0.120817 0.0853188 0.275232
0.0199099 0.433506 0.165295
0.000244942 -0.301874 0.175908
0.00490056 0.328714 0.0801074
0.0418958 0.096404 0.244764
0.017655 0.227316 0.337338
0.0217637 -0.237273 0.137386
0.0188 -0.0408584 0.441007
0.101926 -0.290593 0.425076
0.0080192 -0.247186 0.0180108
0.0116131 -0.294178 0.00308066
0.0291144 0.190057 0.338649
0.00750496 0.426015 0.0930103
0.00180353 -0.288903 0.199249
0.0201373 -0.436412 0.160704
0.00700364 0.405988 0.284
0.0192374 -0.384563 0.278758
0.019705 0.0891123 0.173173
0.0184671 -0.204266 0.0568101
0.000378813 0.324392 0.200692
0.0245832 0.255104 0.172578
0.00691172 0.212552 0.0748019
0.00836247 0.464704 0.226821
0.0184818 0.426451 0.0544217
-0.0208539 -0.320149 0.165314
0.0232674 0.371383 0.158944
0.0246715 0.344522 0.208388
0.0214042 0.203203 0.216157
0.0183493 -0.177633 0.10357
0.00731337 0.125366 0.486257
0.0324458 0.215108 0.308631
-0.0857085 -0.344478 0.424556
0.00640308 0.179752 0.133414
0.0183367 -0.354388 0.318359
0.00691189 -0.22859 0.35719
0.0040384 -0.399106 0.192599
0.0180994 0.163422 0.0990098
0.0267529 0.303287 0.172404
0.0237666 -0.359049 0.209484
0.00851052 -0.466492 0.214139
0.0184736 0.14782 0.203355
0.00946072 -0.0976003 0.289345
0.00672221 0.1138 0.391308
0.00229247 0.277514 0.238656
0.00787697 -0.294111 0.32056
0.00570861 -0.212651 0.162776
0.0220511 -0.288655 0.0877198
-0.0202259 0.0851174 0.159275
-0.0290246 0.304929 0.193754
0.0183672 0.276036 0.0106415
0.0083931 0.150474 0.113851
0.0190849 -0.396549 0.273499
0.00795483 0.383514 0.336951
0.0184598 0.486501 0.189236
0.00851995 -0.304473 0.0133732
0.00520303 0.412967 0.161275
0.00123768 -0.320687 0.12784
0.0239246 0.279208 0.239851
0.020882 -0.387118 0.0861118
0.0195105 0.106532 0.299122
0.0222847 -0.257549 0.215072
-0.0925768 0.0938418 0.071895
-0.0137045 0.135435 0.48704
0.0212859 -0.393511 0.230343
0.0229857 -0.366625 0.21926
0.0213454 -0.305456 0.0712621
0.0188855 -0.291186 0.296633
0.0183459 0.18654 0.313039
0.0190251 0.156042 0.180789
0.0184157 0.280133 0.339712
0.0177861 -0.255913 0.3067
0.0190795 -0.190918 0.179945
0.017918 -0.242838 0.293888
0.0147352 -0.476988 0.155092
0.00392006 0.384435 0.146204
0.017846 -0.167277 0.145789
0.0257022 0.285608 0.159775
0.00768563 0.464018 0.26664
0.0163889 0.345856 0.00522971
0.0143491 0.0559449 0.446963
0.0193572 -0.438338 0.114208
0.0185944 -0.379066 0.292427
0.00754753 0.237911 0.321963
0.00525507 0.397385 0.246374
0.00647374 -0.205275 0.196874
0.00132149 0.0565178 0.481759
0.00783781 0.233296 0.344973
0.0101763 0.0642612 0.185599
0.0190924 0.296785 0.0379651
0.00428385 0.316746 0.278689
0.00818036 -0.256924 0.032743
-0.0213185 0.0328613 0.161654
0.0182558 -0.315122 0.0209094
0.0195185 -0.244848 0.369106
-0.076431 -0.318357 0.422908
0.0181571 0.0279351 0.215126
0.104337 -0.345192 0.478846
0.0216414 0.320021 0.283674
0.0162447 0.197858 0.0336419
0.00813126 0.140706 0.198013
-0.0771972 -0.360504 0.469564
-0.0839459 0.0849555 0.0641069
0.0251062 0.343511 0.187822
0.00402589 -0.250786 0.206829
0.0185052 0.343114 0.358256
0.00772384 -0.320613 0.305896
0.0184307 0.216785 0.315174
0.0206205 0.219141 0.267922
0.00394569 -0.291962 0.0905706
0.00742071 0.170952 0.255926
0.0195931 0.237734 0.0630498
0.00395376 0.379779 0.230962
0.0261982 -0.339672 0.171318
0.0171464 -0.255465 0.0245154
0.0143788 -0.454487 0.067377
0.00494655 0.216213 0.246686
0.0198259 0.403645 0.096171
0.0221281 -0.405012 0.16192
0.0193225 0.179152 0.252535
0.0184117 -0.0909647 0.450466
0.0204464 -0.413164 0.103693
0.0256851 0.295126 0.212938
0.0176472 -0.387214 0.306967
0.0324411 0.150904 0.176021
0.00842095 -0.215816 0.274684
0.00666876 0.0802507 0.440938
0.00181793 -0.303306 0.209071
0.00824943 -0.0225646 0.244837
0.01852 0.180072 0.280328
0.0190198 -0.411173 0.263597
0.00787673 -0.209935 0.0551649
0.0185395 0.482183 0.16168
0.0073949 0.0972372 0.206744
0.00613395 0.424008 0.141356
0.0185138 -0.255446 0.289527
0.108203 -0.26411 0.417475
0.00836214 -0.20121 0.0745042
0.0176798 -0.434918 0.0617401
0.00720246 0.328698 0.0390975
0.0196025 -0.00161372 0.444145
0.0112558 0.128328 0.463344
0.00307412 -0.255784 0.153273
0.005132 -0.27068 0.251383
0.0084426 0.395388 0.331023
0.00778166 0.166265 0.0704389
0.00217759 0.351951 0.150787
0.102331 -0.354591 0.448235
0.00808599 -0.289209 0.30797
-0.0108044 0.286923 0.203391
0.0188647 0.449918 0.14995
0.017723 0.133254 0.179488
0.00616918 0.247999 0.29999
0.00571973 0.323958 0.0646497
0.0227279 0.347059 0.253322
-0.0108043 0.296619 0.183109
0.0179112 0.335847 0.34711
0.000883596 -0.335277 0.136197
0.00728874 -0.427661 0.247829
0.0209107 0.176894 0.511363
0.0249085 0.334582 0.21455
0.116021 -0.351742 0.44572
0.00840646 -0.464111 0.114491
0.00173522 0.34965 0.162909
0.0210954 -0.366988 0.254741
0.00801805 -0.327151 0.0207872
0.00971137 0.0891112 0.214844
0.0199437 -0.335454 0.0482098
0.0197426 0.20701 0.0892621
0.0185182 0.306263 0.027592
0.00803599 -0.198778 0.344854
0.0186308 -0.436058 0.0862759
-0.0196089 -0.308086 0.503094
-0.0818689 -0.35645 0.483589
0.00721036 0.333158 0.327526
0.00695921 -0.364486 0.0440507
0.0206054 0.184076 0.177357
0.0236937 0.28036 0.122296
0.018334 -0.379051 0.0200169
0.00933602 -0.261272 0.510407
0.018523 0.458361 0.199263
0.00522327 0.239761 0.275782
0.00750924 0.204511 0.300347
0.0196207 0.195953 0.269022
-0.0132004 0.22487 0.291493
0.00661621 -0.0663351 0.446678
0.0179833 -0.158537 0.313592
0.00523421 0.262291 0.078777
0.00429963 0.358678 0.261749
0.00366647 0.301283 0.268298
0.00122837 0.319681 0.144922
0.00783213 -0.228854 0.294079
-0.0136938 0.174723 0.499426
0.000953818 -0.353437 0.175481
-0.0287855 0.280272 0.178538
-0.0108044 0.302983 0.167049
0.0191842 -0.199715 0.121301
0.0181254 0.145922 0.227044
0.0181698 0.14947 0.132409
0.0227958 -0.347255 0.0970737
0.0135973 -0.452499 0.26727
0.0190475 0.449512 0.17086
0.0212948 0.30588 0.290695
0.00706167 0.260052 0.0456574
0.00771142 -0.429873 0.286905
0.00834768 0.469731 0.194666
0.0183481 -0.261605 0.0356814
0.00538012 0.192316 0.154476
0.0076851 0.355762 0.00962254
0.0241885 0.316577 0.128593
0.0034995 -0.261828 0.122331
-8.65897e-05 -0.309619 0.153517
0.00584838 -0.404554 0.0921587
-0.000623444 0.299124 0.191951
-0.00430901 0.17553 0.359662
0.0195301 0.329295 0.319502
0.0179907 -0.251631 0.407946
0.00443892 -0.262381 0.0995892
0.0187069 0.152175 0.157856
0.00236427 0.245337 0.204856
0.010758 0.10745 0.268517
0.019718 -0.205973 0.20218
0.0210531 -0.272047 0.253065
0.0034128 0.346718 0.251303
0.00605121 0.218528 0.0892881
0.0223164 -0.246626 0.194828
0.020697 -0.409846 0.224474
0.00773027 -0.444764 0.0980604
0.01916 -0.244176 0.348711
0.00738224 -0.455769 0.149685
0.0188115 -0.239066 0.273195
0.00840797 0.182031 0.0670379
0.00694008 0.178142 0.116185
0.0232582 0.0559132 0.48336
0.000163546 0.312528 0.20511
0.00821719 0.466103 0.159979
0.00792534 0.342284 0.338199
0.00355862 -0.315347 0.239861
0.0155414 0.129237 0.493081
0.00684707 0.275292 0.0458138
0.0241889 0.359829 0.180109
0.0178206 0.153008 0.108043
0.00481436 -0.242169 0.21706
0.0078014 -0.168264 0.121383
0.00675699 -0.446437 0.176129
0.00349334 -0.288159 0.23111
-0.00638918 0.142188 0.497005
0.116963 -0.343275 0.430474
0.116987 -0.303098 0.424629
0.0207718 -0.42685 0.169684
0.00859437 -0.360899 0.315023
0.00351504 -0.370002 0.109779
-0.0290389 -0.27362 0.220865
0.0073449 -0.3008 0.298763
0.0199052 -0.226137 0.0948985
-0.0218892 0.249638 0.181141
0.0214309 -0.388814 0.0988604
0.0397502 -0.249236 0.298081
0.00121944 0.270363 0.15768
0.00516473 0.357274 0.0862277
0.0190318 0.263198 0.325658
0.00662189 -0.217241 0.230905
0.00770816 0.129396 0.136399
0.00813856 0.177539 0.288205
0.00607593 -0.252439 0.256434
0.0179517 0.431976 0.0782688
-0.00352162 -0.296197 0.509748
0.00846285 0.139388 0.142528
0.00855216 -0.186566 0.0925118
0.0184024 -0.463936 0.161759
-0.0241129 0.0717437 0.124843
0.0202738 0.416418 0.237447
0.0195005 -0.206008 0.214075
0.0078613 -0.166016 0.194613
0.00558072 0.28438 0.0664442
0.0158917 -0.219596 0.445629
0.00766491 0.387566 0.0537259
0.018445 -0.218328 0.0431656
0.0181469 -0.20412 0.252985
0.00929331 -0.156431 0.157656
0.00818422 0.30858 0.347478
0.00234672 -0.343685 0.114631
0.0185346 0.471005 0.251614
0.00846272 -0.225498 0.0472826
-0.000414578 0.294741 0.173938
0.0191919 0.4381 0.132894
0.00854428 0.369715 0.340604
0.00775134 0.332926 0.00738172
0.0185162 0.125261 0.157594
0.0214789 -0.41365 0.184066
0.0608616 -0.275493 0.215468
0.00580161 -0.303977 0.274482
0.00720622 -0.355943 0.293669
0.0220666 0.340612 0.269659
0.017823 -0.0574999 0.264468
0.0185708 0.379523 0.31893
0.0114405 0.261047 0.362086
0.00693469 0.427497 0.252547
0.013201 0.365438 0.356947
0.00849756 -0.241927 0.370627
-0.020226 0.135771 0.158879
0.0185877 0.172624 0.310109
0.00783261 0.299544 0.025906
0.00781137 0.172269 0.0948811
0.0221336 0.306432 0.091128
0.0217515 0.209167 0.152438
-0.0236841 0.0954182 0.22141
0.00231898 -0.286972 0.122928
0.00709961 -0.452489 0.16553
0.0213147 0.397878 0.233398
0.00109196 -0.305147 0.134013
0.0181737 0.31733 0.0215806
0.0186583 -0.365998 0.0342556
0.0184655 -0.257649 0.0137195
0.054851 -0.265569 0.256247
0.0178028 -0.406568 0.0396174
0.0196797 0.265058 0.0534184
0.00734265 -0.290372 0.0348114
0.0057151 -0.380573 0.256772
0.0178572 -0.163777 0.45425
0.00778234 -0.387665 0.311373
0.0185203 -0.19423 0.0650102
0.00847959 -0.451341 0.245335
0.0811482 -0.300791 0.50666
0.00831241 0.427317 0.294317
0.0189072 -0.319301 0.031337
-8.60374e-05 -0.338761 0.164727
0.0359312 0.0820584 0.168287
0.00697569 0.186873 0.266862
0.0988491 -0.324291 0.491275
-0.0637771 0.0927252 0.0638354
0.0187844 -0.214762 0.249984
0.00848396 0.265158 0.348679
0.0215391 0.215982 0.128563
0.0178847 -0.303828 0.315441
-0.0110034 -0.24228 0.332856
0.0203675 0.314853 0.306726
-0.0117594 0.105535 0.480872
0.00254192 -0.378603 0.179678
0.0227283 0.342681 0.111351
-0.0547925 0.0992813 0.07032
0.00198663 -0.324794 0.215278
0.00122428 0.169176 0.509556
-0.046151 -0.302512 0.512212
0.00606885 0.190072 0.241791
0.0176464 0.142287 0.241849
0.00713844 -0.253133 0.278062
0.0193485 0.401771 0.286028
0.0244398 0.334105 0.141896
0.0177575 0.415248 0.055838
0.00758224 0.120274 0.476584
0.0201068 0.411378 0.114948
0.00673724 0.123601 0.44419
0.0102243 0.113862 0.428477
0.0184322 0.218474 0.0502522
0.0252987 -0.31355 0.197962
0.00230114 0.301045 0.24431
0.0032483 -0.296529 0.100588
0.00787354 0.240247 0.0201397
-0.078347 -0.33758 0.483587
0.0182758 -0.329005 0.310003
-0.0909056 -0.346136 0.433971
0.0194306 -0.368237 0.282611
0.0186465 0.404063 0.29988
0.020885 0.339476 0.292578
0.0201971 0.184516 0.226871
0.00744067 0.158913 0.139736
0.00414354 -0.244434 0.133156
0.0217429 0.268052 0.276606
0.0202261 -0.257935 0.259514
0.00662565 0.168686 0.207995
0.00778827 0.460918 0.18111
0.0195276 -0.143315 0.446907
0.000241664 0.296658 0.159771
0.00227024 0.347098 0.225173
0.018596 -0.162626 0.205666
0.00799358 -0.251561 0.437285
0.0259895 0.285113 0.200749
0.0423115 0.119916 0.480211
0.00783125 -0.163328 0.172847
0.0195742 -0.392083 0.0638178
0.021538 -0.229613 0.177347
0.00121947 -0.344722 0.195194
0.0240844 0.358476 0.201825
0.0230591 -0.309836 0.505538
0.00770274 -0.482795 0.143919
0.00689735 0.162303 0.196331
0.0183033 -0.463065 0.192444
0.00798677 0.227416 0.325979
0.0185936 -0.481871 0.20353
0.0053862 0.299282 0.0689088
0.0100179 0.376742 0.0268212
-0.0411689 0.0836864 0.102299
0.00776915 0.285658 0.339671
0.00694787 0.191069 0.0959467
0.00610113 -0.257194 0.0708577
0.01813 -0.180957 0.20608
0.0180181 -0.332254 0.00102364
0.00605408 0.176245 0.184274
0.0206179 0.238563 0.0832532
0.00295533 0.366672 0.14868
-0.0906914 -0.343046 0.486149
-0.0458134 0.0887095 0.120811
0.0087509 -0.33442 0.321496
0.00666397 -0.264675 0.0554172
0.0180645 0.456046 0.286183
0.00769171 0.293341 0.00315184
0.0195726 0.0989654 0.237372
-0.0827875 -0.329701 0.420733
0.0196216 0.26748 0.315929
0.00783086 0.478399 0.129465
0.00809014 0.430749 0.284247
-0.0345917 0.096394 0.178703
0.0137637 0.289015 0.0110156
0.0205036 0.321418 0.0638282
0.0194451 0.104494 0.278964
0.00599185 0.212627 0.270461
0.0183502 -0.191561 0.078357
0.0244234 -0.2745 0.167278
0.0234367 0.248552 0.140384
0.0751757 0.0998863 0.270561
0.00151264 0.286787 0.139378
0.00263875 0.287302 0.118807
0.018365 -0.138493 0.302851
0.0067583 0.437008 0.145128
0.0191712 0.442012 0.142741
0.0183536 0.465761 0.12109
0.00605704 -0.242973 0.0829531
0.020766 0.129875 0.426462
0.00773677 0.292209 0.363225
0.0109369 0.444752 0.284208
0.00637606 -0.354897 0.28055
0.023694 -0.375303 0.18925
0.0137774 0.0214451 0.435247
-0.0861884 0.0765818 0.0724972
0.0219479 0.364879 0.256866
0.00762275 0.00536492 0.227233
-0.00948425 0.0987748 0.165737
0.0247288 -0.326053 0.20785
0.00331661 -0.260125 0.200575
0.0261099 0.280764 0.180383
0.00819923 -0.251261 0.467153
0.00477206 -0.415876 0.168269
