0.00203215 0.302215 0.000229004
-0.00408176 0.431152 0.0532398
0.0113262 0.278238 0.202311
-0.00152272 -0.222238 0.341296
-0.00896023 -0.47762 0.20248
0.00438443 -0.228082 0.534654
-0.00299305 0.424207 0.0470836
0.000573943 -0.294834 0.342598
0.00800202 -0.135217 0.231173
-0.00567576 -0.144303 0.101578
0.00618979 -0.202495 0.427165
-0.00239835 0.0271769 0.431426
0.0342867 0.180768 0.50624
-0.00629704 0.142721 0.106193
0.00265155 0.133309 0.126702
0.00268398 0.140022 0.428714
0.00592301 -0.148368 0.437488
-0.0367291 0.0664449 0.159261
-0.00635903 0.174098 0.0949638
0.00442794 0.174806 0.351839
-0.00607175 -0.477698 0.143863
0.00697089 0.227866 0.0420883
-0.0505124 0.00163728 0.0754924
0.00654135 -0.439506 0.0945857
0.00627473 -0.267977 0.245365
0.008427 0.102718 0.524565
0.0335232 -0.296464 0.186916
0.00963056 -0.162867 0.285251
0.030864 0.189469 0.331009
-0.0276113 0.301022 0.186512
-0.0103191 -0.302861 0.182313
0.00141583 -0.171182 0.476235
-0.00412452 0.169694 0.102537
0.0229656 0.104788 0.264441
0.0457668 0.299794 0.183123
-0.00464421 -0.139423 0.249992
-0.00663013 0.471733 0.122531
-0.0247023 0.0616403 0.176847
0.00145553 0.214969 0.0246938
-0.00524055 0.060952 0.296677
0.00124087 -0.172302 0.274451
-0.00681516 0.0134696 0.238415
0.00575848 -0.417501 0.318699
0.00343273 0.0566103 0.17034
-0.00459482 -0.037114 0.323485
-0.00795666 0.167378 0.0696431
0.00565972 0.286159 0.357629
0.0430052 0.067124 0.180725
-0.00697095 0.435454 0.266672
-0.0378711 0.242187 0.200707
-0.00619265 -0.306337 0.3591
0.00706514 -0.015313 0.281601
0.0104726 0.408488 0.314117
0.0281626 0.177816 0.234969
-0.0136891 -0.229907 0.532411
0.00974134 -0.21451 0.0437152
-0.0079502 -0.181505 0.39833
-0.0252584 0.0663035 0.210607
0.00697089 0.176356 0.0834737
-0.00269719 -0.311595 0.294867
-0.010627 0.362491 0.0216027
-0.00798655 0.143667 0.252591
-0.02925 0.047313 0.15944
0.00894271 -0.281913 0.343644
-0.0230055 0.00919465 0.159306
-0.00847248 0.482969 0.181798
-0.00650285 -0.237237 0.0353215
-0.00260362 -0.216788 0.338956
-0.00197823 0.386206 0.0204281
0.000356267 0.25213 0.331993
-0.00454038 0.127802 0.426266
0.00262346 -0.459721 0.224762
0.00426825 -0.195243 0.323389
-0.00686782 0.445124 0.102398
-0.00859707 -0.22433 0.337549
-0.00792233 -0.380677 0.3248
-0.0095303 -0.464779 0.24796
-0.00697095 -0.333104 0.337764
-0.00097576 0.188471 0.100232
0.00261329 -0.403012 0.0313662
-0.00665103 0.122686 0.378448
-0.0087553 -0.481443 0.199761
0.00293201 -0.0339427 0.320445
0.00697089 0.461932 0.160285
0.00861263 -0.185759 0.0698666
0.0358483 -0.240654 0.323224
-0.0237349 0.0314042 0.131406
0.00818695 0.198463 0.324461
0.0278994 -0.236655 0.336748
0.00068296 0.350238 0.025624
-0.000958052 -0.143651 0.179949
-0.0041244 -0.482396 0.200623
0.0365842 0.258146 0.244367
0.000639866 -0.169238 0.463902
0.0063677 0.011267 0.429404
0.01023 -0.137966 0.13885
0.000754288 -0.167487 0.424645
0.00171274 -0.137218 0.246328
0.0106829 -0.14783 0.119687
0.00992328 -0.454928 0.251565
0.00828615 -0.471005 0.127074
0.0123868 0.0500008 0.163302
0.0970462 0.128878 0.244943
-0.00889886 -0.410303 0.305981
-0.010051 0.304877 0.176172
0.040401 0.095401 0.20825
0.122668 -0.225063 0.524872
0.00772473 0.3588 0.198516
0.00676341 -0.266923 0.355022
0.00381951 -0.00318653 0.271539
-0.0169681 0.107804 0.536667
0.00160209 0.27029 0.00347688
-0.00615775 -0.200551 0.0375122
-0.0187679 0.308308 0.170244
0.00547953 -0.126122 0.178505
-0.00643333 -0.0744142 0.346055
0.00405194 -0.170283 0.463897
0.00525401 -0.154616 0.123383
0.0105359 -0.455173 0.259195
-0.00845157 0.24502 0.331407
0.0171994 0.299618 0.176471
0.00881641 0.129917 0.172543
-0.00887739 -0.359512 0.34775
0.00632139 0.0864511 0.249198
-0.0241145 0.190933 0.34742
0.00828041 -0.432654 0.0620466
0.00541109 0.194702 0.499814
0.00515966 -0.299966 0.283743
0.00434261 -0.174626 0.0572926
0.00952928 0.308265 0.00131998
-0.0240953 0.293081 0.181007
0.00146251 -0.124676 0.176201
0.00369958 0.459739 0.168423
0.000122888 0.427174 0.0847009
-0.00776468 0.422869 0.290301
-0.0218125 0.00959497 0.154204
-0.000518085 0.0460846 0.196455
-0.0253828 0.314981 0.194118
0.0033878 -0.0161808 0.268692
-0.00920174 0.309928 0.169444
0.010351 -0.197685 0.310268
0.00697089 -0.309513 0.0249601
0.101101 -0.227158 0.533972
0.00348712 -0.461602 0.215668
0.0325705 -0.228226 0.349434
0.00945926 0.211724 0.326738
0.0102731 0.461252 0.248821
-0.0101218 -0.313882 0.170815
-0.00804012 -0.482449 0.162787
-0.00648831 -0.229385 0.525718
-0.008085 -0.107262 0.365463
0.00142298 -0.13211 0.439134
-0.00697095 0.441297 0.102689
0.144741 -0.22175 0.522734
-0.14696 -0.2208 0.534762
-0.01009 -0.224016 0.327069
0.0027921 0.281996 0.35859
-0.0514009 0.0179734 0.0752872
0.00477082 0.455552 0.234445
0.00869854 0.28085 0.353204
0.00438676 -0.127092 0.159455
0.0486219 0.113626 0.240526
-0.00102651 -0.46278 0.208858
-0.000582485 -0.422856 0.0998763
-0.038233 0.232686 0.537462
0.0081309 0.165232 0.287261
0.00645442 0.443781 0.249237
0.00766411 0.331511 0.219892
-0.0268157 0.0530938 0.151206
0.00316389 0.465067 0.178453
-0.00706209 0.265871 0.250531
-0.00469204 0.35673 0.350607
0.00459688 0.156489 0.28064
0.00943654 -0.282886 0.359475
-0.0124737 -0.183225 0.475623
0.0262104 0.0576007 0.155633
-0.00500117 -0.207057 0.177213
-0.0215048 0.296826 0.145638
-0.00737423 -0.251234 0.0132131
-0.00282056 0.457207 0.229942
0.00606863 0.155155 0.224139
-0.00131327 0.149368 0.271043
-0.0100428 0.141495 0.21089
-0.00810261 0.0182036 0.424745
-0.0280124 0.318447 0.164446
-0.022049 0.226973 0.550465
-0.00215165 -0.378295 0.071695
0.00276614 0.0655032 0.16663
-0.0330315 0.0113534 0.0811402
0.166399 -0.217752 0.524525
-0.00888744 0.293669 0.354296
-0.0324717 0.231563 0.527416
-0.00358613 -0.199849 0.296978
-0.0058857 0.376312 0.0173614
-0.0123868 0.0506622 0.154991
-0.00808738 -0.131734 0.376633
-0.00667948 0.171477 0.0603506
-0.00687655 -0.0415483 0.316176
0.00905901 0.0599335 0.170131
-0.00636184 0.0829452 0.261964
-0.00694907 0.384899 0.17901
-0.00278175 0.413558 0.206611
-0.0076077 0.29112 0.356194
0.00912947 0.144178 0.248616
0.00813768 0.200994 0.324943
-0.00232822 0.480678 0.210816
0.00466553 -0.440213 0.0958021
-0.00294544 -0.450743 0.0779736
-0.021245 -0.225308 0.5352
-0.00108612 -0.183293 0.0494905
0.00420013 -0.428133 0.0793547
0.00981966 -0.270897 0.0203427
-0.00531893 -0.16107 0.438633
0.00268543 -0.423169 0.0479698
-0.00212129 -0.328396 0.0043259
0.00382888 0.446504 0.288601
-0.0253828 0.313591 0.192722
-0.00743599 -0.456246 0.0921909
-0.0102302 -0.267707 0.0144153
0.00329861 0.298576 0.178831
0.00959904 -0.215591 0.524741
-0.00296329 -0.282855 0.0279005
0.0041584 -0.179772 0.45617
-0.00198287 -0.37016 0.328894
-0.00315363 -0.325262 0.00332298
-0.00649355 -0.213289 0.363542
-0.00531784 0.309174 0.335332
-0.00697095 -0.14801 0.172133
-0.0099804 -0.229485 0.525972
0.00313514 -0.194263 0.324338
-0.0792643 0.0214876 0.0859056
-0.0283637 0.184149 0.354494
0.00697089 -0.228528 0.0462133
-0.0167636 0.130101 0.544178
-0.00334342 0.145921 0.206872
-0.00967039 -0.46743 0.160257
-0.00732503 0.0084654 0.420916
0.00672695 -0.0406097 0.314038
0.00243885 -0.112957 0.360506
0.00106018 0.31135 0.0192939
-0.0237349 0.0884756 0.15917
-0.00935753 -0.151698 0.0984726
-0.00350221 -0.173394 0.265661
-0.00274257 -0.448661 0.288173
0.00217839 0.172674 0.170149
-0.0041033 0.165863 0.109125
-0.029082 0.172875 0.242078
-0.0292774 0.21312 0.506133
-0.0106076 -0.148415 0.246966
-0.0477656 0.204673 0.541545
0.00727149 0.372999 0.342843
-0.00876811 -0.332274 0.219876
0.0103592 -0.211195 0.324927
-0.0087003 0.143166 0.155803
0.0101974 -0.469677 0.134508
-0.00378221 0.370669 0.268952
0.00825701 -0.202761 0.435256
0.00978848 -0.409826 0.042212
0.00803065 0.0110538 0.314
0.00204978 0.125975 0.199212
-0.000300618 0.465054 0.182528
0.000812428 0.423085 0.0990781
-0.00806021 -0.165025 0.391611
-0.0188281 0.331874 0.181185
0.00776382 -0.262888 0.356184
0.00790391 -0.45584 0.0923916
-0.0115223 0.319132 0.183315
0.0064144 0.463291 0.0977862
0.00967249 0.478158 0.198427
-0.00812875 -0.411353 0.322181
0.0183823 0.15262 0.50758
-0.160828 -0.213687 0.535028
0.084181 0.0954295 0.234905
0.0430633 0.27372 0.240595
0.077906 0.102779 0.251939
-0.00167949 0.0184457 0.317969
0.00355536 0.410203 0.325269
-0.00285428 0.47601 0.231497
0.0270572 -0.30667 0.186067
0.0312241 -0.27821 0.239124
-0.0036481 -0.0358919 0.341973
-0.00657762 0.481322 0.183612
0.00429243 0.174598 0.351683
-0.00836629 -0.43536 0.30323
0.010096 0.476505 0.187409
0.00234828 -0.210123 0.029611
0.010484 0.198179 0.309473
0.0101343 -0.46327 0.247989
-0.00653689 0.20582 0.502165
-0.0421368 0.286858 0.205829
-0.0323435 0.185204 0.238054
0.00799613 -0.371902 0.0193596
-0.0187679 0.296645 0.164878
-0.0107327 -0.337141 0.164899
-0.00813692 0.347316 0.218831
-0.00868741 0.134453 0.222535
0.00219234 0.144947 0.445155
-0.00798096 0.454599 0.271332
-0.0382797 -0.290646 0.204734
0.00686774 0.368918 0.0153689
-0.00656587 0.265948 0.247796
0.0064318 0.09182 0.268889
-0.00744063 -0.430275 0.306269
0.0275301 0.0688277 0.176239
0.00441317 -0.151188 0.207777
0.00258262 -0.463489 0.099544
-0.0395762 0.213029 0.212998
0.00357433 -0.0012262 0.245451
-0.00870929 0.381978 0.323292
0.0133668 -0.216887 0.533363
0.00411155 0.479652 0.214461
0.0496708 0.297299 0.180092
-0.00314304 -0.338882 0.00635306
-0.00591008 0.138933 0.513386
0.00343083 0.125599 0.176615
0.00199029 0.29908 0.340662
0.0061781 0.372402 0.204881
0.00627562 -0.23208 0.325664
-0.00593604 0.114972 0.41384
-0.00849578 -0.275872 0.354515
0.00159746 -0.429505 0.282718
0.00887473 0.480548 0.150587
-0.019298 0.105168 0.273679
-0.00733026 0.148518 0.39668
0.00674621 -0.0992015 0.357817
-0.00220668 -0.221314 0.377363
-0.00956728 -0.412287 0.305431
0.00562472 -0.319232 0.25636
-0.0215048 0.298059 0.206707
-0.0438001 0.24717 0.197685
0.00579096 -0.366084 0.348308
0.0119619 -0.229149 0.52518
0.00814985 -0.454017 0.0900385
0.0101184 -0.342445 0.0199462
-0.0231987 0.0997538 0.135858
0.0441718 0.256348 0.245481
0.0386243 0.29959 0.183441
0.00800289 0.126015 0.174086
0.00873381 -0.444627 0.28628
-0.00251898 -0.366297 0.349759
0.00226837 0.275687 0.00326992
0.00798363 -0.402153 0.0352868
0.00796361 -0.463399 0.212767
-0.0100285 -0.469175 0.201192
-0.0226625 0.0734418 0.205343
0.010139 0.224055 0.332112
-0.0194919 0.0717513 0.180939
0.00228066 -0.147937 0.0948056
-0.00697095 -0.218292 0.0506537
0.00602789 -0.129794 0.15052
-0.00745145 -0.190317 0.477648
0.0097767 0.347576 0.350736
-6.8503e-05 -0.251224 0.0358932
0.0106353 -0.328871 0.202347
-0.00867562 0.454334 0.26958
-0.00390804 0.38066 0.321471
-0.0219477 0.296222 0.175597
0.000500269 0.411579 0.0601804
0.0079142 -0.386316 0.337697
-0.00143799 -0.196333 0.0385713
0.00697089 -0.157665 0.129204
0.0237866 0.176009 0.364535
-0.00697095 0.165132 0.258378
-0.0017671 0.159783 0.108913
-0.00664591 -0.0543455 0.337201
0.0335257 0.167253 0.233584
0.00583571 -0.245698 0.0379242
-0.00901003 -0.253302 0.351369
0.00892888 0.241847 0.330895
0.0553274 0.0980348 0.245044
0.0303124 -0.279783 0.206394
0.0067486 -0.18141 0.481668
0.0279279 0.0638158 0.181949
-0.00691273 -0.249552 0.352079
-0.00115872 -0.140475 0.107966
0.00532454 0.358041 0.349669
-0.00616617 -0.0706613 0.433552
-0.00419804 0.0136772 0.319118
-0.00924846 -0.263351 0.351127
0.00214742 0.156083 0.547205
-0.00265261 0.26609 0.354894
0.0489037 0.303093 0.175405
-0.0298086 0.233652 0.530912
-0.00417478 -0.175214 0.504797
0.00139991 0.154448 0.122013
0.00964519 -0.477311 0.155764
0.0881008 -0.220812 0.521603
-0.0232399 0.220737 0.129368
-0.000502175 0.052628 0.169939
0.069883 0.137312 0.236938
-0.0105886 -0.210238 0.322657
-0.00205727 0.0645281 0.15313
0.0430052 0.10621 0.242263
0.00796028 -0.444009 0.0746984
0.00911981 -0.147964 0.104858
0.00359744 0.0899341 0.251239
0.0334721 0.175021 0.543998
0.00697089 -0.320931 0.0235525
-0.00436106 -0.243838 0.325174
0.00447369 -0.129673 0.424138
0.0657688 0.105976 0.234721
0.00209528 0.334406 0.00346561
-0.083702 0.0270285 0.0781177
-0.00133128 0.455456 0.142095
0.00273512 -0.330525 0.00382899
0.00266168 0.193533 0.0704462
-0.110561 -0.212122 0.53047
-0.000264473 0.0286585 0.197022
-0.0352067 0.299562 0.183404
-0.0040784 -0.267484 0.0928989
-0.00133593 -0.198176 0.393255
0.00435943 0.205591 0.0308292
-0.0229441 0.0656672 0.140464
-0.00627457 -0.228893 0.523432
0.00695765 0.340023 0.119503
0.00592813 0.343181 0.249991
-0.000805169 0.0841729 0.279806
0.00489913 0.112617 0.37231
-0.00143066 0.465057 0.100025
-0.0746036 0.029809 0.0750896
0.100917 0.119205 0.235483
0.00202549 -0.0315854 0.291732
-0.0118527 0.302612 0.161117
-0.00118229 0.384073 0.341091
-0.00236781 -0.125386 0.185825
0.00256508 0.215625 0.0245795
-0.00764727 0.461895 0.216843
0.00164201 0.307334 0.185065
-0.00279058 0.135832 0.242543
0.00390101 0.43238 0.277454
0.00431425 -0.460205 0.0946901
-0.0118292 0.286126 0.195402
0.01008 -0.217251 0.0332402
-0.00655602 -0.3959 0.333371
-0.00250588 -0.457214 0.154177
0.00396868 -0.272397 0.0734203
0.00798601 0.288358 0.35571
-0.00601202 0.0567654 0.172692
0.00478191 -0.460869 0.144191
-0.0252584 0.15917 0.121085
0.00356237 -0.171674 0.0601327
0.00187242 -0.425558 0.0763051
0.00653533 0.378299 0.134932
0.00909161 0.140874 0.120326
0.162004 -0.214566 0.535346
0.00482917 -0.191165 0.461665
0.00697089 -0.46424 0.168962
-0.00871584 -0.164393 0.265314
0.00766335 0.019501 0.311781
0.000718919 0.214269 0.306627
-0.00438146 0.1347 0.122489
0.00325249 0.194511 0.297548
-0.0034503 -0.391005 0.125377
-0.00113376 0.065573 0.42984
0.0395156 0.177223 0.51873
-0.00918591 0.360476 0.0143532
0.0092404 -0.319056 0.133848
0.00276498 -0.345633 0.337726
-0.00595685 -0.28742 0.342024
0.0104815 -0.264617 0.163751
-0.00415807 -0.24852 0.0120858
-0.0420368 0.0447234 0.153717
-0.00953484 0.220336 0.0391078
-0.0252584 0.326605 0.187729
0.0126257 0.310475 0.199877
0.0267029 0.166745 0.504779
0.0900769 0.105419 0.251892
0.000916913 -0.173909 0.266548
0.088486 0.102924 0.234774
-0.00697095 0.275721 0.0262381
-0.0104224 -0.386186 0.0327752
-0.00815407 -0.156926 0.277498
-0.00453144 -0.163263 0.258909
0.0490474 0.277667 0.185167
-0.000588284 -0.162295 0.10656
-0.00368574 -0.42757 0.311732
0.0334154 0.0512513 0.154354
0.0104707 -0.442885 0.0828425
0.00391612 0.210907 0.332313
-0.0075035 0.131662 0.227383
-0.00829683 0.141148 0.106296
0.0330314 0.116589 0.249229
0.00888253 -0.467508 0.177758
0.0383343 -0.296777 0.189539
-0.0780231 -0.00145139 0.086306
0.0193652 0.306468 0.174469
0.0105412 -0.42979 0.0680488
-0.0376582 -0.281135 0.209103
0.0106257 0.318488 0.348011
-0.00892387 0.276777 0.220656
-0.00879328 -0.319677 0.356321
-0.0105039 0.418952 0.0574833
0.00414255 0.390162 0.316026
0.00983692 0.413571 0.313947
0.04295 0.0971707 0.214734
-0.00729 -0.120964 0.376801
-0.0087913 0.47008 0.122054
0.00897933 -0.387015 0.322685
0.0404579 0.282962 0.184191
-0.00697953 0.304928 0.247786
-0.0088857 -0.348082 0.339631
-0.0226625 0.0736417 0.196667
0.00350771 0.223585 0.512839
0.010276 -0.413628 0.0559969
0.031616 -0.22846 0.351207
-0.00310837 -0.265139 0.332726
0.0691546 0.0869152 0.248945
-0.00751178 -0.462839 0.259951
-0.00913105 0.450196 0.105665
0.00778102 0.202146 0.324182
-0.00993916 0.295411 0.202774
0.000694971 -0.182605 0.0769454
0.00282966 -0.371033 0.347951
-0.0079378 0.132899 0.139747
0.00772467 0.348189 0.00885037
0.0131142 0.10292 0.524562
-0.00594052 -0.0126372 0.317226
-0.00704304 -0.0263083 0.421913
-0.00544502 0.167297 0.253227
-0.00860013 -0.340334 0.010678
-0.00509994 -0.187998 0.436123
0.00413319 0.399129 0.150226
-0.00247511 0.143631 0.187106
-0.00372187 0.333517 0.33258
0.0143565 0.105842 0.274506
0.00462249 -0.279254 0.023099
0.0015663 -0.165406 0.0687674
0.00800984 0.166011 0.0713918
0.0430052 0.104129 0.228559
-0.00753285 0.337288 0.355625
-0.0051872 -0.185029 0.281322
0.00801811 -0.467458 0.116181
-0.00116462 -0.197592 0.0616881
-0.0249993 0.0337557 0.121867
-0.0079182 -0.461899 0.102854
0.00706555 0.133703 0.515266
-0.0137735 -0.228502 0.532959
-0.0381659 -0.276179 0.22117
0.00949426 0.426561 0.0705251
0.00640558 0.359082 0.0110278
-0.00726939 0.306235 0.0034868
0.0476724 0.203949 0.541967
0.00505097 0.467778 0.251418
-0.0467549 0.294335 0.213667
0.00852526 0.145165 0.254012
-0.0200523 0.309889 0.182028
0.00827772 0.323038 0.00519612
-0.0396597 0.302781 0.174295
-0.0226625 0.0471375 0.122213
-0.00708779 0.465179 0.190609
-0.0669572 -0.0134069 0.0693529
0.00871487 -0.406234 0.324403
-0.00385095 -0.178699 0.282138
0.000169615 -0.222086 0.0438088
-0.022734 0.132482 0.252064
0.000233492 -0.0673453 0.339301
0.0407114 0.240624 0.26492
-0.00668815 0.468942 0.250533
-0.00704195 0.028341 0.213667
0.00416074 -0.161306 0.0745145
-0.000239375 -0.117995 0.422267
0.127662 -0.223538 0.532802
-0.00960025 0.344992 0.351569
0.000705786 0.264958 0.0298439
-0.00573975 0.0402662 0.200241
0.00900326 -0.436503 0.295352
-0.0171204 0.110003 0.529976
-0.00185908 -0.134401 0.240399
-0.00460469 -0.136961 0.247765
0.0279768 -0.270049 0.234442
0.0297273 0.228855 0.288839
0.0022692 0.224161 0.0468936
-0.000620513 0.138625 0.111034
-0.00386334 0.355925 0.351321
-0.106926 -0.221875 0.520555
-0.00829896 -0.420894 0.312892
0.00882234 0.364292 0.0161345
0.001093 -0.203581 0.330704
-0.0097685 -0.292732 0.017202
0.00697089 0.149989 0.157701
0.0120934 -0.279084 0.175716
0.082 0.0997463 0.244916
-0.00847658 -0.145914 0.106367
0.000442805 0.134317 0.402741
0.0422025 0.0697756 0.16702
0.000490941 -0.442483 0.245406
-0.00697095 0.209162 0.304504
-0.00966591 -0.336565 0.351959
-0.00295456 0.390442 0.315865
-0.00139216 0.168405 0.0622312
0.0270434 0.30199 0.174578
0.0413183 0.0869402 0.218012
-0.0305841 0.296454 0.167541
-0.00653412 0.460816 0.096997
-0.00507485 -0.0768569 0.359626
-0.0384329 0.272302 0.191182
0.0105394 -0.135065 0.175858
-0.00247808 -0.246586 0.352232
0.00321434 -0.483191 0.186915
-0.0219477 0.293515 0.171164
-0.00950024 -0.20374 0.387097
-0.0317164 0.0219009 0.0937221
-0.00743345 -0.44701 0.106307
0.00800051 0.276705 0.00637667
0.0937484 -0.225716 0.523936
0.00738755 -0.198535 0.431314
0.00697089 -0.226728 0.32253
-0.0198403 0.293526 0.169252
-0.0103508 0.14641 0.234067
0.00485779 -0.40255 0.176738
-0.00797769 0.103146 0.547694
-0.000918851 0.340133 0.320452
-0.0062839 0.12719 0.177063
0.00411446 -0.482437 0.157851
-0.00364598 -0.181723 0.450051
0.00729664 0.216969 0.0241713
-0.00843969 0.343935 0.18185
0.0541147 0.108637 0.239557
-0.00789679 -0.00814127 0.318939
-0.00874457 -0.457288 0.266129
-0.163388 -0.223296 0.524502
0.00553042 0.275887 0.00456141
-0.0293645 -0.266086 0.231898
0.00452923 -0.300432 0.00201166
0.00697089 0.248198 0.0301647
-0.0283145 -0.294724 0.200661
-0.00439193 0.0241362 0.430642
0.0769773 0.100305 0.251982
0.0019826 -0.263162 0.356461
-0.00535291 0.275131 0.00456774
-0.0198403 0.313982 0.175875
0.0369476 0.20855 0.32095
0.00284919 -0.21379 0.3086
-0.0291465 0.186799 0.230483
0.00710406 0.0203747 0.221444
-0.0085779 0.184225 0.309784
0.00185342 -0.219502 0.0234513
0.00515389 -0.36791 0.232043
-0.0244555 0.29118 0.143751
-0.0932555 -0.221099 0.52265
-0.00105085 -0.106284 0.421804
-0.00481537 -0.445813 0.116436
0.0253989 0.234061 0.543332
-0.012357 0.04861 0.164598
0.00194483 -0.24713 0.351586
0.157609 -0.220024 0.520872
-0.0242122 0.0538575 0.160066
-0.0103943 -0.210985 0.324544
-0.00598385 -0.305188 0.252946
0.0379026 -0.247736 0.275695
0.00416739 -0.083845 0.435862
0.00980536 -0.450507 0.274551
-0.00727163 0.477617 0.213714
0.00608055 -0.316451 0.0998734
-0.00177573 0.199439 0.301711
-0.0319035 0.23328 0.277828
-0.020216 0.203138 0.501598
-0.0437241 0.247562 0.209744
0.00605505 -0.408159 0.0591742
-0.0270509 0.210285 0.317871
0.00903578 -0.477801 0.162591
-0.0103474 0.327944 0.177268
0.00697089 -0.223134 0.319852
0.00487147 0.368952 0.251532
0.00585494 -0.453118 0.227271
-0.025415 0.0580276 0.142832
0.0123868 0.0567539 0.164898
0.00549994 -0.129601 0.216997
-0.0193491 0.330849 0.168689
-0.00537117 -0.126914 0.199728
-0.00789282 -0.477154 0.148647
-0.00602119 0.0487933 0.186227
0.0330441 0.24963 0.261977
0.00788693 0.131384 0.212297
0.0222486 0.22874 0.520631
-0.00743425 0.455609 0.270748
0.00706762 0.0665042 0.165129
0.00269158 -0.249637 0.296075
-0.0352421 0.0463946 0.157535
-0.00967197 -0.453654 0.0942557
0.0330558 -0.242077 0.324267
-0.00385792 0.171904 0.499106
-0.00697095 0.271891 0.336761
-0.00472252 0.0797915 0.542348
0.0393618 0.237832 0.214604
0.00462993 0.423781 0.0453771
-0.0105374 0.147756 0.120086
-0.00906995 -0.355592 0.0110766
-0.00568198 0.481235 0.154934
0.0034395 -0.280808 0.359212
-0.00766696 0.325191 0.12053
-0.00395372 -0.210641 0.334075
-0.00718321 0.0942797 0.287632
0.0474491 0.265409 0.242535
-0.00697095 0.188953 0.288513
-0.0110678 -0.277402 0.168375
0.156564 -0.219477 0.520649
0.010165 0.158807 0.271346
-0.00506311 -0.367589 0.0154188
0.00502865 -0.128918 0.151516
-0.0242122 0.0739826 0.159218
-0.00831943 0.129124 0.171465
-0.0104941 -0.137313 0.211022
0.00867153 -0.147672 0.259939
0.00047957 0.10789 0.362668
0.00616343 -0.17413 0.05879
0.00157872 0.0800148 0.264935
-0.00351496 -0.153529 0.278071
0.00291002 0.0974656 0.324097
0.0103714 -0.197996 0.0530889
-0.000382166 -0.433003 0.0851212
-0.00670531 0.0358548 0.203904
0.00214949 0.155837 0.133779
0.02738 0.0648214 0.155232
-0.010436 -0.268207 0.348083
-0.00190662 -0.336999 0.0244208
0.00562615 -0.467693 0.111345
-0.00109321 0.129379 0.140258
-0.00347653 -0.142233 0.104198
-0.0132218 -0.188397 0.472585
-0.00360606 -0.424715 0.0495041
0.00292772 0.156271 0.0788143
0.0414821 0.284705 0.208961
-0.008745 -0.195861 0.411248
0.00445855 0.480893 0.15361
-0.00753461 0.373169 0.179734
0.0024109 -0.294313 0.315836
0.0122854 0.100707 0.546119
0.00697089 -0.444781 0.25343
-0.0043865 0.239992 0.249261
0.0372991 -0.308832 0.181874
0.00144709 0.464873 0.26137
-0.00396801 -0.282072 0.00435035
-0.00533671 0.225686 0.340558
0.00838937 0.187546 0.310578
0.000549458 -0.127925 0.14957
-0.00173324 0.148828 0.500804
-0.0404482 0.0304639 0.106295
0.00485514 0.371856 0.0335696
0.00643416 0.463801 0.158892
0.00780915 0.130994 0.21078
-0.000333821 -0.465072 0.184237
0.0896832 0.1289 0.251483
0.0430052 0.111111 0.24802
-0.0298377 0.310107 0.194834
-0.0055915 0.230917 0.1348
0.00697089 0.149338 0.159243
-0.00354064 0.217593 0.123683
-0.00492235 -0.205871 0.523899
-0.00854098 -0.478372 0.16129
-0.0100266 0.2542 0.345356
0.000649458 -0.393344 0.308336
-0.0620476 0.0245251 0.0686908
0.00586305 -0.435566 0.0881552
-0.0013522 0.288439 0.334942
0.0899124 0.0885287 0.235025
-0.010046 -0.151673 0.26243
-0.00848172 0.359994 0.0139747
-0.0226625 0.100386 0.161003
-0.00246542 0.465882 0.258226
-0.0075855 -0.32586 0.357098
6.08717e-05 0.473218 0.240745
-0.00630554 0.227372 0.0388737
0.081193 -0.229052 0.530246
-0.0324841 0.0511674 0.166439
0.00523486 -0.182894 0.490057
-0.0219477 0.282953 0.169965
-0.0393349 0.204838 0.549704
-0.00645109 0.0210197 0.216435
-0.0215901 0.0963205 0.157955
0.0987726 0.120241 0.240237
0.00410143 0.193623 0.296799
-0.0135129 0.0636811 0.154228
-0.00140157 -0.126065 0.202775
0.082122 0.100682 0.241257
-0.133198 -0.223129 0.532685
-0.0105043 -0.229843 0.530333
-0.0968466 0.00600192 0.0861759
-0.0665973 0.0243128 0.0858563
0.000241511 -0.251914 0.0099839
-4.50547e-05 -0.454624 0.222197
0.00264005 -0.206031 0.435888
-0.00259779 -0.168061 0.299185
0.0058312 -0.181915 0.312744
-0.00893092 0.198506 0.324473
-0.0472951 0.0243272 0.082555
0.037223 0.156478 0.247436
0.00860614 0.242805 0.0153004
0.00968157 -0.14827 0.130195
-0.0074154 0.463115 0.102235
0.00520658 0.269902 0.0955222
0.0113377 -0.209578 0.396361
-0.00247756 -0.334817 0.00551126
0.0106586 -0.430203 0.0697245
-0.00973202 -0.178143 0.287455
0.0123868 0.0511751 0.16485
0.00239514 -0.175304 0.268947
0.00697089 -0.148538 0.160131
-0.00194937 0.44107 0.0953258
-0.00529247 -0.318968 0.0267422
0.0295257 0.21171 0.320157
0.00662286 -0.226185 0.193768
-0.010247 0.451234 0.258691
0.00600593 0.228903 0.321995
0.00892163 -0.479804 0.204056
-0.00599787 -0.161381 0.120427
0.00311715 -0.478532 0.224156
-0.00273842 0.460478 0.267409
0.00176922 -0.31178 0.0211367
0.00655783 0.120524 0.547391
-0.0102586 -0.317566 0.0107153
0.0105878 0.138898 0.214701
-0.0100025 -0.164877 0.271417
-0.000469091 0.138019 0.547086
-0.00724233 -0.465377 0.170523
0.00448114 0.195304 0.0374333
0.00757176 0.2511 0.00985344
0.00135947 0.446366 0.243902
-0.0237349 0.0583591 0.133771
-0.0139717 0.0592366 0.16494
0.0445449 0.220934 0.213792
-0.000609712 -0.275855 0.340023
-0.059189 -0.021697 0.0866594
-0.00267372 0.397343 0.0481591
0.00635225 0.127183 0.19443
0.0255521 0.151439 0.519057
-0.00235521 -0.401802 0.0304898
0.0102992 -0.333441 0.210071
0.0105988 -0.333845 0.0155682
-0.0135129 0.0556542 0.16253
-0.00697095 0.165752 0.257358
-0.00556121 0.481628 0.162351
-0.0219477 0.296291 0.194126
-0.0106807 0.288552 0.348028
-0.0010548 -0.465056 0.179328
-0.0039719 -0.332532 0.00542618
0.0852861 0.117553 0.234519
-0.04944 0.0112391 0.0839187
-0.0242122 0.0608552 0.143916
-0.00171762 -0.203427 0.0331134
0.00697089 -0.160428 0.252776
-0.0932246 -0.219867 0.52981
-0.00697095 -0.152514 0.134
0.0347911 0.240532 0.283212
-0.00240862 0.338759 0.337114
-0.0232901 0.228398 0.204697
0.0219846 0.145356 0.516085
-0.0231987 0.100954 0.172284
0.00457043 -0.0250633 0.419282
-0.00418901 -0.212887 0.202074
0.00388472 -0.409065 0.327678
-0.0226625 0.0244715 0.188212
0.00329583 -0.46251 0.210419
-0.00223044 0.277946 0.00198884
0.00095763 -0.148979 0.139024
-0.00518584 -0.281702 0.282916
0.0291558 0.116565 0.264186
0.00504568 -0.248606 0.332592
-0.00529757 0.0321329 0.296156
-0.0219517 0.0189491 0.192853
0.0847126 0.135672 0.244702
0.00994251 0.306946 0.168464
-0.0215048 0.117678 0.116809
-0.0123868 0.0514063 0.165001
0.00641979 -0.182208 0.505536
-0.00583338 0.139679 0.45437
0.0159476 -0.185406 0.461216
-0.000726732 -0.201365 0.329464
0.0457668 0.310725 0.190164
0.0452994 0.216445 0.512212
0.00848033 0.442052 0.0718394
0.0101119 -0.474265 0.154525
-0.00323532 -0.437989 0.300816
0.0404516 0.264862 0.233064
0.00537955 -0.393159 0.20016
-0.0647675 0.0250348 0.0686819
-0.007223 -0.412765 0.321369
-0.0020408 -0.198978 0.0364998
0.00982147 0.139231 0.128181
-0.0380322 -0.276934 0.231069
-0.00292478 -0.0203856 0.274911
-0.00869972 -0.224823 0.37288
-0.0105796 -0.205251 0.417687
0.00396804 -0.30805 0.337194
0.00731535 0.165871 0.548005
0.00829543 -0.457676 0.0901417
-0.0247414 0.0133672 0.141973
-0.0299199 -0.308543 0.184193
0.00190691 -0.20877 0.333486
-0.00162673 -0.200953 0.0802115
-0.00697095 0.429742 0.278657
-0.00902042 0.271957 0.00885314
-0.00544574 0.460317 0.138764
0.0465502 0.219915 0.514849
0.00697089 0.292733 0.020349
0.00564922 -0.0245153 0.420121
-0.0222801 0.21587 0.507096
-0.00716132 0.282247 0.355398
0.00697089 -0.164521 0.253137
0.00132588 -0.234198 0.347623
0.000241306 0.265993 0.325025
0.00129585 0.135642 0.119553
-0.00966405 0.226437 0.0352682
-0.010149 0.391471 0.031872
0.00949962 -0.19788 0.443654
0.00357286 -0.217703 0.0463579
0.00458202 0.482725 0.177273
0.0059752 0.397561 0.0289691
0.00697089 0.450698 0.244797
-0.127415 -0.228632 0.530567
-0.030256 -0.261672 0.237338
0.00230836 -0.177635 0.309232
-0.00504282 0.14256 0.512082
0.00870416 0.436666 0.29399
0.0193422 0.121243 0.258009
-0.00947271 -0.268926 0.157681
0.0451501 0.110877 0.243258
0.00487275 -0.156739 0.246055
-0.148137 -0.217095 0.520028
0.0434902 0.294258 0.213493
0.00509236 -0.0886385 0.351039
0.00795846 -0.436434 0.298045
0.0105035 -0.463607 0.239953
-0.0418145 0.272087 0.223599
-0.00263737 -0.45082 0.233645
0.00960089 0.428844 0.0587966
0.037384 -0.293107 0.188624
-0.000484178 -0.164071 0.503728
0.00345782 -0.143656 0.181446
0.0373818 0.218568 0.309929
-0.00680042 0.19222 0.319117
-0.00297861 -0.464406 0.101282
-0.000995193 -0.0137644 0.433603
-0.00603475 -0.131001 0.219885
-0.0515528 0.301639 0.188202
0.0879976 0.132211 0.243215
0.00697089 -0.430566 0.0830083
0.00697089 0.354777 0.0277277
-0.0209503 0.322248 0.1611
-0.00731936 0.246683 0.349117
-0.00211084 -0.388306 0.318948
0.0294913 0.161331 0.528835
-0.00600919 -0.21167 0.376035
-0.00280308 -0.43377 0.268468
0.00741406 -0.180774 0.478876
-0.04944 -0.0133477 0.0743336
-0.00123378 0.153567 0.140802
-0.00456282 -0.00988773 0.418587
-0.0187679 0.303055 0.156888
0.00634162 0.400248 0.30926
0.0509512 0.203629 0.522144
0.000247378 0.0820138 0.289202
0.00787934 0.150808 0.265935
0.0243561 0.172587 0.352968
-0.0232073 -0.216569 0.526345
0.00810732 -0.452234 0.249847
-0.00808085 -0.273938 0.354854
-0.00436845 -0.188115 0.410951
-0.00387962 0.214899 0.334644
0.0470729 0.28139 0.228854
0.00299143 -0.206334 0.332815
-0.00930107 0.315022 0.353703
0.00384964 0.155956 0.226362
0.00658201 -0.0437774 0.342833
-0.00202938 0.13723 0.24619
0.0159113 -0.182065 0.458048
-0.0303957 0.231469 0.283744
-0.0231987 0.0296966 0.123104
-0.00680379 -0.203546 0.421884
-0.0102636 0.153894 0.261479
-0.00434006 -0.178013 0.273014
0.0489472 0.310271 0.183614
-0.0413882 0.302629 0.185609
0.00539331 -0.437334 0.273034
0.0286263 0.198653 0.338145
-0.0027463 0.162647 0.547692
0.0066421 -0.279254 0.112007
0.00935027 -0.130132 0.156481
-0.00469698 -0.192411 0.423369
-0.0124635 0.287297 0.192741
-0.0120354 0.309063 0.195514
-0.000633327 0.0960192 0.428481
-0.0265812 0.232764 0.544922
-0.00528966 0.185494 0.312403
-0.0241243 0.177551 0.363371
-0.00365309 -0.458189 0.0908672
0.00447308 0.437299 0.099528
-0.00506282 0.231293 0.133754
0.000557165 -0.00819454 0.330275
-0.0366415 0.249455 0.271821
-0.00697095 -0.460747 0.210316
0.0102515 0.408501 0.315983
-0.00583911 0.462564 0.151746
-0.00199485 0.478457 0.223567
0.00358681 -0.174622 0.469075
0.000698216 -0.424756 0.31491
0.00590492 -0.141015 0.251787
-0.0855601 -0.227014 0.53323
0.00610796 0.155572 0.504537
-0.0320747 0.21438 0.218589
-0.0188553 -0.21635 0.52709
0.00845769 0.287814 0.354846
0.00749375 0.152534 0.387622
-0.00823651 0.169297 0.291877
0.00818766 0.304561 0.174085
0.158732 -0.208947 0.527397
-0.0214869 0.0797045 0.13841
-0.00331354 -0.157192 0.424835
0.0125708 0.305764 0.196387
-0.0284135 0.295725 0.179535
-0.00793363 -0.043577 0.42897
-0.00813398 0.128026 0.150946
-0.00712754 0.126954 0.406193
-0.00753546 -0.156917 0.435337
0.00617196 -0.387257 0.044149
0.0140814 0.163394 0.547909
0.00493737 0.15624 0.374182
0.00577296 0.0396391 0.201141
0.0388536 0.233688 0.203661
-0.00111065 0.244272 0.306162
0.00218868 -0.250847 0.293531
0.00458123 0.23875 0.267885
0.0378995 -0.255229 0.259569
0.00296775 -0.127691 0.2155
0.0104792 0.143145 0.12678
-0.00813767 -0.293049 0.357453
-0.00398789 0.0736178 0.238836
0.0106143 0.293485 0.159303
0.0104621 -0.471717 0.210444
-0.0259864 -0.224124 0.361367
-0.0020694 0.406959 0.327542
0.00954133 -0.139443 0.128305
0.010477 0.469627 0.219664
0.00508672 0.123509 0.372443
0.00412657 -0.193289 0.0653223
0.00198526 -0.27223 0.333953
0.0085608 0.303555 0.00509593
-0.0055257 -0.143673 0.186885
0.0296903 -0.234148 0.300303
0.103906 -0.214721 0.532231
-0.00312734 0.280924 0.00254238
-0.00526774 0.220623 0.192587
-0.00797804 -0.0626344 0.429684
-0.0114506 -0.313804 0.192446
-0.00932166 0.360803 0.0147524
0.00211496 -0.396091 0.33563
0.0428536 0.231561 0.531989
-0.0367891 0.273481 0.232955
-0.0117953 -0.208506 0.389097
-0.0100672 -0.327536 0.0109591
-0.00581399 0.10202 0.331451
0.0153501 -0.228551 0.532896
0.0839585 0.107982 0.246379
0.0197959 0.167265 0.500098
-0.00376988 0.472965 0.239239
0.00713297 0.16285 0.103225
-0.000657386 -0.417907 0.0673016
-0.00697095 0.226577 0.314888
0.00963247 -0.162837 0.285254
0.00322277 -0.390505 0.0460101
-0.00823448 0.351695 0.350172
0.028283 0.174531 0.239714
-0.0234654 0.0573426 0.202716
0.0449332 0.24873 0.262007
-0.0106948 -0.298282 0.0136199
0.00905817 -0.370792 0.342914
0.00812289 0.458912 0.0921426
0.00426914 -0.439718 0.0653729
-0.0649907 0.0161791 0.0688365
0.0095057 -0.187924 0.43565
-0.00511166 0.226582 0.129919
-0.00919644 0.336672 0.156578
-0.00697095 0.203764 0.30279
-0.00697095 0.461091 0.199007
-0.0021938 -0.00161754 0.327025
-0.0319223 0.29902 0.182479
-0.00929498 -0.214601 0.524984
0.00300511 -0.164707 0.113133
0.0123868 0.0602482 0.169793
0.000103116 0.176308 0.268953
0.00330197 -0.278449 0.0286917
-0.000152077 -0.145399 0.0983575
0.00697089 -0.244409 0.326799
0.00329168 -0.2448 0.33122
0.00697089 -0.166112 0.101788
0.00864783 0.3973 0.0308705
0.000320692 0.168076 0.499925
-0.00849948 -0.470996 0.23557
-0.00729002 -0.446823 0.106352
-0.00720013 0.0116295 0.236472
-0.0217584 0.0649226 0.211573
0.0102708 -0.289082 0.0108857
-0.0489037 0.301549 0.181578
-0.00368142 -0.175676 0.269586
0.0127982 0.0922791 0.528048
0.0150305 0.0604765 0.1643
0.000153695 -0.157142 0.116375
0.00388144 -0.178642 0.458615
0.00857307 0.448723 0.0802116
0.00697089 -0.461347 0.200298
-0.00249633 0.0998969 0.333196
0.0101049 -0.313638 0.0097264
0.00305597 -0.136291 0.245887
-0.0224156 0.240425 0.205058
-0.0215048 0.146438 0.20483
-0.0479013 0.28718 0.221422
-0.0216473 0.0281706 0.178619
-0.00697095 0.448724 0.121086
0.00697089 0.461858 0.188663
0.00823548 -0.314474 0.00643492
-0.0257818 -0.216181 0.528234
0.0103265 0.25416 0.339278
-0.00515753 -0.033957 0.298895
0.00222852 0.474072 0.122892
0.00849454 0.470767 0.23445
0.000803149 -0.442532 0.110456
-0.0229476 0.0974256 0.16471
-0.0280124 0.304605 0.15888
0.0040102 0.171848 0.0988327
-0.013246 0.299091 0.182618
-0.00865995 -0.384507 0.0254883
-0.00269879 -0.222931 0.32042
-0.00841136 -0.132645 0.147175
-0.0477331 0.302961 0.172482
0.00781879 0.471348 0.124037
0.000156743 -0.442919 0.100455
0.0106171 0.43628 0.285338
-0.00274131 -0.0904135 0.436821
0.00619588 0.112624 0.366617
-0.00832702 0.264932 0.00894394
0.00301177 -0.222501 0.535533
-0.00437815 0.482871 0.193103
0.00483399 0.121448 0.40329
-0.0495366 0.278501 0.221316
-0.00303607 -0.00872569 0.432839
-0.00863585 -0.141563 0.196516
0.00940812 0.184579 0.292156
-0.0272247 0.171908 0.502334
-0.00624675 -0.196918 0.325121
0.0842695 0.0889716 0.243199
-0.00337206 0.30371 0.185834
-0.0298377 0.300755 0.173684
-0.0222139 0.123376 0.206529
0.00808033 -0.137952 0.125554
0.027278 0.061045 0.175237
0.0102687 -0.334735 0.157837
-0.00997886 0.139038 0.164194
-0.0012651 -0.483846 0.171873
-0.00184838 0.21944 0.316492
0.0546086 0.104697 0.234743
0.00274326 -0.363987 0.351447
-0.00937169 -0.173815 0.463612
-0.0094181 -0.261889 0.0108525
-0.0223325 0.318203 0.199051
-0.0402948 0.235732 0.271651
0.082817 0.0952214 0.244109
0.00373703 -0.196555 0.324652
0.0084172 0.127485 0.517502
0.00714831 0.0607189 0.174633
-0.00663832 0.0183558 0.419274
-0.00652271 -0.258512 0.0102548
-0.00538108 -0.359676 0.0128015
0.00217908 0.252669 0.332191
0.0380618 0.17348 0.23265
0.00569167 -0.169236 0.488044
-0.00408644 -0.468744 0.252613
-0.0074522 -0.303195 0.343191
-0.00645675 0.207307 0.50248
0.000427064 -0.194696 0.412635
-0.0517453 -0.0193322 0.083182
0.010715 0.064353 0.167811
0.00470741 -0.34429 0.08559
0.00633344 0.251885 0.0105911
0.00351244 0.195897 0.291701
-0.0046787 -0.40394 0.0556571
7.33757e-05 -0.0890462 0.437253
0.0138524 0.0951302 0.528336
0.00330468 0.352666 0.277986
0.00979318 0.468634 0.197528
-0.00243829 0.0458973 0.195982
0.0296989 -0.305455 0.177206
0.00768933 0.0872327 0.524836
-0.00286438 0.420864 0.282779
0.0188768 0.114467 0.258955
0.00714441 0.425675 0.285741
-0.0187679 0.280997 0.174494
-0.00210276 -0.425562 0.0498101
0.0330314 0.110003 0.23813
0.000238098 -0.298135 0.361307
-0.0195341 0.288188 0.158758
-0.00423244 0.44771 0.240246
0.00954301 -0.248663 0.0275993
0.00791814 0.424003 0.0507758
0.00868794 -0.129714 0.190361
0.040851 0.231298 0.29094
-0.00316451 -0.172611 0.473981
0.00274898 0.46502 0.193148
-0.0063883 -0.36761 0.0338378
-0.0342135 0.233573 0.211483
0.00318011 0.148134 0.26701
-0.00546406 0.157654 0.28146
0.00318927 -0.423729 0.281272
-0.00697095 -0.458378 0.139206
0.00536562 -0.464218 0.162842
0.0104739 0.470728 0.200661
-0.000871462 0.412183 0.0363605
-0.00537376 0.427258 0.0764283
0.0281798 -0.213812 0.349061
0.00529251 -0.181245 0.393418
-0.0311571 0.219947 0.292992
-0.16262 -0.214528 0.534704
0.00635839 0.188798 0.31422
0.00195679 -0.180102 0.0524184
0.0161159 0.224007 0.554326
0.0123868 0.0545842 0.169254
0.0321102 0.211018 0.302868
-0.00801221 -0.348792 0.35302
-0.00697095 0.217718 0.0476778
-0.00516138 -0.122848 0.380509
-0.000628233 -0.173334 0.265558
-0.0077106 -0.145595 0.104556
0.00296718 0.239166 0.347642
-0.00855215 0.255519 0.0245958
0.00205717 -0.130578 0.368425
-0.00617601 0.422352 0.314192
-0.00380076 0.218446 0.336726
0.00252791 -0.222474 0.381153
0.00728422 0.376505 0.191744
0.163353 -0.222973 0.524359
0.000796276 0.0920902 0.547887
-0.00422975 -0.409999 0.295975
-0.00904604 0.130296 0.168435
0.0931746 -0.2198 0.526614
-0.00136472 -0.4765 0.232736
-0.00257294 -0.0130125 0.315053
-0.00773153 0.458355 0.130412
0.00441191 0.104363 0.344883
-0.162878 -0.217682 0.529621
0.00219381 0.417514 0.103263
0.0104874 -0.430455 0.292128
-0.00148214 0.126704 0.204106
0.0484344 0.272953 0.227521
0.00355643 -0.180047 0.310936
0.0489037 0.309068 0.181794
0.00785249 0.469438 0.241041
-0.0253828 0.326196 0.175668
-0.0103096 -0.342343 0.348549
-0.010519 -0.381074 0.331109
0.010194 0.391084 0.0319873
-0.00836557 0.332703 0.206583
-0.00828847 -0.296272 0.344288
-0.00387845 0.341397 0.0233532
0.0995828 0.122438 0.234434
0.0031123 -0.445593 0.258624
0.00838307 -0.464326 0.210571
-0.0219477 0.307474 0.181268
0.0077683 0.365807 0.191707
-0.0448581 0.26619 0.248303
-0.00148065 0.274447 0.0033211
0.0101078 -0.14754 0.25403
-0.00349918 -0.165711 0.294736
0.00873768 0.129035 0.547243
-0.00401743 0.000163727 0.266019
-0.00418802 -0.272115 0.333933
-0.00827314 -0.373429 0.0173297
-0.0525631 0.301291 0.175585
0.0121567 -0.311377 0.205012
-0.00397654 0.243921 0.0118524
-0.00780303 -0.00657581 0.317906
0.0399495 -0.305736 0.184977
0.0051206 0.317079 0.00203077
-0.0284135 0.295003 0.18693
-0.0078289 0.309443 0.182963
4.93695e-05 -0.17664 0.27082
0.0330417 0.0932368 0.229107
-0.0584203 0.0217422 0.0859011
-0.00697095 -0.143831 0.173958
-0.0115986 0.292818 0.175045
0.00823872 -0.257775 0.0121235
0.0011681 0.444826 0.292148
0.00697089 -0.164486 0.107872
-0.0432592 0.276646 0.196915
-0.0031987 -0.385279 0.265372
0.00726951 0.0727554 0.425118
0.0292205 0.212053 0.319332
0.00569941 -0.358686 0.249769
0.0102563 -0.386282 0.326913
-0.00136161 0.453467 0.135535
-0.00493491 0.32314 0.334375
-0.0231987 0.0848185 0.198411
0.00884178 -0.47879 0.182351
-0.0093801 -0.478303 0.139351
-0.0102658 0.195329 0.048164
0.00723372 -0.0311493 0.422495
-0.0396727 0.175352 0.534142
-0.00981208 0.208505 0.314817
-0.00993001 -0.315711 0.205235
-0.00609753 0.0670717 0.163715
0.144877 -0.212164 0.52173
-0.0765691 -0.0195752 0.0842751
-0.0226625 0.0225099 0.141727
0.0327928 0.076101 0.20052
-0.00417041 -0.128315 0.212093
-0.0126239 0.0960959 0.544153
-0.00568406 -0.199087 0.0604253
-0.000760825 -0.143679 0.188969
-0.00113072 0.221217 0.0485808
-0.00442082 -0.15 0.162856
0.00582267 0.063224 0.196111
-0.00113527 -0.18327 0.287549
0.0486444 0.21308 0.511409
0.0406316 0.289237 0.18777
0.0102419 0.315844 0.187216
0.0075797 -0.0608398 0.342098
0.00810542 -0.30375 0.194307
-0.00483944 0.231765 0.317456
0.00404054 0.151658 0.0872007
-0.00421122 0.457354 0.272177
-0.00104791 0.124613 0.369191
-0.00419334 -0.0691765 0.421111
-0.0330315 0.0032315 0.070687
-0.0167668 0.172872 0.498899
-0.00142548 0.330493 0.338545
0.0199339 0.130466 0.537014
-0.000555699 0.147785 0.217641
0.0316726 0.183172 0.345678
0.0993003 0.122985 0.234425
0.00215553 0.0478934 0.162397
0.000579167 0.178885 0.548836
-0.00481129 0.206224 0.552751
-0.00238506 0.0546722 0.30131
-0.0103826 -0.309519 0.352146
0.00529438 -0.154804 0.394977
-0.00341885 0.183851 0.0819097
0.0103211 -0.204254 0.0480565
0.000744272 -0.444454 0.170655
-0.00804014 -0.255535 0.351039
0.0559778 0.107632 0.234692
0.00648506 0.118751 0.520642
0.0811932 0.0868489 0.239169
-0.00331613 0.148414 0.267725
-0.0917896 -0.225996 0.523217
-0.0331005 0.190198 0.500938
-0.00706419 -0.129627 0.208192
0.00294072 0.0209566 0.431472
0.000143312 -0.305393 0.00241844
-0.0512563 0.0141291 0.0778552
-0.00617827 0.0495089 0.170853
0.00811421 -0.31534 0.344003
-0.0071911 0.473853 0.230585
0.00837621 0.288152 0.128203
0.00559779 -0.359967 0.0310836
-0.00562534 -0.340538 0.356911
0.00150748 0.143675 0.173196
0.0174989 0.117089 0.26078
-0.0092758 -0.138927 0.117748
0.00833543 -0.236454 0.0195759
0.0122997 -0.218435 0.391485
-0.00640612 0.478213 0.213794
-0.00457238 -0.200735 0.520531
0.00612617 -0.170723 0.261069
0.00582167 0.158617 0.506579
0.0097831 0.395162 0.0327452
0.14937 -0.226025 0.531043
-0.00588727 -0.464094 0.201267
-0.00406082 0.257032 0.00714535
-0.00141153 0.389802 0.337531
0.00863014 0.126327 0.159909
-0.00645274 0.417065 0.316535
0.0977957 0.123969 0.251569
-0.0305841 0.308614 0.17972
-0.0013411 -0.454874 0.084225
0.010118 0.466447 0.237616
0.0213416 0.152532 0.509093
-0.0294931 0.033999 0.123093
-0.00831043 0.344865 0.0222266
0.00747423 0.106623 0.416615
0.00168434 -0.161862 0.256501
-0.000613298 -0.240462 0.0440439
-0.0472951 0.00246591 0.0789264
0.00342445 0.353783 0.277743
-0.0319594 0.203149 0.220286
-0.00981634 -0.332642 0.22375
0.00704681 0.12463 0.389721
-0.0222623 0.179371 0.362888
-0.10498 -0.22747 0.533468
0.000962659 -0.0528383 0.332813
-0.00478604 0.327203 0.00301018
-0.0450059 0.225417 0.211656
-0.0183247 0.120956 0.26294
-0.00131599 0.412026 0.323523
-0.00799041 -0.0117802 0.423864
0.00907964 -0.474654 0.145464
0.00697089 -0.32559 0.0238083
0.00565992 0.158841 0.505941
0.005926 0.118297 0.358172
-0.0226913 0.06539 0.195171
0.00282911 0.376052 0.0157342
-0.0123072 0.189817 0.498782
0.00810645 -0.0333254 0.42574
-0.00109833 -0.294839 0.00264745
0.00899667 0.476911 0.155601
-0.00660807 -0.292625 0.358855
0.00403919 0.479926 0.146857
-0.00412811 -0.262254 0.355858
0.00498037 -0.137792 0.118809
-0.0711403 -0.0199037 0.0857534
-0.0231987 0.0108264 0.173165
-0.00797873 0.142549 0.194984
0.00530483 0.233193 0.235609
-0.0429508 0.19115 0.544638
-0.0231676 0.299591 0.194789
0.028277 -0.283548 0.207533
-0.00697095 -0.154039 0.126697
-0.042973 0.180738 0.529686
-0.00155471 -0.185744 0.0475458
-0.00394616 -0.47775 0.229381
-0.0105181 0.47015 0.144478
-0.0365466 -0.285631 0.22235
0.000869099 0.224842 0.34114
-0.0237349 0.0290796 0.14926
-0.00347513 0.419305 0.0430732
0.00697089 0.460852 0.146366
-0.00552615 -0.0742147 0.422329
-0.0054021 -0.00598378 0.41902
0.00101329 -0.476928 0.23176
-0.00860316 0.407549 0.038313
0.00215701 0.225328 0.313713
0.00585349 0.335105 0.0276712
0.00697089 -0.188546 0.0701605
0.00978756 0.17055 0.364516
0.0100989 -0.473669 0.213053
0.0105572 -0.135157 0.168056
-0.0132458 0.228988 0.51975
0.0383443 -0.276041 0.224364
0.00613291 0.13688 0.436806
0.00768536 0.281835 0.340137
0.00638733 -0.0730307 0.356431
0.0036461 -0.357394 0.352786
0.0111853 -0.195007 0.430577
-0.00145576 -0.218076 0.523859
-0.0026171 0.321941 0.358883
0.00733865 -0.476382 0.141512
0.00919196 0.151869 0.263564
-0.00879935 -0.201434 0.323237
0.0335062 0.11518 0.251527
-0.00410036 -0.184693 0.480647
0.00539612 -0.397402 0.0300361
-0.0382316 -0.2565 0.271427
-0.00676253 0.347037 0.353936
0.00785702 0.056033 0.294648
-0.0865348 -0.0168372 0.0865745
0.0454524 0.300989 0.184814
0.0380247 0.221772 0.546194
-0.0199412 0.0795495 0.156823
0.00862385 0.480013 0.147408
0.0102966 0.311009 0.346723
-0.15881 -0.220625 0.522609
-0.00813785 -0.343612 0.0104952
-4.02671e-05 -0.201446 0.298309
0.00261241 0.377748 0.0429549
-0.00238616 -0.154646 0.280451
0.0103226 -0.444541 0.0833816
-0.000165794 -0.167586 0.298014
0.000594825 0.0547783 0.177395
-0.0101048 -0.186053 0.443967
0.00154341 0.180621 0.0857349
0.0103454 0.368032 0.338305
0.0065367 0.164849 0.0708398
0.00726369 -0.201588 0.423961
0.00428793 -0.232236 0.26017
0.00449683 0.128062 0.215071
0.00171293 0.482326 0.153455
-0.0242122 0.0648031 0.151669
-0.0472951 -0.00304902 0.0693146
0.00239323 -0.416159 0.0420476
0.00683473 -0.476784 0.141774
-0.02691 0.0655492 0.15637
-0.00285301 -0.167877 0.466095
-0.0700856 0.0168923 0.068824
0.00257615 -0.407582 0.0349216
0.00801495 -0.360757 0.148987
-0.0231987 0.100933 0.172849
0.0059816 0.155316 0.377299
0.0361093 -0.231079 0.306406
0.00196137 -0.0797658 0.420693
-0.0095435 -0.136345 0.226754
-0.00697095 -0.256097 0.0301739
0.0105359 -0.459674 0.250244
0.00122027 -0.228217 0.344794
-0.00281156 0.135112 0.237995
-0.0058244 0.317425 0.094727
-0.00250047 -0.430084 0.309928
0.00218278 0.216982 0.336256
0.0728032 0.105201 0.234735
0.00162194 -0.271654 0.358628
-0.00903404 -0.361662 0.0155679
-0.0252584 0.185189 0.202968
0.0276747 0.0717171 0.173775
0.00118761 0.0979795 0.27638
0.0076927 -0.184625 0.398828
0.00671393 0.067938 0.188073
-0.0427311 0.237557 0.28011
0.0122858 0.29682 0.202948
-0.0385805 0.228983 0.523993
0.010574 -0.171375 0.0773807
-0.0189477 0.285447 0.19284
0.0687332 -0.225234 0.522027
-0.00274376 -0.461675 0.215249
-0.00697095 -0.408685 0.060549
-0.0163162 0.104866 0.532383
-0.00220122 0.277471 0.00208108
0.022026 0.0528777 0.159904
-0.00697095 -0.450046 0.237537
0.00528399 0.451949 0.244246
0.00777024 0.131662 0.214997
0.166541 -0.211825 0.520379
-0.00697095 -0.462334 0.189219
0.00697089 -0.2023 0.303044
-0.00673121 0.0819165 0.236972
-0.00615973 0.169162 0.37358
-0.0172486 0.127049 0.517659
-0.0959478 0.0255353 0.0686731
0.0106824 0.157786 0.0971517
0.00867644 0.479038 0.184949
0.0482575 0.299849 0.187232
0.00697089 0.443989 0.253568
-0.00978823 -0.332598 0.0195277
-0.0252584 0.228353 0.204637
-0.00547374 -0.386133 0.193317
-0.0102702 0.0849859 0.545521
-0.0351544 0.193883 0.234574
-0.00508693 -0.43381 0.0860761
-0.0202668 0.130445 0.529362
-0.010051 0.302427 0.181978
0.048007 0.187572 0.533033
0.00376415 -0.144256 0.199509
0.00609388 -0.00867302 0.261625
-0.00704174 -0.396259 0.314428
-0.0103287 -0.18706 0.306246
-3.96102e-05 0.458065 0.194581
-0.00766755 -0.187013 0.399797
0.00884389 -0.466426 0.246627
0.010526 -0.202908 0.424265
0.0265967 0.0578642 0.157837
-0.0430053 0.0386149 0.134207
-0.00697095 -0.148917 0.20653
-0.0865569 0.0122689 0.0860665
0.00697089 0.325293 0.0206207
-0.0194691 0.294418 0.195867
0.0136987 0.157066 0.547336
0.0233677 0.184044 0.357115
0.00211814 -0.411317 0.0379379
-0.00906863 0.475896 0.220514
0.0113966 0.271764 0.179262
0.00835478 0.478048 0.20403
-0.00697095 0.460068 0.14253
0.0335348 0.149312 0.242274
-0.0274295 0.0629878 0.16278
-0.0282755 0.316991 0.185829
0.00258024 0.38769 0.267765
0.00988229 -0.239648 0.0297143
-0.0103841 -0.368694 0.336207
-0.00402147 -0.290311 0.00264069
-0.00709926 -0.465212 0.176491
-0.00711486 0.143503 0.169171
0.00613337 0.0825858 0.262164
0.00516472 -0.193473 0.421543
-0.00394115 -0.102522 0.372197
-0.0252584 0.318962 0.155793
-0.00691033 0.246223 0.34691
0.00710101 0.158074 0.0800812
-0.0073831 -0.481537 0.206125
-0.0491549 0.193558 0.535367
-0.0372651 -0.271505 0.223935
0.0146268 0.224061 0.513194
-0.000695452 0.293606 0.0245997
-0.00783644 -0.128345 0.18792
-0.04944 -0.00988349 0.0749684
0.00880497 -0.433432 0.299532
-0.00869131 -0.141448 0.182767
-0.00209834 0.0104464 0.226065
-0.00673937 0.480892 0.197561
-0.0237349 0.032814 0.136266
-0.0056259 0.219429 0.337037
-0.000443618 0.436006 0.0869212
0.00951584 -0.295965 0.345866
-0.0308737 0.0253393 0.109575
-0.00172175 0.164198 0.547788
-0.0102404 -0.214386 0.32765
0.000812208 0.459636 0.166756
-0.00909407 0.471108 0.230775
0.0053542 -0.169602 0.065808
0.00469726 -0.125666 0.203119
0.00983512 -0.429512 0.0621793
-0.00200253 -0.394092 0.315583
0.0396551 0.240118 0.283145
0.00697089 -0.388465 0.0498807
0.000288368 -0.332635 0.0236655
-0.0981576 0.0114683 0.0689187
-0.0100482 -0.408221 0.319908
0.00975071 0.462144 0.227897
0.00933936 0.137668 0.229565
0.0103075 -0.324741 0.347639
0.00945524 -0.230753 0.530151
0.0379537 -0.227603 0.334038
0.00578284 -0.321129 0.00460255
0.00646486 -0.269799 0.121351
-0.0111008 -0.227672 0.522302
-0.026245 0.295545 0.18539
-0.00337986 0.477957 0.134678
0.00966061 -0.129461 0.208159
-0.0064154 0.340116 0.00486197
-0.0039666 -0.135047 0.438387
-0.00831326 -0.432218 0.0616118
0.00890087 -0.452477 0.111955
0.0106571 -0.345228 0.0179241
-0.00445032 0.128888 0.389429
