0.0431799 0.212105 0.222485
0.00173323 0.363198 0.302632
0.00139131 -0.401739 0.0866439
-0.00684827 0.00923792 0.244883
-0.00621644 -0.223885 0.198324
0.00493703 -0.170268 0.472266
-0.00231142 0.318511 0.0488926
0.000175055 0.291426 0.0347383
-0.000554426 -0.404588 0.282565
-0.0373148 0.163523 0.245636
-0.00711225 0.117161 0.37246
-0.000519971 0.291851 0.32325
-0.0511281 0.28748 0.211564
-0.0240491 0.143701 0.118966
0.00506241 0.309759 0.284437
0.00222437 -0.408469 0.25596
-0.0419299 0.0262405 0.121371
0.0430052 0.072893 0.181401
0.0106694 0.268862 0.181221
0.00365452 0.292011 0.0658339
0.00429855 0.336537 0.0718573
0.036697 0.204161 0.314771
0.00794605 -0.12604 0.432663
-0.0261768 -0.215625 0.360585
0.00373744 0.079535 0.215335
-0.00474853 0.147967 0.462417
0.00814014 -0.337664 0.00946939
0.000833574 0.430674 0.238528
0.0489037 0.313766 0.174047
-0.0418249 -0.221753 0.535423
0.0326526 -0.306516 0.174635
0.00763381 -0.315403 0.131459
-0.00805831 -0.476001 0.143725
0.00213835 0.191095 0.0413124
-0.0419358 0.0401132 0.14495
0.00691363 -0.0534142 0.337201
-0.00403788 -0.125717 0.182407
0.00777352 -0.189428 0.0483842
-0.0218539 0.188128 0.202708
-0.0439409 0.182271 0.528723
0.00326105 0.0681843 0.42912
0.00817496 0.435014 0.0626351
0.00534387 0.154418 0.547096
-0.00283429 0.269353 0.331515
-0.00896317 -0.329743 0.218605
0.0182015 0.110139 0.260101
-0.00201155 0.196478 0.106821
-0.0252584 0.111959 0.117208
-0.00240862 -0.313764 0.311112
-0.00845964 0.343082 0.18163
-0.00924709 -0.171424 0.29825
0.000465599 -0.476343 0.233714
-0.00856178 0.343103 0.216201
-0.0422489 0.236268 0.282895
-0.00900715 -0.250488 0.0161108
-0.0029671 0.0505137 0.153432
-0.00368466 0.151464 0.400807
-0.00259501 -0.171875 0.0599384
-0.0105441 0.320698 0.1626
-0.0101948 -0.322327 0.016166
-0.00906771 -0.265889 0.15439
-0.000345344 0.377088 0.0155728
0.00676453 -0.358605 0.135046
0.0358919 0.186554 0.505594
-0.00803104 0.426856 0.306632
-0.00182227 0.474724 0.124455
0.0041995 -0.180559 0.407601
-0.00383789 -0.37305 0.34699
-0.0377262 -0.291949 0.191814
0.0286849 -0.267809 0.231815
-0.00144375 -0.341122 0.0504902
0.0450702 0.273884 0.239291
-0.00718588 -0.0664587 0.424132
0.0201937 -0.21342 0.352921
-0.00605007 0.18161 0.30843
-0.00301315 0.338437 0.35559
-0.0215048 0.0125061 0.17761
-0.00681971 0.268294 0.242936
-0.0446466 0.247792 0.197787
0.00596117 0.224403 0.195858
0.00687523 0.29312 0.114175
-0.00680868 0.0333473 0.198761
0.00575253 -0.393504 0.028316
0.00258851 -0.0228804 0.278553
0.00333261 -0.134862 0.124854
-0.00407968 -0.451831 0.0796765
-0.0242547 0.107735 0.269418
-0.0924121 -0.227547 0.5316
0.0486755 0.086876 0.249122
-0.012249 -0.292666 0.167774
-0.00814928 0.00591432 0.424902
0.0215417 -0.228424 0.524204
-0.0507235 -0.0111628 0.0788746
-0.00531485 0.096499 0.314559
0.0414543 0.262451 0.190749
0.0123868 0.0480224 0.161747
0.0275463 0.159789 0.23951
-0.00936256 0.346862 0.147109
0.00903127 -0.288212 0.14572
0.011947 0.330044 0.173742
0.00670276 -0.273472 0.233212
-0.00330438 -0.424346 0.147366
0.00308737 -0.377881 0.283181
0.00958735 0.232716 0.017325
0.000931026 -0.137307 0.247034
0.0577176 0.137323 0.236896
-0.00789476 0.149487 0.263585
-0.00769218 -0.00698255 0.323723
-0.0026326 -0.195759 0.300549
-0.00453303 0.12064 0.519963
0.00788366 -0.189836 0.500668
-0.0282121 -0.242055 0.31634
-0.00475713 0.118134 0.425916
0.00697089 0.441716 0.0990522
-0.00646105 0.382495 0.178453
0.117752 -0.222274 0.535212
0.00857027 -0.338984 0.187274
0.00364761 0.232623 0.277503
-0.0670887 0.0302339 0.0685911
-0.00474187 0.227265 0.341339
-0.00697095 -0.320453 0.341761
0.0245316 0.177679 0.362919
0.00412392 -0.451141 0.284756
0.00788852 -0.0790598 0.351271
-0.00973278 0.174395 0.498573
-0.0373844 0.234896 0.534543
-0.00258904 -0.220959 0.0506675
-0.00403473 -0.334522 0.0791697
0.00717981 -0.314306 0.245105
-0.0136648 0.180365 0.549167
0.00934959 0.159499 0.0837166
-0.0103074 0.305135 0.214799
0.00645203 -0.164397 0.42766
-0.00559314 0.379232 0.23731
0.00580539 -0.465081 0.187318
0.00760698 -0.276084 0.340892
0.00884986 0.483321 0.170283
-0.034191 -0.284617 0.228088
-0.0194854 0.0683505 0.142304
-0.000478393 -0.200716 0.0794391
0.00402831 -0.234136 0.257856
-0.00697095 0.401836 0.0550953
-0.00467312 0.471748 0.245482
0.0011898 0.157496 0.167048
0.0118662 -0.208354 0.38899
0.0100696 -0.414293 0.314596
0.0037206 0.179927 0.363135
0.0484055 0.225144 0.520247
0.000716069 -0.225525 0.0678552
0.00234197 0.276238 0.356781
0.00697089 -0.148782 0.17387
-0.00919643 0.312202 0.23508
0.001153 -0.441919 0.11649
-0.00653544 -0.355101 0.239667
0.00818132 0.0680797 0.28693
0.0104556 0.333952 0.0152771
0.00885374 0.129943 0.18278
-0.0120664 0.284901 0.165587
-0.000232094 -0.20567 0.43776
0.00957283 -0.285333 0.203006
-0.00923399 0.444872 0.263814
-0.00465096 -0.205153 0.331808
-0.0226625 0.105499 0.156416
0.00959869 -0.285077 0.00398904
0.00970778 0.135712 0.22023
-0.0199412 0.064843 0.178585
-0.0102593 -0.160382 0.0980723
0.0437422 0.197078 0.546169
-0.00185789 0.126574 0.547286
0.00974832 0.350068 0.338486
0.00692016 0.462818 0.153215
-0.0307844 0.209841 0.504654
0.0430052 0.0985711 0.220045
0.00104785 0.196761 0.0604542
-0.0402394 0.257175 0.242633
-0.0381432 0.206629 0.316309
0.00671248 0.0816445 0.254358
-0.00355324 -0.245783 0.35075
-0.00241096 -0.199412 0.468237
0.00179622 -0.151987 0.212225
-0.0468915 0.310505 0.190733
-0.00536762 0.40467 0.305574
-0.00557675 -0.092353 0.423221
0.00314592 0.391307 0.337443
0.00231438 -0.170296 0.271002
-0.00681756 0.329085 0.114503
-0.00865977 -0.338787 0.167238
0.0339601 0.118847 0.238425
-0.00106611 -0.368655 0.316493
-0.00802636 0.460608 0.224626
-0.021574 0.052105 0.193687
0.00191271 0.170469 0.213619
0.00635571 0.21342 0.3065
-0.00648208 -0.450345 0.250332
-0.042255 -0.000361654 0.0845836
0.00872921 -0.377322 0.0358501
0.00689582 0.111743 0.342434
-0.100583 0.0202985 0.075167
0.0132868 0.151346 0.50825
-0.00588914 0.264135 0.023845
0.0411707 0.286406 0.207582
-0.0192625 0.137344 0.540653
0.00940924 0.317255 0.343854
0.00552952 0.345928 0.259386
-0.00697095 0.382986 0.0414536
0.0117747 0.216181 0.507315
0.00228797 0.379399 0.0711623
-0.0662482 -0.0192845 0.0866173
-0.00740019 -0.378705 0.155858
0.0356491 -0.263178 0.270287
0.00269481 -0.45708 0.15343
-0.00251631 0.142745 0.437962
0.00933338 -0.426513 0.0517229
-0.0243675 0.222889 0.129727
-0.00822834 -0.291715 0.114891
-0.00299004 0.423901 0.172955
-0.00932923 -0.209555 0.520438
-0.00166712 -0.41939 0.101603
0.00697089 -0.252296 0.0341437
0.00823571 0.452901 0.279668
0.00974667 -0.261738 0.194175
-0.00444354 0.116926 0.388604
-0.00923006 0.15609 0.250297
-0.0329397 0.0114659 0.0873609
-0.00607497 0.033137 0.417873
0.00697089 0.158398 0.115891
-0.0226625 0.0617795 0.118813
0.00348026 0.193682 0.17368
-0.0039069 0.0703452 0.183759
-0.0101503 0.178715 0.0624627
0.00713101 0.0180032 0.313797
0.0372107 -0.235524 0.330588
-0.0276113 0.306963 0.186365
0.00163271 -0.317312 0.0405266
0.0661117 0.113858 0.246185
0.009628 0.212593 0.0294844
0.000215546 -0.341641 0.322286
-0.000835461 -0.145756 0.392942
-0.0332092 0.220938 0.218552
-0.00950169 0.263361 0.16031
-0.0107878 0.224331 0.554949
0.00189798 -0.158669 0.127952
0.0103025 -0.311014 0.348592
-0.0784194 0.00043234 0.0862731
0.00740986 0.403814 0.0312735
0.00682268 -0.0374918 0.309592
0.0774299 0.099448 0.251997
-0.00870852 -0.457056 0.267725
0.00325016 0.253712 0.0651843
-0.0488673 0.219158 0.529988
-0.0120109 0.2856 0.197011
-0.00255835 -0.468635 0.108879
-0.00643217 0.0957663 0.282651
-0.0222056 0.135646 0.253163
0.00534562 0.240428 0.231388
0.0112514 0.301328 0.153117
-0.00484003 -0.482035 0.200085
0.00291901 -0.309548 0.179296
-0.0230447 0.156754 0.50796
-0.0210699 0.0255391 0.147232
-0.0101182 -0.366332 0.0213467
0.0348579 0.16851 0.53318
0.00708079 0.00415599 0.428784
-0.00967061 0.319198 0.00692003
0.0339033 0.254547 0.259356
-0.0662623 -0.216188 0.528966
-0.0433547 0.282788 0.18161
0.00697089 -0.428646 0.278347
-0.16611 -0.209868 0.521538
0.14879 -0.209349 0.530773
0.0337771 0.30638 0.174434
0.00315605 0.386267 0.266846
0.00729098 0.167 0.290813
0.016117 0.104145 0.537395
0.00697089 0.46295 0.197938
-0.00854592 -0.212502 0.316777
0.00663846 -0.0392766 0.431449
0.000863315 -0.444839 0.218864
-0.0068881 -0.400427 0.0527286
-0.00851012 0.281992 0.214327
0.0130577 0.305821 0.196099
0.0397791 0.0490193 0.162356
-0.0112073 -0.207841 0.403586
-0.00226418 -0.341872 0.356999
0.020928 0.133535 0.529
-0.0106289 0.221607 0.511363
0.00423416 -0.209333 0.366738
-0.0199412 0.0434265 0.173694
-0.00312571 -0.291218 0.0558775
-0.0041373 0.458851 0.0903135
-0.00472035 0.455157 0.124416
-0.12332 -0.216946 0.521387
-0.00703245 0.233442 0.035303
-0.0104093 -0.202701 0.0450434
-0.00800773 -0.130188 0.15251
-0.0338742 -0.221109 0.328236
0.00351085 -0.12801 0.217514
-0.00921527 -0.286105 0.355118
-0.00697095 -0.280242 0.0274757
-0.00808867 -0.100253 0.364247
-0.00181499 -0.182296 0.446499
0.00327977 0.426008 0.0749284
-0.0193244 0.170861 0.370766
0.0872043 0.129337 0.251475
-0.0103835 0.146196 0.233842
0.00246206 0.149003 0.184698
-0.00929373 0.306489 0.355016
-0.00120908 -0.387076 0.31346
-0.000451267 0.156449 0.140234
-0.00521814 -0.157101 0.247039
-0.00706805 0.0239084 0.220229
0.0105441 -0.161949 0.0931389
0.00511485 0.380016 0.210155
0.00839267 -0.22565 0.0250292
0.00829898 0.200242 0.551914
0.00617949 -0.481438 0.165114
0.0374777 0.186202 0.237375
0.0487142 -0.219436 0.534546
-0.00199819 0.355882 0.0334118
-0.00308199 0.0437649 0.174722
-0.010051 -0.310458 0.191102
0.0100655 0.47246 0.140525
-0.0252295 0.22125 0.204515
-0.0241052 0.307976 0.149563
0.00935937 0.232502 0.327641
0.0750236 0.0968057 0.234881
0.00543157 0.42589 0.28514
-0.010051 0.316901 0.177049
-0.0384094 -0.265319 0.246532
-0.00904276 -0.426115 0.306927
0.00763151 0.307443 0.0184323
-0.00755494 0.253323 0.192031
0.00612215 -0.262814 0.11307
0.00715914 -0.240781 0.143901
0.0945543 -0.214269 0.53225
0.0264277 0.137278 0.260064
-0.00633712 0.263168 0.112042
0.037503 0.23942 0.213037
-0.00337719 -0.151883 0.275296
-0.00446544 -0.163098 0.501833
-0.00868088 0.286624 0.141891
-0.0077936 -0.398387 0.3309
-0.0102837 -0.300986 0.223666
-0.00471536 0.0911262 0.413935
0.0105246 -0.221871 0.329804
0.00164424 -0.249519 0.296075
-0.00149208 0.152011 0.376946
0.00594045 0.377386 0.135829
0.00162542 -0.446022 0.169957
0.00975465 -0.472534 0.134076
-0.00369608 0.202946 0.327736
0.022732 0.192781 0.341311
0.0252535 0.22362 0.5513
0.00500651 -0.325426 0.274195
0.0129398 0.194965 0.49987
-0.00697095 0.181103 0.282377
-0.0284024 -0.249994 0.290386
0.0109471 0.320409 0.207662
0.0306942 0.0697614 0.164953
0.0313009 0.0791784 0.205288
-0.00497192 -0.138396 0.437842
-0.00672122 0.170184 0.091029
0.00880994 -0.310005 0.00736757
0.00688367 -0.340255 0.0249843
-0.00258901 -0.0129244 0.262986
-0.00806077 -0.066369 0.349082
0.000229975 0.0708974 0.233783
0.00336941 0.279065 0.284206
-0.0252584 0.189948 0.125784
0.0382786 -0.290322 0.198792
0.011109 -0.204587 0.414051
0.00903135 0.473997 0.220467
-0.00982127 0.427805 0.0705277
-0.0153289 0.102151 0.526107
0.00251964 0.259302 0.00615808
0.136267 -0.215653 0.520577
-0.00829274 0.147124 0.101636
-0.00765734 -0.225289 0.388004
0.00945432 0.255495 0.346807
-0.00462058 0.355594 0.00771052
-0.0103178 -0.229955 0.0276439
-0.0326691 0.226163 0.301953
-0.0372559 -0.29122 0.209938
-0.0409682 0.185982 0.23053
-0.0101558 -0.176213 0.0760513
-0.00690517 -0.425573 0.0763226
-0.0400477 0.199567 0.549367
0.00611339 0.150704 0.487408
-0.00221959 -0.24815 0.0592256
-0.0210955 -0.227375 0.345685
-0.00791424 -0.228792 0.532591
0.00119523 0.43184 0.144467
-0.0106825 0.136035 0.173489
-0.00848868 -0.355897 0.198022
0.00830112 0.3236 0.140102
0.0533902 0.30167 0.193014
-0.00120462 0.338266 0.312501
-0.0599131 0.0155058 0.08601
-0.00110124 0.38366 0.319752
-0.00802412 -0.0408283 0.428239
0.00866803 0.411782 0.0420254
-0.000940574 -0.183022 0.314113
-0.010559 0.140142 0.222991
0.00340839 0.161187 0.365907
-0.00980862 -0.26983 0.351339
0.0104837 -0.354627 0.344123
-0.0231165 0.0892098 0.135894
0.0051783 -0.252688 0.328363
-0.00946084 0.279622 0.342059
-0.0231987 0.0166628 0.134594
-0.010549 0.47205 0.181283
0.00694249 0.412108 0.320519
-0.00478002 0.212484 0.218735
0.00181354 -0.09312 0.437252
-0.0241306 0.320108 0.199366
-0.00780978 0.478851 0.155682
0.00738977 0.263564 0.216337
0.0088148 -0.441546 0.0739003
0.00746156 0.454285 0.239721
-0.0769175 -0.00560349 0.0692167
-0.00633662 -0.0413195 0.32623
0.00917757 -0.162212 0.0808132
0.0132634 -0.182371 0.473973
-0.0284423 -0.229081 0.525089
-0.00614293 0.237105 0.539445
0.00471411 -0.259721 0.267186
-0.0362619 0.0580825 0.169235
0.00787841 -0.143425 0.201487
-0.0371303 0.061623 0.151657
-0.00218283 0.397719 0.0905802
0.0102607 0.15707 0.258001
-0.00671664 0.0638341 0.293574
0.0209917 0.175079 0.548909
-0.0096709 0.143134 0.148086
-0.00255808 0.0620378 0.201073
-0.0384442 0.278088 0.231464
0.0108063 -0.31331 0.199333
0.0110586 -0.190449 0.45161
0.00798924 -0.201564 0.0385862
-0.0389123 0.250732 0.270533
-0.0202497 0.0773423 0.161774
0.000228767 0.0676598 0.160307
0.00740693 0.293438 0.243619
0.0106899 0.293058 0.348235
-0.00891283 -0.275152 0.208512
0.00033074 -0.292826 0.326868
0.00898511 -0.143219 0.15541
-0.00977843 -0.469059 0.169748
0.0104681 0.443408 0.0816855
-0.0136622 0.137228 0.513999
0.00792028 0.145309 0.210488
0.00273978 0.213583 0.247136
-0.00406971 -0.374918 0.256397
0.00463089 0.134818 0.410612
-0.0365168 0.187659 0.505809
0.00936336 -0.209247 0.518112
-0.0079789 0.129108 0.198274
0.00925042 -0.464275 0.250676
-0.0040807 0.158523 0.0757995
-0.0101956 0.212549 0.0408754
0.00514105 0.266498 0.0875015
0.00497746 -0.02021 0.296508
0.00981394 -0.188388 0.0640056
-0.00563504 -0.253779 0.244349
0.00843006 0.461524 0.263649
-0.00669766 -0.129053 0.381506
-0.0229926 0.248106 0.203768
0.0104223 -0.382903 0.33289
0.0102326 -0.428252 0.30073
0.0106936 -0.272312 0.169257
-0.00655133 0.103602 0.33234
-0.00922175 -0.30072 0.00614426
-0.0282996 0.159409 0.530269
0.0170613 0.230694 0.523499
-0.00594456 0.0926954 0.267531
-0.00868001 -0.434525 0.0646248
0.0327923 -0.247104 0.311928
-0.00943128 0.400242 0.325028
-0.00697095 0.19742 0.297977
-0.0384595 0.299136 0.177247
-0.00449875 0.101543 0.547722
-0.000888917 -0.159235 0.381297
-0.00697095 0.359945 0.326037
-0.0271445 -0.308881 0.18029
0.00297014 -0.410189 0.302834
-0.00787209 -0.188308 0.506998
-0.0232706 0.0822082 0.197075
0.00775344 -0.0215288 0.324672
0.00996326 -0.467289 0.210615
-0.00634739 -0.140633 0.109257
0.00660226 -0.330344 0.111548
0.000996516 -0.225232 0.367358
0.00418003 0.192923 0.206225
-0.0101846 -0.461384 0.127046
-0.0153175 -0.17884 0.461688
-0.0101653 0.260375 0.346538
0.0284594 0.22061 0.298918
-0.0869607 0.0172826 0.0769288
0.00967896 0.36826 0.342194
0.00197246 -0.30083 0.0211715
-0.0117715 0.19524 0.499928
-0.107468 -0.217591 0.521815
0.0503711 0.278362 0.186753
-0.00397947 -0.27169 0.00621736
-0.00545472 0.302619 0.262289
0.00434435 -0.184327 0.288802
0.00118508 -0.187407 0.422314
0.0486065 0.196355 0.521414
0.00673456 0.352175 0.235845
0.00380246 0.135803 0.117946
0.0103147 0.134562 0.159514
0.0237777 0.172014 0.499082
0.00825949 -0.456708 0.0950144
0.00476776 -0.106095 0.358708
-0.0281825 0.192818 0.326639
-0.0106157 -0.316598 0.176566
-0.00094901 0.0430182 0.306893
0.00756179 -0.34708 0.220652
-0.0199412 0.0543783 0.139864
0.0925957 0.129707 0.234307
-0.0094584 0.288512 0.00669905
0.0271554 -0.219101 0.335748
0.00928626 -0.15634 0.252925
0.00975515 0.192225 0.31167
0.00471337 -0.0358289 0.341227
0.00422435 0.137545 0.243897
0.00988346 0.151026 0.241579
-0.0015173 -0.448159 0.194681
-0.0302109 0.303191 0.199702
0.0057909 -0.302236 0.270088
-0.14342 -0.211068 0.524512
-0.0430416 0.205156 0.222971
0.0105984 0.415778 0.0543284
0.0092458 -0.456642 0.241932
-0.0094341 0.312566 0.142282
0.00975982 0.173353 0.0670147
-0.0345728 0.00401621 0.0682776
0.0102419 0.296574 0.175699
0.0373122 0.231414 0.539133
-0.00484351 -0.147671 0.144872
0.00204726 -0.187815 0.148698
0.0324384 0.0974707 0.234779
-0.0103554 0.140423 0.131852
-0.0106815 0.437184 0.283618
0.0677543 0.125131 0.251549
0.034231 -0.288463 0.220898
-0.0315522 0.0190292 0.103963
0.00788256 0.10256 0.422298
-0.0215193 0.0877512 0.114942
0.0106885 -0.201919 0.315486
-0.00853596 -0.464592 0.210192
0.00832679 -0.166133 0.289804
-0.010625 0.246717 0.338542
-0.00460503 -0.402163 0.152019
0.00953957 -0.263023 0.352341
-0.00256846 0.267824 0.00469319
-0.00604131 0.0118876 0.306188
0.00737335 -0.203293 0.0561965
0.00799746 0.301018 0.222364
0.0536054 0.103781 0.234759
0.0100023 -0.145576 0.229862
-0.00706461 0.111108 0.352667
0.0346451 -0.25227 0.254469
0.00387956 0.0457345 0.429938
-0.00939401 -0.330023 0.13219
0.00517354 0.215286 0.051989
0.0032214 0.416179 0.193079
-0.00909564 0.373246 0.340127
0.0447139 0.257759 0.244047
-0.0415426 0.30079 0.200281
-0.00613147 0.331813 0.338316
0.0102302 -0.448837 0.264562
-0.00331286 -0.44185 0.098617
0.00182134 0.187709 0.0773426
0.0332377 -0.225474 0.316215
-0.0194854 0.0445365 0.141897
0.00697089 -0.409348 0.0664454
-0.0224258 0.0422583 0.209319
0.0910717 0.0852778 0.246022
-0.0301157 0.284725 0.176624
-0.0231987 0.0414035 0.115781
-0.00559663 0.0249574 0.299668
0.00805956 0.465697 0.109495
-0.0102378 -0.133143 0.189822
-2.28554e-05 -0.169187 0.118651
-0.00267406 -0.167465 0.402404
-0.00804231 0.225597 0.0225988
-0.0439986 0.273234 0.198583
-0.00259941 0.25091 0.288138
0.012889 -0.30149 0.165404
0.00552687 -0.127479 0.161857
0.00951195 0.132557 0.206088
-0.0051336 0.327094 0.0262322
-0.0256809 0.151857 0.244461
0.00951328 -0.304976 0.215011
-0.0250511 0.329107 0.178141
0.00119448 -0.483591 0.182884
0.0104501 -0.407237 0.0464878
0.0191402 -0.299858 0.183494
-0.00730429 -0.357123 0.152114
0.00431908 -0.36115 0.0125498
0.00713865 0.0884195 0.279316
-0.00929063 0.476564 0.214267
-0.0103191 0.299834 0.168153
-0.0102697 -0.380016 0.330617
0.0426927 0.283369 0.228077
-0.00852126 -0.23852 0.182381
0.00937098 -0.285816 0.356424
0.00960825 -0.325975 0.207943
0.00383364 0.438218 0.298412
-0.0195603 0.157189 0.547347
-0.00420988 0.232166 0.257299
0.00716925 0.0955156 0.295405
0.000306581 -0.227537 0.34462
0.0056776 0.333177 0.0932101
0.0199194 0.100248 0.271522
0.0112436 0.278731 0.200444
-0.00445194 -0.362599 0.0377318
0.00988295 0.281119 0.0164067
-0.00485482 0.137166 0.452219
-0.0101159 0.387454 0.0292857
0.00697089 0.442005 0.259766
0.0100945 0.353338 0.0211746
0.0315299 0.209781 0.504821
-0.00989251 -0.139854 0.163821
-0.00979712 -0.191982 0.0610528
-0.00868241 0.173506 0.295811
-0.0129692 0.202063 0.552193
0.0025068 -0.332266 0.294282
-0.0112664 -0.208804 0.371518
-0.0057589 -0.404552 0.0343118
0.00474857 -0.435175 0.0876926
-0.00650109 0.231851 0.154828
-0.0486748 0.203961 0.514453
-0.00856378 -0.236299 0.330333
-0.00787154 0.30356 0.0181113
0.0289717 -0.245851 0.275888
-0.0102933 -0.387461 0.0373386
0.00792867 -0.0148666 0.427534
-0.0210699 0.0247819 0.161868
-0.00868604 0.425378 0.0497489
-0.00946208 -0.405724 0.310796
0.00697089 -0.326903 0.336072
0.00444527 0.0960535 0.524682
-0.00639172 -0.260165 0.336757
-0.009704 -0.43896 0.27723
-0.0193779 0.125196 0.5285
0.055258 0.120597 0.251628
0.00427927 0.048819 0.189565
0.0231696 0.197219 0.551546
-0.0089953 -0.416251 0.0625327
-0.00848808 0.416627 0.298146
-0.0142824 -0.227632 0.366736
-0.010521 0.272587 0.185427
0.0485516 0.214233 0.535228
-0.00574244 -0.182833 0.479304
0.00760134 -0.0783203 0.431486
-0.0778343 -0.22935 0.530132
0.00611079 -0.00228973 0.312701
0.0437853 0.242619 0.267836
0.00768885 0.163276 0.380598
-0.00811562 -0.134693 0.229221
0.0068424 0.250099 0.325533
0.00697089 0.157219 0.128892
-0.00652331 -0.214986 0.0290722
-0.11502 -0.222566 0.534402
0.00625802 -0.379618 0.140434
0.00610863 0.317542 0.358579
0.00830117 -0.243401 0.0175136
0.0056153 0.169514 0.267883
-0.00808192 0.159855 0.280936
0.107045 -0.22148 0.521463
-0.00787925 -0.162404 0.434713
-0.00181751 -0.195677 0.400193
0.00928322 0.338616 0.350351
0.0384373 0.171971 0.241444
-0.0367738 0.223334 0.54595
-0.00993706 0.398984 0.035253
-0.0383987 -0.240614 0.303888
-0.0298377 0.31691 0.176996
0.00735404 -0.173361 0.498548
-0.0147254 0.0617818 0.157978
-0.0325757 -0.237722 0.335421
0.00374728 0.409381 0.148315
0.00697089 -0.354969 0.331762
0.0415967 0.0904137 0.200839
-0.00995776 0.196867 0.0448203
-0.0535251 -0.228224 0.523935
-0.00324188 0.127282 0.154408
0.00204376 -0.317216 0.0607878
0.00605372 -0.000314262 0.262936
-0.0234184 0.0976633 0.175081
0.0880481 0.112185 0.244772
-0.00804417 -0.107536 0.431203
0.00555144 0.246304 0.0300771
-0.0280603 0.18189 0.356657
0.0046556 0.00792228 0.232657
-0.00772492 -0.199326 0.420794
-0.0987727 0.00266131 0.0691434
-0.00971458 -0.195109 0.450242
-0.0105907 -0.430328 0.2929
0.0426078 0.106749 0.249635
0.00494561 -0.370469 0.23354
0.00887183 0.467495 0.183308
0.00758311 -0.276358 0.12952
-0.00657962 0.442681 0.108917
0.0151772 0.117757 0.520999
-0.00466533 -0.324126 0.360209
0.0457038 0.184776 0.529077
-0.0294333 -0.27725 0.212567
0.0105989 -0.162335 0.2716
0.0225879 0.175507 0.348955
0.00936108 0.316059 0.00146382
0.00110301 -0.105278 0.374452
0.00335591 0.35608 0.284167
-0.0487615 0.031033 0.0713262
0.0197136 -0.223914 0.367947
0.00609053 0.453682 0.136131
-0.00930745 -0.295616 0.144974
-0.0234072 0.0280799 0.189555
-0.00723783 -0.246837 0.131758
-0.011926 -0.293069 0.200694
0.0291801 0.15801 0.517928
-0.00501388 0.221714 0.317815
-0.00132376 0.308302 0.340692
-0.00963391 -0.45844 0.238577
0.00505176 -0.377331 0.0189214
-0.0101979 -0.456463 0.102263
-0.0746731 0.027938 0.0838547
0.00356946 -0.146034 0.0986565
-0.0273417 0.169638 0.238017
0.00120863 -0.182022 0.0860185
0.00703817 0.117662 0.376254
0.00663207 0.0228843 0.428526
-0.010689 -0.146122 0.124542
0.00174241 0.176269 0.118407
-0.0234114 0.061158 0.210194
-0.00990512 0.197536 0.315843
0.00359199 -0.453297 0.136794
0.0387267 0.200476 0.23107
-0.00697095 -0.439559 0.261479
0.00546598 0.227808 0.55585
-0.00697095 0.34584 0.332351
-0.0672639 0.00795211 0.0751533
0.00270559 0.139465 0.394157
0.00697089 -0.226 0.316015
-0.0258139 0.295308 0.158617
0.0138613 -0.223068 0.535599
-0.0078721 -0.466258 0.192958
0.00849434 -0.359203 0.189577
-0.0085319 -0.257402 0.186142
0.0103241 -0.46847 0.151851
-0.00489582 0.359102 0.249509
0.00697089 -0.316265 0.0220822
0.00948896 -0.401932 0.328414
0.0394541 -0.225334 0.52207
-0.0105572 0.364924 0.0235394
0.00697089 0.394133 0.30815
-0.0307073 0.171329 0.544814
0.0277839 0.0630084 0.180462
-0.00569203 0.44526 0.0716548
0.00689513 0.0210027 0.218451
0.0299633 0.122762 0.255974
0.0489037 0.2936 0.180119
-0.00663395 -0.0289342 0.295365
0.00526055 -0.151973 0.438271
0.0106052 0.154598 0.101631
-0.0304176 -0.264147 0.232506
0.00373079 -0.204586 0.115831
-0.0295174 0.0464919 0.157735
-0.030317 0.311307 0.162441
0.0085095 -0.129427 0.190023
-0.0826866 -0.020914 0.0866457
-0.00251388 0.269152 0.0558566
0.00719401 -0.296021 0.342881
-0.00340456 -0.257898 0.0753876
0.00703372 -0.170409 0.390698
0.00927358 0.423107 0.307171
-0.00542318 0.107558 0.413681
0.00974004 -0.442619 0.294987
-0.000760911 0.00700837 0.323335
-0.0087918 0.245404 0.011561
0.00940092 -0.226602 0.0375686
-0.011624 0.298582 0.156394
0.00866145 0.179736 0.052888
-0.0102648 0.457288 0.25729
0.00622227 -0.142362 0.376702
0.0302375 -0.251868 0.295764
-0.0957145 0.00522037 0.0861895
-0.00672134 0.125209 0.406204
-0.00953579 -0.338852 0.342294
0.00728272 0.259087 0.23489
-0.0283609 0.123494 0.265186
-0.00866966 -0.337879 0.0103659
-0.0392212 0.243692 0.211709
-0.00776574 -0.177349 0.435709
0.00377626 -0.392556 0.246525
-0.00610111 0.155773 0.501818
-0.00697095 0.34264 0.0266304
-0.0034062 -0.298429 0.182346
-0.0338214 0.254836 0.257389
-0.00796371 0.46604 0.109999
0.00367946 -0.222288 0.521775
0.0379621 0.22195 0.208883
0.0101782 -0.137233 0.141103
-0.0109353 0.301867 0.197187
0.003895 -0.253396 0.0102364
0.0101455 -0.475618 0.200008
0.00648999 0.264826 0.0237254
-0.00534163 -0.274471 0.104995
0.0058856 0.146463 0.150023
-0.0297195 -0.266735 0.259983
-0.00697095 -0.262454 0.0312089
0.0743466 0.131794 0.234271
0.0438097 0.246059 0.19823
0.00643134 0.110846 0.358653
0.0310226 0.0935894 0.210425
0.00559065 0.0846936 0.239402
-0.0037774 0.0764435 0.274801
0.0600777 0.0877724 0.235432
0.0086359 0.214784 0.330042
0.0164366 0.310019 0.181628
-0.00519823 0.233684 0.136939
0.00878057 -0.349075 0.152328
0.00830575 -0.454935 0.120736
-0.00601034 0.446113 0.244592
-0.00495813 0.465093 0.170327
-0.0350336 -0.24084 0.280003
0.0943173 -0.230415 0.530216
0.0300058 0.144456 0.243921
-0.00697095 -0.343457 0.0277288
-0.0090929 -0.339036 0.192631
-0.001768 -0.168287 0.459481
0.0118253 0.320304 0.155691
-0.00820561 0.336134 0.00743103
-0.00805389 -0.048832 0.341158
-0.162551 -0.226688 0.52735
-0.00552421 -0.468806 0.252993
0.00553642 -0.358891 0.251874
-0.00408649 0.459685 0.185009
-0.00367414 0.0837069 0.524897
-0.00665881 0.317416 0.101439
-0.029534 0.0516548 0.138405
0.00994898 0.388171 0.037393
0.00485399 -0.088637 0.365179
0.0304937 -0.305894 0.189951
0.000107954 0.428585 0.0928781
-0.00764634 -0.263214 0.229814
-0.0209503 0.298759 0.179626
-0.021574 0.0886277 0.151992
0.00381429 0.151419 0.274453
0.00366098 0.17381 0.54852
-0.00697095 -0.244187 0.0375036
-0.00533788 -0.416483 0.320625
0.00697089 -0.462228 0.166752
-0.00598037 0.460586 0.140319
0.00830331 0.470611 0.235759
0.010258 -0.463601 0.231321
-0.00408954 0.291939 0.35857
0.0122148 0.323381 0.190711
-0.045545 0.228678 0.212706
0.00936546 0.457848 0.0986838
-0.00450971 0.478496 0.139026
0.00778756 -0.0581906 0.425192
-0.00401603 0.296203 0.340653
0.00360481 0.149822 0.225159
0.00697089 0.396305 0.054078
-0.0535818 0.00828374 0.0756881
0.0105099 0.464681 0.124989
-0.00356806 0.231585 0.523275
-3.82021e-05 0.196088 0.289029
0.00723256 0.237459 0.345704
-0.00122632 -0.0927345 0.351031
-0.00677668 0.155337 0.119596
-0.0647129 -0.0162438 0.0694024
-0.00216764 0.41449 0.0696563
-0.00787556 -0.153667 0.0847768
0.00790066 -0.237609 0.344816
0.142457 -0.228199 0.527196
-0.0072906 -0.0228989 0.324063
0.00577108 0.0568073 0.173977
0.0103012 0.270409 0.347439
-0.0105297 -0.358848 0.342252
0.0620479 -0.216712 0.526015
0.00981214 0.332385 0.219548
-0.00860549 -0.477572 0.218325
0.00697089 -0.277784 0.0245322
-0.0292876 0.0319468 0.130982
-0.0100624 0.383278 0.333434
0.00572161 0.0542387 0.299345
0.00697089 0.234217 0.0400813
-0.0170664 -0.216805 0.531494
-0.00264672 0.132325 0.230363
0.00638029 0.133288 0.429728
0.0212026 -0.230577 0.353102
0.0032305 -0.210271 0.305667
0.00920807 -0.270324 0.0113543
-0.005581 -0.331956 0.0956702
-0.012104 0.327914 0.187764
-0.102532 -0.2145 0.533882
0.0327015 0.238241 0.271378
0.0101752 -0.298885 0.193228
0.00697089 0.146114 0.174214
0.0326766 0.203712 0.330982
-0.00368453 -0.190056 0.0444748
-0.0103524 0.274117 0.0157881
-0.00782735 -0.284441 0.00657598
0.00391118 -0.48081 0.146841
0.00207927 -0.125963 0.201419
-0.0102025 0.217984 0.328104
0.0628706 0.0848373 0.252252
-0.00244755 0.367176 0.0375627
0.0334398 0.0831747 0.189334
-0.0021111 -0.385097 0.342025
0.0529829 0.13232 0.248172
-0.00378542 -0.14892 0.224779
-0.00431535 0.240333 0.327656
0.0107375 -0.191064 0.434734
-0.000976011 -0.194635 0.323788
0.00294954 0.4167 0.229847
-0.00226767 -0.321507 0.00316407
-0.00713312 -0.036725 0.311137
0.00770151 0.175688 0.498296
-0.0833964 0.0288027 0.070134
-0.0243444 0.204776 0.204305
0.00482798 -0.161404 0.108114
-0.00643773 0.100317 0.29857
-0.0039353 0.0671942 0.216581
-0.00181696 -0.143669 0.185663
-0.00907596 -0.352675 0.0123096
-0.00168983 -0.47568 0.128751
0.0870842 -0.223541 0.521738
0.00499038 0.0733165 0.197137
-0.013189 -0.211053 0.389477
0.001335 -0.388882 0.299658
-0.00697095 -0.207375 0.0585577
-0.00323208 0.142893 0.477665
0.0411894 0.288096 0.189516
0.157 -0.223047 0.522089
0.00905095 0.383762 0.02476
0.00952593 -0.178546 0.301532
0.0117042 -0.174514 0.45622
-0.0802195 0.0151101 0.0860169
0.00668186 -0.44405 0.250533
-0.0106677 -0.444457 0.0877094
-0.00719785 -0.126499 0.426991
0.0167246 0.172687 0.371311
-0.149844 -0.221682 0.521334
-0.00869381 0.441613 0.0918197
0.00697089 -0.238198 0.0357824
0.106241 -0.231098 0.529397
-0.00832282 0.140495 0.117797
0.0292061 -0.228664 0.532754
-0.0409995 0.271952 0.242957
0.00393495 0.120199 0.401435
-0.0057145 -0.145479 0.261885
-0.021574 0.05161 0.127104
-0.00747692 0.417123 0.318533
-0.00999285 -0.190025 0.432347
-0.0237349 0.0726585 0.12853
-0.00184691 0.125291 0.171675
-0.00148805 -0.21912 0.401318
-0.0064024 0.166131 0.377065
-0.00218168 -0.357092 0.353216
0.00349189 -0.370933 0.328609
-0.0294075 -0.258894 0.275826
-0.0853817 -0.0186078 0.0702231
-0.0231676 0.293576 0.172643
-0.129663 -0.229402 0.528564
0.00449564 0.304082 0.000196441
0.0072273 0.0317265 0.205762
0.00742478 0.259808 0.144114
0.0100691 0.243229 0.34112
-0.0102884 -0.289168 0.186418
-0.0100575 -0.264891 0.0204921
-0.0103569 0.470122 0.2015
0.00970536 -0.469559 0.118913
-0.00785944 -0.47905 0.157311
-0.0230331 0.2054 0.126827
0.00594236 -0.342538 0.338282
0.0103319 -0.133711 0.17516
0.00697089 0.434671 0.272459
-0.00456932 0.289212 0.0195052
-0.00697095 0.168735 0.259957
0.123069 -0.216865 0.520696
0.00612497 0.448278 0.121135
-0.0501379 0.196826 0.528215
-0.0352542 0.170373 0.523715
-0.00801382 0.292823 0.181314
0.0020619 -0.306746 0.337198
-0.00947204 0.130917 0.187237
-0.00684768 -0.177536 0.28076
-0.0071491 0.0789949 0.425155
-0.00198003 -0.295681 0.360958
0.00831091 -0.32135 0.356893
-0.00897528 -0.218459 0.336303
0.020434 0.15791 0.547412
-0.00697095 -0.171459 0.0909898
0.00969564 -0.179364 0.075033
-0.025144 0.319369 0.154686
0.00944158 -0.346516 0.353917
-0.00416382 0.129296 0.215858
-0.010051 0.312116 0.191744
-0.127985 -0.21248 0.533718
-0.0284046 0.289964 0.192786
0.00905493 -0.23673 0.331159
0.0494091 0.211393 0.513436
-0.0103993 0.457921 0.105649
-0.0907666 0.0275154 0.085237
-0.00856035 0.320175 0.354715
0.00417627 0.140709 0.107478
0.00267712 0.175539 0.304872
0.0344507 0.212225 0.550694
0.100838 0.0968786 0.252042
-0.0274994 0.208138 0.322994
0.028115 -0.283503 0.208735
-0.00905513 -0.382026 0.0257259
-0.00381032 -0.161781 0.0738334
0.0109742 0.285121 0.174485
-0.00216964 0.16096 0.106889
0.0964132 0.11833 0.251667
0.00772409 0.173309 0.0845832
-0.00691729 0.143725 0.194184
0.0769842 0.0844285 0.248968
0.0747564 0.110441 0.234643
0.00736317 0.116021 0.415886
-0.00645488 -0.286686 0.341897
0.00487824 -0.342929 0.088017
-0.0408711 0.0468266 0.158434
0.00379203 0.480702 0.208995
-0.00907199 -0.304627 0.355923
-0.0231081 0.0117841 0.152265
0.00935306 -0.206601 0.33108
-0.0299661 -0.215264 0.346568
-0.00248101 0.483312 0.183706
-0.00722208 0.0580006 0.426006
0.106055 -0.213972 0.533383
0.167546 -0.220527 0.531548
0.00469563 0.370589 0.321063
0.00443954 0.429806 0.051235
0.00974003 -0.37209 0.341275
-0.00336929 -0.161781 0.290123
-0.0387289 0.281678 0.21736
-0.028096 0.29123 0.18461
0.00812174 0.302915 0.358589
-0.00783315 0.454747 0.271548
-0.00533826 -0.443903 0.2931
0.00949598 0.368635 0.0156204
-0.0250686 0.324442 0.164074
0.000213359 -0.166539 0.488264
-0.00729761 0.3199 0.12979
-0.006786 -0.164964 0.261833
-0.00996394 -0.14138 0.238846
0.0384527 0.175483 0.520208
-0.0187679 0.311639 0.182654
-0.00142261 -0.00943927 0.283054
0.00617549 -0.131091 0.226426
0.00850579 0.201478 0.322101
-0.00774948 0.131812 0.141113
0.00172544 -0.417565 0.0430413
-0.0202153 0.236199 0.535482
0.00499087 0.106898 0.314248
-0.00697095 -0.34849 0.333051
0.0103231 0.144503 0.120135
0.00642928 -0.298226 0.177637
-0.00694268 0.26546 0.228642
0.00695129 -0.303373 0.255633
0.0044489 -0.175022 0.439955
0.130188 -0.220464 0.534577
0.00153382 0.467656 0.255005
0.00326509 -0.422874 0.290671
-0.00101733 -0.232795 0.0169662
0.0284938 -0.261554 0.24532
0.00779751 -0.141454 0.114501
-0.00697095 0.432441 0.274611
0.00760156 -0.217234 0.378524
-0.00690134 -0.29229 0.100605
0.0522751 0.115852 0.241158
-0.00636505 0.183955 0.0497565
0.00199781 0.206922 0.502398
0.0316503 0.185786 0.549869
-0.000472621 -0.152967 0.196265
-0.00939342 -0.427335 0.0525804
0.0333802 -0.221398 0.348384
0.00697089 -0.398004 0.309074
0.0045143 -0.482096 0.209571
-0.0194998 0.277036 0.175277
-0.00100024 0.203261 0.031248
-0.00114705 0.477221 0.22921
0.00388476 0.207804 0.175265
-0.0072353 0.0805212 0.241086
-0.0420275 0.260238 0.191527
0.00697089 -0.263709 0.0261979
0.00232964 -0.337065 0.307615
-0.00697095 0.206268 0.0553654
0.0357409 -0.279369 0.235944
0.027021 0.0498419 0.156331
0.00781805 0.346111 0.00859341
-0.00110966 -0.27717 0.3597
-0.00216869 0.365626 0.349003
0.0057967 0.0613507 0.189701
0.0106412 -0.195119 0.469048
2.58411e-05 -0.118719 0.362721
-0.00116924 -0.187705 0.0708278
0.00871411 -0.214127 0.0323255
0.00458198 -0.0618306 0.353183
-0.0491163 -0.0206636 0.0866413
0.00723626 0.0844929 0.417048
-0.0799538 -0.215918 0.52603
0.00697089 0.32061 0.023562
-0.0151362 0.176789 0.357989
-0.000351727 -0.429586 0.268471
0.0060246 -0.100039 0.424042
-0.00697095 -0.229409 0.0414653
0.124622 -0.228866 0.525914
0.00563852 0.479829 0.152271
0.00793242 -0.14908 0.264711
0.0331664 -0.292005 0.185971
0.0125363 -0.31783 0.175599
-0.000965995 -0.389192 0.0583355
-0.0340748 -0.27817 0.240377
-0.00224031 0.449041 0.28691
0.00164187 0.164461 0.248279
-0.0272542 0.0654057 0.162649
-0.0181957 -0.300911 0.185194
0.0267065 0.197459 0.500815
0.000411879 -0.0145438 0.315268
-0.0028757 -0.210085 0.424958
-0.0303404 0.168447 0.508287
-0.00645711 -0.157299 0.115941
0.00713105 -0.0430518 0.324045
-0.00414826 0.0899087 0.252656
0.00450948 0.185579 0.288462
-0.0105715 0.106822 0.270154
0.00525745 -0.458883 0.199939
-0.000876766 0.168656 0.0627821
0.00951862 -0.176465 0.0600886
-0.00659725 0.228433 0.192087
-0.00794029 -0.149513 0.430032
0.00878563 -0.449222 0.0838156
0.0081215 0.0567081 0.422897
0.0422376 0.0602702 0.176131
0.0613799 -0.22848 0.532985
0.00413097 0.242232 0.26137
0.00197153 0.461251 0.215504
-0.0098182 0.243447 0.026658
-0.00803294 -0.184926 0.403389
0.042775 0.0866436 0.213684
0.0642181 0.111971 0.234616
-0.048837 0.294205 0.186639
-0.00697095 -0.18965 0.287681
0.00694473 -0.421093 0.071018
-0.00897679 -0.482464 0.171889
0.0860714 0.102372 0.234784
-0.0031388 -0.411664 0.194045
-0.0070354 -0.175258 0.49572
0.00631496 0.144157 0.256724
0.0124752 0.294442 0.18877
0.00962294 0.276574 0.0038107
0.0204031 0.14154 0.539387
-0.00711647 0.424381 0.287218
0.0327552 -0.216189 0.528978
0.00457777 0.417361 0.294995
0.011584 0.0661756 0.165621
0.00905437 -0.462507 0.138549
0.00525464 0.187234 0.550049
-0.0537796 0.303866 0.182798
-0.00868486 -0.133602 0.129344
-0.0104669 0.352825 0.0169378
0.0397134 0.180516 0.540446
0.00697089 -0.352552 0.0304009
0.00581855 -0.460404 0.268858
-0.0253828 0.303398 0.168135
-0.0145587 -0.221861 0.52094
-0.00518885 0.335585 0.100677
0.00802515 -0.348021 0.234011
-0.00462578 -0.00304351 0.249761
0.00466341 -0.197277 0.518035
0.00169592 -0.215828 0.531775
-0.03956 0.215215 0.305429
0.00295359 -0.435683 0.0591016
-0.00530727 -0.126464 0.168975
-0.00277425 0.411447 0.0353981
0.0368009 0.0576376 0.151587
-0.00836954 0.479571 0.170554
-0.0015489 0.119565 0.35183
-0.0117507 -0.216847 0.359295
0.000473404 -0.449684 0.236799
-0.0105411 0.407263 0.0453302
-0.00192282 0.0761 0.291653
-0.00262131 0.144219 0.511486
-0.00640037 0.152218 0.0861534
0.00745708 -0.263056 0.338442
0.0165518 -0.21117 0.371272
-0.00613967 -0.460307 0.14106
-0.00704861 0.128956 0.418674
-0.0242122 0.0589352 0.152273
0.012062 0.087065 0.530649
0.000815768 -0.345266 0.0069743
-0.0219477 0.320254 0.185338
0.00969338 -0.440576 0.27483
0.0282015 0.220478 0.511766
0.0430052 0.108157 0.236588
-0.00843014 0.114109 0.547503
-0.00697095 -0.150273 0.156615
-0.00604636 -0.129645 0.212289
0.0319914 0.184016 0.344523
-0.00697095 0.196521 0.0661084
-0.00502858 0.0205199 0.232748
0.00697089 0.220015 0.314452
0.00410725 0.333972 0.00380597
-0.00793782 -0.201355 0.508117
-0.00943677 0.279364 0.131024
0.010334 0.440486 0.283219
0.00369706 0.33833 0.331747
0.002595 0.222425 0.0417092
-0.0492805 0.276611 0.224348
0.00697089 -0.379363 0.320255
-0.0402419 0.236809 0.270018
0.00816839 0.325624 0.127223
-0.00357401 -0.437274 0.303374
-0.0411991 0.0211591 0.0900432
-0.00111817 0.157744 0.231323
-0.019704 0.213046 0.553977
-0.00614328 0.141189 0.253729
0.0285709 -0.298572 0.196208
-0.0224456 0.14651 0.516326
-0.00681888 -0.452065 0.117903
0.00545995 0.354732 0.350761
0.0430052 0.0794729 0.19722
-0.00955179 -0.240089 0.342903
0.0120335 0.111016 0.547557
0.0450422 0.262315 0.203159
-0.0212517 0.319888 0.172147
0.0304255 -0.257031 0.283941
0.010677 0.143718 0.230292
-0.062597 -0.229039 0.532279
0.0283306 0.154968 0.251431
-0.00605429 -0.168962 0.10571
0.000613473 -0.158222 0.142338
0.000163193 0.204103 0.305651
-0.00422332 0.435855 0.0584654
0.00591207 0.143868 0.195011
-0.021574 0.0899852 0.163656
-0.00683622 -0.427742 0.276459
-0.00697095 -0.418973 0.287727
0.00167701 -0.199216 0.454478
-0.0776615 0.0120952 0.0689078
0.0361193 0.191052 0.22279
0.000369178 -0.459986 0.224026
0.0851173 0.119324 0.234488
0.00787345 -0.44858 0.10788
-0.0465278 -0.219405 0.522778
-0.00114916 -0.152836 0.235435
-0.0386851 0.180994 0.542349
0.00961723 0.410499 0.305158
-0.0926358 -0.214708 0.525557
-0.0404825 0.256897 0.205671
0.00173645 0.146596 0.0938101
-0.0477799 0.295822 0.17601
0.00712466 -0.298078 0.0044187
0.00697089 -0.399183 0.054024
-0.021574 0.0739993 0.18752
0.0991517 0.12939 0.246041
-0.00248256 -0.129796 0.14108
0.0269227 -0.238281 0.318923
0.0246562 0.233936 0.543938
-0.00723854 0.393469 0.314527
-0.00599379 0.0174873 0.42963
0.00960007 0.4804 0.199117
0.0194938 0.121771 0.264978
-0.0348364 -0.299935 0.18218
0.00350361 -0.371261 0.272398
0.00078847 -0.0581556 0.435717
0.0388889 0.214538 0.302663
0.00539528 0.206002 0.05973
0.00483873 0.361724 0.330123
-0.0271288 0.184593 0.49795
-0.00749298 0.137385 0.409357
-0.00710525 -0.254033 0.150554
0.0226487 0.159288 0.505375
-0.010051 -0.303899 0.17306
-0.000621256 0.16093 0.389762
-0.00160791 0.453551 0.0800209
0.00279658 -0.380532 0.0464751
0.00967935 0.464458 0.246118
-0.0219477 0.29784 0.193024
-0.00599741 0.177652 0.0809406
-0.0301846 0.322518 0.187782
0.00239884 -0.0188258 0.417918
0.0253923 -0.233589 0.334228
0.010248 0.207692 0.043744
-0.0104707 0.135834 0.158184
-0.162419 -0.209256 0.533427
0.0268157 0.0562396 0.170058
-0.00967846 -0.328925 0.175193
-0.0226625 0.0722822 0.204532
-0.00413498 0.146971 0.21294
0.0247947 0.146619 0.520245
0.0016438 -0.111046 0.438116
0.0259819 0.201626 0.320456
-0.00864142 0.436088 0.298547
-0.00551937 -0.246949 0.326295
-0.0357424 0.232374 0.206156
0.0741633 0.13268 0.246565
-0.0198403 0.307281 0.204835
0.0472796 0.273105 0.197666
0.00218755 0.401519 0.330631
-0.0054286 -0.18225 0.0523051
0.0857027 0.0902743 0.234995
-0.00886116 -0.175926 0.306644
0.00983724 -0.133552 0.208543
0.00808979 -0.192875 0.404578
-0.0472951 0.0181757 0.0798177
0.0516829 -0.226213 0.52245
0.00503628 -0.191001 0.4786
0.00276732 -0.479006 0.221844
0.0108219 -0.307017 0.154663
-0.0149146 -0.191943 0.460874
-0.00138413 0.396794 0.0264451
-0.00977141 -0.322553 0.192974
-0.039706 0.199395 0.504401
0.0060157 0.142615 0.45358
-0.00280892 0.395086 0.0468358
0.120253 -0.211914 0.531505
-0.00250981 -0.203654 0.378224
0.034886 0.205164 0.216907
-0.023123 0.102558 0.14463
-0.00913511 -0.29859 0.211809
0.00739621 0.257758 0.334645
-0.00890345 0.137092 0.242634
0.00791835 0.0250256 0.303921
-0.0463086 0.213148 0.540222
-0.00322706 0.280371 0.0264773
0.00760149 -0.365773 0.0323143
-0.0327861 0.13293 0.258435
0.00741999 0.0993221 0.547761
-0.0102912 0.256415 0.0156013
-0.000956543 0.451827 0.229041
-0.00441417 0.38953 0.243539
-0.0283919 -0.296887 0.197693
-0.00433212 0.109497 0.321479
-0.00446445 0.241335 0.24944
0.00792187 0.128419 0.193253
0.0017017 -0.181189 0.508846
0.0326398 0.174999 0.506835
0.00192543 0.0970669 0.324184
0.00224775 0.144074 0.163321
-0.00606971 -0.0735307 0.433819
-0.0023356 -0.234165 0.320679
-0.0234463 0.183502 0.339966
0.00244523 -0.216241 0.338025
0.00735651 0.188707 0.0670824
-0.0212928 0.119911 0.256141
0.00302999 0.121908 0.36189
0.0128286 -0.319859 0.187435
-0.0144863 0.104591 0.541793
0.00599305 0.361204 0.244905
-0.0933436 0.0177746 0.0859704
-0.00708538 0.06329 0.168744
0.039023 0.266999 0.231561
0.00564954 0.0948659 0.307274
0.0367914 0.265892 0.247875
-0.00464731 -0.36137 0.332124
0.00346212 0.15505 0.514013
-0.0467295 0.286183 0.192575
-0.00940165 -0.481256 0.184169
0.0148939 0.165185 0.362178
-0.0235602 0.294903 0.203354
0.00659795 0.0103979 0.244191
-0.00666058 0.315386 0.0193067
-0.00389117 -0.260361 0.355579
-0.00269123 -0.0173573 0.433397
0.00883 0.244568 0.016095
0.0436694 0.18733 0.515355
0.00958096 -0.247336 0.348961
0.00109767 0.159315 0.21777
-0.100918 -0.00494197 0.0802709
-0.00466789 0.251338 0.0339637
0.0381736 -0.265822 0.239825
0.000541632 -0.465047 0.176366
0.00118787 -0.409407 0.327811
-0.00730274 -0.32658 0.121
0.00375912 0.128656 0.517081
0.0274597 0.0643069 0.154535
0.0424023 0.275253 0.219454
-0.00213686 -0.425912 0.0850361
-0.0303202 0.23093 0.525916
0.00690281 0.29567 0.0192441
-0.00105039 -0.391704 0.0466976
0.00548051 0.135434 0.442657
-0.000266539 0.103087 0.346024
0.00867364 -0.214551 0.31814
0.0032212 -0.230883 0.529436
-0.0257582 0.197819 0.337742
0.0106937 -0.393446 0.0389751
0.037793 0.250938 0.207061
-0.00287605 0.154495 0.479475
0.00778147 -0.128725 0.148814
-0.0383058 -0.272393 0.229838
0.00355456 0.297839 0.335296
0.00976798 -0.213841 0.0439859
0.0323739 0.10469 0.22557
-0.0209503 0.280604 0.186253
-0.000571951 0.0846188 0.229489
-0.00968073 -0.372001 0.0315316
-0.0317044 0.240929 0.276802
0.0513794 0.209082 0.524686
-0.00876098 -0.469967 0.237191
-0.00667101 0.213026 0.0284166
0.00697089 -0.199206 0.0670616
0.0497227 0.30084 0.203998
0.00888335 0.327239 0.352968
0.00777069 -0.0320578 0.329519
-0.00697095 0.148494 0.157987
-0.00273075 0.216561 0.336833
-0.0489037 0.31279 0.179329
-0.00264298 0.23522 0.552279
-0.0272427 0.233047 0.544088
-0.00160472 0.261234 0.354239
-0.0175419 0.113353 0.527746
0.00809023 -0.0100929 0.32321
0.00584724 0.147175 0.466897
0.0276463 0.17328 0.237631
0.0404221 0.230854 0.279015
0.00476061 0.0985694 0.284562
0.00344172 -0.365042 0.350019
0.151486 -0.222466 0.531434
-0.000940729 0.280691 0.00212816
0.0078083 -0.337715 0.213982
-0.00920194 -0.442863 0.0764186
-0.000187786 0.322242 0.339973
-0.00410852 0.296336 0.000277353
-0.00359881 0.109417 0.364742
0.0457668 0.304533 0.181545
0.00697089 0.362903 0.0344918
-0.00806641 -0.312118 0.00617201
-0.00697095 -0.307496 0.0216654
0.0104034 0.235334 0.548794
-0.00864028 -0.147501 0.101408
0.00537961 -0.152575 0.0891249
0.00966672 -0.463508 0.104079
0.0367524 -0.223015 0.330959
-0.0227105 0.196181 0.551396
-0.0252584 0.236532 0.204528
0.00428289 0.378246 0.343155
0.000396657 -0.186308 0.435176
0.00239647 -0.170203 0.301829
-0.0113633 -0.219841 0.374498
-0.00381543 -0.290574 0.067215
0.00544308 0.443912 0.0697662
-0.0103251 0.336967 0.347543
0.0364145 0.0897577 0.222896
0.0345744 0.249706 0.269608
-0.035304 -0.228924 0.342044
-0.00372027 -0.4591 0.16468
0.00459385 -0.4241 0.314184
0.0381352 0.243636 0.279704
0.00619155 -0.0253655 0.431351
0.00672311 0.179583 0.272898
0.0193314 0.124108 0.535027
0.000266138 -0.0523298 0.41914
-0.00602089 0.0508692 0.182982
-0.00823471 -0.27524 0.341565
0.0114657 0.107696 0.524478
-0.0365632 0.149503 0.246202
0.0343543 0.145381 0.25427
0.00127576 -0.21229 0.510897
-0.00211185 -0.312475 0.360878
-0.0413105 0.243632 0.261133
-0.046783 0.265185 0.236093
0.0374502 -0.23529 0.301914
0.0375309 0.118053 0.249156
0.0103106 0.230691 0.0299683
-0.0265299 -0.228221 0.323629
-0.0183448 0.098895 0.272973
0.00540576 0.0667581 0.210407
0.00697089 -0.329071 0.0255033
0.003464 -0.045613 0.346511
-0.0442068 0.186742 0.518469
0.00186332 -0.0276371 0.311401
-0.0448428 0.256305 0.258496
-0.00302912 0.13225 0.129812
-0.0308041 0.215655 0.315512
-0.00735125 0.0483462 0.299469
-0.00271019 0.076879 0.204378
-0.0083208 -0.393769 0.0287511
0.0216165 0.184966 0.355002
-0.00111137 -0.195196 0.496861
-0.00175203 0.432364 0.0825521
-0.00602198 0.0158568 0.418622
-0.00697095 0.461391 0.194781
-0.00295107 -0.463999 0.098518
-0.0102603 -0.137385 0.143363
0.00669217 0.377586 0.0366578
0.0330742 0.0768891 0.178477
0.00697089 0.165393 0.102438
0.00962129 -0.224173 0.341623
0.00579753 -0.165052 0.261985
-0.0317384 -0.256556 0.245311
0.0137283 -0.223456 0.357101
0.0068577 -0.153908 0.278692
-0.0063186 -0.38947 0.15355
0.00960814 -0.477569 0.183936
-0.0170644 0.107928 0.261046
-0.0231676 0.312516 0.192442
-0.0121607 0.0896541 0.528657
-0.0372219 0.188562 0.550227
0.000912694 -0.408058 0.077632
0.159228 -0.20892 0.527301
0.0103342 0.158663 0.268877
-0.00822515 -0.128937 0.178631
0.00590533 -0.194536 0.292548
-0.0374904 0.0107347 0.0998998
0.00338817 0.159382 0.497679
0.00697089 0.169175 0.25662
-0.11583 -0.224751 0.523693
0.000878817 0.4503 0.111428
0.00843758 -0.169788 0.0698782
0.00283954 0.406602 0.055978
-0.00834314 0.374442 0.0327887
-0.0286118 -0.269336 0.24927
0.00152293 -0.173775 0.425059
0.0284034 -0.274017 0.222849
0.00965228 -0.1974 0.325231
0.0373376 -0.291231 0.209613
-0.0344232 0.20872 0.551196
0.0382255 -0.272741 0.227658
-0.00283338 -0.471938 0.119247
0.0393517 0.298642 0.181415
0.136358 -0.211979 0.531782
-0.00364215 0.46194 0.264528
-0.0356134 -0.256583 0.285664
0.00679476 0.449788 0.249568
0.00697089 -0.170867 0.0981537
-0.0104777 0.192114 0.0555825
0.00549307 0.232919 0.525919
0.0648189 0.13502 0.244738
-0.0592425 -0.00690583 0.0692394
-0.00521726 -0.17231 0.475393
-0.0232976 0.0941415 0.185309
-2.0803e-05 0.155866 0.241924
0.00988544 -0.396417 0.31937
0.00659 -0.181177 0.482842
-0.0393992 0.171121 0.238233
0.000994685 0.446378 0.14226
2.09548e-05 -0.150501 0.134802
-0.00727754 -0.111866 0.37269
9.31567e-05 -0.42804 0.0953752
-0.00793244 -0.454569 0.0902957
0.00835088 -0.198197 0.507461
0.0076517 -0.0694381 0.425374
-0.00241243 0.17418 0.274792
-0.0430053 0.01008 0.0741408
0.00910039 0.452133 0.0878594
-0.064381 -0.223983 0.52178
0.00466928 -0.202035 0.397431
0.00125423 -0.210381 0.0508872
-0.00322946 0.0855141 0.281936
-0.000844774 -0.223885 0.378409
0.00771068 -0.150644 0.383393
0.027324 0.298708 0.178306
-0.0316627 0.210692 0.221369
-0.000902824 0.0667166 0.278326
-0.00591712 -0.404627 0.300512
-0.0106823 0.0573414 0.150409
0.00755238 -0.185331 0.465377
0.00592539 0.349083 0.0309127
-0.000663583 -0.295417 0.337234
-0.0101598 0.134755 0.207125
-0.0541547 -0.0181059 0.0694349
-0.00854528 -0.406903 0.324193
0.00307428 -0.472341 0.243244
0.00583711 0.126916 0.165528
0.0319696 0.182389 0.227523
-0.00856175 0.169837 0.06823
-0.00994033 -0.181363 0.0597467
0.000725205 -0.465716 0.261092
-0.00791854 0.0408764 0.425025
-0.0297707 0.0323158 0.120308
-0.027903 -0.288569 0.20553
0.0346573 -0.247698 0.264109
0.0279752 -0.258545 0.26452
0.00345717 -0.0535137 0.327121
0.0450538 0.252661 0.253385
0.00292782 0.0158286 0.302051
-0.00412302 0.46279 0.206937
-0.0219608 0.0319436 0.179763
-0.0297903 -0.246146 0.271479
-0.00513659 -0.415434 0.298405
0.00919527 -0.143731 0.248805
-0.0106769 0.184874 0.29946
-0.00697095 -0.376667 0.320151
0.00357134 -0.179918 0.27527
0.00178531 0.41978 0.0430208
0.0115749 0.106723 0.272322
0.00292873 0.191271 0.319702
-0.0342998 0.200727 0.218986
-0.00910124 -0.159578 0.279046
-0.00100163 0.00940853 0.253685
0.00356154 0.148836 0.497475
0.0987726 0.11579 0.241725
0.0105311 -0.473133 0.163677
-0.0303217 0.160998 0.520075
0.00831763 -0.215336 0.401514
-0.0223055 0.143739 0.532885
0.0103637 0.148265 0.110666
-0.00194352 0.130623 0.436998
-0.00584263 0.244743 0.347479
0.0347193 -0.230145 0.342742
0.0024917 -0.441651 0.265503
-0.0106296 0.311381 0.202196
0.00635284 -0.270067 0.243127
0.0103656 0.282866 0.345778
-0.0085149 -0.270672 0.217984
-0.00810735 -0.322921 0.139797
-0.004799 -0.0753215 0.344723
-0.0654063 0.0282234 0.0789889
0.0499472 0.19638 0.531795
-0.00958124 0.302807 0.34403
-0.0821517 -0.00669841 0.0795927
0.00149454 0.465804 0.101355
-0.00710323 0.0384676 0.295628
