-0.0976481 0.0135532 0.132421
0.0153031 -0.469885 0.175489
-0.0266737 0.0499545 0.202636
-0.0113444 -0.0888606 0.379895
0.0048576 0.218604 0.314028
-0.0142634 -0.165777 0.20614
-0.0399942 -0.221639 0.328616
-0.00827592 -0.249189 0.290231
-0.0125259 0.254986 0.026612
0.00885034 0.193431 0.235534
-0.00484462 0.47256 0.130081
0.0346837 -0.209682 0.460486
0.00769409 -0.178489 0.398723
-0.00383327 -0.420694 0.115496
0.053089 0.271211 0.195882
-0.0153311 -0.388829 0.309087
-0.0628188 -0.0338307 0.143408
-0.0111202 0.123305 0.324192
-0.00359499 -0.106126 0.331034
-0.0248706 -0.302294 0.190575
0.0742304 -0.201838 0.52041
0.0284749 0.164717 0.364608
0.0131878 0.409877 0.062275
0.00995385 0.173721 0.126488
-0.0259417 0.10207 0.227626
-0.0123566 -0.462125 0.230628
-0.0317071 0.0381708 0.183109
0.00343911 -0.310832 0.301268
0.0156516 -0.454236 0.160143
0.0111218 -0.175478 0.150335
-0.0188983 0.130022 0.370984
0.0362336 -0.312859 0.160439
-0.0434 -0.220625 0.455306
-0.00818716 0.0516425 0.220051
0.09793 0.0935988 0.267875
0.0109072 -0.205347 0.305937
-0.00820839 -0.183327 0.380656
-0.00755801 0.377739 0.283382
-0.00946667 0.183465 0.330115
-0.00311073 0.168221 0.0749632
0.0160054 -0.25959 0.32697
0.0111218 -0.193325 0.237833
0.0199526 -0.220067 0.370036
-0.056347 -0.0181448 0.142672
0.0128971 0.0838096 0.234433
0.00959677 -0.156464 0.24395
-0.00408127 -0.203968 0.0422181
-0.0090042 -0.355077 0.0534421
-0.0451388 0.0371111 0.1298
0.0603552 0.162564 0.265607
-0.135991 -0.178974 0.55371
-0.0115008 0.319236 0.0234731
0.010685 0.333536 0.0302558
-0.00527567 0.304219 0.180868
0.00627624 -0.1186 0.336981
0.137487 -0.189403 0.545911
0.0134666 0.401321 0.0423072
-0.0547957 0.261457 0.174403
0.00825839 -0.310191 0.343237
0.0633652 -0.267865 0.212587
-0.0121912 0.375625 0.0284474
-0.0122705 0.168236 0.102443
-0.00755801 0.436185 0.198585
0.0169447 -0.393707 0.051816
-0.0102933 -0.22059 0.470324
-0.00938861 -0.22109 0.272585
0.0118289 0.390837 0.289375
-0.00398561 -0.140368 0.194893
-0.010057 0.322016 0.332946
-0.0241535 0.0941937 0.192564
0.0503421 -0.186753 0.534117
-0.0371705 0.302946 0.176861
0.0388672 0.0655745 0.198165
-0.0123627 0.27863 0.14877
0.0266087 -0.225732 0.332441
0.00802329 0.105905 0.295756
-0.0127192 -0.304461 0.337338
-0.01864 0.189499 0.182158
-0.0279525 0.244935 0.220092
0.0169428 -0.443547 0.255431
-0.0117125 0.456304 0.1865
0.0699679 -0.251594 0.290097
0.00695679 0.140988 0.169849
-0.0702147 -0.196461 0.508881
-0.00682634 0.409701 0.0883856
-8.01827e-05 0.24708 0.0612611
0.0289729 0.211869 0.180807
-0.0135335 -0.437618 0.0773987
-0.00478645 0.00922803 0.226168
-0.0683696 -0.241466 0.304977
-0.00748666 -0.066446 0.301453
-0.00755801 0.442052 0.148274
0.00811404 -0.336094 0.00806349
-0.00880532 0.089054 0.315811
0.0243265 -0.317117 0.187302
0.0165155 -0.183621 0.0760027
-0.0526954 -0.273922 0.247904
0.00117925 -0.479448 0.160996
0.0255098 -0.20474 0.444545
-0.0128348 0.0965502 0.262463
-0.00312774 -0.190019 0.131289
0.0170456 -0.457027 0.122601
-0.0191653 -0.321862 0.16815
-0.00739156 -0.0173618 0.34827
0.0113757 0.367848 0.0396795
0.0137731 0.437512 0.257358
0.00176833 -0.356853 0.291409
-0.00220957 -0.031457 0.279983
-0.00293953 -0.409417 0.252334
-0.0120842 0.365026 0.318762
-0.0252534 -0.211419 0.436894
-0.0103441 -0.236797 0.325132
0.0128406 0.256791 0.322653
0.021235 0.11062 0.383465
0.0158457 -0.411517 0.0711196
0.0109565 0.16635 0.251441
0.0379846 0.158055 0.341373
-0.0122376 0.224844 0.0385547
-0.00418047 0.321408 0.297418
0.0585623 0.273156 0.166031
0.00303571 0.367327 0.0589466
0.0126704 -0.180381 0.278744
-0.122611 0.0344914 0.130485
0.0498297 0.318965 0.170732
-0.00828273 -0.2829 0.0484772
-0.0110457 0.445462 0.0862617
-0.0229341 0.192676 0.352219
0.00275032 0.0191259 0.219659
-0.0112525 0.149371 0.150184
0.0091327 -0.0834617 0.308089
-0.00803562 0.393226 0.313176
-0.0112179 -0.363328 0.331618
0.0105938 -0.414243 0.30393
-0.121485 -0.00349318 0.131715
-0.00169107 0.180045 0.357817
-0.00336529 0.161311 0.339934
-0.0108588 0.167792 0.20455
-0.0427722 0.31643 0.177802
0.00290718 0.316287 0.000920396
-0.00458516 -0.197652 0.461344
0.00737639 0.290036 0.33777
-0.056574 -0.246014 0.267596
0.000629269 0.0384723 0.327758
-0.0151293 -0.218138 0.294189
0.0657809 -0.257202 0.240069
-0.0266737 0.0692231 0.175852
0.00592545 0.147678 0.322916
-0.0147854 -0.386664 0.0489786
0.0056943 -0.292836 0.00572268
-0.0103205 0.209047 0.299123
0.00749466 0.336543 0.296832
0.0117468 0.206826 0.0687673
-0.0667942 -0.300385 0.179431
-0.00232007 0.0831566 0.38245
-0.0130063 -0.19414 0.0870341
0.015857 -0.46491 0.212105
0.00665317 0.269819 0.292852
0.0836429 0.0844443 0.259249
-0.0124183 0.201507 0.0587273
0.061801 0.117645 0.257336
-0.00261466 -0.197523 0.430432
-0.0118689 0.290371 0.0233045
-0.0462921 -0.191673 0.523422
-0.0509202 -0.216866 0.484854
0.00233812 -0.18635 0.531621
0.0135339 0.25741 0.0300292
-0.00512338 0.429285 0.21543
-0.0116942 0.174748 0.234666
0.00967585 -0.101046 0.37907
-0.0304067 -0.291121 0.172339
0.0282654 0.207632 0.250962
-0.00767544 -0.433272 0.14231
-0.00162216 0.0717874 0.188756
0.0388672 0.107361 0.244635
0.0455181 -0.240333 0.297739
-0.0111941 -0.223583 0.374495
-0.00286014 -0.181856 0.184307
0.0136186 0.457768 0.218328
0.00885034 0.173441 0.204861
-0.0132902 -0.450477 0.097634
-0.0119914 -0.0133878 0.256085
-0.0269558 0.0358118 0.154915
0.0565062 -0.297115 0.201545
0.00101051 0.139939 0.192944
0.00535102 -0.27308 0.296552
-0.0110233 0.117371 0.288904
0.0127525 -0.37737 0.299124
0.0162518 -0.289447 0.321515
-0.0389225 0.077812 0.199206
0.0109849 -0.256641 0.0555086
-0.056619 -0.00320393 0.135368
-0.000944585 -0.237509 0.0211367
0.0133921 -0.1512 0.129114
-0.00396369 -0.0619666 0.274896
-0.0111003 -0.125689 0.389655
0.0343542 0.186637 0.354786
-0.0335745 0.175624 0.272044
0.0111218 -0.444669 0.187152
-0.000590163 -0.418741 0.0441284
-0.015607 -0.168832 0.117489
0.0277943 0.0728168 0.220345
-0.0054097 -0.341886 0.340298
-0.00938861 -0.186717 0.239141
0.0394258 0.316168 0.174946
-0.0329138 -0.236595 0.346035
0.0179569 0.32166 0.18335
0.0075436 0.436822 0.154046
0.0136078 0.332356 0.325554
-0.0122206 0.43083 0.269533
0.0104154 -0.142691 0.165081
0.0255098 -0.197642 0.457535
-0.0192741 0.196417 0.153527
0.00813057 0.464107 0.109443
0.0066132 0.14055 0.375318
-0.0104911 -0.229487 0.0571953
-0.0159541 0.226045 0.205287
0.0565062 -0.316754 0.182728
-0.0125464 0.0766574 0.21473
0.0347257 -0.230281 0.353253
-0.0413959 0.26549 0.208967
-0.0726479 -0.195028 0.53517
0.0314942 -0.291166 0.177344
0.00534754 0.257356 0.010148
-0.048007 -0.312671 0.170671
-0.00989003 0.106371 0.364279
0.0111218 -0.37733 0.0539049
0.00847383 -0.242479 0.284166
0.00452001 -0.198683 0.379809
0.00885034 0.168681 0.163233
0.00169186 0.0290525 0.238034
-0.00536168 0.434214 0.0578331
-0.0138905 -0.36445 0.0244457
-0.000731025 0.221584 0.261306
-0.0111508 -0.156312 0.399841
-0.00938861 -0.31269 0.0445944
-0.0318625 -0.226267 0.356572
-0.0664807 -0.284214 0.222887
-0.00724857 0.0443279 0.203312
0.0875439 -0.194715 0.54285
-0.0248334 0.111868 0.190568
0.00597486 -0.434535 0.0624157
-0.00769785 0.138637 0.356109
0.0109299 0.162041 0.0984705
-0.00321529 -0.212164 0.256768
-0.00755801 0.243828 0.289875
-0.0611723 -0.303391 0.194193
0.0769813 -0.317149 0.168666
0.0111218 -0.183539 0.111886
0.0173017 -0.180753 0.262424
-0.013854 -0.405528 0.283131
-0.00938861 -0.445077 0.207604
-0.00438395 0.302443 0.162283
-0.0153704 -0.292355 0.0194599
0.0120247 -0.433704 0.28484
-0.0133512 -0.468934 0.20348
0.0028316 -0.112779 0.310167
0.0524977 -0.201263 0.504303
0.0168383 -0.209588 0.0521667
-0.0216006 0.132448 0.222479
-0.104952 -0.177891 0.547451
0.107553 0.132276 0.255784
-0.00506815 -0.166604 0.267062
0.0104753 -0.14854 0.220876
-0.0119421 -0.257644 0.30859
-0.00590074 0.244104 0.325679
-0.0348375 -0.211834 0.465787
0.00767251 -0.217612 0.46234
-0.0232802 0.131696 0.16109
0.0152689 0.069638 0.186528
-0.000759889 0.229142 0.0204776
0.0135487 0.190805 0.26399
-0.0682963 0.0356162 0.133771
0.0139991 0.185249 0.08097
-0.0207911 -0.320053 0.185524
0.0109495 0.410454 0.271316
0.00332764 0.139283 0.154342
0.0571055 -0.300413 0.169641
-0.011091 -0.20469 0.42261
-0.0304067 -0.298264 0.160501
0.115087 -0.178582 0.552775
-0.000932125 -0.178077 0.41986
0.00685642 -0.212011 0.434968
-0.00938861 -0.300902 0.307948
-0.0121407 0.445493 0.231291
-0.0601254 0.300732 0.169754
0.010098 -0.315745 0.167915
0.00101911 0.0374981 0.350921
0.0145154 -0.432638 0.101413
-0.00204962 0.314139 0.044044
-0.00160025 -0.151492 0.411282
-0.00755801 0.29244 0.300591
-0.0250221 0.0726892 0.216414
0.0165998 -0.201445 0.411255
0.0139359 0.458323 0.137762
-0.0465525 -0.245139 0.324003
0.0784274 -0.281328 0.206595
-0.0144786 -0.158872 0.231982
0.0386375 -0.214775 0.473572
-0.00938292 0.443808 0.12503
-0.0133133 -0.184678 0.101105
-0.0156318 -0.422779 0.0723715
0.0757394 0.318292 0.17444
-0.00946774 -0.19063 0.403085
-0.0126845 0.183651 0.256143
0.062754 -0.210522 0.499059
-0.00612501 0.271232 0.0478298
0.0814571 0.15255 0.258827
0.0111218 -0.347703 0.0439501
-0.0110825 0.164046 0.178308
0.00981707 0.195638 0.290867
-0.0255006 0.143459 0.349614
0.0102532 -0.144412 0.346369
0.0111218 -0.175919 0.21823
-0.0563964 -0.2612 0.229969
0.0449603 -0.246301 0.315006
-0.00184065 0.454923 0.256521
-0.0338878 0.196388 0.254984
-0.0826547 -0.0242743 0.132695
0.0248577 0.125421 0.374872
0.0168359 -0.304801 0.0169804
-0.0479418 -0.200355 0.5356
-0.0157316 -0.157445 0.17368
0.00827214 0.0155417 0.339413
-0.00755801 0.186288 0.12156
0.0520293 0.136046 0.255216
0.153983 -0.178413 0.55627
0.0166438 -0.160577 0.165176
-0.0397748 0.0164313 0.152906
-0.00835316 0.089862 0.234372
-0.00895892 0.473809 0.173759
0.0245036 0.140278 0.194126
0.00885034 0.372536 0.293882
0.0758668 -0.183484 0.54124
0.0108671 -0.388045 0.321052
0.0565099 -0.243261 0.274776
-0.140129 -0.194908 0.554434
-0.0111352 0.0631178 0.33304
0.0258564 0.157902 0.181088
0.0106055 -0.221975 0.384145
-0.0115969 -0.259646 0.0176639
-0.00979698 -0.137014 0.332109
0.0323155 0.178785 0.332185
-0.0125829 -0.209319 0.304328
0.0227953 0.0965505 0.199522
0.0103488 0.305258 0.0287195
-0.00938861 -0.178319 0.154235
-0.00463424 0.473778 0.2049
-0.00600429 0.136378 0.304992
0.000291397 0.106897 0.328859
0.0111218 -0.290595 0.0412136
-0.00753104 -0.100038 0.392107
0.0126496 -0.330245 0.315278
-0.00327826 -0.435031 0.159906
0.0477548 0.300342 0.170687
0.0187266 0.296339 0.180486
-0.0187432 -0.207655 0.384112
-0.0126492 0.404623 0.290291
0.00885034 0.441916 0.196118
0.0152937 -0.457569 0.238223
0.00683653 -0.21854 0.340486
-0.00938861 -0.380371 0.28518
-0.00703096 0.396949 0.266454
-0.00938798 0.294248 0.00711643
-0.012334 -0.339282 0.0343725
-0.00372119 0.421418 0.111069
0.00498786 0.0825053 0.252902
0.0728235 -0.260402 0.264598
-0.161136 -0.181845 0.562018
0.0304399 0.11293 0.259681
-0.121201 0.0126895 0.141218
0.000612964 -0.0458376 0.263534
0.0271034 0.0993874 0.218889
0.0132743 -0.421076 0.26363
0.00735173 -0.16089 0.394115
0.00191133 0.183867 0.188858
-0.018511 0.308622 0.164258
0.0111218 -0.428753 0.24366
0.0148092 -0.173502 0.124985
-0.00421338 -0.339666 0.298124
-0.119118 -0.191275 0.560787
0.11051 0.111042 0.262152
0.0172226 -0.23355 0.444204
-0.00107252 0.223384 0.077584
0.00259886 -0.271879 0.341135
0.0185946 0.0907679 0.371952
-0.0121597 -0.442754 0.122606
-0.0114072 -0.0901473 0.310854
0.0345936 0.261006 0.20631
0.051437 -0.272082 0.240946
0.0154548 -0.354438 0.0209522
-0.0108469 0.328266 0.314582
-0.00182702 0.389867 0.0738544
-0.0565221 -0.205054 0.479234
0.00192532 -0.215191 0.371334
-0.012003 -0.368499 0.305003
-0.166481 -0.183297 0.547133
0.000350088 0.116745 0.385868
0.0505496 -0.259914 0.279929
-0.0281181 0.168048 0.183544
-0.0610313 0.282643 0.168883
-0.0107544 -0.409271 0.306623
-0.0107483 0.457309 0.105668
0.00414602 0.0680481 0.225083
-0.0760629 0.303665 0.175898
-0.0121245 0.298081 0.329117
-0.0123092 0.164707 0.127856
0.00800654 -0.17876 0.455062
0.0124517 0.125457 0.330604
0.0301983 0.218382 0.239897
0.00641045 0.437875 0.278648
-0.0221004 -0.235072 0.445803
-0.0126215 0.343543 0.022025
-0.0154432 -0.457836 0.152844
0.0135528 0.247811 0.307711
-0.00977664 -0.45597 0.252423
-0.0540026 -0.238713 0.286707
-0.000749781 0.18267 0.164659
-0.0252534 -0.189839 0.432302
-0.0752775 0.012256 0.130975
0.0111218 -0.433654 0.129175
-0.00755801 0.358203 0.295429
-0.0255136 0.0541038 0.177019
-0.0699061 -0.261402 0.268178
-0.00837488 0.344062 0.332848
0.0127674 0.172571 0.225469
-0.0218675 -0.19886 0.461799
-0.00907545 0.32737 0.181912
0.00885034 0.425036 0.231867
0.075569 0.11913 0.256405
0.0151021 -0.300352 0.168227
-0.00938861 -0.411373 0.0933467
-0.00769898 -0.250814 0.060265
-0.0062928 -0.476757 0.182998
-0.00563419 -0.0627661 0.361423
-0.00242679 -0.273684 0.00956701
-0.00768766 -0.424463 0.232899
-0.00427766 0.203824 0.341501
0.0608904 -0.285413 0.221983
-0.0019659 -0.398056 0.031191
0.00885034 0.231623 0.0550214
0.0010388 -0.171665 0.0743609
-0.0100053 0.0996004 0.280117
-0.00301113 0.179683 0.281526
0.0110587 0.471996 0.164301
-0.00512168 0.407525 0.0332576
-0.0123064 0.457748 0.146003
0.0111218 -0.235156 0.0602995
0.0110367 0.120585 0.308395
-0.0550749 0.0253113 0.140624
-0.00469135 -0.0512988 0.292916
-0.00761654 0.0160286 0.244919
0.010559 0.272598 0.331013
0.0668433 -0.239779 0.31127
-0.000604765 0.42836 0.131924
0.00613898 0.208289 0.249996
-0.0041856 0.15407 0.240247
0.0124177 0.452646 0.241848
0.00477268 -0.166243 0.347747
-0.0152786 -0.200887 0.278934
-0.012557 0.184525 0.0830023
-0.0134958 0.255467 0.150599
0.00561386 0.0794451 0.210186
0.00885034 0.215226 0.274218
-0.00380366 -0.188713 0.218563
0.00497136 -0.380358 0.0706045
-0.0222792 0.155084 0.216921
-0.00944591 -0.211268 0.452
0.0213187 -0.226824 0.465488
0.0113849 0.426631 0.0580527
7.87289e-05 -0.293988 0.299878
-0.0278287 0.161314 0.339932
0.000651183 -0.189146 0.361969
0.133938 -0.187431 0.562618
-0.0343342 0.244654 0.167193
0.0312281 0.178847 0.268101
0.0168253 -0.240047 0.308114
-0.0207726 0.206011 0.174902
0.0347809 -0.189285 0.537879
-0.00384454 -0.201529 0.5327
0.013387 0.350472 0.0180405
0.0157844 -0.321381 0.335891
0.0500354 0.287045 0.1814
0.000543561 0.11093 0.265678
-0.00650639 0.14184 0.171844
-0.0246225 0.082359 0.171047
0.00769657 -0.460209 0.101243
-0.00708741 0.167823 0.258962
-0.00844414 -0.393423 0.272905
0.0220088 -0.213423 0.349786
-0.00386383 -0.0162091 0.269238
0.0125077 -0.232063 0.355366
-0.0126748 0.356803 0.0254721
0.0121461 0.213277 0.301454
0.017367 -0.286918 0.0228383
-0.00938861 -0.27609 0.306738
0.00821244 0.143347 0.339446
0.000784567 -0.223631 0.0278896
0.0221591 0.0623297 0.206847
-0.0467447 -0.234096 0.303833
-0.0611988 -0.252539 0.251237
0.00720379 0.193811 0.0483858
-0.0114059 0.304596 0.317253
-0.00799874 -0.180151 0.16742
0.156568 -0.194295 0.553726
0.0122135 0.110128 0.362617
0.04883 -0.236615 0.338604
0.0578405 0.292366 0.157804
-0.00993693 0.152345 0.370095
0.035619 -0.224577 0.453323
0.0630899 -0.282248 0.19305
-0.0564278 -0.198642 0.512842
0.00885034 0.285479 0.308454
0.0173735 -0.415094 0.285603
0.002515 -0.141253 0.142616
-0.0144485 -0.25844 0.326291
-0.0107999 0.228373 0.310499
0.0654121 0.0983796 0.265351
-0.0104994 0.0606365 0.207135
0.0294253 0.124402 0.246433
-0.0111428 -0.316379 0.317402
-0.0124484 0.167067 0.221573
-0.00856708 -0.368924 0.0597732
0.0478317 0.256956 0.165492
-0.0500059 -0.288792 0.182806
0.0468685 0.154554 0.265001
-0.0121918 -0.4289 0.252858
0.0262638 0.243947 0.211525
0.0169518 -0.244443 0.0318738
-0.0155574 -0.238676 0.0379528
-0.00755801 0.180283 0.141094
-0.014162 -0.418112 0.27305
-0.0165826 0.314634 0.179466
-0.013611 0.102151 0.384954
-0.0250264 -0.192023 0.539209
-0.00755801 0.196606 0.239713
0.0506171 -0.312931 0.170959
0.00885034 0.247442 0.0457172
0.00885034 0.418218 0.0916875
-0.00755801 0.203271 0.252929
-0.0318343 0.186915 0.335176
-0.109501 -0.0164126 0.132672
0.00151578 -0.11717 0.400248
-0.00124245 -0.328804 0.049982
-0.00515542 -0.156931 0.36515
0.0366085 0.14905 0.359032
0.00981744 -0.362714 0.0568438
0.0444007 -0.23039 0.31206
-0.00819148 0.140937 0.334438
-0.0286793 0.0150711 0.133628
-0.00749301 -0.141566 0.170935
0.00595111 -0.322466 0.00671118
-0.0586027 -0.229708 0.324934
0.00971054 0.386789 0.316902
0.0077933 -0.476385 0.194376
0.00820694 0.0909353 0.32967
0.00253322 0.30703 0.340321
0.112252 -0.194272 0.553303
-0.0126064 0.314209 0.145908
0.0308601 -0.307433 0.19246
-0.019031 -0.2034 0.399595
0.0168883 -0.196422 0.538846
-0.00015627 0.434841 0.179166
0.0072373 -0.210772 0.417047
-0.00893623 -0.308155 0.163944
0.0141496 -0.201541 0.0788287
0.00572922 -0.185296 0.432029
-0.00755801 0.333961 0.0415126
-0.0252534 -0.220233 0.45461
0.00478331 0.144317 0.133048
-0.0396464 0.0628948 0.183244
-0.046686 -0.260519 0.266842
-0.00735963 -0.233886 0.346502
0.00853744 -0.239279 0.328928
-0.0577303 0.313068 0.156825
0.00803872 0.159407 0.366962
-0.0855131 -0.181687 0.544902
0.0152649 0.190935 0.352988
0.0524949 -0.196406 0.523111
-0.0112271 0.213228 0.280365
0.0492347 0.106695 0.267256
-0.0685077 -0.205733 0.518854
0.0913802 0.158387 0.26482
-0.0325203 0.307735 0.159916
-0.00961142 -0.165203 0.0919249
-0.0446204 -0.0134516 0.133848
-0.00471458 0.257192 0.287407
0.0138954 0.157543 0.147018
-0.00984458 -0.00437518 0.240006
0.0612475 -0.24981 0.257702
0.0105853 -0.0112527 0.356168
0.018808 0.0563986 0.194951
0.0142367 -0.275337 0.335122
-0.0094387 -0.381612 0.0246388
0.0684551 0.12826 0.266243
-0.00949511 0.428947 0.0937818
-0.0252534 -0.193655 0.445636
0.0115587 -0.20251 0.392939
-0.121557 -0.1883 0.54633
0.119199 -0.188656 0.562303
-0.0121505 0.379036 0.303021
-0.0395881 -0.309638 0.18145
0.00885034 0.384757 0.0538624
-0.0140668 -0.308752 0.0291277
0.0122022 0.180166 0.331575
-0.00307751 0.334969 0.00358014
-0.0269558 0.0632918 0.198246
-0.0110241 0.0307057 0.21759
0.00296627 0.189708 0.212268
0.0156214 -0.46631 0.144542
0.00401099 0.27558 0.00396384
0.00739339 0.317482 0.164634
-0.0107209 0.164366 0.155202
-0.00755801 0.439139 0.16743
-0.0110101 0.114535 0.307201
0.00885034 0.410333 0.0788403
-0.0472041 0.306022 0.162382
0.00610947 -0.13737 0.329178
0.0277255 0.125736 0.360995
-0.00938861 -0.213445 0.0806973
-0.0140074 -0.341899 0.0174514
0.0141401 -0.312005 0.318679
-0.0152157 -0.171495 0.250748
0.0151941 -0.223869 0.0375978
-0.0559951 0.274294 0.200173
-0.0122365 0.153261 0.196098
-0.0915952 -7.12047e-05 0.140535
-0.0545884 -0.290813 0.209625
0.0183149 0.0808145 0.202783
-0.0280358 -0.234174 0.332157
-0.00788847 0.429867 0.283765
-0.00234437 0.261396 0.333391
0.0138542 -0.191953 0.0605255
-0.00755801 0.363087 0.0461899
0.0111218 -0.443567 0.210229
-0.00617999 0.391319 0.0251921
0.0621509 0.309901 0.160568
-0.00955155 -0.224082 0.448545
-0.00689154 0.01976 0.336013
0.00237689 -0.469791 0.11754
-0.024982 0.0824704 0.228107
0.00628497 -0.131823 0.34612
0.0820364 -0.311032 0.184108
0.00704135 0.141988 0.302661
0.00800078 -0.211001 0.360216
-0.00786415 0.280348 0.334026
-0.0171337 0.297294 0.182735
0.00723936 -0.272685 0.0526437
-0.000637821 0.153166 0.354825
-0.00352784 -0.0175163 0.368124
-0.013072 -0.432751 0.100894
0.0114739 -0.193178 0.0956197
-0.0115624 0.410699 0.276922
-0.00637031 -0.385311 0.324684
-0.0222948 -0.214198 0.3473
0.0241866 -0.299559 0.186488
-0.00938861 -0.175698 0.13489
-0.0122216 0.246998 0.307114
-0.0230904 0.22161 0.230316
0.00753518 -0.414012 0.10137
-0.00361737 -0.194343 0.300172
-0.0397748 0.0287503 0.165581
-0.00285003 -0.146377 0.387007
-0.0304922 0.250649 0.206113
-0.0139291 0.28341 0.191039
0.0115927 0.165905 0.193212
0.0400096 -0.30514 0.180324
0.00680015 -0.313899 0.183553
-0.0276045 -0.311704 0.157359
-0.0142981 -0.232217 0.299945
0.00885034 0.187586 0.116259
-0.00934944 0.153323 0.114038
-0.0202421 0.127115 0.186888
-0.00774917 -0.437099 0.185757
0.00624997 -0.18756 0.292435
-0.00567094 -0.322704 0.344335
0.0136654 0.239583 0.0307326
-0.122611 -0.0188024 0.142054
-0.000222963 0.235514 0.273694
-0.0117664 -0.031238 0.26337
-0.0504202 -0.234357 0.338628
-0.0136252 0.10114 0.197344
0.0439947 0.128047 0.264696
-0.0611877 0.320357 0.176558
0.0111218 -0.174385 0.177735
0.00970213 0.00758138 0.240689
0.0136284 0.463769 0.153794
-0.0113386 -0.173193 0.365768
-0.0138812 -0.207018 0.362342
-0.0266737 0.0894622 0.205488
-0.00755801 0.230274 0.0614895
0.0094118 -0.0632793 0.293051
0.0126077 0.40517 0.299026
0.0142598 -0.157546 0.114031
0.00219633 0.301218 0.0451303
0.0142274 -0.399101 0.0396243
-0.0025991 0.000793904 0.339977
0.0114354 -0.142522 0.184199
0.0218267 0.194776 0.184429
0.00866729 -0.0974902 0.319039
0.0112019 0.296652 0.164647
-0.0189824 0.0790204 0.192342
-0.000344827 -0.0998967 0.300562
-0.00755801 0.246171 0.04838
-0.0118129 0.272113 0.0271998
0.00533159 -0.472253 0.131738
0.0094645 0.349628 0.331264
0.00534893 -0.378493 0.281581
-0.00380825 -0.229106 0.363457
0.0111218 -0.346368 0.302974
-0.0496041 0.0106488 0.141427
-0.0544659 -0.281283 0.230891
0.0580629 -0.283537 0.183138
-0.0112784 -0.175307 0.408031
0.0156845 -0.365399 0.0405079
0.0110063 -0.397183 0.078734
0.0659728 -0.261066 0.280401
0.0228529 0.234066 0.171395
0.0571029 -0.264297 0.225357
-0.0150375 -0.27685 0.0295312
0.016806 -0.151945 0.149176
0.00893595 0.448752 0.16742
-0.0855746 0.0338204 0.137829
-0.0150366 -0.416204 0.0579469
0.00874017 -0.445882 0.271802
0.0146334 -0.440487 0.23585
0.00663489 0.374388 0.0156076
-0.00441971 0.0753746 0.239364
0.00983759 -0.219312 0.445796
0.0328225 0.306255 0.162641
-0.0545884 -0.316122 0.182242
-0.0131102 -0.417857 0.294405
-0.00808808 0.391992 0.0563148
-0.0108907 -0.325855 0.0341096
0.0111218 -0.205815 0.263946
0.0615511 0.308042 0.179201
-0.0720527 -0.307088 0.164761
0.00543805 0.212198 0.0879757
-0.0144061 0.118556 0.380164
0.0134737 0.455286 0.200271
-0.0246187 0.0652575 0.230391
-0.037211 0.0457671 0.166372
-0.111959 0.025552 0.140612
-0.01347 -0.219375 0.0399343
0.001647 0.0855918 0.220034
0.0193387 -0.187756 0.52665
-0.000260196 -0.150669 0.112747
0.0112861 0.441563 0.226123
-0.0698463 -0.187934 0.525525
-0.0226388 0.200138 0.250506
-0.0153918 -0.152711 0.188163
0.0159202 -0.449584 0.134618
0.0100703 0.4203 0.258583
0.00951749 0.439827 0.0687621
-0.0269558 0.0363834 0.170079
-0.0252456 0.163714 0.283609
-0.0106496 -0.116327 0.319527
0.00332415 -0.45656 0.258326
-0.0153467 -0.275451 0.321824
0.013063 0.420611 0.284216
0.0120708 0.111923 0.28251
-0.00322648 -0.134521 0.405622
-0.0165398 0.118173 0.360312
0.00837183 0.098583 0.251785
0.0255098 -0.180437 0.452571
0.0337868 -0.296687 0.161411
-0.00673331 -0.305741 0.00688489
-0.00559038 -0.474756 0.145176
-0.00438359 -0.431324 0.291699
-0.0161739 -0.189017 0.525087
-0.00292175 0.0863104 0.19793
0.0259902 0.186116 0.256598
0.0142528 0.172209 0.361289
-0.010593 0.296426 0.148274
0.0356259 -0.239845 0.328999
0.0415854 0.172183 0.352429
-0.011304 0.430958 0.251877
0.00310999 0.401629 0.312187
0.0128422 -0.340185 0.336742
0.0536748 -0.253725 0.301876
-0.016839 0.292155 0.164976
-0.00930467 -0.159405 0.247402
-0.0121659 0.458395 0.121978
0.0081952 0.23833 0.321692
0.0673727 -0.292123 0.206346
-0.0564537 0.046185 0.132553
0.0208618 0.318461 0.170139
-0.0269558 0.0204478 0.162111
-0.00933594 0.194275 0.288479
-0.0129157 -0.459822 0.114367
-0.0145309 -0.451692 0.138913
-0.00755801 0.337933 0.300277
-0.00755801 0.435553 0.112237
-0.00747278 -0.203651 0.379394
0.0108872 0.173679 0.263125
-0.0223666 -0.177053 0.435828
0.0664709 -0.275262 0.247374
-0.0138597 -0.394673 0.293017
0.00510404 0.133003 0.352478
-0.0252534 -0.211543 0.451684
0.00493166 0.321946 0.338988
0.00955233 0.0360802 0.219091
-0.0123964 0.457061 0.218226
0.00299245 -0.125773 0.321545
-0.0446204 0.0224265 0.131694
-0.00576102 -0.0744502 0.284444
0.00974653 -0.438076 0.170649
0.00751517 -0.25702 0.0139222
0.0206558 0.124183 0.187554
0.00365725 0.380741 0.274745
-0.00896495 -0.21678 0.393608
0.0132695 0.382143 0.0300213
0.00261681 -0.405009 0.316095
0.0175154 -0.167719 0.233376
-0.0185229 0.142932 0.295411
-0.0180629 0.214064 0.153552
-0.00360061 0.211135 0.0329178
0.0123177 0.183267 0.0980808
-0.0110358 0.287873 0.314449
0.00892021 0.472391 0.137724
0.0141869 -0.299039 0.337529
-0.00755801 0.283473 0.0383349
-0.0522904 -0.215847 0.466705
0.0069344 0.0517753 0.343604
0.058403 0.1537 0.254773
0.11051 0.0958124 0.259025
0.0025373 -0.0880101 0.38798
0.0136254 0.166127 0.337797
-0.00642548 -0.357411 0.0141509
0.0571021 -0.200356 0.535598
0.00402826 -0.185027 0.199644
0.0138271 0.454604 0.12246
-0.0710606 0.0020908 0.141717
0.00803504 0.302937 0.00415684
-0.0105634 -0.191103 0.418243
0.013995 0.321758 0.0183952
-0.0119211 -0.0430448 0.273606
0.166551 -0.185921 0.546283
0.0118985 0.125308 0.382076
0.0280207 0.221581 0.226642
0.0427665 0.257936 0.195927
-0.00985603 -0.439864 0.226056
0.00977077 -0.0115756 0.251987
0.0568358 -0.237875 0.28778
-0.104952 -0.195879 0.548396
0.00699446 0.182393 0.149918
0.0214588 0.147805 0.372105
-0.0270331 0.0374229 0.199301
0.0166891 -0.433019 0.0759085
0.00885197 -0.17181 0.41269
0.0111218 -0.430771 0.117331
0.0172515 -0.462577 0.190218
0.00873061 0.330161 0.309658
0.0160166 -0.338555 0.0307821
0.0114449 -0.198106 0.426936
-0.00705979 0.13633 0.319212
0.0117802 -0.255773 0.305658
0.00161293 -0.252589 0.335198
-0.0174778 0.197882 0.33231
-0.00938861 -0.23424 0.282709
0.00944556 0.106414 0.312234
0.103533 0.142161 0.265585
0.00860583 -0.309766 0.0471711
0.00116345 -0.294272 0.3143
-0.00660984 0.195807 0.108209
0.0679267 -0.296847 0.194656
-0.0628799 0.293342 0.179383
-0.00938861 -0.184101 0.117421
0.00591108 -0.125536 0.382123
0.00885034 0.441868 0.134066
0.00576005 0.405094 0.254025
-0.00755801 0.302848 0.0352459
0.0111218 -0.191925 0.252116
-0.00300024 0.383001 0.323776
0.0111218 -0.283759 0.306531
0.0260482 0.102464 0.233623
0.00497563 0.121856 0.293125
-0.00314351 -0.218135 0.317631
-0.00348609 0.0927548 0.270097
-0.0178423 0.132116 0.352872
0.0118083 0.170147 0.0867973
0.058593 0.288567 0.172772
-0.0342267 0.175486 0.344915
-0.014408 -0.154795 0.217263
0.0113507 0.137057 0.311829
-0.0035156 0.105362 0.255439
-0.00938861 -0.355076 0.304991
0.0157969 -0.271799 0.316179
-0.0126706 -0.471983 0.163172
0.0715645 -0.187103 0.527768
0.0170563 -0.399025 0.295637
-0.0322989 -0.314612 0.17218
0.00454515 -0.416235 0.241644
-0.00547382 0.42196 0.229935
-0.037211 0.0493978 0.19458
0.0388672 0.0870727 0.227736
-0.00308212 0.16077 0.0893881
0.012398 -0.27507 0.037767
-0.0110798 -0.157807 0.106499
0.00993414 0.269703 0.0347755
0.0165314 0.0844022 0.193066
-0.0124389 0.424859 0.067367
0.0711199 -0.304906 0.172345
-0.00588669 -0.1713 0.451414
-0.0206261 0.147929 0.159735
0.168643 -0.18009 0.560289
0.0174669 -0.162622 0.220555
0.0807588 -0.189058 0.554764
-0.00241117 0.193636 0.225301
0.00435856 0.187416 0.132803
0.122907 -0.181995 0.548096
-0.00237817 -0.471366 0.222085
0.0118684 -0.371216 0.328934
0.0118644 0.185959 0.277392
0.0130964 0.173779 0.110045
0.010049 -0.212969 0.402518
-0.0682916 -0.0190877 0.132452
-0.0144 0.241641 0.202183
-0.015399 -0.21429 0.0580213
0.000659385 -0.0888703 0.369626
-0.00191591 0.0629665 0.320026
0.0565062 -0.303014 0.186219
0.0162804 -0.195764 0.43598
0.0229084 0.153378 0.343447
0.0120318 0.451734 0.0948354
0.0196547 -0.208366 0.463582
-0.0197098 -0.22169 0.366158
0.0238266 0.105186 0.369074
-0.0611723 -0.284429 0.190903
0.0173776 -0.406091 0.0580578
-0.00492196 -0.209397 0.441117
0.00578108 0.0963492 0.36872
-0.0024711 -0.14341 0.210338
0.00366181 0.0556411 0.20044
0.0795559 0.0989136 0.266304
-0.0678159 -0.243857 0.283388
-0.0533135 0.0113555 0.131014
0.0101689 0.154268 0.228254
0.0035757 -0.432824 0.201076
0.00534877 -0.221467 0.267191
-0.0397748 0.00336671 0.13226
-0.02273 0.151275 0.367011
0.090856 0.1178 0.257613
-0.0851158 -0.196651 0.545911
0.0137567 0.154403 0.171021
0.0745426 -0.19988 0.538156
-0.00996352 0.183531 0.100948
0.0079164 0.183854 0.0602774
-0.00500611 -0.21046 0.465928
0.00094622 0.316621 0.176855
0.0138273 0.229417 0.042399
0.0284074 -0.236861 0.340771
-0.0081643 -0.384436 0.0702117
-0.102515 0.0351228 0.134886
0.00704708 -0.255832 0.291645
0.00885034 0.22129 0.0659822
-0.0102529 0.0303839 0.346614
0.00303324 0.302239 0.297302
0.0306751 0.19691 0.34607
-0.012641 -0.150946 0.135351
-0.00986059 0.453758 0.245503
0.0740258 0.159001 0.264792
0.00101845 -0.19249 0.395359
-0.00429041 -0.020293 0.246277
-0.0386052 -0.231477 0.317023
0.0162612 -0.204974 0.378722
-0.00938861 -0.224595 0.0716021
-0.146092 -0.184096 0.563073
0.00809501 -0.180122 0.0648905
-0.146779 -0.185085 0.546397
-0.00938861 -0.199101 0.252112
-0.0584113 -0.197557 0.495112
-0.056667 -0.186338 0.531417
0.0754716 -0.281044 0.220969
-0.00755801 0.229312 0.285839
-0.0156583 -0.46146 0.189773
-0.00814334 0.407488 0.303907
-0.0119187 0.467292 0.160716
0.00967164 -0.193153 0.459648
0.0171056 -0.381462 0.0368912
0.0118595 0.336993 0.0114423
0.0509847 0.119826 0.266637
-0.0145582 -0.354014 0.0347574
-0.0543388 -0.26819 0.214874
0.0524948 -0.244044 0.326198
-0.0146186 -0.200309 0.292225
-0.0885711 -0.0251676 0.143109
-0.00867743 -0.430823 0.0618221
-0.0104595 0.150863 0.135507
-0.00938861 -0.179672 0.203581
0.0987205 0.154017 0.254758
-0.117841 0.0200754 0.130603
0.104952 -0.181628 0.562226
-0.0116247 0.310972 0.0110463
-0.0123663 0.195324 0.0723084
0.104952 -0.191738 0.543755
-0.0101407 0.447727 0.207688
0.0174293 -0.155551 0.180317
0.0155427 -0.167705 0.251553
0.0975039 -0.179212 0.552994
0.00885034 0.445471 0.181922
0.0110937 -0.435191 0.143203
0.0111218 -0.411494 0.0872731
-0.0545884 -0.302616 0.172449
0.0108641 0.472029 0.190621
-0.00857483 0.0849999 0.249033
0.076595 0.312557 0.161234
-0.00688354 0.366122 0.0128939
0.0779265 -0.304242 0.165545
-0.00755801 0.207359 0.266415
-0.0223029 0.115238 0.224048
-0.0147182 -0.199901 0.43754
-0.000265188 0.124927 0.334322
0.000660761 0.313929 0.310428
-0.0472469 0.303861 0.175448
-0.110613 -0.00233171 0.1358
-0.0103957 0.470761 0.1883
0.00889152 0.222974 0.0287053
0.00693388 0.271102 0.0485098
0.167339 -0.190842 0.561114
0.00305011 -0.189128 0.409872
-0.00914364 0.0346813 0.23069
0.00593281 -0.230638 0.455367
-0.0244698 0.117528 0.16009
-0.0169054 0.206331 0.208319
-0.0207013 -0.228596 0.46635
-0.0412875 0.254335 0.17555
-0.175869 -0.177601 0.556331
0.00979114 -0.156302 0.357097
0.00628788 -0.185927 0.142544
-0.0378844 -0.303471 0.171429
0.00390588 0.283588 0.294684
0.0044924 0.422604 0.0459767
-0.024062 0.192704 0.261223
0.00787227 0.350253 0.29295
0.104298 0.123124 0.266483
-0.0128159 -0.166828 0.146896
0.0114767 0.306219 0.184277
-0.00228577 -0.263583 0.056359
0.0459805 -0.203797 0.483916
-0.0464676 -0.204656 0.488746
-0.000919872 -0.241134 0.0684598
0.0112509 -0.194858 0.402201
-0.00622908 -0.141336 0.156619
0.0109077 -0.194534 0.370246
-8.50139e-05 0.114006 0.31683
-0.00755801 0.258153 0.0404673
0.00522139 0.0895716 0.312876
-0.00295436 -0.221153 0.458995
0.0155222 0.203412 0.340147
0.0606475 -0.20911 0.485578
0.0640955 -0.312129 0.165365
0.0125606 0.437093 0.239628
-0.0101774 -0.245471 0.0216511
-0.0142465 -0.222463 0.309436
-0.00413149 0.058695 0.190877
-0.0166123 -0.296314 0.168947
-0.0581591 -0.24751 0.31628
0.0121163 0.435255 0.100005
0.0628536 0.317238 0.169389
-0.00948904 0.203715 0.0434435
-0.0111937 0.173857 0.115394
-0.00872876 -0.364421 0.292197
-0.000247658 0.26027 0.0544389
-0.0481589 -0.260904 0.244763
0.0397382 -0.21959 0.345486
0.00104325 0.0346575 0.208269
-0.0112342 -0.166133 0.186942
0.00684469 -0.424379 0.230375
-0.0150043 -0.377762 0.31779
0.022083 -0.223545 0.441215
-0.0566173 -0.270276 0.260914
-0.00755801 0.269685 0.305198
-0.00938861 -0.196227 0.108112
-0.0524291 0.278387 0.164952
0.013621 0.153758 0.186659
-0.163772 -0.19454 0.556657
-0.00458217 -0.44908 0.268821
-0.00957177 0.105015 0.29175
0.0556455 -0.286409 0.209502
0.010112 -0.437174 0.156893
-0.0155867 -0.376039 0.0354794
0.0527883 0.310282 0.180775
-0.00755801 0.346171 0.0389131
-0.0277565 0.230558 0.220974
-0.00817371 -0.188284 0.433212
0.0160128 -0.356087 0.314606
-0.00124084 -0.204429 0.368876
-0.00967446 -0.099168 0.3211
0.00885034 0.398962 0.0695186
0.0128326 0.165887 0.137511
-0.0178695 0.322167 0.164684
-0.0109294 -0.199974 0.265812
0.0326627 -0.313415 0.178973
-0.115457 -0.179675 0.559632
0.0412802 -0.31495 0.179163
0.00885034 0.396476 0.277374
-0.0163669 -0.2128 0.374942
-0.013523 -0.296327 0.319249
-0.00546056 -0.461352 0.103133
0.0508622 -0.218916 0.4689
-0.0125159 0.23833 0.0367699
-0.0116511 0.214835 0.0561172
0.0712289 -0.250749 0.27293
-0.00708561 -0.319077 0.17337
-0.0764434 -0.0309889 0.143846
-0.0109483 -0.0853987 0.298774
-0.0100121 0.45209 0.164366
0.00524147 -0.330158 0.299957
0.00346982 -0.350532 0.0560604
0.00846883 0.179031 0.17387
0.0170429 -0.456671 0.224847
0.0694146 -0.306222 0.184602
-0.00755801 0.392513 0.27921
-0.0104464 0.311158 0.189955
-0.00189409 -0.168321 0.374093
0.0260555 0.220989 0.170581
0.0111218 -0.360347 0.299407
-0.0727105 -0.18968 0.546806
-0.0269558 0.0757176 0.203554
-0.00662924 0.182373 0.199165
-0.000204683 0.201525 0.302397
-0.0112196 0.0795737 0.325062
-0.00934111 -0.342362 0.0490328
-0.0131672 0.152879 0.343669
-0.00103393 0.0693598 0.210342
-0.00617334 0.315711 0.161086
0.0111218 -0.186639 0.124964
0.0139167 0.385225 0.301385
-0.00883214 0.239839 0.0197635
-0.0143992 -0.20992 0.409441
0.0314097 0.14287 0.348399
0.00885034 0.420191 0.245287
0.0131115 0.26507 0.0177951
0.00250667 0.246747 0.280371
-0.00755801 0.179921 0.223078
-0.0134372 -0.244353 0.305417
0.00299135 0.478336 0.172817
-0.005707 0.38151 0.0642151
0.0499119 0.304136 0.161679
-0.0107053 -0.411916 0.0783013
-0.00722991 -0.407273 0.0392388
-0.00729232 0.0668944 0.220166
0.0111218 -0.175007 0.191012
0.123821 -0.191853 0.548147
-0.0144811 -0.162189 0.161332
0.0133116 0.266614 0.31372
0.00926026 -0.0241787 0.353464
-0.00780104 -0.261557 0.295022
0.0135627 0.0852754 0.382931
-0.00616748 0.347072 0.00796597
0.00825421 -0.20473 0.250238
-0.0119892 -0.0537939 0.282557
0.015253 -0.305863 0.0300797
0.0317574 0.0550579 0.201914
-0.00244348 0.413869 0.100295
0.0106681 -0.420548 0.0508087
0.0178936 0.321593 0.157736
-0.00690462 -0.171281 0.396241
-0.037211 0.0298915 0.149084
-0.000339435 -0.428082 0.132655
-0.0810774 -0.187417 0.534025
0.0292915 0.313136 0.174545
0.00482854 0.198306 0.349723
0.0152333 -0.444016 0.121624
-0.0304067 -0.325505 0.174069
0.0354187 0.11163 0.232367
-0.00775495 0.443478 0.0736681
-0.00925979 0.376112 0.045301
0.0150969 -0.165225 0.100225
0.00868784 -0.104994 0.391582
0.0692565 -0.20063 0.504782
0.00904308 0.0229763 0.350227
0.00885034 0.258148 0.298486
0.00740535 0.0996211 0.284227
0.0045108 0.335073 0.338481
0.0133973 0.150156 0.158655
0.00622624 0.412535 0.0375841
0.0411711 -0.304981 0.169808
0.0388672 0.0996934 0.226753
0.0166237 -0.192242 0.28268
0.0101656 -0.188067 0.223016
0.00484583 -0.182524 0.168298
-0.0121081 0.151228 0.180744
-0.00938861 -0.332573 0.307997
0.0199419 -0.170217 0.448916
-0.130463 -0.185361 0.563283
0.0410935 -0.19016 0.524221
0.0132942 0.0714375 0.211769
0.0260482 0.0662081 0.195874
0.0126417 0.162718 0.239034
-0.015402 -0.171294 0.101885
-0.100073 -0.0253316 0.132745
0.00340326 0.283434 0.0462339
0.0332221 0.0607664 0.187454
0.0691192 0.302145 0.17598
-0.0156663 -0.447787 0.110469
0.0173821 -0.436565 0.0884161
-0.0266737 0.0923692 0.21898
-0.0311431 0.15445 0.353685
0.00762453 -0.224539 0.374733
0.00780348 -0.211179 0.452467
0.00885034 0.195346 0.248354
0.0111218 -0.392446 0.0633277
-0.064832 0.3041 0.161642
-0.0655627 -0.265567 0.22075
0.0522209 0.142237 0.265877
-0.0269558 0.0691943 0.189149
-0.00310681 -0.14791 0.333925
-0.0277857 0.240674 0.177579
-0.00577589 0.181014 0.178892
-0.00938861 -0.446382 0.159387
-0.0120713 0.0193848 0.229329
-0.0301545 -0.186802 0.528612
-0.0307715 0.181572 0.26099
0.0100676 0.168475 0.149769
0.00223478 0.0952655 0.239193
0.0138096 -0.197462 0.295458
-0.0303203 0.218858 0.241399
0.0576243 0.279036 0.185897
-0.0145008 -0.171498 0.229856
0.0178039 -0.185343 0.428509
-0.00938861 -0.177206 0.218817
-0.0225537 0.169142 0.27177
-0.00755801 0.308589 0.30573
0.00648829 0.17419 0.0690009
0.0691952 -0.316733 0.181255
-0.0120504 0.464661 0.19991
-0.014015 -0.426181 0.28477
-0.01558 -0.218919 0.442588
0.000608866 -0.284173 0.343839
-0.00966591 0.0951333 0.247706
0.0168482 0.105356 0.191726
0.0129332 0.354921 0.310455
0.0704462 -0.272953 0.201377
0.0111218 -0.245513 0.298184
0.0586299 -0.258751 0.290484
-0.00957272 -0.101195 0.377612
0.00621187 -0.426184 0.296348
-0.0647647 -0.257768 0.240277
0.00852078 -0.348256 0.011502
0.0173501 -0.339229 0.322833
-0.00683604 0.174458 0.269712
-0.0256447 0.0408348 0.211312
-0.0150467 -0.307189 0.0166357
0.0423743 0.174286 0.338342
0.00495277 -0.112618 0.37732
0.0139617 0.181065 0.253381
-0.0383364 -0.219824 0.347883
0.00698292 -0.46655 0.235206
-0.00976882 -0.187511 0.535824
-0.00990976 -0.276634 0.338519
-0.0154811 -0.447715 0.24485
0.00692148 -0.32484 0.344063
-0.0278635 0.199102 0.1826
0.0104687 -0.19178 0.415531
-0.0603324 -0.23191 0.305663
-0.0143572 -0.424909 0.084625
-0.0155843 -0.161814 0.129921
-0.0155363 -0.249301 0.317847
-0.027104 0.179792 0.17945
0.129257 -0.194346 0.554649
-0.0106795 -0.195738 0.393055
0.145643 -0.187531 0.563217
-0.0528448 -0.0247799 0.132719
0.0159599 -0.450905 0.101904
0.0260482 0.111883 0.248079
-0.0111781 0.44577 0.254936
-0.00173005 0.463999 0.100366
0.0168564 -0.155123 0.209482
0.0252124 -0.310743 0.160016
0.0109433 0.151092 0.214371
0.0255098 -0.216497 0.44845
-0.00224014 -0.0743227 0.309442
0.0112964 -0.181388 0.233378
0.140388 -0.180736 0.548533
0.0562488 -0.228047 0.314698
-0.00938861 -0.416016 0.261857
-0.0112646 0.361519 0.306724
-0.0152312 0.164186 0.364843
-0.0146379 -0.183398 0.253909
-0.00687936 -0.300814 0.0467422
0.0170544 0.307578 0.168595
0.00279965 -0.21768 0.392944
0.0287696 0.184486 0.179931
0.00893435 -0.409343 0.25554
0.00481126 -0.233758 0.346453
-0.00449174 -0.192319 0.523158
-0.0598713 0.305575 0.179493
0.00885034 0.184092 0.22713
-0.00340942 0.26549 0.00737735
0.06924 -0.26324 0.226756
0.00474389 0.435689 0.16796
0.0100449 0.202475 0.265323
-0.0587904 -0.311477 0.166692
0.0386361 0.0886831 0.211267
-0.00712802 0.128374 0.380714
-0.00755801 0.212356 0.0720975
-0.0858769 0.011534 0.136983
0.00589239 0.142292 0.360355
-0.0389876 0.0551404 0.173971
0.0492082 -0.250708 0.268459
-0.0265964 0.0666106 0.164141
0.0281502 0.192886 0.327751
0.00541272 -0.0701221 0.282553
-0.0132679 -0.271647 0.0179285
-0.0474703 -0.268861 0.232833
0.00543464 -0.301952 0.182191
0.0388672 0.12673 0.254556
0.0153448 -0.236023 0.319411
0.00191349 0.358706 0.286707
0.0695006 -0.242197 0.297672
-0.0120903 -0.363132 0.042283
-0.0073839 -0.178211 0.0687128
0.0551016 0.263353 0.172688
0.0117558 0.459372 0.231858
-0.0112312 -0.110666 0.387768
0.0109987 -0.295683 0.304703
0.0258061 0.196228 0.247916
-0.0330331 -0.223647 0.449953
-0.0422737 -0.217602 0.476491
-0.00258921 -0.146003 0.222104
-0.0156911 -0.454341 0.124729
0.0129847 0.235897 0.298899
-0.101887 -0.185921 0.56259
-0.0514535 0.284521 0.196567
0.00885034 0.323165 0.0360221
0.00897511 0.136641 0.327991
-0.0154049 -0.186706 0.0779271
-0.0533158 0.291851 0.174787
-0.0157151 -0.460686 0.16502
-0.0132276 -0.184451 0.457207
-0.0639953 -0.27904 0.237778
-0.0752685 0.0453165 0.134516
-0.00674371 0.323978 0.00345624
0.050902 0.105137 0.255525
-0.0143764 -0.389893 0.0374792
-0.0107159 0.0076611 0.345401
0.145073 -0.194771 0.552279
-0.0117318 0.00688286 0.236526
-0.107081 0.0111307 0.139311
-0.00433438 -0.123189 0.334045
-0.0113789 0.268218 0.0158192
0.0109895 0.228794 0.313329
0.00465618 0.174088 0.273263
0.00494126 0.412133 0.304875
0.0146161 -0.403732 0.307775
-0.0304067 -0.314882 0.19022
-0.01135 -0.312914 0.186318
-0.0114316 0.259399 0.30966
-0.0124028 -0.228367 0.364327
-0.000376199 0.398152 0.0822135
-0.015619 -0.309729 0.326134
-0.0207374 0.180116 0.331599
-0.0558189 -0.30365 0.183536
-0.0121591 0.396643 0.301339
-0.0058265 0.465901 0.112108
-0.0558037 0.296888 0.162681
-0.0126635 0.157161 0.168844
-0.0321654 0.315151 0.172776
-0.00974517 -0.142523 0.184832
0.00579949 0.237631 0.0651414
-0.0029897 0.478497 0.183393
0.00274527 -0.368777 0.0640516
-0.00950596 -0.216185 0.366914
0.0169224 -0.431598 0.274351
0.0130777 -0.472647 0.154124
-0.00502027 0.439812 0.276643
-0.00938861 -0.403664 0.267191
-0.0121818 0.462451 0.135225
-0.011763 -0.0643041 0.287454
-0.0140091 -0.195788 0.0613401
-0.00563984 -0.029663 0.253468
-0.0295255 0.0235745 0.141692
0.0109395 0.0789654 0.222791
0.00814563 -0.147623 0.40602
-0.0122766 0.447061 0.11115
0.00886962 0.121483 0.319879
0.0250303 0.231907 0.231305
0.0167403 -0.177637 0.0860637
0.0211145 0.205305 0.175143
0.0156155 -0.249636 0.0422625
0.00767575 -0.391767 0.271822
-0.0121301 0.389975 0.0351563
0.0498828 0.280964 0.165584
-0.0143156 0.242546 0.151965
0.0424703 0.305062 0.180167
-0.00755801 0.447782 0.175241
-0.0316028 0.00828933 0.151298
0.0184021 -0.231017 0.34192
0.00900457 0.143476 0.183752
0.0310991 -0.22153 0.463432
0.0139164 -0.314841 0.0118871
-0.0446058 -0.246937 0.30064
-0.0302875 -0.321562 0.161921
-0.012168 0.334119 0.0152444
0.053209 0.314289 0.158011
-0.00681504 0.179824 0.155174
0.0148565 -0.277615 0.0163784
-0.010968 0.173038 0.0832658
0.00766283 -0.477143 0.180312
0.100255 0.101106 0.258005
0.0592628 -0.194209 0.513969
-0.00394323 0.08551 0.259639
-0.0057687 0.405109 0.255146
0.0580574 -0.249864 0.311875
-0.0215174 -0.234611 0.346498
0.00798788 -0.155441 0.343774
-0.0147618 0.266898 0.149622
0.00220632 0.0622748 0.342844
-0.0573202 0.319303 0.165204
-0.0640715 -0.235567 0.316663
-0.0122896 0.236645 0.30209
-0.0033524 -0.41777 0.304324
-0.00935357 0.0528855 0.328109
-0.00419944 0.303258 0.00221779
-0.0210984 0.142621 0.217157
0.000736902 0.110512 0.362444
-0.0714994 -0.265827 0.235664
-0.00749422 0.435359 0.13896
0.155246 -0.186853 0.546177
-0.00256295 -0.321889 0.301437
-0.0686471 -0.250023 0.268683
0.0132963 0.354903 0.0286044
-0.151714 -0.193062 0.5587
-0.00839838 -0.178706 0.2796
-0.000139771 -0.302532 0.344546
-0.000203913 -0.151723 0.240453
-0.0125429 0.329842 0.170821
-0.0136507 0.199521 0.346428
-0.00399389 -0.4634 0.245945
0.00809624 -0.158047 0.410702
0.0153469 -0.164988 0.151952
0.00209288 0.106426 0.390442
-0.0252534 -0.217922 0.46701
0.00296803 0.279341 0.337483
-0.0459724 -0.00568345 0.142085
0.010569 -0.227633 0.36553
0.00681216 0.0849779 0.373761
-0.0469225 -0.250504 0.272248
-0.0153874 -0.328895 0.324303
-0.0121072 0.222246 0.293511
-0.0505363 -0.290023 0.199029
-0.00732788 0.372608 0.0573466
0.035937 -0.219452 0.333975
-0.0153853 -0.248708 0.0311988
-0.0446204 0.0304229 0.139742
0.0175113 0.297906 0.156036
0.00344987 0.169053 0.362687
-0.037211 0.0724253 0.188631
0.0453507 0.251958 0.175361
-0.0657324 -0.314726 0.170245
-0.02411 0.0431998 0.190378
0.0106669 -0.213646 0.349944
-0.0114904 -0.00171451 0.250872
-0.00958437 0.168364 0.144691
-0.00960483 0.38836 0.28935
-0.00350692 -0.376039 0.330428
-0.0153055 -0.364413 0.314975
-0.0108639 -0.234196 0.445921
-0.0105555 -0.283513 0.315137
0.0533124 -0.27184 0.217892
0.0619933 -0.295403 0.180254
-0.00755801 0.438793 0.186679
5.92041e-05 -0.230371 0.372127
0.0102045 -0.182037 0.366947
0.00947693 -0.330955 0.0472992
0.00130624 0.161397 0.255121
0.00885034 0.203222 0.0821285
-0.00223394 0.350526 0.0504815
0.00947577 -0.114462 0.319046
0.0103505 0.00699136 0.346332
-0.0110641 0.190288 0.0624008
0.0111218 -0.180042 0.20783
0.0488595 -0.225546 0.340146
0.00421701 0.063202 0.215502
-0.00942389 0.155747 0.230528
-0.0118533 0.0779023 0.205035
-0.0249114 0.0898481 0.179313
0.067944 -0.269217 0.259823
-0.0201793 0.169518 0.213941
-0.00755801 0.185059 0.234836
0.000661251 0.145448 0.122794
-0.0116955 0.162159 0.189471
-0.00640857 0.455035 0.0894442
0.0742202 -0.267375 0.248282
0.0342011 -0.325342 0.179527
0.00249924 0.47788 0.160417
0.00885034 0.213156 0.262595
-0.045005 0.274088 0.201614
-0.0716027 -0.261623 0.253606
-0.133829 -0.186811 0.546182
0.0252463 -0.295226 0.168259
0.016632 -0.389173 0.300672
0.0135372 -0.214771 0.391041
0.0168314 -0.380564 0.315485
-0.00343248 -0.427191 0.220473
0.00393643 -0.299114 0.0482573
-0.0327848 0.0588249 0.205093
-0.00356736 -0.205327 0.309303
-0.00898414 0.465656 0.224249
0.00196325 -0.194347 0.226881
0.0101595 0.0413928 0.341745
0.0170701 -0.420692 0.275988
-0.016313 0.109371 0.37437
-0.0620127 -0.198617 0.524213
0.0103823 -0.321699 0.304798
-0.00303918 0.14414 0.315184
0.0101442 -0.0474952 0.370169
-0.0149222 -0.189751 0.264936
-0.0370283 0.248775 0.215184
0.0028885 0.20379 0.240491
-0.0644006 -0.0294389 0.133442
0.0295157 0.253997 0.214613
0.0158415 -0.222858 0.457175
0.0255098 -0.228682 0.454682
0.00234851 -0.197263 0.436783
-0.00453455 -0.307981 0.314946
0.058593 0.301821 0.171914
-0.177753 -0.181866 0.546422
0.00962744 -0.2374 0.0239828
0.0040779 0.00933199 0.250402
0.00298008 -0.162513 0.260885
-0.11696 -0.0257161 0.135736
-0.00939276 0.252647 0.0164007
-0.012605 0.126765 0.314253
0.0207705 0.310718 0.18051
0.0605629 0.0900775 0.257775
0.0156874 -0.445911 0.223592
-0.0428194 0.254999 0.20631
-0.0655209 0.00738041 0.131204
0.0249572 0.168234 0.276159
-0.00533579 0.127055 0.299405
-0.112842 0.0363546 0.141642
0.00885034 0.258321 0.0452943
-0.0128598 0.131238 0.331351
0.00368738 -0.140957 0.354334
-0.000380682 0.145824 0.346793
0.0119574 0.358082 0.324404
0.0598167 0.301941 0.163218
0.0139089 -0.459019 0.11009
0.0473428 0.278455 0.189371
-0.0150192 -0.211783 0.461922
0.0214146 -0.219542 0.339705
-0.0269558 0.00258443 0.131182
-0.00976842 -0.148079 0.354287
0.130148 -0.178354 0.555201
-0.0111176 0.363994 0.035978
0.000526046 -0.144232 0.132376
0.00752656 0.305791 0.310811
0.005583 0.204292 0.335895
0.0513939 -0.307419 0.180642
-0.00732968 -0.210681 0.0909777
0.0144083 -0.470111 0.202704
0.0460732 -0.250899 0.283952
0.0226143 -0.201783 0.531372
0.00786764 -0.183734 0.421771
-0.00827109 0.167715 0.168538
-0.00183654 -0.371072 0.284745
0.000601721 0.190208 0.292387
-0.00461343 -0.158188 0.39145
-0.119654 -0.000160092 0.141824
0.0136369 0.279673 0.323491
-0.00249755 -0.207274 0.428565
-0.00159681 0.139879 0.181222
-0.0125858 0.158067 0.143779
-0.00780504 0.174263 0.129883
-0.043385 -0.241276 0.334349
0.0616375 -0.191218 0.538982
-0.037211 0.0693868 0.205642
-0.037211 0.0601177 0.195214
0.0208571 0.176279 0.267053
-0.0110846 -0.135946 0.392805
-0.0611723 -0.282827 0.202333
0.0266395 0.189898 0.266611
-0.000796849 -0.188513 0.427036
0.0391542 0.190388 0.34546
-0.00711448 0.416919 0.298946
0.0119296 0.42859 0.0901313
-0.00111433 -0.225116 0.348581
0.0260482 0.0722616 0.206206
0.0108756 0.327239 0.00719269
-0.0229222 0.153055 0.290696
-0.0110183 -0.227423 0.35418
-0.000497839 -0.0898648 0.293645
-0.0227938 0.170547 0.335841
0.0634283 -0.309376 0.17612
0.0183154 -0.21327 0.359786
0.100255 0.112992 0.264317
-0.0106322 0.0901008 0.326581
0.027765 0.134393 0.369927
-0.00505103 0.0995761 0.390717
-0.0189824 0.0597397 0.200778
0.0126043 0.202919 0.0492959
0.0101545 -0.127713 0.330995
-0.0086611 -0.420806 0.0508009
0.0398884 0.186196 0.332905
-0.0111468 0.140199 0.344608
0.0758827 -0.270616 0.222996
-0.0121218 0.0418507 0.218907
0.0135665 0.383271 0.0405707
0.017273 -0.204579 0.0615075
-0.00577954 -0.211394 0.416336
0.012738 0.367972 0.0214458
-0.0117132 0.182885 0.0725656
-0.0152216 -0.26549 0.318209
0.0260482 0.0831719 0.208078
0.0386546 0.119237 0.261872
0.052723 0.161955 0.258299
0.0174703 0.143246 0.303699
0.00933354 -0.225403 0.469266
0.0260482 0.0829711 0.222635
-0.0518662 -0.250863 0.259495
0.0450703 0.267813 0.189929
0.0388672 0.11783 0.245921
0.0283994 0.131459 0.254204
-0.0155445 -0.434198 0.0894654
0.0908217 -0.182252 0.545435
-0.0119517 -0.328528 0.338204
-0.0124207 0.354501 0.318528
0.0143519 -0.285755 0.336624
-0.0365163 0.238879 0.218718
-0.120281 -0.0139283 0.132207
0.0111218 -0.233425 0.288783
0.0402597 0.163735 0.358525
0.00646857 0.037039 0.229082
-0.00755801 0.175499 0.191286
0.00737367 -0.102871 0.307022
0.00584683 0.0200449 0.241451
-0.000643709 -0.396179 0.32071
-0.00911948 -0.109416 0.311799
-0.00222526 -0.183074 0.288221
-0.0124768 0.463115 0.170303
0.0375003 0.0762108 0.222319
0.00936758 0.0137831 0.232271
-0.0311324 0.190277 0.345058
