-0.0174995 0.125187 0.455188
0.0298354 0.0382662 0.196339
-0.0289735 -0.383631 0.0187546
-0.0147403 0.0727027 0.264095
-0.0266179 0.340033 0.311768
-0.0223422 -0.154355 0.196548
-0.0177175 -0.21617 0.0617674
-0.032531 0.0574961 0.227471
-0.021408 0.424608 0.0664784
-0.0358622 0.0877165 0.330926
0.0789361 -0.288016 0.474324
-0.0314657 -0.190694 0.0825905
-0.0748848 0.317218 0.17526
-0.0275186 -0.266556 0.452167
-0.0223028 0.239792 0.289991
-0.0504881 -0.297025 0.221358
-0.0222367 -0.0418117 0.220418
-0.0301532 -0.391942 0.304991
0.0693608 0.0233216 0.203079
0.0292712 0.0675945 0.151453
-0.0194849 0.296614 0.168549
-0.0225526 0.391352 0.18545
-0.0186827 -0.483641 0.166062
-0.0190133 -0.175307 0.379097
0.0110221 -0.266226 0.360278
-0.0312507 -0.380703 0.311775
-0.0284471 0.173403 0.333457
-0.025953 -0.187951 0.399118
-0.000119139 0.053667 0.17036
-0.0233641 -0.313766 0.308605
-0.0295432 0.103898 0.414828
-0.0279045 0.414236 0.151646
-0.123771 0.0419247 0.101212
-0.0302544 -0.183837 0.0780187
-0.0220906 0.27618 0.327658
0.0736743 -0.293696 0.477499
-0.0524383 0.224957 0.278163
-0.037475 -0.0957076 0.415813
-0.0198827 0.168379 0.117609
0.0159085 0.286299 0.213751
-0.0519027 0.214378 0.161896
-0.0589892 0.283038 0.209694
-0.0298881 -0.306822 0.333758
-0.0167594 0.262826 0.0187048
0.00430465 0.0392831 0.193395
-0.0202446 0.177015 0.112695
-0.0247475 -0.158637 0.3987
-0.0343809 0.0114403 0.191975
-0.0192439 0.301599 0.315393
-0.0234886 0.0757232 0.263074
-0.063311 0.303192 0.180929
-0.0726861 0.295383 0.174283
-0.0199679 -0.084115 0.394195
-0.0275189 0.37451 0.0883691
0.108276 0.00958391 0.258375
-0.0217694 0.418394 0.0441377
-0.0387637 0.0965936 0.171398
-0.0254251 0.417584 0.301479
0.0124317 0.324996 0.171701
-0.0519991 0.137794 0.353212
-0.0285712 0.332455 0.253051
-0.0532409 0.123663 0.167336
-0.0010414 0.229939 0.263762
-0.0185714 -0.392437 0.317909
-0.0150576 0.0746684 0.269078
-0.0191312 -0.210238 0.397855
-0.0184932 0.0226568 0.159832
0.0659773 0.0315421 0.19279
-0.0273198 0.433663 0.076726
-0.018231 -0.459437 0.0850824
-0.0661484 0.251013 0.161187
-0.0450687 0.025112 0.1754
-0.0239548 -0.459031 0.080104
0.0276137 0.0271679 0.233283
-0.0177175 -0.360813 0.314353
-0.0220322 -0.287668 0.478876
-0.0141518 -0.016647 0.198118
-0.0312426 0.176 0.117482
0.0196606 0.0447777 0.18927
-0.0245847 -0.291839 0.0143691
0.00715917 0.272849 0.21087
0.0241965 0.307219 0.176402
-0.022972 0.14331 0.327559
-0.0167515 0.171635 0.224702
-0.0316523 -0.471288 0.119799
-0.0559419 0.124275 0.363982
-0.0300367 0.0378805 0.197438
-0.00450827 0.0600182 0.175201
0.00654304 0.263497 0.209622
-0.0384807 -0.0836233 0.431016
0.0299649 0.0160993 0.228346
-0.0192439 0.333018 0.017722
0.00126067 0.164982 0.32782
-0.0170201 0.176128 0.101539
-0.0171001 -0.188088 0.323135
-0.0218201 0.174203 0.189526
-0.015461 -0.167295 0.212224
0.0273418 -0.00772171 0.206997
-0.0512572 0.136129 0.188497
-0.0214917 0.244765 0.0357744
-0.0317772 -0.350155 0.327492
-0.0316796 -0.462045 0.232483
-0.0327223 -0.291961 0.480876
-0.021238 -0.274592 0.0183422
-0.064374 0.290903 0.1817
-0.0352857 0.106384 0.373841
0.0713817 0.0273753 0.220551
-0.142974 0.0166338 0.0925091
-0.0718936 0.31462 0.16399
-0.0301751 -0.247868 0.305955
-0.013209 -0.120445 0.291652
-0.0169689 -0.149424 0.38948
-0.0285377 0.0461068 0.188542
-0.127495 -0.292454 0.482825
0.126615 0.0172478 0.259545
-0.0155039 -0.467685 0.220146
0.00770443 0.149732 0.214434
-0.0498375 0.0885149 0.167192
0.0645109 0.0316331 0.195588
-0.0495409 0.150681 0.321027
-0.0058615 -0.0747113 0.413399
-0.0158586 -0.323741 0.325866
-0.0524877 -0.0155206 0.428418
-0.105191 0.0450569 0.0990261
0.0194438 0.0159866 0.197221
-0.019217 -0.476106 0.18739
-0.031312 -0.393 0.0264367
-0.0160545 -0.359481 0.31983
0.015382 0.193954 0.181367
0.00235213 -0.287389 0.249153
-0.0264798 0.126501 0.410871
-0.0297163 -0.301419 0.0166634
-0.0356784 0.128231 0.441961
-0.0297163 -0.175147 0.225343
-0.0191446 -0.224873 0.297774
-0.015152 -0.0270425 0.233234
0.0169841 0.223423 0.16167
-0.0402683 0.04365 0.166752
-0.0267345 0.175777 0.121367
0.00568526 0.257256 0.213204
-0.0264295 0.115862 0.352673
-0.0155813 -0.28925 0.477514
0.0123601 -0.264937 0.349081
-0.011136 0.0326455 0.190728
-0.0264229 0.102155 0.412087
-0.0345149 0.026021 0.184411
-0.0247765 0.43765 0.093578
-0.0202028 -0.15824 0.376758
0.0151764 0.163762 0.503786
-0.0172684 0.168692 0.210732
-0.0192609 0.311921 0.137177
-0.015424 0.151277 0.515874
-0.0317227 -0.397322 0.305369
-0.0319995 -0.164215 0.131391
0.0224896 0.00725758 0.186719
-0.0345356 0.0582025 0.257789
-0.00565024 -0.0679601 0.413122
0.0174099 0.271334 0.202157
-0.000239162 0.0774771 0.190526
-0.029798 -0.0664606 0.389281
-0.0224615 0.0557842 0.205119
-0.0235727 0.204124 0.140076
-0.0172267 -0.0927123 0.280521
-0.0582112 -0.302706 0.222042
-0.0548903 -0.276436 0.341951
-0.0312426 0.283248 0.0238102
0.0300213 0.0178751 0.128419
-0.0204589 -0.335169 0.0251977
0.0224206 0.0590921 0.127512
-0.0365012 0.069821 0.186692
-0.0242529 0.236574 0.041506
0.0122538 0.142596 0.215515
0.0225059 0.0639088 0.131236
0.00877635 -0.27773 0.364357
-0.0207804 0.334972 0.106403
-0.0656949 0.26162 0.209863
-0.0297163 -0.441864 0.0819522
-0.0239186 0.328927 0.312861
-0.0187773 -0.260825 0.317642
-0.0192439 0.268716 0.0189176
0.00192676 0.244434 0.24399
-0.0747743 0.328289 0.175007
-0.0326755 0.234633 0.0277942
-0.0334332 0.171029 0.106211
-0.0757597 0.322238 0.168925
0.0273418 0.0360266 0.185369
0.00744955 0.19407 0.280971
-0.0280097 -0.350903 0.317923
-0.0541207 0.242402 0.227278
-0.0186659 -0.448971 0.0800357
-0.0229582 -0.0134207 0.393693
-0.00320875 0.168794 0.313679
-0.0256784 0.164121 0.499682
-0.0749428 0.326283 0.159277
-0.0375233 0.114783 0.351789
0.0292712 0.0630869 0.197167
-0.0297163 -0.448846 0.246676
0.0273418 0.0160034 0.159052
-0.0459753 0.113831 0.373428
-0.00885289 0.192407 0.302833
-0.0579627 0.276569 0.224855
-0.0635968 0.23285 0.173073
0.0292712 0.0434491 0.172091
-0.0531703 0.0304408 0.187417
-0.0255476 0.361897 0.00593406
0.0107387 0.290412 0.210157
-0.0162239 0.316589 0.187785
-0.0215891 0.427466 0.0627605
-0.0663151 0.271478 0.181048
-0.0282545 -0.224705 0.0427756
-0.0237376 -0.326141 0.316221
-0.039029 0.182664 0.320567
-0.0170693 -0.480861 0.190738
-0.0198218 0.275701 0.17777
-0.0781529 0.295787 0.195907
0.0459945 0.0453624 0.18618
-0.0310174 0.389462 0.315499
0.0292712 0.052304 0.139703
-0.0320699 -0.159791 0.176594
-0.0719716 0.314188 0.165321
-0.016917 -0.347816 0.0196397
0.0143749 0.321775 0.163591
-0.0312344 -0.342406 0.330825
-0.0248763 -0.286859 0.48015
0.0102549 0.298345 0.195588
0.0475219 0.00827261 0.166523
-0.0199872 -0.178408 0.313416
-0.0189921 0.297596 0.181649
0.0115671 0.196225 0.287829
-0.0197807 -0.206959 0.378769
-0.016712 0.411088 0.29583
-0.0171357 0.325984 0.146747
-0.0227928 0.450877 0.26807
0.0822739 -0.281109 0.485605
-0.0284983 0.0455564 0.243652
0.0117296 0.237059 0.234568
0.147898 0.0106027 0.258451
0.0292712 0.00942133 0.16719
-0.0278477 0.0710547 0.252675
-0.0170637 0.21196 0.0522839
-0.0297273 0.329145 0.236466
0.0199364 0.324182 0.164291
0.00918339 -0.290843 0.25941
-0.0312426 0.237409 0.289656
-0.0265854 0.211784 0.215609
-0.0265517 0.273586 0.285328
-0.0277026 0.158949 0.345654
0.0047741 0.206252 0.265569
-0.0192439 0.330049 0.016936
0.0192549 0.261249 0.181151
0.0117135 -0.27349 0.337969
-0.0217745 0.397281 0.290511
-0.0271947 -0.466708 0.113391
0.0233059 0.072791 0.128853
-0.0288323 0.347754 0.0940396
-0.0192439 0.470786 0.1982
0.0273418 0.0610969 0.188355
-0.0318786 0.0555475 0.264351
-0.0197416 0.227486 0.0378003
-0.0493573 0.177414 0.327002
0.0107466 -0.314297 0.191603
-0.0177175 -0.450226 0.0969933
-0.0322336 -0.219255 0.0475089
-0.0570982 -0.309797 0.180092
-0.0510674 0.074021 0.168936
-0.0297163 -0.288004 0.0260518
-0.061492 0.227493 0.162332
-0.0267965 0.229413 0.239318
-0.012391 0.0489462 0.200151
-0.0293084 -0.155534 0.150418
-0.0256917 0.233165 0.0619276
-0.0119455 0.099793 0.365208
-0.0272706 -0.275262 0.470374
0.00460062 0.253487 0.222017
0.0938883 -0.282821 0.484456
-0.0167963 0.330241 0.00959277
-0.0297163 -0.279519 0.0185462
-0.0260321 0.000689685 0.370089
-0.0546587 0.0332071 0.183176
-0.0188844 -0.383722 0.0334019
-0.0297163 -0.215512 0.0563199
0.0109617 0.311016 0.169684
-0.027031 -0.2679 0.388844
-0.0293008 -0.298343 0.197694
-0.0192439 0.311817 0.313987
-0.0529779 0.0190656 0.167108
-0.0769415 0.0172115 0.0907974
-0.0176196 0.156697 0.172474
-0.0338673 0.115443 0.497642
-0.0255389 -0.17285 0.177201
-0.0230999 0.256268 0.0349047
-0.0168584 0.202583 0.0581159
-0.025036 -0.451861 0.110236
0.064235 0.0224021 0.21084
-0.0591079 0.280095 0.162123
-0.0178205 0.423345 0.053745
-0.032964 0.369984 0.0205735
-0.0112331 0.0652888 0.278576
-0.03752 0.0744007 0.186938
-0.0253786 -0.231613 0.0989581
-0.0192439 0.379214 0.309817
-0.0248558 0.190626 0.137148
0.00519037 0.186451 0.288014
-0.0219647 0.456679 0.106099
0.0235894 0.306095 0.168489
-0.0236061 0.339703 0.332251
-0.0360817 0.136351 0.468118
-0.0485884 0.213939 0.258793
-0.0173798 0.0174985 0.379667
-0.0297163 -0.238591 0.2997
-0.0347435 0.0557132 0.187107
-0.0394996 -0.289705 0.477657
0.0116863 -0.274835 0.324995
-0.0742989 0.255336 0.23232
0.0273418 0.0147245 0.220658
0.0356545 0.0284429 0.17513
-0.0216036 0.114747 0.361146
0.0645624 0.031689 0.196646
0.0164787 0.168245 0.168265
-0.0306607 0.417298 0.051377
0.00993754 0.0360401 0.197905
-0.00658107 0.115199 0.374071
-0.0271916 0.166532 0.499783
0.00760984 -0.276318 0.340805
-0.00233254 0.324353 0.165239
-0.0223463 0.0448632 0.19045
-0.0478631 0.00797646 0.175266
0.0118125 0.241882 0.231864
-0.0785871 0.0330237 0.101165
0.0297835 0.0316201 0.128948
-0.0313308 -0.276239 0.326606
-0.0297163 -0.170427 0.153054
0.0176891 0.111288 0.173008
-0.0645219 0.268432 0.200222
-0.025977 0.163938 0.51754
-0.0312426 0.186166 0.238019
-0.0389487 0.190905 0.500804
-0.0601286 -0.26684 0.356692
-0.0312426 0.174162 0.133391
0.0636954 0.0319559 0.207645
-0.0177175 -0.429432 0.0732366
-0.0265159 0.325891 0.00075473
-0.0169513 0.425299 0.282739
-0.033275 0.124925 0.453147
0.0173555 0.150977 0.170341
0.00355703 0.0652368 0.191947
-0.0310238 0.414564 0.28587
-0.0195504 0.444397 0.253376
-0.0258438 0.399309 0.265683
-0.0243924 -0.198977 0.215416
-0.0236148 0.454744 0.103044
0.0868837 -0.277858 0.485106
-0.0160915 0.308839 0.173046
-0.0577811 0.268571 0.166555
0.0267585 0.293487 0.187079
-0.0191819 0.459369 0.226568
-0.00616793 0.238409 0.140632
-0.0255483 0.271523 0.292801
-0.0447586 -0.0460044 0.431916
0.0189354 0.0993952 0.179416
-0.0247393 0.459663 0.0775527
-0.133841 -0.28159 0.486927
-0.0349909 0.0767828 0.179198
-0.0192439 0.477063 0.165422
-0.0338575 0.12361 0.448695
-0.0195576 -0.265523 0.380863
-0.017737 0.314772 0.145604
-0.0537717 0.243632 0.230291
0.00119566 0.126534 0.352063
-0.0486966 0.151424 0.515892
-0.030024 -0.111392 0.381205
-0.026205 -0.460046 0.118134
-0.0295493 0.153353 0.156166
-0.0180199 0.32957 0.160084
0.0179077 0.0950663 0.174325
-0.0334658 0.28136 0.3198
0.0282458 0.0189544 0.230869
-0.0241179 0.0167113 0.392775
0.0105166 0.163363 0.517466
-0.0529779 0.0315825 0.188388
-0.0237619 0.18776 0.240443
-0.0170939 0.218367 0.0464388
0.0115559 -0.294351 0.214111
-0.0274455 0.277819 0.0786175
-0.0480071 0.154252 0.330223
-0.0508418 0.0233437 0.158072
0.015358 0.246253 0.160509
0.0277452 0.00609371 0.13289
-0.0297163 -0.464671 0.159557
-0.00996129 -0.106336 0.419412
-0.0208384 0.424434 0.294976
0.026593 0.0102432 0.131576
-0.0275044 0.0909109 0.170503
-0.0205035 -0.164322 0.376628
0.0103291 -0.275469 0.264894
-0.0192439 0.416349 0.0551983
0.00111169 0.135475 0.370611
-0.0652874 0.282303 0.178843
-0.0278979 -0.234875 0.0505122
-0.0192439 0.333759 0.0208983
-0.0153785 -0.355121 0.3256
-0.0319963 -0.321391 0.167047
-0.0569041 0.206007 0.264677
-0.0103072 0.181205 0.321354
-0.055526 -0.270067 0.36038
-0.0228363 0.288983 0.0666031
-0.0150653 0.139389 0.489452
-0.0207301 -0.259306 0.451949
-0.0227683 -0.0187397 0.207335
-0.0192439 0.470685 0.162075
0.07681 0.0458297 0.268722
-0.0192439 0.189963 0.250664
-0.0184696 -0.184166 0.318358
-0.0297163 -0.46257 0.201436
0.00304159 -0.302137 0.215962
-0.0508701 -0.291067 0.24463
-0.00714521 0.178508 0.32866
-0.0297163 -0.166284 0.157116
0.0171372 0.233041 0.160333
-0.0967189 -0.29836 0.478394
0.00833802 0.185036 0.185609
-0.0164931 -0.207394 0.289028
-0.0267964 -0.321262 0.172715
0.0300202 -0.0108366 0.214205
-0.0319103 -0.289579 0.324602
-0.00138361 0.230179 0.267436
-0.0177175 -0.449397 0.0922891
0.0918564 -0.287426 0.479296
-0.0192439 0.472886 0.200534
-0.0155645 0.115899 0.426707
0.0172329 0.233008 0.26034
-0.0337122 0.305181 0.00902981
-0.0278208 0.0325424 0.180204
-0.0287839 0.0424024 0.388458
-0.000183836 0.170078 0.309961
0.00361362 0.259505 0.236617
-0.00732965 0.164732 0.517646
-0.0568526 -0.290175 0.262954
-0.0275893 0.362581 0.00671341
-0.0297163 -0.166603 0.149674
0.0292712 0.0166136 0.216287
-0.0318713 0.127916 0.462552
0.00997525 0.207278 0.267081
-0.0223827 0.458027 0.122536
-0.0190557 0.280558 0.00783167
-0.0308076 0.138015 0.325817
-0.0193205 -0.206077 0.398007
-0.0142755 0.155242 0.516396
0.00371553 0.175546 0.137789
-0.0194651 0.393648 0.0342891
-0.0325602 0.313466 0.15823
-0.0319645 0.0777374 0.281226
-0.0298847 0.133832 0.44749
-0.0241667 0.381027 0.312778
-0.0246516 -0.387345 0.299596
-0.0444027 0.14744 0.174053
-0.0341962 0.064377 0.280317
-0.0273053 0.15349 0.516165
-0.0437608 0.155235 0.516394
-0.00352793 0.0239591 0.159555
-0.0336649 0.161537 0.151161
-0.0192439 0.238707 0.298946
-0.0319074 0.328194 0.14835
-0.0134419 0.115691 0.401075
-0.0269886 -0.342441 0.0213657
-0.0283267 -0.173596 0.187724
-0.0330942 0.403606 0.0366628
-0.0518628 -0.0156891 0.427817
-0.0152746 -0.277483 0.0169645
-0.022451 -0.381637 0.3156
0.0684049 0.0327542 0.260044
-0.00534134 0.175863 0.310079
-0.0314021 -0.182693 0.0828194
-0.0296263 -0.20397 0.27968
-0.0629871 0.0212214 0.126447
-0.0281846 -0.283268 0.216097
-0.0250651 -0.249322 0.392566
-0.0219071 0.31957 0.00878097
-0.023192 0.377582 0.10626
-0.0194984 0.0729766 0.325711
-0.0345584 0.0644505 0.277623
-0.0356901 0.139408 0.374363
-0.0232611 0.348194 0.266014
-0.0177175 -0.43728 0.266294
-0.028116 -0.288358 0.318258
-0.0177175 -0.168704 0.189811
-0.0188015 0.165881 0.225194
-0.0192439 0.183471 0.226632
-0.0221079 -0.435072 0.204852
-0.0310798 0.478682 0.205338
-0.0184967 0.217373 0.29507
-0.0191904 0.450853 0.26454
-0.0174016 0.168622 0.225252
-0.0314949 -0.470962 0.223625
-0.0237712 0.387607 0.319033
-0.0188912 0.181276 0.320889
-0.0192439 0.304548 0.324415
-0.0234781 -0.0230011 0.213676
-0.0221003 0.301815 0.0175076
-0.025666 0.299653 0.0222333
-0.0371296 0.202761 0.303414
-0.0229378 -0.245799 0.287441
-0.0203255 -0.363864 0.309272
-0.0159596 0.0318952 0.203558
0.0104642 0.190477 0.185638
-0.0180743 0.184767 0.317284
-0.00526991 0.154763 0.182551
-0.126875 0.00394478 0.0937953
-0.0312426 0.412627 0.048313
-0.056843 0.200483 0.163999
-0.0624807 -0.292892 0.486298
-0.0464835 0.0344593 0.160327
0.026593 -0.00424221 0.144333
0.00512498 0.0231227 0.199858
-0.01952 -0.280162 0.190499
-0.123056 -0.284895 0.478519
-0.0212624 -0.343023 0.26867
-0.0183615 -0.27001 0.383758
-0.0237045 -0.0516564 0.231293
-0.0332464 0.0750073 0.278606
0.147158 0.0354143 0.258419
-0.0119614 0.100639 0.368159
-0.132146 -0.27563 0.481611
-0.0187173 0.243935 0.312653
-0.0262893 -0.434355 0.289963
-0.000806566 0.0150492 0.196235
0.150509 0.0206645 0.268678
0.0273418 0.020713 0.18062
-0.0233264 -0.0526967 0.245284
-0.0299172 -0.284282 0.0100355
-0.0312426 0.27614 0.0211385
-0.00448292 0.214566 0.28952
0.0322935 -0.291111 0.48705
-0.0292066 0.210285 0.0690589
0.0188946 0.0765046 0.181268
-0.00665016 0.141314 0.51326
-0.0180388 0.475357 0.121933
-0.0233804 -0.176231 0.339953
0.0297527 -0.287181 0.483166
-0.0288382 0.221522 0.0517515
-0.0192439 0.181523 0.105184
0.00912403 0.166955 0.499802
-0.0152947 -0.440878 0.0687962
-0.0437634 0.0514484 0.192217
-0.0278324 -0.266312 0.444591
-0.02036 0.234562 0.0249109
-0.0297163 -0.280542 0.322169
-0.0641032 0.0220805 0.152895
-0.0316248 0.0597324 0.277721
-0.0295072 0.0718341 0.319905
0.0187432 0.230001 0.170784
-0.0279726 -0.207285 0.353929
0.0796514 -0.291014 0.478046
-0.0239909 -0.233571 0.0512947
-0.0226352 -0.34893 0.334157
-0.0314481 -0.317756 0.179873
-0.0177175 -0.47159 0.149804
-0.0297163 -0.473947 0.160288
-0.0264934 -0.374284 0.013768
-0.0574196 0.270607 0.215389
-0.0288364 -0.265298 0.413521
-0.0179345 0.0773028 0.336041
-0.0174017 -0.0662483 0.387307
-0.0280633 -0.47512 0.145852
-0.0289833 0.152615 0.310543
-0.0314436 -0.378619 0.0203959
-0.112614 -0.294927 0.474809
0.0233637 0.322161 0.164803
-0.0270402 0.00331628 0.370639
-0.00336233 0.173049 0.165161
-0.0661341 0.316456 0.167921
-0.0617702 0.261065 0.178572
-0.0251649 -0.259008 0.454706
0.00761871 0.279274 0.161865
-0.0415749 -0.0677191 0.433747
-0.0175545 0.468124 0.125235
-0.0816854 0.00439752 0.0919499
-0.0535355 0.0492795 0.174747
0.0292712 -0.017615 0.163372
0.0217099 0.317575 0.167574
-0.0158662 -0.163765 0.213885
-0.0192439 0.303964 0.0142205
0.00863734 0.21015 0.161242
-0.0128918 -0.267992 0.360387
-0.0322528 -0.161534 0.150577
-0.00535952 0.0431056 0.182822
-0.0490267 0.171386 0.185575
-0.0299585 -0.242415 0.39237
-0.0299246 0.0522408 0.385769
-0.0316557 -0.260874 0.0202144
-0.0230065 -0.433293 0.0736358
-0.0223652 -0.231366 0.252466
0.0128597 0.0691891 0.190573
0.00453643 0.177354 0.519308
-0.0182331 -0.275209 0.392502
-0.0176009 -0.00351551 0.385114
-0.0179305 -0.458515 0.213609
-0.0318024 0.254404 0.317362
-0.0312426 0.36791 0.314977
-0.0297163 -0.398451 0.30687
-0.0212353 0.184429 0.310386
-0.0203607 0.193518 0.274904
0.0875502 -0.276007 0.484298
-0.0266486 -0.334569 0.320246
-0.026761 -0.199986 0.352312
-0.0192439 0.174307 0.200568
-0.0384884 0.178941 0.33164
-0.0334783 0.0460365 0.170683
-0.0213533 0.0766912 0.389596
0.0144495 0.271174 0.181507
-0.0169331 0.22483 0.0385077
-0.0303838 0.365511 0.16123
-0.0215799 -0.235172 0.305124
-0.0286749 -0.275284 0.187987
-0.0190393 -0.321564 0.112345
-0.0681356 0.303264 0.179577
-0.0161542 -0.206629 0.277016
-0.0314306 -0.457173 0.0871673
-0.0286354 0.148336 0.345772
-0.019054 -0.32017 0.321595
-0.0544435 0.160611 0.165333
-0.0517688 0.153589 0.338998
-0.0225767 0.407108 0.0264263
0.0487272 0.0460098 0.189398
0.00197287 0.223067 0.280591
0.0108997 -0.279733 0.300027
-0.0331602 0.428468 0.284536
-0.0208489 -0.178227 0.243677
-0.0297163 -0.436291 0.0730867
0.00401216 -0.281102 0.247612
-0.0234187 0.120591 0.37277
-0.00191458 0.187039 0.163268
-0.0313786 0.250746 0.0303185
-0.0219038 0.280721 0.106544
-0.0196672 -0.175646 0.140919
-0.0632288 0.030094 0.18222
-0.0137892 0.140087 0.488134
-0.0297163 -0.446383 0.0860534
-0.0160038 -0.311884 0.171615
-0.0277847 -0.239403 0.381166
-0.0280526 -0.191534 0.336473
0.0929972 -0.282069 0.476367
-0.0293321 0.176421 0.252427
-0.0284106 0.26193 0.0324428
-0.0256463 0.450576 0.064822
-0.0250178 0.0476639 0.183731
-0.0717164 0.31025 0.15857
-0.0794926 0.0267676 0.0985138
-0.0258479 0.0452208 0.169294
-0.0175302 0.324585 0.164151
-0.015516 -0.187572 0.261704
-0.017584 0.46624 0.100081
-0.0178235 -0.168708 0.197433
-0.0209094 0.210894 0.272687
0.0298585 -0.0215265 0.196829
-0.0302989 0.272361 0.203733
-0.13315 -0.277896 0.48501
-0.0231726 0.336751 0.0177921
0.0151291 0.267568 0.181688
-0.0150799 -0.274728 0.367388
-0.0608 0.248094 0.161536
-0.00991549 -0.00374687 0.197723
-0.0189519 -0.287725 0.487015
-0.0256413 0.337395 0.00119569
-0.033576 0.193529 0.0716119
-0.021615 -0.331922 0.0125997
-0.0226025 0.474666 0.194347
-0.0160535 -0.183128 0.258357
-0.0297163 -0.362401 0.319344
0.0294855 -0.000148459 0.134861
0.00882157 0.282656 0.157127
-0.0192439 0.286571 0.0242752
0.0180644 0.218874 0.183249
-0.0204691 0.407757 0.289508
-0.0360668 0.0775113 0.172904
-0.00699423 0.0473983 0.18224
-0.0208318 0.43935 0.25814
-0.0589889 0.235924 0.233317
0.017509 0.304154 0.156218
-0.0728793 0.0140279 0.0918437
-0.0312426 0.323195 0.0106482
-0.118291 -0.28686 0.480186
-0.0572065 -0.313863 0.168143
-0.148088 0.00553494 0.0949339
-0.030334 0.442373 0.276385
-0.0296362 -0.46346 0.218729
-0.0500026 0.177206 0.519287
-0.0297163 -0.220936 0.059159
0.0273418 0.0742884 0.193551
-0.0178852 -0.2907 0.478596
-0.0303513 0.469693 0.118842
-0.0531943 0.237065 0.232718
-0.0177175 -0.273249 0.316631
-0.0333463 0.35704 0.0151547
-0.0177175 -0.397967 0.302068
-0.0264523 -0.298717 0.335273
-0.0354467 -0.282892 0.479212
0.00520392 -0.322982 0.174657
-0.0577751 -0.32174 0.172022
-0.0286264 0.250529 0.199216
-0.0277308 -0.385712 0.164507
-0.0258061 -0.274083 0.413576
-0.0442749 0.0140756 0.164731
-0.00509262 0.0972094 0.182194
0.0169052 0.105113 0.184417
-0.101211 -0.292324 0.478971
-0.0312426 0.390902 0.302994
-0.0211723 -0.0550631 0.394389
-0.0132935 0.0921011 0.363272
-0.0122473 -0.259144 0.360018
-0.0448148 0.0460541 0.168858
-0.0259755 0.477199 0.161154
-0.0178059 0.299042 0.00576493
-0.0177175 -0.217376 0.0594717
-0.0580979 -0.317938 0.174855
-0.0175039 0.319314 0.18754
0.0978486 -0.272357 0.48279
-0.0234492 0.344164 0.0596986
0.00777917 0.24908 0.15891
-0.0160171 -0.266551 0.323269
-0.0257126 -0.160982 0.324399
-0.0325105 0.200874 0.279273
-0.0289916 -0.384803 0.307102
-0.0192439 0.302709 0.0146902
-0.0715229 0.316082 0.162684
-0.0312202 -0.465723 0.101571
-0.0256762 0.095251 0.389841
-0.0161084 0.113057 0.497543
-0.0271676 0.366534 0.0289822
0.00490618 -0.318318 0.165275
-0.0177175 -0.278885 0.0243698
-0.00604284 0.128106 0.374181
-0.0193803 -0.395228 0.300474
-0.0265764 0.119019 0.51163
-0.027169 0.0446177 0.168264
-0.0289256 -0.272145 0.36728
-0.0553818 -0.307613 0.176077
-0.0580201 0.168882 0.163937
-0.0319587 0.171379 0.338207
0.086429 -0.284304 0.486739
-0.0256863 0.42949 0.0661813
-0.0117686 -0.0858736 0.258669
-0.0167845 0.104445 0.409628
-0.0347883 0.139164 0.374916
0.0957351 0.0477777 0.268724
-0.0555531 0.170223 0.185356
0.0166012 0.0209444 0.199363
-0.0297825 -0.290961 0.320576
-0.0151559 -0.287556 0.0150407
-0.0619743 0.288027 0.213687
-0.0450279 -0.0446953 0.419931
0.0611341 0.0282085 0.178282
-0.0514722 -0.268883 0.36034
0.088903 -0.285838 0.47539
-0.00210735 0.226001 0.271936
-0.0202883 0.429596 0.0445975
-0.125908 0.0450482 0.100704
-0.00563539 0.115227 0.168782
-0.0141929 0.0800951 0.333693
-0.016826 -0.472284 0.170287
-0.0188058 -0.364531 0.328941
0.00579049 -0.317906 0.169491
-0.0165853 0.108298 0.36592
-0.0557648 0.14862 0.187476
-0.0177175 -0.471726 0.157431
-0.0177175 -0.342448 0.0154684
-0.0285225 -0.440557 0.0692771
-0.0107009 -0.110011 0.418626
-0.0299178 0.380438 0.191674
-0.0170588 -0.169032 0.204089
-0.00957188 0.173477 0.313277
-0.0318575 0.166798 0.187027
-0.0227438 -0.328241 0.320064
-0.0192439 0.323528 0.324332
-0.0202436 -0.194191 0.25527
-0.0144379 0.0596668 0.277678
-0.011979 0.274816 0.195956
-0.0312426 0.399568 0.290179
-0.0266338 -0.338783 0.319546
-0.00723306 0.0985565 0.168591
-0.0333748 0.116682 0.348067
-0.00733729 0.267777 0.143259
-0.0194845 0.183349 0.520096
0.0273418 0.0664582 0.158712
0.0236057 0.30538 0.161482
0.0138345 0.265841 0.20754
-0.0391112 0.132227 0.513365
-0.0312426 0.288961 0.0148524
-0.0286458 0.388737 0.300474
-0.0697976 0.308273 0.179285
-0.0514056 0.176263 0.163302
-0.0638737 0.278697 0.180497
-0.00608584 0.150467 0.17671
-0.0310526 0.228629 0.290259
-0.0197631 0.276358 0.177708
-0.112718 0.00484294 0.0907329
-0.0299165 0.071176 0.385278
-0.0161499 -0.348949 0.321965
-0.0210907 -0.160267 0.166395
-0.01223 0.178368 0.519441
-0.0507302 -0.25727 0.361938
-0.0269283 -0.160282 0.164606
0.14001 0.0323382 0.261397
-0.0578039 0.229263 0.160833
-0.00562901 0.188208 0.500692
-0.00558958 0.15158 0.173579
-0.0312426 0.231593 0.297689
-0.0529779 0.0269597 0.182364
0.0793515 0.0407036 0.268713
-0.0171154 -0.167032 0.331945
-0.0619911 0.198862 0.174935
-0.01999 -0.27007 0.380707
-0.0312426 0.350482 0.0174559
0.017183 0.175363 0.508826
0.0190444 0.0305381 0.159606
-0.0302132 0.17296 0.156922
0.0183887 0.283885 0.180477
-0.0177175 -0.352832 0.31373
-0.0299658 -0.338486 0.321957
0.0234962 0.317713 0.175059
-0.0563482 0.145545 0.186665
-0.0605132 0.258144 0.210563
-0.0529779 0.0303092 0.179687
-0.0346058 0.1821 0.321693
0.0913343 -0.284717 0.479241
-0.0212327 0.257102 0.205839
-0.0225911 0.224024 0.0499493
0.00592237 0.261622 0.240165
-0.0505259 -0.28139 0.276402
-0.0516408 0.136026 0.370021
-0.0584495 0.228757 0.273148
-0.0224672 -0.178286 0.342002
-0.0236656 -0.311689 0.0122148
-0.0185657 -0.244018 0.0232441
-0.0506095 0.130609 0.346132
0.00247953 0.0389794 0.163253
-0.0319614 -0.171209 0.109587
-0.0286769 -0.458594 0.111835
-0.0297163 -0.192507 0.0777737
-0.0312426 0.194289 0.255023
0.011606 0.271877 0.229431
0.00298412 0.0773938 0.190966
-0.0058887 0.127516 0.178299
0.0044837 0.124872 0.36926
-0.0546464 0.189666 0.162527
0.0105877 -0.312445 0.196298
-0.0160915 0.307926 0.170256
-0.0170816 0.303442 0.0111152
0.0488641 0.0443362 0.187635
-0.0285783 -0.464497 0.23241
0.0880831 -0.284634 0.489395
0.00871037 0.262382 0.207484
-0.0297258 -0.314531 0.20337
-0.0316552 -0.347272 0.0120507
-0.0140522 0.170899 0.518458
-0.121274 -0.286371 0.475453
-0.0192943 0.102842 0.410856
-0.0335779 0.25946 0.0193758
0.00379222 0.120695 0.362376
-0.0693276 0.264457 0.235134
-0.0356321 0.181703 0.307726
-0.0290489 0.106956 0.424369
-0.0312426 0.452357 0.093289
-0.0161966 0.00792725 0.186292
0.0159586 0.303409 0.179835
-0.0232791 -0.00884745 0.206727
-0.0196232 -0.181058 0.26277
-0.0187719 0.295788 0.171248
-0.0318014 -0.412654 0.300363
-0.0216379 0.377758 0.305882
-0.0264299 -0.0915728 0.395657
-0.0312426 0.462316 0.117796
-0.0627688 0.277621 0.180467
-0.023251 0.412682 0.189706
-0.0217549 0.361906 0.1243
-0.0283854 0.371279 0.091858
-0.00793128 0.250366 0.139129
-0.00921977 0.175978 0.500179
-0.0167788 -0.395271 0.0263702
-0.022112 0.3604 0.0889811
-0.0171664 -0.482168 0.167396
-0.0373184 -0.257222 0.363119
-0.0117688 0.130712 0.511605
-0.0160651 -0.212777 0.292624
-0.0154148 0.342347 0.169709
-0.0235408 -0.2552 0.411561
-0.0214652 -0.126212 0.276511
-0.0204395 -0.06859 0.262818
-0.0561085 0.155477 0.505264
-0.029996 0.0301162 0.175259
-0.0208159 -0.182437 0.117899
0.0313749 0.0076046 0.187896
-0.0632631 0.303678 0.180925
-0.0177175 -0.393819 0.0335161
-0.018396 0.0837739 0.288962
-0.0467343 0.117283 0.351943
-0.0603475 -0.296774 0.21277
-0.0650995 0.22376 0.256406
0.0897261 -0.286216 0.480714
-0.021006 -0.338528 0.0211317
-0.0057601 0.11803 0.364348
-0.0478827 0.160235 0.33354
-0.0156143 0.0486386 0.249949
-0.0450101 0.044652 0.168964
0.0134879 0.0936793 0.169076
0.00785967 -0.32186 0.172755
0.0738754 0.0319666 0.261042
-0.0511591 0.0433343 0.195748
-0.027169 -0.461686 0.122651
-0.0164687 -0.261436 0.389541
-0.023682 0.183313 0.305176
-0.0485382 0.159321 0.328076
-0.120833 -0.289693 0.487285
-0.0717422 0.319048 0.179674
-0.015211 -0.220111 0.294065
-0.0178461 -0.18805 0.248811
-0.0441475 0.0882494 0.190356
-0.0227521 0.471856 0.231841
-0.027651 -0.162337 0.115276
-0.0368347 0.135135 0.513748
-0.0177175 -0.411228 0.28843
-0.0316475 0.371987 0.012325
0.00258019 -0.274234 0.307727
-0.0288401 0.116337 0.383337
-0.018034 -0.188197 0.0916225
-0.00519983 0.0991075 0.172423
0.0488641 0.025549 0.175821
-0.0155561 -0.412308 0.0445504
-0.0214159 -0.152808 0.181534
-0.0207255 -0.195816 0.0587051
-0.025933 0.152875 0.49921
-0.0304641 0.34517 0.33006
-0.0594854 -0.312732 0.193738
-0.0289189 -0.274745 0.164216
-0.026708 -0.315215 0.316579
-0.0573956 0.211057 0.290356
-0.0155807 -0.453738 0.090769
-0.0531376 0.0999091 0.188731
0.0100704 0.287548 0.180083
-0.0169133 -0.158055 0.325556
0.00594037 0.235946 0.182453
-0.0141685 0.103927 0.361003
-0.02366 0.463722 0.148962
-0.0273551 -0.263438 0.394105
-0.0210204 0.315017 0.0208577
-0.0192439 0.460181 0.124507
-0.0557899 -0.31116 0.169003
0.0152127 0.300937 0.199218
0.0171 0.262915 0.181709
-0.0285228 0.108504 0.508812
-0.0401714 0.114433 0.35438
-0.0192439 0.203718 0.0753773
0.0143969 0.120834 0.167014
0.00357213 -0.303612 0.18986
0.0161898 0.126933 0.184179
-0.0297163 -0.465678 0.126554
-0.0307606 0.0889282 0.382102
-0.0198669 0.0783472 0.341486
-0.0226016 0.43453 0.256253
-0.0241166 -0.394784 0.299463
-0.0297163 -0.313021 0.319321
-0.0298827 0.16049 0.174925
-0.0251766 0.426734 0.0786194
-0.0177175 -0.320426 0.015774
-0.0209327 0.371371 0.165039
-0.0177175 -0.45698 0.243708
-0.047228 0.217011 0.276307
-0.0238058 0.16852 0.172947
-0.0173248 0.213081 0.052569
0.0184432 0.233768 0.256717
0.0140632 0.231655 0.180507
-0.0335799 0.177162 0.239806
0.00955597 0.185548 0.185797
-0.0314678 -0.412824 0.29392
-0.0177175 -0.22388 0.291676
-0.0565106 0.155304 0.326661
-0.0218759 -0.219542 0.0365632
-0.0228642 0.348278 0.266527
-0.0456675 0.187942 0.520106
-0.0604186 0.167275 0.172934
0.0273522 0.044852 0.188618
-0.0235454 -0.410714 0.268136
0.0119524 0.284694 0.18048
0.0689633 -0.298552 0.478576
-0.0674917 0.0248015 0.0932658
-0.0300992 -0.227422 0.387993
0.017624 0.0194954 0.160542
-0.040025 0.0174277 0.162063
-0.0407313 0.0105241 0.168946
-0.0601914 -0.288831 0.251153
0.0133396 0.273774 0.199029
-0.0166745 0.430397 0.0547735
0.0157624 0.11561 0.220922
-0.0185912 0.222957 0.299775
-0.0253857 -0.354088 0.0244032
0.050726 0.0287703 0.184235
-0.0731679 0.27092 0.206766
-0.0261116 -0.117382 0.285047
-0.0177175 -0.420205 0.0590856
-0.0185815 -0.195901 0.0910386
-0.0295834 -0.459253 0.0855074
-0.0281976 0.115976 0.375055
-0.0160419 -0.368241 0.324206
-0.0288786 0.193754 0.0915497
-0.0275632 -0.432573 0.291367
-0.0251422 0.26575 0.0310059
-0.138302 -0.279537 0.486886
-0.0175826 0.336408 0.179435
-0.0297163 -0.304691 0.32605
0.00267179 -0.271754 0.326584
-0.0150362 -0.0906865 0.252364
-0.034289 0.180511 0.306562
-0.137213 -0.280784 0.476725
-0.0177175 -0.170473 0.176514
-0.0309229 -0.276314 0.318333
-0.0312426 0.465012 0.13751
0.0230805 0.0233955 0.175798
0.0803395 -0.276526 0.48007
0.0143244 0.0974146 0.187735
-0.0160915 0.320817 0.172082
-0.0358065 0.106603 0.40258
-0.0138175 0.0249719 0.184283
-0.0402635 0.139674 0.329771
-0.0193541 -0.320821 0.116986
-0.0177175 -0.271746 0.0270075
0.0144179 0.132743 0.187178
0.00302779 0.201898 0.13625
0.138661 0.0100314 0.26866
0.0175419 0.0948557 0.184112
-0.0171011 0.266309 0.0194477
-0.0337278 0.171582 0.107652
0.0953203 -0.278521 0.475178
-0.0249953 -0.138823 0.290576
0.00220603 0.206414 0.204718
-0.028344 -0.237537 0.0344659
-0.0406568 -0.317046 0.167477
-0.00282948 0.148691 0.499036
-0.0256924 -0.269065 0.432976
-0.0335858 0.433618 0.056978
-0.0312426 0.276236 0.0167275
-0.0271153 -0.176409 0.321411
-0.0317903 -0.46894 0.215031
-0.0300852 -0.339341 0.185507
0.0292712 -0.00473171 0.204731
-0.0237521 -0.462278 0.127752
-0.0295521 -0.00543663 0.388228
0.0292712 0.0629314 0.144993
-0.0355875 0.119279 0.375647
-0.0248507 -0.113269 0.288952
-0.0267624 -0.357751 0.0248781
-0.0527271 0.0117377 0.19461
-0.0408129 -0.316076 0.172096
-0.0343339 0.126836 0.512655
0.0292712 0.0670093 0.150516
-0.0223848 -0.189909 0.399831
-0.0326927 0.052104 0.250232
-0.0250306 -0.204662 0.1813
-0.0184657 0.247133 0.0315209
-0.0688477 0.317431 0.16968
-0.137976 -0.279851 0.474506
0.0447502 0.0139482 0.197907
-0.0182065 0.0236884 0.183068
-0.0628764 -0.321971 0.175967
-0.0245017 0.281978 0.329931
0.0213776 0.245251 0.237259
-0.027253 0.416233 0.275912
-0.0330277 0.321835 0.168666
-0.0313836 -0.260007 0.366771
-0.0241694 -0.235035 0.0360222
0.00540371 0.046757 0.174065
-0.0279283 -0.450219 0.0693191
-0.0589294 0.257879 0.211065
-0.0206381 0.260712 0.1693
-0.031619 -0.366474 0.0218574
-0.0192439 0.283309 0.311159
-0.00658107 0.11162 0.382525
-0.0432298 0.142207 0.177719
-0.142423 -0.270226 0.481707
-0.0608441 0.205224 0.162237
-0.0193822 0.166183 0.169106
-0.0203919 -0.351557 0.233023
-0.0311108 0.223358 0.277754
-0.0283025 0.331981 0.317051
-0.0170767 0.4109 0.0399371
-0.0311544 0.336551 0.330215
-0.0295597 0.416444 0.275714
-0.0274291 -0.169898 0.14512
-0.0791731 0.292245 0.19342
0.0276824 0.325175 0.168696
-0.029336 0.182081 0.29265
-0.0226225 0.263403 0.0318887
0.0172919 0.134962 0.182196
0.00580641 0.144797 0.339013
-0.0118382 0.05566 0.256886
0.0162484 0.0500002 0.174085
-0.0724137 0.313139 0.158424
-0.018561 0.301289 0.0148432
-0.0151468 0.0454729 0.170355
-0.0309046 0.475977 0.148731
-0.00635357 0.198711 0.298978
-0.0300853 -0.293948 0.332293
-0.0143626 -0.0216401 0.20164
-0.018084 -0.291841 0.483651
-0.0192439 0.394257 0.297565
-0.0300262 0.256504 0.161895
-0.0282666 -0.172618 0.379294
0.0136915 0.134025 0.134857
-0.0225157 0.463101 0.189385
-0.0351447 0.00905948 0.171494
-0.0462539 0.0267851 0.200054
-0.0215229 -0.321933 0.073721
-0.0187766 0.319585 0.190211
-0.017142 -0.0766657 0.382163
-0.0195487 -0.179978 0.397342
-0.0240851 0.39352 0.0887904
-0.0614247 0.199573 0.28018
-0.0176541 -0.177185 0.382049
-0.0355172 0.146419 0.318087
-0.0299651 -0.257218 0.388494
-0.0303323 0.140288 0.374452
-0.0254885 -0.454545 0.266452
-0.112113 0.0369156 0.0998286
-0.0247849 -0.341632 0.318574
-0.0192439 0.452204 0.228946
-0.0197774 -0.29729 0.334808
-0.0263835 0.151911 0.342691
-0.0311622 0.0871999 0.37777
0.000416038 0.136411 0.360143
-0.0335104 0.123401 0.372088
-0.00571005 0.116392 0.369529
-0.0158184 0.132359 0.471946
-0.138894 -0.271535 0.478804
-0.017222 -0.0638504 0.2312
0.0292712 0.0524625 0.217117
-0.0332284 0.158577 0.156037
0.150194 0.0446489 0.258434
-0.0304208 0.451428 0.228168
0.0108155 0.224941 0.276076
-0.0516356 0.243489 0.252963
-0.0312426 0.344713 0.0171518
-0.0175784 0.164618 0.118359
-0.0244946 -0.244932 0.300856
-0.0170945 -0.189539 0.270386
-0.112189 -0.290358 0.482479
-0.00324302 0.187322 0.285052
-0.0196164 -0.301862 0.230716
-0.0204082 0.47424 0.223427
-0.0193928 0.244907 0.307406
-0.0200472 -0.179069 0.113693
-0.0182297 -0.352724 0.178615
-0.0718566 0.24662 0.234544
-0.0292356 0.0429915 0.166264
-0.0160169 -0.465743 0.219872
-0.0219591 0.362427 0.31944
-0.0245344 0.38865 0.0342233
0.0243636 0.30742 0.189378
-0.055581 -0.315601 0.170187
-0.0172326 -0.0487849 0.385499
-0.000546202 0.00814778 0.171909
-0.0333121 0.323146 0.00702511
-0.0603455 0.210621 0.267693
-0.0332767 0.184112 0.323656
-0.051088 0.0837826 0.168861
-0.0204141 0.109314 0.16814
-0.029067 0.186206 0.300553
-0.0279739 -0.172888 0.178356
-0.0288693 0.349146 0.0899335
-0.0306859 -0.343175 0.321912
-0.0224344 -0.140607 0.314404
-0.0199127 -0.266544 0.472767
-0.0247416 0.16027 0.17107
-0.0295813 -0.333353 0.00686924
-0.022833 0.238618 0.312983
-0.0245378 -0.067105 0.244493
-0.0200613 0.20986 0.0695764
-0.0330117 0.418648 0.28629
-0.0558672 0.0869622 0.174149
-0.0141283 -0.136645 0.29015
-0.0331866 0.164074 0.146752
-0.12998 0.0229237 0.0989971
-0.0150743 -0.185851 0.32653
-0.0275701 0.0301665 0.175352
-0.117443 -0.299908 0.48882
-0.067391 0.278162 0.160044
0.0273418 -0.00944651 0.200193
-0.0266606 0.166638 0.303963
-0.0163786 -0.448218 0.25388
0.0122076 -0.310198 0.192463
-0.0570403 0.261924 0.211951
-0.0185672 0.307579 0.150832
-0.0434863 0.118317 0.164727
0.01839 0.325388 0.166869
-0.0294894 -0.108963 0.379341
-0.0173536 -0.379608 0.310652
-0.0100271 0.166141 0.517831
-0.0296086 0.332696 0.317391
-0.144992 -0.271809 0.476216
-0.0177175 -0.174424 0.131655
0.0184586 0.0854724 0.182556
-0.0291974 0.378703 0.119689
-0.000814249 0.192591 0.293384
-0.0288719 -0.185255 0.267481
-0.0744703 0.26049 0.23011
-0.0280077 -0.175768 0.39617
-0.0194358 -0.440552 0.0692709
0.00747819 -0.264918 0.30885
0.026593 -0.00320716 0.14679
-0.0290616 0.137365 0.376756
-0.012328 -0.0720283 0.244104
-0.0238615 0.445765 0.27475
0.0273418 0.0630696 0.190545
-0.0165094 0.333933 0.180627
-0.0175519 0.075613 0.380044
-0.0177175 -0.473285 0.152034
-0.128882 -0.286828 0.489031
0.0286551 -0.0230441 0.179526
-0.032352 0.0795593 0.335332
-0.0524251 0.234376 0.236388
-0.0258471 0.152197 0.160709
-0.00475117 0.058464 0.175957
-0.032033 0.195713 0.0753024
-0.0312508 -0.165349 0.152621
-0.0297163 -0.328583 0.320717
-0.0230026 -0.1533 0.296627
0.022222 0.313582 0.157082
0.103908 0.0421014 0.265319
-0.0300056 -0.329062 0.193926
0.0115319 0.0242887 0.175292
-0.0300973 0.462548 0.24856
0.0952492 -0.270845 0.483123
-0.0172873 -0.0140993 0.383498
0.120628 0.0310328 0.26042
-0.00081384 0.116393 0.1883
0.0164047 0.319816 0.164301
-0.0375925 0.183256 0.300836
-0.0258453 0.169338 0.152121
-0.0471144 0.175224 0.319683
-0.0338117 0.269285 0.0166282
-0.0237068 0.233006 0.086491
-0.0411289 -0.070262 0.417745
-0.0185144 -0.454411 0.224516
-0.0315987 0.167238 0.146074
-0.0303054 -0.125198 0.388586
-0.0192439 0.230763 0.0369596
-0.0586578 0.14919 0.180593
-0.0226108 0.376336 0.301488
-0.061751 0.220978 0.161431
-0.0257268 -0.276365 0.389294
-0.0392881 0.171411 0.499987
-0.0351207 0.142079 0.514662
-0.0596475 0.275237 0.226698
-0.0314871 -0.21428 0.285242
-0.0282972 -0.238815 0.364271
-0.0557918 0.179408 0.184313
-0.0319713 0.365674 0.313234
-0.0200019 -0.383308 0.153919
0.00783609 -0.260632 0.359875
0.00490618 -0.322849 0.166539
-0.0557698 0.265452 0.228384
-0.0278054 0.0635655 0.369124
-0.0147328 0.155784 0.343487
-0.025213 0.47346 0.2299
-0.0322156 0.3996 0.297985
0.0211086 0.0150443 0.162747
-0.0177175 -0.33546 0.0151322
-0.00524134 0.135206 0.184343
-0.0334768 -0.262912 0.360125
-0.0185929 0.159364 0.355064
-0.0299737 -0.24965 0.39216
-0.0243457 0.380504 0.266368
-0.00442666 0.121063 0.165458
-0.0244357 0.258884 0.0294595
0.0978225 -0.272235 0.484802
-0.0201063 0.270452 0.153621
-0.0135016 0.285169 0.142305
-0.0297163 -0.310807 0.0141204
-0.0204563 0.390222 0.308365
-0.0231127 -0.00722894 0.203051
-0.0201986 -0.241838 0.386892
-0.0273098 0.17064 0.31424
-0.0319963 -0.32414 0.175688
-0.019673 -0.208899 0.294552
-0.0289596 -0.402762 0.03583
-0.0303274 0.0131337 0.385522
-0.0177175 -0.172245 0.186826
-0.0274235 0.201793 0.305906
-0.0134267 0.284728 0.141608
0.0253099 0.00959428 0.168224
-0.0671538 0.0293839 0.0978217
-0.0072257 0.0308594 0.159567
-0.0177175 -0.341031 0.323461
-0.028062 0.248498 0.117862
0.142974 0.0361032 0.262681
-0.0229636 -0.278087 0.314776
-0.0335491 0.383281 0.0236736
0.018328 0.0828032 0.183027
-0.0279168 -0.464247 0.107963
-0.0190431 0.133969 0.480253
-0.0297163 -0.240612 0.0384899
-0.0411637 0.109012 0.184973
-0.0265672 -0.164525 0.20714
-0.0177175 -0.165584 0.164424
-0.0318246 -0.288334 0.323983
-0.0255482 -0.147894 0.298006
-0.0312426 0.19161 0.24898
-0.0238755 0.444062 0.0843469
0.0292712 0.0503277 0.219392
-0.026757 0.335356 0.00116177
0.0882841 -0.287012 0.479824
-0.0488212 -0.277812 0.36302
-0.0329684 0.178136 0.246471
-0.0266586 0.305494 0.00937984
-0.0312426 0.169525 0.124685
-0.0169473 0.229063 0.0379315
-0.000831042 0.197536 0.164486
-0.0257828 0.214416 0.269359
0.0522252 -0.296976 0.477639
-0.0590789 0.146035 0.17276
-0.0304113 -0.462678 0.0925818
0.000549406 0.20747 0.16052
0.0125779 0.183389 0.16244
-0.0288379 0.0654438 0.30207
-0.0885364 0.00604933 0.101024
-0.106445 0.0429723 0.101217
-0.0544378 0.0542289 0.184552
-0.0181232 0.164371 0.304393
-0.0489561 0.173746 0.185325
-0.0295142 -0.454448 0.10066
-0.0194243 0.466883 0.0960069
-0.0571577 0.0904502 0.17832
0.0573719 -0.291618 0.484187
-0.0263462 0.197046 0.248003
0.0480667 0.0209287 0.199602
-0.0148885 -0.201714 0.347517
0.00103963 0.202283 0.302094
-0.0294927 -0.414527 0.304136
0.152151 0.0349811 0.268702
-0.0178878 0.281968 0.316793
-0.0207043 0.430164 0.269533
-0.0258765 0.366204 0.30938
-0.0415316 -0.0675493 0.420813
-0.0403599 0.0558914 0.168729
0.00457764 -0.312897 0.197105
-0.0292172 0.288304 0.330099
-0.0087738 0.00807376 0.186966
-0.0354709 0.129072 0.368664
0.0133329 0.00973199 0.168399
-0.0255352 0.264316 0.00941595
0.103449 0.0421028 0.264572
0.0246498 0.291735 0.179995
0.0741765 -0.292636 0.487404
-0.0290581 0.0779939 0.338896
-0.0573179 0.131455 0.363439
-0.0119658 0.0435316 0.224034
-0.0144213 -0.0925836 0.4362
-0.0198577 0.310168 0.325181
-0.0203922 -0.100823 0.374755
-0.0225716 -0.20638 0.293257
0.0159613 0.3216 0.163606
-0.0312426 0.202964 0.0618302
-0.0286402 -0.464882 0.170439
-0.118555 -0.300358 0.485951
0.00327739 0.19398 0.304384
-0.0177175 -0.177597 0.227819
-0.0220848 0.0117488 0.192677
-0.0252205 -0.250943 0.0756872
-0.0289411 0.175933 0.197762
-0.0225516 0.038925 0.196729
0.00768713 -0.309191 0.208377
-0.0297163 -0.171073 0.165373
-0.0285997 0.393224 0.306761
-0.0613248 0.300877 0.166549
-0.0238081 0.216094 0.0358917
-0.0290859 0.182891 0.322463
-0.0591874 0.228351 0.162397
-0.0299387 -0.429841 0.0500211
-0.0298765 0.343773 0.32368
-0.0270336 -0.395997 0.182351
-0.0448932 -0.0405311 0.432265
-0.0302791 -0.166738 0.151539
-0.0207671 0.279519 0.320599
-0.00616978 0.167252 0.517978
-0.0273978 -0.192646 0.266156
-0.00527492 0.164242 0.305699
-0.0622341 0.0214891 0.0931115
-0.0177175 -0.459184 0.119267
-0.0337882 0.132944 0.51346
-0.0164767 -0.260271 0.38945
-0.0581355 -0.278085 0.315649
-0.019102 0.411654 0.0319507
-0.0241929 -0.230547 0.0388136
-0.0224342 -0.427534 0.20286
-0.0297163 -0.473332 0.190747
-0.0252931 -0.231696 0.400948
-0.0280943 -0.375828 0.0148793
0.00742373 0.140508 0.349891
-0.0277968 -0.086772 0.393892
-0.0232779 -0.235281 0.37787
-0.0264184 0.428056 0.20859
-0.0696829 0.320672 0.179376
-0.0640214 0.0228317 0.175788
-0.0312426 0.454635 0.231499
-0.0117112 0.0520527 0.246449
-0.0326796 0.188066 0.298551
-0.0739612 0.0222577 0.0908235
-0.0212178 -0.186031 0.241656
-0.0312426 0.413904 0.293208
-0.0228455 -0.442479 0.0584791
-0.02285 -0.0290267 0.22785
-0.152739 0.0216897 0.090844
-0.0297163 -0.464501 0.194686
-0.0274649 -0.40733 0.286576
-0.0559868 0.154653 0.325467
-0.0177175 -0.241927 0.0326327
-0.00292115 0.190881 0.281056
-0.0206688 -0.250131 0.379237
-0.0239395 -0.125161 0.374048
-0.0287169 -0.359284 0.190216
-0.0596418 0.286884 0.178217
-0.0185788 -0.317151 0.192732
-0.0330741 0.201472 0.277452
-0.053685 0.0582845 0.186023
-0.0207348 -0.446923 0.26319
-0.0312426 0.196806 0.265817
-0.0197471 -0.233246 0.353577
0.0419188 -0.298468 0.484855
-0.033439 0.305537 0.00797015
0.0908452 0.02984 0.266946
0.0232688 0.32913 0.159505
0.0187722 0.211346 0.173173
-0.023342 0.394001 0.0185972
0.00728292 -0.316688 0.173511
-0.026829 0.430184 0.209893
-0.0187186 -0.465707 0.245376
-0.0247583 0.177826 0.128555
-0.0283344 0.18801 0.0647336
-0.0256898 -0.389688 0.0287947
0.0808543 -0.282991 0.477476
-0.0205066 0.303546 0.110492
-0.0236987 -0.172521 0.167179
-0.017393 -0.233048 0.357233
-0.0251358 -0.26315 0.30546
-0.0306305 -0.452032 0.0758808
-0.0224917 -0.180519 0.111702
-0.0332499 0.473316 0.123742
-0.0337377 0.476115 0.147231
-0.0603254 0.160123 0.17509
-0.0201702 -0.321368 0.0930615
-0.0303807 0.0414764 0.194736
-0.0175372 0.343304 0.326968
-0.0356203 0.0798253 0.315524
0.0273418 0.0740915 0.163871
-0.0200806 0.192329 0.0613586
-0.0176738 0.442776 0.0625367
-0.0296733 0.28839 0.315131
0.0115852 0.206371 0.289044
-0.0305716 -0.298101 0.182634
-0.0250616 -0.177816 0.399241
-0.0153032 -0.285047 0.0160844
-0.0183651 -0.46452 0.15941
-0.0168136 -0.172139 0.385742
-0.0310056 0.3489 0.310045
-0.0689527 0.316362 0.167796
-0.017241 -0.0277194 0.383937
-0.0261388 0.115517 0.376848
-0.0409187 -0.076592 0.423069
0.00290365 -0.267565 0.327555
-0.0180698 -0.444121 0.0837124
-0.0207841 -0.20094 0.37756
-0.0185078 0.471126 0.150204
-0.00252698 0.167673 0.307614
-0.0288092 -0.478107 0.127653
-0.00729347 0.192032 0.303904
-0.0256056 -0.460708 0.257608
-0.0191111 -0.471958 0.232745
-0.0524054 0.248658 0.249395
-0.00716124 -0.282515 0.480191
-0.0172731 -0.449675 0.0720886
0.0120482 -0.315731 0.172077
-0.0192258 -0.177045 0.134916
-0.0535373 0.135143 0.165066
-0.0177175 -0.370504 0.310833
0.0139546 0.159487 0.184627
-0.0808864 0.0444108 0.0947884
0.0171541 0.0283949 0.175026
-0.0590056 0.280987 0.207766
-0.0312426 0.429979 0.0566559
-0.0210897 0.165496 0.127108
-0.0260633 -0.377903 0.254668
-0.0213656 0.43721 0.0736282
8.17701e-06 0.205625 0.161297
-0.0177897 -0.00837073 0.19168
-0.0330134 0.282869 0.324621
-0.0590305 0.280215 0.168527
-0.0230772 -0.389045 0.30302
-0.0658839 0.263722 0.205697
-0.00484914 0.111663 0.169342
-0.0202379 -0.298953 0.0255789
-0.0299796 -0.131646 0.390072
0.0937366 0.0427173 0.258429
-0.022424 -0.210044 0.16677
0.0174107 0.0979769 0.133303
0.0611883 0.0311451 0.216893
0.0213351 0.0733602 0.223686
-0.00420704 0.115817 0.354494
-0.0403429 0.0294046 0.20013
-0.0177615 0.133485 0.498398
-0.023161 -0.185062 0.238356
-0.0305801 0.103958 0.390715
-0.0279666 -0.411891 0.0423706
0.0292712 0.0663633 0.164373
-0.0217572 0.178162 0.239825
-0.0247989 0.215366 0.287004
-0.0274421 0.162449 0.223783
-0.0551078 0.243344 0.159931
0.0792172 -0.281982 0.479257
0.0273418 0.0573976 0.145241
-0.0588727 0.12847 0.177422
0.0158477 0.187062 0.184289
-0.0212383 -0.309817 0.020187
-0.0231138 0.401554 0.032224
-0.0106447 -0.271228 0.360528
-0.0192439 0.418012 0.278218
-0.0622341 0.0224629 0.100082
-0.0401677 0.179047 0.500307
-0.0192439 0.354361 0.31997
0.013048 0.193908 0.161896
-0.0327911 0.0573957 0.266039
-0.0256724 -0.162347 0.307621
-0.0165812 -0.231482 0.308131
-0.0201316 0.0569475 0.370407
-0.031265 -0.47761 0.137511
-0.0248558 -0.15292 0.299506
0.0273418 0.0646849 0.195274
-0.0192439 0.467553 0.153852
-0.0237627 0.405176 0.113324
-0.035898 0.0978214 0.355034
-0.0177175 -0.195766 0.0821883
-0.0182384 0.447441 0.250965
-0.0335225 0.321559 0.162032
-0.0264815 0.0449476 0.244545
-0.0279688 -0.347306 0.313647
-0.0199619 0.355874 0.314368
-0.0319607 -0.443519 0.270034
0.00228209 -0.29962 0.208749
-0.0604725 -0.283693 0.253286
-0.0662193 0.254087 0.217089
-0.00276625 0.172101 0.311158
-0.0299456 0.203882 0.286237
-0.0411053 0.124793 0.179134
-0.0194182 -0.216154 0.300641
-0.0249222 -0.160461 0.172271
-0.0254201 -0.475115 0.112631
0.00220979 0.226975 0.165956
-0.0254714 -0.182094 0.11881
-0.0250691 -0.214327 0.340934
0.0467451 -0.296759 0.487021
-0.0180199 0.309437 0.171123
-0.0337563 0.183468 0.285429
-0.027939 0.176789 0.302929
-0.0670407 0.25105 0.161061
-0.0172612 -0.424082 0.295431
-0.0232708 -0.220518 0.305049
-0.0283432 -0.144724 0.378302
-0.0319773 0.340209 0.165809
0.0147211 0.283678 0.180848
-0.0511743 -0.272672 0.287045
-0.0250749 -0.17456 0.235585
-0.021174 -0.0428967 0.219002
-0.0192439 0.298402 0.320804
-0.0215799 0.0362874 0.36928
-0.121736 -0.288024 0.486924
-0.0310688 -0.232535 0.308619
-0.0261566 -0.446614 0.0766559
-0.0136963 0.0477777 0.178203
-0.0322586 -0.344504 0.326387
-0.0171136 -0.0431235 0.382633
-0.031745 0.0468287 0.177446
-0.05462 0.13342 0.366955
-0.0553955 0.175645 0.163111
-0.0295233 0.0669464 0.371893
-0.0260587 0.453707 0.0838454
0.0786995 0.0486839 0.259787
-0.025679 0.204826 0.0860652
-0.0547493 0.121322 0.16688
0.0359474 0.0141915 0.163193
-0.0215624 0.370439 0.16467
0.0443206 -0.299132 0.480671
-0.0179418 0.138846 0.492243
-0.01981 0.163973 0.3429
-0.0297163 -0.185756 0.25448
-0.028456 0.304121 0.0744346
-0.0168635 -0.316646 0.172765
-0.0297163 -0.195789 0.0775137
-0.0180199 0.334098 0.17725
-0.0162701 -0.464001 0.118395
-0.017502 -0.0307128 0.379258
-0.0621043 0.231973 0.268698
0.0288285 0.0298829 0.135144
0.00863533 -0.263626 0.318113
0.00611666 -0.261587 0.338533
-0.00249692 0.113111 0.165578
-0.00224337 0.212863 0.203787
-0.0116431 0.158495 0.516824
0.0140578 0.282836 0.18609
-0.0529779 0.0305812 0.168603
0.0127232 0.265991 0.158209
-0.0232103 -0.29862 0.335864
-0.045551 -0.0382556 0.427163
-0.0186823 -0.221958 0.397568
-0.0177818 0.184369 0.0913414
-0.0272434 -0.10481 0.374956
0.0923075 -0.280955 0.476857
0.0409119 0.0264189 0.200244
-0.0128108 0.0207563 0.160252
-0.0216264 -0.397186 0.0952653
-0.0157128 0.191153 0.301595
0.123332 0.0164818 0.258386
-0.056536 -0.283825 0.29007
-0.0335961 0.114078 0.387782
0.0292712 0.0085828 0.167338
0.0273418 0.0252947 0.18978
-0.0264613 0.17927 0.123798
-0.0263634 -0.228589 0.204594
0.0190571 0.299064 0.156805
0.148797 0.0482014 0.26623
-0.015437 -0.183342 0.0857229
-0.0345045 0.1943 0.516015
-0.00892037 0.152745 0.340521
-0.0749782 0.313219 0.174439
-0.0160224 0.0372647 0.186801
-0.0144974 0.073118 0.266069
-0.126626 0.00931877 0.101042
-0.0177142 -0.00197399 0.377764
-0.0197067 -0.475608 0.192455
-0.0496414 0.221508 0.254307
0.00552537 0.132136 0.365592
-0.0389101 0.10808 0.176789
