-0.0191559 0.0451395 0.387627
-0.0243864 -0.242835 0.0633692
-0.028576 -0.23003 0.396655
-0.0189949 -0.357606 0.00970927
-0.0234399 0.294366 0.269311
-0.0276322 0.121992 0.450515
-0.0505475 0.131698 0.347208
0.0149916 0.218554 0.273776
-0.0310797 0.289283 0.170174
-0.0285268 0.432601 0.287861
-0.0613616 0.183023 0.506688
-0.0581637 0.239111 0.160467
-0.0393676 0.00861633 0.172959
-0.0249697 0.357017 0.294933
-0.0273289 -0.239199 0.177635
-0.0181799 -0.263608 0.458723
-0.0627163 0.203199 0.303845
-0.0230152 -0.46764 0.095143
-0.0312589 -0.166938 0.198839
-0.0213167 0.317875 0.00120298
-0.0284495 -0.377248 0.197878
-0.013451 0.0630912 0.283854
-0.028401 0.229986 0.132945
-0.0233983 0.421687 0.136359
-0.0262248 -0.470555 0.238737
0.00675978 -0.29936 0.233916
0.0195199 0.282546 0.171716
0.102999 0.00910197 0.264011
-0.0295219 0.172339 0.303022
-0.0209913 0.473923 0.226139
-0.0212107 -0.223204 0.306295
-0.0334968 -0.266413 0.37491
0.0136575 0.116137 0.166598
-0.012498 0.0199494 0.160624
-0.0168795 -0.0704149 0.264632
-0.137215 0.00474463 0.101017
0.0488641 0.0373607 0.170315
0.012571 -0.273269 0.296782
-0.000702882 0.178576 0.162017
-0.0181736 -0.337541 0.14969
-0.0199586 -0.316493 0.224083
-0.0537164 0.00710466 0.424025
-0.0271451 0.360007 0.059811
-0.0178017 0.469886 0.10739
-0.0233362 -0.21086 0.102923
0.027404 0.036607 0.230453
0.0300213 -0.0109468 0.148631
-0.0775123 0.296555 0.185281
-0.0269647 0.439364 0.17884
-0.0270645 0.362847 0.26372
-0.0154222 -0.385393 0.315028
-0.022551 -0.353051 0.0564902
0.0292712 0.0647681 0.155987
-0.0127259 0.151612 0.499158
-0.0301277 0.264243 0.192829
-0.0266324 -0.397199 0.139753
-0.0366217 0.0843807 0.182852
-0.0601108 0.211785 0.28691
-0.0284108 -0.277659 0.138039
-0.020382 -0.275409 0.330628
-0.0375108 -0.286292 0.477156
-0.0194205 -0.154701 0.325191
-0.0599082 -0.270201 0.305549
0.0282185 0.0716163 0.20857
-0.0277703 0.255243 0.320755
-0.0578172 -0.285407 0.230755
-0.0249839 0.151846 0.168571
-0.0503724 0.0396277 0.198699
-0.0289931 0.144233 0.349823
-0.0244955 0.227399 0.0813258
0.0578762 -0.30115 0.48047
-0.0982337 0.036957 0.0918164
-0.0320407 0.32904 0.160092
-0.0321778 0.311599 0.330003
-0.0220331 0.160797 0.116042
0.117779 0.0502492 0.259003
-0.0218955 -0.39106 0.0203638
-0.0184095 -0.305987 0.124998
-0.0607592 0.195942 0.185123
-0.0230928 0.376974 0.107223
-0.0228841 -0.42746 0.238559
-0.0233297 -0.452905 0.139283
-0.0310102 0.0851444 0.356158
0.00550983 0.264456 0.22171
-0.0252521 -0.420291 0.0977199
0.00214694 0.171802 0.315374
-0.0199608 -0.315999 0.00450492
-0.0255535 0.212921 0.0377944
-0.0255848 0.0153819 0.392561
-0.0235697 -0.449894 0.209615
0.0134172 0.186808 0.287682
-0.0258653 -0.170684 0.246401
0.0273418 0.0323811 0.171213
-0.0307193 -0.0551265 0.383949
-0.0360331 -0.105681 0.415319
-0.0935959 0.00513191 0.0907344
-0.0203371 -0.351135 0.231986
0.0178627 0.0971078 0.129815
-0.0173334 -0.34311 0.175167
-0.111071 -0.301688 0.481955
-0.0271973 0.269785 0.0601966
-0.0372463 0.158006 0.516759
0.0176334 0.251016 0.160233
-0.0168713 0.407934 0.0370644
-0.0229709 -0.00267428 0.205005
-0.0247186 0.126188 0.409588
-0.0234688 -0.234087 0.3535
-0.000778668 0.0246026 0.199975
-0.0183607 -0.406778 0.30945
0.00311309 0.201378 0.137798
0.00202782 0.189112 0.20659
-0.00595975 0.135626 0.177033
-0.0293328 0.37617 0.190031
-0.0295842 0.22884 0.288532
-0.0287037 0.17268 0.245783
-0.02299 0.228213 0.223387
-0.0539092 0.12702 0.16767
-0.023393 -0.197552 0.285293
0.0124239 -0.307465 0.194269
-0.0513605 0.0438526 0.164089
-0.0111339 -0.0987636 0.445644
-0.0240162 0.31483 0.054029
0.0713685 0.0266208 0.203524
0.0157159 0.121823 0.18507
-0.0293608 0.084065 0.292191
-0.0257435 0.284569 0.00390228
0.00689091 0.126003 0.368825
-0.0289352 0.194944 0.514627
-0.0301515 0.0703631 0.255617
-0.0177881 -0.171835 0.0971981
-0.0188314 0.450377 0.0699803
-0.0194203 -0.454291 0.265629
-0.0225637 0.278379 0.328458
0.0159028 0.217498 0.164938
0.0783132 0.0484563 0.267483
-0.0231037 -0.2759 0.407477
-0.0192439 0.446315 0.258796
-0.0285442 0.0510877 0.260007
-0.0168143 -0.13201 0.386287
-0.0271387 -0.17295 0.180241
-0.0249125 0.158396 0.213716
-0.0142712 0.141064 0.473825
-0.0121004 -0.103216 0.273426
-0.0567034 0.161262 0.328345
-0.0191639 0.302337 0.142878
-0.0303981 0.0326708 0.179214
-0.0201549 0.329319 0.133026
-0.0271952 -0.197912 0.349311
0.0196231 0.288731 0.157633
-0.0204821 0.175191 0.338807
-0.0649746 0.264383 0.236336
0.0175479 0.156364 0.170418
-0.0699769 0.030358 0.159013
-0.0267748 0.403659 0.290936
-0.0183381 0.347365 0.00655359
-0.0214033 -0.233982 0.0273138
-0.0178881 0.138953 0.326447
0.0179786 0.234796 0.243078
-0.0685518 0.284103 0.159756
-0.0153227 -0.171012 0.22935
-0.0227 0.362589 0.236083
-0.0237678 0.109723 0.361778
-0.0311261 0.0621322 0.379512
-0.0131149 -0.266733 0.401232
-0.060075 -0.306008 0.188689
-0.0329683 0.199882 0.276332
-0.0231694 -0.0718195 0.395807
-0.0265108 -0.176654 0.0838438
-0.0261365 -0.327051 0.264089
0.028768 0.321031 0.170237
-0.0183184 0.137027 0.37866
-0.014428 0.0556133 0.213504
-0.0296036 0.296483 0.221885
-0.00498531 0.0913883 0.183458
-0.0235721 0.483013 0.138833
0.010309 -0.277367 0.257796
-0.0301996 -0.303817 0.161474
-0.0219534 0.153655 0.148287
-0.0152662 -0.47163 0.12755
-0.0196562 -0.061213 0.229833
-0.0279889 -0.269526 0.204383
-0.0222244 -0.300755 0.335808
-0.061421 -0.268836 0.361877
-0.0305021 0.266925 0.146236
-0.0604734 -0.284664 0.26051
0.0292405 0.000142248 0.224715
-0.0743972 0.253501 0.228453
-0.0400239 0.102189 0.184963
-0.0321395 -0.43937 0.0687015
-0.011874 0.291039 0.195023
-0.0211185 -0.404764 0.224393
-0.027708 0.452297 0.22625
-0.0266959 -0.265745 0.0943675
-0.0262339 0.439516 0.213274
0.150779 0.0160294 0.268669
-0.0506659 0.15254 0.499195
-0.0419625 0.0261143 0.184394
-0.0427279 0.136062 0.181851
-0.0537034 0.23266 0.180985
0.00674085 0.0390143 0.19363
-0.0144525 0.198776 0.299483
-0.0237707 -0.350452 0.306241
-0.0204939 0.337802 0.18874
-0.0322886 0.469243 0.198564
-0.0262537 -0.409496 0.184319
0.0109245 0.299875 0.190211
-0.032873 0.43206 0.0514221
-0.0118926 -0.264306 0.368373
-0.0262005 -0.213043 0.378038
0.0395401 0.00699307 0.172659
-0.019288 -0.483228 0.189337
0.028025 0.0796963 0.189048
-0.0230439 -0.323493 0.040846
-0.0297163 -0.257778 0.304244
-0.0247152 0.203685 0.10534
0.0628923 0.0292504 0.268818
0.0266283 0.0118799 0.129016
-0.0255643 0.395708 0.0593253
-0.0167057 0.336631 0.324259
-0.0252582 0.450006 0.127566
0.00357616 0.257653 0.235999
-0.0402335 -0.085214 0.442186
-0.022669 0.322199 0.249334
-0.0232209 0.0735655 0.329327
-0.0266687 0.397842 0.264418
-0.0448338 0.124387 0.370553
0.00755878 0.0530326 0.16922
-0.0221701 -0.214222 0.195165
-0.0253397 -0.396967 0.0746403
-0.0246264 0.278079 0.03189
-0.049699 0.234035 0.265258
-0.0290941 -0.364489 0.151231
-0.0693253 0.325106 0.180103
0.00147785 0.219853 0.162027
-0.0222871 -0.16087 0.398773
0.0265926 -0.022177 0.17877
-0.0202835 -0.253058 0.151718
-0.0583566 0.269344 0.181587
-0.0265284 -0.229681 0.12962
-0.0605143 0.288762 0.198734
-0.00800264 -0.291554 0.484567
-0.031747 0.199377 0.300077
-0.0212825 0.0996612 0.333154
-0.0208184 0.10248 0.171857
0.00518003 -0.279525 0.308267
-0.0228603 -0.365815 0.032
0.0488641 0.0146252 0.190841
-0.0633837 -0.291148 0.48705
-0.0148715 -0.177861 0.333587
0.0107275 0.170679 0.186739
-0.0320962 -0.171781 0.109495
-0.0312426 0.447539 0.0966941
-0.046219 -0.0265923 0.423896
0.0121642 0.00636809 0.181696
-0.0618539 0.210179 0.162191
0.00642297 0.171457 0.499991
-0.0335835 0.194006 0.0682771
-0.0291426 0.107319 0.425337
-0.0291567 -0.167765 0.152566
-0.0301325 0.136712 0.487084
-0.0220422 0.0301645 0.203308
0.00477085 0.239506 0.263439
0.000811444 0.153074 0.515504
-0.0175186 0.0260701 0.378032
-0.0208647 0.182326 0.261023
-0.0287249 0.233822 0.0243843
-0.0201543 -0.321958 0.100175
-0.0214099 0.284874 0.114306
-0.0245497 0.17021 0.188102
-0.0364471 0.109675 0.390923
-0.0208216 0.0763318 0.172953
0.000579576 0.111621 0.188744
-0.0117091 -0.0262345 0.209438
-0.0304165 0.339168 0.00344407
-0.0290904 -0.259928 0.0366478
-0.0239955 0.12178 0.341903
-0.0312426 0.384532 0.297586
-0.0305328 0.462319 0.248102
0.00951399 0.284627 0.195285
-0.0286602 0.240289 0.17947
-0.0291496 0.226054 0.304697
-0.127928 0.0369326 0.0965419
-0.0297163 -0.191712 0.264807
-0.0278811 -0.290759 0.230318
-0.0177175 -0.408012 0.28777
-0.0524094 -0.305918 0.212158
-0.0158284 -0.30302 0.00995308
-0.0329469 0.347667 0.326201
-0.0776504 0.273131 0.207611
-0.0486436 0.223283 0.266724
-0.018172 -0.470674 0.162266
-0.011483 0.0622301 0.245632
-0.0187482 -0.349364 0.200382
-0.0301783 0.469445 0.0989534
-0.0320578 -0.474036 0.197563
-0.0688693 0.245676 0.250059
-0.00696713 0.044708 0.169103
-0.0511481 -0.272968 0.3481
-0.042652 0.172884 0.518718
-0.0312426 0.309691 0.0204285
0.0312485 0.0243956 0.200039
-0.0259759 -0.404029 0.0367373
-0.0174447 -0.012148 0.384855
0.0768137 -0.28391 0.478973
-0.0278707 0.404536 0.200573
0.00764222 0.0818697 0.167727
-0.0211957 -0.1142 0.39658
-0.0221668 -0.362559 0.33096
-0.0202071 0.350965 0.164827
-0.039649 0.182641 0.319585
-0.0333152 0.0589623 0.18342
-0.0326853 0.311719 0.18041
-0.0158739 -0.00282133 0.187397
-0.0544888 -0.270681 0.279597
-0.0457993 0.159271 0.167786
-0.0146148 0.116845 0.502674
0.00411659 0.245143 0.175743
-0.0231189 0.208802 0.064216
0.14142 0.0486808 0.268726
0.00611172 0.264008 0.180633
-0.0337521 0.177993 0.094843
0.0133337 -0.262296 0.363968
-0.0265547 -0.13805 0.301751
-0.0725024 0.0217772 0.093922
-0.0250025 0.187288 0.226439
-0.0244765 -0.222124 0.279937
-0.0216334 0.0953661 0.37653
0.0188564 0.192437 0.173791
-0.0435662 -0.321276 0.16776
0.0224738 0.253267 0.226498
0.024195 0.0640045 0.225078
-0.00390944 0.206881 0.273465
-0.0312426 0.180302 0.12021
-0.028207 -0.250354 0.321413
-0.0240604 0.0470876 0.172849
0.0117186 0.318803 0.159026
-0.0282189 -0.455257 0.117729
-0.02169 -0.373955 0.0828987
-0.031188 0.174085 0.500099
-0.0141978 -0.0966676 0.258582
-0.0557091 0.181801 0.162829
0.034552 -0.291607 0.477484
0.0292712 0.0513241 0.188476
-0.0216431 -0.322861 0.0665587
-0.0669179 0.220366 0.261833
0.110613 0.0315325 0.260695
-0.0282002 -0.226944 0.0502836
-0.0297163 -0.42572 0.069002
-0.0752889 0.0408672 0.101136
-0.0141393 -0.100255 0.419183
-0.0284009 -0.276534 0.47492
-0.0297163 -0.447901 0.0948185
-0.000677105 0.199147 0.176686
-0.0310746 0.346779 0.179692
0.00423573 0.173004 0.137866
-0.0236882 -0.383367 0.291367
-0.0175075 -0.0570305 0.379801
-0.0284947 -0.282637 0.311882
-0.0200521 -0.287796 0.110503
-0.0318687 0.302794 0.192432
0.0786306 0.0107105 0.259531
-0.0158707 -0.332268 0.00991775
-0.0523704 0.0998278 0.167845
-0.0509839 0.0814738 0.168641
-0.0512312 0.0129783 0.196093
-0.0311627 0.344252 0.148795
-0.00224223 0.15858 0.33334
-0.00111748 0.228189 0.137768
-0.00980927 -0.317295 0.173554
0.0225789 0.263069 0.211335
-0.0145844 -0.147518 0.297424
-0.0490266 0.150316 0.351548
-0.0232954 -0.151967 0.171287
0.130256 0.030515 0.266845
-0.0496838 0.183977 0.29929
-0.0236799 0.448914 0.270837
-0.0231797 0.483749 0.188562
-0.025034 0.350081 0.0350194
-0.12569 -0.284044 0.486112
-0.0251885 0.264214 0.302739
-0.0221325 0.263379 0.224724
-0.0241506 -0.178229 0.129836
-0.0165938 -0.236146 0.376037
-0.0109252 0.118982 0.358819
-0.021384 0.383489 0.164659
-0.0234695 -0.280471 0.29797
-0.155494 0.0225355 0.0987577
-0.0257583 0.332199 0.0331626
-0.0221898 -0.222457 0.221054
-0.0367676 0.152837 0.31986
-0.031338 0.0222992 0.159936
0.0103469 -0.29306 0.212005
0.127548 0.0154061 0.268668
-0.0244473 0.398444 0.0829304
-0.0206998 -0.450535 0.233607
-0.0262208 0.464834 0.168545
-0.0238131 -0.117049 0.373752
-0.0254955 -0.236906 0.103829
-0.0276454 0.128207 0.37428
-0.0293285 0.0509922 0.199059
-0.0256897 -0.355931 0.266624
-0.0297163 -0.234022 0.299394
0.0087902 0.290202 0.169966
-0.00145398 0.21936 0.257615
0.00130711 0.142845 0.187086
-0.018949 -0.273666 0.168278
-0.0531689 0.197257 0.272836
-0.0226598 -0.316406 0.31654
-0.0497429 0.318636 0.163989
-0.0224027 -0.406362 0.26343
-0.0326044 0.398417 0.0251544
0.00999626 0.197637 0.280282
-0.0258679 -0.420796 0.160529
-0.046557 0.141661 0.514607
-0.0259991 0.44586 0.146006
-0.0167515 0.368257 0.0164287
-0.0230277 0.0858465 0.390178
-0.0211944 0.172619 0.167286
0.00148046 0.241268 0.245938
-0.0226774 -0.190881 0.241274
-0.0254922 0.44174 0.110959
-0.0189797 0.309217 0.173239
-0.0309842 0.360123 0.169276
-0.0283657 0.350598 0.0861506
0.0197355 0.0187898 0.160849
-0.015654 -0.164556 0.213766
-0.0312426 0.294899 0.0205976
0.00565756 -0.263213 0.325695
-0.0270827 -0.345544 0.0266179
-0.0234733 -0.110048 0.289852
-0.0200937 0.400742 0.310179
-0.0252412 0.303074 0.312546
-0.0279516 -0.374547 0.0142847
-0.0279298 0.119937 0.392784
-0.0266028 -0.400064 0.112696
-0.0190336 -0.209465 0.0554956
-0.0208708 0.251874 0.0372523
-0.0284807 -0.289467 0.014761
0.0182877 0.0997903 0.182137
-0.0360761 0.0906959 0.34131
-0.0181538 0.0681081 0.310167
-0.0201239 -0.152709 0.376679
-0.0297163 -0.438157 0.261451
-0.00900784 0.267343 0.198515
0.00567386 0.260494 0.165893
-0.0351029 0.163138 0.342427
-0.017862 0.128147 0.434908
-0.0203832 -0.0450221 0.24543
-0.0176023 0.136881 0.513978
-0.0390563 0.104071 0.368052
-0.0316369 -0.411241 0.0448915
-0.000788243 0.18298 0.304658
-0.0416838 0.0580401 0.16847
0.0204243 0.0692623 0.131456
-0.028902 0.00208706 0.373341
-0.016148 -0.473555 0.21895
-0.0128903 0.182582 0.286327
-0.0581684 0.263215 0.158827
-0.00559175 0.0224995 0.177579
-0.02778 0.139907 0.462184
-0.0192439 0.363987 0.314354
-0.0287068 0.405417 0.153929
-0.0603609 0.293214 0.175274
-0.0654371 0.0314706 0.179429
-0.0166166 -0.250674 0.387805
-0.117504 0.0120943 0.0914784
-0.0263884 -0.0364135 0.393879
-0.0547643 0.249715 0.22517
-0.0177175 -0.198275 0.080853
-0.0173063 0.386157 0.0264881
0.0130837 0.0233971 0.183405
-0.0120205 -0.0116985 0.218537
0.0135594 0.330979 0.177979
0.0180174 0.232394 0.182749
-0.0271292 -0.0755173 0.373685
-0.0303386 -0.135739 0.388213
0.0642213 0.0226253 0.18205
0.0122852 0.122923 0.134824
-0.00748741 0.00663609 0.180277
0.0187974 0.140091 0.175004
-0.0297163 -0.373504 0.306911
0.0612627 0.0314907 0.223661
-0.0152944 0.15923 0.312816
0.0826265 0.0286167 0.267312
0.00387145 -0.284309 0.23795
-0.0339132 0.119503 0.359326
-0.0265502 0.244942 0.297903
-0.00658107 0.114662 0.381429
-0.0172586 0.209778 0.285246
-0.0253013 0.43533 0.0945766
-0.0303015 0.339636 0.116503
-0.0175436 0.0707713 0.380314
-0.022546 0.177232 0.316942
-0.0667576 0.251668 0.182203
-0.0222417 -0.424255 0.201813
-0.0169695 0.0780871 0.274298
-0.017595 -0.0357748 0.378983
-0.0212993 -0.252128 0.128667
-0.0289011 0.393341 0.315305
-0.0246541 -0.260338 0.419717
-0.075069 0.305307 0.165232
-0.0271751 -0.281244 0.251346
-0.0213973 0.344712 0.207409
0.0447502 0.0225288 0.158186
-0.00424876 0.164596 0.177774
-0.0287875 0.062093 0.228838
-0.0174596 0.171229 0.216117
-0.017185 -0.186138 0.392211
-0.0177175 -0.240538 0.30633
0.0168822 0.181278 0.163853
-0.0475835 0.176187 0.175631
-0.0262391 -0.15956 0.217963
0.00113602 0.138087 0.365422
-0.018374 0.159284 0.355166
0.0065364 0.0821736 0.191256
0.068973 -0.301631 0.485358
-0.029275 -0.392875 0.317258
-0.0297163 -0.473069 0.139825
-0.0207466 0.268469 0.00922249
-0.0287235 -0.277061 0.360731
-0.0234051 0.322055 0.271908
0.0933888 0.042482 0.258429
-0.0214403 0.420563 0.0621588
-0.0280548 -0.469647 0.17778
-0.0143743 -0.0774147 0.243354
-0.0116202 0.178681 0.519482
-0.0303617 0.1566 0.137211
-0.0255965 -0.350398 0.333698
-0.0230421 0.426556 0.272053
-0.0312426 0.294109 0.322129
-0.0406156 -0.0820116 0.420577
-0.0158949 0.162753 0.517385
-0.0450976 -0.257477 0.36413
0.0178211 0.0875039 0.174506
0.0295802 -0.0185661 0.203981
-0.0309801 -0.190619 0.0697996
0.0273418 0.0401885 0.209322
0.024402 0.307225 0.181396
-0.0615555 0.0302422 0.138477
-0.0379787 0.133968 0.336224
-0.0297163 -0.239869 0.0418194
-0.0278043 -0.246353 0.198604
-0.0290445 0.198826 0.0833949
-0.0517116 0.214181 0.177861
-0.0573935 0.274024 0.218679
-0.00831881 -0.0825861 0.429798
0.0106255 0.282646 0.218354
-0.0256243 -0.21373 0.341453
-0.0234956 -0.216514 0.266853
-0.110883 0.0245033 0.0925774
-0.0350988 0.0696229 0.276795
-0.0321694 -0.467838 0.222278
-0.0179826 -0.438112 0.0570977
0.0190601 0.00968342 0.168291
-0.0158385 -0.454242 0.247116
0.00580336 -0.317658 0.182284
-0.0158712 -0.164286 0.18974
-0.0295653 -0.190071 0.10126
-0.030347 -0.327067 0.188399
-0.0192439 0.183574 0.102926
-0.0167775 0.228046 0.0378803
-0.00947285 0.0969006 0.16866
-0.0288523 -0.222682 0.36117
-0.0286049 -0.325023 0.123713
-0.0264419 -0.475793 0.115808
-0.02819 0.232846 0.159184
-0.0428559 0.0667177 0.191399
-0.0227459 0.34356 0.252315
-0.0547971 0.148449 0.165791
-0.0129306 0.192312 0.500864
-0.00424701 0.121631 0.165308
-0.00781026 0.133028 0.340201
-0.0177175 -0.335677 0.320466
-0.0287787 0.244884 0.202036
-0.0221159 0.046825 0.368607
0.0488641 0.0348185 0.191
-0.0213478 -0.215356 0.0401817
0.0109824 0.210801 0.184555
-0.0335445 0.170108 0.224332
0.00566638 0.200342 0.301028
-0.0304691 -0.320869 0.144957
-0.017003 -0.240761 0.364423
-0.0557472 0.171049 0.314641
-0.0335742 0.211863 0.0516008
-0.0196419 0.299411 0.330516
-0.0312426 0.426448 0.268546
-0.0248899 0.323132 0.311014
-0.0265661 0.236637 0.041351
-0.0160915 0.331257 0.169503
-0.0245769 -0.27501 0.0555577
-0.0287538 0.305468 0.0833311
-0.0416584 0.0377838 0.177255
-0.018061 -0.0945528 0.39089
-0.0225915 0.17462 0.143527
-0.0183356 -0.292963 0.182819
-0.029404 0.380856 0.210564
-0.0207215 0.277332 0.209146
-0.0531403 0.226057 0.164971
-0.0330624 0.46979 0.130241
-0.0322468 0.458625 0.0830652
-0.0293063 0.0636201 0.295828
-0.0188142 -0.212976 0.288113
-0.0562283 -0.310731 0.169962
-0.0257111 0.209634 0.257028
-0.0259656 -0.162443 0.308544
-0.0531283 -0.301374 0.226112
-0.0185647 0.316651 0.189755
-0.0397686 0.113859 0.175307
-0.0174224 0.322876 0.328398
-0.0316847 0.269043 0.322923
-0.0152377 -0.452371 0.0848562
-0.0298634 -0.260807 0.0167275
-0.0297163 -0.415133 0.289834
-0.0127713 0.0808957 0.296544
0.00587736 0.210642 0.291934
-0.0182401 -0.27133 0.0321016
0.0177947 0.171461 0.510481
-0.0323344 0.150914 0.499128
-0.0297163 -0.312307 0.0215952
-0.0197771 -0.272214 0.383657
0.00445843 0.143363 0.334759
-0.0273046 -0.396522 0.206769
-0.0297163 -0.384782 0.0332329
-0.0328162 0.208935 0.286542
-0.0213105 0.0111926 0.200487
-0.0783911 -0.289999 0.486726
-0.0528808 0.015981 0.160985
-0.022154 0.245258 0.307565
0.00631251 0.0320954 0.159921
-0.0184434 -0.410839 0.0566493
0.0273418 0.0214264 0.188695
-0.0324395 0.103759 0.408026
-0.0233913 0.264083 0.0791543
-0.0233133 0.289011 0.0646992
-0.0608773 0.160276 0.5143
-0.0173246 0.471553 0.198266
-0.052006 0.138431 0.367172
-0.0192439 0.456948 0.0925973
0.0273418 0.0177433 0.224797
-0.0163934 -0.317975 0.333102
-0.0352273 0.0782921 0.316559
-0.0462533 0.189007 0.519247
0.00642212 0.157276 0.499397
0.0188289 0.064142 0.178473
-0.0151777 -0.21802 0.357279
-0.0177175 -0.464163 0.190095
-0.0241476 -0.482746 0.140135
-0.0280328 0.360529 0.00621486
-0.0529779 0.0490009 0.182331
-0.0204557 -0.297409 0.0843327
-0.0291609 0.105529 0.352871
0.00419487 -0.307889 0.206984
-0.0134714 0.284873 0.144415
0.00483477 0.151398 0.164195
-0.0199386 -0.259742 0.186371
-0.0292154 0.346635 0.226447
-0.020314 -0.338986 0.249486
-0.00931201 0.132171 0.499484
-0.0557915 0.0951663 0.183814
-0.0207734 0.439632 0.0765034
0.0348454 0.0065428 0.185592
0.0292712 0.0397158 0.157757
-0.0881494 0.0278328 0.0967079
-0.0678773 0.309744 0.191606
-0.0167244 0.0285327 0.190145
-0.0142645 0.0914811 0.36539
-0.0187183 0.182137 0.304049
-0.0149741 0.149733 0.337582
-0.0504697 -0.288729 0.246526
-0.0188083 -0.177758 0.208667
-0.0437902 0.193942 0.29355
-0.0281994 0.168467 0.176568
-0.0177175 -0.296448 0.317092
-0.028875 0.468677 0.152122
-0.107568 0.00599701 0.101024
-0.0178965 0.159978 0.130431
-0.0392202 0.148213 0.336099
-0.0132791 0.122021 0.422672
-0.0197735 -0.286871 0.202975
-0.0303495 -0.305342 0.00734561
-0.0283711 -0.254467 0.39781
-0.0284826 -0.28901 0.333042
-0.0319877 -0.347082 0.013281
-0.0177175 -0.182648 0.113438
-0.0103973 0.0499334 0.231596
-0.0147756 -0.170273 0.31501
-0.0138782 0.0382147 0.215998
0.0292712 0.0413679 0.143625
-0.0161435 -0.164332 0.161454
-0.0329562 0.365194 0.315316
0.0875155 0.0156919 0.268669
-0.0306849 0.0826298 0.374617
-0.0169685 0.181567 0.243855
-0.0192439 0.417633 0.287244
-0.0153367 0.329619 0.148731
-0.013879 0.0836078 0.342147
-0.0462737 -0.276922 0.366218
-0.0203722 0.0437612 0.191957
-0.0308898 0.348377 0.0177316
-0.0247385 -0.257242 0.362648
-0.0272702 -0.390763 0.18135
0.0882324 -0.290908 0.481981
-0.018832 0.127488 0.462965
-0.0326436 0.157477 0.188305
-0.0297163 -0.301354 0.321277
-0.0230059 -0.253574 0.0477965
0.00789046 0.277467 0.157446
-0.0309817 0.321493 0.1219
-0.025445 -0.408091 0.242516
0.0216315 0.309133 0.157329
-0.0278066 -0.308111 0.239065
-0.0184088 -0.218617 0.396972
-0.0205809 0.466829 0.240855
-0.0211124 0.254872 0.170205
-0.0807695 0.317854 0.165146
0.0123045 -0.277261 0.273862
-0.0177175 -0.193154 0.257338
-0.032477 0.125079 0.42675
0.0151327 0.252239 0.248365
0.0273418 0.0117832 0.147534
-0.0249837 0.385 0.0439803
-0.0285764 0.362657 0.0278059
-0.052558 0.176891 0.500216
-0.0526238 0.251063 0.250881
-0.0220292 -0.373643 0.274162
0.150552 0.0405888 0.258426
-0.0276871 -0.289529 0.486604
-0.0294796 0.24939 0.140025
-0.0327317 0.311246 0.154974
-0.0356871 -0.101216 0.43335
-0.0312426 0.415128 0.0435968
-0.0296733 0.462002 0.215022
-0.0319745 -0.161418 0.164993
0.0127989 0.123875 0.216224
-0.0261935 0.373808 0.287249
-0.0209615 0.351229 0.135071
-0.0243922 -0.423371 0.256497
-0.0177175 -0.454469 0.107923
-0.0285594 -0.455188 0.0770323
-0.139369 -0.286564 0.480914
-0.029063 0.330937 0.332526
-0.0532355 0.0247269 0.172772
-0.0319935 -0.455014 0.253482
-0.111396 0.037803 0.10119
-0.0187761 -0.473439 0.203901
-0.0192439 0.46533 0.128239
-0.0184586 0.481628 0.155896
-0.0321413 -0.271702 0.321151
-0.0334017 0.244232 0.308788
-0.0297163 -0.397069 0.300295
0.00594709 0.0117712 0.165755
-0.0316257 0.439414 0.261169
0.00534758 -0.283376 0.288592
-0.0267969 0.223693 0.0989772
0.101813 0.0445196 0.268718
-0.0192439 0.381965 0.30559
-0.0196312 0.221311 0.0582682
-0.0225525 -0.0918001 0.277675
0.0212698 0.0462957 0.173834
-0.0595065 0.192315 0.285764
-0.0629323 0.225179 0.273198
-0.00214859 0.190927 0.512648
-0.0228706 0.195895 0.0548247
-0.058854 0.285808 0.213758
-0.0580947 -0.263445 0.333465
-0.0291248 0.274317 0.306249
-0.019873 -0.175194 0.142857
-0.0244036 -0.153146 0.151493
-0.0157002 -0.252049 0.0290719
-0.130003 -0.288309 0.477879
-0.0283186 -0.176867 0.223341
-0.0175302 0.316112 0.160525
-0.0259519 -0.255089 0.0801602
-0.00547552 0.0735338 0.176371
0.0134888 0.232894 0.161757
-0.0192482 0.168432 0.233244
-0.0330438 0.413755 0.297274
-0.0286483 0.397021 0.173477
-0.0240959 -0.466584 0.14614
-0.0235186 0.430238 0.19357
-0.0245815 -0.305988 0.042444
-0.0686483 0.233155 0.258282
-0.0192439 0.447446 0.241306
0.0148252 0.295549 0.204784
-0.0168959 -0.319812 0.156139
0.00617443 -0.277708 0.36084
0.0273418 -0.00812298 0.168271
-0.0279523 -0.328124 0.0245046
-0.0168404 0.229826 0.29892
0.00979831 -0.292829 0.251131
-0.0163603 -0.437715 0.0726729
-0.026664 0.246865 0.078306
-0.0489214 0.116001 0.189381
-0.0592812 0.139995 0.17769
-0.0251622 -0.370265 0.0582804
0.00335907 0.126596 0.351342
-0.0225294 -0.37561 0.327101
-0.0236038 0.380828 0.266869
-0.0239111 -0.16859 0.120002
0.0150875 0.330049 0.15646
-0.00198574 0.128147 0.187493
-0.0272261 0.445586 0.059243
-0.0240139 0.298555 0.0100626
0.0707977 0.0312627 0.253901
0.00926646 0.26923 0.199826
-0.0305452 0.129853 0.355916
-0.0302469 0.265426 0.0311275
-0.0616971 0.258637 0.218563
-0.0110332 -0.0595984 0.244004
-0.0193589 -0.261844 0.318025
-0.0499906 -0.290773 0.486399
-0.0753053 0.297781 0.20084
-0.0274956 -0.432394 0.291585
-0.0158077 -0.424111 0.291805
-0.0115522 0.0583596 0.262207
-0.0624401 0.310039 0.158749
0.00815115 0.133844 0.165121
-0.0691601 0.286279 0.171524
-0.0312426 0.164457 0.161648
-0.00614573 0.200972 0.286989
-0.0212084 -0.231228 0.192392
-0.0264964 -0.322096 0.169479
0.00679613 -0.320724 0.166006
-0.00862029 0.10186 0.372298
-0.0287209 0.16386 0.199793
0.0277045 0.0307165 0.12922
-0.0199007 0.306308 0.211586
-0.0208235 -0.381208 0.109532
-0.0332897 0.192399 0.259141
-0.147478 0.0140102 0.0907801
-0.0494202 0.218776 0.25428
0.0219746 0.0808356 0.223831
-0.0293294 -0.351695 0.319129
0.0398944 0.0463733 0.177109
-0.0246073 0.181588 0.217286
-0.0303939 -0.151215 0.387489
-0.0318429 -0.182721 0.254435
0.0081714 -0.277122 0.333171
0.0186758 0.268192 0.168695
-0.00388679 0.234475 0.199902
-0.0259926 0.481439 0.204707
0.0490623 0.0216631 0.177128
-0.0236133 0.217993 0.273178
-0.0265278 -0.428479 0.0562611
-0.021367 0.114593 0.376814
-0.0177656 -0.304868 0.14194
-0.05941 -0.321037 0.179729
-0.0299822 -0.242584 0.387568
-0.0312426 0.334951 0.315564
-0.0312426 0.404535 0.0460143
-0.0333898 0.466334 0.114409
0.0043386 0.243333 0.158939
-0.0237721 0.347736 0.314468
-0.047143 0.170906 0.336095
-0.0226253 -0.367922 0.0197365
0.0919823 -0.278604 0.476656
-0.026655 0.00703994 0.180592
-0.0276554 0.310376 0.260232
0.00720576 -0.286336 0.225001
0.142974 0.0251951 0.259
-0.080246 0.0126768 0.101058
-0.0275423 -0.176334 0.324047
-0.0745896 0.287648 0.210964
-0.0239005 0.345944 0.0512739
-0.00533281 0.177257 0.325709
0.0253235 0.290143 0.184085
-0.0167561 -0.23517 0.392736
-0.0529779 0.0104438 0.179732
-0.0170527 0.329237 0.00767968
-0.0153992 -0.20215 0.338629
-0.0591729 -0.292636 0.215805
-0.0310291 0.0393782 0.38059
-0.0243244 -0.377459 0.0405194
-0.0180774 0.19768 0.27601
-0.0256257 0.479746 0.123293
0.00421955 -0.284189 0.485123
0.0134585 0.199337 0.163494
-0.0312426 0.3262 0.012368
-0.0192439 0.467905 0.181457
-0.0175664 0.173413 0.112507
-0.0252147 -0.336808 0.0557765
-0.016864 -0.166235 0.385157
-0.0240776 -0.42678 0.274125
-0.020015 0.284288 0.0192834
0.0495371 -0.290063 0.481882
-0.0335456 0.194287 0.500946
-0.0169251 -0.177052 0.251486
-0.00525985 0.148633 0.321603
-0.0161231 -0.394124 0.0352981
-0.0172953 0.426509 0.0477933
-0.0191985 0.169721 0.199991
-0.0481425 0.118516 0.352486
-0.0192439 0.394219 0.297258
-0.0221572 -0.404293 0.0888585
-0.0155381 -0.348617 0.324334
-0.0204041 -0.24723 0.0205516
-0.0192439 0.25774 0.0230881
0.00721833 0.174709 0.212048
-0.0634884 0.175186 0.518336
0.00452792 0.156679 0.186717
-0.0292517 -0.354107 0.174393
-0.0602682 0.159298 0.174973
0.0017545 0.104274 0.166559
-0.0494582 0.192955 0.169887
-0.0205345 -0.255407 0.167753
-0.02877 0.0887853 0.169
-0.0175292 0.00523534 0.384375
-0.0340899 0.05186 0.220817
-0.0170959 -0.200358 0.384582
-0.0297163 -0.195551 0.0856534
-0.0524455 -0.0129572 0.429712
-0.0239186 -0.0128787 0.370139
-0.0152718 -0.464591 0.23083
-0.0297163 -0.207859 0.278992
-0.0213179 -0.0352786 0.21423
-0.0226036 -0.206343 0.230605
-0.0212819 0.185345 0.0683467
0.0181103 0.230248 0.258436
-0.0270953 0.403219 0.0979854
-0.0288926 -0.274128 0.189082
-0.0298486 -0.205058 0.0520436
-0.0801009 0.285023 0.196463
-0.0285317 -0.329306 0.00541639
-0.0441884 -0.040648 0.427483
-0.0108175 -0.041145 0.233261
-0.0332788 -0.263338 0.408692
-0.0658559 0.168239 0.499855
-0.0651711 0.268431 0.16945
-0.0247512 0.43124 0.226807
-0.017716 -0.362031 0.316634
-0.0228769 0.348035 0.267659
-0.0288701 -0.363325 0.205519
-0.0100656 0.0389489 0.2008
-0.0258328 0.0551839 0.275075
-0.0205908 0.160575 0.161769
-0.0160559 -0.440069 0.266929
-0.0376963 0.142087 0.370944
-0.0588875 0.125835 0.365657
-0.0558195 -0.286422 0.278971
-0.0254642 -0.417944 0.0367399
-0.0154635 -0.162068 0.140125
-0.0239494 0.218897 0.113715
-0.0192439 0.194913 0.251892
-0.0175722 -0.188431 0.0902047
-0.0236324 0.170087 0.0920119
-0.0278222 -0.325331 0.247396
0.0118767 0.21572 0.258636
-0.0322753 -0.366081 0.321322
-0.025696 -0.463887 0.209461
0.115951 0.0134148 0.258381
-0.047104 0.159938 0.341751
-0.0181213 -0.308609 0.183036
-0.0335145 0.0504172 0.241104
-0.0222782 0.27709 0.10081
-0.0765612 0.265952 0.221293
-0.0533271 0.244389 0.235539
-0.0111224 0.27005 0.140817
-0.024442 0.458852 0.113757
0.00944514 0.0375272 0.17223
-0.0927026 0.0450589 0.0986371
-0.0520208 0.0545756 0.188112
0.0279745 0.055063 0.213271
-0.0312426 0.442993 0.0810793
0.00020653 -0.262515 0.360189
-0.0293285 -0.191017 0.382453
-0.0271046 0.323584 0.169005
-0.0186488 -0.320668 0.134902
0.0185243 0.0453185 0.184732
-0.0201868 0.134954 0.450236
-0.0227852 -0.287807 0.0274204
0.0265123 0.281478 0.210702
-0.042092 -0.0631762 0.435264
-0.0420966 0.16543 0.310274
0.0123829 0.312555 0.183359
-0.058631 -0.280899 0.295534
-0.0383845 0.0361303 0.161009
-0.0329088 0.17765 0.231699
-0.00253746 0.141218 0.163959
-0.0264324 0.361336 0.328167
-0.0331884 0.169648 0.107044
-0.0177175 -0.314948 0.0198445
-0.0206391 -0.40855 0.148202
-0.0245812 0.377303 0.057271
-0.0358906 0.185019 0.305791
-0.0303042 -0.29171 0.170903
-0.127205 0.0216735 0.0978908
-0.0212782 0.25199 0.186045
-0.0177023 0.466747 0.211213
-0.0297163 -0.277752 0.0214906
-0.00815084 0.17196 0.307062
-0.0331225 0.283441 0.0154769
-0.0217616 -0.429384 0.174582
0.000260159 0.19332 0.161277
-0.0324905 0.141449 0.51458
-0.0264361 -0.443951 0.245928
0.0280102 -0.0169019 0.155528
-0.0153213 -0.227907 0.0412243
0.00442852 0.224642 0.246249
-0.0178794 0.470974 0.142249
-0.0312426 0.448199 0.247773
-0.0354256 0.070182 0.173531
-0.0232401 -0.112702 0.269535
-0.0319445 -0.26103 0.386637
-0.0422669 0.0239139 0.199808
-0.014159 0.304852 0.189519
-0.065823 0.243195 0.233536
-0.0277164 -0.236096 0.314118
-0.0251602 -0.0807024 0.257319
-0.0293723 0.356879 0.215366
-0.0196232 -0.44105 0.0904371
-0.0301429 0.0976022 0.395308
-0.109165 -0.289279 0.482227
-0.00740988 0.149256 0.357525
-0.13076 -0.276211 0.479406
-0.0177175 -0.401894 0.050137
0.0011056 0.216202 0.177729
0.0457109 0.0234201 0.201707
-0.0192439 0.354226 0.0197511
0.0292712 0.0625648 0.196737
0.0284768 0.0510146 0.227056
-0.0274631 0.118841 0.511605
-0.0264748 -0.268414 0.432755
-0.0223885 -0.187199 0.272469
-0.00244527 0.221056 0.271008
-0.0187515 -0.477266 0.175233
0.00585648 0.097063 0.190506
-0.0288607 -0.314241 0.113406
-0.0347088 0.150996 0.361823
-0.0290283 0.19204 0.239866
-0.0207744 0.161109 0.181221
-0.0269461 -0.241643 0.158589
-0.0468602 0.212365 0.275979
-0.0265699 0.329479 0.0539029
-0.0654871 0.029928 0.101907
-0.0335893 0.448124 0.0744915
-0.0181372 -0.281719 0.317923
-0.0223546 0.401018 0.18728
0.0782948 -0.291965 0.485931
0.0181284 0.255922 0.173441
-0.039721 0.0454002 0.192091
-0.0333997 0.264543 0.0200551
-0.0201289 -0.20527 0.0711072
0.010889 0.239786 0.231164
-0.0243942 -0.33239 0.310781
-0.0305089 0.307762 0.00268375
-0.0291448 0.365009 0.101227
0.0273418 0.0566371 0.14392
0.00231086 0.117317 0.375823
-0.0619306 0.318615 0.170225
-0.120031 -0.291579 0.477113
-0.0192439 0.289824 0.311769
-0.0171258 0.0738109 0.261329
0.0972951 0.0264638 0.262363
0.00462714 0.18615 0.500606
-0.00223335 0.189334 0.282842
-0.0268526 -0.37799 0.0966338
-0.0329884 0.038019 0.205637
-0.0316213 0.384751 0.0291064
-0.0344234 0.102993 0.168405
0.0598784 0.0269267 0.256043
-0.029217 0.166039 0.12532
-0.0507641 -0.303073 0.198074
-0.0177175 -0.227079 0.288625
-0.030554 0.340362 0.134375
0.03002 -0.0101247 0.215775
0.026593 -0.00160484 0.13906
0.0292712 0.0527908 0.166665
-0.0611861 0.194884 0.163652
-0.0227477 -0.152908 0.188456
-0.0172016 0.0480597 0.251627
-0.0175987 -0.393217 0.303823
-0.0248567 0.108221 0.49734
-0.0611665 0.275699 0.193002
-0.0212525 -0.342983 0.271125
-0.00401216 0.16675 0.164099
-0.0158669 -0.163323 0.177469
-0.0322763 -0.250461 0.0275681
-0.0263236 -0.12474 0.288966
-0.0637627 0.208488 0.273468
-0.0278355 0.231495 0.206988
-0.0305356 -0.113713 0.38593
-0.0327948 0.225081 0.0348448
-0.00923271 0.165492 0.342466
-0.0314228 -0.316137 0.325547
-0.029904 -0.288375 0.189794
-0.0187758 -0.340387 0.211449
-0.01755 0.310079 0.321902
0.0243271 -0.286275 0.481444
-0.00649393 0.0454569 0.188996
-0.0182609 0.0388025 0.162794
-0.0638442 0.306102 0.178951
-0.00608085 0.149494 0.176426
-0.0261122 -0.387419 0.0860404
0.0133594 0.0250998 0.200056
-0.0292366 -0.365993 0.16675
-0.0320256 0.333011 0.174888
-0.0272169 0.177482 0.204406
-0.0277303 0.0673871 0.242047
-0.0461681 0.163744 0.182967
-0.0304813 -0.343192 0.183229
-0.0192439 0.311821 0.0136324
0.0183334 0.170343 0.171522
-0.0244302 0.0667185 0.391025
-0.0147619 0.315126 0.143047
0.00681971 0.166414 0.327691
-0.0179621 0.17866 0.500292
-0.023913 -0.0427403 0.227098
-0.0306207 0.316643 0.206878
-0.010925 -0.101847 0.432126
-0.0318451 -0.225998 0.0396988
-0.0249792 0.176818 0.519236
-0.0185987 -0.356218 0.0233245
0.0273418 0.00250185 0.175417
-0.0284913 0.190709 0.0964445
-0.0070811 -0.0841064 0.417161
0.0163215 0.273585 0.181314
-0.0605998 0.293721 0.162306
-0.030464 0.410687 0.280905
-0.0306369 -0.0867365 0.384817
0.0635545 -0.29042 0.486961
-0.0285436 0.375018 0.237426
-0.0288678 -0.454385 0.224585
0.069345 -0.294148 0.476084
-0.0315011 -0.478888 0.150651
-0.0177175 -0.253477 0.304105
-0.0162448 0.184729 0.327092
-0.0255126 -0.43438 0.158991
-0.0100827 0.122354 0.371529
-0.0297163 -0.243786 0.305148
-0.0291503 -0.17171 0.209213
0.0279288 0.0247054 0.154962
-0.0286745 -0.0453392 0.374864
-0.0278498 0.262039 0.09642
-0.000151873 0.0124047 0.194056
-0.0177175 -0.441971 0.255251
-0.0287763 -0.364386 0.192067
-0.1523 0.0309433 0.0908693
-0.0125419 0.113111 0.368141
-0.0254091 -0.427594 0.187418
-0.0303603 0.0225349 0.376136
-0.0309063 -0.00807801 0.381882
-0.0267985 -0.230852 0.204535
-0.0298227 -0.163877 0.382889
-0.0222239 -0.181228 0.344208
-0.0592703 0.233783 0.235626
-0.0266393 -0.0230855 0.393284
0.14753 0.0368226 0.268705
-0.0326003 0.171817 0.334374
0.0141235 0.0653392 0.189709
0.0220829 0.297661 0.172612
-0.0179253 -0.136591 0.31176
0.0292712 0.0172868 0.165701
-0.0319119 0.244437 0.0330846
0.0104081 0.298215 0.156455
-0.0191843 -0.0597845 0.257045
0.0216711 0.246634 0.238285
0.0139975 0.110088 0.131993
-0.0292386 -0.279018 0.151176
-0.0241091 -0.299898 0.0216178
-0.0177175 -0.373812 0.0263991
0.0201044 0.0824346 0.132358
-0.0279958 -0.202564 0.258979
-0.0194687 -0.302889 0.112205
-0.00970647 -0.00393045 0.19902
-0.0192439 0.239475 0.0317477
-0.019443 0.162968 0.499634
-0.0148476 0.1146 0.390733
-0.0312426 0.210192 0.268983
-0.0256016 0.209755 0.0895389
-0.0238841 -0.0683577 0.242215
0.00462501 -0.266413 0.309472
-0.0176424 0.438601 0.276255
-0.0302481 0.375344 0.307754
-0.000754193 0.153249 0.345589
-0.0260394 0.319707 0.0210118
-0.0634037 0.214444 0.183871
0.0273418 0.0756861 0.176554
-0.0226424 0.236613 0.190555
-0.0210582 0.075296 0.368511
-0.0569201 0.144122 0.343123
-0.0529779 0.0249137 0.192334
-0.0134649 0.145 0.486286
-0.0173831 -0.327791 0.175484
-0.0312426 0.280866 0.317203
-0.0750815 0.307107 0.177631
-0.0250223 -0.463571 0.130843
-0.0538333 0.112774 0.168845
-0.0182774 0.166182 0.148722
-0.0328895 0.412602 0.0350338
-0.0250071 -0.140755 0.374783
-0.0673265 0.0221052 0.149272
-0.027039 -0.418241 0.277622
0.0488641 0.0108884 0.164635
0.00849715 0.195269 0.185056
0.0128226 0.0116821 0.193543
0.0149242 0.102635 0.169917
-0.0195559 0.408777 0.297306
-0.0301683 -0.329862 0.154313
-0.0296519 -0.464624 0.162568
-0.00199257 0.18644 0.178987
-0.0298963 0.268623 0.206245
-0.0256767 0.0791168 0.345122
-0.0177175 -0.183661 0.227804
-0.034963 0.17465 0.314423
-0.0174683 -0.208906 0.276822
-0.0247654 -0.270625 0.312472
-0.0236527 0.385393 0.0973954
-0.0294719 0.476871 0.17426
0.000416822 0.118966 0.360173
-0.0207084 -0.0137067 0.198672
-0.0297163 -0.360281 0.0228607
0.0728616 0.0209754 0.26478
-0.0216374 -0.261809 0.471008
-0.0207652 0.27018 0.154027
0.00820002 -0.288569 0.269238
0.00679043 0.323641 0.169832
-0.0136358 0.170765 0.314363
-0.0261377 -0.210432 0.296584
-0.0180669 -0.282769 0.479381
-0.067008 0.0212703 0.131047
-0.0153422 0.339889 0.160557
0.0146015 0.149027 0.184602
-0.0297163 -0.45974 0.102691
-0.0313225 0.339383 0.195399
-0.0169294 0.161187 0.191804
-0.033409 0.128415 0.461685
-0.0312426 0.397108 0.299984
-0.0200869 0.340601 0.124135
-0.0192439 0.19291 0.0897344
-0.022464 -0.341941 0.00531088
-0.0135455 0.115264 0.171321
-0.0327543 0.0906209 0.319744
-0.0365321 0.317471 0.165444
-0.0133879 -0.263756 0.386741
-0.0226034 -0.0816786 0.269756
0.0746515 0.0355365 0.268702
-0.0273799 -0.125902 0.395731
-0.0565782 -0.298071 0.237905
0.00712283 -0.312113 0.166729
-0.0295267 0.389266 0.017152
-0.0283196 -0.222187 0.295849
-0.0188226 -0.418063 0.302391
-0.0264522 -0.225974 0.373162
-0.0192439 0.436844 0.063715
-0.048457 0.150637 0.324087
-0.0319744 -0.477498 0.185179
-0.0168448 0.129635 0.369213
-0.0251621 0.453807 0.16253
-0.0171846 -0.0825507 0.387157
0.0186746 0.205022 0.174349
-0.013043 -0.0512403 0.225909
-0.0192958 0.298473 0.170817
-0.0240871 0.14881 0.321688
-0.0192439 0.254531 0.311543
-0.0451644 0.0920339 0.190298
-0.0637268 0.250227 0.161323
-0.0177175 -0.323102 0.321717
-0.0175534 0.448679 0.0823488
-0.0493991 0.193316 0.182426
-0.0272286 0.113245 0.373028
-0.0224997 0.190038 0.305257
-0.0307155 0.301557 0.207408
-0.0205796 0.350366 0.329484
-0.0620992 0.284894 0.183776
-0.0266758 0.257412 0.0123401
-0.0314693 -0.159222 0.144207
0.00204046 0.253394 0.248742
-0.0239865 0.422292 0.297752
-0.0263816 -0.449745 0.272741
-0.0508988 -0.273576 0.333298
0.0217099 0.323298 0.162634
-0.048334 0.0685146 0.168132
-0.053284 0.055625 0.17371
-0.0155146 -0.202158 0.351034
-0.0221317 -0.348691 0.0680955
-0.017875 0.0970137 0.391747
-0.0297808 -0.294153 0.202761
-0.0251012 -0.475169 0.22733
-0.0202435 -0.254018 0.204653
0.0155016 0.264522 0.23553
-0.0173128 0.301331 0.155032
-0.0249466 -0.100921 0.266359
-0.0177175 -0.225332 0.0530298
0.0100337 0.301706 0.178047
-0.0215445 0.090587 0.306538
-0.0334576 0.185109 0.311673
-0.0512147 -0.311246 0.181956
-0.0353014 0.129848 0.44498
-0.0412424 0.18471 0.500544
-0.0341928 0.0604512 0.267766
-0.0231364 0.375798 0.0279874
0.00710603 0.18794 0.298428
-0.017689 -0.0446227 0.387502
-0.0210242 0.303277 0.227451
-0.0175302 0.321229 0.173845
-0.0287216 0.364781 0.224699
-0.0225318 -0.43126 0.0772114
-0.0277226 0.0767163 0.26864
-0.0270075 0.430885 0.0731819
-0.02073 -0.262502 0.13511
0.0105691 0.307522 0.164374
-0.0126288 0.278866 0.19439
-0.0529779 0.0350925 0.18675
-0.025689 0.177587 0.0784052
0.00791586 0.281403 0.178383
-0.0589521 0.165007 0.164595
-0.0561348 -0.278468 0.249865
-0.0612521 0.187239 0.176827
-0.0300374 0.465782 0.226098
-0.0192439 0.217656 0.0460188
0.040975 0.0307181 0.17766
-0.0260022 -0.459263 0.243202
-0.020782 -0.39248 0.216178
0.0247277 0.0221206 0.177149
-0.0564006 0.256283 0.168867
-0.0278206 -0.184152 0.333853
-0.00935702 0.141476 0.370456
-0.0855919 0.0381624 0.0909067
-0.0576337 -0.257792 0.365105
-0.0295235 0.377676 0.171486
-0.0281401 -0.275078 0.397641
-0.0192597 0.477107 0.167088
-0.0639489 0.241021 0.17091
0.11537 0.0420972 0.267593
-0.00950421 0.123689 0.347673
-0.0185982 -0.337055 0.0253832
-0.0279109 0.326766 0.0785992
-0.0192439 0.239993 0.292893
-0.0508941 -0.271078 0.297589
-0.0165861 0.123993 0.512292
-0.0283891 -0.275912 0.375293
-0.0282589 -0.177629 0.0986166
-0.0947393 0.0120476 0.100537
-0.0292986 -0.24151 0.375593
-0.038339 0.0480353 0.182871
-0.018666 0.0120132 0.374491
-0.0337897 0.136947 0.498543
-0.0185732 -0.361668 0.197816
-0.0677413 0.234546 0.245669
-0.0239784 -0.261959 0.294554
-0.0215247 0.371487 0.164451
-0.0221056 0.360495 0.0887761
-0.0178972 -0.108402 0.379603
-0.0412376 0.17538 0.326663
0.0256966 0.0103716 0.192325
-0.0334049 0.0941814 0.376236
-0.0154019 -0.180487 0.321231
-0.0131277 0.0919682 0.328946
-0.053934 0.137706 0.188154
-0.0619972 0.299342 0.192349
-0.0334955 0.449393 0.258981
-0.0395917 0.157693 0.353197
-0.035319 0.108282 0.379114
-0.0228908 0.115629 0.352995
-0.0168221 -0.143932 0.385748
-0.0162278 -0.433828 0.2849
-0.00584894 0.122476 0.177752
-0.0263233 -0.379758 0.316452
0.0273418 0.0431429 0.197795
0.144996 0.00947272 0.260599
-0.0195174 -0.268574 0.414941
-0.0574065 0.243703 0.183318
-0.0177175 -0.416405 0.0462138
-0.0155798 0.327352 0.185577
0.00850434 0.228483 0.273374
0.00703566 -0.303134 0.184637
-0.0262249 -0.145905 0.310616
-0.0463128 0.202752 0.300314
-0.0290886 0.275996 0.112767
-0.00513397 0.20142 0.306284
-0.125325 -0.295824 0.48562
-0.0161046 -0.285782 0.0117452
-0.0168374 0.00803949 0.173183
-0.0175527 0.194711 0.517796
-0.0182651 -0.370604 0.307185
-0.0160922 0.000301182 0.214139
0.0668029 0.0234757 0.234328
-0.0369321 0.114481 0.410008
-0.0293324 0.310363 0.169185
-0.028619 0.463485 0.187058
0.0835017 -0.276239 0.483749
-0.0324316 0.156114 0.176613
-0.0246444 -0.256634 0.380799
-0.0206987 0.209344 0.0527341
0.026593 -1.65738e-05 0.149057
-0.0530427 -0.314187 0.195122
0.000784226 0.032066 0.179745
-0.0307667 0.00989145 0.383629
-0.0297147 0.0681355 0.308434
0.0396374 0.0348441 0.198171
-0.0332253 0.120858 0.372108
-0.0601984 0.174672 0.171024
-0.0158247 -0.197383 0.275917
0.0150439 0.243543 0.180981
-0.149407 -0.278256 0.483507
0.0162575 0.077434 0.186878
-0.0241011 0.217125 0.299139
-0.0186524 -0.222452 0.381081
0.136087 0.0474205 0.258438
-0.014489 0.0744361 0.319235
-0.0503107 -0.282033 0.265527
-0.0287425 0.452206 0.107065
-0.0450005 0.196053 0.281025
-0.0155053 -0.476235 0.144385
-0.0198633 -0.397584 0.293297
-0.0307193 0.148297 0.486671
-0.0266691 0.0240637 0.18325
-0.0125945 0.116452 0.412524
-0.0242086 -0.172582 0.169041
-0.028614 -0.167304 0.236073
-0.0586658 0.122713 0.177307
0.00713636 -0.297552 0.197055
-0.0267181 -0.407262 0.211028
-0.0168125 0.286631 0.322745
-0.0197189 -0.321323 0.113399
-0.0311408 0.347317 0.163962
-0.0229917 -0.0114473 0.212491
-0.0210669 0.0427327 0.239574
0.00281919 0.190089 0.135463
-0.0204589 0.348317 0.147481
0.027273 -0.0195069 0.192739
-0.0405676 0.0450157 0.168376
-0.0504013 0.185315 0.28621
-0.0562773 0.256262 0.181174
0.00726242 -0.261406 0.336922
0.00304991 0.0635912 0.169041
0.0125721 0.16212 0.514633
-0.0526577 0.105151 0.189142
-0.0297163 -0.412367 0.0561466
-0.0181457 -0.160163 0.126475
-0.0177175 -0.232695 0.298901
0.0425016 -0.299114 0.481813
-0.0219232 -0.184156 0.0725593
-0.0214421 0.165362 0.34461
-0.0300555 -0.219407 0.386744
-0.0155641 -0.46452 0.112342
-0.032306 0.16753 0.139973
-0.0212587 -0.175257 0.197778
0.0141674 0.22178 0.180959
-0.00987547 0.186732 0.300877
-0.0145422 -0.191499 0.334575
-0.024887 -0.379483 0.0240865
-0.00514032 0.179343 0.314925
0.0344962 0.0426895 0.167629
-0.0595872 -0.265053 0.344665
-0.0285564 -0.260186 0.193828
-0.0175565 0.0520177 0.377678
-0.0317192 -0.237435 0.0320318
-0.032375 0.300295 0.158122
-0.0336165 0.322527 0.326324
-0.0183931 -0.254439 0.371673
0.0236935 0.318125 0.178292
0.00297809 -0.282629 0.249119
-0.0384338 0.130577 0.376593
-0.0230105 0.0605479 0.219003
-0.0277744 0.415394 0.20378
-0.066375 0.272314 0.202464
-0.0434666 0.139649 0.328122
-0.0101247 -0.0287869 0.220334
-0.0142976 0.0109434 0.191925
-0.0291733 0.18827 0.0772305
-0.0370023 -0.0966947 0.42308
-0.000306259 0.17701 0.184967
-0.123408 0.0111987 0.101052
0.0894904 0.0476565 0.268724
-0.0295777 0.185689 0.106905
0.0082344 0.28332 0.206402
-0.025545 -0.118485 0.279635
-0.0645542 0.0200668 0.10725
-0.0576665 0.104064 0.176823
-0.0142479 -0.0911061 0.425718
-0.0183974 -0.256841 0.402037
-0.0582986 -0.296387 0.203068
-0.0244699 -0.329117 0.336723
0.019334 0.0375191 0.162499
-0.0141831 0.124048 0.444687
-0.136446 0.0120886 0.0925703
-0.0286214 -0.323356 0.226011
-0.0279508 0.0652992 0.369233
-0.0281901 0.184166 0.323707
-0.0204711 0.358892 0.156911
-0.0538283 0.180772 0.519756
-0.0232559 -0.0243256 0.213033
-0.0544772 0.261175 0.238489
-0.0597063 0.158939 0.500734
-0.0352572 0.115085 0.349174
-0.0522398 0.0290035 0.201966
-0.0655844 0.2473 0.223907
-0.0589532 0.278433 0.16017
-0.141788 0.0420107 0.0909268
-0.102063 0.0246599 0.0993823
-0.0555408 -0.287234 0.477416
-0.0268 -0.0644189 0.372976
-0.0192439 0.414519 0.0457105
-0.0330218 0.205252 0.0606151
-0.0177175 -0.214472 0.06621
-0.0202526 -0.300856 0.235371
-0.00500018 0.0878083 0.173191
-0.0269832 0.182358 0.247676
-0.0300723 0.173617 0.149597
-0.0191589 -0.171874 0.111276
-0.0174872 0.475938 0.130872
0.0133533 0.267862 0.158047
-0.0407297 0.134304 0.508747
-0.0225371 -0.238407 0.401593
-0.0538033 0.0845828 0.186306
-0.0122766 0.0871447 0.319038
-0.0521832 0.173029 0.186724
-0.0190625 0.39717 0.0360057
-0.0543358 -0.322362 0.169854
-0.0306053 -0.369648 0.0255352
-0.0223522 0.477916 0.214491
-0.0192439 0.295735 0.0192044
0.0133772 0.144477 0.16477
-0.044071 0.146631 0.167459
-0.0286678 0.136825 0.327024
-0.0234201 0.437611 0.0506638
-0.0251736 -0.213482 0.365895
-0.0459845 0.157564 0.315468
-0.0171288 0.478414 0.179135
0.0157469 0.132524 0.187465
-0.00588566 0.206618 0.296381
-0.022942 -0.162142 0.22809
-0.0307186 0.475307 0.14192
0.0273418 0.0335278 0.182098
0.0138661 0.0898503 0.188586
-0.0297163 -0.28553 0.32274
-0.0230724 0.411574 0.140506
-0.0263294 0.162365 0.306167
-0.0195545 -0.281753 0.146947
-0.0215359 -0.369056 0.26427
-0.0265018 0.115018 0.432573
-0.0124487 0.0838299 0.307026
0.0103899 -0.27706 0.322512
0.00298673 0.23438 0.174577
-0.0292843 0.0411054 0.164235
0.0178045 0.129608 0.172352
-0.030958 0.0781968 0.335368
-0.0312426 0.219398 0.283455
-0.0245471 0.0818591 0.281082
0.00527317 0.25526 0.215966
-0.0541188 0.15435 0.18605
-0.0236153 0.200928 0.284733
-0.0336854 0.166842 0.214156
-0.0192439 0.204967 0.268109
-0.0519689 0.151076 0.336497
-0.0284231 -0.125982 0.377683
-0.0244786 0.45896 0.208032
0.090726 0.0158004 0.258385
-0.0715229 0.31584 0.172614
-0.0316107 0.327432 0.149461
-0.0219353 -0.448236 0.102237
-0.0269431 0.274105 0.070037
-0.024081 -0.101162 0.396851
-0.136301 -0.280207 0.486972
-0.0479981 0.137555 0.337698
0.00300978 0.230178 0.159504
0.0626472 0.033379 0.247196
0.0174511 0.0398993 0.195196
0.00607627 -0.26865 0.289613
-0.0454247 0.0235847 0.159758
0.0232495 0.0596913 0.127545
-0.14459 0.0147346 0.101068
-0.0297163 -0.404535 0.29137
-0.0312426 0.204208 0.0744145
-0.0256395 0.430935 0.260632
-0.011205 0.0686956 0.268595
-0.0336187 0.160161 0.152166
-0.0311985 -0.330054 0.164936
-0.0480801 0.211787 0.262233
0.00825753 0.151947 0.212079
0.130824 0.050234 0.26728
0.0011225 0.163543 0.517489
0.0274261 0.278719 0.199556
-0.0362322 0.094414 0.355553
-0.0119789 0.0702777 0.296735
-0.0300565 -0.183236 0.241725
-0.0630121 0.22406 0.161558
-0.0203241 0.189787 0.235651
-0.018323 -0.308653 0.328375
0.0124505 -0.289893 0.240793
-0.118143 -0.294586 0.486998
-0.0253987 -0.196653 0.250556
-0.0113176 0.163056 0.303692
0.0826265 0.0378179 0.262091
-0.0312426 0.353026 0.310255
-0.0173472 -0.310391 0.170768
-0.0297163 -0.173259 0.137356
-0.0222366 0.106392 0.507432
-0.036269 0.123723 0.50836
0.0745508 0.0444831 0.258434
-0.0223193 -0.439819 0.206658
-0.0631753 0.225014 0.183897
-0.0358258 0.00814099 0.185731
-0.0805418 0.0151137 0.0907861
0.0141127 0.163805 0.16378
-0.0337439 0.361621 0.0149943
-0.0297163 -0.435989 0.271748
-0.0286056 -0.38056 0.179216
-0.0192439 0.277499 0.318157
-0.0696855 0.262368 0.214207
0.0120933 0.200742 0.290087
-0.0179742 0.296902 0.319414
-0.0690118 0.291629 0.180985
0.0129681 0.0669002 0.169825
-0.0199775 0.302772 0.197984
-0.0297163 -0.207664 0.26797
-0.0196635 -0.270578 0.158289
-0.00869503 0.171573 0.33396
-0.0249311 -0.177704 0.119189
0.0124314 -0.325436 0.167493
-0.0216026 0.377749 0.183158
-0.0312426 0.256543 0.306465
-0.027485 0.46688 0.140508
-0.0264849 -0.15559 0.317536
-0.0320038 -0.394972 0.0328184
-0.0280151 0.288751 0.3305
-0.0177175 -0.460753 0.221445
-0.025484 -0.169112 0.331277
-0.0375958 0.0915876 0.173764
-0.025645 0.245741 0.317074
-0.018652 0.0863689 0.169101
-0.0312426 0.172568 0.196179
-0.0510203 0.16664 0.499787
-0.0294762 -0.325189 0.316253
-0.00121572 0.210508 0.140141
0.0016427 0.235088 0.237615
0.0273418 0.0702912 0.167701
-0.0262582 -0.462778 0.195805
-0.0542054 0.13811 0.166231
-0.0184241 -0.245941 0.297023
-0.00245014 -0.268441 0.36729
-0.0461218 0.120454 0.165769
-0.0630677 0.022009 0.0956869
-0.0222781 -0.219387 0.108696
-0.0156241 -0.161377 0.199671
-0.0152214 -0.461995 0.102315
