0.0500436 0.255328 0.188404
-0.0159483 -0.284136 0.020905
0.0111784 0.444613 0.218974
-0.0154309 0.457567 0.20013
-0.00722039 0.0600656 0.244157
-0.0120144 0.288714 0.112635
-0.0243133 0.0596611 0.228896
-0.0127628 0.0367666 0.385306
-0.0239498 0.285301 0.160917
-0.0453325 0.077966 0.227571
0.10442 0.0495621 0.14505
-0.0272405 0.322371 0.160947
0.0011505 -0.45098 0.172546
0.00501732 -0.140584 0.443781
0.0170498 -0.3236 0.181949
0.00855508 -0.269263 0.133508
0.00160515 -0.310653 0.037715
-0.0995405 -0.11798 0.562904
0.00955864 -0.370306 0.0239594
-0.145607 -0.121895 0.567727
-0.00210371 -0.21367 0.347687
-0.00762275 -0.270826 0.0387948
-0.0323154 0.30116 0.16373
0.00267675 0.464542 0.1039
0.0172028 0.102771 0.22536
0.0478575 0.30516 0.179836
-0.0363798 0.313637 0.161796
0.00616469 -0.338033 0.362483
-0.0491285 0.0848213 0.249918
-4.21259e-05 0.162959 0.163067
-0.0065782 0.454084 0.0829163
0.0509517 0.260471 0.20392
-0.0159483 -0.226287 0.334286
-0.00744753 -0.38817 0.110365
0.00472256 0.0977494 0.364236
0.0102037 0.405586 0.275919
-0.0155296 0.0440946 0.251052
-0.0122381 -0.43315 0.305376
-0.0159483 -0.427517 0.29443
-0.00494872 0.448341 0.138372
0.00321596 0.224494 0.290227
0.0945209 0.0756381 0.130048
0.000493916 0.44049 0.0635319
-0.0143833 0.0570068 0.2355
0.0101361 -0.308476 0.0273866
0.0285363 -0.120247 0.477533
0.00105376 0.159726 0.0915852
-0.00760218 0.204884 0.0696105
-0.0159297 -0.472987 0.147751
-0.0147675 -0.402841 0.295977
-0.025011 0.104089 0.278257
0.00748607 -0.0831657 0.463748
-0.00315946 -0.226797 0.353528
-0.0171756 0.212709 0.0426533
0.0101361 -0.158235 0.293858
6.97644e-05 -0.130345 0.122316
-0.0272405 0.28014 0.167315
-0.00899949 -0.372681 0.0508834
-0.0017446 -0.475615 0.220064
-0.00377691 0.0641459 0.240683
-0.0797295 -0.220041 0.299498
-0.00826674 0.236548 0.292746
0.0111784 0.367073 0.0248921
-0.0113264 0.0590115 0.372342
-0.051006 0.0472982 0.16271
0.0101361 -0.199614 0.32009
-0.0239498 0.311317 0.197066
0.00317614 0.110093 0.278015
0.00952579 0.191061 0.0896841
-0.0102041 -0.067932 0.370687
-0.0262192 0.140362 0.208582
-0.0668386 0.267876 0.192559
-0.0820472 -0.281647 0.187335
-0.00510307 -0.439474 0.243714
-0.00867445 0.0641918 0.238959
-0.0159483 -0.125311 0.212136
-0.0112961 -0.387544 0.168533
-0.0517926 -0.162191 0.431121
-0.0143048 -0.403206 0.326889
-0.0200651 -0.414242 0.309195
0.0137504 -0.295769 0.355577
0.0115896 -0.326042 0.189761
-0.0132948 0.430607 0.2749
0.0758417 -0.263074 0.26446
0.0132867 0.457423 0.242999
0.00877779 0.0369572 0.382542
-0.00303073 -0.227426 0.353764
0.116163 -0.115737 0.565807
-0.0159483 -0.449556 0.10261
-0.0151955 0.141449 0.150107
-0.0230555 0.145879 0.435541
-0.0159483 -0.14236 0.226481
0.0797136 -0.277242 0.225085
0.00803084 -0.115066 0.461941
-0.0148195 0.156417 0.099067
0.00764574 0.366946 0.140976
-0.0159483 -0.306134 0.0213148
0.00288457 -0.424466 0.316033
-0.00876095 0.0903286 0.360938
0.0103152 0.276402 0.209436
-0.0165089 0.463374 0.118832
-0.0140012 -0.232127 0.207169
-0.0159483 -0.155655 0.277211
-0.0191304 -0.361362 0.0216546
-0.00829498 -0.215365 0.119174
-0.013982 -0.204937 0.307258
-0.0529335 0.0588399 0.249897
-0.0222535 -0.138746 0.424351
-0.0453325 0.0797991 0.162737
-0.0023838 -0.158362 0.251511
-0.0118334 -0.154966 0.134705
-0.0491285 0.0537814 0.244417
0.0101361 -0.202705 0.328319
-0.00306957 0.431533 0.0539079
-0.0155296 0.0404422 0.245906
0.00866075 -0.158023 0.301078
0.010324 -0.142003 0.149547
0.0011545 0.375509 0.299596
-0.0159483 -0.143906 0.245087
-0.0239498 0.315167 0.19886
0.00330927 -0.385647 0.311674
-0.0168597 0.157914 0.225129
0.0130399 0.0848625 0.221182
-0.00453442 0.141239 0.162682
-0.0507969 0.0835033 0.252556
-0.00594036 -0.40357 0.326639
-0.00319516 0.201853 0.111075
-0.0159483 -0.372132 0.342005
0.0105668 0.344148 0.336797
0.0115845 0.442713 0.0717219
-0.0174188 0.121207 0.41931
0.0431189 0.235742 0.205632
-0.0159483 -0.462247 0.161471
-0.00937172 -0.124419 0.529394
-0.0159483 -0.140668 0.146798
0.0130013 0.184501 0.262342
0.0144918 -0.286135 0.191088
-0.0453325 0.0934617 0.208704
-0.0311717 -0.296564 0.181289
0.0128108 -0.285916 0.210218
-0.00434783 -0.0268352 0.35725
0.0134048 0.147021 0.213229
-0.000328867 -0.224817 0.347065
-0.0102638 -0.343215 0.0417906
-0.0105193 0.0765077 0.36194
-0.000149036 -0.462023 0.263472
0.018552 0.300225 0.154858
0.0111784 0.444577 0.0769316
-0.0494414 0.227435 0.220896
-0.0114476 -0.203602 0.0672273
-0.0628787 0.0691097 0.218843
-0.00934628 0.308809 0.0289321
0.0101361 -0.193921 0.319868
0.0145264 0.167983 0.255957
-0.0928031 -0.125461 0.551765
0.0111784 0.463261 0.130292
0.019115 0.0805724 0.213855
0.00492025 0.0897123 0.342847
-0.0155296 0.0485208 0.258367
-0.00186581 -0.295065 0.00285662
-0.00958534 -0.162982 0.0611203
0.00800376 0.453088 0.0825691
0.00398343 -0.478351 0.166203
-0.0491285 0.0863723 0.204907
0.00129136 -0.154891 0.230536
0.0450917 0.0607416 0.215374
-0.0352409 0.167 0.257245
0.00912073 0.331914 0.311224
0.0129161 -0.272848 0.195448
-0.00209764 0.442994 0.119958
-0.0160378 0.181746 0.410115
-0.0239498 0.305535 0.161681
0.000866244 -0.40923 0.328576
0.0347465 -0.104932 0.49118
0.106562 0.0583629 0.133969
0.128248 -0.115177 0.556599
0.00430066 0.163923 0.151958
0.0101361 -0.303831 0.354566
0.00972356 0.0284012 0.279114
0.0111784 0.445877 0.223021
0.0124375 0.0513544 0.229903
-0.000339027 -0.141277 0.0980496
0.0111364 -0.14111 0.143902
-0.000897247 -0.0627445 0.457127
0.00623218 0.188342 0.0550439
-0.0541229 0.0737183 0.194409
-0.00112544 -0.360034 0.320737
0.00937065 -0.352472 0.195938
0.00149202 0.462305 0.244249
-0.0137424 -0.0200867 0.422668
-0.0511696 0.232089 0.184251
0.00177745 -0.119858 0.527065
-0.0529198 0.0444352 0.186018
-0.0972102 -0.130451 0.565405
-0.0258751 0.295857 0.152736
0.00217719 0.312047 0.311517
6.09658e-05 -0.0870596 0.469783
-0.019506 -0.18334 0.308384
0.0486646 -0.155228 0.44015
0.0144918 -0.305043 0.194675
-0.0724711 -0.238152 0.268404
-0.0166728 0.363502 0.0242723
0.0658239 -0.274549 0.246144
0.0113744 0.199882 0.0686652
-0.0239498 0.279791 0.177446
-0.082284 -0.267341 0.254425
0.0781597 -0.287331 0.213949
-0.0281426 0.100094 0.281126
-0.00338004 0.367644 0.332308
-0.0272405 0.290401 0.154741
-0.00558075 -0.204931 0.0609729
0.0239016 0.00833563 0.252331
-0.00735759 -0.382844 0.277617
-0.0136876 -0.473052 0.167644
0.00133389 -0.38639 0.0264199
-0.0157631 0.142006 0.153837
-0.0491285 0.0326995 0.192344
0.00221012 -0.182014 0.288365
0.000916137 0.391145 0.0220169
0.00194095 -0.224273 0.0174433
0.0121492 -0.315997 0.18476
-0.00411053 -0.434669 0.115749
-0.000225171 -0.318049 0.0388801
-0.0111668 -0.470315 0.222087
-0.0171192 0.202406 0.296553
0.0143282 0.165881 0.0894231
0.0137151 0.322571 0.00750603
-0.0239498 0.308473 0.144439
0.000222989 0.37596 0.0654878
-0.0283283 0.090704 0.212202
0.00138723 -0.0625499 0.358327
0.0101361 -0.452525 0.114265
0.000839446 -0.43136 0.308127
-0.0567339 0.0930536 0.200733
0.0111784 0.299118 0.337257
0.0565572 0.280474 0.170269
-0.0135122 -0.419291 0.0945717
-0.0583911 0.258382 0.170316
0.00121416 0.284521 0.341323
-0.016752 0.0926477 0.433407
-0.0349871 -0.102504 0.4926
-0.00274087 -0.218392 0.317935
-0.00448028 0.47233 0.217093
-0.00825201 -0.230389 0.0956144
-0.012268 0.439889 0.272435
-0.00800811 0.434633 0.241349
0.012868 0.0298036 0.261455
-0.00232228 -0.363416 0.0623572
0.0326223 0.198073 0.24027
-0.101525 0.0663772 0.277444
-0.0377407 0.310838 0.167548
-0.0232999 0.103255 0.278864
-0.0163224 -0.352339 0.0141074
0.0902645 -0.12526 0.559834
-0.00286174 -0.158761 0.13033
0.066928 -0.239233 0.31162
0.00323796 -0.0635253 0.456573
-0.0132948 0.444888 0.109721
0.00402112 0.388433 0.21793
0.0884652 0.0811079 0.140927
0.0673554 -0.204966 0.336394
-0.0196009 0.1529 0.409591
-0.0816602 -0.280112 0.189879
0.00927535 -0.44394 0.142547
-0.0581245 0.286721 0.168541
-0.0132948 0.387269 0.300659
0.00962731 0.428111 0.0891944
0.0223107 -0.11477 0.488836
0.0676692 -0.215554 0.312177
0.0731388 -0.218234 0.322727
-0.000263361 0.0426074 0.374031
-0.0154495 -0.473244 0.146788
-0.056732 0.0759057 0.201499
0.00857264 -0.351153 0.180723
0.0113613 -0.155626 0.262805
-0.0159361 -0.469009 0.132388
-0.00164736 0.448747 0.203465
0.00973489 -0.0884679 0.449702
-0.0529198 0.0606127 0.230489
-0.00862957 -0.178712 0.277048
0.0142461 -0.271542 0.193598
-0.00355294 0.409579 0.249099
0.0101361 -0.147185 0.248115
0.0111784 0.195981 0.0680697
0.0101361 -0.404189 0.0616833
-0.00768265 -0.444928 0.179282
0.0204907 0.301979 0.17002
-0.0856262 -0.296 0.197404
-0.0182963 -0.17536 0.0545481
0.0104218 0.453706 0.185047
0.0101361 -0.151941 0.0871918
-0.0205859 -0.295985 0.200971
0.00428444 0.223136 0.137304
-0.00116951 0.327203 0.308844
-0.0132948 0.276417 0.318707
0.0134387 0.291431 0.324612
-0.0567321 0.123644 0.189893
0.0101361 -0.154844 0.267207
-0.00579811 -0.234867 0.299981
0.0130399 0.0513604 0.259595
-0.0132023 0.302916 0.0243854
-0.0115989 0.143085 0.137295
-0.0300442 0.281122 0.140098
0.0105122 0.443267 0.0709118
-0.0101015 0.473673 0.191488
-0.00423083 0.185462 0.241476
-0.0809925 -0.297634 0.199971
-0.00784059 0.341881 0.0354672
-0.0089225 0.369449 0.217016
0.00921141 0.172133 0.27487
-0.00757786 0.405383 0.186198
-0.0159483 -0.145846 0.243645
0.0594492 -0.22635 0.318717
0.0135072 -0.432122 0.28702
0.0101361 -0.137211 0.207014
0.0124025 0.161532 0.211728
-0.0023537 0.204703 0.0727625
0.00366078 0.373663 0.329496
0.0304404 0.147349 0.252104
-0.0159483 -0.2413 0.348636
-0.0253152 0.318232 0.148844
-0.0490966 0.114457 0.204047
0.0179078 0.304029 0.167423
0.0304491 -0.130825 0.463537
-0.0239498 0.293986 0.159619
0.0552428 -0.194183 0.35252
0.0101361 -0.450101 0.242956
-0.000152284 0.445973 0.171517
0.0143638 -0.298398 0.181542
-0.0106567 -0.414299 0.324403
-0.0159483 -0.140755 0.110875
-0.00695935 0.470547 0.223733
0.0196817 0.341504 0.197704
-0.0104883 0.277661 0.313489
0.0150994 -0.269747 0.236733
0.0170498 -0.251498 0.211103
0.00486647 -0.121729 0.467034
-0.000110995 0.283756 0.0284995
-0.0132948 0.452899 0.137208
-0.0159483 -0.336244 0.344818
0.0137309 -0.158451 0.0803893
0.0644252 -0.308725 0.18253
-0.0202592 -0.309986 0.357837
0.0124677 -0.465557 0.238206
-0.0159483 -0.381186 0.321358
-0.00116624 0.365716 0.298111
-0.0143173 0.343571 0.0263289
-0.0124764 -0.427212 0.30725
-0.0155296 0.0307057 0.245108
-0.00737167 -0.152436 0.225447
-0.0201066 -0.199099 0.325716
0.00820286 0.322462 0.312461
-0.0350253 0.162246 0.408042
-0.00674189 -0.177055 0.0476031
0.0132737 -0.420543 0.071441
-0.0198442 0.0685436 0.218922
-0.0132948 0.185668 0.0728578
-0.0336982 0.157464 0.248687
-0.00762517 -0.342257 0.0426827
-0.0255104 -0.131516 0.430384
-3.30666e-05 -0.126233 0.465108
-0.0553691 0.0343947 0.185812
0.00174662 0.167387 0.208015
-0.0531136 0.0606493 0.212282
0.0863299 -0.116832 0.555316
0.0258386 0.0513827 0.231179
0.007839 -0.2821 0.131992
-0.0510193 0.0572189 0.242838
-0.00718193 0.0476174 0.269068
0.0122768 -0.255046 0.357669
-0.000526717 -0.411566 0.0819841
0.0054229 -0.381407 0.156525
0.0445919 0.240288 0.181798
-0.141682 0.0662262 0.27172
-0.0719338 -0.287972 0.214391
-0.0191113 -0.419623 0.0744566
0.00572079 0.0957197 0.364738
-0.0159483 -0.161878 0.262124
0.0098914 0.0568189 0.2142
-0.0498085 0.120229 0.183298
-0.0106509 0.171426 0.21138
0.006393 -0.404421 0.292941
0.0139794 0.180876 0.277012
0.0135954 0.456192 0.213852
-0.020083 -0.187811 0.0538824
-0.00856797 -0.326447 0.296459
-0.0120289 -0.353769 0.136639
0.0139643 -0.338977 0.0183889
-0.00273513 -0.334439 0.334373
-0.0378645 -0.117288 0.529578
-0.0171895 0.110376 0.278557
0.00369631 -0.357359 0.11938
0.00660184 0.392979 0.172098
-0.0716018 -0.312409 0.178398
0.00737936 0.462493 0.231703
-0.0310075 0.113409 0.270057
0.0199816 0.0680644 0.236044
0.0111784 0.14583 0.156594
0.146102 -0.123669 0.560008
-0.0886503 -0.277037 0.217863
-0.0170899 0.144291 0.170444
0.000332582 -0.132775 0.481822
-0.0549726 -0.157829 0.408968
0.00347449 0.40483 0.22631
-0.0171649 0.465857 0.14665
0.00733034 -0.18639 0.28783
-0.0529335 0.0835528 0.213804
0.00604942 -0.143032 0.200819
0.0101361 -0.343393 0.35181
-0.0581421 0.300864 0.182882
-0.00862495 -0.241378 0.286797
0.0236066 0.16199 0.432724
-0.0132948 0.16784 0.110357
-0.0108683 0.186143 0.424493
0.00064945 -0.0895715 0.438021
-0.000297155 0.386329 0.0521845
-0.0459302 0.172288 0.207652
0.00805668 -0.429501 0.0612882
-0.0144367 0.158187 0.156561
0.00261018 0.132881 0.260076
-0.0134584 0.159986 0.180908
0.0101361 -0.318913 0.0306016
0.00622091 -0.400727 0.299259
-0.0125604 -0.115151 0.167944
0.0119472 0.451114 0.259102
0.00257489 -0.269259 0.0753314
0.019469 0.12862 0.210415
-0.000787818 -0.161794 0.244947
-0.0501185 0.0430065 0.16955
0.00131176 -0.19551 0.122163
0.0238151 0.110404 0.27156
-0.0374391 0.131467 0.272426
-0.0105039 -0.416132 0.0474259
0.0097798 -0.386911 0.0318791
-0.0132948 0.163826 0.194346
-0.0672282 -0.25361 0.262174
-0.000527451 0.219464 0.0305448
-0.000964629 -0.337569 0.041052
0.0230673 0.146246 0.210342
-0.0673119 -0.23345 0.30351
0.00611126 0.0688589 0.231329
0.00592129 0.15763 0.246007
-0.0140343 0.31586 0.127383
-0.0132948 0.420834 0.289452
0.0195548 0.0977912 0.215343
-0.0491285 0.119887 0.193585
-0.0276841 0.00709605 0.24196
0.00692963 0.145184 0.22556
-0.059883 0.251076 0.189703
-0.0159483 -0.423525 0.0949372
-0.0125462 0.27855 0.217359
-0.013848 -0.271969 0.360688
-0.068322 0.071827 0.196785
0.0122634 -0.130534 0.246855
-0.00325037 -0.303017 0.334018
0.0075905 -0.280566 0.119052
-0.0314369 0.31357 0.169457
0.00373043 0.138072 0.272698
0.0301574 0.120273 0.209252
0.00970905 0.199696 0.270681
0.0563697 0.255225 0.173959
-0.0200701 -0.439815 0.278147
-0.0159483 -0.202041 0.0580374
0.0011167 -0.433717 0.114064
-0.0132948 0.464185 0.205172
-0.133913 0.090016 0.264901
0.0565471 0.265367 0.180116
-0.0066182 -0.300425 0.182833
0.0101917 -0.342139 0.181305
-0.000289912 0.445973 0.156094
-0.018345 -0.203724 0.319108
0.0086516 0.43295 0.245719
0.026299 0.124126 0.200643
-0.0519701 0.0369835 0.201219
-0.0159483 -0.146319 0.272407
-0.0159483 -0.345063 0.348788
0.000491784 0.217328 0.0260253
-0.00176006 -0.162584 0.301317
-0.0120922 0.175018 0.110156
-0.0139087 -0.106569 0.466628
-0.00897245 -0.146636 0.174052
-0.0253152 0.32509 0.165574
-0.00115458 -0.427603 0.306703
0.0652483 -0.29542 0.207509
0.00724257 -0.200379 0.306162
-0.0132948 0.144122 0.173074
0.0805327 -0.224023 0.3212
0.00661951 0.149505 0.223688
-0.0342907 0.311936 0.102588
0.000675512 0.0151083 0.304038
0.0138071 -0.131361 0.229699
-0.0529198 0.0491534 0.178
-0.0167051 0.225695 0.0367312
-0.00607163 -0.16956 0.261985
-0.0060085 -0.202824 0.336577
0.0123026 -0.0433883 0.34992
-0.0170117 -0.433706 0.103248
-0.0258751 0.312736 0.179595
-0.000230893 -0.162216 0.0686965
-0.0132948 0.288576 0.00642647
-0.016156 -0.254943 0.199712
0.0123392 -0.434262 0.27357
0.0111784 0.281303 0.0104171
0.0097412 0.38639 0.0533172
0.0115848 0.294826 0.199451
-0.00381459 -0.147895 0.175179
0.0644168 0.0766916 0.141049
-0.00914747 -0.257917 0.363275
0.00763542 -0.082757 0.389185
0.00897355 0.428637 0.252374
0.0450996 -0.138028 0.444539
-0.00749125 -0.251539 0.362098
0.0323673 0.307155 0.166618
-0.0132948 0.275445 0.0274915
-0.0283283 0.0141078 0.252773
-0.00133192 -0.114697 0.523518
-0.0314369 0.317373 0.174086
0.0248532 0.0693667 0.22664
-0.0140811 -0.13782 0.272386
-0.0348543 -0.133807 0.457926
-0.00791097 -0.437895 0.0698429
-0.000107712 0.193563 0.261286
-0.0674447 -0.25242 0.267253
-0.00284189 0.136356 0.165319
0.0111784 0.190608 0.280101
-0.00604088 0.351059 0.0839247
-0.0919444 -0.109249 0.556165
-0.0491285 0.0425948 0.224684
0.0111784 0.162925 0.127184
-0.0253152 0.289806 0.15669
-0.0129243 -0.467184 0.233382
-0.014613 -0.446775 0.162039
-0.00664222 0.218691 0.318272
-0.0324209 0.164857 0.420741
0.0134094 -0.30078 0.016567
0.00209517 -0.000943666 0.424461
-0.0453325 0.0500813 0.24538
0.0367658 0.158744 0.211724
0.0478254 0.275381 0.18672
0.0121153 0.332456 0.165995
-0.0132948 0.355746 0.310058
0.0101361 -0.353184 0.352097
-0.0567339 0.0306286 0.222517
-0.00426209 0.220656 0.0618467
0.0127007 -0.424913 0.0638152
-0.066981 -0.122252 0.559311
-0.0132948 0.155382 0.118428
0.0142461 -0.239121 0.182078
-0.0152762 0.407168 0.0564275
0.0111784 0.449052 0.223888
-0.00165937 -0.303885 0.334101
-0.136116 -0.123299 0.556702
0.0100423 -0.00507964 0.321074
0.0122603 -0.294575 0.00779565
0.0120194 0.439302 0.244885
-0.0637624 0.28719 0.183262
-0.00771996 -0.261755 0.00620643
0.00277046 -0.448197 0.155837
-0.0222018 0.185333 0.421847
0.00709111 0.390144 0.0568954
-0.0183145 -0.410667 0.0686223
0.0138451 0.180901 0.277702
-0.083306 -0.224206 0.316612
-0.0137337 -0.036923 0.427625
0.00495842 -0.351872 0.358772
-0.010818 0.204812 0.0390048
0.00686784 0.141239 0.152134
-0.00802597 -0.296056 0.293726
0.0269492 0.00599036 0.246134
-0.0917802 -0.129201 0.566712
0.00552492 0.18053 0.111012
0.0101361 -0.39269 0.322482
-0.0188944 -0.31629 0.207141
-0.127462 -0.13582 0.563037
-0.0160171 -0.303604 0.13719
0.0106362 -0.130105 0.119392
-0.0151463 -0.352474 0.159587
0.00883534 0.197776 0.261165
0.00303423 0.440328 0.130695
-0.0159483 -0.438752 0.103213
-0.01138 -0.374894 0.0563315
-0.000672115 0.201079 0.0927389
0.0101361 -0.162649 0.260962
0.00261149 0.157433 0.245465
0.0204542 0.256099 0.161779
0.0389592 0.0773346 0.196809
-0.0159483 -0.440601 0.260639
-0.0207781 -0.308145 0.17656
0.00884216 0.166743 0.19893
-0.0132948 0.436307 0.267365
-0.0145 0.273078 0.180838
-0.0490966 0.086292 0.242357
-0.0187011 -0.258515 0.0121175
-0.01619 -0.305227 0.0276073
0.0204586 0.294414 0.131836
-0.0162193 0.308295 0.337335
0.00467492 0.300395 0.312211
0.0533188 0.253201 0.184648
-0.0109673 0.375821 0.327687
-0.0498853 0.307716 0.163527
0.0224409 0.304348 0.17616
0.0140201 0.414149 0.056438
-0.0996102 -0.124705 0.563996
0.0156152 -0.296475 0.23121
0.00498391 0.439649 0.217149
-0.0120358 -0.426807 0.312904
-0.00587845 0.209166 0.1946
-0.0114962 -0.264103 0.105464
0.00372152 -0.437303 0.0691257
0.0102271 -0.337484 0.338739
0.0714683 0.0560104 0.141679
-0.0453325 0.0881927 0.233623
0.0420117 0.181584 0.206159
0.0101361 -0.34105 0.338329
-0.00518596 -0.451004 0.178982
0.00169521 0.336873 0.0362079
-0.0567304 0.0873256 0.236718
-0.000875814 -0.145304 0.0831667
-0.0200033 -0.134354 0.236195
-0.00615806 0.0549276 0.254279
0.0101361 -0.33962 0.0238665
0.0113818 -0.107515 0.466516
-0.076158 -0.227827 0.329111
-0.00424927 0.417504 0.266248
-0.0126905 0.0161513 0.395894
-0.0144385 -0.0244552 0.324947
0.020949 0.165112 0.258115
0.0102191 -0.0614807 0.436602
-0.0142249 -0.446415 0.211222
-0.0253152 0.320967 0.182488
-0.017906 -0.265546 0.343712
0.0678175 0.0803863 0.131725
0.0135231 0.261083 0.318876
0.0101361 -0.37966 0.323903
-0.0195079 -0.230798 0.030887
0.0019702 0.391396 0.321209
0.0132447 0.331419 0.336376
-0.0154058 0.154996 0.166986
0.00622852 -0.343193 0.135095
0.020017 0.345441 0.13272
-0.0238778 0.0834662 0.256642
-0.0329396 0.291326 0.185272
-0.0323024 0.10658 0.283766
0.00575549 -0.276168 0.0355338
0.0191471 0.0806373 0.235565
0.00201925 0.203772 0.210177
0.00835931 0.255035 0.307223
-0.016964 0.37574 0.319698
-0.0567295 0.0733348 0.209336
0.0627793 -0.258295 0.238218
0.0204584 0.327415 0.132939
-0.0110221 -0.154214 0.0715183
0.0101506 -0.15082 0.290347
-0.0163882 0.279579 0.0179592
-0.0279183 0.0160754 0.244845
0.0178281 0.284753 0.209548
-0.00414855 -0.398308 0.294184
-0.0685432 -0.273408 0.233269
-0.0150697 0.0375625 0.254071
0.0192292 0.127869 0.438356
0.00377507 0.0843107 0.348266
0.0101361 -0.257129 0.0361362
-0.0132948 0.304312 0.0198859
0.0101361 -0.27455 0.0234526
-0.0132948 0.202358 0.0543582
0.000606435 -0.344468 0.325247
-0.0502444 0.0836189 0.252234
0.00509877 0.310276 0.168168
0.00463509 -0.188233 0.0447685
0.00232978 0.391179 0.0941055
-1.6697e-05 0.0916708 0.336993
-0.0392887 0.212119 0.219762
0.00536361 -0.227113 0.242522
0.00630339 -0.0294059 0.436883
-0.00425416 0.0819423 0.201318
0.0362017 0.203539 0.193414
0.0106261 0.186811 0.426685
-0.0159483 -0.157069 0.0773043
0.0146565 0.147998 0.153702
0.0204569 0.28053 0.204763
-0.0171449 0.0077805 0.242829
0.00685186 0.292295 0.0896286
-0.0159483 -0.364789 0.0441345
-0.0338622 -0.301051 0.189862
-0.0377407 0.302573 0.175912
0.00510734 -0.133525 0.44281
0.0107133 -0.174075 0.0542008
-0.0111451 -0.0883231 0.447258
0.0101361 -0.444333 0.0917669
0.0132816 -0.217942 0.333541
0.0594006 -0.217083 0.319749
0.0111784 0.427523 0.265803
0.00681044 -0.325658 0.257733
-0.0172956 0.465561 0.2025
-0.00787515 -0.122815 0.465249
-0.039624 0.0596606 0.210831
0.00854671 -0.315051 0.230463
-0.00539154 -0.451031 0.175592
0.0109529 -0.266261 0.00890153
-0.017055 0.463389 0.205489
0.0242787 0.17981 0.248021
-0.0172591 0.318714 0.18589
0.0142461 -0.347757 0.210015
-0.0129896 0.391636 0.0243088
0.0644168 0.073144 0.134883
0.00190866 0.419521 0.202972
0.0128349 0.152887 0.107874
-0.0122237 -0.443598 0.0818441
0.00816288 0.432685 0.0980099
-0.0176738 -0.438694 0.108917
0.0024807 0.0506646 0.257852
-0.0685001 -0.294254 0.193787
-0.00696256 0.0709122 0.323339
0.00679316 0.18993 0.0872421
0.0204542 0.318777 0.167573
-0.0148403 0.458888 0.172909
-0.0158414 0.331279 0.16174
-0.0159483 -0.412276 0.296917
-0.0110372 -0.340962 0.333049
0.00641399 -0.363835 0.0456785
0.00384061 0.0498811 0.258051
-0.00663997 -0.44219 0.295427
0.0156542 0.175824 0.402617
-0.0384683 -0.300797 0.183234
-0.0530915 0.222853 0.196489
-0.0167027 -0.330268 0.186422
-0.000233755 0.176626 0.2335
-0.00712365 0.384283 0.0546205
-0.0132948 0.158792 0.158585
-0.0490966 0.0715899 0.206682
0.0129235 -0.138031 0.23399
-0.0698419 -0.296546 0.187338
-0.0129218 -0.255963 0.130687
-0.0529335 0.123866 0.194432
0.0045918 0.261694 0.0109592
0.0200048 0.289427 0.179053
-0.00171436 -0.164753 0.264988
0.0101361 -0.172524 0.0815834
-0.0461656 0.174242 0.197627
0.0125348 -0.0275721 0.331819
-0.11939 0.067179 0.266297
-0.0133197 -0.00065517 0.406105
-0.0506259 0.0837307 0.154504
-0.0132948 0.165273 0.109931
-0.0141057 -0.154046 0.123855
-0.0398647 0.156456 0.192956
-0.0193016 0.0798362 0.258161
-0.0529335 0.0821589 0.200207
-0.0331235 -0.134541 0.468303
-0.014729 0.239576 0.306299
0.00847784 -0.215635 0.052084
-0.00784738 0.447117 0.133814
-0.0144546 -0.187724 0.077406
-0.139552 0.079909 0.269926
0.0100235 -0.451554 0.216495
-0.0132778 0.0198042 0.395187
-0.0158133 -0.16551 0.0614812
0.0107959 0.177524 0.280389
0.0124244 0.0577903 0.221545
-0.0337081 0.309845 0.15836
-0.0490966 0.0287966 0.212231
-0.00229754 0.428062 0.124976
0.000777969 -0.12021 0.199663
-0.0150964 -0.0601218 0.376659
0.0803471 -0.235655 0.300266
-0.00248316 -0.377903 0.348605
-0.00131955 0.284044 0.00206286
0.01271 0.294537 0.323168
0.146102 -0.121158 0.565331
0.0107244 -0.10786 0.47089
0.0959538 -0.135022 0.561485
-0.00135813 0.186674 0.286313
0.0111784 0.399349 0.292259
0.0102839 0.0640476 0.241205
-0.00808542 0.308277 0.31686
0.0142686 0.0560188 0.267229
-0.0258751 0.316649 0.192601
-0.0208093 -0.292883 0.177831
-0.018474 -0.273935 0.346618
0.00962821 -0.11481 0.476995
-0.00514533 0.149679 0.410482
0.00868941 0.343677 0.114821
-0.0552346 0.0676171 0.2184
0.0111784 0.455961 0.23844
-0.0363798 0.310126 0.172898
0.0514315 0.306093 0.178986
-0.00655291 -0.111201 0.521118
-0.0272405 0.321802 0.156733
0.0016316 0.0703618 0.251083
-0.000796633 -0.235297 0.0740321
0.0138225 -0.120075 0.517835
-0.00792728 -0.123444 0.438824
0.0258386 0.0729376 0.240573
-0.0300442 0.31377 0.106766
-0.0546705 0.0816883 0.207983
-0.0532572 0.0526408 0.197956
-0.07538 -0.253614 0.237877
-0.0159483 -0.171549 0.0623531
-0.0796632 -0.294369 0.19473
-0.0154877 -0.336042 0.166023
0.0127587 0.322142 0.157711
0.00222885 0.154059 0.409143
0.00630275 -0.0104159 0.294781
-0.0419822 -0.122158 0.468898
-0.0760739 -0.275964 0.19644
-0.0399313 0.205317 0.222259
-0.0283219 0.0666789 0.241163
0.00596276 -0.199354 0.0655636
-0.00292104 -0.440173 0.128191
-0.0475267 0.115913 0.246081
0.00226161 0.306373 0.316836
-0.0253152 0.279631 0.17169
-0.0285896 0.137971 0.425273
0.0363204 0.144518 0.253494
-0.00878062 -0.282955 0.0714807
0.0111784 0.222475 0.0376689
-0.0844269 -0.263592 0.258402
-0.0128893 -0.448599 0.195328
0.0132424 0.467146 0.217777
0.0516515 0.231398 0.17453
-0.00607676 0.449512 0.142733
0.0205723 0.16432 0.249901
0.0111784 0.264942 0.0226805
-0.0239498 0.299875 0.203512
0.0593026 -0.275332 0.231372
-0.0643905 0.0784747 0.195981
0.000365564 0.282614 0.00218887
0.0136879 0.380415 0.308773
0.002523 -0.392998 0.34005
-0.0106043 0.224748 0.290405
-0.0329613 -0.123339 0.470923
0.0025535 -0.30159 0.00291902
-0.00514277 -0.232457 0.325708
-0.0272498 0.0628881 0.265252
-0.0163693 -0.275743 0.221654
0.00849707 -0.0715957 0.376075
-0.0160473 0.0967589 0.207663
-0.0155444 0.339667 0.17572
0.00613111 -0.412749 0.325053
-0.0200717 -0.462186 0.133713
-0.00714408 -0.426019 0.308924
-0.000667644 -0.288775 0.332647
0.0111784 0.209125 0.306009
0.010409 -0.331874 0.192654
0.00216308 0.403928 0.0354401
-0.0453325 0.0571519 0.169411
0.00865033 -0.444761 0.290069
0.0130679 -0.1346 0.22632
-0.0196074 -0.128789 0.186406
-0.0919115 0.0736591 0.268745
-0.0114372 -0.208821 0.309281
-0.0122757 0.27677 0.217059
-0.00863466 -0.393546 0.138393
-0.0131013 -0.45922 0.103569
0.00909786 -0.403768 0.29542
0.0100991 -0.232277 0.0174562
-0.0105032 -0.0515537 0.446917
-0.0554626 -0.149083 0.432744
-0.0151994 0.329298 0.199453
0.029536 -0.120324 0.491802
0.00654921 -0.187602 0.0396991
-0.0161337 -0.387427 0.0557848
-0.000287831 -0.245086 0.0460137
-0.0337137 0.154377 0.263938
-0.0871143 0.0722689 0.253275
0.00838951 -0.419267 0.273716
-0.0551214 -0.301975 0.18543
-0.00709693 0.430058 0.094474
0.0111784 0.146203 0.171922
-0.0528235 0.0593327 0.186673
0.0105207 0.0148643 0.294197
0.0144666 0.149402 0.149595
-0.00706302 0.378703 0.327141
0.00347579 0.306668 0.00303388
0.00949704 0.3243 0.124767
0.00600961 -0.235068 0.145089
-0.0169358 0.196403 0.0582746
0.0800559 -0.219471 0.329606
0.0143145 -0.284351 0.169679
-0.0453325 0.123484 0.213965
-0.12304 -0.113524 0.559096
0.076512 0.0493561 0.142434
-0.00894836 -0.155117 0.123587
0.0041497 -0.413236 0.278802
-0.0159483 -0.197269 0.0642693
0.0170498 -0.251271 0.170461
-0.0149635 -0.135266 0.439422
0.0204542 0.284272 0.172467
0.0130399 0.063414 0.262118
0.0101361 -0.46171 0.204018
-0.0156 0.407642 0.305191
0.0118767 0.397346 0.0296769
0.00825028 0.0692671 0.212078
0.00736763 0.0541885 0.392356
-0.00979462 -0.120393 0.201986
0.06265 -0.258436 0.271581
-0.0300214 0.287988 0.172649
0.00364954 0.251636 0.00957718
-0.00663648 -0.472765 0.163999
0.0116635 -0.433672 0.27144
-0.00599752 0.47689 0.197244
0.0101197 0.454765 0.0867542
0.00975848 -0.320015 0.0294508
0.0066501 -0.152939 0.232211
-0.012663 -0.300434 0.182846
-0.0040314 0.331282 0.00209897
0.0111784 0.35852 0.0134164
-0.0179439 -0.271323 0.213263
0.0107361 -0.117576 0.463104
-0.0554732 0.315602 0.166554
0.0170498 -0.338075 0.145773
0.00590809 0.271848 0.242805
0.0554345 0.27388 0.185263
-0.0377407 0.315501 0.167494
-0.0174523 -0.302618 0.0246166
0.00566394 -0.159202 0.435279
-0.137826 0.0907701 0.274473
0.0178281 0.279629 0.185578
0.00799968 0.31628 0.313456
0.00191325 0.313876 0.296206
-0.00335839 0.177202 0.202332
-0.00581198 0.129312 0.277323
-0.00662574 -0.145571 0.154618
-0.02207 0.295699 0.167908
0.00548261 -0.221205 0.1598
0.065222 -0.215677 0.344335
0.0103778 0.301036 0.132035
-0.00711267 0.409717 0.160387
0.0689758 -0.28015 0.237212
0.00125836 -0.120216 0.432112
-0.0202438 -0.408036 0.317107
0.0170498 -0.252008 0.19645
0.0111784 0.396177 0.0475279
-0.00771466 -0.142434 0.0880318
0.0202762 0.100981 0.222922
-0.00673698 0.0420168 0.268935
0.00281967 0.464467 0.117065
0.0258511 0.108525 0.288139
0.0125935 0.31943 0.153646
-0.0168611 0.327697 0.164524
-0.00996297 0.258179 0.215553
0.031283 -0.125259 0.501117
0.00436807 -0.117862 0.479208
-0.00545723 0.406122 0.270352
0.0137262 0.462097 0.157259
0.0107838 -0.196355 0.333719
0.00781915 -0.453704 0.102396
-0.0283283 0.0881196 0.238244
0.0100859 -0.407307 0.291827
0.097477 0.0773422 0.14334
-0.00884307 0.283737 0.242367
-0.0239498 0.295881 0.141138
0.00153993 -0.191836 0.298306
-0.0363798 0.302127 0.162053
-0.000457156 0.102542 0.424988
-0.0171121 0.193203 0.0559767
-0.0572075 -0.161329 0.403857
-0.0695464 -0.216854 0.340861
0.0123764 -0.110601 0.436628
0.0118387 -0.00294696 0.313283
-0.0511503 0.0885314 0.218375
-0.0144909 -0.11589 0.20204
0.00539231 -0.441153 0.0742136
-0.0104813 -0.333462 0.0918224
-0.0196256 -0.287247 0.170601
-0.0135 -0.00655126 0.410325
-0.00213363 0.064326 0.317086
0.0178427 0.111894 0.286332
0.000265616 -0.16161 0.259423
0.00578091 -0.300204 0.00328866
-0.0128882 -0.000759668 0.289786
0.0064944 -0.46325 0.111145
-0.0490966 0.0578042 0.161133
-0.0165036 0.1014 0.280191
0.0522489 0.247094 0.190199
-0.0491285 0.0618827 0.200543
-0.00546255 0.0207659 0.386195
0.0110854 -0.456339 0.10427
-0.0492753 0.0403311 0.223621
0.0101361 -0.151806 0.115822
-0.00181424 0.445973 0.172563
-0.031837 0.294507 0.153412
0.0204542 0.316476 0.218653
0.0111784 0.218522 0.0570723
0.00635215 -0.257676 0.116168
0.0101361 -0.374897 0.0332485
0.0536817 -0.122491 0.538362
0.0130025 -0.319606 0.358958
-0.0203164 -0.133044 0.132281
0.0114346 0.278289 0.158753
0.0122531 0.142925 0.205039
0.0955811 -0.13615 0.559437
-0.0886741 -0.291651 0.192825
-0.00824782 -0.153303 0.12845
0.0101361 -0.182012 0.310972
0.0786156 -0.27058 0.221947
0.0182108 0.28968 0.120594
0.00503887 -0.423639 0.102708
0.00824502 0.075059 0.380662
-0.0190113 0.0801874 0.215103
0.0462435 -0.171954 0.416942
-0.0132948 0.469358 0.19715
-0.0159483 -0.426625 0.300131
-0.0529198 0.0622239 0.160112
-0.00228893 -0.404742 0.0376835
0.007777 -0.147191 0.447577
0.00549248 -0.348637 0.257634
-0.0320245 0.0990583 0.279569
0.00493185 0.366026 0.0103145
0.0142461 -0.295523 0.190962
0.0017875 0.204536 0.243925
0.010969 -0.19669 0.060043
-0.0170195 0.149636 0.194087
-0.00561906 -0.138746 0.469315
-0.0086337 0.303181 0.0815984
-0.0148538 0.0156854 0.277398
0.00613935 -0.369991 0.316978
0.0208849 -0.123377 0.528143
-0.01389 -0.240728 0.221852
-0.0555746 0.129172 0.201756
-0.0762741 -0.205714 0.33298
-0.0567294 0.0708739 0.238586
-0.0159483 -0.285401 0.0217928
-0.0129756 -0.125998 0.23759
0.00159245 0.175142 0.13022
0.00735976 -0.447244 0.222135
-0.00413151 -0.157398 0.434366
0.0407543 0.17446 0.252489
-0.000663441 0.439927 0.138772
0.00417972 -0.353619 0.261619
-0.0549364 0.0481059 0.250261
0.0101361 -0.134582 0.138904
0.00122376 -0.115951 0.208897
-0.0140794 -0.343685 0.214646
-0.0412569 0.296763 0.150344
-0.00519986 -0.247533 0.0590667
-0.0159483 -0.131205 0.22355
-0.0530468 0.239166 0.208571
-0.0491285 0.0422493 0.216586
-0.00871708 -0.138401 0.424071
-0.00773432 -0.436555 0.119087
-0.12432 0.0720587 0.271116
-0.0170222 0.0949894 0.207639
-0.0159483 -0.347437 0.0311058
0.0178281 0.263513 0.202358
-0.0338565 0.159715 0.249585
-0.00666491 -0.322083 0.337232
-0.018455 -0.410923 0.30214
-0.000226909 0.170265 0.143617
-0.0239498 0.299247 0.193113
-0.0153217 0.287019 0.171194
-0.0134409 -0.472804 0.164494
0.000462211 0.177035 0.283083
-0.013052 0.339917 0.196986
-0.012345 0.180017 0.404467
-0.0529335 0.11595 0.237531
0.0457261 -0.133607 0.458226
0.00523219 -0.284956 0.339226
-0.0308816 0.288138 0.144611
0.0184281 0.0958817 0.28414
-0.0415548 0.304884 0.173522
-0.00620507 -0.164588 0.105659
0.00497291 0.113559 0.382762
0.0020852 0.416887 0.172378
0.00738645 0.00467138 0.312706
0.00131132 -0.123133 0.43969
0.00683921 0.146798 0.127094
-0.00549592 -0.267913 0.00962003
-0.0189922 -0.409077 0.049429
-0.0859844 -0.275862 0.203533
-0.00218297 0.266103 0.00571155
-0.00979726 -0.116494 0.500033
-0.0567339 0.118964 0.187902
0.00587555 0.270321 0.0918044
0.0128377 -0.120489 0.479246
-0.0308816 0.28247 0.141019
0.0129743 0.30831 0.149823
-0.0197188 -0.29308 0.0165242
-0.00595128 -0.142845 0.461074
-0.0155296 0.0265776 0.240031
-0.00834429 0.412775 0.0405474
-0.0120835 0.137644 0.163166
0.0111784 0.174571 0.117295
0.0206454 -0.160524 0.435896
0.0131278 -0.340702 0.0233754
0.010003 -0.346352 0.335046
0.00261468 -0.238843 0.264746
0.0144432 0.317494 0.154832
-0.0197734 -0.397891 0.0494355
0.0565511 0.270425 0.181239
0.000273972 0.1103 0.366548
-0.0239498 0.315864 0.185572
-0.000677369 0.367371 0.0399471
-0.00753906 0.0626301 0.365253
-0.0239498 0.302072 0.139562
0.0101361 -0.310793 0.0181114
-0.0531026 0.236406 0.220442
-0.0187103 -0.455976 0.145911
-0.0529198 0.0682633 0.245768
0.0138459 -0.46356 0.223298
-0.0777318 -0.246599 0.294563
-0.0756213 -0.261678 0.266628
0.0808901 0.0490325 0.132141
-0.00827075 0.256649 0.307649
0.0791976 -0.260309 0.242456
-0.0344522 -0.131979 0.460315
0.0142461 -0.283708 0.187815
0.00145594 0.342688 0.339273
0.0142461 -0.341889 0.18944
-0.0154971 0.319459 0.0196281
-0.0065754 -0.47859 0.167642
-0.0124274 0.064189 0.379603
-0.026664 0.103978 0.290662
0.0850044 -0.124603 0.557733
0.00385892 0.138164 0.27265
0.0142461 -0.326578 0.149837
0.0104149 -0.28387 0.21583
-0.0108254 -0.366962 0.228698
0.0106089 -0.453726 0.15794
0.0111784 0.334181 0.332499
-0.00577384 -0.452397 0.0901354
-0.0132948 0.419182 0.0550104
-0.0529335 0.0958003 0.19491
-0.00400372 0.270019 0.0376257
-0.0255321 0.00540464 0.247078
-0.0576099 -0.197565 0.361322
-0.0491285 0.0428104 0.237711
0.0642702 -0.258053 0.275111
-0.0951975 -0.119152 0.550168
0.0135139 -0.112057 0.497459
0.0719344 0.0560963 0.142769
-0.0704667 -0.190847 0.371743
-0.00348599 0.216054 0.316428
0.0142461 -0.304283 0.213462
0.00709676 0.333896 0.0965775
-0.0116972 0.392665 0.286318
-0.018837 -0.144784 0.275103
-0.0555666 0.246757 0.186408
-0.00413823 -0.0389428 0.416736
0.00561719 -0.161293 0.116866
-0.0754532 -0.302498 0.191014
-0.0152553 -0.153827 0.0744458
-0.00972314 0.0634792 0.366806
-0.0120441 -0.290311 0.0308527
-0.0159483 -0.456777 0.136853
-0.0566857 0.0627728 0.152662
0.00747053 -0.33588 0.142463
-0.0132948 0.293323 0.32
-0.00162093 -0.458497 0.269599
-0.00594832 -0.435153 0.132879
-0.0132948 0.142516 0.142523
0.0101361 -0.447808 0.111615
-0.0293461 0.315415 0.0970399
-0.0188926 -0.376261 0.328571
-0.0491285 0.121161 0.178766
0.000924243 -0.295848 0.0577926
-0.00449515 -0.386104 0.311298
0.0111784 0.274102 0.328559
-0.0507732 0.0830173 0.189548
0.00871748 -0.163524 0.302275
-0.0818639 0.0703441 0.19968
-0.0096634 0.33785 0.111153
-0.0170896 0.177002 0.263539
-0.00951529 -0.0434083 0.338367
-0.0786356 -0.315811 0.18343
0.00566692 -0.129166 0.126568
-0.0529198 0.0567009 0.230769
-0.0199499 -0.41123 0.310852
0.0061818 0.156121 0.101487
0.0103988 -0.0430453 0.438132
-0.031079 -0.120746 0.476908
0.00833118 -0.450426 0.160709
-0.00819228 0.216085 0.192927
0.0135814 0.326476 0.191121
-0.0190169 -0.153094 0.265661
0.0142461 -0.338286 0.183336
-0.01748 -0.38054 0.0480654
0.00990152 0.450119 0.263575
0.000919176 0.381063 0.326038
-0.0159483 -0.448501 0.150292
0.00621937 -0.220109 0.318946
-0.0453325 0.0327836 0.218107
-0.0817677 -0.209807 0.319973
0.00723504 0.365088 0.204663
0.0101361 -0.172664 0.060674
0.013684 -0.28448 0.176326
-0.0598432 -0.195862 0.374678
-0.00606053 -0.291826 0.189109
-0.0113081 -0.437354 0.238877
0.0120764 -0.0554573 0.379823
-0.0155125 0.278192 0.021597
0.00696449 -0.237841 0.323807
-0.028943 0.135524 0.423166
-0.00170268 0.126323 0.420707
0.0146744 0.169362 0.0890343
0.0101361 -0.297223 0.357382
0.0129271 0.154783 0.176923
0.00571533 -0.0295682 0.413931
-0.0260478 0.0691122 0.226667
0.0101361 -0.155154 0.265783
0.0111784 0.283319 0.0269541
-0.0159483 -0.384505 0.0364744
0.00307555 -0.122299 0.226207
-0.00250913 0.253289 0.0372702
-0.0159483 -0.125558 0.168092
0.00308698 -0.0730363 0.461587
0.00956903 0.112814 0.444703
0.0101412 -0.188758 0.0690967
-0.0541833 0.206517 0.233288
0.00730565 0.283592 0.00710044
-0.00326658 -0.0991981 0.405204
0.0123269 0.449402 0.118449
-0.0144555 -0.0264486 0.327652
0.0111784 0.183008 0.0615426
-0.00725005 0.00460631 0.420539
-0.0272728 0.0691869 0.194453
0.0492504 -0.194913 0.369615
0.142199 -0.117614 0.566527
0.0136925 -0.313629 0.0152259
0.0142461 -0.251378 0.184603
-0.00465066 0.0564165 0.301817
0.00358092 -0.23464 0.119457
0.100416 0.0488574 0.132155
0.0355584 -0.150229 0.435925
-0.0300214 0.310491 0.174063
0.0111784 0.450031 0.0988492
0.0209641 0.0718094 0.260373
0.0118415 -0.274898 0.213898
0.0697547 -0.21829 0.312145
0.00479385 -0.401389 0.0388891
0.0106976 -0.0674742 0.450037
0.0058474 0.249948 0.10009
-0.0159483 -0.175667 0.0646464
0.0142461 -0.339516 0.219872
-0.00011715 0.182309 0.0981081
-0.0145757 -0.246922 0.041664
-0.0144808 0.290661 0.00463741
0.0152656 0.305372 0.173594
-0.0858016 -0.233488 0.310458
0.00134517 0.0667527 0.294652
0.0357094 0.0822663 0.205148
0.00442222 0.008738 0.310366
0.0204542 0.314999 0.157264
0.00349842 -0.285771 0.280347
-0.0999884 -0.111807 0.567107
-0.0261277 0.32242 0.149374
-0.0142033 -0.116678 0.490125
-0.00630602 -0.295584 0.00705921
-0.00270958 -0.470987 0.141416
-0.00999837 0.162938 0.163306
-0.0491285 0.034886 0.200776
0.0595706 -0.243904 0.27512
0.0111784 0.460656 0.107211
0.00496177 -0.0722176 0.460393
-0.0186835 -0.271981 0.165261
-0.0168934 -0.294597 0.344349
-0.00565188 -0.129117 0.487773
0.0101361 -0.132293 0.198097
0.0468717 -0.18623 0.386746
-0.0127081 0.477391 0.172677
-0.103755 0.0782747 0.272689
-0.0529335 0.0588991 0.173953
-0.0145083 -0.132641 0.114036
-0.0159133 -0.264078 0.141017
-0.0529335 0.0641825 0.158726
0.0803204 -0.248446 0.275063
0.0016618 0.366121 0.268216
-0.00188575 -0.131675 0.106264
0.00280071 -0.261409 0.275348
0.00767615 -0.471548 0.148537
0.0253459 0.0985313 0.229633
0.011013 -0.0840301 0.456645
-0.0166923 0.274605 0.0175574
-0.0689817 -0.222047 0.303961
-0.0491285 0.04706 0.247587
-0.0159862 -0.449547 0.222779
-0.0480905 -0.130792 0.460813
-0.0154872 0.165764 0.114729
0.011395 0.00132449 0.409519
-0.015252 0.321749 0.140492
-0.00743775 -0.361836 0.0952882
-0.0490966 0.0698193 0.166969
0.0111784 0.252282 0.0328703
0.00875471 -0.0418328 0.440711
0.0492204 -0.148429 0.4457
0.00245272 -0.197768 0.338336
0.0124637 -0.456727 0.220068
0.00446061 0.288967 0.0699243
-0.0101195 -0.441653 0.287006
0.0111839 -0.119064 0.462686
-0.048689 0.189176 0.204586
0.0145155 0.092021 0.434613
0.00180447 0.345944 0.0560477
-0.0342907 0.288833 0.126537
-0.01582 -0.29009 0.129855
0.00418788 0.239243 0.250552
-0.0300442 0.317731 0.106656
0.0101361 -0.2168 0.336752
-0.0123596 0.377406 0.326278
-0.103755 0.0911288 0.275112
0.00623995 0.0539822 0.288159
0.0124908 -0.276267 0.162239
-0.042086 0.156692 0.201524
0.020016 0.309142 0.19753
-0.0491285 0.0995665 0.206951
-0.0159483 -0.162057 0.0735411
-0.00424573 0.377164 0.32786
-0.0733241 -0.298151 0.181484
-0.0239498 0.279773 0.192053
-0.0832098 -0.283875 0.184096
-0.0132948 0.158326 0.222661
0.0593961 0.0744323 0.16434
-0.0478726 0.178825 0.189436
-0.0122852 -0.176879 0.277587
-0.0112654 0.164687 0.0788316
0.0112584 -0.0649921 0.445169
-0.0670672 -0.249003 0.266905
-0.0543453 0.0677413 0.257876
-0.0183957 -0.12951 0.498416
0.0126386 -0.138912 0.446577
-0.0191992 -0.374444 0.0271525
0.0105499 -0.119001 0.525829
0.0178281 0.313244 0.126747
-0.00730473 0.22258 0.192611
-0.00197152 -0.4548 0.0943879
0.00158414 -0.199275 0.0724687
0.0144918 -0.303891 0.177921
0.0246852 0.181027 0.246972
-0.0530967 -0.152031 0.418899
0.0707284 -0.215271 0.336401
-0.0201571 -0.281024 0.196179
-0.00664834 -0.317622 0.366412
0.0917028 -0.115717 0.570443
-0.0307179 -0.134658 0.426436
-0.0323154 0.317303 0.166907
0.0111784 0.392185 0.0387655
0.037601 -0.145913 0.43361
0.0111784 0.28947 0.0249011
-0.0453325 0.0610597 0.16241
-0.0171513 0.147734 0.18057
-0.0344773 0.306649 0.172047
-0.0442692 -0.124848 0.465797
-0.0134959 0.169957 0.116811
-0.0581165 0.281355 0.169432
-0.0202396 -0.147706 0.269814
0.0101361 -0.195917 0.0418084
-0.040823 0.212778 0.218552
-0.0358701 0.296774 0.166888
-0.018313 -0.380075 0.0455214
0.00963063 0.254355 0.0101023
-0.0453325 0.123252 0.224275
0.00872582 -0.132134 0.109278
-0.00377565 0.0870798 0.351443
0.0129326 -0.465473 0.136076
-0.00349856 0.0726686 0.219001
-0.00788889 0.163438 0.185797
0.0502246 0.221761 0.216573
-0.0174568 -0.198687 0.334738
0.0697622 -0.298786 0.188397
-0.00723291 0.227376 0.0203325
0.0111784 0.38503 0.0438291
-0.0163112 -0.15953 0.107015
-0.0184549 -0.149424 0.25554
0.0178281 0.292408 0.166373
-0.0167769 -0.137642 0.102027
-0.0132948 0.147465 0.141627
-0.0491285 0.0507451 0.202497
0.00326216 -0.199642 0.231934
0.0430744 -0.126024 0.477926
0.0598441 -0.226999 0.319471
0.0121629 -0.157723 0.295633
-0.00597973 -0.114435 0.475326
0.0534052 -0.157957 0.42548
-0.0491285 0.0786296 0.205931
0.0204542 0.317569 0.156935
-0.0134058 -0.368636 0.0523112
-0.0159483 -0.408257 0.0783059
0.0117202 0.310551 0.142237
-0.0966136 0.0831422 0.256564
0.00574113 0.273996 0.0308371
0.0231743 -0.11973 0.501565
7.71921e-05 -0.108458 0.467456
-0.0491285 0.0353575 0.233582
0.0360294 0.160034 0.245344
0.00212609 0.124482 0.418242
0.0667472 0.0498983 0.13738
-0.00756756 -0.253427 0.0433198
-0.0105674 -0.428279 0.265651
-0.0535522 0.20115 0.230527
0.0747583 -0.253427 0.244687
0.0586311 -0.291216 0.19682
0.00854424 0.190013 0.048358
0.0109878 0.154818 0.40892
-0.057784 -0.299583 0.191279
-0.0140043 0.419987 0.0462213
0.0278261 0.150534 0.410228
-0.00868184 0.0165933 0.298701
-0.00689931 -0.38621 0.279705
0.00720622 0.208038 0.310348
0.0102518 -0.310808 0.343451
0.0144834 0.345498 0.013417
-0.0132948 0.434613 0.276403
-0.00984979 0.369603 0.0409894
-0.00549896 0.0861043 0.343645
-0.0116589 0.320532 0.10809
-0.0159483 -0.144705 0.228306
0.0111784 0.244087 0.320636
0.0101361 -0.257384 0.348287
0.0021378 0.298275 0.0272208
-0.0155296 0.0584278 0.23527
0.00623411 0.171413 0.121052
-0.0155842 -0.340926 0.163268
0.00746667 0.00239006 0.419231
0.015198 0.166701 0.405269
0.0069306 -0.337176 0.357626
0.00137759 0.454894 0.0907574
0.0796218 -0.269193 0.228934
0.0795827 -0.300389 0.18049
-0.0108042 -0.120411 0.158134
-0.0314369 0.297321 0.155058
-0.00140218 -0.0495087 0.341607
0.0101361 -0.27617 0.0174105
0.0130399 0.0886562 0.289566
-0.104219 0.0908305 0.264437
0.00315685 0.0975014 0.346643
-0.012403 -0.237304 0.353021
0.0255561 0.0568051 0.253051
-0.00212353 -0.267159 0.00529765
0.00830614 -0.305766 0.250163
-0.0155296 0.081851 0.224202
-0.0148 -0.116843 0.446526
-0.0168399 0.463418 0.142517
0.00314195 -0.379578 0.0549412
-0.0453325 0.0732032 0.15994
-0.0149478 0.0399053 0.252195
-0.0848908 0.0703755 0.19872
-0.0567335 0.113837 0.201151
0.0619451 0.0717072 0.156104
-0.0190878 -0.255564 0.34539
0.0101361 -0.217057 0.341834
-0.0132948 0.423908 0.0527582
0.0105613 -0.326874 0.208818
0.00981146 0.23413 0.324662
0.0130399 0.0630946 0.256962
0.0101361 -0.340623 0.351446
5.85896e-05 0.355278 0.308673
-0.139552 0.098295 0.268641
0.0291161 0.162824 0.191223
-0.00491573 0.415898 0.258316
-0.0320437 0.15564 0.419566
0.00444151 0.060976 0.198852
-0.0344773 0.313565 0.158602
0.00455436 -0.0271233 0.314856
-0.0529335 0.0965815 0.24462
-0.00915108 0.217719 0.311792
0.0396413 0.170692 0.208813
-0.0096911 0.473673 0.157144
0.0770861 -0.230648 0.303342
0.0158872 0.0583951 0.210256
-0.0132948 0.195482 0.0627918
0.010456 -0.269474 0.221298
0.0512559 -0.173742 0.384349
-0.0132684 0.270458 0.336613
-0.00253024 0.322168 0.00129599
-0.00998743 0.132788 0.275488
-0.0567329 0.087737 0.252172
0.0491148 0.303993 0.175836
-0.00923251 0.322869 0.255442
0.0737022 -0.266896 0.259887
-0.00164503 0.400873 0.0283217
-0.0123885 -0.167937 0.265036
0.00468849 0.416722 0.303941
-0.0400208 0.1373 0.261528
-0.0159483 -0.435955 0.107065
-0.0491285 0.12755 0.209816
-0.0150917 -0.360395 0.32809
0.00690576 0.31567 0.0271353
0.0137839 -0.29222 0.171126
-0.00575191 -0.315975 0.00902356
-0.00222769 0.382074 0.0472767
-0.00283261 -0.420596 0.277542
0.048839 0.216861 0.186653
-0.0159483 -0.396992 0.057131
-0.0140951 0.320947 0.00401452
0.0110363 0.197053 0.0726235
0.0109315 -0.0953946 0.46308
-0.0174095 0.0708077 0.261939
0.0111784 0.295579 0.0268668
-0.000887326 0.043082 0.277692
0.00588804 -0.0884363 0.433869
-0.0161055 0.444268 0.100306
-0.00794085 0.178358 0.237222
0.00136175 -0.395146 0.121392
0.00802905 -0.350365 0.194357
-0.0563714 0.250061 0.18353
0.0145875 0.386871 0.313841
-0.0838471 -0.113692 0.562498
-0.0132948 0.42056 0.294813
0.0204542 0.34729 0.152928
-0.00703338 0.47022 0.118392
0.0119273 0.342968 0.192196
0.000140144 -0.368648 0.282229
-0.0203615 -0.316976 0.356435
0.00978283 -0.12448 0.447652
0.00408392 0.446389 0.0786529
-0.00137388 -0.430738 0.261482
0.0349927 -0.12237 0.536891
0.0609212 -0.268532 0.249507
0.00572238 0.293406 0.337973
-0.0167955 0.268258 0.0186665
0.0136416 -0.233063 0.0236811
0.00998841 -0.252946 0.157833
-0.0529335 0.033125 0.188283
-0.0355815 -0.297834 0.191996
0.0488792 0.253991 0.180476
-0.0300214 0.310502 0.153203
-0.0149455 0.276181 0.336657
-0.00519483 0.200145 0.169351
-0.143666 0.0871724 0.276239
0.00564877 -0.238572 0.232274
0.00817795 0.289898 0.315521
-0.00434204 -0.418187 0.262934
-0.00937075 0.310041 0.168014
-0.0104114 -0.401172 0.0386812
-0.0358985 0.128361 0.277732
-0.0132948 0.442247 0.239678
-0.0150983 -0.121017 0.468638
0.0495668 0.232124 0.221717
0.00486993 -0.12616 0.468969
0.00371767 0.473673 0.169686
-0.00855264 -0.297509 0.286745
-0.00102891 -0.155498 0.175598
-0.0332078 0.160905 0.417297
-0.00751676 0.305746 0.313494
-0.0491285 0.0783801 0.219085
-0.0112019 0.189064 0.289161
-0.00355508 0.438777 0.232452
-0.0105512 0.36176 0.211264
0.0124812 0.462109 0.10733
0.0105512 -0.267215 0.155071
-0.0134687 -0.313305 0.245633
-0.00793737 -0.378417 0.316086
0.0316057 0.124321 0.27965
-0.0128378 -0.0491383 0.351557
-0.0123873 -0.356012 0.2216
0.0995372 -0.114704 0.563877
0.0111784 0.391171 0.291539
-0.0871805 -0.219083 0.331373
0.00638767 0.27177 0.242964
-0.0192118 -0.449158 0.250825
0.0101361 -0.250325 0.355953
-0.0453325 0.0728246 0.174931
0.0965525 0.0556846 0.137545
0.00700754 -0.307335 0.260851
-0.0132948 0.222967 0.0525279
-0.0135268 -0.100628 0.48727
-0.0081513 -0.140234 0.268831
0.0217993 0.119393 0.433713
0.0110575 0.348382 0.314101
-0.00157605 -0.435328 0.0734277
0.0122496 0.00180849 0.305388
-0.0168184 -0.34179 0.199623
-0.0154046 -0.430642 0.265737
-0.0159483 -0.344005 0.0292556
0.0127087 -0.455276 0.262867
-0.0188033 -0.300799 0.361832
0.00853889 0.168588 0.203589
-0.0132948 0.15765 0.235205
-0.0132948 0.168422 0.129451
0.00606431 -0.0847612 0.389613
0.0134278 0.143353 0.196788
-0.0309787 0.100314 0.286803
-0.0310823 0.165958 0.424166
-0.00497455 -0.426625 0.227993
-0.00743752 -0.073969 0.415749
0.00433939 -0.332713 0.010636
-0.00392876 -0.178411 0.0464866
-0.0193783 -0.311366 0.163689
-0.00691034 0.41839 0.0865676
-0.0283283 0.0634505 0.249402
-0.0109767 -0.148494 0.439609
0.0108405 0.0162593 0.398208
-0.0132948 0.336737 0.0130097
0.0144154 0.464024 0.216737
-0.0121266 0.324461 0.34071
0.00974074 0.0485279 0.378401
-0.0468819 0.0231764 0.215404
0.00999517 0.017943 0.291736
-0.0453325 0.0904622 0.250971
-0.00296472 0.147949 0.219415
-0.0567339 0.0796425 0.163615
0.0115247 0.282906 0.319346
-0.0511354 0.0699902 0.252337
0.000495818 0.304801 0.0314914
0.0101361 -0.395319 0.0643051
0.0170498 -0.284432 0.131833
0.0142461 -0.294788 0.177215
0.012398 -0.394684 0.037485
0.0068192 -0.0203199 0.308163
0.00555032 0.107256 0.368988
0.0194972 0.266944 0.135667
-0.0292568 0.323111 0.177865
-0.0159483 -0.229697 0.0274768
0.0111784 0.412588 0.0638096
-0.0155677 0.155465 0.157187
-0.00439506 -0.121925 0.464266
-0.0159483 -0.184971 0.316364
0.0116574 0.2645 0.176877
-0.0316322 0.179503 0.40854
-0.0132948 0.142634 0.152185
-0.0925321 0.0858936 0.250424
-0.0315556 0.159469 0.20011
-0.0159074 0.305404 0.146595
0.00586464 0.388289 0.286864
0.0101361 -0.38671 0.32265
0.00149922 -0.193097 0.233145
0.0103658 -0.347979 0.0348051
-0.00925892 -0.27216 0.285138
0.0113125 0.367589 0.329409
-0.00776317 0.225537 0.290956
-0.0493659 0.0810703 0.151462
-0.00825762 0.167152 0.175824
-0.00486392 0.275961 0.313035
0.0467684 0.211277 0.198925
0.0170498 -0.348363 0.193662
-0.00436823 -0.296124 0.333115
-0.00850548 -0.253312 0.0783484
0.0104051 0.163412 0.0847567
0.00682178 0.388755 0.0519485
-0.0165928 -0.1812 0.322381
-0.0828 -0.232584 0.278633
0.0253335 -0.11673 0.503566
