0.0341194 0.218619 0.464301
-0.0432793 -0.399013 0.266073
-0.00363883 0.375814 0.0715402
-0.0102248 0.116706 0.386832
0.0067393 0.477027 0.187998
-0.0268638 0.260593 0.155845
-0.00689531 0.324396 0.281825
0.00115037 0.139554 0.122839
-0.0240913 0.171197 0.175738
0.0185272 0.171624 0.176402
0.00197552 0.0351321 0.205644
-0.00341819 -0.315233 0.00125021
0.00157582 -0.194502 0.0551639
0.00238198 -0.275278 0.0596438
-0.0172199 0.189617 0.479506
-0.119654 0.0108242 0.260493
0.0170727 0.0629003 0.144749
-0.0246377 0.0680801 0.193084
-0.00277893 -0.270213 0.227785
0.00179754 0.16035 0.364552
0.0680933 0.0733366 0.122564
-0.114189 0.0479283 0.22816
0.00183344 0.462643 0.250406
-0.0207843 -0.133341 0.442929
0.00381668 0.235906 0.279123
0.00468298 0.475126 0.147328
0.00458647 0.20972 0.139761
0.000403317 -0.178759 0.283488
0.0461801 0.065732 0.0819958
-0.115977 0.0483528 0.274456
0.0056129 0.14261 0.199338
-0.0483494 -0.439994 0.278115
-0.00410202 -0.181844 0.492757
0.00237673 0.170401 0.24438
0.0127694 -0.201508 0.102337
0.0551347 0.104881 0.0896658
-0.0373108 -0.385159 0.156302
0.000328142 -0.277982 0.188632
-0.0554113 0.193989 0.462887
-0.0106103 -0.100081 0.377109
0.00821107 0.276185 0.145626
-0.0500053 0.0630843 0.156975
-0.00681731 0.186216 0.0511168
-0.0757543 0.0429753 0.215898
-0.0316702 -0.228533 0.515774
-0.0406377 -0.451269 0.226872
-0.0105348 0.352395 0.155601
-0.0298725 -0.383162 0.269436
0.0199279 -0.166134 0.118775
0.0191265 0.227853 0.182319
0.00475249 0.201507 0.286023
0.00124481 -0.270248 0.0051122
-0.0559013 -0.298856 0.18761
-0.00257911 -0.176143 0.409566
0.00939365 0.346929 0.103724
-0.0175114 -0.061287 0.356896
1.80751e-05 0.310242 0.181586
-0.00247597 -0.22642 0.375771
-0.008524 0.153112 0.0937021
0.00643274 -0.156499 0.185233
-0.00899965 0.140913 0.237411
-0.0037545 0.153411 0.393134
-0.0451812 -0.450748 0.0861528
-0.00730113 0.248288 0.325919
-0.0341988 -0.269404 0.241361
-0.00670888 0.101186 0.246035
-0.028952 0.237715 0.204497
0.00957168 0.382662 0.328261
-0.0126584 0.251183 0.183416
-0.00818504 0.247528 0.0403435
-0.00130657 -0.127919 0.447437
-0.0393397 0.3049 0.192588
0.0107126 0.328851 0.330196
-0.0045141 -0.069305 0.420033
-0.00427052 0.351237 0.0121909
-0.0331971 -0.313125 0.318259
-0.0547244 0.0431906 0.185903
0.00961691 -0.231036 0.520519
-0.00823445 0.352529 0.185407
0.125033 -0.197868 0.556677
-0.0210699 -0.171007 0.4372
0.0230491 0.164547 0.479349
-0.0395558 -0.460707 0.159534
-0.00820424 0.17061 0.169071
-0.0353171 0.264119 0.263726
0.00805694 0.287668 0.0921145
-0.0936972 -0.20296 0.531665
-0.0308714 -0.3976 0.309381
-0.0286003 -0.397998 0.218686
0.0242944 0.136391 0.458237
0.00530892 0.057897 0.39815
0.00887021 0.428075 0.100833
-0.00941502 0.262204 0.247915
0.00140074 0.446117 0.279484
-0.0514108 -0.467388 0.227537
0.00177102 0.17 0.215137
-0.00167612 -0.200353 0.14941
0.00613427 0.113613 0.380442
-0.00828816 -0.0409185 0.437156
-0.0253118 -0.235003 0.295497
-0.00179271 0.217027 0.0632879
-0.0137177 0.10426 0.292069
0.0176378 -0.2268 0.0472433
-0.035749 0.0690148 0.220941
-0.0144369 -0.401077 0.0449965
-0.00572759 -0.253343 0.321653
-0.00220569 0.165921 0.336235
-0.0106376 -0.313084 0.172877
-0.00874502 0.189668 0.172514
0.00215289 0.193456 0.312251
-0.018364 0.0404653 0.169807
0.000822034 0.396312 0.0309446
0.0101442 0.471351 0.213453
0.0130587 -0.16496 0.254286
-0.163022 -0.0701031 0.528318
-0.016313 0.0324596 0.400791
-0.0104168 -0.212033 0.413727
0.00133137 -0.180667 0.0955983
0.00884564 0.394976 0.211254
-0.0151474 -0.244398 0.179591
-0.0365089 -0.417263 0.075621
-0.135841 0.0145927 0.262486
-0.00846154 -0.264103 0.0183602
-0.030097 -0.366547 0.0289064
-0.0253896 -0.258231 0.323109
0.0421433 0.0823559 0.121651
-0.0123524 -0.23491 0.215054
-0.0060071 0.398927 0.305688
-0.00434472 0.452739 0.170038
0.142071 -0.135687 0.555825
-0.050981 -0.450563 0.122028
0.00189101 -0.0407466 0.345401
-0.00419325 0.142981 0.479046
-0.0372077 0.212761 0.309923
0.0640309 -0.235221 0.54236
0.00118325 -0.202613 0.274551
-0.0322701 -0.319033 0.18557
-0.157323 -0.106513 0.532197
0.011961 0.0712347 0.181268
-0.0189501 0.158343 0.462407
0.0118131 0.316546 0.0232502
-0.0368872 -0.399056 0.0466407
0.0130364 0.426756 0.0775446
0.0257284 0.228076 0.31455
-0.0121327 0.30539 0.333116
-0.0244863 0.107027 0.462106
-0.0247384 0.102412 0.170907
0.0289245 0.066118 0.0771727
-0.0226213 -0.190489 0.458414
0.00831068 0.382124 0.117614
-0.0327396 -0.318547 0.341844
-0.0124114 -0.104276 0.425063
-0.00959799 -0.112914 0.405729
-0.0237052 -0.284435 0.242334
-0.00297884 0.430552 0.236478
-0.0353019 -0.389117 0.119082
-0.0165525 -0.0113403 0.302936
0.0111635 0.463306 0.120083
-0.0438218 -0.3531 0.321245
-0.01549 -0.208305 0.303467
-0.00366975 0.257609 0.0107344
-0.00382305 0.0396158 0.237508
-0.0124114 -0.00559658 0.428665
0.0113155 0.124659 0.180018
-0.0111657 0.246665 0.132055
-0.0344638 -0.339169 0.266561
0.00972803 -0.234728 0.302769
-0.0115868 0.28914 0.134508
0.0415142 0.186756 0.478431
0.00101894 0.0768765 0.227371
-0.00838184 -0.148743 0.419168
0.00451438 0.113481 0.317707
-0.00922326 0.324069 0.0132611
-0.0883634 0.0529567 0.273879
-0.0362894 0.0144337 0.165536
0.00656592 0.19536 0.479632
0.00533077 0.132835 0.362536
-0.0104375 -0.253768 0.107791
0.00891941 -0.165579 0.170403
-0.0136429 0.215309 0.309966
0.0053939 0.276765 0.0232474
-0.0138024 0.18633 0.0787753
-0.0234741 -0.294944 0.154723
-0.0356005 -0.205074 0.5115
-0.0401801 0.219506 0.462303
-0.0166874 0.0746072 0.165201
-0.0119652 -0.341309 0.197538
0.00830135 0.176565 0.270945
-0.051236 -0.290061 0.200149
0.143895 -0.142806 0.541903
-0.0159538 0.0485334 0.409122
-0.0504642 -0.455741 0.207158
-0.142359 -0.16596 0.53905
0.0177406 -0.159106 0.221931
-0.00896694 0.455383 0.219804
-0.01339 -0.361203 0.00843797
-0.00361409 0.155173 0.454274
0.0114235 0.0431183 0.169114
0.0201265 -0.302852 0.196821
-0.0290523 -0.350226 0.115589
-0.035113 0.0715325 0.132734
-0.00444456 0.141873 0.419275
0.00922298 0.447284 0.147922
-0.00106728 -0.157789 0.448848
-0.0172855 -0.30207 0.302867
-0.00178977 -0.249566 0.0422699
-0.0252538 0.319683 0.175125
0.0119029 0.28814 0.195669
-0.138319 0.0452553 0.231486
0.0172572 0.204743 0.182267
-0.0958008 0.0232651 0.267731
-0.0240287 -0.439733 0.0938674
0.00657183 0.144357 0.157766
0.00541109 0.400774 0.0562264
0.0113417 0.335429 0.134578
0.012273 0.0957714 0.46383
-0.007439 0.347393 0.258332
0.0220118 -0.146073 0.142979
-0.0461117 -0.374729 0.314354
-0.0541833 0.0712261 0.190481
0.0360571 0.274122 0.24226
-0.00777717 -0.173496 0.249503
0.000719441 0.0250392 0.262998
-0.00310618 -0.220146 0.0416923
-0.0462511 -0.445325 0.183832
-0.0352882 -0.472016 0.151103
-0.0374509 -0.452258 0.250864
-0.0109148 0.370915 0.318758
0.00123926 0.08282 0.400251
0.00678233 0.17717 0.0955001
-0.0185596 -0.23028 0.352039
0.0141776 0.460132 0.191354
-0.0302171 0.274057 0.178354
0.0136225 0.311205 0.16336
0.00246778 -0.0205131 0.317994
0.00233831 -0.31976 0.0202546
-0.0524134 -0.473858 0.157796
-0.0280326 -0.284563 0.316977
0.0092142 -0.142122 0.206334
-0.012533 -0.273948 0.301825
0.0199469 0.0641604 0.17937
-0.00697718 0.269221 0.348094
0.00492323 0.191272 0.0661603
-0.00910883 0.0819065 0.478217
0.0896859 0.104691 0.0947202
0.00101347 0.33716 0.0379579
-0.0135589 0.139905 0.201343
-0.0118097 0.278996 0.175543
-0.00675118 0.421388 0.287565
-0.0102505 -0.20445 0.365667
-0.0154095 0.00759658 0.268724
-0.0108408 0.149112 0.14241
0.0722318 0.0784371 0.0886043
0.0895324 0.0696527 0.110294
-0.00137402 -0.293941 0.140701
-0.0155148 -0.343608 0.0222266
0.00751852 0.355197 0.318652
-0.0130607 0.322118 0.18808
0.0452556 0.308476 0.172456
-0.00874618 0.448681 0.124541
-0.0267056 0.151812 0.181923
0.00942278 -0.276837 0.0256839
0.0201706 0.25708 0.176108
-0.0119422 0.267534 0.0290264
-0.0305196 -0.412331 0.287416
-0.0150506 0.045987 0.206084
-0.0462419 0.171185 0.47746
-0.0106073 0.165154 0.123801
0.00611012 0.224175 0.475166
-0.0124908 0.137497 0.368593
-0.0121996 -0.230003 0.324635
-0.0364791 0.0519145 0.159822
0.00888362 0.355353 0.219037
0.0207842 -0.146884 0.192344
0.0176094 0.0789894 0.125948
-0.00615451 -0.312547 0.189091
-0.0347301 -0.357982 0.145694
-0.0142606 0.166329 0.258445
-0.00668756 0.434101 0.0719086
-0.148539 0.0537039 0.274986
-0.00954082 -0.221542 0.52629
-0.0353115 0.0959558 0.217157
-0.0155637 -0.0762865 0.382619
-0.0025147 -0.188586 0.202097
-0.0108653 -0.295435 0.0168328
-0.0059294 0.376389 0.0472895
-0.00442204 -0.177025 0.468707
-0.0393659 -0.381946 0.184561
0.0139106 0.450196 0.234679
0.027869 0.100481 0.0917083
-0.00630464 0.207282 0.0344118
-0.0388004 -0.420143 0.261093
-0.0354109 -0.251785 0.265981
0.0472846 0.194893 0.460245
-0.0250043 -0.223905 0.503408
-0.0158415 0.00720375 0.406443
-0.0563369 -0.443627 0.240136
-0.00474765 -0.201928 0.439425
0.00715724 0.151185 0.225123
-0.0421604 -0.304908 0.16803
0.00599947 0.321602 0.349859
-0.00475569 -0.314189 0.111797
0.00597524 0.225825 0.116247
-0.0210958 -0.275088 0.175848
-0.0928933 0.0369912 0.236137
-0.0363475 0.0449259 0.2192
-0.0029543 -0.305322 0.068775
-0.0047655 -0.21312 0.395063
-0.000707345 0.150796 0.261962
-0.0348508 -0.333199 0.212206
0.0763412 -0.216812 0.54912
-0.0130906 -0.304961 0.326548
-0.00154322 0.1849 0.350733
-0.0366046 -0.376806 0.328377
-0.0275362 -0.452679 0.117815
-0.0219298 -0.18682 0.500973
-0.00377373 0.272693 0.32408
-0.0363201 -0.348386 0.185132
-0.0193466 -0.184408 0.423179
0.00611736 -0.154433 0.113202
-0.034144 -0.439608 0.243322
0.00787892 -0.236138 0.348663
-0.00297727 0.412628 0.0655674
-0.0316521 -0.380756 0.0318296
-0.0336559 -0.457608 0.203388
-0.0116083 0.025559 0.224565
-0.0207858 -0.333229 0.0084911
-0.0764381 0.0589107 0.197716
-0.0445349 0.197792 0.47918
-0.0050023 0.45191 0.198473
0.0118427 -0.157803 0.0959077
-0.0135648 0.201464 0.300623
-0.0304763 -0.3147 0.29028
0.0259043 0.303717 0.185921
-0.0271063 -0.355165 0.310528
-0.0183012 -0.25093 0.241971
-0.0115785 0.145052 0.350864
0.00471632 0.316496 0.304322
-0.0422611 -0.277931 0.21848
0.00310568 0.436961 0.259369
-0.0295626 -0.369991 0.0979573
0.0108451 -0.261598 0.252185
-0.000619087 0.0557742 0.195014
0.007403 0.249628 0.337791
0.0101237 0.255805 0.0324124
0.00728111 -0.235794 0.0922504
0.00498321 -0.176471 0.140286
0.0228775 -0.18598 0.0846353
-0.0172678 -0.0532624 0.4204
-0.00895389 -0.314078 0.206812
-0.0367204 -0.335183 0.324277
-0.0149443 0.157313 0.235698
-0.0116851 0.314591 0.168061
-0.0202867 -0.423101 0.0542849
-0.000250524 0.15582 0.177878
0.0213229 -0.190679 0.0620099
-0.0165182 0.178788 0.457636
-0.0261346 0.0523288 0.180307
-0.0105229 0.187723 0.272001
0.0078521 0.28764 0.251223
-0.0028163 0.118267 0.351025
0.127115 -0.174631 0.546296
-0.00250376 0.358994 0.0445049
0.0126238 -0.169982 0.205857
-0.0119717 0.294186 0.195973
0.0547011 0.0875053 0.081836
0.00655173 -0.187933 0.25628
-0.135823 0.0341133 0.271135
-0.0272304 -0.329237 0.132715
-0.00802194 -0.369809 0.0332742
0.0798432 0.0631325 0.079277
-0.0237081 -0.215325 0.381424
-0.0115608 0.250736 0.225337
-0.0607371 -0.204912 0.509152
0.0164933 -0.288899 0.21552
-0.0073824 0.333579 0.324968
0.0235084 -0.177063 0.0974958
-0.00605405 0.306358 0.0321782
0.0097111 0.440294 0.118691
-0.0855344 -0.20256 0.514448
-0.00507252 0.435964 0.0898728
-0.0142797 0.114746 0.313679
-0.0456687 -0.387626 0.295158
0.000489749 -0.256355 0.201376
-0.00675848 0.174377 0.479373
0.00846463 0.21608 0.3112
-0.00425735 0.370179 0.338721
0.0227666 -0.15806 0.171451
0.00624528 0.151654 0.108868
0.0100151 -0.249065 0.311648
0.000750731 -0.157378 0.15081
-0.00469428 0.225889 0.0432186
0.007697 0.333404 0.00965591
0.0131029 0.424242 0.280144
-0.114965 -0.200821 0.533539
-0.0169608 0.0680104 0.397172
-0.0358 0.0918761 0.160694
-0.00871982 0.3369 0.117211
-0.0290451 0.205704 0.172696
0.0113202 0.33954 0.200354
0.00554011 0.243929 0.314235
0.00321991 0.226199 0.301677
-0.050855 0.166128 0.462753
0.011874 0.424301 0.0631901
-0.017486 -0.109451 0.445621
0.00817556 0.153248 0.13369
-0.00572431 -0.328502 0.170414
-0.00276964 -0.347519 0.0225286
-0.0172194 -0.154923 0.402921
-0.0323347 -0.246349 0.300271
-0.0186501 0.131911 0.478874
-0.00892754 0.213327 0.47978
-0.0356539 0.0503969 0.201709
-0.0136278 0.231824 0.315502
0.0275858 0.206905 0.315416
0.00481478 -0.253822 0.296257
0.0105371 0.123864 0.47822
0.00894324 0.450888 0.208413
-0.0339511 -0.340092 0.161819
-0.0218978 -0.346585 0.316651
0.00726997 0.316427 0.264074
-0.114244 0.0276389 0.259452
0.00996388 -0.177723 0.230101
-0.0174058 -0.0405593 0.345825
-0.145305 -0.128964 0.533058
-0.023046 -0.196151 0.419151
0.0150686 -0.201829 0.0418135
0.0126461 0.146648 0.172943
-0.0102118 0.110244 0.366895
-0.0195791 -0.133592 0.405257
0.0113215 0.384505 0.0356644
-0.0017405 -0.0920649 0.392327
0.000532881 0.0694355 0.207349
-0.00796084 0.45826 0.139202
0.012204 -0.184048 0.159816
-0.00738291 -0.222173 0.157014
-0.0105651 -0.126354 0.427433
-0.0412084 0.298684 0.213639
-0.00160239 0.0992071 0.394965
0.00360562 0.135263 0.388075
0.00643891 0.185852 0.29773
0.00615331 -0.313939 0.175155
-0.0314622 -0.400033 0.0732113
0.00727195 0.311021 0.00731113
-0.0350491 0.074221 0.152319
0.0132705 0.32186 0.181516
-0.0273954 0.124689 0.179853
-0.0378787 0.0798325 0.182735
0.0100902 0.369658 0.157586
-0.146216 -0.0583562 0.529721
-0.00944072 0.289793 0.107529
0.0327694 -0.219349 0.520083
-0.00580186 -0.0592754 0.372365
0.0025355 0.402799 0.322285
-0.148546 -0.120904 0.546477
-0.00247978 0.0646291 0.408332
0.00301708 0.0873421 0.251676
-0.0112018 0.274027 0.158751
-0.022161 -0.303602 0.17767
0.107727 -0.21092 0.565014
0.0237666 0.142647 0.476196
-0.00971721 -0.243125 0.304964
-0.0376183 -0.464853 0.217564
-0.0606632 0.0673927 0.174221
-0.0211401 -0.26934 0.268328
0.00234999 -0.0479743 0.421715
-0.0177801 -0.327671 0.321839
-0.0206831 -0.280121 0.153475
-0.0128845 -0.0614633 0.440388
0.0178573 0.0816761 0.0819577
0.00782903 0.381073 0.306741
-0.0135391 0.0931579 0.26437
-0.0292531 0.212916 0.204346
0.000786984 -0.295133 0.166588
-0.00361183 0.114386 0.282829
0.0332626 0.280861 0.218551
-0.0258217 -0.376386 0.306594
-0.00602633 0.23879 0.0180108
-0.0348005 -0.465197 0.183308
-0.0298496 0.126985 0.466659
0.00778675 0.268798 0.124238
0.0118913 0.450412 0.2585
-0.00654987 0.0657203 0.174583
-0.00100674 -0.221915 0.504486
-3.56138e-06 0.401868 0.285534
-0.0259737 0.159116 0.479158
0.000468079 -0.194565 0.421643
-0.00957373 -0.18273 0.26743
0.0122291 0.445803 0.0988138
-0.0479144 -0.457378 0.10132
0.00956797 0.460595 0.159727
0.0102857 0.298139 0.150039
-0.0284337 0.292899 0.186329
-0.0193678 -0.0834067 0.428005
-0.00562449 0.156418 0.196021
-0.000202749 -0.251801 0.011047
0.00465094 0.306295 0.335938
-0.0151893 -0.212021 0.516937
0.0213516 0.207831 0.479805
-0.0304365 0.207401 0.479659
8.78714e-05 -0.188988 0.0722008
-0.00800525 0.160156 0.415192
-0.0276074 -0.404171 0.0293578
-0.00790815 0.190377 0.226246
-0.00654016 0.131758 0.151585
-0.00547473 0.246144 0.34269
-0.031703 0.0656324 0.172558
-0.00399826 0.148025 0.180589
-0.00397492 -0.319481 0.15475
0.131767 -0.179426 0.559955
-0.00795396 0.41771 0.301293
-0.0526877 -0.458784 0.140405
-0.0100474 0.358955 0.0300037
-0.00190942 -0.0352736 0.32415
-0.0150019 0.159241 0.352045
-0.0137731 0.0893943 0.229259
-0.0263956 -0.433423 0.0781761
-0.00172177 -0.1922 0.460816
-0.0539802 -0.417095 0.274681
0.0196546 -0.210234 0.0612768
-5.36286e-05 0.197533 0.0761315
0.020334 -0.165584 0.151848
-0.0348825 0.180177 0.479358
-0.03682 0.0201104 0.149321
0.0022423 0.22478 0.458128
-0.0126038 0.284145 0.332033
-0.0122327 -0.215291 0.285155
-0.03589 0.0355438 0.17609
-0.00960354 0.051191 0.389959
0.0109808 0.298847 0.173197
-0.00023044 -0.143034 0.406896
-0.00634936 0.162084 0.149889
-0.0597522 -0.298003 0.169865
0.00418435 -0.173363 0.115702
0.000585666 0.098926 0.372071
-0.156863 -0.090316 0.526541
-0.0500793 -0.453899 0.166294
-0.0107049 0.350457 0.330693
0.0609481 -0.218694 0.540241
-0.0417791 -0.40314 0.184264
-0.0284344 -0.38453 0.0473585
-0.032131 0.245208 0.177151
0.0043406 -0.264321 0.034338
-0.0152181 0.0537398 0.157459
0.00976876 -0.238537 0.0362526
-0.0792639 0.0466392 0.236278
-0.00893002 0.368452 0.199433
-0.00991569 0.000973227 0.306734
0.00471153 0.14472 0.352099
-0.0237736 -0.369141 0.244744
-0.109673 -0.185869 0.538427
0.00154466 0.13468 0.215224
-0.00758051 -0.171877 0.42473
-0.00800373 0.379762 0.0293148
0.107565 -0.195951 0.558355
0.00329783 0.129562 0.337752
-0.00582598 -0.0243379 0.433712
-0.0427209 0.272094 0.243267
0.0019317 0.43408 0.294822
0.00743391 0.40922 0.0724465
0.0360244 0.0845332 0.0884749
-0.0184745 0.0860143 0.180932
-0.0409546 -0.415098 0.0624106
-0.00678237 0.469007 0.199245
-0.0121295 0.176782 0.0970713
-0.153661 0.0272356 0.261527
-0.018464 -0.176595 0.477553
0.0072959 0.270146 0.238722
-0.00184523 0.0395993 0.185852
-0.000672688 0.183999 0.327817
-0.0284441 -0.294827 0.186577
-0.00211267 -0.102009 0.445196
-0.0258797 -0.34943 0.0205655
-0.0121773 0.146842 0.115449
-0.0304496 -0.336385 0.341021
-0.0872928 0.032968 0.270314
-0.0339084 0.251047 0.279398
-0.14468 -0.10064 0.538681
-0.0427376 -0.43383 0.0974309
-0.0312117 0.197537 0.320414
-0.00844755 0.255219 0.267138
-0.00849143 0.296702 0.177675
-0.0359057 -0.435208 0.266668
-0.0104077 -0.192422 0.293584
0.00442192 -0.172321 0.239313
-0.0053584 -0.29474 0.000889438
0.00224578 0.102162 0.296653
-0.00032181 -0.112017 0.38917
0.0770474 0.09586 0.0848952
-0.00569397 0.362477 0.0867664
0.010037 0.155405 0.464623
-0.0267105 0.273384 0.197883
0.00938853 -0.172252 0.269632
-0.046688 -0.399348 0.283662
0.00277292 -0.217243 0.0597194
0.00705545 0.297983 0.0294793
-0.0136798 -0.267474 0.337792
-0.0138035 0.140273 0.387645
0.0522503 0.297246 0.18141
0.0109443 -0.276552 0.245409
-0.00779054 0.402021 0.0473042
-0.00934808 -0.284047 0.322048
0.0124612 -0.163494 0.131412
0.00948712 0.239089 0.0396197
0.00249694 -0.0095348 0.300314
-0.0178844 -0.370011 0.17871
0.0140479 -0.219104 0.0301208
0.000669693 -0.278988 0.127477
-0.00812828 0.304683 0.350033
-0.0113916 0.179079 0.342464
-0.149369 -0.0749718 0.521694
-0.0341278 -0.230002 0.311007
0.0081172 0.0772019 0.460593
0.0118046 -0.257624 0.0209157
0.00271879 -0.278767 0.0792866
-0.0918351 0.0107337 0.257136
-0.00972006 0.150619 0.216735
0.140964 -0.120701 0.545025
0.0129084 0.464091 0.175555
0.000308927 0.0431674 0.414207
-0.013058 0.297609 0.160321
0.0082653 0.391357 0.297811
0.00776467 0.423333 0.127838
-0.0346783 0.231653 0.308083
-0.0146957 0.150204 0.169271
-0.000145116 0.295059 0.334173
0.00812913 -0.19269 0.284065
-0.0157186 0.0238507 0.41789
0.00103548 -0.21607 0.356755
-0.0189556 0.0761229 0.461244
0.00189771 0.276399 0.00651778
-0.0104045 -0.280094 0.0269207
-0.028579 -0.216505 0.519646
0.0126543 0.38737 0.0500582
0.00628811 -0.141302 0.183518
0.000991572 -0.0855057 0.427125
-0.00134004 0.0785818 0.183482
-0.0533934 -0.430635 0.250972
-0.00336322 0.0477848 0.218033
-0.00295503 -0.0715895 0.380466
-0.0218194 -0.256742 0.308455
-0.0136421 0.0431287 0.187537
-0.0162291 0.00501025 0.288648
-0.0203244 -0.156844 0.447818
0.00180341 0.470127 0.230625
0.00840549 0.226498 0.0477152
-0.0127666 0.160577 0.444407
-0.023043 -0.188655 0.441278
-0.0272874 -0.370524 0.0170499
-0.0438638 0.0572945 0.183408
-0.00564644 0.473242 0.175243
0.0364932 0.15343 0.467411
0.0920896 -0.211109 0.554584
-0.00917688 0.447669 0.241438
-0.0343932 -0.422199 0.0453934
0.00887538 -0.227915 0.124127
0.15641 -0.135227 0.546234
-0.00687222 -0.33173 0.104477
0.0488549 0.0661479 0.119495
0.0115159 0.0502401 0.189546
0.00347416 0.193935 0.211341
-0.00147778 -0.206662 0.308397
-0.00131324 0.177723 0.255466
0.142001 -0.161505 0.549668
0.0308935 0.0729478 0.107191
-0.037216 -0.439505 0.203383
-0.00594257 0.41755 0.0809797
0.0158744 0.106288 0.172645
-0.0268336 -0.307186 0.142992
0.0172368 0.188405 0.172609
-0.0294355 -0.456612 0.0975532
-0.00846705 0.31823 0.120553
-0.0138412 0.197765 0.0642324
-0.0516847 -0.459989 0.187653
0.0058506 0.149532 0.243882
-0.016939 -0.249636 0.33333
0.00997872 0.352661 0.335971
-0.0423979 0.300137 0.17182
0.0117744 0.439036 0.246137
-0.0141717 -0.17527 0.453858
0.0129641 0.182503 0.339049
0.0126253 0.282949 0.178622
0.0066476 -0.289521 0.0119992
-0.020077 -0.407673 0.062323
-0.0122041 -0.28372 0.0108774
0.0237413 0.235517 0.298797
-0.00154373 0.312388 0.322991
0.00780954 0.272459 0.344016
-0.00787403 0.371542 0.152644
-0.0170761 -0.359943 0.0271222
-0.0418515 -0.441586 0.116773
-0.0240047 -0.219208 0.363382
-0.00392249 0.296065 0.0224122
-0.00705834 0.0112285 0.425142
-0.00480969 -0.00600873 0.406474
0.00666203 0.184419 0.0859651
0.0119362 0.334002 0.027282
-0.0346203 -0.29465 0.324506
-0.0122808 0.18039 0.293278
0.00964467 0.263869 0.327703
-0.0148047 -0.0283217 0.413506
-0.0512493 0.0443923 0.164164
-0.0314452 -0.461494 0.131976
-0.0391262 -0.418468 0.301066
-0.0259003 0.22362 0.473271
-0.0158683 -0.378944 0.043619
-0.0118818 0.324709 0.334276
-0.00606715 0.165182 0.106734
-0.0134153 -0.197381 0.275046
0.0477913 -0.228776 0.52424
0.0015612 0.150333 0.437509
0.0382095 0.209145 0.476596
-0.0375261 0.0492389 0.129105
0.000489748 -0.141045 0.435167
-0.0313706 -0.393451 0.291824
0.00465572 0.150268 0.401464
0.00296144 -0.149 0.17384
-0.012986 -0.010942 0.3212
-0.0154062 -0.231752 0.514432
-0.00169487 0.113579 0.336815
-0.00638925 0.464715 0.159031
-0.0645865 0.0562962 0.182591
-0.0377637 0.0133538 0.183163
-0.0502081 -0.444358 0.217112
-0.0105778 0.339391 0.0286443
-0.0392067 -0.446491 0.134314
-0.000308951 0.470303 0.129012
0.00357765 -0.243517 0.330579
0.00165622 0.169984 0.449638
0.00653502 0.169024 0.10955
-0.00728963 0.448095 0.262958
0.0941184 0.0826787 0.103783
-0.00884159 0.289976 0.0861598
-0.0207242 -0.306788 0.342448
0.00951492 0.446096 0.225079
-0.0301477 -0.447715 0.0741778
0.00754537 0.36652 0.233331
-0.0160794 -0.0995668 0.396763
-0.0123693 0.172326 0.0755642
0.00647567 0.195566 0.0481921
-0.0135578 0.145435 0.404332
-0.00249616 -0.239747 0.318902
0.0239461 0.06421 0.162432
-0.0352607 -0.247304 0.284405
-0.0517814 -0.403641 0.292148
0.00162542 0.13109 0.189175
-0.00281254 -0.164401 0.258689
-0.00687466 -0.332405 0.0277301
-0.016809 -0.186439 0.409325
-0.0379426 -0.475154 0.168893
0.0124068 0.461813 0.140612
0.0407323 0.08936 0.0918734
-0.00499358 0.438203 0.111426
0.0638181 0.0680502 0.0775766
0.0193819 -0.163731 0.188582
0.00676909 0.177428 0.0681426
-0.0127868 0.107045 0.274375
-0.00834533 -0.0459794 0.361256
-0.0178868 -0.204953 0.379004
0.0039745 0.173957 0.355102
0.00965512 0.213399 0.0512553
-0.087595 0.0465215 0.24781
-0.0251559 -0.201553 0.507597
-0.00545156 0.396965 0.0639406
0.000553251 -0.157119 0.247173
-0.00112947 -0.0263305 0.338967
0.0129951 0.448136 0.130997
-0.00233366 -0.233561 0.361387
-0.010325 0.122329 0.36139
-0.075531 0.0314456 0.26634
-0.0151293 -0.308866 0.0222045
-0.0263076 -0.294021 0.223779
-0.0331235 -0.228222 0.34808
-0.00116459 -0.214807 0.274255
-0.0298159 -0.269901 0.320097
-0.00220489 0.0392153 0.394049
0.00945668 -0.221053 0.34744
-0.0378707 0.082 0.197055
-0.0788517 0.063355 0.183961
-0.00953884 0.264562 0.333411
0.00316725 0.412343 0.278357
0.00744011 -0.193817 0.0863417
-0.00433812 0.363764 0.304703
0.00322206 0.0109184 0.27039
-0.134974 0.0470221 0.266988
-0.0418007 0.154325 0.455869
0.00778427 -0.146933 0.22442
-0.0076546 -0.271962 0.31788
-0.0366639 0.0332388 0.159845
0.00577732 0.139888 0.141893
-0.00489409 0.224855 0.313334
0.0004511 -0.210645 0.375373
0.0311265 0.300619 0.171988
0.0219823 -0.149594 0.126726
-0.00380229 -0.236156 0.0232933
0.00389431 -0.304097 0.0228629
-0.00748812 0.209506 0.0527516
-0.140261 -0.147118 0.5385
-0.027648 0.309171 0.162044
-0.00915258 -0.221036 0.387382
0.00382284 0.0349603 0.223728
-0.00196771 -0.302604 0.18386
0.00245301 0.450922 0.184654
-0.00866422 0.305181 0.0178404
0.0166538 -0.199446 0.0752347
-0.0131025 0.152329 0.428091
-0.0180967 -0.226558 0.307251
-0.0325978 -0.464551 0.111618
-0.00482154 0.21318 0.296489
-0.00916853 -0.340521 0.0883923
-0.0363387 -0.422456 0.0913898
-0.00985085 -0.186492 0.43291
-0.00266752 0.321598 0.0308397
-0.0598504 -0.219166 0.516361
0.00178198 0.186625 0.283177
-0.00700213 0.390773 0.212912
0.000942854 -0.162735 0.201101
-0.00740375 0.174766 0.234078
-0.039222 -0.360898 0.305587
-0.00871313 -0.00472022 0.280419
-0.0300832 -0.309747 0.264404
-0.00952162 -0.225918 0.294711
-0.0238642 -0.425099 0.0671201
-0.00849278 0.35783 0.319207
0.0048804 0.286766 0.293516
-0.00893333 -0.282663 0.248853
0.0172754 0.117516 0.464906
-0.000813522 -0.0562862 0.347303
-0.159182 -0.0593241 0.539395
-0.0212632 -0.414614 0.0390638
0.00420003 0.193734 0.181353
-0.0291464 0.218742 0.182187
-0.00524752 0.382721 0.10892
-0.000561324 0.192286 0.340118
0.038523 0.10756 0.0921369
0.000311613 0.170214 0.464902
-0.0446707 -0.30355 0.178921
-0.00139082 0.140621 0.375962
-0.00134736 0.384178 0.0580326
0.000209947 0.285591 0.0309553
-0.0310292 -0.283067 0.33447
0.00362099 0.0273872 0.242675
-0.0200483 0.307479 0.180384
-0.0483509 -0.438504 0.228997
-0.010692 0.197368 0.284104
-0.00977851 0.186554 0.30435
-0.0247322 -0.39633 0.0567511
0.00489436 0.345438 0.0276954
0.00611656 0.425142 0.258817
-0.00152399 -0.223629 0.316571
0.00040272 0.426465 0.27458
0.00136224 -0.289335 0.0240898
0.00287724 0.191677 0.271406
-0.158558 -0.0806345 0.539127
0.00376283 0.0927656 0.236935
0.00553019 0.373264 0.319245
0.0816526 0.0787375 0.119203
-0.0249928 0.191152 0.176769
-0.00420808 0.156427 0.163554
-0.000195809 -0.212327 0.518985
0.0117621 0.402944 0.294284
0.0123873 0.454389 0.107257
-0.0066977 -0.207726 0.19412
0.00473096 -0.225821 0.0542046
0.00355002 0.075626 0.169273
0.00788755 -0.243126 0.28625
0.0119381 -0.173751 0.10449
-0.00987103 0.337775 0.160654
0.0293951 0.269649 0.255491
-0.0190685 -0.114947 0.393703
0.0702416 0.106507 0.0934559
0.013334 0.303483 0.194768
-0.0872018 0.0252428 0.259622
-0.00646674 0.459412 0.115705
-0.0144009 0.144869 0.187337
-0.0999937 0.0428518 0.273773
0.0143887 -0.309008 0.165368
0.0105219 -0.280701 0.227084
-0.0495824 0.21047 0.47046
-0.0256345 -0.235696 0.325867
-0.0204005 -0.0973901 0.436665
0.00569695 0.0672724 0.193113
-0.0134553 0.326208 0.174509
-0.00269949 0.387308 0.310868
0.00419788 0.11806 0.365909
0.0204661 0.188961 0.479602
-0.0560078 -0.452983 0.225224
-0.127188 -0.172266 0.541469
-0.10032 0.0495703 0.234382
0.0191275 0.310417 0.177904
-0.03106 -0.381695 0.088237
0.01034 0.457771 0.218858
-0.0130182 0.0572776 0.185087
0.00524301 0.315943 0.285572
-0.0370433 0.0865434 0.134063
-0.0148269 0.0278142 0.252925
-0.0404338 -0.429252 0.249718
-0.0223566 0.114706 0.474977
-0.0171652 -0.319826 0.0144431
0.0035106 0.338633 0.319456
-0.0434911 -0.217584 0.518584
-0.0417945 -0.420795 0.27368
0.0213793 -0.153592 0.11266
0.00575759 0.163572 0.122984
0.116698 -0.184026 0.559259
-0.035449 -0.262877 0.254861
0.00713969 0.289119 0.0202829
0.00307929 -0.166888 0.104081
0.00531914 0.165753 0.26167
-0.038464 -0.362185 0.333516
-0.0548661 -0.465963 0.172527
-0.0132048 0.152819 0.365258
-0.0187714 -0.260088 0.204976
0.00810162 0.353258 0.0394155
-0.0149019 -0.254386 0.168508
-0.0533343 -0.456014 0.24928
-0.00522949 -0.19474 0.260934
-0.0102372 0.279509 0.0146131
-0.0249942 0.120035 0.454408
-0.00865846 -0.0243985 0.308894
0.0189245 0.240703 0.1748
0.00746966 -0.1806 0.0623633
-0.0374417 0.0339197 0.195759
-0.00753193 -0.302714 0.174098
-0.0353793 -0.432721 0.277957
0.0198742 -0.165452 0.086022
-0.0104573 -0.375643 0.0189974
-0.0338436 -0.454733 0.147358
-0.14885 -0.156184 0.548091
-0.0102031 0.0678983 0.473527
-0.0192332 -0.0407733 0.427182
-0.000566972 -0.204444 0.0662531
-0.00479872 -0.14363 0.450959
0.00435077 -0.238951 0.0462297
-0.00161365 0.237396 0.0503306
0.00462659 -0.145507 0.156351
0.0116702 0.0560024 0.174445
-0.00953632 0.13738 0.132749
-0.0150435 0.14964 0.15529
0.00153845 -0.0610787 0.361385
-0.0149949 0.127688 0.375758
-0.1588 -0.120181 0.537349
0.132973 -0.151599 0.545399
-0.0532511 0.0778005 0.169373
0.00367534 0.159286 0.2046
-0.000770833 -0.171443 0.220867
-0.0136425 0.178584 0.278086
-0.0542681 0.179528 0.460817
-0.00495576 -0.249906 0.026227
0.0165715 -0.16826 0.234401
-0.106421 0.0106107 0.258251
-0.00527405 0.443212 0.100857
-0.038343 0.0602566 0.210195
-0.00523508 0.444083 0.228335
0.0143591 0.158813 0.182063
0.00609847 0.270445 0.0358692
-0.0233224 -0.297168 0.315229
0.00224309 0.287531 0.325646
-0.0374555 0.286553 0.176226
-0.000947516 -0.309201 0.164929
-0.00410815 0.263013 0.317402
-0.0394951 -0.321951 0.323367
-0.0346776 0.0965722 0.184197
-0.0408329 0.271575 0.257234
-0.0448705 -0.448794 0.154783
-0.00286531 0.142941 0.364278
-0.0175107 -0.35063 0.032641
0.0481996 0.181233 0.464968
0.00275845 -0.206745 0.038379
-0.00962354 -0.260897 0.310631
-0.0264351 -0.307433 0.164794
0.00189534 0.131554 0.163326
-0.0342288 -0.333349 0.185051
-0.000694506 -0.186296 0.449271
-0.000908391 0.422818 0.095062
-0.0114513 0.222435 0.0357518
0.00880596 0.203609 0.0622942
0.0122063 0.440028 0.0831493
-0.0030151 0.125833 0.372752
-0.0420874 0.0643118 0.194153
-0.012461 -0.192063 0.47013
0.0343234 0.0793386 0.0789886
0.011337 0.353592 0.203412
-0.0796423 0.0503369 0.189181
-0.0179411 0.0554856 0.194774
-0.048493 -0.206918 0.516389
0.00860502 0.25709 0.0181634
0.00560407 0.260208 0.101063
0.0301992 0.2436 0.275577
0.0780517 -0.230499 0.545423
-0.00771745 -0.0448999 0.332952
0.121312 -0.170894 0.557073
-0.000971036 -0.157456 0.434584
-0.0147648 0.0216499 0.265783
0.00486592 0.150251 0.423915
-0.035731 0.0815908 0.215614
-0.00235421 -0.162286 0.40635
0.00200222 0.0501009 0.204579
-0.0213212 -0.408661 0.0526281
0.0163479 -0.158436 0.199836
0.000964093 -0.185314 0.244649
0.000736397 0.319385 0.333699
-0.145591 -0.0888981 0.529411
0.00138585 -0.235157 0.218576
-0.018859 -0.142546 0.432314
0.0228527 0.0829073 0.11337
-0.00489804 0.382973 0.24237
0.00925955 0.23492 0.320499
-0.0084582 0.434055 0.258177
0.093392 0.0948595 0.0847534
-0.0308051 0.0744256 0.164433
-0.00967481 0.160544 0.479218
-0.0373828 -0.452775 0.190747
-0.048812 0.302276 0.181512
0.0194983 0.20952 0.326683
-0.000462688 0.405647 0.296555
-0.0101111 -0.185155 0.27954
-0.0131802 0.0319174 0.21208
-0.00492606 -0.184857 0.479016
-0.000659656 -0.197183 0.41055
-0.00504123 0.165635 0.136953
0.00968044 -0.218782 0.511485
-0.0110841 0.138402 0.223721
-0.0441792 -0.214881 0.507177
-0.0438299 0.293438 0.200855
0.0117486 0.393416 0.3105
0.0187842 -0.306336 0.183282
-0.0309982 -0.366903 0.314239
0.00905074 0.165542 0.479322
-0.00957756 0.065418 0.198469
0.0183977 0.224839 0.468443
0.0118337 0.412482 0.0556442
-0.155017 -0.0610442 0.519152
-0.042759 -0.278229 0.204479
-0.0489503 -0.392953 0.312455
0.00600602 0.369321 0.0458359
-0.020755 -0.338747 0.327713
0.00530097 0.210987 0.479794
-0.0192624 0.090564 0.473985
-0.038977 -0.473042 0.195738
0.0118326 0.437547 0.275836
-0.013279 0.155854 0.249261
-0.00966384 0.278394 0.125824
-0.104528 0.0377091 0.228441
-0.0362617 0.10978 0.218418
0.00521976 0.161773 0.22919
-0.00554634 -0.172079 0.269326
-0.0336697 -0.271122 0.227026
0.00656582 0.37273 0.0201066
-0.0274593 0.230152 0.174458
-0.0071233 0.121318 0.303764
-0.081868 0.045721 0.203758
-0.00672634 -0.235447 0.0368204
-0.0259947 -0.41369 0.0719707
-0.0426026 0.285054 0.215399
-0.0186755 -0.0141781 0.419849
-0.0143148 0.0896667 0.246022
-0.00276134 -0.00595832 0.315856
0.00113107 0.0534076 0.182255
-0.0368996 -0.410233 0.273187
0.0117351 -0.159943 0.146001
-0.00278201 0.460752 0.18897
-0.0278895 0.139873 0.175175
-0.00525176 -0.346498 0.008455
0.00475502 0.0317133 0.407585
0.00555476 0.253807 0.318009
0.00331248 0.335079 0.349663
-0.0242429 -0.246188 0.316682
-0.0201152 -0.243698 0.305956
-0.00482871 0.253399 0.0304986
-0.0397999 -0.451587 0.174688
-0.00626915 0.0903159 0.214705
-0.0320538 0.148424 0.212751
-0.00823911 -0.237469 0.296882
0.00613014 0.285648 0.336575
-0.0117784 0.042633 0.227476
0.0066123 -0.163067 0.215096
0.00628239 0.160401 0.345373
0.0132498 -0.174519 0.125658
0.00779218 0.303767 0.348303
0.00149507 -0.162519 0.1231
0.138408 -0.172985 0.550897
0.00586913 0.0842942 0.387569
-0.000166141 0.460518 0.103325
0.000528736 0.442449 0.128389
-0.00350616 0.0954448 0.286447
0.00210482 0.301871 0.171755
0.0929914 0.0635695 0.0809597
-0.0330548 -0.439538 0.109756
-0.0800442 0.0661837 0.170585
0.0205187 -0.228158 0.513187
-0.0502806 -0.460743 0.155736
0.00172674 0.146142 0.383123
-0.100867 -0.19717 0.521879
0.0861975 0.0847885 0.0908019
-0.0109573 0.295538 0.146309
-0.0435489 -0.475693 0.141164
-0.0466659 -0.46374 0.239539
-0.0315185 -0.40821 0.0548403
0.0161645 0.297146 0.182576
-0.0382476 0.169762 0.465519
0.000820914 -0.214902 0.384788
0.156863 -0.128093 0.557563
-0.00556771 0.298287 0.324033
0.0219513 0.0666436 0.128756
-0.000953459 0.00660719 0.40431
-0.0216578 -0.377761 0.0348526
-0.0363889 0.0324668 0.214568
-0.00886658 -0.0450649 0.415075
-0.0387373 -0.447611 0.263727
-0.0120075 0.308721 0.188599
-0.0120075 0.22733 0.467066
-0.0143053 0.168184 0.341362
-0.00594951 0.0631556 0.385367
0.00226675 0.423986 0.0523548
0.0105783 0.403568 0.0418032
0.0278539 0.0757942 0.0862014
-0.105433 0.0312672 0.268675
0.00428176 0.144109 0.186658
-0.0145618 -0.0285148 0.341079
-0.0828629 0.0353964 0.241806
-0.00652363 0.366894 0.0199959
0.0369244 0.304167 0.185773
0.0234829 -0.159073 0.140932
-0.00556253 0.102658 0.307335
-0.0168406 -0.214013 0.396427
-0.0305555 -0.314793 0.155201
0.00229044 0.125394 0.322972
0.0451303 0.206982 0.46512
0.00795823 0.449248 0.16686
0.00345706 -0.254833 0.188632
0.0154637 -0.163298 0.161536
0.00991251 0.264749 0.139343
-0.0104307 0.315535 0.343395
0.0311245 0.1966 0.479712
-0.0276942 0.142181 0.478136
-0.030319 -0.387733 0.317983
-0.007941 0.157852 0.272423
-0.0105959 0.29534 0.341735
-0.0240697 0.109051 0.18214
0.0448406 0.0979559 0.0856247
-0.0289322 0.250675 0.202994
-0.0178498 -0.071129 0.365444
0.049326 -0.22456 0.539504
-0.00684354 0.463773 0.211185
0.0144844 -0.178421 0.244198
-0.0382608 0.0462043 0.18966
-0.00979238 0.335838 0.342294
-0.0122435 -0.196838 0.403493
-0.00902604 0.0753289 0.404433
-0.0046728 -0.114434 0.448034
-0.0387919 0.15774 0.477544
-0.0196424 0.184345 0.334878
0.00268026 0.052656 0.170113
0.00933897 -0.147604 0.124617
-0.00622446 0.393536 0.324653
-0.00525722 0.345465 0.0384538
-0.0328305 -0.389243 0.280477
-0.0203872 -0.29228 0.324647
-0.00395625 0.390491 0.098667
-0.00890734 0.235411 0.336359
-0.0105812 0.208229 0.319924
-0.0873474 0.0325627 0.250249
0.0192967 -0.178786 0.0675263
0.0168104 0.153298 0.479212
-0.00371239 0.449133 0.210286
-0.0584142 -0.306246 0.174101
-0.00669927 -0.203993 0.284231
0.00483549 0.206889 0.179744
-0.00932988 -0.325771 0.182443
-0.0746606 -0.201107 0.521137
-0.03869 0.227535 0.296598
0.00599737 -0.190685 0.271572
0.0115876 0.462369 0.235896
-0.00378802 0.215003 0.328932
0.000414256 0.447661 0.0803309
-0.0125753 -0.181043 0.443999
-0.0116229 0.281366 0.195996
0.00558942 -0.151145 0.236328
0.012345 0.326899 0.198495
-0.00362982 -0.22071 0.285647
0.00383184 0.244408 0.269539
0.00648487 0.160614 0.0997271
-0.0444565 -0.433729 0.238537
0.0384205 0.160436 0.456646
-0.0311741 0.0558663 0.16888
-0.0411571 0.25445 0.267864
-0.0062875 0.463627 0.232879
-0.0197037 -0.270857 0.312357
-0.00719832 0.0713508 0.217322
-0.00311483 -0.102767 0.399135
-0.0109544 0.326202 0.0258109
0.0130331 0.107696 0.471841
-0.00296294 0.234692 0.308897
0.00055055 0.170518 0.290291
0.0195065 0.0524137 0.182041
0.0232144 -0.149489 0.160086
-0.0174148 -0.245239 0.253302
-0.0128964 0.326477 0.19839
-0.00169338 -0.228905 0.296282
0.0262559 0.273529 0.176596
0.0040322 0.156716 0.156571
-0.0115761 -0.201646 0.389428
-0.0347941 0.0864425 0.149019
-0.0109504 0.326683 0.129645
0.0344536 0.27478 0.229583
-0.00623222 0.245196 0.311155
-0.0166452 0.0827065 0.390299
0.0276546 0.0891149 0.086227
0.148909 -0.112783 0.550787
-0.0755067 0.0545415 0.210902
0.0944324 0.0722976 0.0966541
0.00475977 0.300383 0.00544873
-0.0148046 0.0685472 0.183718
-0.0141518 -0.215278 0.313828
-0.00117162 -0.0919699 0.375462
-0.00985945 0.125379 0.318633
-0.0179496 0.0591912 0.168397
-0.0548613 0.0580942 0.168167
0.00785181 0.345654 0.0122418
-0.0337713 -0.306314 0.175647
-0.0305399 -0.250899 0.25451
-0.0150336 -0.205676 0.423434
0.0250139 0.217547 0.455824
0.00494373 -0.204066 0.298028
-0.0184539 -0.0881775 0.3841
0.0389029 0.0753364 0.0872877
-0.0204955 -0.345554 0.00675453
-0.0110936 0.197284 0.04735
-0.0208584 0.301436 0.175978
-0.0132771 -0.219828 0.502604
0.0192483 -0.2905 0.198002
-0.0082666 0.16478 0.220306
-0.0126535 0.323127 0.160129
-0.0116795 0.169355 0.465518
0.00172287 -0.147897 0.192914
0.00774599 0.21294 0.0389987
-0.00540446 -0.276596 0.0213518
0.0106782 -0.26909 0.262071
-0.00253777 0.447225 0.151858
-0.00921499 -0.198868 0.45058
-0.011525 0.017348 0.400809
-0.0101417 0.111784 0.327959
0.00467464 0.175004 0.341045
-0.00906713 0.0359937 0.417866
-0.0380633 -0.463013 0.17118
-0.0370414 0.103533 0.170838
-0.0384983 -0.369442 0.301134
-0.00584224 0.325054 0.35022
-0.12392 0.0175297 0.264392
0.0457639 0.197652 0.474554
-0.0208143 -0.117913 0.43731
-4.21414e-05 -0.292658 0.178762
-0.0162511 -0.206443 0.28938
-0.00242479 0.386706 0.298244
0.0209952 -0.220592 0.523348
0.0017746 0.0677558 0.470824
-0.0116428 0.133402 0.346988
-0.0124639 0.168919 0.0873594
-0.00748844 -0.17178 0.480133
0.0100002 0.321458 0.0130998
-0.00740591 -0.364609 0.0185693
-0.0235453 0.169205 0.465714
0.164009 -0.12542 0.547982
0.00918551 -0.221321 0.335132
0.0113659 0.303932 0.0211302
0.0289011 0.153696 0.477563
0.00476123 0.2464 0.326306
-0.00869292 0.173371 0.266709
0.0109746 0.166412 0.459492
-0.0221506 -0.224543 0.332785
-0.00444756 0.375941 0.305311
0.0223824 -0.147459 0.175381
0.0873361 -0.222016 0.548937
-0.0120803 0.153618 0.184028
-0.122898 -0.182218 0.535446
-0.0136772 -0.00932916 0.291297
-0.144535 0.033946 0.261365
-0.0332649 -0.339928 0.31183
0.083979 -0.229802 0.558054
-0.0094832 -0.189713 0.419409
-0.0177033 -0.082951 0.44117
-0.0390099 0.0245274 0.188307
-0.00603651 0.168662 0.360627
-0.0537748 -0.428703 0.271945
-0.0142381 -0.13881 0.41564
-0.00904773 -0.0161949 0.330043
-0.0279214 -0.295402 0.174555
-0.0220082 -0.310691 0.316511
-0.0253568 -0.2703 0.337285
0.00217087 -0.217247 0.030044
0.134416 -0.167434 0.562461
-0.0416667 -0.444613 0.0729638
-0.131643 -0.179992 0.549828
-0.0455758 -0.438671 0.086852
-0.0501073 -0.476948 0.172579
-0.0382591 0.283244 0.240937
-0.02595 -0.283511 0.182811
0.0080378 0.449896 0.270291
0.0131965 0.398836 0.0533767
-0.00334718 0.202752 0.479683
0.00449653 0.0669459 0.389739
-0.0245103 0.0405639 0.181531
-0.00120266 0.427194 0.082769
0.013532 -0.245204 0.296547
-0.00810174 0.358934 0.339524
-0.016875 -0.107161 0.384352
-0.037336 -0.440962 0.254684
0.000565934 -0.292698 0.154979
-0.00529616 0.294511 0.0335605
0.00591139 0.448208 0.194699
-0.013259 0.0783417 0.224719
-0.000913783 0.120935 0.47882
-0.0159101 -0.0717972 0.422003
-0.0386565 0.0142359 0.194919
-0.0389662 0.0247271 0.172441
-0.156522 -0.131135 0.536084
-0.0159969 0.113092 0.376797
-0.00666477 0.039646 0.171235
-0.0150975 0.15113 0.207087
-0.00502632 0.00724087 0.298005
-0.00350056 0.0341934 0.249168
0.108907 -0.208945 0.553457
-0.00633702 0.0273272 0.397205
0.0178877 -0.319475 0.169244
-0.0016287 0.32415 0.322297
-0.00795568 0.205071 0.0713428
-0.02346 -0.222859 0.374513
0.0136205 -0.245161 0.0268726
-0.0183373 -0.332201 0.0267698
0.0111115 0.406119 0.307479
-0.00543923 0.390646 0.0459805
-0.00958264 0.116852 0.293244
-0.00236696 -0.26073 0.234604
-0.0226288 0.0938073 0.463275
-0.00351517 0.471448 0.140176
0.0133912 0.29863 0.161275
-0.0306054 -0.393311 0.0263255
-0.0156038 -0.141667 0.397834
-0.000176155 -0.235929 0.338605
0.00480942 0.106616 0.286191
-0.00288385 0.0213471 0.273448
0.0236113 -0.164564 0.108697
0.00707294 0.223495 0.3202
-0.0139409 0.151359 0.131426
0.00272424 0.0541865 0.40886
0.00145218 0.472785 0.221032
-0.11797 -0.190429 0.545147
-0.000394543 0.366824 0.0362075
-0.0173383 -0.398918 0.0282751
0.00156781 -0.187628 0.29216
-0.00942499 0.228047 0.0258254
-0.100632 -0.194783 0.536038
-0.0325166 0.0419829 0.166198
-0.0286785 0.191222 0.479492
0.066096 0.0929662 0.0837201
0.000202489 -0.232209 0.309017
-0.0199504 -0.153803 0.434682
-0.00729039 -0.322232 0.194597
-0.00555332 -0.270667 0.0273972
-0.149611 -0.091026 0.542725
0.0192943 -0.195868 0.0519148
-0.0287066 -0.329631 0.318135
-0.0162713 0.105302 0.477678
-0.00976213 0.134707 0.212896
-0.0449372 -0.44888 0.197922
-0.0402864 -0.425652 0.0669491
-0.010202 -0.380454 0.0316999
-0.00630478 0.00593917 0.261888
0.00117931 0.422555 0.306337
-0.00778812 0.223471 0.299761
0.00275854 0.018129 0.249424
-0.00285811 0.430993 0.061533
0.0572523 -0.225848 0.530048
-0.150452 -0.152274 0.537419
0.00600841 0.39482 0.0652682
-0.015372 -0.302055 0.00862677
0.0376408 -0.230004 0.519079
-0.00200518 -0.185964 0.438937
-0.00506256 -0.177823 0.240544
-0.0405787 -0.346999 0.334532
-0.00402856 0.199657 0.294612
-0.0410258 -0.456982 0.140626
-0.0399164 -0.42585 0.0811069
-0.0265408 -0.213806 0.508437
-0.103526 0.023947 0.258405
0.00333392 0.158827 0.271202
0.0174875 0.0738994 0.141885
0.00485979 0.235872 0.0202762
-0.0249693 -0.233037 0.341805
0.0452101 0.169658 0.464601
-0.153462 0.040382 0.266523
-0.12635 0.0533189 0.270831
-0.143725 -0.111927 0.53927
-0.0138689 -0.0661047 0.376439
-0.00903708 0.410318 0.288118
-0.0495359 0.187756 0.477662
-0.00335015 -0.312086 0.026308
-0.0514125 0.0781509 0.180516
-0.0103804 0.262032 0.185592
-0.0347282 0.0925465 0.172065
-0.0397416 -0.424894 0.0549643
-0.00152835 0.31341 0.35281
0.0029502 -0.164646 0.141494
-0.00739382 0.441323 0.274302
-0.0395512 -0.426465 0.293129
-0.0251835 0.0642838 0.181188
0.00784986 -0.278602 0.00950575
-0.0145875 -0.315284 0.00262645
-0.0197502 -0.313933 0.327889
-0.0102624 0.189744 0.345522
0.0025439 0.182807 0.212688
-0.000540732 -0.1544 0.215545
-0.0319329 -0.21512 0.502299
-0.0507269 -0.400071 0.303229
0.0134048 -0.219599 0.0587313
0.00295038 0.139186 0.401305
0.0317633 0.240465 0.287989
-0.0224341 0.0886203 0.17079
-0.0516083 -0.30583 0.163971
-0.0156082 -0.0935517 0.42488
-0.0259559 -0.447465 0.106299
0.040401 0.297584 0.176124
-0.137837 0.0247848 0.258338
-0.00344645 -0.204704 0.428679
-0.0229558 -0.35948 0.0349831
-0.00571734 0.406953 0.0571049
0.00206804 0.025717 0.229734
-0.12971 0.0403257 0.226404
0.00336899 0.382862 0.0234693
-0.0316939 -0.425022 0.270798
0.0402032 0.0725248 0.116689
-0.00735214 0.16545 0.459671
0.0093698 -0.181951 0.277748
0.0010018 0.328721 0.0334008
0.0101807 -0.265491 0.0132421
0.117418 -0.206402 0.562025
-0.0272176 -0.386081 0.301376
0.00225633 0.1464 0.167776
-0.023158 -0.349487 0.329058
-0.0239494 -0.2322 0.314815
0.000368181 0.246788 0.0137935
-0.015566 -0.390609 0.0484246
-0.0123606 -0.18667 0.48718
-0.0139851 -0.34741 0.206538
-0.00783981 0.147497 0.25419
-0.00153007 0.0187339 0.238129
-0.0145895 0.150649 0.479099
-0.00104672 0.267395 0.0272633
0.0148888 -0.27291 0.233553
-0.00638219 0.405094 0.316235
0.00737903 0.391424 0.111789
0.128559 -0.164472 0.546081
-0.0704013 0.0614082 0.16825
0.00735595 0.154298 0.357236
-0.0283936 0.305934 0.192272
0.00621353 0.301718 0.326063
-0.00254485 0.11023 0.271994
-0.0145079 0.286171 0.186553
0.0165511 -0.184417 0.10174
-0.0487028 -0.382715 0.307289
-0.00968285 -0.335604 0.187292
0.0103161 0.29946 0.204514
-0.0282046 0.314169 0.182998
0.00582319 0.203244 0.315519
0.00460795 0.133498 0.376592
-0.0167788 -0.00767725 0.411244
0.00968716 0.363598 0.335602
-0.0527998 -0.293119 0.17882
0.00469101 0.0964323 0.257512
0.00867723 0.423748 0.0908024
-0.00982898 0.20693 0.291939
0.0135318 -0.295129 0.207066
-0.00993781 0.148907 0.103666
0.0216923 0.248303 0.182397
-0.0481978 -0.424894 0.259829
-0.0230099 -0.199555 0.408795
-0.00220028 0.196326 0.0411225
-0.00780898 0.381345 0.319355
-0.0122664 -0.173449 0.405392
0.00949529 -0.227557 0.085491
0.000483174 -0.159182 0.170916
0.0459994 0.0813464 0.0797499
-0.00693171 0.132021 0.389236
-0.0107442 0.315985 0.0203419
0.0385282 -0.221793 0.530895
-0.00850389 -0.321534 0.0275238
-0.00135069 -0.0150665 0.430355
-0.00640067 -0.0153953 0.29654
-0.0143479 -0.286801 0.0223561
-0.00141454 0.152902 0.344082
-0.0171771 0.0572216 0.397957
0.012305 -0.266067 0.242463
-0.041492 0.213056 0.477122
0.0615058 0.0795208 0.0792977
0.00943606 0.0602288 0.183237
-0.0197352 -0.153274 0.413282
-0.017818 0.17742 0.469727
0.0189405 0.0898792 0.0917855
0.00784635 -0.254638 0.0375402
-0.0115596 -0.27527 0.291181
-0.00277474 0.175228 0.104692
-0.00565934 0.415246 0.0492433
0.0104012 -0.167325 0.193289
-0.00611058 -0.232843 0.351341
-0.00435677 0.175702 0.089726
0.00745486 0.154325 0.144358
0.000396584 -0.0904898 0.441346
0.00274128 -0.0280255 0.428377
-0.041533 -0.465423 0.105724
0.080143 0.0738238 0.0783424
-0.0359325 0.0294742 0.144146
-0.00931443 -0.257175 0.333043
-0.0145801 0.288105 0.170629
-0.0381292 0.0615268 0.135083
-0.00980136 0.186486 0.284831
-0.0193668 -0.21737 0.526406
0.00226402 0.134751 0.34908
-0.054218 0.0635449 0.183033
-0.0355006 0.0502816 0.139556
0.00658647 -0.258958 0.287045
-0.0192251 -0.0622491 0.425857
0.011702 0.306914 0.180142
-0.0202793 -0.19599 0.44957
-0.00735564 0.419231 0.275768
-0.00552032 -0.0796942 0.386896
-0.00663997 -0.0717602 0.442692
0.000814807 0.254561 0.0394544
-0.0148792 -0.0991389 0.445794
-0.013337 0.220703 0.0465974
-0.0418373 -0.344132 0.315906
-0.0011884 -0.160746 0.416796
0.00965016 0.419183 0.288823
-0.0525377 0.303609 0.173728
-0.00910413 0.223982 0.330917
-0.0150091 0.0042224 0.424499
-0.0172346 -0.0331235 0.331534
0.0188355 -0.216544 0.0496614
0.01001 -0.208038 0.065098
-0.0396732 -0.404782 0.289463
-0.0481438 0.0490465 0.192154
-0.032389 -0.237127 0.284161
0.00727646 -0.226634 0.022533
0.010696 0.431285 0.289608
-0.0443259 0.303566 0.203849
0.0219847 0.0698607 0.118686
0.00136378 -0.286791 0.00271402
5.12152e-05 0.17746 0.298409
-0.146427 -0.0992096 0.527277
-0.0708789 -0.202682 0.511082
-0.00135741 0.43867 0.243032
0.0153195 0.118757 0.172248
-0.0460988 -0.45527 0.130094
0.137515 -0.133471 0.546588
0.000387804 -0.187193 0.470224
-0.00854236 0.169489 0.24312
-0.00730186 0.158197 0.207342
0.00430388 0.108421 0.30486
0.00938661 0.392141 0.323693
0.00626296 0.103161 0.38165
0.00149932 -0.205953 0.39954
0.0535908 0.0746355 0.123513
-0.00889839 -0.1438 0.429191
0.0596652 -0.226939 0.547142
0.0541389 0.0716566 0.0854418
-0.00109962 -0.307507 0.156718
-0.0443399 0.0415564 0.182474
0.00924901 0.383192 0.317782
-0.142574 0.0356626 0.231363
0.0135268 0.460112 0.206413
-0.0154984 0.199966 0.47962
-0.00245863 0.189563 0.0853518
-0.0340297 -0.393012 0.0385629
0.0276657 0.0779238 0.0966191
-0.027998 0.0773734 0.180291
0.0048687 0.143653 0.235282
-0.00571817 -0.19168 0.272642
0.00416467 -0.226705 0.356893
-0.0399607 -0.444933 0.218584
0.00751575 0.15778 0.454762
-0.029453 0.16897 0.479254
-0.0144564 0.0631332 0.406133
0.000648585 0.171918 0.119346
-0.00268841 0.137083 0.23003
0.0589317 0.0820326 0.0896534
0.0136209 0.0962661 0.170817
-0.00440163 -0.204608 0.417914
0.0185472 -0.176077 0.115981
-0.159766 -0.0971449 0.536046
0.00810872 0.441544 0.237109
0.000410207 0.158513 0.187793
-0.00183327 -0.187147 0.413077
-0.0109496 0.136326 0.356957
-0.0036571 -0.16361 0.240217
-0.00935139 0.359213 0.194669
-0.0148782 0.0761689 0.203302
0.0188382 -0.159067 0.211587
-0.0270423 0.113126 0.173053
0.00628388 0.23508 0.120949
0.00327345 0.310587 0.0337947
0.00301516 -0.228511 0.0418963
0.00313405 0.135651 0.478988
-0.0329879 0.065777 0.157964
0.00424815 0.108529 0.370747
0.0205689 -0.153647 0.183492
0.0251779 -0.299515 0.188413
0.0095035 0.415506 0.0804095
-0.0149799 -0.145489 0.45125
0.0134628 0.312332 0.189401
0.00229312 -0.0705957 0.427713
-0.00489212 -0.142498 0.397692
0.00718259 0.421887 0.26828
0.0228632 0.178921 0.479502
-0.00435934 -0.136363 0.413989
-0.00431335 0.473005 0.151881
-0.00230016 0.323622 0.00565346
-0.0188314 0.162936 0.452384
0.00592985 -0.161536 0.158672
-0.0232499 -0.297678 0.141414
0.00718759 -0.17818 0.251424
-0.160169 -0.0591467 0.529186
0.0125271 0.459723 0.129595
-0.00485283 -0.305129 0.000272879
0.00977119 0.34281 0.338792
-0.0452935 -0.471599 0.217021
0.00798321 0.291298 0.00886622
