-0.0029663 -0.217203 0.158349
-0.00491757 -0.301059 0.0268158
-0.0719437 0.05739 0.179915
0.000836977 -0.390693 0.324572
-0.00655143 -0.272057 0.0391873
-0.00536987 -0.350959 0.0880233
0.000636622 -0.126313 0.284227
-0.00605874 -0.11908 0.456176
-0.0619803 0.0711588 0.138844
-0.0635861 0.0300755 0.224861
0.00647277 0.455255 0.115811
0.005852 -0.466636 0.113949
0.00300272 0.0998426 0.294491
-0.0701011 -0.0336098 0.163478
0.0362751 0.0963562 0.177105
-0.00740195 0.445099 0.256165
-0.00265018 0.124209 0.388353
-0.0570174 0.304415 0.179162
0.0104351 -0.240584 0.542775
0.00343807 0.185 0.0479114
-0.00371247 -0.167459 0.197055
-0.0512932 0.0837888 0.15367
0.00390555 -0.135979 0.443405
-0.00106482 -0.342339 0.240435
-0.00991664 -0.469619 0.223556
-0.00675452 -0.424104 0.266534
-0.00287436 -0.359669 0.173264
0.00182497 -0.378744 0.311472
-0.0267705 0.115455 0.189322
-0.00673825 -0.163831 0.182943
0.0287547 0.294289 0.203875
-0.00520249 0.148692 0.0934234
-0.00309776 -0.344447 0.133031
-0.00113915 0.302891 0.247469
-0.00671948 0.0743761 0.210138
-0.0041386 -0.0813843 0.423677
0.0232668 -0.240947 0.546373
-0.00118209 0.270993 0.331778
-0.0585116 0.291205 0.115547
0.0030164 0.146471 0.180808
0.0210615 0.200364 0.304968
-0.0658263 -0.236973 0.553803
0.0156063 0.131465 0.515979
0.0082841 0.077333 0.190336
-0.00465134 0.415083 0.0392724
-0.00918516 0.422113 0.0655253
0.0124793 -0.268177 0.318533
0.00302224 0.448045 0.247516
-0.0555034 0.316441 0.190665
0.00835903 0.0880363 0.39289
-0.00381807 -0.309623 0.163141
0.0060379 0.380253 0.0342044
0.000855049 -0.200652 0.485331
-0.00972871 0.13683 0.508969
-0.0768314 -0.256919 0.557059
0.010382 0.114208 0.317616
0.00827024 -0.0199784 0.226005
-0.054436 0.0790603 0.165656
0.0332548 -0.285447 0.217122
-0.0037883 -0.393882 0.156996
0.0077205 -0.202934 0.351393
0.00664758 0.162802 0.488674
-0.00997701 0.152184 0.455173
-0.00344757 -0.325744 0.168587
-0.00683429 -0.1538 0.327588
-0.0017382 -0.248607 0.040229
-0.00381842 0.142306 0.394713
-0.00408567 0.330362 0.117285
-0.0512932 0.0418038 0.203873
0.00119273 0.167986 0.113435
-0.0108609 0.388937 0.32608
-0.00384067 -0.190461 0.358353
-0.0583569 0.0993146 0.174973
-0.0447754 0.295157 0.184753
-0.0262793 0.22322 0.509052
-0.0398584 0.246125 0.184743
-0.0035734 0.318767 0.140581
0.00271277 0.442422 0.0972334
-0.00455215 0.274339 0.216674
0.00157864 -0.298428 0.0322713
-0.0647278 0.0556227 0.14853
-0.00719112 0.0897303 0.210867
-0.00138482 0.400943 0.0536409
-0.00322895 0.458279 0.145476
-0.0114868 -0.155684 0.456831
0.0966369 -0.259918 0.556735
-0.048102 0.314527 0.180367
-0.0597019 0.0590834 0.172939
-0.00766273 0.186079 0.287483
-0.0618214 0.0849413 0.228731
0.00296871 0.357845 0.325098
-0.00671147 -0.228301 0.317701
0.00155695 -0.218461 0.292524
-0.0036151 0.320006 0.15756
-0.00490178 0.342577 0.205998
-0.0677925 0.308594 0.154557
-0.0541723 0.0267844 0.159899
0.00301883 0.226333 0.317925
-0.00824605 -0.441631 0.253932
-0.0937273 -0.263297 0.559561
-0.0698943 0.285746 0.134009
-0.063523 0.000116593 0.191188
-0.00185628 -0.228268 0.54257
-0.0647278 0.0697682 0.22824
-0.0606489 0.290621 0.11734
0.00540077 -0.431318 0.0591692
0.00618495 0.0182562 0.413146
-0.116416 -0.259243 0.557244
-0.00710935 -0.214039 0.288556
-0.00377628 -0.346775 0.160719
-0.0060164 -0.16381 0.160024
0.00154675 0.0641606 0.40653
-0.0441189 0.288051 0.15766
0.0030125 0.460763 0.159215
-0.00543775 -0.231006 0.422929
-0.000137194 -0.406885 0.0686467
0.00811396 0.345845 0.0148917
0.00249727 -0.16883 0.33931
-0.0233204 0.106106 0.185371
-0.000379987 0.200279 0.515773
0.00130951 -0.288896 0.324074
-0.00236856 0.329128 0.333435
-0.0318171 0.271695 0.22111
-0.00326278 0.327625 0.143397
0.00276102 -0.0862673 0.4261
-0.00823959 -0.454153 0.116493
-0.00483273 0.406742 0.201422
-0.00583575 -0.246263 0.327686
-0.0584618 0.15101 0.221773
0.0361211 0.273594 0.232226
-0.0631849 0.0126937 0.183138
-0.0759255 -0.0117999 0.17181
-0.00386099 -0.21891 0.13856
0.00765509 -0.220008 0.368297
-0.00187114 -0.437502 0.0893076
-0.00692845 -0.060067 0.240263
-0.00851283 0.148171 0.196374
-0.0311578 0.11144 0.178119
-0.0314832 0.269001 0.23029
-0.00402811 0.338123 0.184292
-0.0520772 0.0855115 0.154094
-0.0133804 0.141739 0.396885
0.00108947 0.121684 0.301446
-0.00960484 0.174331 0.341482
0.00644329 -0.42486 0.295333
-0.0106062 0.475718 0.171819
0.0363055 0.106517 0.178845
-0.00258615 -0.327857 0.113144
0.0298558 0.302849 0.180574
-0.0613104 0.051496 0.16321
-0.0512932 0.069708 0.206596
-0.00277689 0.0608831 0.184286
-0.00567652 -0.465366 0.177072
-0.00549352 0.479672 0.203668
0.00635955 -0.295571 0.337568
0.0141528 0.115112 0.196314
-0.00412526 0.178671 0.272852
0.0670944 -0.223852 0.548616
-0.01349 0.111574 0.504747
0.00302041 0.170869 0.0890305
0.0084213 -0.0186483 0.222506
0.0030637 -0.22323 0.296135
-0.00829923 0.321231 0.352354
0.044249 0.0530807 0.168541
-0.0367769 0.193212 0.185177
-0.00666753 -0.41147 0.279529
0.0322876 0.293719 0.175252
-0.00231852 0.157815 0.239543
-0.0437179 -0.289078 0.230925
0.0011863 0.331391 0.0296419
-0.000138903 0.461176 0.151018
-0.0206835 -0.262702 0.299137
-0.00985776 -0.300491 0.0203586
-0.0760228 -0.00698133 0.172489
-0.00999735 -0.203673 0.284743
0.0737702 -0.246179 0.55749
0.00529406 -0.44373 0.0931223
0.00161227 0.17449 0.0837641
-0.00229338 -0.222819 0.451533
-0.00970371 -0.175711 0.105602
-0.00823506 -0.249415 0.0410522
-0.00767158 -0.462334 0.213125
5.58262e-05 -0.347329 0.320631
0.0400823 0.0966466 0.166654
0.00270439 -0.189333 0.530475
-0.00403624 0.287173 0.173664
-0.0727547 -0.0223349 0.175248
-0.00752611 -0.292682 0.318055
-0.000258356 -0.39423 0.0491893
-0.0385643 0.170518 0.195247
-0.000191136 0.259837 0.278555
-0.045725 0.28584 0.194151
-0.00892179 0.147619 0.507695
-0.0340294 0.245426 0.251895
-0.00669453 -0.172296 0.185862
-0.00977505 0.148665 0.433382
-0.00921664 0.215309 0.0284685
-0.0321093 -0.312737 0.181936
-0.0229557 0.21685 0.502581
-0.101747 -0.234518 0.555452
-0.0090493 0.276437 0.338155
-0.00730626 0.224857 0.291304
-0.00113263 -0.307238 0.025238
-0.0565814 0.0706257 0.196283
-0.0629712 0.281966 0.10523
-0.00868261 0.228069 0.335159
-0.00333195 -0.190139 0.240587
-0.000573796 0.354536 0.0285952
-0.00665966 -0.48079 0.170892
-0.0619803 0.0170953 0.149823
-0.00420047 0.16296 0.337151
-0.00497815 -0.235816 0.0986032
0.00624818 -0.322835 0.329491
-0.00186431 0.389798 0.21555
-0.000511996 0.246098 0.325915
0.00851263 0.0111281 0.205101
0.00548529 0.136352 0.377838
-0.00658388 0.306491 0.051165
-0.00275917 -0.427223 0.218913
-0.0565814 0.0667173 0.174372
-0.00786706 -0.331924 0.319799
-0.00670654 -0.20067 0.274178
-0.0200941 0.189523 0.301749
-0.00136684 0.162372 0.132719
-0.00758148 -0.171178 0.195433
-0.00725749 -0.183373 0.234259
0.0685916 -0.234365 0.541327
0.00121921 -0.400536 0.299138
-0.0241625 -0.250252 0.32929
-0.0115566 -0.216371 0.444258
0.0201479 0.179238 0.496148
-0.00721417 0.151575 0.470439
-0.0743441 0.303623 0.177933
-0.000386402 0.0621172 0.186761
-0.00718118 -0.202428 0.504703
0.0082118 0.0354176 0.400846
-0.00372649 0.347702 0.133055
-0.00304137 0.301071 0.158047
-0.00183527 -0.432802 0.0849583
0.00144935 0.0792819 0.40341
-0.00813271 0.162166 0.507169
0.0287944 0.287864 0.199454
-0.0222755 -0.236669 0.551783
-0.0373022 -0.316836 0.179256
-0.00325049 0.195758 0.157019
-0.0031294 -0.30629 0.158762
-0.00182551 -0.287576 0.201529
0.0079812 0.137564 0.183118
-0.000494354 0.352669 0.329576
0.0649252 0.146433 0.166181
-0.033656 0.264978 0.242918
-0.0070076 0.439823 0.093168
-0.00877881 -0.0339986 0.241619
-0.00336192 0.309627 0.173783
-0.0144104 0.204691 0.323331
-0.00976912 0.137073 0.402574
0.0328352 0.298062 0.174256
0.0154018 0.110007 0.195546
-0.00680932 0.150039 0.465801
-0.00469661 -0.333692 0.123788
-0.00656147 0.142572 0.4386
-0.00380549 0.292918 0.186656
-0.0194745 -0.238593 0.32828
-0.0088157 0.180098 0.515814
-0.00790418 0.475746 0.140064
0.0079943 0.365544 0.333472
0.0062189 0.0462953 0.393887
-0.00204481 0.335737 0.00288631
0.00419274 -0.468173 0.237506
-0.00699206 0.369619 0.314182
0.000354588 -0.198531 0.464739
0.00709449 0.293611 0.0141458
-0.0104256 -0.31167 0.0180464
-0.00470826 -0.399442 0.191765
-0.00533923 0.14218 0.249119
0.0807437 -0.271646 0.556636
0.00302224 0.46145 0.152201
-0.00136424 -0.212692 0.486884
0.00622112 0.143416 0.368744
-0.00815914 -0.194699 0.495282
-0.01289 0.0677721 0.182891
-0.0324739 -0.258731 0.28302
0.00183432 0.0848802 0.240049
-0.00198491 0.266017 0.211096
-0.0101266 -0.0313073 0.425778
-0.00355786 0.163595 0.500048
0.000211092 -0.284593 0.0363874
-0.0115141 -0.136124 0.306964
-0.00664196 0.259848 0.00724647
0.00455456 -0.240797 0.383112
-0.0135604 0.112479 0.312764
0.00633247 0.0253995 0.411247
0.00498991 -0.0751984 0.43981
-0.00309552 -0.334613 0.184266
-0.00224359 0.370068 0.209785
-0.0591632 0.0693352 0.130696
0.00871619 0.0550853 0.1875
0.00427224 -0.211492 0.3537
-0.152262 -0.235603 0.541804
-0.0903564 -0.0327899 0.164992
0.00694257 0.145258 0.399978
-0.00304639 -0.380341 0.128942
-0.00697853 -0.20492 0.279412
-0.00307635 -0.263894 0.306187
-0.0102299 -0.434755 0.0754481
-0.00263402 0.312526 0.202186
-0.0619803 0.0698639 0.19187
0.000378454 -0.173119 0.456182
-0.0462345 0.309157 0.164967
0.00495152 -0.196898 0.504965
-0.0619803 0.0688421 0.162904
0.00627183 0.0531435 0.171873
-0.00144208 -0.442949 0.100046
-0.011673 0.175603 0.515922
0.044249 0.0567363 0.177804
-0.0773765 0.283868 0.143433
-0.00380895 0.302095 0.186947
-0.00520844 -0.166462 0.192053
-0.00127847 0.476678 0.222526
-0.0492293 0.294435 0.175195
-0.00349524 0.300189 0.152704
-0.0112676 -0.147152 0.30762
0.0413524 0.195966 0.199995
0.00739162 0.148874 0.366235
-0.0106205 0.339858 0.0103086
1.00715e-05 -0.452191 0.205705
0.0100798 0.116087 0.307771
-0.00481439 -0.197259 0.527345
-0.062369 0.111811 0.17322
-0.0671771 0.290755 0.142324
0.00117496 0.0551628 0.190529
0.00744805 -0.254174 0.323161
-0.0110996 0.149936 0.24535
-0.00272072 0.126599 0.182337
-0.0755066 -0.0315871 0.172705
-0.00463238 0.369255 0.19511
-0.00185495 -0.325599 0.11212
-0.00247606 0.331434 0.138503
-0.00302658 0.210568 0.159749
-0.0526395 0.0676203 0.182358
-0.00421651 0.0990795 0.514758
0.045972 0.132571 0.16752
-0.0279679 0.162983 0.512622
-0.00538753 0.0720069 0.206945
-0.0118609 -0.184547 0.338954
0.00181836 0.380418 0.319202
-0.00743978 -0.219569 0.456441
-0.0463431 0.309005 0.160026
0.00736901 0.228559 0.0234851
-0.0053938 -0.179016 0.237167
-0.00703648 0.144978 0.161611
-0.0101461 -0.469027 0.196168
-0.00529324 0.337531 0.0980052
-0.00274527 -0.326984 0.1742
0.058097 -0.225367 0.557883
-0.00373607 -0.287691 0.323243
-0.0106583 -0.0297537 0.23589
-0.00775805 -0.39692 0.303375
0.00617594 0.142171 0.164636
-0.0647278 0.0603056 0.171452
0.00307837 -0.0445561 0.414212
0.00534156 0.093207 0.18464
-0.0619803 0.0381387 0.201073
0.000207627 0.192409 0.276883
-0.0883381 -0.228801 0.555184
-0.00193163 -0.333855 0.314269
-0.0124759 -0.278667 0.313879
-3.10304e-05 0.31139 0.180646
-0.0582087 0.063921 0.198094
-0.00131586 0.436289 0.237247
-0.0110793 0.150639 0.110078
-0.00558322 -0.346879 0.029395
-0.00514751 0.164028 0.499863
0.0409241 0.130757 0.166652
0.010712 0.0764445 0.188326
-0.00563028 0.152087 0.352992
0.00302224 0.189558 0.28814
-0.0073575 0.199445 0.319228
0.000987203 -0.173138 0.477003
-0.0425453 0.312045 0.174393
-0.0643186 0.0310652 0.225427
0.00102773 -0.255539 0.304773
0.00311542 0.137992 0.118158
-0.00553444 0.159734 0.246123
-0.0767496 0.0524702 0.172607
-0.00627143 -0.370066 0.0343709
-0.0770609 0.0537114 0.16932
-0.0324932 0.276879 0.20484
0.00729528 0.421912 0.0626634
2.08893e-05 -0.319593 0.182767
0.00624567 0.125155 0.323068
-0.0181059 0.107239 0.195022
0.0242043 0.0702273 0.172754
-0.0620253 0.0922192 0.20865
0.00662714 -0.264414 0.330281
-0.031609 0.0543614 0.16248
-0.0079484 -0.0845336 0.277024
-0.00257198 -0.330103 0.181286
-0.00620724 -0.313147 0.0328348
-0.00739699 0.153615 0.121768
0.0254603 0.138044 0.198226
-0.0565814 0.0792611 0.134857
-0.0639955 0.0284297 0.17009
-0.0645454 0.0831554 0.11529
-0.0603842 0.293515 0.106076
-2.42906e-05 0.174417 0.0862805
-0.00257545 0.431024 0.0999377
-0.0542857 0.293214 0.187612
-0.00855368 -0.244367 0.324485
0.0972387 -0.261526 0.559016
0.00668563 0.467037 0.161185
0.00094235 -0.152881 0.328291
0.00736016 -0.337925 0.331122
-0.0278003 0.301787 0.178111
0.00700937 -0.214573 0.0549005
-0.00364104 0.31923 0.158606
-0.00821209 0.244298 0.0352068
0.00143273 0.156101 0.494639
-0.0062729 0.212782 0.0842733
0.00513001 0.159742 0.492029
-0.0065448 0.323524 0.297492
-0.00993118 -0.163563 0.236108
-0.0108927 0.175911 0.289825
-0.0114067 0.0926936 0.21199
-0.0109898 -0.212066 0.439833
0.00218531 -0.0892423 0.426876
-0.0597019 0.0436481 0.200085
-0.00688879 0.167614 0.489369
-0.00417486 0.29207 0.334836
0.0567973 0.143745 0.173456
-0.00083652 -0.428473 0.0794162
0.00212316 -0.434228 0.0929581
-0.00689981 -0.216185 0.0711742
-0.0619803 0.0752528 0.223299
-0.0255096 -0.235576 0.551972
0.0405087 0.147086 0.166651
0.0343158 0.288637 0.20475
-0.00861146 -0.469006 0.231812
0.000227514 -0.00302096 0.225148
0.00413228 0.089361 0.383119
-0.0100312 -0.150054 0.321179
-0.0619803 0.0598965 0.146626
0.0342388 0.29016 0.202471
-0.00502553 -0.20464 0.44465
-0.00802698 0.294835 0.353124
-0.00634534 0.342049 0.0237103
0.0377377 0.272876 0.192138
-0.00639858 -0.164795 0.199596
-0.00130775 -0.390478 0.293308
-0.00950541 0.402851 0.308246
-0.00330731 -0.295414 0.142567
-0.0420722 0.277723 0.171838
-0.00443165 0.321274 0.189096
-0.0647278 0.00988832 0.181124
-0.0043179 -0.168866 0.0918341
0.00082577 0.125947 0.375096
0.00999048 0.150597 0.517391
0.0370182 0.252766 0.257654
-0.0647278 0.0419348 0.214716
-0.0692867 0.308823 0.183118
-0.00970401 -0.466789 0.146903
7.04601e-05 -0.20891 0.429557
-0.00935311 -0.00508454 0.222643
-0.001332 -0.290153 0.0643969
-0.0580098 0.291046 0.171004
0.00409593 -0.244161 0.372587
-0.0086464 -0.107158 0.292009
0.005751 0.401642 0.0328984
-0.00160231 -0.266837 0.317601
0.00107071 0.288422 0.336303
-0.00430112 -0.312675 0.181571
-0.0554709 0.325887 0.174823
-0.0533746 0.302452 0.195897
0.0469495 0.156928 0.175615
0.00329734 0.0535704 0.186878
-0.0937004 -0.241538 0.544117
0.00255375 0.356123 0.32303
-0.00520944 -0.324121 0.224342
0.00615944 -0.162088 0.201128
-0.00413458 0.452424 0.1926
-0.0195502 -0.31289 0.183242
-0.0265887 0.165296 0.390876
-0.00263407 0.346511 0.19738
-0.00142214 -0.239655 0.0665888
0.00302224 0.33177 0.0222693
-0.00566871 -0.395951 0.0597615
0.0320065 -0.306439 0.201637
-0.0266998 -0.263303 0.279228
-0.0647278 0.0702191 0.138138
0.0057959 0.129388 0.399546
0.00702432 -0.175723 0.258909
0.0306162 0.292004 0.177007
-0.0407439 -0.315872 0.180802
-0.00388407 0.246384 0.164948
-0.00398811 -0.304522 0.144924
-0.00914216 0.438217 0.270679
-0.0637858 0.0650692 0.123716
-0.0263456 0.300732 0.182624
-0.00490037 -0.327376 0.227907
0.000977383 0.179216 0.276174
-0.00412474 -0.433536 0.293131
-0.00723597 -0.448636 0.0775075
-0.00529864 -0.26435 0.0327628
-0.00390537 0.312043 0.0292195
-0.0246545 0.302688 0.184445
-0.00814468 -0.467017 0.176695
-0.0110673 0.136892 0.166789
0.0140787 -0.251834 0.339506
-0.0588434 0.306134 0.185581
-0.00654091 -0.337814 0.0262422
0.00496431 0.120989 0.304057
-0.0646746 -0.233812 0.538287
-0.00431745 -0.189685 0.512109
-0.0619803 0.0485023 0.129408
-0.00187084 -0.330961 0.0842449
0.0134953 -0.244313 0.352002
-0.0108554 0.374314 0.0224678
-0.00445815 0.287667 0.136857
0.010022 0.0643587 0.163748
-0.0470799 0.304432 0.171923
-0.0619803 0.0585878 0.165734
-0.000904806 -0.43064 0.0957693
-0.00232395 -0.364835 0.10113
-0.0588434 0.291622 0.173752
-0.0103964 -0.196454 0.278852
-0.00392778 0.270048 0.169483
0.0078032 0.458032 0.240991
-0.00433033 0.480823 0.197567
0.00653584 0.175254 0.340283
-0.00293649 -0.371187 0.17227
0.0267892 0.205782 0.499744
-0.00321746 0.293166 0.159995
-0.0373167 0.278062 0.210482
0.00301846 -0.446041 0.0728206
-0.0334734 0.242866 0.191156
-0.00883973 0.167818 0.265886
-0.0105023 0.291095 0.349242
-0.0727486 0.310781 0.144029
-0.00323691 -0.32396 0.154061
-0.0776884 -0.0288941 0.164785
0.0369895 0.0847471 0.166655
-0.0647278 0.0482375 0.192907
-0.0104516 0.453027 0.249754
-0.0020368 0.293827 0.121509
-0.00653396 0.149366 0.0936294
-0.00522358 -0.342901 0.106038
0.00203153 -0.446787 0.103044
-0.00976626 0.0118056 0.197989
-0.00310974 0.274233 0.160862
-0.00190614 -0.341478 0.233903
-0.00197631 -0.203029 0.0744396
-0.00217626 -0.134458 0.462284
-0.008189 0.166931 0.0920148
-0.00719758 0.0807578 0.186584
-0.0044307 -0.372709 0.113072
-0.00786691 -0.400627 0.0574771
-0.0580267 0.251478 0.205168
-0.00177282 -0.260792 0.197743
-0.00603095 -0.418145 0.0673467
-0.00053763 -0.352365 0.260003
0.00113127 -0.193076 0.25
-0.00604399 0.146829 0.160016
0.0097077 0.17921 0.333636
-0.00617948 0.215749 0.0871518
0.0349018 0.0583735 0.162061
0.025533 -0.239208 0.540794
-0.00626003 -0.164443 0.173834
-0.0059025 -0.468529 0.239168
-0.0052334 0.30438 0.0754457
-0.0420722 0.306726 0.175571
-0.0957499 -0.241665 0.551384
-0.0420722 0.312492 0.158958
-0.00479216 -0.417636 0.270692
0.109187 -0.260224 0.55416
-0.0106075 -0.154442 0.167669
0.0225841 0.0688668 0.180889
-0.0238383 0.185625 0.516152
0.00525556 -0.463302 0.104459
-0.0061283 0.30533 0.0722904
-0.00229495 -0.325811 0.107726
-0.00812589 -0.423335 0.274201
0.00528085 -0.23616 0.543958
-0.00283204 -0.335756 0.195076
0.0846475 -0.226931 0.553811
-0.00255475 -0.292708 0.198462
-0.00296847 0.438009 0.0915723
-0.00311949 -0.345694 0.185873
8.93594e-05 0.341442 0.00404273
-0.00703205 -0.00389053 0.403408
0.0329854 0.0476663 0.183052
-0.0512102 -0.228616 0.550197
-0.0447754 0.303986 0.169526
-0.00932524 0.0733171 0.387871
0.000307445 -0.166008 0.199765
-0.00733862 -0.407747 0.0651798
-0.00822842 -0.224789 0.293571
-0.00110631 0.317603 0.355432
-0.050112 0.325158 0.178538
-0.0658446 0.305315 0.184447
0.00451503 -0.185877 0.257316
-0.00339929 0.274548 0.171684
-0.00426898 -0.303038 0.198651
-0.00143046 0.238725 0.237712
-0.0169647 0.0758596 0.178647
0.00376207 0.204748 0.323591
0.00657574 0.111214 0.329614
-0.00247744 -0.191567 0.243219
-0.00126076 0.276824 0.2365
-0.00539969 0.154226 0.375792
-0.00559479 -0.414697 0.04154
-0.00755936 0.0462262 0.180358
0.00762311 0.331805 0.341232
-0.0567032 0.0928922 0.154293
-0.00261248 0.278097 0.185877
-0.00499214 0.255573 0.207576
-0.00200133 -0.0612431 0.417619
0.00745147 -0.43441 0.0717719
-0.00380918 -0.395487 0.15769
0.00659594 -0.088119 0.442299
-0.0514817 0.0258291 0.191409
-0.0425453 0.29369 0.18291
-0.00827749 0.423343 0.07854
-0.00439246 0.292178 0.1875
0.00302224 0.371497 0.322839
0.00267322 -0.241154 0.305673
-0.00759251 -0.442034 0.0694978
0.00812061 -0.0892364 0.273675
-0.0597019 0.0187907 0.155913
0.00192097 -0.330026 0.318806
-0.00365486 0.316206 0.181382
-0.0077543 -0.409326 0.0648694
-0.00236109 0.41762 0.105793
-0.0040144 -0.245338 0.0526582
-0.00411076 0.0704501 0.175749
-0.0647278 0.071752 0.167126
0.00833266 -0.23653 0.367837
-0.00329618 -0.332234 0.164734
-0.00703069 0.229938 0.319498
-0.00839627 0.464085 0.204477
-0.0106464 -0.469203 0.137563
-0.0522173 0.298536 0.18618
0.0100072 0.0582437 0.187582
0.0099583 0.0662825 0.186218
0.0164511 0.060112 0.171093
0.000204123 -0.0709454 0.270043
-0.00447128 0.267608 0.140284
-0.0351631 0.223637 0.182166
-0.0026087 -0.431295 0.218799
0.00260572 -0.192712 0.266649
0.0319254 -0.304167 0.198894
-0.00884884 0.194139 0.297213
-0.063661 0.0962109 0.229843
-0.0401217 -0.282165 0.223843
-0.00910361 -0.401254 0.0360163
-0.00774896 0.360724 0.0266886
-0.00383629 -0.328294 0.163297
-0.0770609 0.0644949 0.182677
-1.45328e-05 -0.240779 0.306272
0.00666816 -0.0685157 0.424172
0.00425571 -0.211142 0.305117
-0.0113923 -0.14474 0.45926
-0.00704034 -0.369266 0.0381536
0.00455609 0.431751 0.0793815
0.00608414 0.467007 0.181903
-0.0318634 0.171489 0.197069
-0.00315885 -0.335374 0.181938
-0.00438798 0.289253 0.139154
-0.0522173 0.315635 0.178367
0.00573328 0.290634 0.00388303
0.0222193 0.136917 0.199547
0.000636742 0.00101407 0.222629
0.00462226 0.137819 0.509529
0.0398948 0.238486 0.192696
-0.00416127 -0.316348 0.122338
0.00141342 0.110156 0.258802
0.00575415 -0.292826 0.0228434
0.00597559 0.0534809 0.405867
-0.0308152 0.24331 0.184094
0.00221275 -0.334686 0.0236346
0.00228664 0.156756 0.505691
-0.00635598 -0.198875 0.339903
0.00822395 0.0512633 0.179707
0.0283992 -0.265826 0.26047
-0.000924034 0.169311 0.491375
-0.0463977 0.292127 0.159147
0.00264499 -0.203846 0.0762828
-0.00618714 0.312638 0.354619
-0.00643204 0.356472 0.262019
-0.00365519 0.392132 0.308613
-0.0111647 -0.220074 0.437517
-0.00561234 0.344659 0.321536
-0.000331017 -0.24365 0.252036
-0.000856943 0.120826 0.297559
-0.00842242 0.459948 0.166766
0.0122358 0.193931 0.496246
0.00563726 -0.349796 0.324682
-0.0461321 0.28179 0.193499
0.0074555 -0.171091 0.104753
0.00216688 -0.368795 0.0402661
-0.00155885 0.35935 0.238667
-0.000860982 -0.223234 0.450042
-0.0027606 -0.318717 0.172148
-0.00986138 0.136158 0.385764
-0.000305827 -0.450221 0.137157
-0.00201818 0.247903 0.315673
-0.00744983 0.45372 0.207184
-0.00675491 0.160754 0.501855
0.00301359 0.223054 0.313215
-0.000784794 0.345945 0.33147
0.00659272 -0.346253 0.327134
0.00193324 0.147121 0.143712
-0.00266174 -0.173172 0.221216
0.00488462 -0.218455 0.541928
-0.0647278 0.0476377 0.227231
-0.00401922 -0.275283 0.133845
0.00238755 0.463033 0.148325
0.0169135 -0.260381 0.307083
0.00370931 0.0182077 0.397527
-0.0214448 0.0976333 0.188161
-0.00242364 -0.215498 0.285968
0.00614403 -0.475498 0.146378
-0.00761763 0.210699 0.298537
0.00163333 -0.101974 0.267975
-0.00195638 0.437378 0.261899
-0.0594314 0.0300053 0.170458
-0.0071844 0.153859 0.197256
-0.0116798 -0.225637 0.406494
-0.0588434 0.307201 0.179145
-0.00737818 0.42609 0.268855
0.00610145 0.130729 0.192128
-0.00604828 -0.459137 0.0922583
-0.0447754 0.280527 0.166757
-0.0533746 0.29721 0.164947
-0.0332714 0.180533 0.188762
-0.00903064 -0.16116 0.191004
0.000556814 0.167669 0.259465
0.00229593 0.0240369 0.395637
-0.00765862 0.152383 0.472255
0.0702689 -0.24101 0.549044
-0.0082394 0.374271 0.315932
0.00459508 -0.0925835 0.429497
-0.00480443 0.199102 0.196797
-0.00548714 0.132727 0.134707
-0.0593382 0.0528993 0.15535
0.00764999 0.121972 0.380941
-0.00847235 0.149863 0.151798
-0.00816473 0.202551 0.294283
0.00512008 0.143607 0.436795
0.00125312 -0.232377 0.537935
-0.0103768 0.0995013 0.230539
-0.00569495 0.202842 0.0738468
0.00752276 -0.0654184 0.249321
-0.0022875 0.311161 0.0291652
0.0121386 0.199793 0.497659
-0.0565814 0.0829835 0.202763
0.000964547 0.447791 0.133487
-0.0596045 0.288623 0.150949
-0.0107007 0.135766 0.390964
-0.00232233 -0.0906505 0.283819
-0.00664765 0.358455 0.0281158
-0.050112 0.31245 0.174671
-0.0285172 -0.228912 0.549538
0.000378235 0.22742 0.504264
0.0026626 -0.423416 0.073601
0.0360267 0.276862 0.183397
0.00675379 0.262068 0.336009
-0.00818046 -0.464137 0.205784
-0.00818318 -0.306336 0.0274569
0.00242601 -0.167207 0.140849
-0.0022912 -0.19212 0.501062
-0.0645454 -0.000485118 0.176731
-0.00833925 0.290177 0.0230829
0.00267821 0.164394 0.488672
-0.00554079 -0.208212 0.0719134
0.00478193 0.184552 0.0496345
0.00267322 -0.369756 0.313992
-0.00881093 0.145696 0.250781
0.00066556 -0.214478 0.280169
0.0353636 0.269529 0.241895
-0.017767 0.0964874 0.191999
-7.71064e-05 -0.197462 0.0546194
-0.00182066 -0.204325 0.507908
0.00598043 -0.209166 0.483696
-0.0575996 -0.242971 0.540975
0.00812009 0.265797 0.341926
0.000990084 -0.347148 0.0107618
-0.0645446 0.00847241 0.149115
-0.000360563 0.36222 0.0312134
-0.0619803 0.0741601 0.193139
-0.0158198 0.0579034 0.179668
-0.0161648 0.191244 0.317038
-0.0107896 -0.149459 0.307618
0.00119724 0.176139 0.272628
-0.00402732 -0.428092 0.195971
-0.00336193 -0.182974 0.351038
0.00564199 0.181579 0.333334
0.00135745 -0.22224 0.386192
-0.00744115 0.293367 0.338195
-0.00959569 -0.361007 0.322846
-0.0551662 -0.222489 0.550136
-0.00275591 0.45045 0.241084
-0.0645454 0.00487703 0.146823
-0.061247 0.00153095 0.182186
-0.00445639 -0.176307 0.270353
-0.0589043 0.0484285 0.184205
-0.0647278 0.0688742 0.128333
-0.00303911 0.218492 0.176709
0.00358163 0.171997 0.294712
0.0020113 -0.237463 0.297622
-0.00371515 -0.326653 0.158557
-0.00071004 0.0945428 0.505695
-0.00592329 0.45569 0.230254
0.0101349 0.184287 0.318924
0.00654275 0.429052 0.298865
-0.0348454 0.261263 0.184944
0.000441254 0.404068 0.284021
-0.00679181 0.42614 0.0750199
-0.00349225 -0.331023 0.14944
0.00238404 0.419502 0.279366
-0.120924 -0.231818 0.553839
-0.0425453 0.331469 0.167359
-0.0178164 0.203314 0.516001
-0.00876539 -0.193177 0.524053
-0.00759496 0.149939 0.22387
0.00743571 0.469288 0.183141
0.00698107 -0.28628 0.328893
-0.00854004 0.148285 0.147394
-0.0042543 -0.319489 0.179664
-0.00663062 -0.355868 0.0387153
-0.0554248 -0.240931 0.548141
-0.0555034 0.309626 0.192779
0.00111251 -0.171898 0.179019
0.000580716 0.444448 0.10424
-0.111019 -0.0187243 0.163674
-0.0619803 0.0497064 0.166111
-0.00412506 0.287158 0.177094
-0.00184679 -0.453925 0.157054
-0.0543942 0.0288226 0.166134
-0.0431066 -0.309825 0.178532
-0.00113699 0.4785 0.141312
-0.0114316 0.101689 0.385794
0.0026463 0.272731 0.0212927
-0.0227754 0.065485 0.164636
0.00812961 -0.0177151 0.225576
0.0270092 0.174802 0.198266
0.0289828 0.253496 0.270525
-0.0512932 0.0831787 0.150544
-0.00333658 0.308022 0.146429
0.00134631 -0.195215 0.492781
0.00168961 0.232318 0.0442779
-0.00845321 0.409714 0.293218
0.00589164 -0.0873038 0.261285
0.0255822 0.211006 0.286203
0.0239128 0.141317 0.187713
0.00156731 0.481877 0.179664
0.0012058 0.144829 0.173887
-0.0092502 0.46599 0.24262
-0.0441112 -0.294395 0.211479
0.00570485 0.124309 0.31845
-0.0623377 0.0856871 0.231922
-0.0255783 0.121334 0.18455
-0.0101959 0.451693 0.088347
-0.0619803 0.0216355 0.13865
-0.00832671 0.366709 0.0286188
-0.00277381 -0.310225 0.170138
-0.00824451 -0.242336 0.54927
-0.00824604 -0.354242 0.319922
0.0332383 -0.268567 0.264491
-0.0449218 -0.285055 0.222653
-0.00588641 0.138035 0.4083
-0.00809208 -0.466999 0.185905
-0.0105403 0.169019 0.27282
-0.0585703 0.0426823 0.131121
0.000414757 0.0983617 0.505706
-0.00346969 -0.394122 0.15967
-0.0101926 0.106771 0.256299
-0.00608865 0.0860003 0.243042
-0.00452815 0.246505 0.216336
-0.0077532 0.277739 0.351656
-0.00263288 -0.27278 0.192639
-0.0268951 -0.252342 0.29543
-0.0305553 0.287901 0.181157
0.00667598 -0.162692 0.330486
-0.0937365 -0.266203 0.557219
0.035902 -0.281124 0.250315
-0.0804591 -0.225442 0.551915
-0.00793991 -0.217336 0.409611
0.00842607 0.0317347 0.194031
-0.0135959 0.135246 0.506307
-0.00425779 0.152077 0.477829
0.00541687 0.288529 0.00369623
-0.000338104 0.151255 0.139782
-0.00360583 0.290471 0.156814
-0.054436 0.0700328 0.149024
-0.000445925 0.370237 0.249765
-0.00697477 0.365335 0.0396094
-0.00104755 -0.405988 0.0577622
-0.00533337 0.20509 0.515977
-0.00508693 -0.0624635 0.240839
-0.00279995 -0.272065 0.148474
0.0182485 0.134833 0.196267
-0.0311688 0.215693 0.278864
-0.000959292 0.173429 0.249164
-0.0026942 -0.263303 0.314674
0.00341564 -0.064875 0.43822
-0.00355343 0.364656 0.165701
-0.0512932 0.0745191 0.144465
-0.010505 0.133076 0.166811
0.000690998 -0.240795 0.326004
-0.0512932 0.0456569 0.168517
-0.00676508 -0.300452 0.0247039
-0.0770295 0.0449703 0.182771
-0.0100346 -0.287629 0.335335
-0.050112 0.29945 0.17977
0.0105166 0.132571 0.383687
0.00748283 -0.0794815 0.258886
0.00923846 0.103487 0.18948
-0.0034786 -0.136313 0.291435
-0.0139308 -0.239103 0.540623
-0.00510662 0.312032 0.239241
-0.050112 0.305948 0.1723
-0.0503761 0.306548 0.187726
-0.00302286 0.137608 0.239599
0.0728209 0.147484 0.173516
-0.0565814 0.0584225 0.187214
-0.0425453 0.315563 0.174414
-0.00223109 -0.196554 0.0981754
-0.0110627 0.390785 0.323337
-0.0597019 0.0415413 0.204954
-0.000936813 -0.455409 0.12751
-0.0307262 0.182512 0.51653
-0.00451995 -0.0201384 0.406806
-0.000173088 0.122484 0.303748
-0.0631678 0.0458001 0.118848
-0.00842262 0.374326 0.0384247
-0.00387219 -0.214356 0.28755
-0.00573429 -0.330033 0.233496
0.00165302 0.177651 0.0796495
-0.0043454 -0.374103 0.331768
0.00599543 0.161131 0.500342
-0.0280514 0.166033 0.389713
-0.00491556 -0.233743 0.232525
0.0063205 0.477183 0.15734
-0.00529835 0.195671 0.0756753
-0.0112242 -0.128891 0.302626
0.00649138 0.327634 0.35015
-0.0425453 0.314247 0.194942
-0.00214731 -0.325831 0.122735
0.0014134 0.451546 0.239582
0.00695076 -0.158254 0.179525
-0.0433157 0.292507 0.174344
0.00460473 -0.214457 0.54175
0.006965 -0.089751 0.277244
-0.00617631 0.103876 0.309654
-0.0101437 -0.388322 0.312665
-0.00280651 -0.166344 0.200855
-0.0495209 -0.23644 0.560999
-0.00545803 -0.267243 0.25219
-0.00592952 0.0142411 0.397975
0.00790919 -0.137071 0.300052
0.00204697 -0.351032 0.0287998
-0.0161721 0.17251 0.516072
-0.0647278 0.0907467 0.216991
-0.00810736 -0.298048 0.321151
-0.00176766 0.25901 0.220152
-0.0565814 0.0347622 0.136995
0.00707456 -0.13362 0.446261
0.0368916 0.272848 0.185331
-0.0802929 -0.0173239 0.171437
-0.00893075 -0.342399 0.0239086
-0.0619803 0.00989684 0.155477
-0.0579294 0.25304 0.205557
-0.0118609 -0.153973 0.315622
-0.000192041 -0.0946513 0.286354
0.00759318 0.0991476 0.281831
-0.0105218 -0.208774 0.292178
-0.0136686 0.124485 0.355597
0.000309711 -0.206332 0.499231
-0.0100792 0.0187058 0.400355
-0.0739116 -0.225879 0.543565
0.0381708 -0.285605 0.231006
-0.00654657 0.327095 0.326587
-0.0760334 -0.263191 0.551901
-0.076756 0.0300877 0.168362
-0.0215967 0.141321 0.513339
-0.00757346 -0.296717 0.326577
-0.000513244 -0.35465 0.261242
-0.00854003 0.294862 0.335939
-0.000247144 -0.199533 0.519036
0.00660275 -0.211969 0.357509
-0.0337737 0.207399 0.192792
-0.0105887 0.347848 0.337642
0.0319125 -0.271121 0.267421
-0.000167149 -0.150552 0.137993
0.00302224 0.418896 0.0690579
-0.0619803 0.0813141 0.174438
-0.00721632 -0.205204 0.281061
0.00109732 -0.445592 0.119074
-0.053157 0.0228118 0.1857
0.00209303 -0.206919 0.272393
-0.0117091 -0.221576 0.422183
-0.00276573 0.0861238 0.215253
0.00152857 0.277525 0.335163
0.0364405 0.267953 0.237798
0.0203194 -0.27038 0.281788
-0.077924 -0.0368574 0.164319
0.00492621 -0.216459 0.538373
-0.00756478 0.135789 0.227689
-0.00554127 0.30513 0.0626939
-0.00644298 0.31877 0.262508
-0.00255987 0.177245 0.340087
0.00459123 0.386205 0.31679
0.00590379 0.0657343 0.193333
-0.0597019 0.0856271 0.199172
-0.00564726 0.256014 0.348327
-0.0641383 0.237515 0.105417
0.00242071 -0.143078 0.464719
-0.0303754 0.0937047 0.201571
-0.0336688 0.202251 0.190196
-0.00196978 -0.38829 0.305806
0.00204035 0.136195 0.417326
-0.00541894 -0.287298 0.222465
-0.0065567 -0.227964 0.543286
0.0174454 -0.264869 0.328415
0.0697484 0.145867 0.173173
-0.00462235 -0.240848 0.390269
0.00375887 -0.0777922 0.252489
-0.0770609 0.0568286 0.170694
-0.000883658 -0.250258 0.330517
-0.00269569 -0.0096899 0.424462
-0.0104496 -0.202973 0.291475
0.0360472 -0.298387 0.201237
0.00221145 0.405795 0.0325778
0.0197345 -0.267602 0.28142
-0.0107508 0.158954 0.267877
0.00658444 0.155007 0.366652
-0.0116621 -0.233513 0.375371
-0.0619803 0.0468797 0.180407
-0.00560395 0.24649 0.259023
-0.0308347 0.110656 0.18115
0.013062 0.202742 0.321267
-0.0619803 0.106861 0.186488
0.000470588 -0.390153 0.0554372
0.00725199 0.139553 0.379521
0.00420309 0.215849 0.502284
0.00528749 0.139126 0.41914
0.0042636 -0.0183022 0.424806
-0.0594213 0.0311029 0.144646
0.0070448 -0.474799 0.195762
-0.0017767 0.10467 0.516188
-0.0522173 0.304093 0.167036
0.116087 -0.237627 0.553597
-0.00841956 0.0831342 0.400561
-0.0533746 0.321571 0.176662
0.000145034 0.29908 0.000288867
0.00807224 0.406101 0.311363
0.00832941 0.109727 0.386238
-0.00843347 0.306624 0.333953
-0.0749217 -0.264551 0.562561
-0.000585992 0.448599 0.282195
0.00804971 0.111216 0.384323
-0.00605817 0.100818 0.226935
-0.036584 0.170821 0.196539
-0.00850628 0.242519 0.0334844
-0.00854004 0.15692 0.239174
-0.0113522 -0.0297642 0.22654
-0.00339406 0.226627 0.160602
-0.000718175 -0.322657 0.325101
-3.94186e-05 0.452736 0.124443
-0.0480051 0.314118 0.180615
-0.010988 -0.218372 0.444443
-0.00609953 -0.265745 0.0334169
0.0018604 -0.310121 0.0228364
-0.0104458 0.133588 0.159199
0.00789891 0.153935 0.0980495
-0.0286255 0.211631 0.279759
-0.00545534 -0.168702 0.215168
-0.0308889 0.114183 0.184272
-0.00854001 0.389847 0.31103
-5.61966e-05 0.147242 0.193758
-0.00669164 -0.32718 0.326372
-0.00689696 -0.236352 0.296918
-0.0647278 0.0859824 0.162841
-0.0081736 -0.162148 0.179837
0.000637901 0.218744 0.0547839
-0.0606873 0.177156 0.216758
0.000609994 -0.205984 0.0838074
-0.00718858 0.450405 0.218282
0.00728958 -0.408564 0.0448196
-0.00789001 -0.120105 0.282223
0.00741164 -0.290587 0.0166432
-0.0534089 0.318285 0.179564
0.00445727 0.299611 0.353877
0.000500702 0.239482 0.0326882
0.0018666 0.463522 0.157442
-0.0522173 0.312057 0.186889
0.00723522 0.474372 0.148983
-0.00487143 0.286114 0.204779
0.00121282 0.0129977 0.41785
-0.00846123 0.189994 0.284768
-0.0313 0.0448331 0.174883
0.0483683 0.144506 0.169466
-0.008352 0.114185 0.394365
-0.00525957 -0.322488 0.216455
-0.0721883 0.304873 0.184541
-0.00768258 -0.161886 0.174152
0.00447951 0.103855 0.238878
-0.00763966 -0.170879 0.19479
-0.00369984 0.46335 0.168439
0.0012746 -0.406277 0.315259
-0.014038 0.153914 0.503765
0.00014938 0.243905 0.0308528
-0.00766984 0.441633 0.0937116
-0.00206402 0.197598 0.515715
-0.00165255 -0.361354 0.219875
-0.00907862 0.23496 0.0181848
0.0070523 0.338933 0.00871036
-0.00505676 0.383821 0.10034
0.0121409 0.0534282 0.180616
0.00300833 0.170569 0.0943528
-0.00406189 -0.311018 0.19436
0.00725818 -0.154574 0.154882
-0.0951473 -0.0331801 0.171863
0.0327366 0.193609 0.501262
0.00245811 -0.187787 0.101251
-0.0369179 0.298263 0.181322
0.0799483 0.139233 0.168546
-0.073605 -0.247497 0.557829
-0.0442118 -0.289792 0.227624
-0.0488203 -0.239997 0.550127
0.00691186 -0.245969 0.353046
-0.000448646 -0.186464 0.514254
-0.0035883 0.152488 0.517294
-0.00950987 0.22796 0.333925
0.00770722 0.184929 0.300538
-0.0375811 0.288406 0.195977
3.1133e-05 0.407779 0.296932
0.028716 -0.275021 0.268584
0.118508 -0.240605 0.550544
-0.00462659 -0.265423 0.0149553
-0.00781778 0.0203654 0.397632
-0.00292185 -0.313344 0.186787
0.00177008 0.143514 0.252768
0.000713204 0.391493 0.311334
-0.0597019 0.0948766 0.17652
0.00808566 0.345576 0.0141135
-0.00277696 -0.229433 0.120102
-0.0447754 0.305986 0.204873
-0.00368968 0.233663 0.149294
-0.0122714 0.139922 0.382265
0.00255409 0.415872 0.284047
-0.00287543 -0.208606 0.070573
-0.0390135 -0.269386 0.25191
-0.00410608 0.143914 0.102038
-0.00474893 -0.23432 0.413244
-0.00861871 0.454669 0.117128
-0.00954756 0.0295315 0.41077
-0.00821326 -0.451573 0.118697
0.000286223 -0.176632 0.206107
0.00137766 0.150569 0.133904
0.0311795 0.259052 0.194513
-0.00605179 -0.215454 0.411616
0.146006 -0.230246 0.551698
0.00578744 -0.375336 0.0339532
-0.0112924 -0.232134 0.38579
-0.00974407 0.396678 0.0313055
-0.000761905 0.33118 0.0226595
-0.0447754 0.301798 0.168313
0.00640503 -0.26018 0.320271
-0.00249322 0.290036 0.112057
0.000443913 0.390311 0.045121
-0.0813831 -0.243734 0.54598
0.010094 0.106699 0.513483
0.006538 -0.162787 0.142034
0.00564901 -0.414081 0.0443993
-0.00327828 -0.321154 0.141211
-0.00849684 -0.214723 0.470216
0.00137913 0.18108 0.0770136
-0.0104466 -0.238739 0.0373557
-0.00838074 0.404368 0.0587048
-0.00781336 -0.346224 0.312713
0.00776536 0.242685 0.331988
-0.0104106 0.206291 0.316502
0.0057721 -0.255609 0.317403
0.00224755 0.150426 0.135588
-0.0288777 0.174564 0.516333
-0.00873801 0.226338 0.504072
-0.0420722 0.308318 0.15114
0.00736327 -0.162306 0.133327
0.000426443 0.0469171 0.181604
-0.0102151 -0.350626 0.332893
-0.00174592 0.450383 0.149756
0.0226504 -0.263292 0.295152
-0.0208246 0.0989221 0.190053
0.00787398 0.098974 0.502678
0.00745414 -0.168228 0.239617
-0.00516293 -0.451802 0.237214
-0.0721526 -0.243838 0.54428
0.0380707 0.0555143 0.162045
0.00715408 0.133303 0.385244
0.00177995 -0.321326 0.176839
-0.0078746 0.402849 0.295431
0.00790569 0.460746 0.235523
0.00179789 0.377383 0.339664
-0.00251528 0.199362 0.297382
0.0104828 -0.273181 0.316642
-0.00944881 -0.41837 0.289588
-0.0522173 0.301949 0.160745
-0.0050791 -0.223706 0.0344866
0.00684049 0.168826 0.0862298
-0.0619803 0.104886 0.171838
0.00344504 -0.453321 0.0835143
0.0229296 0.115705 0.191518
-0.0763631 0.00958293 0.172978
0.00102917 0.270584 0.0223946
-0.054436 0.0567378 0.176062
0.00204436 -0.45926 0.181186
-0.0731627 0.296838 0.1381
-0.022023 0.212894 0.288469
0.00134801 -0.151365 0.136017
0.000812678 0.3034 0.327973
-0.0565814 0.0334718 0.139301
-0.0012816 -0.327912 0.0351091
-0.0619803 0.0510848 0.178873
-0.0647278 0.103166 0.162833
0.00891921 0.0539349 0.168189
-0.045725 0.311059 0.180079
-0.0572576 0.0834974 0.21949
-0.00787702 0.160025 0.507192
-0.0518327 0.312064 0.183646
-0.015333 0.0480772 0.183318
-0.0154569 0.181825 0.312172
-0.00853999 0.459935 0.142365
-0.0641069 0.0725545 0.226359
-0.0647278 0.110441 0.174591
0.000510656 -0.0645848 0.4187
0.0287688 0.189053 0.200749
0.0430822 0.148076 0.169778
-0.0420722 0.305188 0.167673
-0.0692402 0.30521 0.186104
0.00731102 -0.13449 0.308066
-0.00728311 -0.338661 0.316956
-0.00821512 -0.467218 0.179057
0.00573295 0.155287 0.51701
0.0287106 0.297725 0.191409
-0.0103518 0.376298 0.326293
-0.000119722 -0.337878 0.0490091
-0.0071781 -0.182106 0.4793
-0.00311067 -0.328741 0.159936
-0.00948436 -0.28463 0.0234133
-0.00300003 -0.460328 0.210646
-0.0256567 0.0604074 0.187388
-0.0627201 0.289553 0.141051
-0.00555435 0.115102 0.352279
-0.0023917 -0.166283 0.187067
0.0144596 0.194673 0.337396
-0.0323494 -0.275247 0.264718
-0.0619803 0.0414036 0.181534
-0.00806162 -0.137286 0.444451
0.00724014 0.0961361 0.512259
0.00329944 -0.453561 0.266736
-0.0338622 0.292469 0.19672
0.000731147 0.298631 0.314659
-0.00247087 -0.442703 0.117413
0.137725 -0.228087 0.550328
-0.00829903 0.314133 0.00313675
-0.0106671 -0.322033 0.334041
-0.0312173 -0.318632 0.173272
0.000851201 -0.336331 0.0345212
-0.0565814 0.0436081 0.196413
-0.0619803 0.043345 0.186213
-0.0405226 0.240093 0.189085
0.00420009 0.254178 0.346817
-0.00222838 0.252271 0.099935
-0.0118609 -0.0674411 0.253927
-0.0762312 0.00357042 0.168456
-0.0478745 -0.244122 0.550844
-0.0842043 -0.0172302 0.16477
0.0449818 0.140994 0.173907
-0.00577563 0.359441 0.267966
-0.0053633 0.287572 0.249186
0.00445285 -0.211363 0.483752
-0.00813255 0.211534 0.310295
-0.00691281 0.377762 0.319625
-0.0821138 -0.240671 0.54126
-0.0821013 -0.0313906 0.168964
0.00549022 -0.213487 0.0449586
-0.00799871 0.0286191 0.204044
0.0078188 0.410477 0.0440822
-0.0470799 0.31132 0.1818
0.0330683 -0.290346 0.224847
-0.00340661 0.321506 0.170394
-0.0852121 -0.0430595 0.164709
0.00179684 0.176199 0.259611
0.000485239 -0.173425 0.18702
0.00237903 -0.156042 0.329864
-0.00241478 -0.304933 0.206048
-0.00607972 -0.215166 0.245421
0.00715503 -0.170886 0.10104
-0.0425453 0.316117 0.181689
-0.0647278 0.021146 0.145231
-0.00577378 -0.257418 0.0449333
-0.00515579 0.152654 0.221117
-0.00605704 -0.0879704 0.445774
-0.0064411 -0.183268 0.229661
-0.0613722 0.0164794 0.214239
0.00504911 0.090229 0.203383
0.0504216 -0.227671 0.546828
-0.0623145 0.126184 0.226304
-0.00726341 0.342093 0.0220339
-0.00735511 0.245625 0.327443
-0.0425453 0.285879 0.18427
-0.00665328 0.468265 0.112425
-0.0128345 0.137014 0.408573
0.00753037 0.393308 0.324854
-0.00179891 -0.0607464 0.417484
0.00584084 -0.315385 0.339415
-0.054436 0.0776782 0.204344
-0.0047078 -0.359102 0.128343
-0.0368205 -0.275034 0.263448
-0.0638916 0.091094 0.229279
-0.0118609 -0.156709 0.320273
-0.0085073 0.398044 0.0469067
-0.00707978 0.45305 0.206058
-0.00205603 -0.180451 0.107238
-0.0612972 0.169204 0.216389
0.00814515 0.297565 0.180505
-0.00664848 -0.195429 0.0826133
-0.000625608 0.330764 0.0543331
-0.0107813 0.0793349 0.191175
-0.0619694 0.0473976 0.165993
-0.000402935 -0.310433 0.0250283
-0.0121839 0.0905831 0.243103
0.0471329 0.151545 0.177349
-0.0647278 0.0628762 0.168591
-0.0260228 0.159244 0.188885
-0.121468 -0.233903 0.539008
0.00771005 0.256309 0.0193852
0.0192886 0.148862 0.191123
-0.00325031 -0.35905 0.163844
-0.0254661 0.192836 0.516199
0.0330656 -0.235291 0.539257
-0.00850291 0.391262 0.0473959
-0.000297976 -0.329687 0.0268615
-0.0113428 -0.155785 0.3222
0.0043013 -0.207821 0.373312
-0.0608589 0.0812771 0.230878
0.00560022 -0.0242327 0.23478
-0.000646773 0.330283 0.250169
-0.0555033 0.315265 0.177055
-0.00444943 0.260577 0.187576
-0.00501708 0.131865 0.401503
0.00302224 0.351705 0.330648
-0.00348259 -0.316652 0.142731
-0.00371124 -0.362389 0.181514
-0.0116729 0.135456 0.36907
0.0410116 -0.318203 0.178641
-0.0351534 -0.267755 0.27412
0.00790039 0.456496 0.254879
-0.0567335 0.270226 0.201638
0.0287463 0.181615 0.195273
-0.149225 -0.230146 0.539105
-0.0184314 -0.243389 0.321555
-0.0124826 0.11044 0.280223
-0.0019708 0.314725 0.204158
-0.00613232 -0.309651 0.0334216
-0.0533746 0.299389 0.185418
0.00302224 0.350364 0.330689
0.0290197 0.241561 0.271357
-0.00821524 -0.435724 0.0832335
-0.0647278 0.0105016 0.176886
-0.00262067 -0.481303 0.194045
0.00724703 0.0455331 0.170189
-0.00275659 0.276426 0.204396
-0.00909723 0.109819 0.264711
0.0131638 0.0480469 0.166155
-0.00754631 -0.398689 0.292761
-0.0252236 -0.248391 0.303738
-0.0535049 0.0293873 0.153934
-0.007582 -0.324711 0.0231852
-0.00843215 0.427018 0.0729367
-0.0597019 0.0194468 0.199923
0.0112194 -0.277241 0.317817
-0.0101037 -0.154673 0.3245
-0.00417632 0.346315 0.13825
0.0572772 -0.229636 0.542621
-0.104371 -0.0313295 0.17518
-0.00808484 0.304683 0.00265477
-0.00241845 -0.345416 0.189029
0.0103027 0.179588 0.315475
0.0297151 0.24751 0.260997
-0.0107297 -0.0449072 0.418821
0.0118972 0.205803 0.316819
-0.00146197 -0.244539 0.546013
-0.0729281 0.0111261 0.165043
-0.00309829 0.162873 0.105215
0.00423858 -0.196768 0.482994
-0.00205371 0.170116 0.490501
0.00238425 0.102205 0.230968
-0.00531026 -0.286164 0.218477
-0.00758501 -0.387611 0.0411608
0.0025695 -0.310934 0.0275942
0.000215943 0.353818 0.311189
-0.00650449 -0.147869 0.182343
-0.0044737 -0.198514 0.0954539
-0.00134922 0.366905 0.246026
-0.00198248 -0.400327 0.117716
-0.0597019 0.0831386 0.171819
-0.054436 0.0699947 0.206934
-0.0108953 0.137795 0.174753
-0.00360006 0.292643 0.167674
0.0110533 0.308506 0.176788
-0.0365105 0.233212 0.279128
-0.00989054 -0.437909 0.0694306
0.00132319 -0.175202 0.142386
-0.0762113 0.00210732 0.172191
-0.0110808 0.294236 0.345777
0.00637803 -0.357601 0.0265782
-0.00640994 -0.200783 0.460315
-0.00353855 0.430169 0.272395
-0.00652612 -0.303198 0.316931
-0.00824601 -0.16404 0.181059
-0.00197365 0.205055 0.112707
-0.0647278 0.0709231 0.228863
0.00832666 -0.155524 0.458553
-0.00347725 0.302395 0.170586
-0.0577524 0.285652 0.199603
-0.109011 -0.240743 0.551537
-0.0109603 0.346126 0.0164126
-0.00459594 -0.140153 0.443604
0.00689251 0.309044 0.0142395
0.00777426 0.33153 0.341719
-0.00824602 -0.176205 0.231946
-0.00135771 -0.376903 0.232968
-0.00293318 0.359172 0.157266
-0.0026747 0.095818 0.212656
0.0346487 -0.274618 0.26027
-0.00690118 -0.365731 0.0481726
-0.075867 0.305395 0.183776
-0.0555033 0.320968 0.185831
0.00260692 -0.180622 0.237751
0.00160866 0.436284 0.0593385
-0.0647278 0.086108 0.17447
-0.00735244 0.278109 0.294785
-0.0036986 -0.33655 0.180134
0.0554804 0.142638 0.166269
0.0441589 0.0747263 0.173043
-0.00854004 0.189066 0.0686787
-0.00782485 -0.156777 0.124015
-0.0118576 -0.148884 0.311027
-0.00233047 -0.170067 0.13922
-0.000542721 0.112544 0.376591
0.00459186 0.324714 0.0181929
-0.00693663 -0.0281242 0.219221
0.00756585 0.15493 0.0938214
-0.0491477 0.310667 0.19847
-0.00374356 -0.294573 0.152582
0.00354908 -0.199211 0.466191
-0.00824602 -0.197473 0.268481
-0.00246887 0.330544 0.138199
-0.0512932 0.0249122 0.183081
0.0195778 0.102887 0.183272
0.00780838 0.0140275 0.207705
-0.00589725 -0.171147 0.217762
-0.0108637 -0.0197441 0.421312
-0.00426143 -0.427731 0.0785859
-0.0620083 0.192331 0.21525
0.035805 0.096389 0.168236
-0.061247 0.0482804 0.235251
-0.0074569 -0.225716 0.0513517
-0.0671745 0.289486 0.145445
-0.00097098 0.354299 0.233432
0.00500104 0.107319 0.253139
-0.0259722 0.211196 0.50135
-0.00688525 0.14722 0.148242
-0.0712107 -0.247217 0.558228
-0.0597019 0.0853774 0.201774
-0.0647278 0.040921 0.212742
-0.0116697 -0.233529 0.538615
-0.0527266 0.028125 0.169279
-0.0570174 0.318291 0.181498
-0.00114442 -0.339996 0.00914785
0.00312836 -0.204462 0.466893
-0.00734833 0.0507655 0.390884
0.00302224 0.178208 0.0813046
-0.000814033 0.255997 0.287692
0.000606412 0.460431 0.146434
-0.0420722 0.319974 0.175473
-0.0639738 0.095557 0.168879
0.0074606 -0.414996 0.298941
0.0136457 -0.251708 0.334456
0.00308961 0.0678524 0.405185
-0.0116705 0.136431 0.38217
0.00806266 0.142976 0.12691
-0.00290336 -0.242006 0.178183
0.000789696 -0.445585 0.101785
0.0313355 0.163688 0.194061
-0.00181933 0.445293 0.181381
-0.050112 0.285581 0.184012
-0.00911311 0.10018 0.229751
-0.0034039 -0.173451 0.343755
0.125014 -0.226457 0.54616
-0.00180213 -0.326542 0.0267869
-0.054436 0.0595447 0.189098
-0.0187644 0.0506924 0.1641
-0.00777039 0.145311 0.508318
-0.0212845 0.100346 0.181175
-0.00426927 0.0953071 0.209168
-0.00212181 0.321683 0.334309
0.01272 0.118325 0.511742
-0.00680079 0.177719 0.300777
-0.00434315 -0.346271 0.181593
0.002993 0.199866 0.0553374
-0.0037633 -0.278773 0.184468
0.00343689 0.156216 0.0819836
-0.00271089 0.270775 0.207497
-0.00994309 -0.270032 0.324326
0.0684831 0.146065 0.166185
0.039772 0.141977 0.173716
-0.00537552 -0.201982 0.0902698
-0.00411656 -0.213476 0.0659468
-0.0647278 0.102481 0.159515
0.000215324 -0.339829 0.0364678
-0.00343184 -0.252456 0.16553
0.000474337 0.268253 0.0229949
0.000724396 -0.146817 0.184322
-0.0118979 -0.10113 0.439981
0.00847542 -0.0506279 0.425557
-0.00739903 -0.210313 0.0751363
-0.00906397 0.40917 0.317348
-0.0693249 0.314796 0.146774
-0.00702103 -0.000603128 0.420595
-0.00822298 0.324627 0.338409
-0.00433682 0.383843 0.316199
-0.0512932 0.0332556 0.170179
-0.0611213 0.280364 0.10732
-0.0110967 0.463852 0.123292
-0.00345521 0.34641 0.13936
-0.0619803 0.0445383 0.224804
-0.00446385 -0.207617 0.278423
-0.00409074 -0.187643 0.235801
0.00250781 -0.0736493 0.248991
-0.00294642 -0.241779 0.147851
0.000993649 -0.164161 0.165137
-0.0107913 0.469602 0.195012
-0.00833301 0.157383 0.455676
0.0719011 0.133994 0.167864
-0.0242363 0.115612 0.181582
-0.0492293 0.299416 0.201835
-0.00616841 0.176926 0.256829
-0.0068988 -0.390945 0.285563
-0.031898 0.232699 0.26877
-0.00431551 -0.272261 0.20649
0.00532354 -0.0572595 0.257395
-0.0419627 0.0594146 0.187602
-0.00679622 -0.0257455 0.427601
-0.00769216 0.220256 0.0237391
-0.00325996 0.201365 0.0586502
-0.0760605 -0.246252 0.556652
-0.0114861 0.0308059 0.400738
0.00195632 -0.454756 0.230314
-0.033218 -0.319957 0.176928
-0.00173968 0.405843 0.298142
-0.00708589 0.130219 0.391291
-0.0366585 0.285974 0.203625
-0.0863831 -0.0306548 0.170539
0.000685237 -0.0754314 0.249305
-0.0103451 0.19046 0.0589409
-0.0588434 0.305497 0.18224
-0.00748548 -0.417771 0.0634603
0.0182503 -0.265405 0.285552
-0.0101833 0.155372 0.264784
0.00171824 -0.296681 0.00869894
0.00775404 -0.222464 0.381653
0.00248278 -0.360908 0.314238
-0.0270232 -0.252242 0.286735
-0.00350438 -0.308332 0.150534
-0.0512932 0.0274354 0.174075
0.0215866 0.184442 0.516241
-0.0474901 -0.2406 0.546494
-0.00660962 -0.374979 0.312993
-0.00836929 0.149823 0.517541
-0.0433157 0.280721 0.167891
0.00581168 0.30791 0.340253
-0.0565814 0.0161692 0.178821
-0.0571462 0.0830055 0.13684
-0.00277119 -0.314871 0.171059
-0.00515923 0.353678 0.215268
-0.0620476 0.0579342 0.227954
-0.00285703 -0.15045 0.138326
-0.0435709 -0.294583 0.207072
-0.0597019 0.0303029 0.144114
-0.104487 -0.228169 0.542669
0.0398962 -0.241146 0.546333
-0.077438 0.3035 0.149893
-0.00841773 0.07725 0.401776
-2.80651e-05 0.153254 0.227647
-0.00248849 0.16149 0.460528
0.0244609 0.232198 0.275871
0.00264416 -0.296098 0.3222
-0.00824602 -0.210434 0.282325
-0.00864848 -0.0330581 0.428021
0.00165555 -0.162857 0.166892
-0.00691152 -0.0828593 0.425246
-0.0137946 0.201874 0.314382
-0.0631119 0.180546 0.108318
-0.0471496 -0.232179 0.54654
-0.00934764 0.145032 0.396806
-0.0425453 0.291914 0.157435
-0.00168408 0.425116 0.0910327
-0.0106393 0.225158 0.323392
