-0.0024335 -0.141017 0.256999
0.0468195 -0.286244 0.17648
0.0150779 0.0410475 0.225741
0.0133759 -0.439789 0.232114
-0.0303569 0.127971 0.396538
0.0464531 0.0441597 0.30535
-0.0144615 0.38649 0.307948
-0.0247601 0.18738 0.191667
0.0101787 0.427565 0.28874
-0.0109767 0.404512 0.0746838
-0.00153002 -0.38894 0.300139
0.0346722 0.135076 0.392542
0.0312127 -0.243475 0.363237
-0.00852 -0.357284 0.0458878
-0.0343714 0.0276535 0.229972
-0.00424209 0.120052 0.384495
0.0177864 0.0771666 0.425674
0.0202162 0.0382526 0.221733
-0.0100169 0.182114 0.300237
0.028185 0.124161 0.196031
0.012418 0.438234 0.224196
-0.0329524 0.032563 0.177944
0.000351105 -0.232391 0.495513
-0.0143054 0.148244 0.128707
-0.0059038 -0.113668 0.32931
0.0115404 -0.458988 0.127441
-0.0101558 0.430416 0.244353
0.00210225 0.34944 0.035405
0.00517269 0.0774898 0.362734
-0.121368 -0.223143 0.603057
0.00825985 -0.215125 0.410473
-0.00108052 0.285893 0.320205
0.0100906 0.0829264 0.351397
0.0379579 0.032166 0.30951
-0.0292809 0.127289 0.166793
-0.00184726 -0.118719 0.350364
-0.0738167 0.0340685 0.110102
0.0116378 0.21998 0.0478264
-0.00375068 -0.0521025 0.391478
0.00622316 0.16627 0.236316
-0.0341814 0.015966 0.18666
0.00319796 0.38175 0.0222172
-0.0195292 0.149467 0.408323
0.00389235 -0.471303 0.170411
-0.0081997 0.0833041 0.365305
0.00823949 0.445976 0.263431
-0.0038914 0.274594 0.0340584
-0.0191525 0.246667 0.210617
-0.0343714 0.0885623 0.227473
0.00234204 0.204233 0.0278038
0.0131631 -0.165148 0.111375
0.00442019 0.436045 0.214287
-0.0808408 0.0280322 0.116166
0.00910386 0.28697 0.00288212
-0.0269261 0.157749 0.161315
0.0272649 0.155371 0.302126
-0.0107646 -0.432059 0.130735
0.00859454 0.0593269 0.372918
-0.020996 0.218336 0.222129
-0.0193212 0.107606 0.422837
-0.0328118 0.0663044 0.203879
0.0384319 -0.213288 0.511489
0.00781469 -0.0649255 0.398891
-0.0144299 0.143255 0.205239
-0.00280869 -0.196284 0.492721
0.000783529 0.121668 0.384845
0.00920407 -0.175214 0.258744
-0.124565 -0.222902 0.587795
0.0406879 0.278038 0.199261
0.00920224 -0.232676 0.376746
0.00297741 0.0596579 0.375168
-0.010233 -0.160266 0.0838842
0.0131528 -0.466322 0.187306
0.00696394 0.433952 0.235647
0.00806234 0.0579404 0.222753
-0.0107787 0.402271 0.107002
-0.00827864 -0.400599 0.291194
-0.0109767 0.403067 0.275824
0.0198007 0.180473 0.38503
0.0134235 -0.43186 0.251466
-0.0138974 0.408332 0.283622
0.0238008 0.143076 0.308029
-0.00221005 0.438661 0.206586
-0.00152761 -0.23843 0.386121
-0.000478079 0.441642 0.174486
0.0153779 0.194858 0.301651
0.013474 0.200452 0.291123
0.0660963 -0.215125 0.568698
0.00697283 -0.20939 0.442055
0.00069754 -0.415841 0.311244
-0.0243407 0.107536 0.341702
0.00797599 -0.165739 0.249046
-0.000460344 -0.292633 0.326003
0.0461927 0.055751 0.30517
0.00633796 0.0989177 0.326707
0.0306175 0.192972 0.272921
0.0220315 0.0443975 0.229164
0.00313397 0.155348 0.20858
0.0504505 -0.220358 0.563989
0.0043537 0.231757 0.309835
0.00424113 -0.150404 0.275173
0.0408752 -0.214189 0.52725
-0.0259716 0.164085 0.231505
0.0161001 0.30601 0.335584
-0.0400735 0.0547007 0.199561
0.01263 -0.396187 0.291564
0.0161498 -0.254468 0.335825
0.0150249 0.394939 0.0553742
-0.000250375 0.210316 0.0620371
-0.0141104 0.207277 0.309126
0.0691528 -0.214161 0.580667
0.0154286 0.366633 0.314017
-0.0337624 -0.234734 0.363968
-0.0328118 0.0737311 0.235697
0.00605251 -0.21876 0.40381
0.00638084 0.334637 0.317956
0.0062828 -0.0068475 0.395054
-0.00738308 -0.00100344 0.391573
0.0159056 0.448328 0.1169
-0.00593935 0.0886275 0.34674
-0.0135952 0.309537 0.0222309
-0.0343714 0.0317044 0.239774
-0.00986145 -0.229284 0.390251
0.0132122 0.282272 0.0252162
-0.0178678 0.165856 0.378937
-0.00229635 0.112278 0.352185
-0.0142497 -0.454573 0.221115
-0.0112407 -0.262813 0.236456
0.00977544 0.39759 0.0360975
0.0127817 0.315867 0.2116
0.0514499 -0.258722 0.29901
0.0132272 0.14745 0.178063
0.000960015 0.191133 0.278878
0.0154607 -0.13453 0.191208
0.00597982 -0.431555 0.116189
-0.0109767 0.163994 0.12056
-0.0138981 0.367536 0.312862
-0.0449392 0.258757 0.209192
0.00297204 -0.132851 0.237949
0.0149588 -0.452539 0.240407
-0.0104335 -0.295381 0.0325783
0.00356101 -0.198753 0.483677
-0.0183098 0.290512 0.201181
0.0074925 -0.431253 0.130605
0.0272564 0.193356 0.266554
-0.078764 0.0725412 0.108463
-0.00798024 -0.00648458 0.391365
-1.9487e-05 -0.248512 0.316806
-0.0882484 -0.220955 0.587594
-0.0142481 -0.164609 0.0925013
-0.00520305 -0.180216 0.0911799
-0.0538104 0.0445154 0.103331
-0.0136836 -0.261457 0.333021
-0.0675544 -0.218503 0.574877
-0.0390168 0.27683 0.178281
-0.014119 0.0860501 0.214168
0.000739658 -0.139238 0.254291
0.0321403 0.141232 0.206129
0.0568149 0.0660674 0.312945
0.00659634 -0.060648 0.395921
0.00843616 -0.169508 0.380088
-0.00551378 0.289681 0.031289
0.0153607 -0.144115 0.191353
0.015359 0.420485 0.269876
-0.0399719 0.313459 0.169714
-0.0310401 0.117911 0.24296
0.00924133 -0.281279 0.330357
-0.0291043 -0.293415 0.184621
0.00954091 0.205518 0.285923
-0.0220549 -0.225398 0.574296
0.012418 0.431067 0.231141
-0.0105671 0.312454 0.186785
-0.0083032 0.417675 0.253955
0.0600682 -0.302777 0.180336
-0.0141137 0.179169 0.275486
-0.0546994 -0.260322 0.233085
0.0122906 -0.404103 0.166083
-0.00714325 0.224166 0.297796
0.0090965 -0.214194 0.305834
-0.0539818 -0.292524 0.194801
0.00859677 -0.217608 0.0563388
0.00255609 -0.0399736 0.388229
-0.000750708 -0.29812 0.0322866
0.01263 -0.192064 0.285943
0.0232071 0.0977508 0.348941
0.000748932 -0.259513 0.327492
0.0485788 -0.278611 0.208974
0.139861 -0.226776 0.605041
-0.0261005 0.19091 0.265746
-0.0135844 0.137196 0.139427
-0.0511675 -0.254484 0.260773
-0.0582175 0.0561067 0.115787
-0.0782188 -0.224458 0.600478
0.0159845 0.427619 0.0820987
-0.0264602 0.0803782 0.207478
0.00238261 0.183106 0.0900126
-0.013635 -0.154796 0.262743
0.015324 -0.449192 0.244626
-0.0109767 0.182332 0.0839419
-0.0172153 0.298967 0.15931
0.110299 -0.226315 0.605394
-0.0328118 0.0387732 0.178361
0.017907 0.157746 0.404894
-0.000446319 -0.399506 0.284722
-0.0025309 -0.157763 0.150464
0.0116362 0.149536 0.167729
-0.00644486 -0.232447 0.495308
-0.0376724 0.191684 0.260389
0.0471857 0.283593 0.174458
-0.0127821 0.437628 0.237389
0.0623577 -0.222806 0.585562
0.0160457 -0.223339 0.585476
0.00753052 -0.237255 0.386541
0.00713538 0.116876 0.364847
-1.7981e-05 0.405745 0.0808503
0.00907501 -0.396546 0.0704895
-0.00416107 -0.052325 0.282684
0.0261989 0.04516 0.227635
-0.0364314 0.163014 0.394737
0.0226249 0.0568241 0.228399
0.0366244 0.159212 0.399708
-0.000829821 -0.141889 0.411923
0.0212324 -0.213434 0.494335
-0.00837861 0.226977 0.306649
-0.0328118 0.0749983 0.222901
-0.00573076 0.0692349 0.206958
-0.0109767 0.435148 0.220053
0.0414036 -0.26191 0.282338
-0.0129987 0.13911 0.390015
-0.00502996 -0.150887 0.206498
-0.00656475 -0.131066 0.342804
0.130101 -0.215724 0.590134
-0.130332 -0.226404 0.601416
0.0289193 0.0889833 0.348057
-0.0852428 0.0707385 0.104483
-0.00879588 -0.394867 0.322809
0.00565022 0.19029 0.274176
0.0153252 -0.341913 0.023537
0.00441561 0.324389 0.31588
0.004324 -0.125501 0.20203
-0.00854446 0.183363 0.261213
0.00396427 0.00350732 0.394422
0.00879902 -0.125798 0.346077
-0.00984556 0.289574 0.031282
-0.0306615 0.160608 0.196929
0.0081059 0.0491199 0.378921
0.00555382 0.224434 0.303162
0.0116991 0.391424 0.291478
0.0081389 -0.460004 0.124253
0.0504236 0.0243663 0.310443
-0.0301265 0.104289 0.168252
-0.0760217 0.0730311 0.111468
0.0600682 -0.291068 0.183719
-0.0343714 0.0574784 0.180426
0.00360419 0.220089 0.0202567
-0.0336924 0.0284683 0.179281
0.00587983 0.441801 0.163743
-0.00302705 0.0404098 0.225156
-0.000245455 -0.242965 0.0502847
-0.058341 -0.253043 0.287116
0.0111805 -0.346153 0.323516
0.00936381 0.00755171 0.247752
0.00651455 0.286378 0.317811
-0.0582632 0.0358099 0.115265
-0.00252278 0.12761 0.394777
0.0220315 0.0466708 0.290628
-0.0328118 0.0180071 0.191123
-0.069476 -0.227035 0.592915
0.00718458 -0.418146 0.104155
-0.0107646 -0.379614 0.307085
0.0102381 -0.222827 0.43656
-0.00519655 0.280816 0.00242358
-0.0097917 0.257331 0.0374884
-0.0172153 0.314144 0.182511
-0.0447444 0.299804 0.167934
0.01263 -0.255932 0.0404078
-0.0172153 0.310113 0.19026
-0.035306 0.00772774 0.232225
0.00121069 0.331114 0.314544
-0.0101452 0.191394 0.0786258
0.0437213 -0.267903 0.231438
0.0152896 -0.427846 0.265098
0.011781 -0.31905 0.0408911
0.00458011 -0.41806 0.270271
0.0124989 -0.436454 0.219578
0.0102915 0.307051 0.00488025
0.0545447 -0.255025 0.266973
0.0142065 0.213637 0.0474932
0.00833049 -0.0698719 0.401607
0.012418 0.445049 0.164059
-0.00971975 -0.378152 0.031823
0.000292546 0.165804 0.243266
-0.00889907 -0.165906 0.376398
0.0144942 -0.314511 0.33361
-0.0226411 0.200005 0.224865
0.00477676 0.340723 0.00661167
-0.000807103 0.47268 0.161397
-0.00603691 -0.0798443 0.304558
-0.00814075 0.0522935 0.21504
0.00238459 -0.360685 0.344508
-0.000948224 0.251799 0.342976
-0.00408849 0.15417 0.214055
-0.00333491 0.286556 0.317823
0.0115946 0.310854 0.31906
-0.0230244 0.187286 0.160886
0.0031133 -0.145822 0.0956023
-0.00471209 -0.209404 0.476841
0.00414148 -0.467681 0.143264
-0.0198075 0.270623 0.150246
-0.000755147 -0.161485 0.290124
-0.0138967 -0.350899 0.335619
-0.0285685 0.124408 0.312301
0.0323397 0.102476 0.341922
0.0402414 0.278504 0.203596
-0.0499643 -0.234283 0.347585
-0.00260999 0.294769 0.348825
-0.0186312 0.290755 0.20021
-0.0104107 0.310883 0.124814
0.0293182 0.0527909 0.307956
-0.031014 0.25805 0.182413
-0.00647026 -0.43944 0.229572
0.0057546 0.216538 0.295966
-0.0109767 0.200699 0.287131
-0.0400735 0.0520164 0.179074
-0.0172153 0.292495 0.155991
0.12593 -0.222178 0.588352
0.00393413 -0.00241067 0.263884
-0.0133881 0.209308 0.035342
-0.00862798 0.0588417 0.231813
-0.0144435 -0.410855 0.296716
0.00265719 -0.203294 0.462837
0.0237674 0.0568241 0.220448
-0.00273752 0.438765 0.208842
-0.0150114 0.309264 0.153961
0.0475552 -0.225218 0.553796
0.0160748 0.313574 0.334613
-0.000909088 0.0575431 0.214245
0.0326035 0.0692285 0.309915
-0.00910959 0.150347 0.155382
-0.116441 -0.226963 0.589896
-0.010412 0.180636 0.0533259
-0.0328118 0.0500647 0.191198
0.0137723 -0.428912 0.285614
-0.00533374 -0.344967 0.0150334
0.0036064 -0.419066 0.105353
0.0192184 0.12896 0.416818
-0.0338584 0.0921972 0.223842
-0.103072 -0.21234 0.597678
-0.00420559 0.0601919 0.375578
0.0134799 -0.435606 0.122111
0.0618021 -0.218693 0.550547
-0.0478044 -0.262917 0.255403
0.0051818 0.409624 0.0413033
-0.0290735 0.154544 0.304759
-0.0309611 0.161767 0.380631
0.00886534 -0.379362 0.0573048
-0.055621 -0.272673 0.183214
0.0355706 0.196414 0.27103
-0.0343714 0.0579824 0.190465
0.0247564 -0.22437 0.500631
0.00729353 -0.445826 0.198923
-0.0111759 -0.192002 0.165462
0.036555 0.287929 0.193402
0.00425508 0.438461 0.225201
0.0149435 0.46053 0.208276
-0.00679651 0.096577 0.369447
-0.0034621 0.165906 0.0613362
-0.0324993 0.14971 0.308151
0.0600682 -0.2991 0.185176
-0.0343714 0.064769 0.186765
0.128496 -0.229797 0.601201
0.0386395 0.286326 0.194302
0.03294 0.265472 0.179632
0.0336239 0.22114 0.193355
-0.0128674 -0.347379 0.023798
0.0261989 0.050158 0.241576
0.0152053 0.0889778 0.41078
-0.013286 -0.144913 0.194633
-0.0107646 -0.226157 0.308072
-0.0644904 -0.279051 0.202658
-0.0112366 0.311033 0.186809
0.0267892 -0.23004 0.370836
-0.0121373 -0.452159 0.244931
0.0563357 0.063981 0.31358
-0.0858695 0.0304195 0.111515
0.0495054 -0.300516 0.185706
-0.0109241 -0.28538 0.147339
-0.00747927 0.156558 0.149357
0.0567032 -0.228725 0.580589
-0.00624024 -0.185691 0.382565
-0.129872 -0.218174 0.604146
0.000467264 0.190567 0.312603
0.0212388 0.170866 0.399459
0.01263 -0.417838 0.265206
-0.0145562 0.186784 0.29092
0.00603709 -0.413663 0.276002
0.0130935 -0.143153 0.247258
0.0114475 -0.4003 0.0467824
0.00882854 0.322063 0.0276074
0.0469936 -0.285417 0.185803
-0.0397506 0.174973 0.282128
0.00981647 0.437558 0.121203
-0.00567171 0.0869698 0.343004
0.00134697 -0.230526 0.398684
-0.000378896 0.440132 0.197468
-0.0114611 0.423901 0.0915866
-0.00600647 0.441756 0.172761
0.035863 0.21503 0.194807
0.0038204 -0.457228 0.113669
-0.0137487 -0.456591 0.221313
0.130193 -0.221724 0.588293
-0.00247156 0.119513 0.402063
-0.00266305 -0.41344 0.312279
0.0163031 -0.137436 0.187166
0.00590097 0.467928 0.141065
0.0149734 0.146697 0.110812
-0.00869063 -0.151281 0.366702
0.0100992 0.184199 0.304061
0.0186628 0.0876699 0.427593
0.0115806 0.153395 0.264891
-0.0343714 0.0256669 0.198012
-0.0262796 0.127803 0.310025
-0.0171637 0.319818 0.189128
0.0161328 -0.214617 0.0468183
0.00910738 0.0718308 0.262115
0.00471241 -0.162629 0.135025
0.0146568 0.31742 0.0108375
0.0407765 0.20437 0.192311
0.0407757 -0.230807 0.363214
-0.0356901 0.164925 0.396434
-0.00989479 -0.179589 0.101523
0.0156131 -0.177443 0.0854581
0.0346753 0.185259 0.272436
-0.0106897 -0.327255 0.0419715
0.0010496 -0.0549459 0.303437
-0.014427 -0.203131 0.311025
0.000433277 -0.37785 0.0271978
-0.0107646 -0.16519 0.250817
-0.00833398 -0.253327 0.348753
-0.00494595 0.287887 0.0255054
0.0436125 -0.269953 0.254041
0.01263 -0.433369 0.230311
-0.0107646 -0.149808 0.16821
-0.00821719 -0.101245 0.324281
0.104803 -0.216913 0.589342
0.011989 0.459437 0.120064
0.0147736 0.0908961 0.351464
0.0483042 -0.278632 0.190358
-0.027718 0.151504 0.384881
-0.0131505 -0.444987 0.226995
-0.00245277 -0.221507 0.406705
-0.00164929 0.0750178 0.361793
0.00481236 0.471122 0.187246
0.0156504 -0.433508 0.105359
-0.00718876 -0.422838 0.264043
0.000561074 0.15438 0.187646
-0.0240128 0.167103 0.159641
0.012665 0.293676 0.198966
-0.00317219 0.313783 0.318924
-0.0113742 -0.377715 0.310084
0.0131595 0.112484 0.401044
0.01263 -0.288583 0.329059
-0.0144434 0.0871408 0.213871
-0.0899857 0.0328519 0.102129
0.0108704 0.295487 0.345593
0.0412339 0.292052 0.192416
-0.0343714 0.0246166 0.224328
0.012939 0.389608 0.185479
-0.00814929 0.243864 0.337351
-0.0156557 0.284279 0.177709
-0.0118592 0.127717 0.417333
0.0122999 0.270756 0.00882862
0.0131328 -0.464659 0.164628
-0.0108406 0.409622 0.0852734
-0.0105143 0.220618 0.326665
-0.0102703 -0.299452 0.352722
-0.0139692 -0.149537 0.24651
0.0220315 0.0442987 0.260162
-0.00143731 -0.00297318 0.379162
0.008761 -0.0137554 0.266447
-0.0372929 0.242783 0.183796
-0.0327767 0.0323024 0.253082
0.0432515 0.294173 0.177379
-0.0100259 0.138207 0.234433
-0.00164457 -0.213017 0.30493
0.0644111 -0.228709 0.585713
-0.0340042 0.0525248 0.170658
0.0151452 -0.297519 0.196388
0.00954042 0.442517 0.213257
-0.00636646 0.0453189 0.382213
0.0158458 0.263367 0.0213627
0.012418 0.166129 0.113861
0.00935664 -0.332204 0.042623
0.0321312 0.21112 0.245686
-0.0172153 0.286469 0.181813
0.0118423 0.213815 0.15529
0.0432298 0.302541 0.173347
0.00793923 -0.148943 0.426027
0.0296295 0.157557 0.287226
-0.0159061 0.27603 0.179342
0.00167914 0.435262 0.130813
-0.0329292 0.0318696 0.252357
-0.010883 0.129721 0.191876
-0.0139609 -0.143203 0.161532
-0.0328118 0.0429691 0.235058
0.0161828 -0.165882 0.0938751
0.016256 -0.452858 0.140832
0.025938 -0.226784 0.583763
-0.149054 -0.229244 0.595327
0.00963701 -0.127176 0.167985
0.00857774 -0.123271 0.41579
0.00583593 0.208778 0.0263065
0.011653 0.171185 0.0612419
-0.0139604 -0.228065 0.322398
0.0179711 0.0529581 0.228511
0.0064024 -0.288522 0.0090836
-0.0447517 0.276389 0.171966
0.00187008 0.0823039 0.359212
-0.0085102 -0.236746 0.372953
-0.0144413 0.355308 0.32606
0.00597504 0.454506 0.252891
0.0327556 0.186387 0.278977
-0.011746 -0.144603 0.248885
0.0639986 -0.214957 0.578724
0.0138316 0.161269 0.239614
-0.0128799 -0.204146 0.478747
0.023874 0.0739032 0.208839
0.0157548 0.145999 0.214973
-0.0129373 0.336103 0.322932
-0.0116253 -0.185982 0.0574918
0.012966 0.375342 0.291169
0.000902899 0.362993 0.0464358
-0.132017 -0.223693 0.602913
-0.0142778 -0.155358 0.252054
-0.0227761 0.192425 0.225311
-0.00562203 -0.444345 0.210171
-0.0343714 0.0387127 0.195644
-0.0286164 0.14232 0.165757
-0.0271192 0.153785 0.3048
0.0129972 0.278048 0.171405
-0.0130978 0.444588 0.129115
-0.00787088 -0.468043 0.200093
0.01347 0.148857 0.150241
-0.0829979 -0.213722 0.595871
0.0105783 -0.394688 0.295729
0.0136807 0.202364 0.292832
0.0156531 -0.14366 0.197315
-0.00707998 -0.303654 0.354655
-0.00423145 0.166785 0.117378
-0.00076051 -0.0501646 0.390267
0.00457843 -0.15102 0.356021
-0.0172153 0.308732 0.175043
0.0148568 0.423938 0.0688306
-0.0132898 0.070953 0.354612
-0.0142172 0.41428 0.0704233
0.0145449 -0.303978 0.0297071
0.0158353 0.459384 0.161706
0.0113241 -0.166624 0.23941
-0.00640316 0.447822 0.168925
-0.0129144 -0.16871 0.100046
-0.0143595 -0.17603 0.286435
-0.0364676 0.0487806 0.164017
0.0035638 0.0615852 0.368659
-0.0123141 0.460432 0.137036
0.0146282 0.169594 0.259631
-0.014583 0.24665 0.023457
-0.00818593 0.437016 0.229458
-0.00679869 -0.127812 0.158423
-0.0583464 -0.280312 0.201505
-0.0106354 -0.267003 0.16767
-0.0212763 0.115005 0.322966
-0.0172153 0.311664 0.168111
-0.0081733 -0.164372 0.423628
-0.00677407 0.442918 0.212074
-0.05619 -0.285365 0.197562
-0.0107646 -0.208284 0.0685475
-0.0221924 0.101321 0.199112
-0.0141542 -0.184912 0.298436
0.00178105 0.392739 0.290326
0.00930835 -0.141832 0.111419
0.0156248 0.453989 0.130175
0.0100808 0.0664203 0.280095
-0.0137554 -0.254565 0.0245148
-0.0101979 0.439399 0.204411
0.0448031 -0.271764 0.25087
-0.00498907 -0.13867 0.114979
-0.0111638 -0.411874 0.11737
0.00459865 -0.446604 0.193017
-0.00695707 0.191739 0.270768
-0.0556048 -0.252649 0.26696
-0.00617082 -0.141607 0.414514
0.152156 -0.221063 0.591569
-0.00897929 -0.206982 0.407547
-0.013711 0.150187 0.244639
0.012385 -0.46493 0.158741
0.0149222 0.274427 0.327192
-0.00836861 0.0631893 0.241802
-0.0140366 -0.413757 0.288586
0.127723 -0.215997 0.603556
0.00140503 -0.159055 0.360513
0.0031229 0.309604 0.349977
0.0666608 -0.214249 0.573564
0.00893383 -0.0716157 0.307075
-0.020373 0.226921 0.153594
-0.0328118 0.0408284 0.180396
-0.0107013 0.216064 0.165892
8.14684e-05 -0.358113 0.312285
-0.00177651 0.374007 0.331428
-0.00141612 0.334583 0.313855
-0.00290053 0.441035 0.183729
-0.0148154 0.312543 0.191713
-0.00749863 0.186118 0.306465
-0.0111576 0.401439 0.0852744
-0.0380639 0.0426875 0.205097
0.0255426 0.173359 0.195197
-0.0230581 0.231533 0.215253
0.000969728 0.223119 0.30407
0.013598 0.465115 0.178693
0.00811309 -0.0411123 0.278572
-0.0343856 0.17333 0.274049
-0.0125071 0.164463 0.379513
-0.0405864 0.301073 0.170522
-0.0226511 0.1043 0.344038
0.00664021 -0.187334 0.0914301
-0.00714147 0.0585788 0.204049
0.09213 -0.228283 0.601353
0.00364711 -0.377817 0.0276415
-0.000830133 -0.156919 0.156877
-0.0135967 0.450694 0.194495
-0.0368634 0.157627 0.200457
-0.00401104 0.24094 0.308016
-0.00359211 -0.431282 0.130677
-0.000880776 0.131382 0.227266
-0.0271247 0.133343 0.162361
0.0245029 0.178938 0.388313
-0.0143359 0.175026 0.273135
-0.0107646 -0.227733 0.0559796
0.00678188 0.0841017 0.36204
-0.0096753 0.0811067 0.296939
-0.00880558 0.467814 0.15344
0.0107765 0.103719 0.353808
-0.0411777 0.293133 0.191966
0.025772 0.0883269 0.342108
0.00851168 0.146794 0.0928278
-0.0550727 -0.287334 0.19983
-0.0123762 -0.443144 0.26583
0.0123497 0.430435 0.130018
-0.0304364 -0.226845 0.575285
-0.0179765 0.275011 0.150983
0.0089151 -0.0612997 0.300094
-0.0170992 0.111244 0.401556
-0.0104971 0.352032 0.0149545
0.0246399 -0.233247 0.383387
-0.095914 -0.22681 0.589779
-0.04061 0.0549403 0.21122
0.01263 -0.326026 0.0379485
0.102605 -0.21207 0.598926
0.0540791 -0.269421 0.190446
0.00631556 0.156245 0.154121
-0.00644061 -0.082295 0.320084
-0.00945688 -0.220922 0.488624
-0.066211 0.034406 0.103228
0.0125892 0.431431 0.108098
0.0105086 -0.264372 0.328132
-0.0124483 0.327687 0.323739
0.0189099 0.145648 0.387307
0.0118794 -0.336039 0.0372788
0.0037781 -0.205642 0.503298
0.0168651 -0.286185 0.190048
-0.0110488 -0.271989 0.174701
-0.00110574 -0.18163 0.421318
-0.0686712 0.0628364 0.105981
0.00818832 -0.209983 0.0695
0.0125984 -0.321955 0.223953
0.0124662 -0.219887 0.126415
-0.0134762 -0.310266 0.335652
0.00715169 0.0636796 0.361263
-0.011374 0.44729 0.187486
-0.0115701 -0.233392 0.336751
0.0534099 -0.220157 0.573367
0.0148278 0.224561 0.0278195
0.00761878 -0.129872 0.137687
0.0745728 0.0370881 0.314126
-0.00262954 -0.265099 0.0424134
-0.0106578 -0.282204 0.0741373
-0.0117173 -0.454353 0.241158
0.00552917 -0.202644 0.50248
0.0122996 -0.361042 0.268592
0.00347154 -0.159729 0.222767
-0.00743362 -0.178036 0.0583972
-0.000201466 -0.238023 0.384367
-0.0312666 0.0820867 0.171476
0.00618476 -0.444025 0.276239
0.0113006 0.426862 0.0994979
-0.0107646 -0.439664 0.217037
-0.00653421 0.0277768 0.386094
0.000823369 -0.28166 0.355837
-0.0107101 0.305655 0.112837
0.0220315 0.0539084 0.275949
-0.0172153 0.284872 0.186032
0.00501189 0.294885 0.0258199
-0.00842101 -0.131198 0.224202
-0.0414204 0.193994 0.264283
-0.0440148 -0.239803 0.33138
0.0120252 -0.378043 0.139374
0.00214793 0.195218 0.281868
-0.0328118 0.0636944 0.255347
0.0219813 0.127648 0.201079
-0.0100799 -0.187372 0.311068
-0.130336 -0.229243 0.600467
0.0350541 0.136401 0.406528
-0.0270419 0.148876 0.206422
0.0151555 -0.308173 0.346769
0.0159899 -0.453552 0.160519
0.00523271 0.187822 0.309791
0.00390981 0.144749 0.410278
-0.0400735 0.0460722 0.142175
-0.0110903 -0.365067 0.299764
-0.0109183 0.438222 0.211868
-0.0111317 -0.422046 0.0684646
0.00183324 -0.249969 0.0411077
0.00326919 0.124704 0.400087
0.0063405 0.448634 0.0890194
0.0110199 0.180631 0.258096
0.0033096 -0.137861 0.114919
-0.0129715 0.254926 0.0285264
0.0542003 -0.262723 0.271396
0.0131857 -0.447347 0.194756
-0.0343714 0.0162202 0.200437
-0.0129229 0.147051 0.105103
0.0545458 -0.25386 0.279099
-0.0323032 0.00778433 0.207168
-0.0343714 0.0615316 0.203401
0.0064509 0.433448 0.0670453
0.0119877 -0.308757 0.206995
0.00639018 -0.0889014 0.311489
-0.014233 0.407394 0.0549514
-0.0306055 0.113676 0.164922
-0.0395874 -0.227914 0.51978
-0.0097585 0.101896 0.40543
-0.0340118 0.0418243 0.203504
0.0172064 -0.220607 0.500587
-0.00790941 -0.134006 0.347197
0.000662431 0.282796 0.0324289
0.0461247 -0.233835 0.346323
0.0101388 0.419797 0.0982819
-0.0109767 0.439148 0.213677
-0.00854531 -0.110187 0.336044
-0.008574 0.469358 0.160455
0.0374306 0.153004 0.387021
-0.0400735 0.0495104 0.184208
0.00647939 0.101842 0.334566
-0.0373655 0.267777 0.215477
0.0723706 0.0414805 0.303572
-0.0398886 -0.238023 0.376339
-0.0128803 0.398336 0.307887
-0.00889186 -0.296101 0.0324835
-0.0139572 0.451245 0.229929
0.00935805 -0.133678 0.131185
0.012418 0.430513 0.236227
0.00533768 0.116192 0.370771
-0.0124675 0.226707 0.30958
0.0181178 0.0934318 0.205088
0.0409956 -0.216531 0.499387
-0.0131323 0.45357 0.23216
-0.0328118 0.0579504 0.185228
-0.0110103 0.127286 0.417512
-0.000451455 0.08211 0.413624
-0.0129745 0.144869 0.410228
-0.0854684 0.0691016 0.115722
0.0027466 0.0736033 0.366987
0.0104917 0.40079 0.31195
0.0115786 -0.198281 0.0447123
0.0529999 -0.278607 0.202475
-0.00265798 0.444524 0.147688
0.00203489 0.0695232 0.302529
0.00298704 0.0705147 0.357958
-0.0287024 0.045377 0.228174
0.000585579 -0.160019 0.225969
-0.0140712 -0.256297 0.339467
-0.0238733 0.174881 0.159828
0.0144307 0.398477 0.307562
0.0357882 0.171888 0.189453
0.01263 -0.327407 0.0393723
0.0148778 -0.429187 0.262176
0.0492004 -0.244462 0.350804
0.0282485 -0.21814 0.573837
0.0180213 -0.236115 0.38519
-0.0107503 0.437033 0.21138
0.00957909 -0.150317 0.20217
0.00801443 0.154317 0.183457
-0.0100253 -0.129681 0.202924
-0.0123088 0.266309 0.340027
-0.00572457 -0.309022 0.354817
0.0412339 0.279978 0.202333
0.00719788 0.22791 0.30633
-0.0232418 -0.29053 0.181502
-0.00260661 0.167571 0.240405
-0.00648929 0.189454 0.0805169
-0.0659046 0.0344005 0.110399
-0.00441239 -0.370571 0.0513919
-0.00241634 0.155074 0.13382
0.0126747 0.256373 0.265428
-0.0359064 0.27456 0.172212
-0.0177037 0.308506 0.15174
-0.00581994 -0.392007 0.0670072
0.00850091 0.123937 0.356376
-0.0143549 -0.454538 0.155472
0.0154127 -0.348775 0.33803
-0.0102882 -0.246712 0.275067
-0.0716561 0.0445154 0.111546
0.000227557 0.244668 0.314241
-0.0343714 0.0346925 0.203394
-0.0146265 0.456726 0.191604
0.039121 0.207036 0.194461
-0.0139062 -0.260289 0.0303304
-0.0071264 -0.405177 0.277539
0.0126963 0.26108 0.124912
0.014545 0.212911 0.0471959
-0.0243542 0.163682 0.286084
0.010987 -0.4079 0.312548
0.0231171 0.137581 0.309829
-0.00593271 0.439208 0.0745007
0.0243769 0.0428623 0.310316
-0.00877821 -0.160941 0.283979
0.00838541 -0.359916 0.0220408
0.0117901 0.384367 0.185568
0.0157157 0.45973 0.175677
-0.00923011 -0.303011 0.0114298
-0.0616398 -0.277164 0.223095
0.0151143 0.271009 0.337406
0.0249504 0.132387 0.392799
-0.013706 0.319329 0.33772
0.011954 0.324705 0.0436871
0.0089721 -0.159009 0.221895
0.009788 -0.282507 0.330519
0.00279392 -0.47073 0.200338
0.0382824 -0.213642 0.50348
-0.0866212 0.0671789 0.11453
-0.040791 -0.231828 0.358362
0.00767906 0.311727 0.178752
-0.0170184 -0.226409 0.380947
0.0162371 -0.144831 0.136415
0.00417662 0.142521 0.0960719
0.0120222 0.154555 0.179836
-0.00673372 0.127902 0.145587
0.0129251 0.459174 0.124799
0.000191341 0.200317 0.280553
-0.0019737 0.103497 0.404766
-0.0167733 -0.233803 0.386074
0.000557342 -0.20285 0.402746
-0.0453018 -0.214953 0.51044
0.0117272 0.0720761 0.367549
0.0130735 -0.446925 0.168323
-0.00405913 0.336313 0.344219
-0.0102638 -0.329013 0.0722377
-0.0119613 -0.333267 0.0348198
0.00382219 -0.229777 0.395595
0.0143589 0.138213 0.390386
-0.00439329 0.447269 0.177319
0.012418 0.434158 0.115461
0.0136276 -0.456308 0.236274
0.0745379 0.0441699 0.300856
0.0317255 -0.228274 0.503605
0.0122805 0.178468 0.0969491
-0.0110118 -0.130017 0.169792
-0.0354322 0.0188364 0.245401
-0.00199904 0.434967 0.23549
0.0155283 0.395626 0.305201
-0.00565171 0.160113 0.403914
0.00235934 -0.473159 0.182515
0.0150081 0.397492 0.306364
-0.0053547 0.0349157 0.372018
0.0577499 0.0246426 0.302557
0.150701 -0.213026 0.603227
-0.0410417 0.29779 0.196097
-0.0343714 0.0631666 0.219281
-0.00484259 -0.202885 0.475063
-0.0141677 0.202544 0.298908
-0.00408756 0.465242 0.127175
0.0129605 0.30841 0.20218
0.0438205 0.227075 0.241375
0.00706978 0.155253 0.169208
-0.0109851 0.32528 0.0403145
0.0139894 0.0545306 0.228017
0.0117704 0.294947 0.322186
-0.0462558 0.255283 0.219022
-0.0102237 0.255983 0.31196
-0.0101379 -0.289735 0.206851
0.0150736 0.130897 0.416017
0.012418 0.212549 0.053828
-0.00873308 -0.219425 0.0622553
-0.0301819 0.111719 0.244798
0.0122549 0.351046 0.135568
0.0082209 -0.149859 0.272065
-0.00904221 0.0538065 0.245173
-0.00121615 0.437232 0.210792
-0.00249658 -0.200904 0.391494
0.0293888 0.173229 0.398482
0.00677659 -0.205416 0.462273
-0.0182008 0.254704 0.153815
-0.0347306 -0.226796 0.51095
0.00363024 0.426964 0.0997036
-0.0367443 0.160219 0.388759
0.0100592 -0.451449 0.106785
0.0121108 0.391078 0.185454
0.0266583 0.151149 0.385027
-0.00770385 -0.164248 0.131117
0.0400441 0.0648882 0.300985
-0.013236 -0.190177 0.0576339
-0.00901406 -0.412293 0.055529
-0.0134612 0.138853 0.217117
-0.0133162 -0.425189 0.286193
0.0147057 0.146567 0.409526
-0.0141541 0.452918 0.198784
0.00317156 0.436733 0.0698347
0.036555 0.30601 0.186183
0.00850573 0.181424 0.0820916
0.012418 0.387052 0.291007
-0.0275211 0.123052 0.399046
0.0096293 0.226011 0.0513194
-0.0551317 0.0339581 0.102129
0.0037495 0.120493 0.350905
-0.0134787 -0.411425 0.06339
-0.00499409 0.336953 0.317848
0.0247626 0.157707 0.199881
0.0106566 0.128851 0.155237
-0.0384573 0.0426875 0.150777
-0.0107745 0.255733 0.315666
0.0993605 -0.213968 0.591838
-0.0512733 -0.238651 0.326682
-0.000575905 -0.285138 0.325017
0.00523503 -0.127938 0.145587
0.0546412 0.026612 0.302792
0.0126467 -0.255466 0.207224
-0.0629724 0.0561067 0.103036
-0.00633701 0.287432 0.00999197
-0.0327022 0.0628864 0.254922
-0.00923086 0.336709 0.319344
0.00377898 -0.34397 0.0466492
0.0152787 -0.356718 0.335327
0.00726341 0.033593 0.22143
-0.0037446 -0.383388 0.0677009
-0.0141142 0.158038 0.0936972
0.0135629 -0.275472 0.331225
-0.00473199 -0.214004 0.305688
0.01263 -0.438172 0.220092
0.117567 -0.215271 0.592348
0.0044439 -0.443706 0.277199
0.00329122 -0.342879 0.0131829
0.0037642 -0.0130287 0.253188
0.00785091 -0.228129 0.380029
-0.0400735 0.0523921 0.120005
0.0157758 -0.417505 0.0725368
0.0520909 -0.261287 0.287431
-0.0107646 -0.189014 0.0819571
-0.0328118 0.0275726 0.251746
-0.0272071 0.165392 0.18914
0.0101682 0.0702063 0.368895
0.0250878 0.161975 0.289581
0.00684558 0.180576 0.303063
0.037225 0.02853 0.308362
-0.0121149 -0.141038 0.12585
0.0386864 -0.214394 0.576736
0.00567951 -0.206171 0.412622
-0.0354233 0.0119441 0.19511
-0.00657473 0.294153 0.347325
-0.0125575 -0.292726 0.195334
0.00321099 -0.165114 0.250918
-0.0103648 0.407587 0.276486
-0.0328118 0.0323389 0.181761
0.0131558 -0.341289 0.165374
0.0137561 0.438117 0.0823464
-0.00222927 0.275635 0.317105
-0.0343714 0.0341099 0.237012
-0.0133166 -0.156357 0.123443
-0.0416205 -0.30229 0.184363
-0.00122594 0.067516 0.372582
-0.0328118 0.0574601 0.228302
-0.0587345 -0.219663 0.536351
0.00770295 -0.298084 0.326661
-0.0227089 -0.229019 0.490894
0.0499598 0.0441597 0.309924
0.116983 -0.217257 0.605977
0.0347031 0.235043 0.24017
0.0272176 0.156803 0.289226
0.072352 0.0564959 0.309667
-0.0400735 0.0479904 0.147258
0.00668337 -0.222753 0.459658
-0.00949351 0.175764 0.0905588
-0.00328363 0.0762997 0.361011
0.0154155 -0.322771 0.0210064
0.00489393 -0.311643 0.18049
0.00703104 0.359267 0.0136452
-0.00146874 0.455251 0.100963
-0.0238958 0.114342 0.412375
0.0238328 0.143754 0.38809
0.0126856 -0.405595 0.286677
0.0109582 -0.171366 0.26208
0.0238521 0.116076 0.332699
0.0023099 -0.186889 0.381383
0.00710355 -0.111744 0.408768
-0.0400735 0.054893 0.117815
0.0129827 0.282954 0.130248
0.0348928 0.270528 0.210571
-0.0218976 0.204026 0.221171
0.01188 0.250176 0.201583
0.00442428 0.177089 0.25304
0.00245569 0.0844432 0.284992
0.00190204 -0.151612 0.277482
0.012418 0.284656 0.320004
-0.0316118 0.259956 0.211794
-0.0380973 0.254415 0.218116
0.0594304 -0.227974 0.577368
0.0159635 0.38732 0.307948
0.0501795 -0.241011 0.350651
0.0151536 0.163572 0.08252
-0.0109767 0.211174 0.0592333
0.00644196 0.370397 0.0513852
0.00589502 0.09597 0.36876
-0.0401199 0.18298 0.271262
0.002749 0.0786827 0.326439
-0.00122498 -0.453578 0.104495
0.0296576 0.194014 0.271265
0.0261989 0.0565531 0.269672
-0.0206608 0.139792 0.202237
-0.00174715 -0.213698 0.578595
0.00286296 0.380676 0.29319
-0.0104638 0.354814 0.306824
-0.0493778 0.0323847 0.102129
0.0123826 -0.417653 0.103512
0.0116081 0.290829 0.318104
-0.00681819 -0.217623 0.0636375
-0.0204497 -0.214133 0.581736
-0.0189749 0.0584876 0.225892
-0.0832168 0.0713783 0.105118
0.0309583 0.141739 0.193338
-0.00247625 0.169103 0.245217
-0.00830098 -0.231343 0.309693
0.0259909 0.0428623 0.28828
-0.0343714 0.0460597 0.232775
0.01819 0.140646 0.411977
-0.0317895 0.105612 0.210217
0.0310581 -0.244323 0.364694
-0.00424696 -0.444447 0.209398
-0.0364676 0.0498015 0.188709
-0.0331947 0.135915 0.405191
-0.00470723 0.154296 0.183773
0.0529807 -0.279738 0.189405
-0.0794093 -0.22051 0.584136
0.0261989 0.0544098 0.221269
-0.00145889 0.200956 0.281282
0.0529501 -0.302668 0.186226
-0.00504312 -0.154301 0.176765
0.0101571 -0.169032 0.295032
0.0470303 -0.228129 0.544399
-0.00810378 0.104581 0.349567
-0.0138335 -0.460499 0.188994
0.0362751 0.210032 0.260331
-0.013802 -0.445837 0.229982
0.0148829 -0.25694 0.343705
-0.0141341 0.229392 0.0354893
0.00816279 0.344425 0.317811
-0.0250592 0.171352 0.279867
0.015428 -0.449988 0.241606
-0.022246 0.111574 0.417052
0.00528512 -0.432417 0.239175
-0.0109994 0.361107 0.331926
-0.034525 0.2014 0.259849
-0.000206894 0.184664 0.0434922
-0.143492 -0.21382 0.593407
0.000320883 0.0600211 0.22438
0.001461 0.0453399 0.385285
-0.0103366 -0.267175 0.3488
-0.0211791 0.251667 0.153082
0.015598 0.312792 0.331317
0.00946813 0.0242367 0.234702
-0.0146062 0.28372 0.0151113
0.0353084 0.280111 0.173814
0.0290072 0.133509 0.392335
0.00610362 -0.339361 0.320053
-0.000409539 0.423073 0.0918186
0.00920063 -0.16756 0.0706812
0.0156318 -0.151414 0.111607
0.00409297 0.150302 0.194582
-0.0344065 0.286084 0.176917
0.0162113 -0.154856 0.252105
0.00396863 -0.422928 0.304426
0.0224272 0.0923634 0.214435
-0.0766373 0.0483992 0.102129
-0.00830545 0.325842 0.315592
-0.0125214 0.226688 0.309679
-0.0122195 -0.137063 0.228967
-0.0130489 -0.339557 0.330538
-0.0108408 -0.216949 0.485718
-0.0602587 -0.263251 0.22643
0.000670499 0.447953 0.164937
0.0108942 0.468369 0.181211
0.0217135 0.179531 0.394488
0.00428552 -0.200752 0.326516
0.0161356 -0.455135 0.200172
0.0353728 0.27497 0.182924
-0.0109767 0.154619 0.195128
-0.0108147 0.267702 0.131548
-0.0176857 0.295594 0.151768
-0.0518005 -0.25937 0.241961
-0.0143291 0.20256 0.0501118
-0.0518584 -0.269754 0.210776
0.0482711 -0.285874 0.178473
-0.0115971 -0.318524 0.0335161
0.0154261 0.352451 0.320987
0.0131162 -0.38791 0.167157
-0.0135229 -0.45064 0.240452
0.00981067 0.0446122 0.217965
0.0148852 0.446704 0.136683
0.00979822 0.468639 0.187721
-0.00413187 -0.216878 0.336243
0.012458 -0.233804 0.226192
-0.0370895 0.181937 0.199272
0.015722 0.415884 0.286401
0.0387616 -0.250112 0.327622
0.00468774 0.0378507 0.207772
-0.0542874 -0.24184 0.32228
0.0153102 0.175638 0.0816812
-0.00214638 0.470201 0.150234
0.0321413 0.0302529 0.312041
-0.00533402 -0.145668 0.266136
0.00756846 0.240431 0.0116352
-0.00052477 0.124889 0.161622
-0.0144863 0.450163 0.127886
0.00607884 -0.336909 0.321068
0.000883561 0.39147 0.323317
-0.0105268 0.288916 0.238626
-0.0142459 0.285083 0.331249
-0.0110065 -0.182801 0.2481
-0.0138887 -0.255858 0.0314332
0.00354945 0.124034 0.179217
0.02924 0.216522 0.186025
0.00455488 -0.152385 0.0871366
0.0115624 0.157813 0.125757
0.00283867 0.0661576 0.293537
-0.0107907 0.248331 0.315486
0.104523 -0.214518 0.601849
0.012418 0.213926 0.0513285
0.0209302 0.10596 0.333506
-0.00250204 -0.230929 0.0223926
-0.00894373 -0.171654 0.378641
-0.0447524 0.0460036 0.108197
0.00634607 -0.176487 0.376731
-0.0140083 -0.455206 0.179409
-0.0134535 0.318334 0.160969
-0.0047336 0.167519 0.28864
0.0101089 0.218684 0.297921
0.000804997 0.243913 0.00853286
0.0162603 -0.225831 0.0399786
-0.0143968 -0.364806 0.326932
0.0161769 -0.152893 0.246727
-0.00784743 -0.441765 0.17947
0.0307962 0.0542648 0.314892
-0.146412 -0.229038 0.593772
-0.00839955 0.116311 0.358599
0.126405 -0.224723 0.604735
0.0109438 0.44549 0.204324
0.116808 -0.213482 0.599425
-0.00190284 0.427836 0.101474
0.000218087 -0.21842 0.500315
-0.00565001 -0.403048 0.0844796
-0.000952615 0.440849 0.274551
0.0123975 0.324097 0.113484
-0.00312014 -0.223883 0.387677
0.0517374 -0.224657 0.525232
0.026726 -0.226534 0.583976
-0.0113259 0.0677241 0.421528
-0.025935 0.160639 0.233661
0.00140704 0.124646 0.35121
-0.00139849 0.0983103 0.321376
-0.00171825 0.283768 0.31974
0.14625 -0.212067 0.596269
0.0141471 0.206356 0.296474
-0.0338933 0.139702 0.194896
-0.00763089 0.397407 0.278523
0.0122206 -0.417048 0.102723
0.00765641 0.304906 0.0030618
0.00436945 0.0991942 0.378911
-0.0111675 0.199166 0.288458
-0.00867994 -0.0954482 0.3236
-0.00853973 -0.252521 0.0463264
0.00482732 -0.200383 0.295235
0.012418 0.230088 0.305564
-0.00418213 0.399205 0.284658
-0.00632809 -0.0408181 0.402605
0.00680733 0.0785844 0.362487
0.015177 -0.236362 0.0301105
-0.025489 -0.228997 0.373249
0.0123706 0.252937 0.0423593
-0.0200994 0.266773 0.209197
0.00648489 -0.203164 0.409389
-0.0392962 0.233127 0.178035
-0.00575668 0.305807 0.319089
0.01263 -0.16959 0.111408
0.121488 -0.216088 0.605322
-0.00634087 -0.366883 0.314929
0.103518 -0.212103 0.599172
-0.0169214 0.305994 0.14908
-0.0343714 0.0599893 0.228049
0.00841487 -0.150986 0.207247
-0.0315221 0.0977422 0.166924
0.01263 -0.156143 0.215983
-0.00452784 -0.356458 0.0193614
0.00489461 0.303523 0.324751
-0.0257256 0.0496617 0.228844
-0.00176899 -0.203655 0.0670466
0.0120993 0.413803 0.0509411
0.0115854 0.0772196 0.213724
-0.0151083 0.155705 0.405739
-0.038591 0.311176 0.188183
-0.129031 -0.223183 0.604566
0.00393974 0.40512 0.0801375
0.00398191 0.413369 0.27083
0.00209526 0.153817 0.274184
-0.0181202 0.0742658 0.21797
0.00402928 -0.406446 0.284184
0.00779679 0.35674 0.33829
-0.0103814 0.443333 0.141693
-0.00562823 -0.242945 0.314499
-0.00623005 -0.210492 0.440486
0.0121565 0.287584 0.0123113
-0.0343714 0.0353079 0.221134
-0.001431 0.243709 0.0425964
-0.000979875 -0.226938 0.451064
0.012418 0.302843 0.0310646
-0.0516855 -0.28206 0.180004
0.00503831 0.180174 0.0943985
-0.00235958 0.163584 0.225646
-0.00623591 0.0749793 0.363465
-0.0211626 0.125097 0.316549
0.0134738 -0.346692 0.0216244
-0.0250265 0.159277 0.163732
-0.0400735 0.0444346 0.143796
-0.0106215 0.236351 0.14927
-0.0120244 -0.428639 0.260073
0.00455158 0.375209 0.303235
0.00779626 0.030379 0.376339
0.00873326 -0.155203 0.194878
0.0104483 0.380406 0.0580757
-0.0057678 0.126676 0.154874
-0.00601328 0.293005 0.321761
0.00768392 -0.0917697 0.404952
0.015781 -0.444952 0.250029
-0.0468851 0.269282 0.209493
0.0463496 -0.267986 0.213368
-0.0244565 0.12533 0.327051
-0.00241118 -0.15272 0.22042
0.0116359 0.196618 0.276334
0.0125831 0.310452 0.127345
-0.0199688 -0.284 0.183772
-0.000871727 0.326827 0.315396
-0.0194786 0.274815 0.205452
0.0293182 0.0684432 0.300938
0.0277473 0.108698 0.325367
0.00855894 -0.146726 0.359887
0.0131967 0.449218 0.168284
0.00157004 0.0216455 0.236801
-0.0078375 0.107212 0.425828
0.00929271 0.0976332 0.407196
0.014544 0.285059 0.0223069
-0.00791612 0.0653826 0.21992
0.00631095 0.403588 0.273104
0.0122076 0.287566 0.0120346
-0.00815742 -0.451589 0.107061
0.0071418 0.416671 0.0933154
-0.0328118 0.075481 0.19475
-0.00155067 -0.215355 0.421908
-0.00805633 0.0819591 0.370259
0.00280506 0.321675 0.0275819
-0.00572421 0.217781 0.0554926
-0.00540309 -0.437525 0.234194
-0.00802912 0.203245 0.0682364
-0.00357356 0.421426 0.0529025
-0.00964317 -0.212873 0.29751
0.00649324 0.219378 0.330567
-0.0639785 0.0661133 0.102129
-0.0323757 0.132326 0.402718
0.00620998 -0.048979 0.405085
0.012597 -0.361634 0.0703063
0.00990997 -0.248257 0.346864
0.0412339 0.29197 0.180288
-0.00463212 0.223043 0.304019
-0.0128375 -0.240905 0.377892
-0.051956 -0.264134 0.226147
0.00919827 0.0711055 0.435398
-0.0278273 0.134373 0.239837
0.00202669 -0.166871 0.418067
0.145506 -0.213263 0.597737
-0.0105487 0.447137 0.0951123
-0.0687873 -0.222532 0.562261
0.0449013 -0.213996 0.577517
0.145733 -0.211938 0.597945
-0.00255424 -0.29353 0.00804277
-0.00537304 -0.424283 0.26216
0.0117723 0.215082 0.323269
0.032587 0.167825 0.278681
-0.0429573 0.276601 0.171011
0.0125489 -0.406197 0.276209
0.00479474 -0.216276 0.057361
0.0321343 0.162243 0.290589
-0.0176822 0.314537 0.154116
0.0535244 -0.228759 0.580379
0.0136235 0.408005 0.279725
-0.0103854 0.131871 0.206239
-0.0361644 0.150103 0.294815
-0.00305968 -0.418362 0.260357
-0.00422398 0.39353 0.0669156
-0.00607512 0.432545 0.242148
-0.0119815 0.287945 0.341904
-0.0328118 0.0738978 0.240766
-0.00946509 0.244628 0.336727
0.00594431 -0.0251527 0.263683
-0.0328118 0.0895269 0.220952
-0.000141593 0.042972 0.385927
-0.0343714 0.0811689 0.230135
-0.0250848 0.0879044 0.341825
-0.00385626 0.414331 0.303793
0.000576419 0.254629 0.0321134
-0.104952 -0.229173 0.596092
-0.00338455 0.0564643 0.227178
-0.012974 -0.238365 0.028087
-0.010284 -0.313604 0.144991
0.00295999 0.180455 0.0835412
0.0158755 -0.224715 0.326798
-0.0518535 -0.278519 0.183589
0.00491603 0.0497575 0.24861
-0.0240651 0.157224 0.382511
-0.00625731 -0.134393 0.359199
-0.00726032 -0.172081 0.300081
0.008656 -0.156793 0.206957
0.0159919 0.150453 0.234463
-0.0110535 0.407051 0.277958
-0.0340173 0.261549 0.186841
0.0188894 0.104959 0.40416
-0.00696673 -0.225052 0.446708
-0.00620841 -0.298745 0.35586
-0.00807587 -0.295749 0.0325298
0.0276904 0.092254 0.202039
0.0288225 0.11194 0.337726
-0.00791219 -0.388018 0.328771
-0.0133393 -0.186948 0.289723
-0.0639874 0.0461568 0.116166
-0.0135028 -0.298553 0.33724
0.00506785 -0.429277 0.238958
0.00671187 -0.433166 0.229566
-0.0106264 -0.151828 0.269016
-0.0120605 0.464835 0.184969
0.0438339 0.232398 0.238076
0.00847367 -0.411101 0.279342
-0.0276316 0.188921 0.186461
0.000847247 0.10247 0.386777
-0.0252935 0.172644 0.162161
-0.00988954 0.0550114 0.212738
0.0119439 0.173646 0.0596205
-0.0014835 0.425065 0.242902
-0.0143292 0.243745 0.0268831
-0.0411777 0.299387 0.169232
-0.00131347 0.0916505 0.360287
0.01263 -0.41973 0.103723
0.011963 0.362266 0.0764649
-0.0283949 0.105799 0.165964
-0.00304448 0.0782273 0.376898
-0.00574626 0.249029 0.340719
0.000404013 -0.197035 0.285356
-0.0134179 -0.258052 0.331943
-0.0341613 0.0637879 0.169493
-0.032332 0.0520068 0.170571
-0.0328118 0.0250984 0.230166
0.0450396 0.0488401 0.314892
-0.0352428 0.141076 0.2035
0.00460361 -0.435181 0.140093
-0.010538 -0.265022 0.302841
0.00736467 -0.467053 0.21915
-0.0328118 0.0670476 0.216837
-0.0141008 0.301109 0.013155
-0.00573786 0.410157 0.265199
-0.0137267 -0.363716 0.0425628
0.0198852 0.107769 0.423311
0.0153405 -0.412051 0.285829
-0.00939821 0.39413 0.317495
0.0072192 -0.110143 0.340133
-0.0271925 0.127983 0.239639
0.00894254 -0.0589242 0.298168
0.150187 -0.214903 0.592826
-0.00372847 0.42666 0.0990863
0.00860585 0.287635 0.0213418
-0.0017636 0.438062 0.278442
-0.0232418 -0.292913 0.176268
0.00342191 -0.447926 0.181816
0.0170969 0.306367 0.186506
-0.00466117 0.173821 0.1039
0.0697891 0.0441597 0.314581
0.00167216 -0.223905 0.391518
-0.0359367 0.194366 0.257462
0.0148248 0.215236 0.303824
-0.0112691 -0.225614 0.379877
0.050785 -0.27923 0.222832
0.012418 0.210553 0.29073
-0.0235426 0.167349 0.378317
0.00946149 0.0716503 0.207391
0.0143191 0.322504 0.325529
0.0273644 0.193936 0.266802
0.0024337 -0.469733 0.208433
0.0121963 0.216057 0.0276426
-0.121772 -0.224373 0.586628
-0.0363314 0.243114 0.219063
-0.0142193 -0.393189 0.308265
0.00812514 0.394285 0.0326283
-0.0140992 -0.443316 0.252036
0.0102828 0.40821 0.268111
0.00309331 0.0143481 0.375616
-0.00699702 0.415638 0.048637
-0.0372436 0.239393 0.229942
-0.0121826 -0.420032 0.0682332
-0.0801266 0.0287808 0.111317
0.0104973 0.435846 0.232902
0.0129272 0.390173 0.28044
0.0116703 0.401261 0.0402993
0.00836444 -0.165038 0.428551
0.0434388 -0.271329 0.238013
-0.00218863 -0.223803 0.389619
-0.0176516 0.263531 0.209339
0.00390009 0.121709 0.401228
0.000976142 0.16949 0.237626
-0.00728338 0.17624 0.375009
0.00523801 0.159248 0.139567
0.0412339 0.280341 0.187924
-0.0556252 -0.245994 0.330723
0.012418 0.335462 0.315918
-0.0244287 0.182604 0.195187
-0.00209039 -0.317193 0.324146
-0.00455983 -0.13506 0.361201
-0.00749163 -0.148222 0.26872
-0.00335537 -0.122981 0.408076
-0.00246326 -0.370746 0.339939
-0.0086882 0.100186 0.368631
0.0102666 -0.206539 0.47606
0.00878353 -0.233802 0.402317
-0.0381805 0.045481 0.22316
-0.0251206 0.197025 0.161423
-0.0105553 0.406558 0.136199
-0.0661446 -0.291496 0.178264
0.000383832 0.264801 0.314955
-0.01225 -0.133626 0.155522
0.110015 -0.226139 0.589647
-0.0116441 -0.271493 0.0341842
-0.0145786 0.211187 0.309471
0.00061004 -0.442688 0.210805
-0.0661446 -0.297353 0.180662
-0.0365687 0.14846 0.197278
-0.00933877 0.255634 0.317967
-0.0564495 -0.281974 0.177099
-0.0328118 0.0650844 0.217821
0.0361837 0.138141 0.313772
0.00953092 0.0705917 0.260523
0.0589361 -0.286014 0.172185
0.00603256 0.227269 0.305745
-0.031283 0.0984248 0.248837
-0.00746675 -0.184861 0.279666
-0.0115216 0.258785 0.156641
0.0307154 0.176359 0.272526
0.0100997 0.0947338 0.326139
-0.0162199 0.317054 0.187891
-0.0112715 0.402173 0.107075
0.0631845 -0.217815 0.573946
-0.0239197 0.21349 0.157854
0.0126541 0.27117 0.308957
0.00843088 -0.362998 0.0482547
0.0301383 0.138906 0.308994
0.0155209 -0.234767 0.0419622
-0.00639456 -0.232158 0.34133
-0.0103825 0.284351 0.174111
-0.00318785 -0.443136 0.219357
-0.00458043 0.191691 0.0706518
0.0959929 -0.227996 0.591139
-0.0478098 0.300974 0.182491
-0.0470124 -0.215034 0.539568
0.00859796 -0.422262 0.255559
-0.00783726 -0.00750251 0.392035
0.0393661 0.0280141 0.307733
-0.0065984 -0.289726 0.193698
0.01263 -0.179566 0.27015
-0.00108019 0.0401772 0.232917
0.00853099 -0.0504442 0.397955
0.00280811 -0.0160713 0.399436
0.0117979 0.265229 0.165941
-0.0111222 0.178917 0.0853883
-0.0633892 0.0258404 0.116166
0.00278628 -0.106498 0.403984
-0.0286701 0.14639 0.161668
-0.0588261 -0.257864 0.285831
-0.004043 0.101226 0.331427
0.0354872 0.156702 0.192622
-0.0124545 -0.148001 0.157745
0.0127972 -0.302202 0.180769
0.00873402 -0.350653 0.321652
-0.0294764 0.118483 0.196443
0.0346772 0.150937 0.385356
-0.0129101 -0.458723 0.226285
-0.00802312 0.00121167 0.249287
-0.0510995 -0.275368 0.21128
0.0305219 0.209802 0.258564
0.00855195 0.132481 0.392761
-0.0343714 0.01969 0.228241
-0.0140399 -0.421856 0.285725
-0.00405696 0.183997 0.270736
-0.0144289 -0.140454 0.207866
-0.0139137 -0.159094 0.110474
0.00530037 0.0356198 0.217969
0.00761 -0.127199 0.157951
-0.0411141 0.279624 0.207329
0.0327104 0.189138 0.262055
0.00913798 0.152515 0.384462
-0.0291114 0.16232 0.282845
-0.0107817 0.194057 0.282214
-0.0400735 0.0567785 0.160146
-0.0140637 0.101213 0.428312
-0.0303815 0.116877 0.164969
0.0374819 0.293799 0.176509
-0.00797243 0.0952017 0.367385
-0.0324178 0.00786447 0.204402
-0.0097134 0.101492 0.350993
-0.0307101 0.195558 0.183938
-0.00325736 -0.23255 0.0545991
0.0151365 0.134742 0.169119
0.0425242 -0.239537 0.328293
-0.0122508 0.333982 0.0278187
-0.0137757 -0.341676 0.33997
0.00593962 0.160447 0.280638
0.010364 0.084241 0.43534
0.012418 0.414108 0.261791
-0.0108453 0.422315 0.236089
-0.0343714 0.0259339 0.229419
0.00190693 0.306805 0.0324152
0.051618 -0.297477 0.196493
0.0429869 0.27875 0.184009
0.0143011 0.46323 0.192471
0.0686344 0.026842 0.309984
-0.0343714 0.0335387 0.219476
-0.0374852 0.277314 0.185682
-0.0137414 -0.392363 0.304618
-0.0107646 -0.15623 0.220593
-0.00236837 0.440908 0.185661
-0.0400735 0.0430404 0.148924
0.0103074 -0.43684 0.1441
0.0346658 0.183495 0.199667
0.0153958 0.324748 0.33561
-0.00624968 0.0484272 0.369749
-0.0106348 0.21741 0.02679
-0.0113204 0.282956 0.130265
0.0127002 -0.257042 0.259186
0.00738828 -0.469728 0.16607
-0.0109358 -0.129148 0.189214
0.0274192 -0.227809 0.498863
0.00847361 0.0962895 0.36627
0.0399664 -0.220192 0.573363
0.0305228 0.162982 0.380126
0.0622178 -0.216069 0.555843
0.0293182 0.0474128 0.303917
-0.00254502 0.469937 0.207665
0.045006 0.296446 0.167416
-0.0361227 -0.237908 0.366343
0.012418 0.152892 0.201142
0.01263 -0.41424 0.270894
-0.000279452 -0.154771 0.357088
0.0156754 0.455691 0.139797
-0.00414405 -0.409899 0.0501513
-0.0730791 0.0445154 0.105728
-0.0130293 -0.210098 0.478008
0.0118031 0.211614 0.2486
0.109438 -0.216703 0.589428
-0.00679854 -0.346035 0.323565
-0.0113231 -0.446006 0.204974
0.0552342 -0.267814 0.249718
0.010854 0.455584 0.10951
-0.0107196 -0.333585 0.314141
-0.0146561 0.207836 0.306855
-0.0328118 0.0282368 0.249233
0.0920988 -0.225801 0.589432
-0.0115563 -0.400153 0.293267
-0.00571054 0.132277 0.225425
0.0076998 0.436035 0.224049
-0.0102132 -0.176884 0.164732
0.00587131 0.097111 0.371798
-0.000457938 -0.380248 0.0652915
-0.00347133 0.178059 0.0501102
0.0573765 -0.296862 0.177767
-0.0109767 0.227077 0.0451895
0.0328619 0.0477077 0.314892
-0.0358343 0.0408645 0.217401
-0.0281457 0.153069 0.190454
-0.0262048 0.16439 0.231226
-0.000591574 0.394678 0.321492
-0.00650537 0.395857 0.0614304
0.00474915 -0.233074 0.420828
-0.00794996 0.387 0.287647
0.0158484 0.143462 0.205612
0.0152141 0.244041 0.0199614
-0.00405867 0.419647 0.251006
0.0152339 0.444037 0.102047
0.00854099 -0.122188 0.417477
-0.0061473 0.391924 0.0306373
0.047845 -0.229085 0.531459
-0.0104937 -0.31582 0.350254
-0.140837 -0.213693 0.594383
-0.0326152 0.275158 0.18021
0.0529804 -0.280237 0.190255
0.0101719 -0.185479 0.0843218
0.0361918 0.233395 0.227119
-0.0186251 0.242566 0.152393
0.0261989 0.0555925 0.222752
0.0124477 -0.239879 0.220873
0.00484333 -0.142684 0.104043
-0.0173077 0.180419 0.395329
0.0594069 -0.292566 0.181778
-0.0168962 -0.225847 0.498824
0.0424814 0.0329409 0.303412
-0.0585191 -0.254832 0.291091
-0.0137083 0.0635327 0.217374
-0.0156557 0.302735 0.195897
0.0161134 -0.276118 0.338994
-0.00109114 0.447748 0.170053
-0.00481403 -0.256354 0.0133866
-0.00168324 0.42175 0.258295
0.0119872 0.305929 0.153894
0.0574818 -0.301519 0.188449
0.0161074 -0.454949 0.20005
-0.0900134 0.065913 0.115627
0.0151273 0.170786 0.0715376
-0.0686712 0.0599614 0.103762
-0.00700168 -0.22352 0.480691
0.00612097 0.41005 0.275152
0.0111426 -0.4294 0.110988
0.0145646 -0.22191 0.0344909
