0.0235812 0.166065 0.361605
-0.0178691 0.157985 0.379853
0.0204671 0.108954 0.576861
-0.00138922 0.120452 0.191014
0.00327858 -0.417701 0.337275
-0.00390506 0.177984 0.129789
-0.00795553 -0.0758319 0.510257
0.0338161 -0.209582 0.333127
0.00585517 -0.156796 0.256851
0.00785709 0.0854445 0.509296
-0.00480167 -0.110198 0.101508
-0.00282802 -0.27747 0.390279
0.00749862 -0.213574 0.126239
0.00123926 -0.168598 0.360181
0.00927303 -0.312615 0.403648
-0.000994205 -0.211207 0.511158
0.00674416 0.397807 0.0718554
-0.0260943 -0.199624 0.4104
-0.0107951 -0.151743 0.366952
-0.00193958 -0.445226 0.140927
0.0407885 -0.217251 0.317431
0.0348241 0.250368 0.257087
-0.00356044 0.148336 0.113008
0.0181534 0.102729 0.185948
0.00742777 0.378417 0.186789
-0.11493 -0.120649 0.640128
-0.00441968 -0.0811778 0.193467
-0.00979839 0.465652 0.249414
-0.0254019 0.154406 0.216737
-0.0229781 0.0916016 0.58904
0.0159489 0.0173556 0.201972
0.0633441 -0.168818 0.60039
-0.00573956 0.0153868 0.239285
0.00302829 0.176746 0.0659282
-0.0793703 -0.156044 0.626605
0.00511191 0.334304 0.315299
0.00392495 -0.187043 0.539558
-0.00740106 0.0778527 0.484743
-0.00940443 0.233683 0.169787
0.00517779 0.370705 0.29535
0.00274938 0.237369 0.370614
0.000566397 -0.058335 0.519614
0.00237424 -0.0811982 0.21857
-0.0118133 -0.102008 0.311186
0.00276462 0.101379 0.525872
0.00319179 -0.206814 0.521215
-0.00215902 0.187311 0.0573174
0.00407157 0.123474 0.167367
-0.0174134 -0.272821 0.213695
-0.0911086 -0.142889 0.652702
-0.00324251 0.140142 0.103415
-0.00255261 0.162966 0.352434
0.0101512 -0.201052 0.394764
-0.00254447 0.0374489 0.249233
0.00424597 -0.276754 0.217114
0.0186872 0.0203279 0.234095
-0.130884 -0.1159 0.648524
-0.0253014 -0.181805 0.442993
0.00350338 -0.0382346 0.51584
0.00587624 0.0739169 0.486989
-0.000260874 0.159182 0.10094
0.00219343 0.137902 0.13196
-0.0104672 0.0789896 0.471185
0.00258449 -0.177997 0.570439
-0.0644871 -0.170202 0.605128
0.00408755 0.118274 0.23121
-0.0312471 -0.208483 0.376586
-0.0333711 0.0211262 0.299146
0.000663319 0.455265 0.229243
-0.00168147 -0.213337 0.380296
-0.00731682 -0.46124 0.208632
0.00475966 -0.0437799 0.316704
-0.00264435 -0.401435 0.334592
0.0326557 0.215559 0.219506
-0.0263301 -0.196231 0.440283
-0.00685526 0.110702 0.185806
-0.00135926 -0.0859275 0.163286
-0.001784 -0.0812571 0.190775
0.00435907 -0.331979 0.380779
-0.017063 0.13713 0.583476
-0.00238873 -0.290012 0.38936
0.0156082 0.0183891 0.262967
-0.00744772 0.386553 0.35298
0.0191075 0.166917 0.356511
0.0322704 0.190666 0.221718
0.0109616 -0.223247 0.500641
0.0179043 0.319455 0.239646
0.00265785 -0.165339 0.577951
0.0612395 -0.160077 0.60019
-0.0109161 -0.360055 0.384545
-0.000526396 0.246736 0.0464958
0.00243883 0.0406299 0.489315
-0.000449221 -0.404775 0.0519363
-0.00322322 -0.112821 0.33884
0.00258886 -0.133868 0.51432
0.00746854 -0.1599 0.454631
-0.00374163 -0.443389 0.130827
0.00652847 0.42296 0.0991825
0.00204339 -0.00378326 0.495498
-0.0249685 -0.202269 0.438296
0.0109097 -0.325333 0.396983
-0.0407068 0.242721 0.266832
-0.00757681 0.237642 0.377676
-0.00839333 -0.33802 0.268947
0.00571942 -0.126872 0.354705
0.0103824 -0.310296 0.402011
-0.0348194 -0.271278 0.20731
-0.00519098 0.457231 0.223531
-0.152235 -0.106565 0.643668
-0.00222474 -0.0710827 0.161963
-0.0295341 0.170556 0.221877
-0.0101119 0.136481 0.314279
-0.0161474 -0.288316 0.214404
0.0394954 -0.175481 0.594249
-0.0013403 -0.442566 0.152579
-0.0183621 -0.17442 0.593352
0.0444709 0.0398457 0.147845
5.84748e-06 0.346788 0.386543
-0.0311229 -0.196767 0.376032
0.00434127 -0.105482 0.331943
-0.007568 0.324474 0.0382704
-0.00596795 -0.0624333 0.205028
0.00273733 -0.21874 0.494466
0.00549779 -0.000510916 0.268427
0.00257871 -0.0391261 0.309512
0.0202786 0.0253762 0.223349
-0.00780269 -0.119304 0.406069
0.0113698 0.417727 0.331043
-0.00716825 -0.183745 0.477895
-0.00515683 -0.429434 0.302357
0.0838013 0.0385987 0.155266
0.00895559 0.105433 0.432774
-0.00352348 -0.323733 0.022364
-0.0156395 0.123979 0.60425
0.0233784 -0.186575 0.451584
0.0126102 0.0591694 0.245093
0.00662339 0.425095 0.0983899
-0.0455922 -0.240319 0.243241
0.00966812 -0.0671011 0.216421
-0.00132237 -0.207474 0.502501
-0.0253528 -0.266558 0.201084
0.0118323 -0.0773633 0.245595
-0.000225056 0.187599 0.0567276
-0.000382644 0.43663 0.286709
0.00778943 -0.0974761 0.517905
0.00617945 -0.34379 0.024766
0.00546647 -0.315518 0.387871
0.00805262 0.31957 0.280994
0.00891134 0.0674071 0.596301
0.00716951 -0.162201 0.21377
0.107964 -0.131694 0.646345
0.0019517 0.443929 0.144811
0.00612882 0.455788 0.170604
-0.00396946 -0.328536 0.381337
-0.00752304 -0.451166 0.269681
0.00210259 0.420627 0.341761
-0.00448411 0.331193 0.0461562
0.00288035 -0.0664412 0.165242
0.00525296 -0.294053 0.0132202
-0.0104662 -0.376337 0.377326
0.00831972 -0.140598 0.36214
0.0112181 -0.291604 0.150191
-0.00484655 0.0481543 0.235001
-0.000298747 0.129538 0.148243
0.0406058 0.119668 0.578091
-0.0189699 0.135249 0.2285
-0.0166624 0.0432997 0.594954
0.00579896 -0.0851392 0.277619
0.00561392 0.0148768 0.506606
0.0173045 -0.222334 0.521995
0.0040478 -0.0585952 0.353524
-0.00458793 -0.462731 0.25386
0.0014214 0.266078 0.0413281
-0.0164111 -0.271401 0.202371
0.00296907 -0.159685 0.379402
0.00320138 -0.37344 0.0464226
-0.00976347 -0.353828 0.389348
-0.00697653 -0.286804 0.0110667
0.0689936 0.0417276 0.14823
-0.0107649 -0.350264 0.38939
0.00227792 -0.0892711 0.255615
0.016827 0.012849 0.218674
0.0245196 -0.186198 0.422457
-0.00651195 -0.0729385 0.268498
-0.050266 -0.252469 0.218692
-0.00506596 0.0262424 0.233819
0.0423042 -0.266412 0.200398
0.00283491 -0.417568 0.0667008
-0.00950376 -0.0713551 0.161622
0.0156083 0.0476213 0.23439
-0.0283757 0.18611 0.346942
0.0288185 0.165862 0.218139
0.00482484 -0.451991 0.281607
-0.00481212 -0.019888 0.498647
-0.00374035 -0.0806922 0.130199
-0.00687816 0.326443 0.0351777
-0.0388202 -0.211922 0.357895
0.00538361 -0.171153 0.53348
0.0182702 0.0318656 0.191559
0.00623998 -0.0626843 0.192821
0.0078605 -0.0472801 0.330038
-0.0497974 -0.221679 0.28534
0.0165364 0.286875 0.207598
0.015612 -0.000441437 0.202995
0.0137929 -0.245836 0.187039
-0.00447528 0.0252525 0.214986
0.00540977 0.415369 0.0834896
0.131733 -0.118647 0.652277
2.85124e-05 0.419551 0.314776
0.00357908 -0.0742692 0.152831
0.020158 0.0371797 0.207308
-0.0128583 -0.298795 0.181023
0.0178773 0.321934 0.23748
-0.00366124 0.106876 0.223896
-0.00741096 -0.461845 0.191842
0.0214136 0.105787 0.599855
0.00581571 -0.172637 0.387728
0.00487237 -0.118211 0.0854856
-0.0114503 0.381908 0.363218
-0.030362 -0.209478 0.390968
-0.00433591 -0.0886548 0.254894
0.00607845 0.413484 0.0834899
-0.00571556 -0.0241763 0.512891
0.0178251 0.342639 0.256536
0.0057013 0.00253655 0.496956
0.0202773 0.0149413 0.257056
1.22549e-05 -0.35356 0.386298
-0.00330467 0.456973 0.274342
-0.00699823 0.294837 0.387004
0.0303345 0.128669 0.605103
0.00266734 -0.0986343 0.123027
0.00668964 -0.191533 0.507392
0.0156073 0.0466265 0.255563
0.0022848 -0.0893433 0.305605
-0.0189287 0.348956 0.263783
0.0183472 0.0176056 0.191867
-0.00153554 0.0692585 0.372644
0.00125499 -0.108331 0.104707
-0.0179724 0.157295 0.3748
-0.0176363 0.136432 0.415303
-0.0456018 -0.268233 0.197712
0.106426 -0.123857 0.653115
-0.00769955 -0.292993 0.00787856
-0.000921742 0.333552 0.370522
0.0157517 0.108717 0.223836
-0.0281817 -0.177059 0.447991
0.132306 -0.119575 0.650731
0.0233167 0.293131 0.212446
0.00781592 0.441139 0.312412
0.00394199 -0.0841957 0.165178
0.00136573 0.43791 0.286846
-0.0173353 -0.264058 0.226113
0.0217862 0.308879 0.228871
-0.00443744 -0.167167 0.360245
0.00291531 -0.133689 0.333946
0.0131448 0.271441 0.231985
0.00301776 0.159465 0.337709
-0.000122069 -0.0674871 0.18537
0.106042 -0.125286 0.647004
0.00223322 -0.180869 0.0357532
0.00777296 -0.0178219 0.504453
-0.00735591 0.114036 0.216149
-0.000577353 0.17001 0.331077
-0.0279756 0.160259 0.218494
0.0158436 -0.258714 0.216116
0.0189136 0.335805 0.250315
0.000848888 -0.31348 0.0199208
0.00236514 0.453791 0.239156
-0.00465823 0.0477684 0.289787
-0.0479839 0.0258496 0.30233
-0.0359617 0.233458 0.2062
-0.00454217 -0.233166 0.407835
-0.00189277 0.129077 0.149907
-0.00532636 0.0250126 0.247081
-0.00846755 -0.144646 0.525941
0.0112485 0.325419 0.384359
-0.0502537 -0.220768 0.277251
-0.0128505 0.283816 0.246435
-0.0056171 -0.195614 0.495882
-0.00366636 0.346843 0.368326
0.00351679 0.0174411 0.222045
-0.00465268 -0.171497 0.544088
-0.00219359 0.106452 0.553956
-0.0011315 -0.292859 0.388731
0.0173818 0.133604 0.403751
-0.00384207 0.0225799 0.215006
-0.00760124 -0.371023 0.036293
0.00524762 -0.458863 0.216614
-0.0246215 -0.266238 0.201424
-0.00760765 0.133039 0.12272
-0.00295851 -0.456103 0.127413
0.00647694 0.1153 0.578557
0.11232 -0.132912 0.64948
0.00464 -0.456873 0.270461
0.00528903 -0.17734 0.296995
0.125771 -0.113035 0.655039
-0.00381285 0.152751 0.310877
-0.0108087 -0.214257 0.398268
-0.00573629 -0.0219494 0.311062
0.00228613 0.134794 0.111352
0.0633283 -0.160398 0.611215
-0.00813142 -0.0274724 0.312507
0.00442177 0.0338615 0.242584
-0.00743604 0.390327 0.36392
0.0221293 0.157964 0.369147
0.000462395 0.124297 0.164742
0.0158463 0.282777 0.229283
-0.0107897 0.09436 0.50498
0.010676 0.219139 0.377886
0.00853902 -0.129146 0.353274
-0.00442506 -0.45134 0.153817
0.0339182 0.0314824 0.188891
0.00371878 0.119943 0.187532
-0.0057609 -0.355916 0.38223
-0.0116852 0.286397 0.195548
-0.00117322 -0.24212 0.388166
0.00397184 0.434199 0.292807
-0.0461434 0.136566 0.596098
0.00365095 -0.0890709 0.14903
0.00135396 0.0142498 0.239522
0.00593864 -0.466222 0.216641
0.0136875 0.407646 0.317812
-0.0161508 -0.251951 0.20216
0.021783 -0.200559 0.428136
0.00656726 0.461764 0.218421
0.0158394 0.294703 0.191708
0.0112725 -0.0728115 0.230959
0.0460073 0.129235 0.591394
0.00371802 -0.456426 0.198201
0.0031823 0.435902 0.105429
-0.0041873 -0.129335 0.075055
0.00612665 0.118656 0.152654
0.01495 0.367672 0.280119
-0.00296651 0.272165 0.397445
-0.000290815 0.343069 0.0493216
0.00674881 0.402292 0.0756574
-0.00950513 0.32443 0.38866
-0.0744038 -0.157576 0.612278
0.0032178 -0.13274 0.0733557
-0.000995457 0.229833 0.367853
0.0115953 -0.0721995 0.204745
0.00860714 0.0184483 0.236512
-0.00609129 0.455048 0.246139
-0.0502631 -0.244625 0.23272
0.0156101 -0.00458788 0.243676
0.0431915 -0.22603 0.257641
-0.0506406 0.0236126 0.299688
0.00156153 0.0984129 0.490105
0.00643545 -0.0991393 0.109578
-0.0185441 0.0704746 0.580234
-0.0161523 -0.256365 0.221629
-0.00652352 0.419094 0.330357
-0.00490858 0.23553 0.0364101
0.0102352 0.212693 0.376346
-0.00118692 0.00915289 0.278501
0.000275009 0.353836 0.358397
0.147616 -0.0975575 0.641837
0.0222483 0.0943181 0.574006
0.0202788 0.00572864 0.235449
0.0141498 0.304941 0.211428
-0.00460032 0.256335 0.0430123
0.00445956 0.416617 0.320741
0.0113297 0.0477943 0.235963
-0.0110077 -0.175775 0.456929
-0.00433959 0.463049 0.166309
-0.00752151 0.192414 0.356546
0.0448393 0.134852 0.593382
-0.0174264 -0.232129 0.51991
0.0199217 0.0332188 0.193429
0.0104363 0.0893355 0.573004
-0.0125329 0.311457 0.386097
0.0405903 -0.232599 0.246083
0.00348661 -0.102853 0.290743
-0.000944988 -0.441801 0.129184
0.137157 -0.103842 0.649848
-0.0102071 -0.227534 0.263619
-0.00260632 -0.206382 0.519676
-0.0126586 -0.229938 0.212968
-0.00137519 0.445291 0.311377
-0.000935986 0.0271584 0.248572
0.0183624 0.159585 0.188321
-0.00436416 -0.154165 0.285009
-0.124195 -0.117844 0.65553
-0.0246078 0.145028 0.597203
-0.00670289 0.325449 0.383918
-0.0109602 0.248417 0.387586
0.00459593 0.322174 0.0893438
-0.00201297 0.0859579 0.439891
-0.0105534 -0.139347 0.358636
-0.00577578 -0.21145 0.0209788
0.00481883 -0.179772 0.546285
-0.00773702 0.336725 0.281507
0.00368049 0.446419 0.270447
0.00460218 0.332485 0.0346427
-0.00703868 -0.459876 0.220078
-0.00373371 -0.406991 0.0740333
0.0101395 0.412037 0.323378
-0.0044384 0.214489 0.362031
-0.00132777 0.29389 0.378087
0.00129408 -0.450873 0.243647
0.000541064 0.0634165 0.437188
-0.0313767 0.198087 0.320138
0.0171079 -0.260037 0.216783
-0.00382928 -0.205587 0.0735122
0.00372657 0.0593456 0.417495
-0.00893779 0.117066 0.438212
0.045339 0.281437 0.218175
-0.0222656 0.178257 0.351617
-0.132437 -0.10977 0.654228
-0.00945914 0.0487538 0.238604
-0.00557187 0.160736 0.0946824
0.0344232 0.204666 0.217646
-0.00543895 -0.455202 0.129319
0.00383804 -0.211519 0.332023
-0.00221154 -0.254742 0.195166
-0.0130089 -0.233879 0.522836
-0.00433733 0.356253 0.0417857
0.00305891 -0.397033 0.065743
-0.00405727 -0.104128 0.112465
-0.0178346 -0.237367 0.519914
0.0193274 0.0251599 0.228515
-0.00172726 0.27782 0.206345
-0.00491698 -0.0713002 0.166731
-0.00782438 0.0927917 0.474075
0.0175606 0.250618 0.226572
0.0101663 0.0650296 0.39488
0.00336562 0.404884 0.2668
-0.00217591 0.36436 0.379394
0.00271489 0.0169995 0.249363
0.00856923 0.28236 0.130685
-0.0161483 0.298853 0.193736
-0.00692527 0.142513 0.3029
-0.0150544 -0.271383 0.202291
-0.00749544 -0.0991106 0.297786
-0.0287953 0.0167935 0.25245
-0.00733973 -0.24872 0.409828
0.0118719 -0.304078 0.226443
-0.00172714 0.285165 0.21332
-0.0117762 0.275888 0.164069
0.0109923 0.0314613 0.217403
-0.00439274 0.123517 0.164264
-0.00845547 -0.373238 0.382508
0.00494977 0.458816 0.263526
0.0169076 0.116726 0.225255
-0.00121223 -0.0358513 0.304962
0.0160091 0.0594764 0.239728
-0.0377526 -0.213962 0.333408
0.00241277 -0.08103 0.217012
0.0116775 0.275774 0.248759
0.00662755 0.123729 0.270881
0.0296483 0.204408 0.221544
-0.00154483 -0.025544 0.317845
-0.0105067 0.0510496 0.328426
-0.0121371 -0.0990939 0.305491
0.00650605 -0.0759874 0.21648
0.0116235 -0.204609 0.391213
0.00364523 -0.231862 0.534048
0.00576095 0.264223 0.395719
0.015845 0.269693 0.208236
-0.0403167 -0.270576 0.200076
-0.00340162 0.12271 0.17104
-0.0463784 -0.169462 0.601049
-0.0174098 0.275083 0.200196
-0.006943 0.193355 0.215459
-0.000428914 -0.446245 0.145627
-0.0109923 0.145767 0.324566
-0.0103492 -0.368394 0.38121
-0.00269279 -0.243347 0.388053
0.0102975 -0.319948 0.236362
0.0114313 -0.179653 0.380769
0.0266856 -0.204089 0.461127
0.00431037 0.168262 0.196829
0.0100746 0.0680216 0.404002
-0.00565486 -0.301158 0.408415
-0.0279688 -0.206293 0.39868
-0.000334125 0.451368 0.301092
0.00606376 0.294599 0.30943
0.00882751 0.0872254 0.511213
0.00127366 0.315704 0.375583
-0.0424479 -0.217872 0.335523
-0.0174158 -0.24969 0.207655
-0.00939598 0.06985 0.57228
-0.0074032 -0.438277 0.295995
-0.00570579 -0.178066 0.380091
-0.0143573 0.142344 0.404487
-0.00663642 -0.18542 0.478761
-0.0075998 0.150602 0.588146
-0.00744658 -0.446718 0.126428
0.00404919 0.270864 0.377705
0.00377183 -0.437889 0.284823
-0.0107625 0.0433808 0.300217
-0.0326902 0.211917 0.209071
4.21679e-05 0.43129 0.121977
0.00650992 0.162231 0.334478
-0.00394238 0.386144 0.345869
-0.00704872 -0.313691 0.389271
0.00910892 0.0395336 0.277442
-0.0199343 0.0837569 0.582652
-0.0104843 0.154572 0.336603
0.0190783 -0.198853 0.449514
0.00309932 -0.119325 0.423266
-0.0096159 -0.0671539 0.203311
-0.0209676 -0.231371 0.517284
-0.00501142 0.0694013 0.457203
-0.00357 0.0751107 0.397602
-0.0113765 0.0596837 0.234353
-0.0470529 0.111642 0.581504
0.0221076 0.149181 0.231636
-0.0291886 -0.200724 0.421175
-0.00845519 -0.0804753 0.512139
0.0280608 0.0355306 0.165527
-0.0272126 -0.180576 0.45769
-0.00527228 0.0543707 0.317323
-0.0011762 0.226665 0.0525445
-0.0038089 0.33043 0.0444593
0.00653439 -0.155428 0.0447424
-0.00425333 -0.0434974 0.314925
0.00281465 0.150998 0.194508
-0.0121684 0.129588 0.408518
0.0115133 -0.289378 0.401949
0.00593106 -0.220063 0.394803
0.00669074 0.417097 0.327058
-0.14877 -0.103493 0.644029
-0.0111291 0.206127 0.372189
0.00235588 -0.139189 0.0480677
0.00584103 -0.178768 0.576535
0.00192807 -0.0681694 0.221268
-0.0158153 0.024579 0.236016
0.00290223 0.132362 0.278207
-0.0206358 0.16407 0.35951
0.04241 -0.21552 0.302876
-0.00379176 -0.193703 0.3895
-0.00561329 0.39751 0.241119
-0.00460522 0.207416 0.0598776
-0.0265526 0.176393 0.353716
0.149533 -0.096902 0.646679
-0.00109373 -0.0671099 0.247319
0.00794139 0.0484522 0.305847
-0.017413 0.285397 0.214644
-0.00438424 -0.26959 0.0143192
0.00669022 -0.461563 0.170833
0.00643417 -0.331695 0.288873
0.00119007 0.108694 0.174973
-0.0338857 -0.0093623 0.29733
0.000484482 0.0864304 0.498925
-0.00253846 -0.0982107 0.123175
0.0106582 0.204865 0.371576
0.0459453 0.119745 0.595485
0.00894101 -0.069419 0.169173
0.00462437 -0.37251 0.37325
-0.00766212 -0.153631 0.360388
-0.0109385 0.316601 0.389069
0.00911689 0.30973 0.391351
0.010706 -0.143735 0.360289
-0.00366152 0.102921 0.509315
-0.0112355 -0.190591 0.454824
0.137679 -0.104724 0.652728
-0.0120612 -0.257679 0.245345
0.00224283 0.218522 0.363043
-0.0739904 -0.15115 0.621736
0.00578989 0.125776 0.133671
0.00490694 0.439037 0.128717
-0.00565805 0.00632098 0.495553
-0.0303377 0.117447 0.577847
-0.00383391 0.234535 0.048519
0.00283792 -0.21722 0.530849
-0.00338906 -0.164302 0.384434
0.00337337 -0.425183 0.328838
-0.00108953 -0.163015 0.474095
0.00551449 0.268205 0.0381639
0.0162975 0.0721838 0.579189
0.00596554 -0.45862 0.259303
-0.00389039 0.435947 0.105117
0.0294835 -0.190631 0.401703
-0.000144335 -0.448205 0.259193
0.00564288 0.0419253 0.240736
-6.8008e-05 -0.0625848 0.200561
0.00307005 -0.0831339 0.280074
0.00664483 -0.250153 0.00775613
-0.00904217 0.0672998 0.572326
0.00448098 0.26066 0.394177
0.00062891 -0.165841 0.358369
-0.00537013 -0.345426 0.387214
-0.0312955 0.19791 0.321934
-0.0163965 0.346343 0.265103
-0.00649549 -0.381707 0.0481492
-0.00852573 0.452675 0.290923
0.00222962 -0.206125 0.502301
-0.0136318 0.290392 0.180459
0.00262359 0.45086 0.16647
-0.00446254 -0.468132 0.178251
0.00403673 -0.0911277 0.263434
0.0141465 -0.229774 0.498157
0.00566097 0.416339 0.333292
0.00493563 0.0929918 0.457053
-0.00578693 -0.457489 0.268435
-0.0117616 0.299078 0.218804
0.00390307 0.0109635 0.226983
-0.00818115 -0.227699 0.49753
0.00676096 -0.233783 0.503417
-0.000214603 -0.209647 0.449569
-0.00987365 -0.190777 0.454566
0.00318301 0.0222097 0.238769
0.000994535 -0.201835 0.377948
0.00831927 -0.0998418 0.317154
-0.000741778 -0.183381 0.535499
0.00951513 -0.249672 0.135596
0.00672649 -0.149571 0.356449
-0.00364685 0.0655204 0.572357
0.0224314 -0.189594 0.454161
0.0187824 0.0676946 0.259194
0.0156075 0.0524274 0.247512
-0.041132 0.24063 0.211099
-0.0129198 -0.253371 0.207742
0.0778685 -0.143372 0.6525
-0.00329384 -0.382703 0.36906
-0.00406908 -0.137006 0.337671
-0.00596104 -0.40171 0.351306
-0.00556578 0.140134 0.295773
0.00961742 0.0351562 0.233503
-0.0330512 -0.00771943 0.296106
0.00404615 0.410563 0.326841
0.00456428 0.452198 0.281475
0.0166708 0.346045 0.259811
0.0186653 0.0247317 0.265163
0.00341152 0.0497859 0.297316
0.0167654 0.198469 0.188851
0.0107658 -0.366373 0.380836
-0.0142134 0.0831472 0.596301
-0.00989031 0.142665 0.606063
0.00808337 0.169239 0.353755
-0.0231727 0.0171527 0.259418
0.00219321 0.413656 0.124186
-0.00379925 -0.13733 0.0688403
0.00890089 0.0879579 0.456727
0.007864 -0.0404436 0.322719
0.027352 -0.207232 0.384686
0.00137458 -0.189559 0.495509
0.00533627 -0.168813 0.583451
-0.000789599 0.0355654 0.597895
0.000266047 0.132273 0.272984
-0.000989388 0.0545011 0.59689
-0.0278933 0.204045 0.310121
0.0814622 -0.143133 0.641091
0.00644634 -0.240272 0.0111958
-0.0123123 -0.0737985 0.17527
0.000822026 0.355254 0.363296
0.000651456 0.422195 0.311672
0.0102401 0.0349593 0.281475
0.00513698 -0.0177342 0.511724
-0.0156797 0.127708 0.427069
-0.0112277 0.0868527 0.486927
0.125712 -0.11684 0.655607
0.00689602 0.142298 0.326557
0.0100494 -0.216312 0.527331
0.0156094 0.0481316 0.211606
-7.5981e-05 0.182814 0.0764717
-0.00447251 0.196005 0.352954
6.26268e-06 -0.434386 0.290808
0.0136875 0.362677 0.277891
-0.00982768 0.293994 0.148487
-0.0455868 -0.227476 0.268971
0.0158411 0.306089 0.212457
0.00827257 0.269386 0.394303
-0.0012276 -0.281882 0.193897
0.000700998 -0.18947 0.529836
-0.00763515 0.102599 0.460872
0.00682221 -0.228952 0.495725
0.00406128 -0.189204 0.386743
-0.0284828 0.0142674 0.258507
-0.0109728 0.0235416 0.224964
0.0246439 0.143352 0.600697
-0.00516258 0.201953 0.0506434
0.0126256 0.295509 0.18028
0.00983807 0.234986 0.385385
0.00147374 0.0357563 0.597715
-0.0161506 0.305 0.20502
-0.00467388 0.233542 0.381606
-0.00766625 0.301575 0.385196
0.0076892 -0.172986 0.525878
0.00600563 -0.394056 0.0491404
0.0261598 -0.174876 0.452592
0.00945535 0.246431 0.388933
-0.00661913 0.121352 0.142608
-0.00298221 -0.150096 0.37544
-0.00448443 -0.42713 0.0780507
0.00864669 0.331963 0.388667
-0.00181504 -0.0656786 0.158845
-0.0204148 0.170486 0.366376
-0.002754 -0.181465 0.541818
-0.00455504 0.0589847 0.4162
-0.00264466 0.246703 0.392322
0.0113278 0.319475 0.385768
-0.0118414 0.130227 0.418707
-0.0113111 -0.0697204 0.206399
0.00954309 0.0475179 0.313804
-0.0116891 0.127248 0.411109
0.0103217 0.444834 0.29903
-0.0385539 -0.217053 0.329513
-0.00698302 -0.226559 0.500424
-0.011325 0.244533 0.178358
0.0196936 -0.00442944 0.225565
0.000159932 -0.157156 0.378144
0.00629756 -0.406572 0.0613455
-0.0136265 0.0352591 0.591374
-0.00771899 0.0561079 0.331211
0.0188857 0.0899145 0.573057
-0.00398917 -0.240892 0.38768
-0.146869 -0.100516 0.641328
0.00359495 -0.0913946 0.297114
0.0104919 -0.0958619 0.305182
0.0179546 0.31423 0.230851
0.00670239 -0.445613 0.119867
-0.0102085 0.437622 0.31246
0.00112432 -0.386055 0.348936
0.00140276 0.290026 0.210216
-0.0336508 0.231222 0.279641
-0.00590806 -0.242942 0.408645
-0.0117375 -0.0737069 0.165976
-7.35814e-05 -0.0310209 0.299409
-0.0169677 0.0391434 0.588474
-4.92169e-06 0.233648 0.369437
0.00566254 0.204248 0.051036
0.017308 0.0642429 0.187274
0.0220425 0.182485 0.337898
-0.000352262 -0.458887 0.132214
0.105884 -0.123817 0.650949
0.0115196 -0.0721925 0.214396
-0.0240579 0.185972 0.338034
-0.00472127 -0.445098 0.266295
0.0683039 -0.161354 0.619279
-0.0064379 -0.459564 0.191026
-0.00263755 0.258828 0.0422687
-0.00172931 -0.253501 0.205478
0.00966119 -0.233642 0.503911
0.00487501 0.446864 0.125172
-0.0106088 0.0802515 0.244256
0.00447615 -0.0973346 0.510149
-0.000809114 -0.0919516 0.266997
0.061606 -0.164854 0.597346
0.0141096 -0.229989 0.4987
0.00778705 -0.0732228 0.360711
0.00224212 -0.181098 0.443593
0.0049584 -0.457907 0.224306
-0.000599723 0.0535377 0.398028
-0.0109231 0.0506723 0.351878
0.017108 -0.289042 0.192404
0.00783037 -0.0780544 0.36476
0.00633984 0.188724 0.0668869
0.00534011 -0.192024 0.485504
0.0418374 -0.277755 0.206448
0.0319556 -0.210876 0.381934
-0.00342964 -0.318742 0.0216634
0.00384491 -0.238719 0.387279
0.00574251 0.0976066 0.453039
-0.00423579 -0.0506095 0.517676
-0.0054248 0.0488793 0.230801
0.0264065 -0.194289 0.390949
-0.135662 -0.0981796 0.646828
0.0411327 0.122344 0.602253
0.0054798 0.340456 0.38752
-0.000187183 0.0896036 0.523187
-0.0362944 0.124683 0.579451
0.00341016 0.0874064 0.476513
0.00246042 -0.104737 0.11175
0.00889915 -0.172258 0.536521
0.0111819 -0.357259 0.384738
-0.0161522 -0.257679 0.222361
-0.0034335 -0.0565822 0.329278
-0.005399 0.290016 0.395668
0.00638894 0.461035 0.212386
-0.0120379 0.131545 0.418995
-0.00693671 0.032104 0.235629
-0.00504078 -0.220566 0.0207502
-0.00963475 0.21836 0.213642
-0.00422094 -0.11217 0.415067
0.00142156 -0.267886 0.207488
-0.00985811 0.42264 0.332492
0.0174325 0.0213211 0.217077
0.0113718 0.163066 0.339744
-0.0606902 -0.16324 0.60877
-0.0417114 0.00999309 0.30128
-0.020667 -0.227163 0.516767
-0.000542283 0.0956151 0.5982
0.000628939 -0.269305 0.205898
0.00249781 0.418888 0.314777
-0.00732351 -0.3226 0.387858
0.000663526 -0.0173986 0.30858
0.00705836 -0.360787 0.389255
0.00674216 -0.0801714 0.252319
0.0113603 -0.120782 0.334899
-0.000930291 0.220966 0.0397326
0.00513805 -0.459708 0.260925
0.00502307 -0.332923 0.403451
0.0325902 -0.211085 0.343246
-0.0103603 -0.210752 0.503437
-0.0047048 -0.342398 0.029614
0.00431007 0.238684 0.383011
0.000963639 -0.360448 0.365846
-0.0347024 -0.210864 0.381863
-0.0214235 -0.191465 0.454292
0.00256897 0.142497 0.295743
0.000311154 -0.305972 0.00371645
0.0105632 -0.257284 0.405013
0.0128908 0.298232 0.232973
-0.0469106 -0.251198 0.232679
0.00645426 0.29489 0.0353958
-0.00124134 -0.105961 0.107901
-0.00839008 0.0566159 0.395729
0.0158459 0.282535 0.226184
0.00662706 0.362888 0.366835
-0.0183402 0.0656452 0.576137
0.0067029 -0.152487 0.0453298
0.0104999 -0.276844 0.189373
-0.0265173 0.158452 0.216198
-0.00467327 -0.235432 0.334552
0.00379873 0.0288177 0.240003
0.00154834 -0.22718 0.00494443
0.0408639 0.279811 0.204917
-0.00262715 0.0911151 0.535512
-0.00426922 -0.137326 0.51515
0.0234942 0.166465 0.365429
-0.0153504 0.08296 0.227892
0.00613015 -0.360356 0.02751
-0.0737109 0.018362 0.300538
-0.00662518 0.0981672 0.553348
-0.00699001 0.057275 0.403505
-0.00280386 0.469139 0.207789
0.0171071 0.280413 0.203495
0.0143594 0.385154 0.30162
-0.00706361 -0.174176 0.482003
0.00662641 -0.108694 0.0916131
-0.0362296 0.221393 0.290219
-0.000803633 -0.435769 0.316218
-0.00594037 -0.255244 0.39277
0.00668576 0.00681545 0.262408
0.003239 -0.366684 0.390374
-0.00670908 -0.0745376 0.243477
-0.00340426 0.14541 0.0956787
-0.00338489 0.0514673 0.302443
0.00362597 0.394981 0.0783304
0.0068166 -0.114726 0.323848
-0.0209979 0.158235 0.385973
-0.0190086 -0.166781 0.587916
-0.00421819 -0.387308 0.116011
-0.00477432 -0.318189 0.407417
-0.0659935 -0.00878838 0.303145
-0.010923 0.0279813 0.241211
0.00601767 -0.319309 0.406526
-0.0502659 -0.256849 0.219594
0.00679566 0.04808 0.233465
-0.00666374 -0.280477 0.409987
0.0072845 -0.0653983 0.21892
-0.0110196 0.0901733 0.493712
0.00211345 0.258827 0.388301
0.130806 -0.109037 0.637287
0.0541443 0.0215959 0.154398
-0.00789572 0.185448 0.364493
0.0348083 0.119055 0.578655
-0.000733249 -0.0855758 0.161241
-0.00645773 -0.454987 0.245104
0.00934311 0.238155 0.387217
-0.00373867 -0.411495 0.160831
-0.113727 -0.115809 0.644851
-0.00463502 0.44765 0.267813
-0.00475153 0.255747 0.375001
-0.00166681 -0.182683 0.594841
-0.000229695 0.301998 0.376491
0.0268465 0.14054 0.604926
-0.000537005 -0.235262 0.385348
0.0191462 0.144641 0.398555
0.0301229 0.12679 0.580764
-0.00962278 0.0811437 0.487477
0.0117861 0.237496 0.380598
-0.00457025 0.110647 0.171318
-0.00865287 0.0251199 0.500605
0.00355554 0.161211 0.0962572
0.0255322 0.135843 0.606497
-0.0442393 0.28834 0.20407
-0.00826717 0.455673 0.284978
0.00961909 -0.213833 0.258941
0.00330382 -0.40569 0.350099
-0.00930467 -0.0764375 0.266567
-0.0130573 0.112299 0.433336
-0.000854681 -0.24145 0.01628
0.00375032 0.0890225 0.473576
-0.00764909 -0.425626 0.0861075
0.017091 0.0259454 0.248637
-0.033231 0.0970517 0.588051
0.0102467 0.028181 0.249593
0.000798319 0.441197 0.112524
-0.00378759 -0.12941 0.358362
0.00583044 0.299585 0.0370237
-0.015818 0.0121603 0.227174
0.00947029 0.056268 0.348177
0.00889702 -0.188012 0.505222
-0.00172581 -0.282441 0.207162
0.00168752 0.463614 0.252696
-0.00023035 -0.37483 0.357538
0.00305329 0.283156 0.223761
-0.0523375 -0.162346 0.59514
-0.0101218 0.0287151 0.234994
-0.0130906 0.291162 0.178026
0.00473083 -0.132781 0.36079
0.00699537 -0.0666333 0.166033
-0.0412025 0.24165 0.213275
-0.00766509 0.358019 0.37108
0.00248423 0.434807 0.224444
0.0026204 0.327647 0.0706302
0.00225709 -0.441426 0.275955
0.00123906 0.121145 0.184991
0.00999103 -0.0695467 0.233564
-0.136679 -0.0981178 0.640229
0.000587638 -0.0676068 0.186145
0.00628181 -0.288654 0.399028
-0.0047646 -0.178542 0.468383
0.00379337 -0.322329 0.396131
-0.00473803 -0.362623 0.389781
0.0012882 -0.227659 0.492665
-0.0101295 0.426992 0.325455
-0.0511398 -0.169876 0.602887
0.0174361 0.0227915 0.236769
-0.145837 -0.0991088 0.639549
0.00997567 0.390559 0.358629
-0.0161482 -0.260604 0.189129
0.0202784 0.0459676 0.2071
0.0217022 0.0927103 0.593319
0.0103743 -0.365548 0.383312
0.0116965 0.26457 0.240625
-0.0031515 -0.364054 0.39161
-0.00430509 -0.155853 0.44256
-0.00498554 0.159318 0.0823292
-0.0161473 -0.28652 0.211369
-0.0109052 0.106894 0.431005
0.000538985 0.469037 0.218601
-0.00411892 0.437705 0.318642
0.0137051 -0.274382 0.22067
-0.00316652 0.213569 0.0570686
-0.000863573 -0.459276 0.133226
-0.00233192 0.278746 0.0400343
0.000733988 0.178515 0.0797182
-0.00118377 -0.455308 0.225972
-0.00323768 0.227187 0.0506184
-0.00586852 0.0987281 0.442165
0.00722342 -0.172907 0.518292
-0.0120941 0.4082 0.341364
-0.0136442 0.289364 0.188161
-0.00940826 -0.191064 0.454611
-0.00881087 -0.117828 0.410982
-0.0174156 -0.251421 0.208366
0.00654012 0.176953 0.0739931
-0.0074706 0.158014 0.329439
0.00372321 -0.352612 0.385264
0.0538417 0.0563198 0.160054
0.00022068 0.198112 0.374817
0.00287336 -0.172386 0.364634
-0.00167693 -0.166276 0.574597
0.0115178 -0.0799074 0.259646
0.0191306 0.00988169 0.202634
-0.00398808 -0.308463 0.385241
-0.000897713 0.0355574 0.222419
0.0101859 0.0344078 0.280963
-0.00533977 0.118195 0.232865
-0.124717 -0.108848 0.653298
0.0100465 -0.179785 0.509873
-0.022051 0.178436 0.358778
0.0188294 0.231644 0.229226
-0.00740016 -0.360402 0.0325433
0.00236565 0.424997 0.109661
0.00501077 0.111568 0.172131
-0.00868504 0.0622433 0.36023
0.00302637 -0.125797 0.430661
0.00830788 0.244641 0.388974
0.109216 -0.118455 0.652115
0.000360577 0.400978 0.3333
-0.0502571 -0.227656 0.26093
0.0194487 0.0418495 0.261481
-0.031622 0.00736645 0.302269
0.0112524 0.432001 0.313876
0.0187065 0.17618 0.187387
-0.0218915 0.142995 0.232773
0.0236888 0.104443 0.599472
0.00719566 0.0527068 0.498652
-0.00767808 -0.212313 0.526356
0.00102964 0.0687026 0.572301
0.0103836 0.0953592 0.574327
0.010471 -0.0815301 0.27498
-0.0479221 0.116629 0.588983
-0.0458229 0.109226 0.575542
0.00628592 -0.272504 0.0052758
0.0157567 0.0256129 0.247019
0.0171086 0.271201 0.206475
0.00390329 -0.197092 0.460306
-0.000245523 0.23326 0.0498655
0.0119703 0.0545537 0.230013
-0.0588517 0.00130859 0.304077
0.0419043 -0.227787 0.278176
-0.000225637 -0.0664448 0.199901
-0.00740895 -0.460491 0.230653
0.0398921 -0.255731 0.219214
0.000477758 -0.0138951 0.304637
0.0050122 0.0923497 0.452587
-0.00264979 -0.206069 0.378979
-0.0459529 -0.214172 0.308342
-0.00866689 -0.110421 0.404174
-0.0118576 0.273428 0.207067
-0.000258288 0.154375 0.311434
0.000150206 0.120308 0.192891
-0.000966581 -0.0205583 0.287543
-0.0109778 0.450359 0.286527
-0.0174118 0.273029 0.218664
-0.00345808 -0.308504 0.399755
-0.0152769 0.105863 0.239569
-0.00273432 0.120073 0.236812
-0.00300369 0.114207 0.264402
0.0156738 0.111006 0.238612
-0.0214663 0.121207 0.227095
-0.00858472 -0.181104 0.470233
0.0155756 0.151306 0.394525
-0.00371624 0.409978 0.351538
0.00778801 -0.109039 0.519578
0.011228 -0.230033 0.399739
-0.0138701 0.094491 0.573524
-0.0721002 -0.154793 0.613157
-0.00210821 -0.176284 0.477668
0.00375241 -0.258583 0.351561
-0.00670196 0.0557155 0.326412
-0.000122769 0.0919815 0.522811
0.000375136 -0.15848 0.0326206
-0.0174106 -0.280927 0.197766
0.00132993 0.315278 0.394254
0.00400597 -0.196594 0.0288363
0.00378858 -0.447443 0.259865
-0.00522699 0.062349 0.487204
0.00417675 0.0093734 0.255643
0.00986044 -0.109924 0.327306
-0.000555358 -0.248946 0.38749
0.00583398 0.369416 0.050716
-0.0107636 0.0818861 0.479846
0.00883212 -0.0671222 0.232282
-0.0141133 0.117237 0.426815
0.00454134 -0.00663054 0.510597
0.00774545 0.431461 0.325804
-0.000488516 -0.452654 0.163126
0.00549645 0.0393244 0.234763
0.0204133 0.137071 0.583433
0.00142112 -0.267834 0.211348
-0.0107489 0.0283962 0.265425
-0.0152651 0.0598928 0.594816
0.0166864 0.0847579 0.233896
-0.00820335 -0.174488 0.591632
0.0106229 0.121687 0.41427
0.0406811 0.139903 0.583414
0.00385621 -0.3745 0.357544
-0.00279343 -0.0150052 0.513189
0.0102627 0.341826 0.382979
0.00235695 -0.180203 0.453956
-0.0183298 0.0736342 0.591175
0.0219606 -0.17814 0.588721
-0.00754089 0.414733 0.0894791
-0.000275149 -0.265545 0.411974
0.00635375 -0.172086 0.540332
-0.00613891 0.0218547 0.220945
0.00769345 0.055755 0.496617
0.0100164 0.0350587 0.288898
0.00337019 0.22246 0.364821
-0.00749854 -0.091918 0.282215
-0.00977886 0.0478813 0.308514
-0.0135035 0.0331183 0.579735
-0.00498841 0.393492 0.161603
0.00385121 0.106535 0.56374
-0.00571217 0.091945 0.475215
-0.00249545 -0.0652632 0.171181
-0.0107748 0.443628 0.301382
0.00120632 -0.0107591 0.276643
-0.00404365 -0.233413 0.531293
-0.00172625 0.276864 0.212141
-0.0185585 0.131373 0.223635
0.0401454 -0.21551 0.321769
0.00125811 -0.223596 0.383886
-0.0153764 0.121858 0.412316
-0.00432178 0.153607 0.341157
0.0158399 0.302378 0.201444
-0.016771 -0.173524 0.593249
0.00140799 -0.37392 0.34685
-0.00431511 0.101133 0.527402
0.00635522 -0.0634057 0.220698
-0.00551692 0.0529236 0.311937
0.00858749 -0.207834 0.264735
-0.00926912 -0.109369 0.330577
0.000427935 0.381823 0.0537802
-0.000464204 -0.278614 0.388183
-0.0263744 0.159861 0.229686
0.0103694 0.184453 0.360442
-0.00677956 -0.119173 0.514607
-0.0461903 -0.23854 0.235731
-0.00635535 0.0579307 0.408149
-0.0049365 0.447678 0.15105
-0.00267437 -0.0790918 0.284688
0.0441439 0.281339 0.207486
0.00305963 0.245478 0.373026
0.0061848 0.349773 0.375722
-0.00172663 -0.268289 0.213102
0.00921041 0.232065 0.384627
0.00579427 -0.190597 0.385308
-0.000918877 0.205704 0.0612721
-0.0352909 0.234395 0.215325
0.00895306 0.455904 0.282349
0.00501137 -0.198858 0.461902
0.00454473 -0.24031 0.00434367
0.00100232 -0.100433 0.402826
-0.0126829 -0.284821 0.202097
0.0291949 0.0309837 0.17526
0.00707267 -0.193636 0.486768
-0.00578964 -0.260617 0.41038
0.0220412 -0.197926 0.454743
0.00515564 0.155751 0.319065
-0.00468575 0.205762 0.0608511
-4.30748e-05 -0.104213 0.293963
-0.0502576 -0.226614 0.258034
0.00634045 -0.315051 0.0151294
0.0159472 0.0645607 0.579327
0.0167662 0.0815187 0.187588
-0.00363513 -0.114555 0.332137
-0.00542549 -0.0803276 0.222599
-0.00406694 0.382839 0.350037
-0.00655688 -0.318884 0.00940499
-0.00110973 0.428852 0.330606
-0.0221488 0.154908 0.227248
-0.00690926 0.16881 0.342224
-0.00575299 -0.0360485 0.514559
0.0153401 0.0764564 0.2271
0.0199529 0.0168977 0.224862
0.0048811 -0.0672865 0.164279
-0.00878522 -0.174234 0.384067
-0.0110537 -0.2843 0.140548
-0.0210367 0.173459 0.362777
-0.00304766 -0.183176 0.537008
0.0115756 -0.0858708 0.276413
0.00539912 -0.303803 0.325433
-0.0169346 0.122222 0.227643
0.00184161 0.12843 0.264187
-0.00400466 -0.082062 0.223836
-0.00864394 -0.118686 0.408918
-0.001416 -0.455418 0.181822
-0.0185032 -0.235576 0.515865
-0.00710371 0.418595 0.339195
-0.0415564 0.255244 0.21223
-0.010795 -0.0732252 0.157698
-0.00623956 -0.314463 0.387946
0.0198388 0.0442584 0.207285
-0.00511106 -0.152195 0.439125
0.00258092 0.126289 0.125757
-0.00648632 0.126542 0.288316
0.00566808 0.311963 0.386408
0.00533406 -0.182238 0.522946
-0.00102408 0.201145 0.352975
-0.00154018 0.237488 0.369629
0.0192569 0.133598 0.226851
-0.017411 0.287925 0.195377
-0.0161515 0.291629 0.228044
0.0144286 -0.234444 0.507692
0.0101039 0.0766147 0.439392
-0.00757873 0.251694 0.0378192
-0.00981464 0.121699 0.434801
-0.0159265 -0.23619 0.512428
-0.00551473 0.425456 0.309936
0.0145383 -0.219034 0.508789
0.00374807 -0.192631 0.0308652
-0.025753 0.134793 0.606687
0.000273857 -0.109737 0.413536
0.00145634 -0.204676 0.37758
-0.00478899 0.210853 0.058229
-0.00375049 -0.166328 0.359549
-0.00150506 -0.0832458 0.234251
-0.000809703 -0.141169 0.449333
-0.00350555 0.121064 0.238604
-0.00483405 -0.0674316 0.163022
-0.00473578 -0.451219 0.247235
0.00275741 -0.109564 0.338034
-0.0142614 0.116852 0.421842
-0.0252657 0.163577 0.215514
-0.0109352 -0.180394 0.504628
0.00411839 0.455655 0.223743
-0.00763825 -0.43361 0.306906
-0.00701921 -0.268046 0.399681
-0.00359215 -0.102899 0.316378
-0.00945757 0.0877434 0.466684
-0.0131314 0.318641 0.195114
-0.00104206 -0.347903 0.399203
0.00462229 0.00804472 0.277194
-0.00620256 0.238538 0.036499
-0.000409765 0.25996 0.374456
0.00480975 0.152168 0.33919
0.00674367 0.113046 0.186323
0.00582112 -0.147394 0.171886
-0.00433684 -0.0718171 0.269352
-0.00505208 0.0744216 0.499316
0.0239809 -0.208389 0.453477
-0.00407134 -0.101216 0.402715
-0.0466545 0.271175 0.228945
-0.0204508 -0.1953 0.448443
0.0054999 0.117099 0.266264
0.00732745 0.468878 0.247576
-0.000130901 0.35789 0.38236
-0.00131262 -0.271067 0.187308
-0.00848254 -0.0475296 0.512042
0.00539723 -0.2781 0.0751107
-0.0071684 0.0756357 0.476588
0.032199 0.0390651 0.163251
0.0331004 0.032064 0.193325
0.0115501 -0.0778724 0.250983
-0.00129716 0.110518 0.167386
0.0104181 -0.302682 0.403163
0.000318885 0.28848 0.224524
0.00922571 0.423215 0.332735
-0.00551268 -0.466343 0.169201
0.00158855 -0.256898 0.404058
-0.00199511 -0.41878 0.316248
0.0725504 -0.160854 0.608539
0.0615035 0.0231589 0.154255
0.00735802 0.199736 0.3747
0.0250893 0.172873 0.220907
0.00652814 0.11363 0.219998
-0.011294 0.0507198 0.573174
-0.00615495 0.216339 0.37422
0.0110242 -0.300876 0.401923
-0.00685216 0.351585 0.369747
-0.000878863 0.117983 0.20769
-0.00221163 0.126961 0.262427
-0.0167488 0.147087 0.594675
-0.00461965 -0.181587 0.542723
-0.0174131 -0.274 0.212405
0.000924591 -0.224625 0.406788
-0.00737626 0.11512 0.249121
0.0191925 0.0378377 0.195167
-0.00472282 -0.457721 0.210786
0.00206102 -0.182318 0.544545
-0.00761406 0.221028 0.371997
0.000544092 0.230818 0.0499233
-0.0197573 0.141117 0.231958
-0.00607464 0.0319822 0.590447
-0.00451938 0.299835 0.202494
-0.00104389 0.449907 0.25581
0.0300072 -0.207257 0.363237
0.0423696 0.0309763 0.150618
0.0134552 -0.286807 0.214465
-0.005353 -0.435981 0.112492
0.00430498 -0.389066 0.0558309
-0.00704126 -0.461003 0.196865
-0.00739743 -0.218865 0.38945
-0.0103246 -0.313166 0.245069
0.00102076 0.146072 0.116623
0.0081135 -0.211177 0.506907
-0.00471901 -0.0934261 0.268782
0.00843653 0.307959 0.137787
0.00662634 -0.155289 0.0438894
-0.00501615 -0.100822 0.289971
0.00596053 0.121001 0.145109
-0.00762936 0.11301 0.190289
0.0113134 -0.272349 0.154272
0.000680087 -0.202312 0.497559
-0.00495396 0.0811545 0.466614
0.00870556 -0.200626 0.397408
0.0114746 -0.374606 0.374203
-0.00308086 -0.221812 0.407665
-0.00640343 -0.0592832 0.335106
-0.0458085 0.291115 0.205665
0.0366436 0.238184 0.27837
0.0309942 -0.201781 0.35501
0.00227721 0.329555 0.0325828
0.00120438 -0.129727 0.328026
-0.0013765 0.360592 0.0569119
0.0308864 0.0348741 0.184441
0.0125621 0.0834082 0.572615
0.00564968 0.0206699 0.50573
-0.027445 0.183481 0.225363
0.000987417 0.0886614 0.450677
-0.00683348 -0.0982919 0.290277
-0.0104377 -0.178787 0.443227
-0.00292323 0.330254 0.0448525
-0.00352925 -0.115728 0.527279
0.010347 -0.278487 0.406552
-0.00441124 0.378145 0.371869
-0.00234 -0.0910798 0.392135
0.0312638 -0.20293 0.390054
0.0024871 -0.449725 0.153569
0.0029212 0.112776 0.161121
-0.0151977 -0.185746 0.44433
0.0113366 -0.0722659 0.223892
-0.00776584 -0.244167 0.302296
-0.00484959 -0.192765 0.315745
-0.00323983 -0.399294 0.0680425
-0.00353987 -0.417523 0.318686
0.0316057 -0.199981 0.357933
-0.00646647 -0.0735082 0.270089
-0.00116264 -0.157644 0.351814
-0.0502663 -0.255743 0.217612
0.0260938 -0.177382 0.588303
0.00666861 0.168543 0.340122
0.00151517 0.344184 0.368154
-0.00320865 -0.15525 0.0525912
0.00968484 0.0543598 0.342664
-0.00545812 0.0620574 0.426979
-0.0295504 0.212433 0.307031
0.0137988 0.09552 0.574289
-0.0453655 0.287183 0.210612
0.0436309 0.272343 0.229363
0.00988529 0.234336 0.18347
0.00146701 -0.268747 0.389747
0.0377067 0.127077 0.580432
0.0107323 0.460049 0.260924
-0.00788226 -0.347812 0.145415
0.0113722 -0.0754528 0.163793
-0.0198632 0.157547 0.3869
-0.0193342 0.141789 0.395093
0.00783789 -0.17139 0.178162
0.1372 -0.105557 0.63846
-0.108135 -0.131419 0.657155
0.00263775 0.118893 0.230035
-0.0345378 0.229156 0.208927
-0.0481583 0.283842 0.203418
-0.00187567 -0.456054 0.215302
0.0023969 -0.064533 0.231824
0.00761329 -0.00938654 0.502097
0.00652912 -0.0757979 0.216464
-0.0291298 0.142105 0.602528
-0.0465441 -0.173922 0.597758
0.00647755 0.32881 0.300912
-0.0010303 -0.298982 0.017617
-0.017718 0.0433897 0.57687
0.0427244 -0.213112 0.296466
0.00580195 -0.177402 0.482723
-0.0108706 -0.141718 0.359819
0.00101549 0.468744 0.257589
0.0426426 -0.235013 0.260085
0.00998114 0.0738056 0.42427
0.0107932 0.337651 0.382913
0.00474918 0.0577084 0.596694
-0.0124226 0.171292 0.34678
-0.0025561 -0.311035 0.020065
0.00107375 -0.266277 0.404074
0.0276225 0.136426 0.606216
-0.00741733 0.319439 0.0384939
-0.00253017 -0.435338 0.114599
-0.00329817 -0.246619 0.402642
-0.014432 0.0367469 0.228529
0.00880201 0.216684 0.201469
0.0446374 -0.248723 0.230363
-0.0404035 0.241121 0.267837
0.0167755 0.115931 0.225749
0.0103135 0.114549 0.444724
-0.0059821 -0.218542 0.0087273
0.00597914 0.362553 0.364586
-0.00361024 0.198652 0.0653671
-0.0568903 0.00256539 0.298225
0.00113024 0.326599 0.374148
-0.00906919 0.223588 0.162707
0.00627323 0.463044 0.180943
0.00954894 -0.0713076 0.164334
0.00676626 -0.464263 0.208761
-0.00555368 0.0942738 0.522448
-0.00475546 -0.433604 0.292194
-0.0092765 0.349331 0.254279
0.0175845 0.29721 0.19834
-0.0283366 0.206154 0.307603
0.0156094 0.0256907 0.232533
-0.0463181 0.286958 0.211472
-0.00876826 -0.259386 0.111296
0.000720491 0.191712 0.0699581
-0.0320478 -0.190972 0.401066
-0.00484082 0.0645737 0.43813
0.00643486 -0.168961 0.0328957
-0.00757094 0.167669 0.0813401
0.000164182 -0.453117 0.284926
-0.0198969 0.165637 0.360436
-0.00594181 -0.313695 0.387644
0.00201923 -0.271372 0.389023
-0.00742898 0.0877285 0.45497
0.0130053 -0.290639 0.232641
0.00279811 -0.286482 0.39062
0.00109724 -0.00012888 0.264546
0.0676717 0.0565654 0.158147
0.0399795 -0.249348 0.225157
-0.00464665 -0.39689 0.0651757
0.0384318 0.0339905 0.157016
-0.0110416 0.0602036 0.244261
0.00216649 -0.242011 0.411666
0.00142019 0.293936 0.218605
0.0108108 -0.176695 0.591367
0.0331787 -0.207223 0.338028
-0.000237176 0.261143 0.395043
-0.00594534 -0.0630721 0.220041
0.000312933 0.093055 0.467934
-0.0075887 -0.121334 0.075391
0.0168416 0.281013 0.218485
0.0156086 0.0109078 0.260787
-0.0147137 0.143927 0.401975
0.135185 -0.109736 0.636751
0.0458457 0.120258 0.585129
-0.00223319 0.298306 0.219576
-0.0454386 -0.272704 0.201441
-0.00741777 -0.196573 0.469029
-0.00978191 0.0775767 0.472311
-0.00433073 -0.203075 0.511951
-0.00782241 -0.000144973 0.499093
-0.00107794 0.442623 0.114477
0.0100056 -0.186027 0.387987
0.0210715 0.158511 0.385574
-0.0013124 0.160265 0.318633
-0.00728338 -0.0748487 0.238752
-0.000246498 -0.141366 0.369202
0.00222507 0.399038 0.066326
-0.00182663 -0.121021 0.085838
0.0100549 0.369198 0.37141
0.0111712 -0.0779515 0.255835
0.00640903 -0.193479 0.506891
-0.00494696 -0.457017 0.183477
-0.00550044 -0.124365 0.407968
0.000794695 -0.265756 0.218867
0.0100004 -0.165832 0.576274
-0.00215963 0.232655 0.0487745
-0.0310397 0.00857765 0.298646
0.00142132 -0.261078 0.20177
-0.00201913 0.0755309 0.485479
0.00387481 -0.116676 0.512448
-0.0120178 -0.352458 0.385996
0.00364245 0.173179 0.349062
-0.00233625 -0.40784 0.0752178
0.000450553 0.315199 0.39435
0.00668219 -0.453895 0.140148
0.0104049 -0.0742571 0.157705
0.0122381 -0.226254 0.529297
-0.000886567 0.235453 0.36868
0.0165862 -0.256803 0.183238
0.0158457 0.288032 0.229332
-0.00649658 -0.179665 0.537522
0.00379618 0.385947 0.0700485
0.00313886 0.148591 0.305362
0.0633067 0.0214259 0.154358
0.0130879 0.273541 0.228554
-0.00560099 -0.137094 0.353092
0.00940201 0.447828 0.295488
-0.00865822 -0.157623 0.374268
0.0261181 0.191605 0.325077
0.00963797 -0.210957 0.522639
-0.0162089 0.350527 0.269068
0.0031722 0.453701 0.176766
0.00810816 0.090138 0.451891
0.00755735 0.0380583 0.262084
-0.0602947 0.0220153 0.29941
0.0174351 0.0299315 0.227164
0.0174331 0.0212074 0.22052
0.00995141 -0.0702488 0.238063
0.00800276 0.109398 0.577148
-0.0230496 -0.190434 0.430445
0.00167 -0.0478742 0.342997
0.00878451 0.329488 0.151006
0.000290474 -0.185685 0.577799
-0.00163869 -0.191324 0.0440453
-0.0108329 0.408281 0.322452
-0.0181011 0.136392 0.404098
-0.0053245 -0.279626 0.214959
-0.00653747 -0.201795 0.398523
0.145823 -0.0951454 0.639705
-0.00492043 -0.115746 0.311068
0.0113137 -0.113796 0.32685
-0.00305191 -0.352203 0.0335341
0.0053394 0.337323 0.0367446
0.00899511 0.0651877 0.239931
-0.00984477 0.44545 0.299194
0.00557041 -0.0652455 0.230105
-0.0117554 -0.350105 0.387391
0.00437851 0.344763 0.379858
0.039971 -0.245859 0.229039
-0.00668269 -0.430242 0.305067
0.0133778 -0.230806 0.524774
-0.00854932 0.0770175 0.494018
-0.000967403 0.0108311 0.226517
-0.00277367 0.399964 0.336343
0.00644705 0.367315 0.0546925
-0.0048754 0.0438121 0.274289
-0.0111605 -0.174683 0.381205
0.00859351 0.208307 0.228693
0.0101689 -0.211163 0.397936
-0.00482258 -0.367593 0.298018
-0.00807058 0.405547 0.351715
0.130847 -0.109593 0.639886
0.000624462 0.062825 0.485692
-0.00998915 0.118714 0.419409
0.00481259 0.149937 0.336946
-0.00378889 -0.402599 0.0693289
-0.00363514 0.206568 0.357437
-0.00693722 -0.239351 0.397737
0.0157275 0.0570155 0.573893
-0.0057832 -0.0993838 0.322503
0.00517037 -0.173706 0.456602
0.00972289 0.0919572 0.493856
-0.101572 -0.124079 0.653144
-0.00592748 0.0115734 0.22374
0.00142373 0.280596 0.205752
-0.0442112 0.286347 0.206537
-0.0253499 0.152566 0.231022
0.00171089 0.342309 0.387872
0.000285966 -0.115988 0.0933132
-0.00722316 -0.44769 0.284842
0.00953516 -0.0684162 0.22386
0.00383623 -0.253269 0.198861
0.00427795 -0.180256 0.576807
-0.0447955 0.292012 0.200832
0.00452605 0.250455 0.0328977
0.00374103 -0.142936 0.062846
-0.0111561 0.0586319 0.235612
0.0373655 -0.271791 0.206689
-0.0074544 -0.274945 0.00892332
-0.0271029 -0.179631 0.45754
-0.00439465 -0.0868452 0.303944
-0.00187198 0.175493 0.0661825
-0.00728257 -0.368583 0.246478
0.0176522 -0.222075 0.52134
0.0446438 -0.250385 0.227538
0.00169078 0.431035 0.173323
0.0750578 -0.145329 0.634192
-0.00941351 0.0318315 0.21772
-0.001388 0.210694 0.359804
0.00328896 -0.0515097 0.346131
-0.00252441 0.133753 0.318234
0.047207 0.0385528 0.155847
0.00450038 0.425044 0.333967
0.0442794 -0.260153 0.208749
0.00040824 -0.144164 0.331382
-0.00295412 -0.370146 0.0449357
-0.00122576 -0.245934 0.388446
0.0111941 -0.30535 0.400792
-0.00934543 0.0935588 0.451053
0.0121631 -0.305571 0.211611
0.00331057 -0.25804 0.350028
0.00709032 -0.169113 0.212421
-0.01038 0.389725 0.359241
-0.00445019 -0.179485 0.556825
0.0115168 -0.18022 0.380771
0.00764486 -0.0413531 0.510947
-0.00684015 0.0762567 0.409248
-0.0105297 -0.346112 0.392386
-0.00228502 -0.100921 0.117088
0.012568 0.0887746 0.234498
0.00154188 0.254586 0.39394
-0.00678756 0.0343441 0.247621
-0.00175855 -0.13841 0.356678
-0.0164976 -0.220421 0.514206
0.00118477 -0.231282 0.400611
-0.00416388 -0.185171 0.479644
0.00911783 -0.175567 0.384295
0.0135944 0.141034 0.409087
-0.0191653 0.0939688 0.596944
0.0170437 0.0541849 0.249701
-0.00317791 0.0886235 0.468114
0.00295659 -0.137827 0.0684486
-0.005511 -0.169589 0.526884
-0.00757232 0.323706 0.381058
0.0384587 -0.214772 0.296589
-0.00585729 -0.466222 0.234524
0.0249066 -0.191159 0.402652
0.00562188 -0.213524 0.528083
0.00972284 -0.0681677 0.180476
0.0346379 -0.217543 0.329972
-0.00837705 -0.102505 0.515104
-0.0154129 -0.284304 0.207113
0.0027754 -0.398799 0.339669
-0.0311302 0.143909 0.596809
-0.0397005 0.232964 0.21614
0.00466269 -0.445593 0.108612
-0.0128955 0.034936 0.575145
-0.00196772 -0.227327 0.494707
-0.0064269 -0.076574 0.354782
-0.0110347 0.134837 0.309843
0.00566453 0.166019 0.331536
-0.00164426 -0.437134 0.121369
0.0117718 0.289015 0.195712
0.0155154 0.056065 0.590589
-8.27452e-05 -0.21965 0.405852
0.015608 0.0578248 0.230106
0.00638337 -0.181043 0.46259
0.00427146 -0.204615 0.0253022
-0.0158174 0.0144135 0.229105
-0.00558189 0.0787768 0.485129
0.00399868 0.465226 0.242352
-0.015309 0.113386 0.232873
0.00490504 -0.0795445 0.28392
-0.00457948 -0.244141 0.389741
-0.00831709 -0.107254 0.394249
-0.00315429 0.143564 0.296488
0.00939514 0.048106 0.314687
0.0170728 0.0634587 0.260271
0.00169254 -0.0716713 0.270381
0.0030403 0.169835 0.355998
-0.00116452 -0.288071 0.384674
-0.0161492 -0.252889 0.189547
0.0062444 -0.460422 0.24861
-0.00339226 -0.470309 0.194394
0.00791009 -0.122536 0.520397
0.00689523 0.462385 0.271334
-0.0160728 0.347695 0.261533
0.000893863 0.0334778 0.506442
0.0157213 0.0816761 0.572508
0.0100699 0.0627614 0.382754
-0.0100919 -0.274724 0.406734
0.0115231 0.160141 0.336004
-0.00738852 0.135923 0.123468
0.0108348 -0.213001 0.507538
0.00414601 0.230259 0.0498976
0.00974637 0.0660489 0.390166
-0.00738553 -0.0652092 0.190387
0.00172571 -0.373734 0.374575
0.0161036 0.00593858 0.205093
-0.00388128 -0.360399 0.365479
