-0.00335262 0.45292 0.246569
-0.00331384 -0.454191 0.123403
0.00507593 -0.39193 0.232494
-0.0139403 0.375111 0.287266
-0.00562064 0.109193 0.236649
-0.00107937 0.0503427 0.597303
0.00518278 -0.167542 0.58012
0.00768031 -0.176589 0.247326
0.00266659 -0.159261 0.355734
-0.0103502 0.0734981 0.450325
-0.00979293 0.42095 0.333267
0.00475053 0.398302 0.339638
0.000322435 -0.467545 0.239181
0.0157521 0.0581158 0.574603
0.0240692 0.102259 0.598948
0.00297385 -0.230075 0.409494
-0.0068401 -0.38548 0.362414
0.0392876 0.237523 0.206725
-0.0178255 0.0464425 0.576705
-0.00319397 0.105713 0.205477
0.00730823 -0.122635 0.420046
-0.00648345 -0.132569 0.516134
0.0120797 -0.314886 0.213363
0.00440501 0.0888034 0.572957
-0.0161476 0.295102 0.192386
0.0180371 0.115462 0.251128
0.00727265 -0.0258004 0.310289
-0.0124151 -0.270167 0.402305
-0.0175865 -0.173951 0.454078
0.0143232 -0.229781 0.523088
0.00851941 0.162593 0.347594
0.00658991 -0.388894 0.0495239
0.00928 -0.177968 0.506349
-0.012775 0.326344 0.382523
0.00639739 0.153519 0.31906
0.0325504 0.239495 0.276452
-0.0180431 0.0933938 0.597023
-0.00765461 0.143579 0.310655
-0.00755636 -0.160788 0.0378577
0.0219744 0.29738 0.218892
0.0183594 0.228142 0.189668
0.0109257 0.381847 0.362161
-0.0113222 0.297494 0.390388
-0.00746718 0.126339 0.275991
0.00394554 0.0516546 0.488448
-0.00401807 0.207241 0.0468195
0.00815023 -0.274581 0.114442
-0.0110881 -0.211793 0.516619
-0.00812144 -0.281216 0.19303
0.00380586 0.250904 0.33771
-0.00873322 0.242338 0.388192
-0.0266362 -0.189894 0.406038
-0.00844784 -0.064357 0.346041
-0.00764558 -0.199371 0.135624
-0.00346579 0.238963 0.0466476
0.00553985 0.0830951 0.508766
-0.0147713 0.126853 0.406048
0.0182201 0.116203 0.187804
0.0134983 0.27259 0.229003
-0.00839487 -0.102728 0.397124
0.00549986 -0.179415 0.294997
0.0391777 0.0491333 0.160204
0.00906661 -0.290235 0.275631
-0.00535097 -0.282326 0.333313
-0.00291722 -0.201596 0.06509
-0.0100845 -0.0669611 0.196228
0.00415248 0.279161 0.0854389
-0.0120937 -0.31963 0.397176
-0.00237959 -0.260539 0.0152196
-0.0161844 -0.208923 0.448
-0.00645426 -0.459767 0.20959
0.0182444 0.1881 0.18753
-0.0238825 0.149164 0.586357
-0.00265394 -0.215229 0.00736648
0.00152575 0.128443 0.151885
-0.00304079 0.14879 0.169286
0.0073328 -0.261225 0.308657
0.0125629 -0.297091 0.172449
-0.0120898 -0.072468 0.22902
0.00465602 0.393844 0.0755357
-0.0286794 0.187282 0.344134
0.0120628 0.284241 0.16897
0.045176 -0.238945 0.251501
-0.00899589 -0.340399 0.150483
0.0188022 0.0583746 0.188178
0.0100094 0.195189 0.367223
0.00525442 -0.191993 0.386757
0.00245899 -0.159693 0.314757
0.00779994 -0.196451 0.446025
0.00797822 0.028532 0.215793
-0.00682344 -0.161005 0.368992
0.0118271 -0.35327 0.383923
0.000749427 0.427987 0.30097
-0.00247496 -0.0441952 0.50112
-0.000703443 -0.123725 0.308002
-0.00471423 0.389958 0.283664
-0.00603187 0.182642 0.216168
-0.00993998 -0.215871 0.527816
0.00542816 0.458777 0.222216
0.00617779 0.245153 0.115099
-0.015815 0.0357327 0.231567
-0.00670489 0.166907 0.341321
-0.00804715 -0.154884 0.447325
-0.0413796 0.126719 0.579692
-0.00594251 0.297157 0.0297674
0.00643249 -0.0906171 0.520626
0.0568437 -0.16991 0.595038
-0.00834744 0.279521 0.289026
-0.0102022 0.0393036 0.314637
-0.00763579 0.461596 0.183435
-0.00709043 0.178162 0.0752917
-0.0113972 0.263136 0.172951
-0.00756644 -0.176064 0.1604
-0.0127921 -0.273211 0.239665
-0.0174138 -0.267079 0.210631
0.112189 -0.13357 0.656667
-0.00812893 -0.197236 0.395265
-0.00340534 -0.135644 0.143035
-0.00762893 0.265504 0.383863
0.0120469 0.412213 0.321733
-0.0130458 0.293669 0.234796
-0.00419497 -0.373076 0.0463963
0.0167577 0.00956297 0.232623
0.00282716 0.144266 0.119432
0.00603452 0.285552 0.22431
-0.00146982 -0.140209 0.0776306
-0.0130435 -0.297047 0.229674
0.00212461 0.199384 0.32976
-0.0127007 -0.140152 0.352321
0.00925043 -0.333365 0.245241
-0.00775015 -0.0553451 0.3333
0.0268971 0.209378 0.312954
0.00916218 0.345971 0.170167
0.00297133 0.342191 0.331668
0.00656868 -0.0891931 0.128999
0.0125926 -0.233681 0.5051
-0.000100452 0.040443 0.256666
0.0389981 0.272628 0.232024
-0.0256771 0.011933 0.292866
0.0101679 -0.203919 0.233713
-0.00753174 0.26629 0.122436
0.000736866 -0.333501 0.378545
0.0113734 0.246879 0.384241
0.00791513 0.376554 0.218393
0.00165446 0.0397604 0.34169
0.0136193 0.0955005 0.232086
0.00509185 -0.137559 0.216395
0.0279949 0.192317 0.21269
-0.00573606 0.336623 0.107589
0.00608457 -0.160478 0.175462
0.0204731 0.142413 0.227982
-0.00485712 -0.168892 0.105637
0.00721747 -0.297924 0.301948
-0.00353486 0.253734 0.0738874
0.00350892 -0.406545 0.135145
0.00372432 0.149914 0.309888
0.0096143 0.0976806 0.467423
-0.00377571 0.37153 0.355187
0.0259552 -0.190136 0.404024
-0.00118259 0.0622863 0.432805
0.0745987 -0.146082 0.633441
-0.00619227 -0.352307 0.283422
-0.00725837 0.269309 0.0326127
-0.00741638 -0.373229 0.210012
-0.028115 0.161222 0.217228
0.0066256 -0.0991539 0.382724
0.00287009 -0.287164 0.412823
-0.00178453 0.34052 0.369652
-0.0603999 -0.159662 0.604021
-0.0044354 -0.34342 0.0912555
0.00665484 -0.205193 0.115363
0.00126837 -0.333368 0.0112087
-0.00990134 -0.275646 0.269207
-0.062681 0.0244847 0.299881
-0.0107059 -0.0852118 0.285773
0.00381967 -0.102584 0.403736
-0.00509044 0.234979 0.316059
-0.12454 -0.105684 0.642937
-0.00277194 -0.468447 0.173088
0.0108477 -0.210114 0.207939
-0.0094039 0.338331 0.160715
0.00638415 -0.37498 0.363176
-0.0438795 0.279977 0.220541
-0.00291108 -0.289577 0.0161635
-0.00805267 0.296808 0.119677
0.127855 -0.103359 0.645126
-0.0497591 -0.217541 0.283176
0.0216335 0.143473 0.601681
-0.00880863 0.00173883 0.502735
0.0647974 0.0348864 0.146791
0.00477563 -0.303916 0.325464
0.0113165 -0.269216 0.40334
0.00367755 0.463414 0.168804
0.00459999 -0.387353 0.350311
0.00201013 -0.0913212 0.262172
0.01105 -0.235055 0.154988
0.00668367 -0.422682 0.0816398
0.0165874 0.128654 0.406163
-0.00343482 0.466854 0.236954
0.00131197 -0.109968 0.510487
-0.00478133 -0.393382 0.166197
-0.00983561 -0.0772759 0.269416
-0.0072917 0.226003 0.371304
0.0798505 0.0487923 0.160115
0.0214337 0.180781 0.350152
-0.00349765 -0.445328 0.264564
-0.00790047 -0.164762 0.469435
-0.00032772 -0.241913 0.535707
0.00504643 0.280474 0.380358
-0.00455887 -0.414104 0.320643
-0.00807468 -0.254433 0.210332
0.00725703 0.14929 0.591058
0.00971081 0.305215 0.145969
-0.000549539 0.0529235 0.306584
0.000927851 0.358193 0.0416566
-0.00760119 -0.259115 0.105721
-0.0439926 -0.219154 0.32526
-0.0180273 0.11896 0.237172
0.00840862 -0.326444 0.142531
0.0158408 -0.272029 0.183399
-0.00706576 0.387742 0.202384
-0.00768072 -0.35943 0.242086
-0.0144932 0.0244827 0.240568
0.00650391 -0.134434 0.0621845
-0.00159131 0.431286 0.120483
-0.00132196 0.446263 0.268182
-0.0310539 -0.27161 0.206848
0.0195937 0.0339291 0.233194
-0.00689462 -0.172061 0.573111
0.00585953 -0.0709736 0.190233
0.0119724 -0.169428 0.590879
-0.00762915 -0.130472 0.431232
0.128576 -0.12294 0.650641
0.0171088 -0.260291 0.223863
0.0201271 0.0249834 0.242831
0.00641179 0.224987 0.0434866
-0.0100252 -0.207402 0.174426
-0.110349 -0.125604 0.658018
-0.0177537 0.0595505 0.591107
-0.00761606 -0.187447 0.260782
-0.00506565 0.220772 0.109542
0.00985568 -0.174469 0.537328
0.00869855 0.266734 0.280243
0.0103833 0.349575 0.215496
-0.0174089 0.274264 0.193951
0.000357172 0.051652 0.390097
-0.0332809 0.0972432 0.595291
-0.00399554 -0.186301 0.478248
-0.000435113 0.0209119 0.508415
0.0245999 -0.182623 0.439191
-0.0143201 0.140479 0.409876
5.29306e-05 -0.261759 0.000382592
-0.00512951 -0.196649 0.504489
0.00310173 0.120943 0.235839
-0.0152523 0.346369 0.261499
0.00672777 -0.113422 0.082274
-0.0073628 -0.107608 0.308554
-0.00944204 0.340403 0.24782
-0.0125799 -0.371168 0.374334
-0.00623813 0.19089 0.181312
0.00787077 -0.159876 0.52625
0.00704008 0.205318 0.26477
0.02028 0.00814335 0.208932
-0.00454717 0.397733 0.160485
-0.00129882 -0.176193 0.442817
0.00252339 -0.431421 0.106539
0.00707488 0.223955 0.142909
-0.0061545 -0.0652799 0.169708
-0.00729641 -0.184345 0.530311
0.0453952 0.11501 0.590021
-0.00874299 0.0804051 0.489254
0.00585754 0.41728 0.0957679
0.00340651 0.319843 0.0429212
0.0202761 0.0500208 0.24995
-0.0345063 -0.214138 0.360369
0.0162589 0.0351073 0.210401
0.00524594 0.29492 0.321763
0.0072201 0.0653274 0.369652
-0.0192872 0.0795367 0.58617
0.00177362 -0.177851 0.365351
0.00998672 -0.191168 0.467294
0.0473746 0.292819 0.19919
0.00112514 0.0966789 0.598587
-0.0174145 0.300484 0.208983
-0.000381626 -0.0813826 0.189803
-0.0142121 0.0109578 0.227217
-0.00672328 0.103211 0.563459
0.00491913 -0.070549 0.22541
-0.00669107 0.202846 0.147982
-0.0127178 0.404397 0.342425
0.00817918 0.130781 0.309198
-0.00241047 -0.0140844 0.304658
-0.00760867 -0.00483064 0.27563
-0.00706631 -0.102237 0.0963105
0.00544226 0.173197 0.359655
-0.0145168 -0.228823 0.507554
0.0405403 -0.224278 0.294133
0.0442804 -0.262044 0.213693
0.0114728 -0.139696 0.35355
0.0055685 -0.467076 0.218664
0.00346349 0.373117 0.374751
0.00714341 0.374349 0.187227
-0.00473502 0.205644 0.0599805
-0.0105643 0.281974 0.265899
0.00762518 0.0887004 0.492405
-0.0188953 0.10038 0.574418
0.00459629 -0.429549 0.302827
-0.000786916 -0.117533 0.528166
-0.02245 -0.184229 0.434085
0.00130417 -0.234817 0.0178815
-0.0291155 0.191963 0.211731
-0.00790574 -0.266128 0.202164
0.00911985 0.293921 0.393712
-0.00648222 -0.454613 0.246823
-0.00699105 0.312119 0.307979
-0.00665378 0.371879 0.059143
0.00518795 -0.0248858 0.500347
-0.00388767 -0.193968 0.374917
0.00593987 -0.00750375 0.292945
-0.0138885 0.0830134 0.226253
-0.0458365 0.0129787 0.297659
0.0117919 -0.0779943 0.159006
-0.00134082 0.447634 0.197628
0.00524416 0.158008 0.0963544
-0.00226245 0.406099 0.071714
0.0171088 0.267922 0.204475
-0.00748461 -0.14803 0.0509315
-0.142279 -0.101125 0.652087
-0.00613147 -0.314028 0.0166056
-0.0126298 0.4257 0.320185
-0.0414599 0.254471 0.256417
-0.0122713 0.434311 0.310194
-0.0280267 -0.168633 0.595026
-0.00443202 0.308627 0.37652
0.0175006 0.342614 0.256407
0.0214298 0.155347 0.378297
-3.39523e-05 0.120953 0.180206
0.0153289 0.0578565 0.5914
0.00586355 0.167521 0.333607
-0.00507037 0.107694 0.221479
-0.0105548 0.460929 0.26082
0.00304568 0.0228625 0.272315
0.00813687 0.0416137 0.279469
0.0230906 0.129662 0.23413
0.0107269 -0.0753649 0.250641
-0.00669383 -0.0812396 0.360598
0.00965329 0.440993 0.306649
0.00375309 0.425928 0.335657
0.00090001 0.0726514 0.386407
-0.00405532 -0.305847 0.385751
0.00929794 0.0736046 0.416
0.00752984 -0.136864 0.42866
0.0102471 0.0815475 0.463678
-0.0742915 -0.146294 0.635724
0.0110014 -0.311655 0.158321
-0.00201209 -0.203993 0.0263357
0.0067521 0.355824 0.371499
-0.00715692 0.0493476 0.371176
0.00643188 -0.162953 0.0403111
-0.00536224 -0.157622 0.152594
0.00746412 -0.14513 0.521109
0.00618541 -0.106143 0.314111
-0.00713418 0.32788 0.12697
0.0171789 0.0502056 0.262785
0.00735897 0.10824 0.576853
0.0299364 0.0404259 0.150185
-0.00821824 0.0917341 0.470991
0.000108292 -0.0898599 0.150075
-0.00122314 -0.250437 0.0227924
-0.000597449 -0.118926 0.3992
0.0102109 -0.157199 0.371071
0.0013609 -0.355212 0.0351396
-0.0306628 -0.206601 0.409854
0.0402999 0.254957 0.203357
0.0026535 -0.440631 0.124917
0.00561098 -0.411879 0.064326
-0.00844079 -0.173805 0.515116
-0.0100016 -0.230864 0.403744
0.00518421 0.17974 0.236353
0.0158334 0.0841568 0.594484
-0.0235646 0.127539 0.581076
0.027261 0.116789 0.578462
-0.0116697 -0.323183 0.186611
0.00594609 -0.172745 0.48053
-0.00400482 -0.35533 0.393604
0.0102714 0.337937 0.233473
-0.00521051 0.407174 0.200567
0.00225174 -0.232559 0.385715
-0.00640748 0.381552 0.0649048
-0.00752948 0.156442 0.325185
0.00823406 0.0617299 0.247026
-0.00320767 -0.0641812 0.239103
-0.0482851 -0.261723 0.19951
0.00654372 0.125699 0.280431
-0.0455942 -0.243413 0.233352
0.00604815 -0.128808 0.333347
0.0219499 0.121582 0.603568
-0.0125296 -0.073291 0.185278
-0.0127438 0.276576 0.387043
0.0112442 0.29133 0.258878
-0.00152111 0.303816 0.050517
0.00225582 0.371617 0.0485525
0.141275 -0.109073 0.637206
-0.00685676 0.0596398 0.229666
0.0115867 0.20991 0.370785
-0.00742084 -0.0896296 0.129883
0.00507057 -0.205951 0.461708
-0.000723294 -0.35541 0.0196051
0.00320983 -0.464298 0.155232
0.0138316 0.294532 0.185197
0.000700384 0.462235 0.273047
0.000385803 0.0491578 0.573331
-0.0302097 0.133236 0.606237
0.0183781 0.0382402 0.190952
-0.010478 -0.208101 0.219241
-0.00676266 -0.459508 0.185526
0.00516971 0.173877 0.0702038
0.00670357 -0.453305 0.137247
0.00906622 -0.0762547 0.266148
0.00415051 0.444822 0.146711
0.0117925 -0.17175 0.37532
0.00138324 0.273239 0.212184
0.0165557 0.287463 0.204489
0.0202774 0.014286 0.256939
0.00937681 -0.268482 0.205945
-0.00101209 0.299867 0.217409
0.0139906 -0.28408 0.198572
-0.0118183 0.372297 0.36779
0.00679651 -0.424327 0.321691
0.00495257 0.353657 0.117877
0.00360282 0.171788 0.152391
0.0134343 -0.249399 0.189504
0.000175562 -0.182423 0.457982
-0.00883922 -0.203098 0.250399
0.000330917 -0.375085 0.348518
0.000461911 -0.229913 0.515723
-0.0115135 -0.262836 0.149122
0.000650745 0.309253 0.396776
-0.00132906 -0.399295 0.0688733
-0.000934852 0.343065 0.0496257
-0.00217294 0.32142 0.393191
-0.0173968 -0.265797 0.17982
-0.0913057 -0.134356 0.658946
-0.067589 0.00250493 0.298507
-0.00694453 0.104974 0.440088
0.00549878 0.0603229 0.343989
-0.00588006 -0.150169 0.194417
-0.00315937 0.0399136 0.243942
0.0731625 -0.16107 0.627053
0.0405753 0.280983 0.218412
0.00411505 -0.0721948 0.520307
-0.00128499 0.196111 0.0741066
-0.0116896 -0.25751 0.249562
-0.00035154 0.114728 0.151123
0.00250204 -0.22904 0.53392
0.00686717 -0.0389687 0.51258
0.0272062 0.18355 0.225356
0.0066225 0.026144 0.253703
0.00651761 -0.358956 0.373199
0.0318429 0.219289 0.217582
-0.00194014 0.13456 0.111176
-0.00440458 -0.367128 0.297697
0.0171091 -0.275257 0.213059
0.00998179 0.229036 0.223395
0.00225497 -0.0684316 0.504827
-0.00770166 0.441136 0.123103
-0.00268659 0.386683 0.346322
0.0201641 -0.191508 0.454295
-0.0399234 0.233245 0.21191
0.0164953 0.0745906 0.573107
-0.00386291 -0.174967 0.58823
0.00194113 0.204032 0.356505
0.00279337 -0.39421 0.287042
-0.00385763 0.101078 0.524811
-0.0383869 -0.217064 0.341163
-0.0105055 -0.325683 0.161107
0.00821306 -0.348047 0.255961
0.000379951 0.453342 0.293982
-0.00861349 0.343724 0.384288
-0.00682997 -0.0123055 0.499379
0.0223053 -0.189172 0.423189
0.0017343 -0.00666198 0.512064
0.0122558 -0.29044 0.231751
-0.0110257 -0.188943 0.587821
0.0059015 -0.09827 0.303681
-0.00754609 0.355721 0.371165
0.000701045 -0.179294 0.0369004
0.0072934 -0.254628 0.210692
-0.0221246 0.124519 0.221945
0.0182331 0.145765 0.243628
0.0156107 -0.0083557 0.237315
0.00361526 -0.061359 0.206096
-0.00602304 -0.28082 0.315475
0.02181 0.310632 0.229991
-0.0072162 -0.111294 0.0827892
-0.00142525 -0.269805 0.388614
0.00569343 -0.200632 0.496674
-0.0100167 0.0352541 0.300244
0.00926744 0.219546 0.202393
0.00532847 -0.0462446 0.320155
0.00755282 0.0380567 0.597545
0.0354241 -0.21454 0.357931
0.000433011 -0.303648 0.409356
-0.00770436 -0.113565 0.338282
-0.00244435 -0.167621 0.532648
0.0838006 0.0361539 0.152848
0.00447479 -0.404191 0.335047
0.00444189 0.342741 0.388711
0.00650708 0.113448 0.215283
0.00665096 0.125815 0.14144
0.00806749 -0.177521 0.179938
-0.00761931 0.462882 0.217888
0.00123429 -0.456613 0.197903
0.0508177 0.0342082 0.157056
-0.00243741 0.399356 0.352085
0.00549859 0.262496 0.379329
-0.0132771 0.0336668 0.583869
-0.0174153 -0.24628 0.199518
0.00264846 0.142209 0.194165
-0.00611121 -0.423154 0.0904531
-0.00643979 0.143891 0.585288
-0.007389 -0.131613 0.338593
-0.016913 0.136826 0.393576
0.00247764 -0.102226 0.113175
0.00409681 0.0367402 0.228161
-0.0276649 -0.176612 0.444906
0.00677238 -0.237974 0.395019
0.0042239 -0.322781 0.0222134
-0.00820032 -0.0283388 0.504052
0.00451897 0.275105 0.0292135
-0.0225299 0.167195 0.37391
0.005199 -0.175797 0.567809
-0.0405478 0.265867 0.205419
-0.00620489 -0.0697414 0.213497
-0.00387756 -0.0961897 0.319863
0.00684914 0.0511563 0.376494
0.106635 -0.120265 0.652255
-0.00353502 -0.141125 0.530907
0.00634018 -0.152861 0.457189
0.00310511 -0.187101 0.541366
-0.00140333 -0.27059 0.413683
0.0140202 0.288919 0.232256
-0.0112045 0.275406 0.158945
-0.00470212 0.165345 0.218162
0.0322887 -0.195938 0.381419
0.00417455 -0.27292 0.0143637
-0.00881817 0.279258 0.221825
-0.0107974 -0.307177 0.403095
0.00172989 -0.127138 0.356653
-0.00506209 0.0875586 0.455182
0.00419335 0.0332509 0.312021
-0.00303682 -0.0348238 0.327926
0.0460909 0.124456 0.579976
0.0060098 -0.177564 0.390105
0.0116666 0.0830396 0.236687
0.0140077 0.377582 0.294405
0.00766259 -0.0624996 0.345137
-0.00720579 -0.441617 0.297538
0.013191 0.11141 0.431298
0.0110594 -0.25146 0.403577
0.0592769 0.0197015 0.148962
-0.00357609 0.418547 0.343489
-0.00772602 -0.136085 0.0577587
-0.012527 -0.219814 0.39542
-0.0343722 0.00545987 0.304225
0.00600444 0.441398 0.119658
-0.139931 -0.108599 0.641053
0.0445904 -0.163584 0.592706
-0.00762651 -0.338655 0.399273
0.00575186 -0.321611 0.404515
-0.0132315 0.279352 0.176826
-0.0161456 -0.290125 0.200273
0.00161817 0.395517 0.321567
0.0977616 -0.13046 0.653496
-0.00758075 0.194332 0.358115
0.0100083 -0.239979 0.52325
-0.0189127 -0.228294 0.522879
0.00454803 -0.447006 0.111453
-0.0174164 -0.258958 0.223412
-0.00561869 0.28505 0.0383679
0.0231941 -0.202569 0.417061
-0.00858901 0.0839287 0.504218
0.00646339 -0.183715 0.577437
-0.00674204 0.11977 0.248915
0.0678936 -0.168071 0.606063
-0.00875715 0.0073375 0.268981
-0.0122065 0.306113 0.171804
-0.00207001 0.051919 0.503769
-0.00107149 -0.427912 0.273228
0.0108117 0.395236 0.353911
-0.0342928 0.212002 0.303102
0.0195547 0.0600033 0.234001
0.00290428 -0.0794358 0.289714
6.87796e-05 -0.202182 0.514041
0.00303185 0.381606 0.307159
-0.0503891 -0.0112165 0.293794
-0.00474971 0.254626 0.0432815
0.0183639 0.166318 0.239938
0.0218028 0.148273 0.588666
-0.0480445 -0.27136 0.211851
0.0297049 0.0339421 0.187193
-0.0125271 -0.0965957 0.298724
0.00355444 0.137684 0.287225
-0.00250578 -0.153373 0.377653
-0.0288518 -0.195579 0.39138
0.0050835 0.297376 0.380613
-0.0300763 0.203162 0.22121
0.000924561 0.127055 0.262578
0.00912675 0.0975105 0.510185
-9.99639e-05 -0.218656 0.398498
0.00642723 -0.193267 0.507272
0.00142362 -0.281083 0.204742
0.00886256 0.0147872 0.218641
0.0060537 -0.190153 0.283245
0.0402341 -0.246122 0.240451
-0.00303153 -0.126383 0.0792366
-0.00763604 0.224324 0.0454651
0.0378568 0.107908 0.599661
0.00532645 -0.142508 0.345894
0.00649808 -0.119891 0.325842
-0.0466951 0.109767 0.581805
-0.0123919 -0.288579 0.243515
-0.122161 -0.126119 0.64903
-0.0123025 -0.223259 0.215034
0.00302968 0.0672294 0.48576
0.0165585 0.2794 0.217285
-0.0116643 -0.247888 0.403077
0.00284402 0.405023 0.0861026
-0.0044436 0.167441 0.0903432
0.00920491 0.114991 0.602281
-0.104451 -0.133898 0.64946
0.00325439 -0.0866231 0.245471
-0.02011 -0.193565 0.445568
0.0143695 -0.209698 0.44839
0.00936501 0.42942 0.323581
0.0353728 -0.207199 0.324144
-0.00597488 0.300088 0.202834
0.0056509 -0.452847 0.254544
0.00632001 -0.0244339 0.297212
0.0117964 0.299793 0.167863
0.0107774 0.458015 0.264966
0.0188821 0.217973 0.231466
4.32716e-07 -0.102018 0.525936
-0.00971987 -0.182703 0.469599
-0.0017691 -0.262858 0.404146
0.00673965 -0.123392 0.0716697
0.00239492 0.456607 0.207979
-0.0053368 -0.0789841 0.207456
-0.0408734 -0.20536 0.332454
0.0180495 -0.00569577 0.205314
-0.0101885 0.313188 0.389818
-0.012466 -0.110576 0.320808
-0.0148008 0.119655 0.419568
-0.0118342 -0.17165 0.377409
-0.0207372 0.324267 0.243089
-0.0233729 0.0162129 0.248942
-0.00626546 -0.347783 0.376686
0.0064694 -0.44988 0.278694
-0.0108015 0.236997 0.194396
-0.0470351 0.130915 0.600705
-0.0054485 -0.447273 0.136984
0.0335734 0.244155 0.259547
-0.063011 -0.011 0.293445
-0.00239379 0.418719 0.316476
-0.0079615 -0.184488 0.390295
0.0381221 0.0240037 0.154912
0.00834255 0.0781413 0.477386
-0.00737576 0.137817 0.322977
0.00142368 -0.272506 0.19404
-0.0328993 -0.00176366 0.29423
0.00663171 0.177742 0.345209
-0.00759395 -0.331742 0.386889
0.00671998 -0.400515 0.347888
0.032122 -0.201009 0.353121
0.139225 -0.0947465 0.641324
-0.00406141 -0.188354 0.322371
0.00649191 -0.442052 0.288359
0.0175692 0.0495726 0.20347
0.0102939 0.276441 0.390699
0.00747331 0.262551 0.294692
0.0106307 0.15446 0.333583
0.0122951 -0.247477 0.173008
-0.0584154 -0.171728 0.599019
-0.00411366 -0.367648 0.389712
-0.00765437 -0.00630113 0.290066
0.00357315 -0.318217 0.383724
-0.00371501 -0.192191 0.0307911
0.00652322 -0.252659 0.00872203
-0.00204043 0.0357544 0.32591
-0.00233808 -0.393833 0.0440173
-0.0123471 0.441985 0.297462
0.0150921 0.106863 0.239369
-0.00332513 -0.0828772 0.227507
-0.0107573 0.0873477 0.242634
-0.00160135 0.10742 0.183651
-0.00177326 0.252247 0.39364
0.0033637 -0.155525 0.0528104
0.00862607 0.219853 0.255031
-0.0101619 0.0926626 0.491909
-0.00325658 0.191864 0.301366
0.00728548 0.0162961 0.262473
-0.00370209 -0.450875 0.288604
0.040583 -0.231937 0.263085
-0.0099966 0.17265 0.352786
-0.00487562 0.246443 0.374854
-0.0107882 0.0302213 0.272354
-0.0123169 -0.0752183 0.167472
0.0081196 -0.112971 0.336996
-0.0282931 -0.204458 0.447293
-0.00503325 -0.0982693 0.280615
-0.038071 -0.199942 0.360767
0.0451027 0.0569851 0.151454
0.0171321 0.173559 0.187046
0.00986441 0.301937 0.211384
-0.0240025 0.014573 0.276858
0.0163801 0.0730873 0.588371
-0.000747557 0.359848 0.361897
-0.00385225 0.0863352 0.443111
0.00649021 -0.206867 0.0189042
-0.00711226 -0.0583139 0.506335
0.00969789 -0.343703 0.394596
-0.0223861 0.179459 0.353273
-0.0347116 0.227335 0.217337
0.00459788 -0.203405 0.380441
0.0049124 0.261337 0.395674
0.0106741 -0.320246 0.177521
-0.026884 0.173732 0.214161
-0.000706318 0.43666 0.289097
-0.00611879 -0.193609 0.490818
0.00171426 -0.194226 0.399112
0.0329564 0.0981841 0.587144
0.00385405 0.0577344 0.329958
-0.00538991 -0.385701 0.0531668
0.00590048 0.203876 0.0518812
0.00116287 -0.252925 0.199995
-0.0174123 0.282614 0.211914
-0.00944297 0.0471844 0.233066
0.00629209 -0.333439 0.388513
-0.00386133 0.147182 0.598067
-0.00521908 0.284516 0.395935
0.00637938 0.453156 0.15773
-0.00497324 -0.467897 0.225902
0.000293257 -0.110433 0.300476
0.010819 0.142715 0.319167
-0.0219088 0.152647 0.224412
-0.00367509 0.0786539 0.411995
-0.00784125 0.216327 0.381954
-0.00144816 0.196231 0.375516
0.00401301 -0.08839 0.366537
-0.00202076 -0.232111 0.499545
-0.00691761 -0.0656776 0.358979
0.000868819 -0.281499 0.0259514
0.00521109 0.0702332 0.458216
-0.0181342 0.0599261 0.572549
0.00644239 -0.102143 0.104733
0.00780381 0.0317519 0.499221
-0.0102703 0.0755066 0.424171
-0.0111234 0.0935313 0.517513
-8.06218e-05 -0.219183 0.0205868
0.000904411 0.123675 0.166674
0.0183236 0.0723668 0.188795
0.00488616 -0.183534 0.372188
0.00430874 0.239689 0.391726
-0.0114459 -0.149912 0.363957
0.00640614 0.21413 0.132954
-0.00705734 0.0143792 0.219122
0.000650757 0.326616 0.373884
0.0183298 0.101501 0.251691
0.0122831 -0.305696 0.198671
-0.0160867 0.0867942 0.572826
-0.00650009 0.0133121 0.495279
0.0111888 0.239342 0.185459
0.00509049 -0.295352 0.00470495
-0.0110804 0.315212 0.251008
0.00159679 -0.303577 0.0174812
0.00229001 0.395156 0.363391
0.0135624 -0.184311 0.444102
-0.00147904 0.110278 0.249392
0.000459122 -0.383168 0.0356824
-0.00974248 0.131489 0.30796
0.0672862 0.0401468 0.158299
-0.00758507 -0.0823135 0.258867
0.0396094 -0.259192 0.202576
-0.00133726 0.118907 0.224138
-0.0243528 0.186925 0.333172
0.00652363 0.11388 0.19473
-0.152013 -0.106533 0.642826
-0.011026 -0.167138 0.583562
-0.00654771 -0.208364 0.458043
0.000282369 -0.0845525 0.119498
-0.00867541 0.0696709 0.491921
0.00627258 -0.0663938 0.164352
-0.0174119 -0.268869 0.195403
-0.00358246 0.0297133 0.253506
0.0103088 0.0324062 0.269076
0.025962 0.149238 0.217419
-0.0286978 0.113202 0.601261
-0.00403375 -0.0729639 0.348254
0.0168571 0.00647393 0.194279
-0.00272459 0.143706 0.298529
0.0335038 0.138625 0.605153
0.0174338 0.0243654 0.223296
0.00248861 -0.197359 0.478229
3.16326e-05 -0.17363 0.493447
0.00659646 -0.275987 0.0929592
-0.00394763 -0.190907 0.517538
-0.0158173 0.0267006 0.223745
-0.00737815 -0.271914 0.0055796
-0.00567579 -0.386717 0.210621
-0.0144987 -0.218481 0.500452
0.0265477 -0.201512 0.446826
0.00469133 -0.181545 0.594836
0.0153964 0.0449908 0.587046
0.00776241 -0.0521014 0.509247
-0.00122466 -0.16553 0.452257
-0.00635103 0.0811445 0.466576
0.0177138 0.184356 0.238646
0.00428649 -0.169133 0.305235
-0.00736883 -0.298764 0.00786837
0.0429348 -0.215529 0.285151
0.00390832 -0.456277 0.176555
0.0108286 -0.0696623 0.200985
-0.00754288 0.420914 0.0963423
-0.0107588 0.463885 0.24778
-0.0137506 0.406037 0.32077
0.00812498 0.111373 0.441721
0.00846791 -0.188417 0.241019
-0.00448826 -0.0692727 0.260039
-0.00518028 0.453598 0.175839
0.00851462 0.363202 0.217524
0.0105814 -0.322316 0.23783
-0.00822777 0.109928 0.42784
-0.00613524 0.307675 0.038617
-0.00219633 0.446202 0.306374
0.00326807 -0.0612888 0.193054
-0.0109959 0.156109 0.337013
-0.000562057 -0.206324 0.401864
-0.00186448 -0.0781204 0.135098
0.00421691 0.210785 0.381768
-0.00387051 0.160965 0.350459
-0.00374508 -0.0533875 0.348579
0.0127289 -0.277224 0.231686
0.00246552 0.333184 0.0454589
-0.00533279 -0.178886 0.541409
-0.00420965 -0.0438706 0.33748
0.0136195 -0.247591 0.224396
0.00860968 0.0717685 0.402979
0.00676514 0.448735 0.279101
0.00660853 -0.0876194 0.298971
0.00915489 0.0891605 0.454519
0.00725995 0.28113 0.121788
0.0084756 0.044359 0.250791
0.00616908 0.278117 0.199073
0.000463081 -0.165594 0.0286744
-0.00210953 0.422918 0.107322
-0.00781355 -0.382898 0.377687
0.001198 -0.0127586 0.278913
-0.0012978 -0.326504 0.396024
0.00655884 -0.298938 0.393377
-0.00463306 0.137651 0.13135
-0.00899858 0.353721 0.179307
0.00171886 0.0772985 0.492233
0.00452532 0.0339991 0.240356
-0.121866 -0.113843 0.65323
0.0102686 -0.17919 0.524409
0.00424762 0.231866 0.370256
-0.0208845 -0.18843 0.454079
0.00654234 0.458406 0.244152
-0.00224399 0.455046 0.231777
-0.00854528 -0.114886 0.51745
0.00556324 0.453254 0.254787
0.0511945 0.286509 0.207874
0.00349485 0.0263161 0.238586
-0.0755168 0.0256296 0.300568
0.0548283 -0.167394 0.605274
0.00572443 0.345846 0.378171
0.0130833 0.123403 0.432811
-0.0105245 0.457526 0.273025
-0.00631953 -0.33659 0.102012
-0.0364414 0.244581 0.262901
0.133459 -0.107293 0.653463
-0.00477783 0.43454 0.325153
-0.00159052 0.377239 0.341843
-0.00432567 -0.153834 0.532393
0.000500242 -0.0756516 0.276182
0.0100878 0.0642769 0.389397
0.00481653 -0.320245 0.0869026
0.0167781 -0.225805 0.511976
-0.00451295 -0.117163 0.315444
-0.00446781 0.0338076 0.596968
-0.00551902 0.211905 0.362587
0.0792688 -0.152383 0.643507
-0.00214203 -0.165757 0.383445
-0.0174149 0.293987 0.219251
0.0113928 -0.149044 0.361676
0.00567502 -0.0944251 0.315181
-0.0462913 0.269549 0.229938
0.0373438 -0.172767 0.597776
-0.00199484 -0.0923204 0.393612
-0.00825907 -0.0258743 0.31023
0.000815594 0.0433573 0.268854
-0.00587831 0.0453494 0.359193
-0.00940731 0.0508624 0.31847
0.00547074 -0.0789974 0.179173
-0.0172261 0.112829 0.222278
0.00948666 0.0690678 0.432012
-0.00746297 0.0642027 0.36287
0.107348 -0.131015 0.645244
-0.00591193 0.357102 0.0523282
-0.00660157 0.0202347 0.261956
0.00220651 0.381525 0.370461
-0.0309087 0.11397 0.576941
-0.0154732 0.147704 0.400151
-0.000581206 0.1524 0.110571
-0.0143992 0.384506 0.295689
-0.00413657 0.0626171 0.572409
-0.00298215 -0.421538 0.312731
-0.00537207 0.00479713 0.281088
0.011183 0.416318 0.333619
0.0405366 -0.217886 0.319909
0.000329231 -0.27844 0.404113
-0.110765 -0.114774 0.652086
-0.00625591 -0.439125 0.116174
0.00144811 0.40766 0.326725
-0.000986177 -0.321729 0.00706231
0.00364923 0.19095 0.349837
-0.0450466 0.277253 0.208202
0.0069926 -0.358296 0.2631
0.00595971 0.096282 0.527185
0.00646813 0.240289 0.0415599
-0.00520532 -0.149637 0.436327
0.00585887 0.183658 0.364755
-0.00834433 -0.173771 0.478081
5.85229e-05 0.468501 0.192878
0.0176673 0.297879 0.207062
0.004917 -0.0588804 0.334042
0.0072706 -0.0820529 0.511634
0.0167709 0.127444 0.248013
-0.0566248 0.0130063 0.297529
-0.00719842 -0.361251 0.033866
0.0147415 -0.178295 0.589834
0.00484511 -0.21125 0.521945
-0.121688 -0.120323 0.640006
-0.0074086 0.394835 0.0726679
0.00150877 0.263343 0.0422807
0.0181158 0.140386 0.409874
9.06597e-05 0.299985 0.391149
0.0338663 0.224999 0.283342
-0.0666556 0.0128996 0.298023
0.119815 -0.115626 0.655437
0.0232079 -0.166315 0.589488
0.0396109 -0.271878 0.21018
0.037835 0.259361 0.240395
-0.00468886 -0.108433 0.410527
-0.00526327 -0.073303 0.369954
-0.000377473 -0.0675645 0.250123
0.00535381 -0.171325 0.521402
0.0403683 0.0379128 0.157841
0.00425824 -0.392282 0.0607997
0.0133677 0.303153 0.224929
-0.00592075 -0.240116 0.409931
-0.00725108 -0.204475 0.38352
-0.010948 0.0723653 0.438116
-0.0510619 0.0256026 0.30364
-0.00261618 -0.09903 0.123958
0.0177851 0.161424 0.18852
0.00286732 -0.456311 0.223738
-0.0238557 -0.193412 0.425176
-0.00391041 -0.064136 0.225361
-0.0123063 0.14745 0.322876
-0.00157534 0.330454 0.386291
0.0115737 0.400527 0.31157
-0.0185313 0.11222 0.577138
0.00671881 0.387438 0.184196
-0.0109057 -0.274815 0.257128
0.0207775 0.0919634 0.586616
-0.0224888 0.0918929 0.582293
-0.0174144 0.281622 0.22966
-0.0103489 -0.180543 0.576865
0.00524214 -0.432424 0.0886448
-0.0243678 0.168551 0.226072
0.00685085 0.196851 0.231481
0.0436854 0.135721 0.599358
0.0113171 -0.0738496 0.172218
0.0260996 0.180753 0.338641
-0.00015916 0.0579059 0.415464
-0.0489363 -0.162409 0.596858
-0.0134446 -0.234038 0.199842
-0.0198289 0.334892 0.250327
-0.0184756 0.0688461 0.580594
-0.00712948 -0.0693804 0.15944
0.00936689 0.0895925 0.48082
-6.36661e-05 0.216562 0.0558068
0.00849751 -0.227901 0.496593
-0.00408126 -0.316263 0.408357
0.00555735 -0.353324 0.114135
-0.0042295 -0.242128 0.387582
0.00580572 0.285533 0.208466
0.0398821 -0.258579 0.221035
-0.00672323 -0.192194 0.385704
-0.0347074 0.203312 0.210218
-0.00517764 0.275962 0.377846
-0.00302876 -0.108952 0.388503
0.0298239 -0.202736 0.401484
0.0202793 0.0149406 0.218187
-0.00621438 -0.247373 0.0124429
0.00211067 -0.0338155 0.30319
-0.00202312 -0.344217 0.0147586
-0.0155072 0.104659 0.599747
-0.00115995 0.396662 0.063837
0.00644499 -0.339612 0.0222276
-0.0112476 -0.210609 0.50484
-0.00140628 0.357196 0.0671988
-0.00462837 0.467753 0.25261
-0.0132681 -0.243887 0.209504
0.00470509 -0.443401 0.299924
0.118567 -0.128274 0.643172
0.0246737 0.196429 0.321356
-0.000837455 -0.133716 0.440861
0.0330602 0.217075 0.302361
0.00710489 -0.259368 0.411144
-0.0129315 0.317912 0.19609
-0.00301412 0.440695 0.112207
0.00646545 0.0624229 0.355478
-0.00382277 -0.295233 0.387661
-0.0102265 0.221787 0.213585
-0.0775872 -0.151232 0.623759
0.0171063 -0.261584 0.203527
-0.00859291 -0.0451202 0.511054
0.00903341 0.334784 0.258297
-0.0485584 -0.247934 0.22074
-0.00107272 0.438403 0.132307
0.000708356 -0.461853 0.14307
0.00398214 0.118172 0.271914
0.0110767 0.370459 0.368646
0.00671141 -0.0340756 0.321612
0.0106715 0.100253 0.456122
0.0106575 -0.290497 0.404857
0.00436597 0.457275 0.19456
0.00767038 -0.113003 0.407081
-0.00202689 -0.39789 0.357297
0.0232484 0.155951 0.230399
-0.00744265 0.194502 0.0615897
-0.000161086 0.246141 0.0315802
0.0119817 -0.218832 0.503674
-0.00596405 -0.0797922 0.176622
-0.0212108 -0.236335 0.517351
-0.00649042 0.263276 0.395097
0.0416835 0.287116 0.208742
0.00221196 -0.449226 0.148417
0.0032041 0.441554 0.278129
0.0171103 0.268352 0.215726
-0.000898716 -0.0816315 0.215585
-0.00401829 0.120806 0.138289
0.00430055 -0.469078 0.205985
-0.0126563 -0.0727235 0.20584
0.00567344 -0.386411 0.362714
-0.00300448 0.292675 0.396264
-0.000161805 -0.375058 0.374372
0.0171105 -0.287126 0.213251
-0.00068522 0.298384 0.0404832
-0.00565147 0.132808 0.582619
-0.00985398 -0.227314 0.497924
0.00777285 -0.11044 0.519896
-0.0070557 -0.18335 0.0237613
-0.0074537 -0.0834253 0.145456
-0.0220493 0.154619 0.378829
-0.000901787 -0.168192 0.361508
-0.00263732 -0.396405 0.340042
0.00359017 0.1858 0.0740996
0.0115472 0.141258 0.606507
0.000970878 -0.177788 0.467987
-0.047646 0.113452 0.593787
0.0206148 -0.193037 0.436895
0.00540993 0.371735 0.0594868
0.0166471 0.132073 0.417502
-0.00010526 0.106808 0.554938
0.00124698 0.180919 0.0621927
0.0151398 0.0950138 0.59775
0.00468769 -0.279027 0.215406
0.0171045 -0.260062 0.190635
-0.0411093 0.101409 0.586958
0.0460758 0.128493 0.590513
0.00392876 0.0548391 0.318472
0.0301277 0.202611 0.221872
-0.0155925 -0.236888 0.529077
-0.00638745 -0.342948 0.387135
-0.000880181 -0.180918 0.55668
-0.00475707 0.0976171 0.464418
0.00107378 0.14324 0.139264
-0.00300915 0.0863715 0.596848
0.0176744 0.159483 0.369614
-0.000257286 0.0946279 0.560236
-0.00796097 -0.0178156 0.509071
-0.00733875 0.375252 0.203047
0.00349399 -0.125599 0.430148
-0.0741254 -0.15724 0.63343
-0.0433367 -0.221544 0.298043
-0.00540884 0.231698 0.387607
0.00254441 -0.0580165 0.353981
-0.0472187 -0.227458 0.278747
-0.00900449 0.280745 0.197328
0.00614458 0.465533 0.213395
0.00546931 -0.411701 0.0754538
0.002107 0.328678 0.0323905
-0.0170431 0.352471 0.270917
0.000544605 0.468463 0.224697
0.00462508 -0.46748 0.181343
0.0056437 0.0395458 0.491593
0.00375431 -0.184226 0.530943
0.0240956 0.133636 0.222225
0.0202796 0.029461 0.19772
-0.00724916 -0.358679 0.377527
-0.0011879 -0.361051 0.365519
-0.0241718 0.00848482 0.304035
0.0131877 0.305516 0.183944
-0.0395272 -0.21056 0.319891
-0.0134282 -0.274098 0.218211
-0.000334126 -0.431273 0.293262
-0.00138734 -0.118539 0.0897402
-0.00774082 -0.3333 0.0176074
0.0156095 0.0205298 0.233186
-0.0583069 -0.00844597 0.303215
0.00368483 0.377978 0.0664454
-0.0132352 0.264144 0.192756
0.00789585 -0.0118256 0.504542
-0.0390573 -0.268626 0.199918
-0.00729262 0.111131 0.192299
-0.00524523 -0.101768 0.292334
0.00393536 -0.129913 0.347142
-0.00654973 -0.0493875 0.324156
-0.0074574 -0.45423 0.259515
0.0370552 0.0299671 0.145767
-0.0074338 0.382981 0.368879
-0.00726018 -0.351816 0.0288126
-0.0276349 -0.202085 0.400104
0.00148062 0.174066 0.0839628
0.00570998 -0.458123 0.264283
-0.0035936 -0.106841 0.106099
0.0792587 0.0470677 0.14935
-0.00497427 0.0494851 0.297214
0.00161557 -0.441247 0.274142
-0.00626317 -0.387439 0.351713
-0.0402551 0.139399 0.601233
-0.00476552 -0.144661 0.343066
2.79472e-05 -0.112743 0.0737416
0.00202734 -0.451683 0.240738
-0.0322834 0.0208013 0.302486
-0.0101876 -0.18065 0.594775
0.000843423 -0.347981 0.39911
0.00760982 -0.237834 0.51373
-0.00561715 0.387893 0.164911
-0.00429653 0.131987 0.140584
0.115295 -0.123663 0.657801
0.0011707 0.104543 0.541711
-0.00879687 -0.160914 0.45847
-0.00475018 -0.321542 0.382704
-0.00789848 0.0361896 0.224203
0.0181005 0.28999 0.194043
-0.00160022 0.00354606 0.510747
-0.016419 0.0729224 0.594235
0.0626348 -0.161014 0.599778
0.0267534 -0.175829 0.450571
-0.00725333 -0.253738 0.394524
-0.0078999 -0.127543 0.352748
0.0171052 0.038257 0.252963
-0.0112913 -0.207198 0.39501
-0.00968234 0.0951724 0.449116
-0.0174099 -0.275185 0.185109
-0.0174139 -0.260053 0.202473
0.00829452 0.0578874 0.229682
-0.00995644 -0.185339 0.456092
-0.0455716 -0.216506 0.312436
-0.00737216 -0.29181 0.410019
-0.0111654 0.0221007 0.229663
-0.0106051 -0.0717644 0.239617
0.00649042 -0.242095 0.0105019
-0.00256208 0.0552209 0.403713
-0.0232203 0.0227966 0.234098
-0.00286354 -0.415224 0.0834047
-0.00727415 -0.288239 0.00600968
-0.086635 -0.14071 0.646285
0.0115951 0.236769 0.380914
-0.00890683 0.0539483 0.382244
-0.00744428 -0.198676 0.0221417
-0.0483461 0.130476 0.586809
0.000466716 0.254339 0.3747
-0.0490196 -0.244041 0.243398
0.0210206 0.15552 0.389598
0.00250997 -0.0807872 0.199981
0.0426683 -0.221065 0.303996
0.0108926 -0.0709892 0.182144
0.00949424 0.0311254 0.279736
0.0419413 -0.228925 0.252523
-0.00717976 -0.129317 0.416124
0.0127216 -0.294746 0.220044
0.0112079 -0.203715 0.392501
0.0156079 0.0226179 0.263987
0.00675299 -0.22155 0.527811
-0.00693899 -0.0930869 0.521474
0.00470233 0.0416393 0.503567
-0.00693065 -0.425045 0.0801182
-0.0117763 0.129071 0.415901
-0.0218547 -0.200879 0.439294
-0.00944612 -0.0947979 0.308634
-0.0466912 0.0087844 0.306911
0.00336364 0.348309 0.0389709
-0.0033425 0.0888608 0.479367
-0.000564222 0.148443 0.0915384
-0.00169568 0.467092 0.264047
-0.00775154 0.190768 0.367991
0.00363911 -0.0190934 0.287409
0.0030368 -0.164557 0.474675
0.0070895 -0.0607458 0.515158
0.0341967 0.235253 0.21561
-0.00591803 -0.197274 0.471958
0.00793371 -0.180656 0.475287
0.0752498 0.0341942 0.14664
-0.00291045 -0.370785 0.360844
-0.00717591 -0.228846 0.529956
0.000276347 0.108935 0.568687
0.00494355 -0.134372 0.528559
0.135393 -0.116663 0.64127
0.0490821 0.0522973 0.160866
0.00168746 -0.278745 0.190573
-0.1491 -0.0966642 0.645867
0.0139573 0.0673689 0.240419
-0.00470577 0.169198 0.332205
0.00638096 0.432121 0.113863
0.0242248 0.134152 0.606522
0.00553943 -0.459724 0.210321
-0.0105435 -0.257643 0.406441
0.0101182 0.0495996 0.331477
-0.00787 -0.135547 0.360268
0.00357226 0.275164 0.040692
0.00597366 0.111734 0.24014
-0.0806752 -0.151073 0.645304
-0.00640533 0.298021 0.381279
-0.0781398 0.000223856 0.305087
0.00142097 -0.261855 0.20601
0.0236116 0.107352 0.57634
-0.00581966 -0.171522 0.0388577
0.00509706 -0.218867 0.314523
0.00674494 0.116514 0.249831
0.0273395 -0.192272 0.394024
0.00485881 -0.0891359 0.139169
-0.0046685 -0.468879 0.215644
-0.000525354 -0.141756 0.0639524
0.00496359 -0.35888 0.391423
0.00323422 0.0984044 0.576459
0.00379275 -0.462832 0.252949
-0.00469637 0.134592 0.28195
-0.0187364 0.132473 0.234699
-0.0174163 0.304576 0.218396
-0.036676 -0.164469 0.591418
0.00752629 0.0970109 0.498395
0.00908028 0.0350743 0.259268
-0.00928216 0.0747811 0.230219
0.0066963 0.428295 0.313776
0.0171706 -0.0140129 0.225605
-0.0025012 -0.0635464 0.18608
0.0305297 0.177465 0.217879
0.00154462 0.131293 0.27355
-0.00382294 0.155063 0.315809
0.00777919 -0.00479564 0.283313
0.0202771 0.0550647 0.225159
0.00658037 -0.123174 0.409935
-0.0105751 0.0467995 0.597675
0.0215315 0.171149 0.368567
-0.00375188 0.378678 0.0526327
0.000384601 -0.150403 0.516145
-0.00640492 -0.133286 0.0674003
-0.0566599 0.00312361 0.295627
-0.00712174 0.433962 0.301074
-0.00610053 -0.310737 0.00704183
0.00150937 -0.198559 0.455798
0.0578278 0.0425104 0.15563
0.0452556 -0.224611 0.281415
-0.00444867 -0.22496 0.38497
0.00470338 0.455353 0.17674
-0.000410216 -0.312789 0.0248079
-0.0100698 0.0417738 0.325866
0.00519902 -0.313333 0.0162877
0.0101665 -0.191373 0.45727
-0.00255522 -0.100978 0.379199
-0.0029784 -0.408049 0.0562994
0.00535891 -0.159033 0.380085
9.52453e-05 -0.179684 0.520292
-0.137501 -0.0970034 0.641225
0.00658743 -0.152988 0.0461399
0.00146894 0.0218282 0.491666
-0.0643378 -0.169811 0.606798
0.00240189 0.310009 0.0416803
-0.0417453 0.00410611 0.299558
0.00124823 0.0702009 0.376767
-0.00380319 -0.00157285 0.267033
0.0430833 0.105397 0.588912
-0.00987229 -0.262304 0.217857
0.00606901 0.356745 0.381379
-0.00546882 0.0285686 0.239686
0.00328973 -0.196655 0.0291205
-0.00165993 0.0880653 0.488922
0.016239 0.100232 0.575051
0.00797121 0.354052 0.164512
0.00150558 0.107035 0.230081
-0.00121465 -0.23716 0.401713
0.0952069 -0.143008 0.650514
-0.00807053 0.0690441 0.384217
0.0171058 -0.247827 0.212111
-0.0011291 0.176954 0.337229
-0.0353315 -0.20452 0.379701
-0.0201449 0.145934 0.391422
0.0701059 0.0573268 0.154402
0.0159237 0.111008 0.229701
0.00563774 -0.0514578 0.343433
0.00670805 -0.35587 0.0274534
0.00303973 0.00976527 0.254253
0.00597462 0.0572747 0.572706
-0.00758192 0.406116 0.0800316
-0.00615752 0.320574 0.377704
-0.00289817 0.286035 0.37852
-0.00155104 -0.313041 0.399381
0.146325 -0.0906556 0.646176
-0.0174105 -0.280296 0.196183
-0.000139842 0.120383 0.191512
0.0182646 0.120592 0.579636
0.00057102 0.131838 0.303052
-0.0060936 0.394915 0.342969
-0.0262483 0.177965 0.342135
-0.00742809 0.452432 0.266407
-0.0194952 0.109953 0.231401
0.0473744 0.0207563 0.154225
0.00472581 0.328378 0.392497
0.00512559 -0.415032 0.324381
0.0188454 0.0981457 0.224215
-0.00196549 0.349126 0.366517
0.00905758 -0.350557 0.222265
0.0118809 -0.242195 0.164768
0.070776 -0.153263 0.620992
-0.00420804 0.0316755 0.307248
-0.00228744 0.0753602 0.484
-0.00756332 -0.464927 0.193616
-0.0198645 -0.223086 0.517666
0.0117965 -0.07534 0.234281
0.00615691 0.183116 0.353335
0.0159233 0.0641175 0.58229
-0.0035918 0.117592 0.211673
-0.0368783 0.236131 0.281108
0.00349544 0.201745 0.0634482
0.00860606 0.0754365 0.59632
0.0236348 0.188712 0.344935
0.00120454 0.124082 0.252513
0.00508434 0.135311 0.321796
-0.00512329 -0.429213 0.302674
0.00398355 -0.0767137 0.353236
0.0185005 -0.0011336 0.245536
0.00653184 0.437305 0.298227
0.000701809 0.105327 0.517371
0.0022164 -0.0161531 0.497338
-0.00251776 -0.186419 0.369943
0.00389102 -0.158516 0.467168
0.0341198 0.11654 0.601912
0.0372095 0.050091 0.150786
-0.000210946 -0.180713 0.485152
0.00671304 0.148939 0.0993027
0.00460301 -0.151475 0.351357
-0.0736976 0.0174152 0.305262
0.0156114 0.0155766 0.199605
-0.00491995 -0.325704 0.0228233
0.00141027 0.0809166 0.41984
-0.094006 -0.127785 0.652466
0.0162823 0.307102 0.216668
0.00197456 -0.144687 0.429066
-0.00801571 -0.11284 0.399501
0.00358247 0.46897 0.248612
0.00460106 -0.26315 0.391968
-0.00699962 -0.430948 0.0997213
0.0116078 0.300569 0.387286
0.034398 -0.210694 0.36689
0.0171085 0.289577 0.221557
-0.000160313 -0.240367 0.521376
-0.0420965 -0.171035 0.599416
0.00183348 -0.126853 0.0587345
-0.00498466 -0.173379 0.501564
-0.0190165 -0.168412 0.591892
-0.00698695 0.328732 0.0358575
-0.00304808 -0.120701 0.512263
-0.00685508 0.367089 0.376482
-0.00241271 0.409164 0.344605
-0.0222014 -0.206307 0.461764
-0.012401 -0.199065 0.446439
0.0465453 -0.174467 0.596103
-0.000269186 -0.107871 0.336662
-0.0139475 -0.24702 0.218451
0.00616007 0.15373 0.341929
-0.0118463 0.398543 0.34985
-0.00137717 -0.147406 0.456308
0.0171098 -0.27146 0.221751
0.00622684 0.454123 0.147795
0.0162799 0.14597 0.402446
-0.00425036 -0.162986 0.58707
0.00864435 -0.370287 0.384184
-0.00713066 0.0551812 0.39466
0.00232069 0.313565 0.388609
0.00939579 0.274735 0.216949
-0.0602004 0.0111737 0.306061
0.00646654 -0.439712 0.104388
-0.0125101 0.274628 0.203589
0.00587167 -0.272979 0.393671
-0.002172 -0.131256 0.302531
-0.00046077 0.0896839 0.529189
-0.0288862 0.0964066 0.577054
-0.000115929 -0.129969 0.326332
-0.00650449 0.159243 0.0944633
0.0108026 -0.108522 0.321947
0.00512132 0.0117601 0.272404
-0.0272335 -0.192776 0.433904
0.00321518 -0.141056 0.357765
0.109903 -0.12031 0.643401
0.00449141 -0.420063 0.0713661
0.0333008 0.0391077 0.158817
-0.0300649 -0.191544 0.414579
-0.0106255 0.0243638 0.250482
0.0170964 -0.292365 0.201582
0.0148538 -0.252844 0.201104
0.0787229 -0.153348 0.625908
-0.00890961 -0.328344 0.401121
0.00659375 -0.0902842 0.385653
0.0158421 -0.281099 0.185612
-0.00246777 -0.161171 0.0494573
-0.00309455 -0.0947421 0.272197
-0.0056585 0.0711764 0.463216
-0.000526106 -0.406599 0.327551
0.00655183 -0.0676813 0.240559
0.00143036 -0.169654 0.547457
-0.00237683 0.461405 0.156366
-0.00586669 -0.374976 0.384266
-0.095481 -0.135331 0.647242
-0.024341 -0.18539 0.444273
0.00194135 0.235253 0.383168
-4.91831e-05 -0.201363 0.446803
0.0180559 0.0225642 0.253352
0.00241444 0.0294096 0.299658
0.00656486 0.0723484 0.49713
0.0181968 0.157173 0.241546
0.00497784 0.383981 0.350812
0.00674062 -0.262255 0.00678705
-0.113145 -0.128271 0.648892
-0.0174108 0.286311 0.195031
0.00378121 -0.147905 0.0579447
0.0171079 0.278874 0.207642
-0.0174123 -0.273287 0.203767
0.0435679 -0.25001 0.217736
-0.00753623 0.0160052 0.505104
0.0156075 0.0547817 0.243551
-0.004021 -0.237829 0.512719
0.00583429 0.0365566 0.321149
-0.00842393 -0.127488 0.523598
-0.00654946 0.118783 0.174036
0.0019518 0.031589 0.590727
0.0019925 -0.138577 0.337758
-0.0502673 -0.261758 0.212713
0.00486947 -0.24507 0.400571
0.0173047 0.0824844 0.577772
-0.0304834 0.182127 0.213042
0.00652623 -0.171883 0.0315502
0.00784605 -0.211161 0.506601
-0.0287948 0.193984 0.337847
0.00445614 -0.185531 0.444295
-0.000816418 -0.352117 0.370688
0.00769704 -0.0317918 0.505857
0.0171589 0.345985 0.264943
-0.00651015 -0.17621 0.456998
0.0079499 -0.119829 0.34309
0.0131066 0.135811 0.401612
-0.000566876 -0.0353598 0.499603
-0.00143033 0.151023 0.588736
0.00153565 -0.0855349 0.160544
-0.00546083 0.00656964 0.259242
-0.0238027 0.176246 0.361726
0.00142203 0.294708 0.202997
0.029878 0.216719 0.293688
0.0107744 -0.183992 0.385683
-0.00553071 -0.0897035 0.138826
0.0340421 0.234191 0.283742
-0.0487527 -0.254042 0.228847
0.00241224 -0.084336 0.234464
-0.000338509 -0.0817028 0.279048
0.0184061 0.127269 0.225442
0.137107 -0.100785 0.648212
-0.0190058 0.112839 0.601765
-0.00167364 0.119728 0.278901
0.0403403 -0.237088 0.241718
0.0167577 0.229148 0.2295
0.00401669 0.245547 0.373032
-0.00734802 -0.220893 0.0153633
0.00569215 -0.431635 0.316365
0.0063826 0.403189 0.353576
0.00600275 -0.100789 0.321605
-0.000771686 -0.0769877 0.505583
-0.00388303 0.399783 0.335617
0.025357 0.177512 0.357654
0.00238136 -0.135761 0.0707291
0.0156093 0.00464089 0.251839
0.0180296 -0.237483 0.520172
0.00745524 -0.177667 0.490173
-0.0107401 -0.179022 0.508073
0.147837 -0.104297 0.643855
-0.00678311 0.0612786 0.23857
0.0032743 -0.0895195 0.110165
-0.00499154 -0.261776 0.412536
-0.0402282 -0.210314 0.346904
0.00654357 -0.347382 0.379543
-0.0038007 0.455031 0.188325
-0.00433871 -0.447465 0.109933
0.0388414 -0.214384 0.331987
0.0169253 -0.271145 0.201791
0.00128409 -0.184561 0.39327
-0.0069958 0.180915 0.0667091
0.000390787 -0.0550906 0.502519
0.000406658 -0.0882054 0.253867
-8.66088e-05 -0.100124 0.0910285
-0.00755396 0.045386 0.500884
0.00551526 -0.0520486 0.327032
-0.00761142 -0.142303 0.431707
0.0754677 0.0322718 0.155424
0.0297203 0.173973 0.226125
-0.0174128 0.293565 0.203252
0.0012562 -0.455951 0.187424
-0.0489772 0.283964 0.212671
-0.0068555 0.27352 0.394568
-0.13392 -0.103568 0.652243
-0.00736133 -0.076667 0.219321
-0.00763913 -0.310498 0.393315
0.00991831 0.113466 0.422735
-0.00888685 0.0339065 0.247648
0.00143128 -0.467145 0.163524
0.0287555 0.165599 0.216462
0.0114205 -0.0949543 0.297298
-0.0118864 0.335562 0.3828
-0.0284699 -0.183925 0.455347
0.00635886 0.137377 0.115023
-0.000972649 0.3523 0.384744
-0.00448201 0.154122 0.10276
-0.00342226 0.428172 0.330896
-0.00249858 -0.0437323 0.517386
0.0108658 -0.331556 0.395902
-0.00425326 -0.373919 0.303423
0.00563191 -0.13405 0.420451
-0.00103747 -0.0831877 0.298114
0.0067249 -0.310548 0.392686
0.00713507 -0.0364675 0.313087
0.00637031 -0.0416248 0.504144
0.0223984 -0.1771 0.585545
-0.0052633 0.253348 0.032272
-0.00771663 0.451767 0.145768
-0.0130532 -0.223588 0.524466
-0.00237204 -0.153855 0.0360114
-0.00435221 -0.0674409 0.202938
-0.133443 -0.114085 0.638648
-0.0168703 0.122187 0.229034
0.00428886 0.0351774 0.251101
0.000151111 -0.341831 0.375546
0.000800961 0.46936 0.207509
-0.00700762 0.148668 0.334452
-0.0432738 0.255126 0.24781
0.00637887 0.20288 0.36492
-0.00128029 0.0825657 0.499493
0.010038 -0.185716 0.589209
-0.00250053 -0.364718 0.0404574
-0.00796656 0.100177 0.598987
-0.0076972 0.165353 0.0824352
0.051459 -0.161913 0.599273
0.00664638 -0.461103 0.169731
0.00555735 0.445286 0.294664
-0.074822 0.00689434 0.296108
0.006484 -0.365211 0.0344029
-0.00665664 -0.234964 0.00659431
-0.0127544 0.187161 0.357353
0.00667722 -0.464423 0.189544
0.00753675 0.146145 0.599253
-0.0161496 0.302436 0.200515
0.000889888 -0.362926 0.02385
0.0171107 0.280585 0.228706
0.0273232 -0.202599 0.384245
-0.00641368 0.101968 0.550226
-0.0105786 -0.088803 0.293774
0.010063 0.0227614 0.222088
-0.0361777 0.239286 0.206777
-0.0076724 0.203546 0.364083
-0.00619515 0.114078 0.163445
0.00142254 -0.263427 0.194073
0.0383832 0.0382822 0.149462
0.0128074 0.385666 0.297511
0.00318401 0.0129584 0.508653
0.00113859 0.106176 0.197902
-0.00658904 0.245573 0.0418651
0.00346463 -0.167484 0.591271
-0.000132405 -0.0794355 0.522724
-0.00281918 -0.32488 0.406335
-0.0192793 0.0798397 0.577442
-0.0325557 0.00777976 0.296279
-0.00684398 -0.436208 0.107974
-0.0325577 0.205796 0.321607
0.0102785 0.0571683 0.369358
0.00383687 0.281657 0.389596
-0.00752398 0.344906 0.374522
0.00856147 -0.168629 0.382783
0.00575843 0.116091 0.227398
-0.0107837 0.0852737 0.234181
-0.0017272 0.291235 0.218225
0.0414263 0.267208 0.239317
-0.0174129 0.279224 0.220523
-0.00116844 -0.15686 0.442398
0.00621107 -0.146992 0.436286
-0.0596136 -0.163651 0.596078
