-0.00267785 0.11712 0.386356
0.074223 0.0336002 0.130461
-0.00337572 0.0631975 0.239498
-0.001658 -0.309684 0.336938
0.0098865 0.45969 0.247288
0.00470944 0.231289 0.34187
0.0104892 -0.000754174 0.265906
-0.00709545 0.27195 0.121458
0.000578249 -0.38105 0.0721016
-0.00479049 0.391446 0.196607
-0.0282031 0.0175991 0.180969
-0.0976988 0.0531372 0.285572
0.0370872 -0.227341 0.340732
-0.00635331 -0.34297 0.123107
0.00579672 -0.262481 0.00776734
-0.00226135 -0.312553 0.357093
0.00576098 -0.033775 0.473156
0.00115925 -0.138636 0.243539
-0.020454 0.178797 0.23224
0.0011979 -0.402228 0.268126
-0.00432553 -0.0551198 0.314413
-0.00638824 0.222366 0.351703
0.01024 -0.150814 0.424805
-0.00391483 0.408633 0.0625673
0.0402257 -0.229093 0.291829
0.0200619 0.199846 0.345557
-0.0159714 0.181875 0.37713
-0.0394659 -0.265654 0.207012
-0.004413 -0.094781 0.354042
-0.0084801 -0.179909 0.324002
-0.0331492 -0.232035 0.303153
-0.0232497 0.0896797 0.199008
0.010237 0.469441 0.152295
0.00533994 -0.25737 0.0085493
0.00171242 0.419489 0.0817971
0.0148818 -0.310284 0.178501
-0.00700167 -0.385641 0.21746
0.0896028 -0.172632 0.559925
0.0374506 -0.259735 0.234623
-0.00189462 -0.31953 0.376899
0.091604 0.0477797 0.125338
0.00702671 -0.345996 0.11907
0.00803774 0.235819 0.0304899
-0.0273709 0.0584156 0.204033
0.00317937 0.0599921 0.20739
-0.000138229 0.152037 0.0691688
-0.00662598 0.146631 0.281329
-0.00180238 -0.154191 0.282738
-1.16085e-05 -0.306442 0.00216163
0.00746077 0.123485 0.366462
0.0884938 -0.166646 0.53997
-0.00478748 0.301182 0.11063
-0.002015 -0.275997 0.0570906
-1.90287e-05 0.291008 0.37622
0.00792296 0.460338 0.276876
-0.0116184 -0.273183 0.218112
0.00622676 0.0405235 0.482433
-0.0134472 0.288009 0.211928
0.00595101 0.21602 0.535466
0.00072419 0.377992 0.300422
-0.0815202 -0.206916 0.478023
-0.00340831 0.0674587 0.195549
0.0168629 0.289484 0.193039
0.0249854 -0.198061 0.391819
0.0168719 0.318812 0.181427
-0.00810085 -0.129269 0.159455
0.00238091 -0.202762 0.115708
0.0168611 0.280992 0.188032
-0.0187626 0.305925 0.175055
0.011584 -0.256207 0.183705
0.0361704 0.235771 0.191203
-0.0153012 -0.285367 0.178008
0.00752384 -0.139001 0.281563
0.0885828 -0.209432 0.484561
-0.0002695 -0.146647 0.540133
-0.0109476 0.290603 0.217367
0.0867536 -0.166306 0.540458
0.0150577 0.289107 0.164975
0.00472749 0.355803 0.366496
-0.00223498 0.42769 0.292837
0.0093655 -0.297111 0.126408
0.00715291 0.131179 0.211807
0.00126418 0.0948124 0.463228
0.00792652 -0.356979 0.147612
0.0122742 0.0944885 0.526442
-0.0304655 0.241769 0.280611
-0.00880575 -0.461364 0.255356
-0.00798002 -0.44624 0.0838283
0.092653 -0.212923 0.487645
0.00129768 0.194595 0.0683289
0.00829605 -0.236838 0.232836
0.0914709 -0.18821 0.56196
-0.00979193 -0.296719 0.236751
0.019195 0.166662 0.411697
-0.0109258 -0.14983 0.542239
0.0945918 -0.175385 0.54333
0.0844701 0.0674107 0.123545
0.0124783 -0.330808 0.186509
-0.0879801 -0.216553 0.546275
0.0021485 0.208595 0.0637807
0.0219048 0.197338 0.513
-9.88817e-05 -0.202004 0.304055
0.0078814 -0.460303 0.265206
-0.00426191 -0.184451 0.421569
-0.00817095 -0.425305 0.061988
-0.00571018 0.376417 0.354659
0.0107447 0.291668 0.188562
0.0103561 -0.186179 0.425354
0.014891 -0.279588 0.175903
-0.0271931 0.224289 0.308034
0.000746045 -0.3869 0.327522
0.00888084 -0.257003 0.135196
0.00955224 0.140028 0.434623
-0.024475 0.0529235 0.155658
0.00297918 -0.439389 0.312387
-0.00228425 0.133522 0.508808
-0.0232488 0.0706794 0.188436
0.00899047 -0.163745 0.487373
0.00755173 -0.115563 0.209008
0.000602735 0.368668 0.0436919
-0.00313756 0.197026 0.172484
-0.0147786 0.330218 0.206478
0.0989056 0.047928 0.124996
0.00169003 0.150049 0.459251
-0.00579902 -0.393104 0.213089
0.0410337 -0.233922 0.323574
0.00956653 0.165629 0.48954
-0.00645669 -0.0631657 0.483394
-0.0134007 -0.273952 0.185938
-0.0248483 0.0265964 0.183364
-0.00523781 0.344624 0.111738
0.0133145 -0.270953 0.188088
0.00929401 0.121384 0.46629
0.00701908 -0.348144 0.23884
-0.0911728 -0.200085 0.475382
-0.00440487 0.476241 0.237479
-0.00200037 -0.237558 0.0792091
-0.00407515 0.159063 0.495031
-0.00839315 -0.455949 0.123521
-0.00577801 0.379867 0.19221
0.0316918 0.0593897 0.208988
0.0358511 0.269104 0.190621
0.0501086 0.0534927 0.125517
0.000289232 -0.407219 0.342848
0.00219643 0.392338 0.326035
-0.0310156 0.295622 0.183615
-0.030219 0.202135 0.514976
0.0167243 0.150638 0.533505
-0.0179126 0.295104 0.162512
-0.00606547 0.302701 0.106382
-0.0110736 0.30857 0.161418
0.00376614 0.128105 0.106574
-0.00844325 -0.233591 0.233158
-0.00209021 -0.141822 0.0847441
-0.0193837 0.185509 0.382556
-0.00323024 -0.00316814 0.471859
-0.02823 0.0304515 0.211211
-0.0162618 0.248608 0.219651
0.00369957 -0.352943 0.348352
-0.00366341 0.209987 0.135112
-0.0117296 0.104407 0.200871
-0.0145986 0.294847 0.177841
0.00122761 0.295018 9.15839e-05
0.00760401 -0.0978155 0.376692
0.0305587 0.253868 0.26573
-0.00777252 -0.124537 0.128936
-0.00434614 -0.116383 0.375465
-0.00523817 -0.160781 0.51907
0.00602511 0.353892 0.0892421
-0.0051891 0.322815 0.356796
-0.00567018 0.413785 0.3128
-0.00840292 -0.385948 0.0344901
0.00419238 -0.162765 0.539165
0.00603614 0.0553429 0.220896
-0.0248517 0.0174149 0.209879
-0.0882413 -0.181206 0.551047
0.00821944 0.139662 0.44118
-0.00335361 -0.154655 0.520699
-0.00440938 0.481855 0.209937
-0.0177432 0.20843 0.332897
-0.00871856 -0.39169 0.0418233
-0.00157487 -0.42494 0.221356
0.00334252 0.168332 0.505719
4.62402e-05 -0.0242149 0.487871
-0.0129626 -0.280493 0.217222
-0.00656396 0.45704 0.119109
-0.00659175 -0.0688066 0.482704
-0.0248515 0.0759726 0.203979
-0.00493264 0.439944 0.0936202
-0.0276783 0.0314964 0.159973
0.00621181 0.453794 0.2482
-0.00277519 0.0504855 0.481652
0.013122 0.28313 0.178047
0.00547054 0.393601 0.110024
0.0105808 0.352146 0.226841
-0.00529508 -0.188257 0.203987
0.00284363 0.4043 0.31694
-0.00736675 0.196618 0.51295
-0.000761636 -0.454922 0.292971
-1.6724e-05 -0.286266 0.035769
-0.013321 0.30962 0.175436
-3.97013e-05 -0.445854 0.305852
0.00578677 -0.175234 0.30511
-0.00546105 -0.0431709 0.3203
0.00570162 0.173472 0.300944
0.00416281 -0.336738 0.0272342
0.0444725 0.0522844 0.131213
-0.0104532 -0.335132 0.204349
-0.0215255 0.126652 0.146394
-0.00717328 -0.187049 0.424994
-0.00849634 -0.390192 0.336604
0.0107675 -0.113841 0.385197
-0.0117678 -0.281555 0.177271
-0.0134346 -0.31215 0.165249
-0.0172546 -0.201485 0.396539
0.0145104 0.267209 0.173073
0.00237208 0.441556 0.14013
-0.00914837 0.0819676 0.204027
0.00577774 -0.150504 0.430988
-0.00997449 0.309088 0.161017
-0.000632148 -0.15103 0.51239
0.00777272 -0.323767 0.123666
-0.00804433 0.280554 0.175053
-0.00103707 -0.367183 0.0155061
-0.00425957 0.163757 0.475623
0.00753643 -0.156196 0.522966
-0.00377333 -0.400561 0.13351
-0.00288696 0.0991899 0.29822
-0.0232509 0.0334722 0.209795
-0.00610587 -0.210603 0.241694
0.00391378 -0.123848 0.259886
-0.0159568 0.31799 0.217308
-0.00681149 0.245434 0.237686
-0.0114121 -0.305791 0.177583
-0.0356934 -0.226335 0.351856
0.00992554 0.182769 0.048964
0.0123174 -0.308416 0.164291
0.0138164 0.265676 0.182586
-0.0263513 0.0479459 0.246461
-0.0123675 0.320881 0.166724
0.0274592 0.163589 0.198318
0.0369603 0.204519 0.524619
-0.0056879 -0.375258 0.0209789
-0.0342517 0.27856 0.224151
-0.0212955 0.17763 0.196387
-0.0112245 0.283769 0.186341
-0.0160224 0.309949 0.201399
0.00801554 0.0581528 0.222776
0.00373572 0.336585 0.0248779
0.00264288 0.262955 0.0246955
0.00457336 0.390688 0.326973
-0.000442351 0.2874 0.376047
-0.00369528 0.217497 0.250771
-0.00640745 0.157596 0.47203
0.00862314 0.0478333 0.212946
-0.0169537 0.17405 0.406184
-0.00231032 -0.46663 0.178446
0.000747455 0.0702845 0.263641
-0.00952795 -0.292294 0.239237
0.00305842 0.387309 0.0468052
0.00412444 0.110119 0.512763
-0.0898274 -0.172693 0.540958
0.0103177 0.423721 0.0647522
-0.00929565 0.302508 0.155317
0.0148845 -0.297566 0.199864
-0.091391 -0.225524 0.518244
0.039623 -0.238656 0.274811
0.00802095 -0.193747 0.395983
0.0176242 0.156871 0.435216
0.0378313 -0.250611 0.264227
-0.0143388 0.12476 0.19872
-0.00503504 0.235171 0.228847
0.00789758 0.182742 0.310661
0.00117078 -0.418132 0.276887
-0.0108578 0.28702 0.21751
-0.04491 -0.239141 0.289339
-0.0112359 0.279812 0.171035
-0.0403726 -0.267913 0.204723
-0.00560791 0.229932 0.0305251
-0.0247814 0.0943684 0.215447
0.00262652 0.436619 0.278636
0.0100574 0.249562 0.022667
0.00786677 -0.459044 0.248335
-0.000646953 0.279958 0.306966
-0.015173 0.259961 0.196028
0.00601503 -0.438885 0.0706083
-0.00186161 0.208375 0.0454385
-0.0134563 0.278994 0.200407
-0.0263436 0.0670235 0.186012
-0.0101011 0.301558 0.213332
-0.00821527 -0.34707 0.016632
0.0377064 -0.283838 0.196887
-0.0061856 0.221158 0.213558
-0.00547293 -0.150891 0.304956
0.0118659 -0.268082 0.187096
-0.00650701 0.33266 0.017401
0.0182437 0.104859 0.522144
0.00137298 -0.165197 0.150028
-0.00743108 0.329384 0.14881
0.00928161 -0.154403 0.430691
-0.00646947 0.136397 0.264852
-0.00142218 0.222913 0.0163048
0.00466702 -0.22802 0.363204
0.00644428 -0.264387 0.121427
0.0648803 0.0435112 0.130067
-0.0398236 0.0638517 0.265214
-0.0389199 -0.150282 0.544371
-0.00538045 -0.129777 0.186461
0.0351543 -0.157394 0.537312
-0.00695309 0.322763 0.24644
-0.0225071 0.16892 0.535314
-0.0141275 0.162528 0.418194
0.0853226 -0.212146 0.483708
0.00312104 0.364861 0.0557272
0.00720412 0.268137 0.0854185
-0.00804956 -0.280516 0.269449
0.0110505 0.346665 0.185346
-0.0187449 -0.299115 0.194253
-0.0070332 0.261984 0.228919
0.00517761 -0.233215 0.274746
0.0110365 0.204141 0.542071
-0.0205145 0.0664994 0.214977
0.00977411 0.383901 0.345365
0.00411788 0.266361 0.00283932
-0.00653959 -0.367125 0.145693
-0.0148373 0.307097 0.154159
-0.0244475 0.0200136 0.189776
-0.00615252 0.300608 0.179907
-0.00613935 0.302585 0.197702
0.00824798 -0.423375 0.312846
-0.0145875 0.286329 0.193957
-0.0160367 0.317241 0.180592
-0.026501 0.231306 0.304737
0.0849847 -0.203768 0.472903
0.00295325 0.334936 0.314417
0.0101906 0.133602 0.46879
0.0078538 0.165148 0.479512
-0.0203592 0.1711 0.195222
0.00589007 0.206386 0.541501
0.0118221 -0.284626 0.215682
-0.0428903 -0.214142 0.343693
0.0430576 -0.23615 0.314813
0.00801099 -0.43288 0.306196
0.00329433 -0.122557 0.257751
-0.00642188 0.4674 0.212986
0.00600253 -0.482655 0.185609
0.0101334 0.366245 0.0287487
0.00513743 0.0618475 0.219718
-0.0133262 0.295506 0.210668
-0.0798487 0.0448028 0.292238
-0.00592994 0.0808351 0.260666
0.00100359 -0.456774 0.290092
0.0121772 0.24462 0.171262
0.00795339 -0.365491 0.0318532
-0.000948803 -0.312043 0.0230709
0.0117732 0.348589 0.185398
-0.00803336 0.305443 0.189297
0.0514681 -0.150291 0.554785
-0.00834463 -0.370259 0.175316
0.00721909 -0.0561721 0.488201
0.00944541 0.475162 0.229741
-0.00643561 -0.128598 0.192621
0.0148829 -0.30227 0.211622
-0.00377326 0.378627 0.121843
-0.0018942 0.176914 0.304679
0.00265124 0.422873 0.0987692
-0.00870502 -0.470468 0.152899
-0.0263468 0.0384627 0.210999
-0.00605076 -0.163118 0.487281
-0.0065019 0.0811353 0.271213
0.001708 -0.113228 0.395351
0.00408845 -0.194772 0.203582
-0.00571096 -0.358388 0.0142087
-0.00380715 0.00653136 0.471759
0.0240551 0.0536393 0.198314
-0.00647312 0.338326 0.0192118
-0.0285522 0.228874 0.189877
-0.0148512 0.17188 0.414493
-0.00131046 -0.216153 0.0619247
0.0100231 0.120693 0.215563
-0.00762955 -0.0808537 0.349241
0.0195433 0.187349 0.384873
-0.0324979 0.187546 0.520548
-0.0229042 0.00496052 0.21374
0.0100168 0.249734 0.359475
-0.00560784 0.31963 0.370887
0.00527803 0.350957 0.0937689
0.00177663 -0.00433581 0.486941
0.00457873 0.424541 0.14939
-0.00669844 0.0542577 0.209745
0.0373658 -0.259329 0.234435
-0.037397 -0.302939 0.188519
-0.0153 -0.279547 0.190715
-0.0101002 0.153467 0.534404
0.00325457 0.222498 0.335612
-0.00017337 0.202701 0.0514315
-0.0248529 0.064312 0.217525
0.00651396 -0.388485 0.174527
0.00638785 0.310596 0.0830942
-0.000669312 0.129179 0.105018
-0.0389567 0.284018 0.188875
-0.00830997 0.248904 0.213791
-0.00346783 -0.00812839 0.266396
-0.0915997 -0.205674 0.539313
0.00715662 0.128018 0.265096
0.0120299 0.288831 0.147826
0.0112506 -0.310995 0.177289
-0.00615558 0.307385 0.175185
-0.00267204 -0.182986 0.158064
-0.00354113 -0.310298 0.309308
-0.00493479 0.154309 0.444014
-0.026343 0.0402861 0.183477
-0.000161091 -0.161269 0.514451
-0.00569163 0.187004 0.0413765
0.00926543 0.231916 0.359796
-0.0248531 0.0793068 0.215904
-0.00148489 -0.166909 0.209261
0.00166432 0.182136 0.507704
0.00992519 0.31823 0.359982
0.00279819 -0.173877 0.331246
-0.000508688 0.0602867 0.215418
0.00252916 0.457663 0.0895566
-0.0115175 -0.327592 0.183592
-0.000813609 -0.14143 0.137134
-0.0232519 0.0323324 0.218592
-0.000556926 -0.135906 0.234944
0.00361593 0.416829 0.305181
-0.0107848 -0.33244 0.211645
-0.0160207 0.297011 0.204528
-0.00793547 -0.202162 0.0481238
-0.0109126 -0.296043 0.183333
0.00816081 0.170239 0.0747655
0.00555949 0.187954 0.218842
0.0400129 -0.197183 0.395305
0.00365569 0.048936 0.482711
-0.0248566 0.0558151 0.244615
0.00950328 0.465579 0.257547
0.00125718 0.342501 0.330898
-0.00575103 0.283109 0.00512652
-0.00600545 -0.252086 0.0287952
-0.00429236 -0.322203 0.0910925
0.00131698 0.424395 0.267783
-0.00156139 0.393466 0.242192
0.0141977 0.276234 0.1587
-0.0511042 0.0732275 0.289015
0.0081078 -0.442129 0.293427
0.0102231 0.152199 0.286087
-0.00525411 -0.136412 0.143521
0.00764735 0.349379 0.101148
-0.00516427 -0.229223 0.277491
0.00166608 -0.283993 0.0658027
-0.0233275 0.0264592 0.163599
-0.00823003 -0.477872 0.180737
0.00399806 0.220801 0.0931325
-0.00876764 0.311754 0.166391
0.00174803 0.232596 0.364651
0.0057772 -0.258808 0.00866312
-0.0889054 -0.179538 0.554741
-0.00377882 0.0317124 0.227151
-0.0147439 0.315056 0.155975
-0.000737097 0.057055 0.196521
-0.0263433 0.0778713 0.179592
-0.00393872 0.125868 0.372907
-0.00627826 0.332152 0.116475
-0.00446672 0.397651 0.0521703
0.00522788 0.315032 0.0620926
-0.00487933 0.118503 0.355816
0.0240551 0.0526577 0.204715
-0.00729685 -0.117344 0.388335
-0.00493491 -0.0341874 0.485408
0.0125659 0.273964 0.151956
-0.00678996 0.386184 0.339034
0.0063424 -0.296219 0.0194889
-0.00444513 -0.409895 0.175421
0.00052843 -0.161268 0.203382
0.00379304 0.430711 0.156374
-0.0244677 0.0130963 0.196774
0.00241766 0.256087 0.0560086
0.00255113 -0.212422 0.0229475
-0.00429887 0.368146 0.232606
0.00629466 -0.462847 0.233755
0.00549911 -0.359743 0.108084
0.00987489 0.240713 0.350835
0.00449229 -0.159169 0.512964
0.00658376 0.404342 0.158991
0.00746984 -0.315834 0.0080931
-0.0103704 -0.261074 0.147523
-0.0996633 0.048073 0.286055
0.00771567 -0.146659 0.0894214
0.0019019 0.264563 0.0230695
-9.89626e-05 0.30928 0.0452806
0.00268081 -0.28165 0.0758631
-0.00627094 -0.0683753 0.484453
0.000653221 -0.19728 0.30678
0.0882343 -0.226655 0.493479
-0.00444782 0.218567 0.203908
0.036222 0.206393 0.527311
0.00336011 0.0322036 0.483961
0.00364686 -0.314323 0.311778
-0.0145943 0.313592 0.182605
0.00548659 -0.399458 0.175524
-0.0874888 0.0444741 0.292261
-0.00206635 -0.276777 0.377027
0.00637825 -0.119169 0.239427
0.00793784 -0.183446 0.0619684
0.00733311 -0.233729 0.134697
-0.032862 -0.157338 0.537294
-0.0145882 0.277061 0.192911
0.00307695 0.179736 0.335107
0.00089198 -0.437076 0.168364
0.0419531 -0.267256 0.219512
0.004476 -0.461782 0.157268
-0.00469442 0.266193 0.355199
-0.00101803 0.120745 0.397848
-0.00633362 -0.194259 0.0575326
-0.0282304 0.0806495 0.210462
0.000768662 0.330246 0.321532
0.0120569 -0.273043 0.180341
0.00423197 -0.447995 0.116477
0.0120681 0.0703608 0.206207
-0.0134398 0.138443 0.508368
-0.000298681 0.335931 0.316936
-0.00400721 -0.422241 0.0780527
-0.0118018 -0.255118 0.200989
-0.0449139 0.0606474 0.259617
-0.0100768 0.317881 0.214037
0.00226947 -0.374285 0.0882075
-0.0127569 0.295094 0.152172
0.000156172 -0.130753 0.20953
0.00534543 0.0768332 0.279269
-0.00317823 0.0503135 0.468066
0.00209758 0.112646 0.153486
0.00362873 0.100374 0.463204
0.00809218 -0.330308 0.365328
0.00186907 0.113735 0.534866
0.00781814 -0.385624 0.34704
-0.00615505 -0.482793 0.19963
0.00540894 0.131817 0.426937
0.00908748 0.304455 0.101117
-0.00254558 -0.228535 0.0750391
0.0105774 -0.300969 0.138909
-0.00842614 -0.453887 0.118221
-0.00663679 0.130155 0.135018
-0.0263481 0.0551636 0.222625
-0.0328013 0.228602 0.192227
-0.00498496 0.214947 0.215581
-0.0530042 0.0468823 0.290438
0.0953531 -0.223198 0.521395
-0.00577799 -0.12809 0.483809
-0.00778656 -0.135927 0.246307
-0.0116001 -0.310982 0.201523
-0.0248498 0.0213753 0.194135
0.00250941 -0.0249496 0.280949
-0.0112201 0.285098 0.192376
-0.00171471 -0.426055 0.124219
0.00587859 -0.397683 0.0557757
0.00139841 -0.230725 0.365997
0.00481596 -0.301423 0.022629
0.0101346 -0.294644 0.246049
-0.00475487 0.177914 0.0468491
0.0631353 0.0662974 0.122096
0.00973787 0.360046 0.187689
-0.0010919 -0.263511 0.349443
-0.0263427 0.0399751 0.181084
-0.0232483 0.0692936 0.183731
-0.00630422 -0.235324 0.345786
0.0363649 0.18943 0.533029
-0.00642872 0.137384 0.110099
-0.00862412 0.294606 0.211912
-0.0359633 -0.25208 0.254317
0.00909619 0.075577 0.242632
-0.0793292 -0.151265 0.544005
-0.0133663 -0.279824 0.166437
-0.00711558 0.352565 0.184013
-0.00796409 -0.477209 0.223223
0.00114442 -0.163777 0.419185
-0.00604865 0.336068 0.0110779
-0.000508397 -0.173575 0.0814604
0.00463484 -0.118486 0.242716
-0.0230223 0.165502 0.19924
0.0105289 -0.299953 0.231166
0.00794036 -0.244345 0.361563
-0.0263418 0.0673625 0.16982
0.00730664 -0.118926 0.145156
-0.00622814 0.350197 0.137101
-0.00073881 0.282716 0.305504
0.00906891 0.286662 0.372086
-0.00753684 -0.159305 0.537652
-0.00523503 0.249445 0.263486
0.00809129 -0.321278 0.135671
-0.00851419 -0.291055 0.0121676
0.00298499 0.331364 0.34229
-0.00881089 0.272447 0.191674
-0.0205145 0.0611498 0.203833
0.00163056 -0.175461 0.449613
-0.0080307 0.320175 0.191957
-0.013329 0.284236 0.198977
-0.00438315 -0.208749 0.401666
0.0175258 -0.294346 0.193122
0.00962271 -0.282655 0.143743
-0.0118213 0.302377 0.178849
0.0117256 -0.312409 0.21851
-0.000218748 0.207456 0.327671
-0.00859126 -0.302032 0.367599
0.0474742 -0.217044 0.370272
-0.00764488 -0.128932 0.116408
0.00136226 0.295709 0.355288
0.00205653 0.189214 0.509733
0.00225674 -0.466199 0.272262
-0.0140121 0.282798 0.131089
-0.00273708 0.199216 0.347216
0.00622884 -0.0308051 0.311591
-0.0164474 0.308261 0.211099
-0.00360975 0.454947 0.287453
-0.00520434 -0.204548 0.198641
-0.00588217 0.0609471 0.223609
0.0088486 0.314399 0.371678
-0.0117767 -0.310011 0.205962
-0.0439589 -0.207753 0.364559
0.0237383 0.193638 0.3687
-0.0179126 0.252919 0.219849
-0.000137566 -0.186066 0.0386472
-0.00664085 0.328351 0.363585
-0.0939569 0.0461509 0.292482
-0.024848 0.0618406 0.177967
0.00778806 0.150459 0.454912
-0.00638151 0.120707 0.161891
0.00623197 0.174443 0.505539
-0.0232514 0.064678 0.207526
0.00672809 0.347067 0.00831755
0.00718389 0.37398 0.132904
-0.0220873 0.213678 0.530971
0.0942346 -0.205189 0.471444
-0.00890214 0.302208 0.191897
-0.00803536 0.316254 0.185996
0.00674963 0.0429334 0.215182
0.0107325 -0.301134 0.18015
0.0445456 0.0525858 0.129016
0.00287679 -0.329055 0.0704845
0.0224018 -0.198218 0.411205
-0.00485217 -0.12049 0.131169
0.000918004 0.3857 0.31452
-0.00252603 0.370401 0.279834
-0.0115093 0.301831 0.169012
-0.0160191 0.276101 0.209226
-0.0377447 -0.240553 0.304707
-0.0012645 -0.438313 0.234168
0.00237844 0.161758 0.494709
0.0494282 -0.209116 0.373723
0.00176895 0.157488 0.475628
-0.0134541 0.290921 0.202055
0.0144393 0.3249 0.168234
-0.000468076 -0.485185 0.178979
-0.0145828 0.324784 0.198232
-0.0658067 0.0789624 0.288265
0.00081393 -0.424666 0.299893
0.00733463 -0.461623 0.272417
0.00999771 0.0612029 0.213656
0.00978109 0.459316 0.244743
-0.0056526 0.132388 0.417958
0.000956478 -0.322872 0.336579
-0.00751048 -0.00966164 0.279967
0.0013439 0.0743957 0.227448
-0.00747154 -0.189459 0.427971
0.000392844 -0.163499 0.483995
0.0101576 0.268048 0.36251
0.00486636 0.0170888 0.484613
-0.0104685 0.327231 0.178739
0.00120771 -0.230882 0.0596466
0.00311052 0.161504 0.504147
-0.00452644 -0.310153 0.2943
0.00759806 -0.358019 0.214166
-0.0396538 0.0557064 0.266712
0.00549766 0.327498 0.308319
0.00949278 0.166702 0.512538
0.0102157 0.426895 0.0704553
0.0375151 -0.253923 0.251074
-0.00667437 -0.245649 0.0276988
-0.0102796 0.286757 0.215107
0.000310829 -0.206057 0.0483842
-0.000366797 -0.240546 0.369609
-0.00826431 -0.136801 0.270587
0.0021491 -0.214275 0.290639
0.00992584 0.23865 0.147287
0.0580612 0.0606379 0.126335
0.00458994 -0.353307 0.288304
0.00871374 -0.0529573 0.477291
0.00463444 -0.240925 0.092684
0.00790045 -0.271408 0.359666
0.00799635 -0.437611 0.0883488
0.00428873 0.41759 0.202014
0.00271707 -0.0437891 0.47304
-0.00461714 0.158706 0.28523
-0.00870858 -0.252634 0.22571
0.0885329 -0.229102 0.501336
-0.00582258 0.0725611 0.237286
-0.0462944 -0.223114 0.328589
-0.00636248 0.167162 0.312148
-0.00316515 -0.161132 0.521654
0.00397958 0.138807 0.242381
0.0363364 0.24595 0.192487
-0.00861785 -0.151065 0.28957
0.0947067 -0.218167 0.534246
-0.00215252 -0.261358 0.354713
0.00162361 0.270225 0.345072
-0.0887261 -0.218161 0.498993
-0.0232531 0.0513239 0.226024
0.0148914 -0.277953 0.177584
0.0168644 0.2944 0.180675
-0.00565654 0.407803 0.318496
-0.00201931 -0.0144256 0.271618
-0.0101196 0.299968 0.186981
0.0245705 0.211937 0.324565
-0.0511205 0.0495983 0.291889
0.00924967 -0.191026 0.407346
-0.000392358 -0.169135 0.51766
0.0106477 0.347943 0.20459
-0.00677989 -0.203292 0.1996
-0.0178787 0.175516 0.397042
-0.00614317 0.303997 0.192405
-0.0248472 0.0436967 0.173259
-0.0137455 0.298253 0.155199
-0.0105374 0.28916 0.152193
-0.00315419 0.300292 0.00171121
-0.0101126 0.27636 0.159625
-0.0119442 0.125804 0.509498
-0.00804933 0.29363 0.168498
-0.0241392 0.00689196 0.223096
0.00440434 -0.108288 0.389458
0.0113419 -0.269092 0.186143
0.0224269 0.182231 0.388311
0.00679847 0.170069 0.296882
0.00820796 -0.283953 0.36702
0.00144331 -0.329798 0.0476642
-0.00609374 0.0515385 0.208287
-0.0064843 0.253191 0.354549
0.0168597 0.278495 0.198322
-0.00236959 0.483838 0.174581
0.044736 -0.148902 0.556425
0.00734761 -0.18032 0.438391
-0.0954475 0.0464686 0.290466
-0.00215775 0.238605 0.294106
-0.00598944 0.112609 0.346681
0.00742018 -0.131215 0.268207
-0.0248476 0.0618711 0.175259
0.0364911 0.0528911 0.163872
0.00519216 0.214792 0.333641
0.0449154 0.0521195 0.142974
0.00586287 -0.0444637 0.48865
0.00514697 0.311352 0.0791372
-0.0281299 0.0964076 0.230081
0.00593597 -0.465126 0.176043
0.00160245 0.161456 0.281654
-0.0259361 0.181891 0.507631
-0.00628187 0.429439 0.0657171
0.0102508 -0.00324085 0.267129
-0.0235818 0.0184131 0.185057
0.00917488 -0.272801 0.240051
0.0924739 0.032253 0.125822
-0.0084891 -0.459745 0.249717
-0.0241447 0.159998 0.198727
-0.00577102 0.0950257 0.530306
0.0534068 0.0400876 0.124696
-0.00662467 0.13762 0.258689
0.00807586 0.0900022 0.308172
0.0317722 0.0513207 0.206074
-0.0370942 0.286423 0.210939
0.0223163 0.193483 0.511452
-0.00621005 0.383886 0.347725
0.00599153 0.268507 0.0805188
0.00320645 -0.211386 0.122864
0.0943621 -0.221009 0.511022
-0.00134178 -0.366283 0.304534
0.00142515 -0.265588 0.328468
-0.0201374 0.122706 0.14492
-0.00635501 -0.124827 0.485739
0.00766933 -0.289887 0.00871977
0.0026373 0.207419 0.32555
-0.00359437 -0.174206 0.460453
0.00789141 -0.171591 0.306442
0.00897769 -0.163649 0.502547
-0.00865333 -0.321356 0.0168112
-0.00592855 -0.457781 0.239027
0.0116423 0.186715 0.542663
-0.0273973 0.19516 0.196738
0.00880745 0.40503 0.337689
0.008255 0.227174 0.343305
-0.00877834 -0.246476 0.229544
0.0099283 0.418147 0.319338
0.00256993 -0.45452 0.131139
-0.0160197 0.318541 0.205107
-0.00526414 0.263192 0.00685993
-0.0282351 0.0585476 0.250438
0.00597813 0.190204 0.17581
3.58419e-06 0.16062 0.517542
0.0100938 0.13665 0.110361
-0.00500782 0.147147 0.533651
-0.00803541 -0.117569 0.165175
-0.00584451 -0.460682 0.279664
-0.000491681 -0.452859 0.178957
-0.00912093 0.0675235 0.199515
-0.000743584 -0.417926 0.292561
0.00168035 -0.137666 0.240485
0.0945115 -0.202383 0.546162
0.00239832 0.46413 0.203489
0.0111534 -0.172939 0.442037
0.00518907 -0.114632 0.155414
-0.0020964 -0.484527 0.168474
0.00138309 -0.395396 0.326105
0.0085923 -0.0692712 0.487739
-0.00555481 -0.165186 0.500454
-0.00384177 -0.140172 0.248383
0.00867505 -0.107337 0.384664
0.00386911 0.386523 0.353482
0.00753266 -0.362384 0.147382
-0.00801117 -0.116707 0.172976
0.0102585 0.356802 0.0237457
-0.0832811 -0.161677 0.538696
0.00790143 -0.469652 0.194415
0.00642436 0.206474 0.328849
0.00603429 0.273481 0.0218678
-0.00502731 0.324383 0.0188075
-0.0115218 -0.315802 0.215181
-0.00659672 0.16555 0.0704033
-0.00607157 0.308953 0.016959
-0.0263411 0.0418981 0.166164
-0.00840704 -0.169861 0.0733178
-0.00945778 0.151944 0.456279
0.0130578 0.268727 0.174996
-0.00602414 -0.344918 0.120462
-0.0146511 0.127083 0.198506
-0.00607038 0.186121 0.332222
-0.00585734 0.235681 0.212373
-0.00803542 0.275197 0.188798
-0.0235828 0.015616 0.190752
-0.0112615 -0.285544 0.193588
-0.0356486 -0.19612 0.396422
0.0167568 0.291773 0.210003
-0.00624496 -0.202029 0.0524225
-0.012351 -0.311111 0.210765
0.00164508 -0.453153 0.24115
-0.0205145 0.0645718 0.216755
-0.00708374 -0.481491 0.175426
-0.00831379 0.319976 0.223038
-0.0243529 0.2182 0.314562
0.00262181 0.263892 0.0338413
-0.0107298 0.170645 0.401728
-0.00341358 -0.302288 0.190169
0.00241629 0.182201 0.28649
-0.00493154 -0.180349 0.440006
0.0880849 -0.242895 0.535793
0.0881421 -0.206945 0.545905
0.00572764 0.195143 0.0548197
0.013709 0.307069 0.222924
-0.0248519 0.040639 0.212293
-0.00661695 -0.0693975 0.344161
0.00911528 0.13556 0.472772
0.00364889 0.427324 0.0521729
-0.0192181 0.209829 0.134649
-0.00762746 -0.138146 0.127467
0.000649397 0.0975977 0.336943
-0.0259714 -0.159642 0.544661
-0.0146099 0.297198 0.162028
0.0341031 0.0555648 0.193244
0.00751837 -0.238714 0.0169911
-0.00330101 -0.171182 0.300399
0.000788487 0.134285 0.227562
-0.0066265 0.161444 0.0757987
0.00703589 -0.227397 0.191251
0.00710517 -0.11074 0.492132
0.00494874 -0.126473 0.264329
0.0913775 -0.211065 0.543977
-0.000494934 -0.454464 0.0865427
-0.0364588 -0.150636 0.544873
-0.000687553 0.264967 0.0732031
-0.00650708 0.192664 0.0451301
0.00117236 0.256626 0.0554789
0.00811305 0.390844 0.0469207
0.00286088 -0.207981 0.120691
-0.00382046 0.167978 0.485704
-0.00676389 -0.323588 0.0214629
-0.0246423 0.0479499 0.156446
0.0114895 -0.32717 0.159677
0.00613815 0.195906 0.0309413
0.00615122 0.17961 0.540622
-0.00321389 0.125132 0.406345
0.0044249 0.147495 0.112306
-0.00812866 -0.454983 0.0999485
-0.0248521 0.0876349 0.208282
-0.00824905 -0.13913 0.10476
0.00342692 0.42392 0.205889
-0.0115117 0.304079 0.172925
0.00671188 -0.451457 0.291635
-0.00898938 0.282791 0.183697
0.045906 -0.159749 0.539536
0.00635485 -0.208258 0.405698
-0.0244945 0.0970849 0.20279
-0.00383881 0.0404906 0.469415
-0.0122101 0.31341 0.208532
-0.0369657 -0.291727 0.193933
0.0112053 -0.0951164 0.363651
0.00665 0.165512 0.536799
-0.0237252 0.00954566 0.224209
-0.00121207 -0.169151 0.15053
0.00804167 -0.0626832 0.477298
0.00745047 0.136925 0.094323
0.00440203 0.405628 0.253282
-0.0280451 0.17124 0.510736
-0.00821258 -0.117694 0.198184
0.00995924 0.397942 0.0395457
-0.00820626 0.294738 0.211674
0.0196526 0.142622 0.198911
0.00543374 -0.425307 0.298466
0.00822261 -0.16444 0.077283
-0.0165752 0.211654 0.523071
-0.0101148 0.272344 0.195442
-0.00699239 0.297195 0.169513
0.00873662 -0.239065 0.182718
0.0961737 0.0561715 0.123017
0.0082213 -0.186584 0.328584
-0.00562172 0.121632 0.389397
-0.007771 -0.250591 0.259559
0.0083062 0.206901 0.333033
-0.0114889 0.290487 0.136594
-0.0232541 0.0336271 0.235727
0.00861092 0.0587084 0.202517
0.00579964 0.0690444 0.215844
0.00706365 -0.0426988 0.300916
0.00817888 -0.223326 0.176512
0.00191405 -0.405217 0.279837
0.0168638 0.290837 0.203972
0.032138 -0.19389 0.398834
0.0178948 0.0828612 0.199191
0.00595541 -0.288336 0.358067
-0.0263448 0.0189182 0.193385
0.0113576 -0.275492 0.168294
0.0268466 0.200203 0.192623
-0.036773 -0.149848 0.540996
0.00991742 -0.0545441 0.483077
-0.00807557 -0.336248 0.128025
0.0891054 -0.194221 0.559648
0.00377028 0.332777 0.350272
0.0029946 0.106813 0.361617
0.000386536 -0.429819 0.107058
-0.00547525 0.308992 0.256559
-0.00509326 -0.252777 0.10683
-0.00848294 -0.120506 0.171749
-0.00664273 0.0131422 0.477367
0.00263126 0.062907 0.196924
0.00562021 -0.163615 0.0890307
-0.00721315 0.320454 0.234965
0.000145918 0.329344 0.328526
0.000631326 -0.386283 0.0637288
-0.0060846 -0.368039 0.250134
-0.0971511 0.0457883 0.287235
-0.0122786 -0.289423 0.225712
0.00281848 0.052859 0.204154
-0.00045048 -0.0219972 0.487583
-0.0091001 -0.242293 0.212125
0.0100933 0.453146 0.273086
0.0488492 -0.225313 0.320067
0.00472493 0.403095 0.108757
0.000427443 -0.164881 0.273383
-0.00766078 0.00928685 0.260304
-0.0101099 0.314638 0.20017
-0.00802748 0.297842 0.197956
-0.000860306 -0.142967 0.255214
-0.0310181 0.200714 0.541909
0.0339773 0.18014 0.524325
-0.00476909 0.114219 0.372572
-0.0122066 0.287168 0.214651
0.00420245 0.171725 0.490468
-0.00561271 0.361863 0.130972
0.000549678 0.190039 0.266074
-0.028229 0.0852513 0.19834
0.00911382 0.110935 0.466346
-0.0248518 0.0359308 0.208715
-0.00298794 0.414597 0.333572
0.00444886 -0.351681 0.287187
-0.0028538 0.131629 0.424829
0.00537425 -0.0362108 0.473223
-0.00496112 0.116521 0.350724
-0.00556497 0.0599774 0.224394
0.0322328 -0.296268 0.194323
-0.00294036 0.043992 0.236998
0.0100939 0.18496 0.0569616
0.0101671 0.432301 0.301914
-0.00618823 -0.281194 0.271244
0.00780119 0.153981 0.305501
0.0238521 0.187521 0.372213
-0.00813878 -0.271213 0.255916
0.0160933 0.154854 0.433689
-0.0382929 0.284385 0.211157
-0.0116357 -0.303703 0.207291
-0.00640408 -0.374081 0.040468
0.025158 0.297001 0.192008
0.00699418 -0.480821 0.207417
-0.0153988 0.333924 0.191283
0.0145524 0.307438 0.21893
0.0299877 0.25153 0.269523
-0.00653549 -0.215193 0.0242689
-0.0263476 0.0178816 0.217501
-0.00628934 0.127863 0.214179
0.0100634 0.235457 0.194901
-0.0032492 0.448516 0.259709
0.00798852 -0.0552817 0.314753
0.00726048 0.202399 0.515777
-0.00565804 -0.474026 0.248849
-0.00501846 0.415053 0.330921
0.00747413 0.167471 0.499241
-0.0187476 0.292455 0.151685
-0.0453167 -0.235136 0.296843
-0.000424417 -0.308628 0.347725
0.0092745 0.360633 0.229905
0.0124639 0.328994 0.205012
-0.00717621 0.353686 0.228597
-0.00755465 0.0531546 0.215354
-0.00729147 -0.335942 0.129899
0.00303425 -0.0398757 0.321833
0.00622816 -0.273759 0.00669983
0.00923603 0.449096 0.109089
0.00311872 0.465345 0.198278
-0.00669868 -0.223783 0.129532
-0.00864397 -0.200485 0.0440506
-0.0445888 -0.215361 0.378522
0.00234619 0.270522 0.338392
0.00385702 -0.310242 0.376827
0.0102621 -0.299007 0.195664
-0.00129341 -0.45387 0.163262
0.00628326 -0.342424 0.256315
0.0267757 -0.158722 0.5459
0.0100386 0.329473 0.359719
2.11778e-05 0.438853 0.098238
-0.026351 0.039617 0.241328
0.00386533 -0.113536 0.223236
0.00335525 -0.305069 0.377312
0.00664632 0.0928711 0.465025
0.00778693 -0.175383 0.323374
-0.00177974 0.175002 0.218669
0.00707523 0.231131 0.10247
-0.0282301 0.0652297 0.209225
-0.0083032 -0.156505 0.288663
-0.00348366 0.449296 0.117412
0.095445 -0.21655 0.484451
0.00615092 0.0866666 0.464962
-0.00754141 -0.262328 0.1163
-0.0244098 0.217717 0.326855
-0.0145833 0.277891 0.200878
0.00695861 0.21959 0.140322
-0.00657223 -0.138624 0.487517
-0.0145955 0.283368 0.182446
0.01019 0.162391 0.428112
-0.0133293 0.283376 0.206033
0.00152366 0.397 0.322321
-0.0160379 0.330533 0.17856
-0.00678722 0.255331 0.248401
-0.00827649 -0.236417 0.359348
0.0126381 -0.276676 0.214629
0.00694421 0.220263 0.336608
-0.00833558 -0.129592 0.22932
-0.00843948 -0.387486 0.337518
-0.0027467 -0.362591 0.300464
0.0038244 0.156111 0.448232
-0.0263519 0.0538845 0.251793
-0.00603251 -0.179225 0.0713054
0.00933065 0.454697 0.281859
0.00128665 0.122883 0.533413
-0.00184806 0.37546 0.284752
0.00147694 0.366299 0.363127
0.0100626 0.437226 0.297184
-0.040783 -0.282069 0.195617
-0.0809469 0.0774555 0.290566
0.0477626 -0.235735 0.294406
-0.00425005 -0.329235 0.354918
0.00626822 -0.242047 0.265264
-0.00645899 0.452633 0.0992086
-0.00272459 0.0599401 0.466938
-0.00609616 0.477102 0.159433
-0.0151415 0.128192 0.197165
-0.00449782 -0.190892 0.438847
-0.00272954 -0.441358 0.310624
0.0194806 0.203846 0.342387
-0.0058686 -0.347386 0.030042
-0.0134622 0.319961 0.188866
-0.0140768 0.125565 0.50952
-0.0608781 0.0450407 0.286132
-0.028234 0.0364008 0.238458
-0.0369219 -0.217155 0.332015
0.0532392 0.0618297 0.127624
0.0111255 -0.285412 0.178626
-0.0113179 0.32762 0.187623
0.00308455 -0.20635 0.331129
0.00391846 0.418893 0.200738
0.0390435 0.287577 0.210456
-0.0327629 0.270454 0.23123
-0.00847104 -0.297297 0.0170079
0.00118389 -0.463713 0.278398
0.00386103 0.262727 0.0220663
0.00882118 -0.0236828 0.284455
0.00813232 -0.17388 0.318197
0.00576484 0.385919 0.352736
0.00977463 -0.164906 0.51799
-0.0263454 0.0768061 0.19811
-0.00736526 -0.411331 0.0451917
0.0168711 0.316917 0.175217
-0.0106479 0.319556 0.215901
-0.043706 -0.238614 0.281239
0.00857614 -0.0845356 0.344719
0.00230555 -0.207359 0.0486053
0.00612136 -0.293965 0.021025
-0.00128461 0.126151 0.461721
-0.0195889 -0.197647 0.396225
-0.0112216 0.295637 0.189688
-0.0164474 0.326688 0.195746
0.00812536 -0.295411 0.249199
-0.00652826 0.149426 0.454363
0.00782224 -0.349359 0.0176388
-0.0129717 0.0420597 0.212854
0.00788626 -0.162972 0.518624
-0.00642359 0.320518 0.193246
-0.0057115 -0.191339 0.0600825
0.00741335 -0.460562 0.273208
0.0074767 0.479483 0.151339
0.00497448 -0.185555 0.0654407
0.0326476 -0.198916 0.388549
-0.00527778 0.175068 0.0679602
0.00220876 -0.204712 0.419194
0.0187629 -0.207642 0.403113
-0.000428449 -0.166747 0.422737
-0.00469062 0.412493 0.31306
0.0100144 0.341394 0.0217249
0.00790727 -0.181066 0.0529543
0.000200368 -0.109309 0.1933
0.000959656 0.285324 0.340468
0.00262159 0.436501 0.142528
-0.0343402 -0.295457 0.187185
-0.00452065 0.158029 0.282929
-0.000346757 -0.133062 0.479596
0.0100113 0.0515388 0.191001
0.0168626 0.286994 0.186926
-0.0282328 0.093133 0.227435
0.00711127 0.0743534 0.268892
-0.00862643 -0.121399 0.206294
-0.00665638 0.33742 0.250976
0.0122792 -0.289233 0.165371
-0.000682238 -0.182198 0.473089
0.00739245 -0.381113 0.185078
-0.00670216 0.164659 0.302245
-0.00676337 0.474133 0.193281
0.0400231 -0.259301 0.251713
0.00542211 0.243671 0.280036
0.00636951 0.235015 0.104178
-0.00526331 -0.449701 0.26018
-0.00507025 0.369279 0.203851
-0.00617295 -0.0939112 0.369834
0.00210831 -0.096858 0.37894
-0.00477181 0.391596 0.196069
-0.00333129 -0.110183 0.195788
-0.0111637 -0.308939 0.153054
0.0119641 0.134673 0.508706
0.00824409 -0.164876 0.0726024
-0.023252 0.0899147 0.218821
0.0989042 0.0447424 0.128466
-0.00582032 0.321606 0.251548
0.00988191 0.254806 0.246798
0.0148857 -0.296085 0.174273
-0.0205145 0.0657071 0.217336
0.0241382 0.197283 0.348396
0.0189634 0.175214 0.391094
-0.00412967 -0.195925 0.162546
-0.0282255 0.0537552 0.176206
-0.00865359 -0.197035 0.0463865
0.00186154 0.15043 0.0708963
0.00449291 0.284676 0.375407
-0.0282337 0.0614381 0.239529
0.00704934 4.59105e-05 0.471918
0.00209512 -0.222686 0.291646
-0.00751542 -0.257496 0.132739
0.00745816 -0.280945 0.119606
-0.00860072 -0.349411 0.356784
0.00714524 -0.21954 0.206346
0.00490405 0.278671 0.354261
0.0107535 0.292707 0.135505
-0.00320502 -0.32902 0.0052924
-0.0122387 0.314036 0.168827
-0.0270871 0.0368847 0.159146
0.0108552 -0.307791 0.197842
0.0103622 0.00111611 0.272812
0.00383164 -0.0873109 0.492191
-0.0205145 0.0449746 0.21029
-0.000240623 0.133339 0.158211
-0.010342 0.272134 0.158119
-0.0232513 0.0718772 0.207911
-0.00643341 0.471576 0.145583
-0.00621391 -0.456186 0.13638
-0.0240004 0.00595269 0.19448
-0.000371403 -0.130039 0.182721
-0.006641 0.25967 0.016216
-0.00403097 0.311072 0.0937305
-0.00468974 0.100931 0.466041
-0.013325 0.296188 0.167616
0.0131467 -0.318945 0.171955
-0.00645688 0.475323 0.165956
0.00589979 -0.209767 0.204262
-0.00629857 -0.189259 0.414104
-0.0282352 0.0740026 0.247071
0.0062761 0.201454 0.027908
-0.0232512 0.027954 0.214269
0.00288012 0.445526 0.304115
0.0950961 0.0425307 0.130136
-0.00677794 -0.440191 0.283411
0.0928312 0.0494598 0.125221
0.0120548 0.335161 0.220666
-0.00829327 -0.439556 0.285283
-0.00871052 -0.471815 0.206698
-0.0061594 0.309207 0.171627
0.00146093 -0.0328125 0.315162
-0.0157689 0.21164 0.539438
0.00575934 0.267004 0.352856
-0.0063601 -0.278769 0.0232622
0.050921 -0.149898 0.541006
-0.00503941 -0.0130103 0.273476
-0.00449013 -0.317853 0.375812
0.00577717 -0.272732 0.287152
-0.0196922 0.151986 0.516746
0.0066073 0.341258 0.103071
0.000106404 0.262728 0.0222208
-0.00814023 -0.257382 0.0138038
-0.023249 0.0806485 0.191067
0.0092323 0.202683 0.0450265
0.00699587 0.14989 0.472161
0.00644262 -0.177953 0.067829
-0.0248497 0.0435401 0.192803
-0.00643883 0.137888 0.119812
-0.00130068 -0.072966 0.329656
0.00217121 0.308538 0.0369667
-0.023254 0.0419256 0.231912
0.0398489 -0.288729 0.188811
-0.026417 0.22916 0.307831
-0.0132784 0.298336 0.220257
-0.0090843 -0.149936 0.540236
-0.00131904 0.365127 0.362923
-0.00678299 0.446191 0.283847
0.00537 0.283272 0.294104
0.0346426 0.224495 0.19087
0.00171858 -0.241804 0.0320335
0.00604453 -0.459048 0.23963
0.000245503 0.144781 0.238757
-0.0109468 -0.304262 0.193283
-0.00868596 -0.179928 0.320829
0.0952378 -0.225403 0.511246
0.00403182 -0.484507 0.189839
-0.00278825 0.0742529 0.23094
-0.00557421 0.0233395 0.238023
-0.00599659 -0.118297 0.394371
0.00777232 -0.360152 0.020905
-0.00352408 -0.434406 0.0931343
-0.00576283 0.165024 0.31604
-0.0026147 -0.167497 0.511563
-0.00738055 -0.366634 0.216673
-0.0281807 0.0493671 0.252834
0.000767769 -0.449568 0.223897
-0.00803293 0.305736 0.190205
0.00819448 0.258749 0.35324
0.00417348 0.142862 0.122313
-0.0248543 0.0804672 0.22864
0.00411827 -0.0181658 0.2998
0.0067518 -0.165662 0.483443
-0.00283396 0.0951304 0.515984
0.0173859 0.210316 0.540372
0.00476682 -0.38142 0.144543
0.00174181 0.211971 0.0700119
-0.00676828 0.322203 0.257015
-0.00522389 0.0728447 0.477635
0.00055297 0.138222 0.240613
0.00802681 -0.326311 0.360895
-0.00352735 0.0310862 0.22742
-0.0062202 -0.0878901 0.486006
0.0145416 0.265945 0.198755
-0.00588864 0.464955 0.113742
0.0148839 -0.300354 0.198616
-2.80095e-07 -0.0339828 0.472575
0.0954196 -0.21941 0.489023
-0.0853755 0.0702533 0.28995
-0.00448428 0.0997978 0.304429
0.0127092 0.256811 0.186728
-0.00495058 0.31869 0.00478052
-0.026346 0.0177529 0.203988
0.000379315 0.156198 0.459173
-0.014613 0.278643 0.158988
-0.00614134 0.298027 0.195465
-0.0112212 0.286228 0.190801
0.00768502 0.14805 0.0776534
0.0954828 -0.206501 0.539864
-0.0112301 0.301163 0.177539
-0.000541538 0.330123 0.303642
-0.0748393 -0.154674 0.537144
0.00112144 -0.187784 0.406504
0.0262064 0.214306 0.320779
-0.0282321 0.0910558 0.222245
0.00689888 0.16481 0.506659
0.00359216 0.437118 0.314249
-0.00834972 -0.360476 0.349768
-0.00351616 -0.190942 0.254129
-0.0234039 0.0343912 0.2416
-0.00375132 0.384018 0.167013
-0.00152086 0.464526 0.273139
0.00230847 -0.298169 0.3577
-0.00715493 -0.137214 0.0984668
-0.00836337 -0.385125 0.337896
-0.0300792 0.245824 0.191727
-0.00503127 0.0534359 0.208532
-0.00474873 0.13793 0.127226
0.00042386 0.134716 0.22975
-0.014589 0.303033 0.190732
-0.0112395 0.29845 0.164448
-0.0282276 0.0813764 0.186769
0.0168605 0.281516 0.202622
-0.0033805 -0.091566 0.349384
-0.00351311 -0.0237352 0.282006
0.00827674 -0.160711 0.302278
-0.00209805 -0.333423 0.066773
-0.0299116 0.205911 0.194846
-0.0101037 0.296457 0.209969
0.00790445 -0.407397 0.057661
-0.00606473 -0.145891 0.261545
-0.00811727 -0.478349 0.173523
0.00610394 -0.456516 0.248581
-0.0224322 0.19739 0.354965
0.0109093 -0.0899408 0.360642
0.008228 -0.146082 0.493477
0.00462073 0.0557945 0.221347
0.000452487 -0.112273 0.393926
0.00764123 -0.314035 0.26103
-0.00646924 -0.462349 0.156204
-0.00492852 0.129583 0.413392
-0.0187519 0.292291 0.157905
0.0154106 0.292699 0.164025
0.0124252 -0.331663 0.187384
-0.0117214 0.292121 0.160539
-0.0146129 0.111209 0.514002
0.0819292 0.0641821 0.126087
-0.024441 0.0765428 0.245756
-0.00152007 0.0534932 0.482017
0.0738458 0.0609451 0.126313
0.00798295 0.160452 0.467267
0.00401578 0.463551 0.219241
-0.00829794 -0.379773 0.350173
-0.0248556 0.044931 0.241632
-0.0379569 0.0539036 0.230558
0.0141483 0.275339 0.165898
-0.00916453 -0.158793 0.53825
0.00261392 0.285486 0.340863
-0.00725998 0.337813 0.133525
0.000968498 -0.321009 0.330331
-0.012766 -0.32205 0.171571
-0.00271346 0.206436 0.138662
-0.00838289 -0.251863 0.0239018
0.00934309 0.445932 0.295433
0.0892319 -0.157328 0.55888
0.0019155 0.175468 0.0446251
-0.00119772 -0.170449 0.270896
-0.0236862 0.301371 0.187437
0.00718708 0.289479 0.281129
-0.00244338 -0.359592 0.295278
0.0849225 -0.220313 0.493926
-0.043102 -0.255913 0.252794
0.00936661 0.284845 0.118755
0.00405675 0.246743 0.347817
0.00911737 0.203839 0.0295246
-0.00697926 0.27762 0.190204
0.0127807 0.272715 0.221209
0.00820245 -0.157534 0.294314
-0.00454466 0.288227 0.284429
-0.024398 0.0559496 0.251605
-0.00113013 -0.408664 0.341811
-0.0238808 0.0129711 0.173575
0.0113441 0.298844 0.234353
0.00694361 -0.208757 0.387377
0.0716867 -0.148883 0.555812
-0.00350949 0.111784 0.200772
-0.000407969 -0.202693 0.325411
0.014198 0.0458339 0.217365
-0.000297671 -0.444737 0.307185
-0.00776692 0.265061 0.132655
-0.00572065 0.139802 0.0940801
-0.00410407 0.23292 0.10925
-0.00603574 0.299831 0.111313
-0.0893983 -0.184877 0.560946
-0.00657073 0.127169 0.147721
-0.00957885 0.139371 0.532177
-0.0263515 0.0750558 0.243151
-0.00599817 -0.393033 0.217679
-0.0122439 0.28159 0.164817
-0.0152822 0.261773 0.206331
-0.0896378 -0.164104 0.54856
0.0921919 -0.219226 0.514049
-0.00664533 0.122014 0.192319
-0.000824445 -0.0294042 0.286086
0.0116596 0.256412 0.203473
-0.0270603 0.0438951 0.258239
0.00781253 -0.15789 0.520596
0.0105406 -0.275741 0.218603
-0.0145857 0.179818 0.540706
0.0375808 0.196565 0.530377
-0.00278223 0.0572478 0.211402
0.00196516 0.224195 0.0149218
-0.00647082 0.166655 0.300851
0.00455604 -0.471652 0.122499
-0.0139599 -0.297391 0.21499
0.00980382 0.122459 0.468121
0.00750308 -0.124864 0.251339
-0.00836612 -0.26902 0.0202007
-0.0282312 0.0798919 0.216172
-0.00111156 -0.368597 0.33297
0.00293151 0.436639 0.0614307
-0.00600826 -0.101626 0.487759
0.00540288 0.363767 0.272112
-0.007354 0.167206 0.511044
-0.0263491 0.0566754 0.229666
-0.00863762 -0.280974 0.118249
-0.00715601 -0.127361 0.210124
-0.00806056 -0.368702 0.357456
-0.00840971 -0.421545 0.309725
-0.00654187 0.0489021 0.214255
0.00787786 -0.210125 0.347387
0.00960073 -0.244502 0.15979
-0.00285584 -0.467903 0.11175
-0.00368948 -0.227587 0.278436
0.00188141 -0.151127 0.522799
0.0406149 0.27719 0.188842
0.00563426 0.364268 0.362725
-0.00633981 -0.139856 0.131512
0.0112577 -0.327794 0.184466
0.00518796 -0.210304 0.205766
-0.014964 0.160829 0.428918
-0.0133242 0.298078 0.17941
0.0058988 0.0584281 0.229398
0.0289608 0.186069 0.541802
-0.0026058 0.479899 0.228698
-0.00153562 0.326493 0.294732
0.0118673 -0.269953 0.197142
-0.0068722 -0.149853 0.541095
0.0105908 0.312521 0.126648
0.012787 0.151294 0.508079
0.00454619 0.137352 0.237995
-0.00750864 -0.359735 0.229073
0.00939961 0.361228 0.203489
-0.00346638 -0.11891 0.133732
-0.0396181 -0.201003 0.398459
-0.0181524 -0.153179 0.546975
-0.00820697 -0.474206 0.151529
0.00658706 -0.153019 0.0987069
0.00179415 0.285031 0.349295
0.00801052 -0.475424 0.200486
0.00722485 0.111139 0.188083
0.00134348 -0.0157519 0.470939
0.00748423 -0.171441 0.0573055
-0.00678218 0.323472 0.253373
-0.0633752 0.0467339 0.288549
-0.00540725 0.411306 0.333179
-0.00753684 -0.149787 0.538846
0.0135005 0.285648 0.167617
-0.0155294 0.215786 0.525565
0.00942198 -0.342082 0.145436
-0.0218882 0.0790603 0.247168
0.0372625 -0.268418 0.210902
0.00560688 -0.372869 0.243387
0.00619884 0.182038 0.173258
-0.00698007 0.295433 0.187965
-0.0912131 -0.227365 0.504809
0.00309977 0.162517 0.464885
-0.00323261 0.200337 0.515115
0.00637027 -0.265007 0.358166
-0.0172539 0.205132 0.337811
0.00406334 0.261578 0.0209559
-0.024852 0.0463897 0.213711
0.00718584 0.385915 0.195658
-0.0112155 0.287411 0.198988
-0.00693679 0.25779 0.12718
0.0210397 0.0981984 0.200612
0.0449153 0.0528761 0.154692
0.00956332 -0.079665 0.481344
0.00696223 -0.114668 0.214779
-0.000968118 -0.273883 0.0444184
-0.0112401 0.287256 0.164967
0.00822747 0.138806 0.25129
-0.00239824 0.133347 0.222801
0.00351632 -0.18821 0.405823
0.00541444 -0.159477 0.532944
-0.0282301 0.0923986 0.205784
-0.0850854 0.0741529 0.288546
-0.0276028 0.300144 0.190502
-0.00409756 -0.344876 0.0293803
-0.0248518 0.0525201 0.207626
0.0785129 -0.155874 0.536813
-0.0178216 0.191944 0.136171
0.01488 -0.315108 0.192999
-0.0158784 0.264297 0.202385
-0.00113158 -0.46115 0.153855
-0.0811052 -0.183081 0.547257
0.00263231 0.135837 0.159364
-0.00203349 -0.267141 0.31301
0.00741963 -0.192973 0.341105
-0.0160337 0.323218 0.184487
-0.0154635 0.327777 0.16658
-0.00452823 0.352633 0.36513
0.0127775 0.187868 0.542818
0.0407107 -0.293417 0.195295
-0.0232548 0.0454375 0.239735
-0.0066543 0.212578 0.523352
0.0109546 -0.288191 0.179673
-0.031105 -0.213831 0.366454
-0.00599154 -0.154382 0.277337
-0.0282325 0.0797541 0.225212
-0.00635726 -0.365531 0.0367428
0.0239187 0.0402371 0.207564
0.00182772 -0.139053 0.0891012
-0.0214894 0.0906549 0.246153
0.0119897 -0.316914 0.175831
-0.00462684 -0.152142 0.307314
-0.00858955 -0.321406 0.362764
-0.0071161 -0.0120768 0.278024
-0.00170056 -0.360588 0.012847
-0.00694643 -0.211254 0.205982
0.00441965 -0.315825 0.375871
-0.0067859 0.346789 0.242143
-0.00594006 -0.164189 0.291825
0.0156736 0.156089 0.4301
0.0169916 0.11941 0.53124
0.0100746 -0.154188 0.488463
0.0124758 0.156154 0.535193
-0.0145865 0.286798 0.195484
0.00942431 -0.246572 0.186221
0.0740778 -0.150594 0.555256
-0.00621599 0.477822 0.173897
-0.00220842 -0.0709835 0.351795
-0.0027031 -0.195775 0.105702
-0.00208802 -0.141629 0.138661
-0.0282342 0.0340844 0.240281
0.00170853 0.327715 0.373795
0.0100614 0.231077 0.35279
0.0067369 0.116961 0.346861
0.0170095 0.0701004 0.212583
-0.0112046 -0.286513 0.193975
0.0371031 0.271824 0.236743
-0.01083 -0.28947 0.226121
-0.00952343 0.286438 0.19954
0.00133248 0.00160797 0.254379
0.00206135 -0.112441 0.222268
0.000434798 -0.284827 0.0316286
0.0067333 0.292035 0.0202184
0.00331093 -0.399383 0.129855
0.00540702 -0.360713 0.113585
-0.0811769 -0.222784 0.495484
0.0025705 0.145156 0.113266
-0.02325 0.0455564 0.196759
-0.0263423 0.0299277 0.172771
0.00943022 0.136575 0.276026
-0.0062284 -0.0024038 0.278614
0.0170993 0.0429987 0.197124
0.0023576 0.473967 0.253658
-0.0823693 -0.152116 0.555397
0.000705273 0.0365932 0.483797
-0.0125733 0.319158 0.161538
0.00712059 -0.328533 0.256323
-0.0183258 0.298073 0.191943
0.00998838 0.0921655 0.301354
-0.0101171 0.272369 0.192303
0.00238544 -0.469752 0.26468
0.0221366 0.128254 0.195694
-0.0278743 0.0235861 0.173848
-0.0263457 0.0343273 0.203556
-0.0103295 0.0500558 0.22023
-0.0153108 -0.314941 0.200524
0.00891071 0.182568 0.0608247
-0.00809166 0.278289 0.202375
-0.00850574 -0.438943 0.299075
-0.0035202 -0.0711466 0.350902
0.00127257 0.308624 0.0205489
0.000421083 -0.229649 0.0609556
-0.00626011 -0.412133 0.336075
-0.016701 0.143683 0.197848
0.0138576 0.260353 0.200312
-0.00871476 0.331261 0.146774
0.00576927 0.212859 0.522722
-0.00627644 0.162439 0.0816073
0.0105031 0.157927 0.42953
0.002841 0.100825 0.298952
0.00555553 -0.462654 0.274985
-0.00444788 0.282616 0.00338746
-0.00705986 -0.324839 0.10265
0.0023123 -0.258748 0.319387
0.00353658 0.164961 0.490242
0.00174067 0.0980496 0.338996
-0.0379376 -0.236066 0.32076
-0.0215683 0.201342 0.516973
0.00876843 -0.250831 0.166139
0.010076 0.00510205 0.270347
-0.0173867 0.211493 0.133525
-0.00788178 -0.363964 0.360798
0.0024449 0.149471 0.235079
-0.00463001 0.128607 0.203145
-0.0152995 -0.279774 0.186429
0.084334 0.0433681 0.124592
-0.00332526 0.483747 0.195279
-0.0128276 -0.275834 0.216747
0.0072646 0.463151 0.272638
-0.00623304 0.0892654 0.470299
-0.0392717 -0.217404 0.331239
0.00809553 0.154832 0.452494
-0.00875575 -0.46889 0.228213
-0.0114197 -0.191767 0.408241
-0.00897964 0.318323 0.194567
-0.00326569 0.138358 0.404535
-0.00446175 0.177387 0.305973
-0.0176258 0.184742 0.372018
-0.00332073 -0.451776 0.124646
-0.0360754 -0.217616 0.379507
