-0.00388216 -0.18325 0.204186
0.00459927 0.169813 0.0507132
-2.81762e-05 -0.298423 0.185914
0.00855617 0.350056 0.262677
0.0101613 0.121703 0.378874
-0.023291 0.096067 0.245535
0.00727708 -0.116071 0.220582
0.016524 0.0820925 0.205494
-0.00377942 -0.193581 0.162471
-0.00892066 0.273991 0.140863
0.0893027 -0.235891 0.535534
0.00216592 -0.330012 0.074845
0.00690835 0.384215 0.235759
-0.0034051 0.358654 0.0318619
0.00382022 0.378083 0.35811
-0.0323023 0.265081 0.189414
0.00441462 -0.401984 0.177278
-0.00281192 -0.238262 0.0878818
0.0224703 0.187661 0.366571
0.00872095 -0.0666036 0.344026
-0.00680399 -0.31351 0.272989
-0.00377977 0.201537 0.347649
0.00271288 0.44836 0.213584
-0.000237179 0.332383 0.306472
-0.000527753 0.417834 0.153033
-0.00831642 -0.446001 0.291794
-0.00309524 -0.20801 0.0254384
-0.0264555 0.172985 0.535875
0.00384017 0.153728 0.487008
-0.0056283 -0.477022 0.140732
-0.00909042 0.347892 0.183701
0.012 0.299233 0.243266
-0.0441218 -0.244167 0.281024
-0.0407936 0.061388 0.225985
0.00602305 -0.22204 0.127681
-0.00566614 -0.399583 0.216652
-0.00544469 -0.187823 0.434402
0.00207941 0.270072 0.339794
0.00761867 -0.342454 0.144265
0.00129543 0.195139 0.0680773
0.00974039 0.146926 0.0865984
-0.000567735 -0.310046 0.337956
-0.0025116 0.180411 0.173589
-0.0239133 0.161076 0.50713
-0.0043891 0.372784 0.126836
0.0924373 -0.17361 0.553725
-0.00102259 -0.333393 0.0052279
0.0122023 0.336049 0.194247
0.000159979 -0.157728 0.14472
0.00915517 -0.252771 0.225522
0.0349406 -0.229831 0.31
-0.00855178 -0.206865 0.339075
-0.00675147 -0.427209 0.0796962
0.0123634 0.350336 0.183934
-0.00605102 0.245786 0.148177
-0.000422813 0.13088 0.275037
0.0356413 0.27768 0.22405
0.00900013 0.475847 0.141184
-0.0109406 -0.291825 0.154771
0.0191739 0.134682 0.519489
-0.0230738 0.0134215 0.234385
0.00474991 -0.352564 0.286885
0.00946583 -0.245496 0.205856
-0.00356364 0.0336317 0.482041
-0.026455 0.0926717 0.177881
0.00949334 -0.337166 0.212534
0.0100489 0.0313471 0.244345
0.00733838 -0.116586 0.157161
-0.017535 0.206007 0.227961
0.0112966 -0.333028 0.163286
0.00437745 0.31028 0.0532503
-0.0904589 -0.172096 0.541248
0.00766868 -0.353106 0.351954
-0.00410203 -0.081839 0.478235
0.00311502 0.364522 0.0553585
-0.00564993 0.145126 0.430426
0.00106612 0.394596 0.303437
0.0992045 0.0473581 0.123118
0.00871162 -0.263065 0.149816
-0.00769473 0.327822 0.150917
0.0142155 0.217943 0.53273
-0.0367158 0.0596612 0.288941
-0.00898652 0.263504 0.227177
0.00960569 0.114983 0.189307
-0.00630184 0.22406 0.0248517
-0.00383927 -0.478808 0.237723
0.0028095 0.234004 0.305634
-0.00600145 -0.153986 0.307873
-0.033546 0.191796 0.52015
-0.00852465 -0.304787 0.131545
-0.00663715 0.102356 0.326767
0.0108487 0.294154 0.134849
0.0416244 -0.280869 0.202236
0.00116889 0.160104 0.316945
-0.0397019 -0.200145 0.396961
-0.00971013 -0.273616 0.232109
0.00751615 -0.129176 0.262013
-0.00774715 0.321071 0.229784
-0.01044 -0.337902 0.187897
-0.00429847 -0.172913 0.466608
0.00741921 0.470999 0.25523
0.00802685 -0.445364 0.280609
0.00779908 -0.281354 0.369922
0.00252951 0.163692 0.220267
0.0134528 0.275297 0.184636
0.0060034 0.218698 0.357821
0.00165445 -0.0927782 0.374962
0.00584838 0.130543 0.20633
0.025375 0.198132 0.349005
-0.0284846 0.234445 0.289705
0.0087956 0.174254 0.525621
-0.00295655 -0.198429 0.383722
0.00257986 0.335629 0.00383588
0.00183993 0.133063 0.460438
-0.00808067 -0.426623 0.318208
0.00180103 0.424306 0.266477
-0.0235798 0.0795248 0.151523
-0.00120213 0.402854 0.0331089
-0.085353 -0.19418 0.47441
-0.00614996 0.0525686 0.476455
-0.0153826 0.0431552 0.196944
-0.00308608 0.275504 0.0960768
-0.00652035 0.329924 0.35759
-0.00654522 0.451245 0.107262
-0.00675763 -0.0445342 0.308468
-0.000156877 -0.457119 0.177481
0.015112 0.040958 0.201865
-0.00490788 0.0746206 0.237999
-0.00206961 -0.155334 0.203442
-0.0196553 0.122927 0.201693
-0.00844949 0.240552 0.193686
-0.00627779 -0.216594 0.233146
-0.00880614 -0.31468 0.245668
-0.00952711 -0.250902 0.165841
-0.00236205 -0.404045 0.277375
-0.00682767 -0.152787 0.4261
0.084635 -0.148981 0.556812
-0.000702549 -0.180819 0.107293
0.0112598 0.320461 0.239818
-0.0145926 0.298357 0.185884
-0.020254 0.220604 0.313927
-0.00455363 0.250652 0.272871
-0.00791343 -0.256959 0.0120716
-0.00046665 -0.376022 0.0190704
0.00345153 0.23642 0.0315922
-0.00360227 -0.153282 0.528182
-0.0384467 -0.306554 0.186457
0.00320846 0.485009 0.202502
-0.00591443 0.129062 0.118465
0.0891925 -0.198669 0.558392
-0.000750482 -0.0358725 0.317374
0.0443887 0.0565299 0.190243
-0.0127353 0.155612 0.432233
0.00749096 -0.47936 0.177347
0.000951579 0.228544 0.323683
-0.00506412 0.137837 0.408288
0.0083376 -0.25032 0.0206044
-0.0063856 0.345054 0.224976
-0.0317625 0.219913 0.19176
0.0295719 0.301324 0.185479
0.00299495 -0.462449 0.100751
0.000832231 -0.26407 0.338881
0.0077551 0.133972 0.149022
-0.0324344 -0.22697 0.319304
0.00243515 -0.000168711 0.256238
0.0113652 -0.296028 0.219109
0.00163135 0.163621 0.0864245
0.0026717 0.404637 0.0969793
-0.0701485 0.0437631 0.289892
0.00760842 -0.176167 0.326057
-0.00544465 0.316526 0.273025
0.0215769 0.166525 0.50604
-0.0282331 0.0484438 0.234575
-0.00521686 0.381032 0.170257
-0.00860773 -0.122196 0.19164
0.0403252 -0.230767 0.335205
0.00978597 0.233692 0.227974
-0.0276451 0.0735418 0.257043
0.00689147 -0.369048 0.188002
-0.0810967 -0.200756 0.543985
0.00862081 0.121336 0.243326
0.0128685 0.336766 0.165729
0.00990817 0.399169 0.334767
-0.00803043 -0.329666 0.369493
-0.00675898 -0.240526 0.258328
-0.00421561 -0.293762 0.00323131
0.011864 0.243814 0.211097
0.00743308 0.305547 0.0924394
0.00342671 0.118175 0.534161
-0.00276991 0.227227 0.095429
0.00936577 -0.316017 0.147332
0.00970163 0.204204 0.0319179
-0.0078987 -0.264771 0.121879
-0.00865241 -0.222279 0.193654
-0.00212462 -0.350192 0.0340299
0.036864 0.191047 0.530591
0.0344732 -0.218967 0.356139
0.00774819 -0.106398 0.48006
-0.00366812 -0.419466 0.0478525
-0.00223557 -0.150137 0.0734806
-0.00667871 0.160663 0.297179
0.00748113 -0.294995 0.00728157
-0.0058291 -0.360749 0.107618
0.00533433 0.40979 0.0636424
-0.0174709 0.0579211 0.203724
0.00668012 -0.00632018 0.471993
-0.0248939 0.00507169 0.193461
-0.00453282 0.219328 0.172329
0.00115895 -0.285342 0.0573892
-0.00121241 -0.450034 0.223497
0.00831741 -0.161081 0.300584
-0.0367317 -0.261289 0.237682
-0.0134151 0.144208 0.532034
0.0244944 -0.204633 0.409506
0.00339753 -0.0255874 0.28192
-0.00924885 -0.347051 0.238299
0.00054638 -0.428816 0.105702
-0.0125263 -0.312723 0.211335
0.000824398 -0.367711 0.328904
-0.0778236 -0.148389 0.557683
-0.00607857 0.282403 0.261655
0.00122137 -0.224465 0.0466251
-0.00027698 0.19378 0.319738
0.0397256 -0.226733 0.297925
-0.011969 -0.269391 0.204539
0.014231 0.297026 0.163195
0.00838992 -0.295012 0.246546
-0.00519241 -0.380012 0.14622
-0.00564078 -0.0845355 0.345569
0.0103482 0.234505 0.172475
0.00805648 -0.420551 0.318748
0.00776714 -0.230701 0.165454
-0.00847469 -0.430627 0.300141
0.00969639 0.373293 0.204023
0.0016337 0.463068 0.16282
-0.018895 0.219457 0.134132
0.0411012 -0.151533 0.555565
-0.000529825 -0.17299 0.499334
0.0227721 0.141636 0.201146
-0.0248531 0.0902188 0.215204
-0.0176828 0.200406 0.358511
-0.00365397 0.115928 0.511515
0.00340202 -0.187822 0.406863
-0.00685716 0.0396209 0.225161
0.00733636 0.455486 0.242868
-0.0261434 -0.200347 0.411758
-0.00812144 -0.331051 0.262038
0.0911853 -0.218931 0.504342
-0.00763544 -0.0519164 0.320446
0.0274869 0.222015 0.321117
-0.014605 0.27173 0.170882
-0.00645758 -0.136203 0.240281
-0.0667305 0.0766024 0.286005
0.00971183 0.149007 0.291453
0.00579079 -0.325862 0.102583
-0.0184107 0.20545 0.541739
0.0716376 0.0583482 0.12235
-0.00115701 0.301049 0.0201607
-0.00120633 0.196501 0.128395
0.0698829 0.0321936 0.124879
0.0101804 0.242047 0.0186072
0.00595574 -0.146467 0.117317
0.00655007 0.38316 0.0223913
0.0393088 0.265634 0.1886
0.00330575 0.100899 0.299509
0.00334156 -0.120147 0.376084
0.013475 0.303605 0.20914
0.00710606 0.258788 0.370192
-0.0176878 0.299344 0.132449
-0.00569241 0.360728 0.147394
0.0427216 -0.263275 0.232418
0.0355999 0.260558 0.254806
0.00745323 -0.474714 0.144861
0.00761297 -0.398285 0.341231
-0.00540467 0.182437 0.507788
-0.00521234 0.194147 0.543661
-0.00640021 0.422825 0.304878
0.00198258 0.14207 0.174875
0.0106291 -0.314116 0.238212
0.00636463 -0.227678 0.346074
0.000506765 -0.15884 0.0628191
0.0118808 -0.272364 0.191421
0.00262331 0.15997 0.118631
-0.0105894 -0.323187 0.160737
0.00665194 -0.254269 0.256254
0.0125356 0.264027 0.227524
-0.00616423 -0.374668 0.359158
-0.00946984 0.284477 0.233138
0.00517323 0.483767 0.169016
0.00247433 0.354717 0.345203
0.0106347 -0.122516 0.394539
0.00935371 0.313922 0.121894
-0.0145814 0.319937 0.200332
-0.0463007 -0.208473 0.375299
-0.00106563 -0.19848 0.305111
0.00905446 0.21417 0.214435
-0.0426206 0.0553672 0.257744
0.0062625 0.4555 0.132789
0.000571523 -0.449231 0.24109
0.0103716 0.162829 0.42952
0.000775778 -0.313208 0.37766
-0.0282247 0.0527889 0.170527
-0.00665256 -0.132732 0.145973
0.00782834 -0.189583 0.0455821
0.00774459 -0.429041 0.0662421
0.0102142 0.30508 0.0103999
-0.0987975 0.0440215 0.288274
0.00307609 0.0128699 0.243493
0.0658221 -0.158239 0.537588
0.00917569 0.455884 0.281526
-0.00712558 -0.237435 0.137616
-0.0205154 0.173734 0.233748
-0.00674152 0.469005 0.222445
-0.00645654 0.259366 0.0143677
0.0148813 -0.312538 0.18578
0.00151333 0.110823 0.163473
-0.000968403 0.159421 0.457649
-0.0060788 0.399554 0.339622
-0.0154423 0.297034 0.160193
0.00243199 0.156722 0.063166
0.0267258 0.162878 0.527669
0.000306125 -0.330453 0.0427691
-0.00102453 0.239544 0.345081
0.0127662 0.335135 0.219562
0.00798186 -0.154448 0.0947525
-0.00621901 0.279591 0.199568
0.00923401 0.0588668 0.219944
-0.00878007 -0.455261 0.268784
-0.000974136 0.118415 0.347487
0.00381475 -0.191883 0.248178
0.00954668 0.314922 0.36869
-0.00840987 -0.144489 0.271319
-0.000629636 -0.0572871 0.490002
0.00855934 0.218029 0.148203
-0.0864118 -0.213742 0.526547
0.00487659 0.112267 0.217444
-0.0352824 0.295422 0.183653
0.00698316 0.350328 0.0929675
0.00201321 -0.430558 0.168644
0.0101981 -0.17108 0.434006
-0.00793251 0.0697899 0.199241
0.0141424 0.273853 0.160044
-0.0594076 -0.158777 0.538106
0.00521276 -0.394827 0.0314789
-0.0260818 0.195028 0.543324
0.0112723 -0.287055 0.146494
0.00701094 0.325462 0.0223763
0.00795658 -0.281133 0.131894
0.0101367 0.337211 0.135099
-0.00682617 -0.360485 0.147316
-0.000550668 0.461892 0.0967986
-0.000434065 -0.432486 0.120162
-0.00742138 -0.282977 0.110337
-0.00644023 -0.123442 0.487667
-0.00639199 -0.296629 0.358215
0.006518 -0.255205 0.107578
0.00513211 -0.208124 0.196802
0.00774695 -0.444323 0.0847632
0.0385795 -0.303121 0.182924
-0.0144733 -0.282888 0.172489
-0.00445081 0.20222 0.0488116
0.0088475 -0.349082 0.193062
-0.00399199 -0.26647 0.374679
0.0108796 0.273113 0.127048
-0.0160047 0.166464 0.414814
0.0373772 -0.234903 0.284542
-0.00466189 0.448543 0.265843
-0.00629168 0.294344 0.00905719
0.00522514 0.0927793 0.464164
0.0080212 0.362671 0.014731
0.00815874 -0.437076 0.295534
0.00369737 -0.392826 0.26544
0.0240306 0.0610975 0.191149
0.00568302 0.371314 0.282152
0.00808069 -0.46373 0.126508
0.000556182 -0.39885 0.070726
-0.00705435 -0.350283 0.115835
0.0181435 0.103401 0.519602
-0.00537589 0.367185 0.21971
0.00749478 -0.206574 0.348866
0.0103717 0.13447 0.122041
-0.0292398 0.20161 0.192012
0.00949278 -0.154104 0.546914
0.00529416 0.144801 0.2574
-0.00892898 -0.363653 0.175028
-0.0110074 0.323427 0.173797
0.00625966 -0.320113 0.0215391
0.00303658 -0.206034 0.415066
-0.0133807 0.210828 0.522647
0.00755514 -0.369962 0.357277
0.00463973 -0.229964 0.0163157
0.00932276 0.0707584 0.250948
0.0540188 0.0323759 0.127416
-0.00722065 -0.371778 0.215547
0.00682699 0.288268 0.280083
0.00832106 -0.333977 0.362542
0.00927274 0.432306 0.312954
-0.00845034 -0.476697 0.191704
-0.00666314 0.145233 0.0996958
0.00463559 -0.111335 0.178425
-0.0160151 0.302475 0.212502
-0.000441422 0.474813 0.126247
0.0460875 -0.233553 0.318523
0.00786774 -0.351522 0.0185844
-0.0282064 0.248181 0.266609
0.00219597 0.38873 0.0469933
0.00347351 0.353046 0.367873
0.00811754 -0.338061 0.24901
0.0180826 0.183094 0.542099
-0.00902325 -0.259623 0.147663
0.00254962 -0.367724 0.304764
-0.00753684 0.174732 0.521716
-0.00339874 0.379615 0.0418254
-0.0232468 0.039533 0.171806
-0.00324374 0.00883573 0.484095
-0.0282303 0.0348673 0.212565
-0.00475179 0.130082 0.38656
0.00817083 -0.150132 0.282548
0.00123495 -0.130605 0.174598
-0.00506147 0.1405 0.473068
0.00503139 0.0300822 0.468496
-0.0282332 0.0683377 0.233011
0.00152182 0.286962 0.355258
0.0366236 0.0543565 0.166938
0.0118482 -0.291765 0.167938
0.00103476 0.32935 0.328886
0.00873759 0.262946 0.260407
0.00343545 -0.310789 0.296796
0.0126719 0.318991 0.15384
0.00647867 -0.377169 0.216087
-0.0350568 -0.237971 0.306337
0.00747488 0.113394 0.476084
0.00112912 -0.422594 0.228315
-0.00838832 0.345121 0.201635
0.00635234 -0.185251 0.460816
0.00841378 0.242761 0.112021
0.0874053 -0.210984 0.531121
0.0215292 0.104807 0.201603
0.00813595 0.220687 0.0363124
-0.00198031 -0.0210714 0.487107
-0.00832828 -0.475317 0.162785
-0.0345419 -0.216358 0.339951
-0.0100582 -0.329137 0.220826
-0.00672155 -0.129577 0.221208
-0.00640191 -0.201771 0.0515806
-0.0151279 0.258512 0.201588
-0.0153097 -0.31268 0.185333
-0.00652979 0.175613 0.05957
0.00684831 -0.167839 0.51777
-0.00544394 0.422068 0.0525745
0.0078504 -0.125995 0.134377
-0.00777695 -0.235888 0.216152
-0.00709681 -0.269754 0.270405
-0.0206292 0.148825 0.20063
-0.027865 0.0312893 0.251082
0.003955 -0.371894 0.0398152
-0.00654264 0.121264 0.375848
-0.0145757 0.0988575 0.197241
0.0106817 -0.251819 0.168889
-0.00298588 0.187999 0.218004
0.0087234 -0.137768 0.414908
0.00999138 0.0663033 0.472747
0.00748724 0.301757 0.185404
0.000213008 0.166895 0.476821
-0.00474935 0.37761 0.338234
-0.00297224 -0.178223 0.307958
-0.00398173 0.399242 0.32067
-0.0052006 0.335993 0.249051
-0.00590629 0.0836505 0.284334
-0.00101002 0.0205629 0.261064
0.00889118 -0.272644 0.239441
-0.000109267 0.40557 0.251309
-0.00165221 -0.106483 0.363173
-0.0213504 0.145994 0.142199
0.00823896 -0.460379 0.258518
-0.00830077 -0.361396 0.200134
0.00517391 -0.464992 0.196349
0.0108765 -0.0553127 0.32228
-0.00604659 0.303443 0.358656
-0.0086131 -0.462468 0.123862
-0.00776667 0.240561 0.211411
0.00649358 0.130489 0.421475
-0.00851056 -0.243819 0.0246329
-0.00665445 0.126567 0.226923
-0.00660645 0.254145 0.356093
-0.0248486 0.0670156 0.182517
-0.0903007 -0.215584 0.478168
0.00556717 0.008827 0.272366
-0.0361772 -0.255434 0.25869
-0.00706371 -0.0081025 0.273789
-0.00101154 0.429922 0.200652
-0.00817862 -0.184033 0.330636
-0.0279416 -0.152029 0.537528
0.040415 -0.215804 0.331752
-0.0341316 0.241047 0.190155
-0.00861029 -0.279716 0.0138528
-0.00146034 0.129486 0.191006
9.86372e-05 -0.178421 0.086721
0.00868585 0.434344 0.290083
0.0163387 0.150715 0.447034
-0.00171464 -0.16505 0.481898
-0.00430953 0.424395 0.0784831
0.00360405 -0.201985 0.114928
-0.0153037 -0.292246 0.205999
-0.00575955 0.312154 0.104851
0.00797619 -0.12583 0.197408
-0.0090901 -0.244256 0.185354
-0.012404 0.149786 0.446353
-0.00821662 -0.145428 0.0938725
-0.00639549 -0.0234836 0.299374
-0.028228 0.0250414 0.193522
-0.00810133 -0.382903 0.0420469
-0.0118584 -0.297395 0.233145
-0.000745312 0.284212 0.323213
-0.00354858 0.0533499 0.190378
0.00434103 -0.233195 0.272037
-0.00503941 0.371696 0.189962
0.000738533 -0.116954 0.242987
0.00102384 0.157056 0.174249
0.0333613 0.20662 0.516832
0.0919415 0.0673623 0.122885
-0.00469983 0.466866 0.206651
0.00297017 0.161887 0.505741
-0.0363282 0.0527129 0.207046
-0.00476435 0.0744402 0.265724
-0.00578595 0.114052 0.466892
0.00934351 0.419686 0.324191
-0.00299186 0.267298 0.0784111
0.00248583 0.214111 0.0705763
0.0111743 -0.0876255 0.356941
0.0168615 0.285735 0.19699
-0.0287242 -0.209542 0.389038
-0.0411386 -0.23174 0.336722
-0.00394233 -0.371759 0.0906276
-0.0041116 0.452455 0.0861017
0.00451964 0.390175 0.117074
-0.000414028 -0.456832 0.160697
-0.00282033 -0.265111 0.31682
-0.0234833 0.014294 0.213121
0.00830829 -0.252565 0.360015
-0.00185367 0.312615 0.0747475
0.0100861 0.188436 0.0542358
0.0272917 0.168275 0.198657
-0.00868914 -0.3414 0.0190117
0.0120578 0.257802 0.180241
0.0371427 0.0517861 0.206323
0.0065981 0.108137 0.361124
0.00801201 -0.212332 0.391234
-0.00663688 -0.264152 0.0233538
0.0337387 0.178069 0.516915
0.00934909 0.46482 0.112514
0.00424665 0.480082 0.232513
0.0199195 -0.293584 0.192271
-0.00643476 0.46945 0.182653
0.00047519 0.180023 0.114906
0.0910304 -0.221731 0.483328
0.0100841 0.16515 0.300904
-0.00354501 -0.27296 0.355913
0.00741906 0.391001 0.158691
0.000119417 0.141642 0.238663
0.00774953 0.124146 0.40084
-0.0539563 0.0550039 0.290578
0.0122492 -0.273931 0.169749
-0.00522686 0.284277 0.116542
-0.0189551 0.0667703 0.216501
-0.0248511 0.0776088 0.200649
0.00447528 -0.457968 0.285445
0.0324882 -0.210019 0.389302
-0.0125118 -0.267077 0.180563
-0.000949673 -0.425096 0.280645
-0.0392901 -0.28501 0.191924
0.00184425 0.439689 0.154686
0.00781008 -0.27042 0.0117877
0.00999623 0.467985 0.220369
-0.00661622 0.345005 0.0178523
0.00881556 0.0857662 0.294673
0.00161507 -0.0732322 0.328818
0.0110373 0.260352 0.154475
-0.0263495 0.0327751 0.231303
-0.0175494 0.212035 0.333818
0.00306557 0.172014 0.490374
0.00878783 0.133757 0.102658
0.0389948 -0.26033 0.210093
-0.0100643 0.324788 0.216919
-0.00934662 -0.249389 0.238341
0.0222633 0.1799 0.386906
0.0230983 0.0542332 0.221043
-0.00366855 -0.282674 0.0808534
-0.00698865 0.289903 0.175852
0.011104 0.358392 0.16264
0.00041366 -0.2248 0.0717494
0.00107416 -0.206835 0.320976
0.00491587 0.363833 0.0759164
0.00899641 0.323949 0.258432
-0.0915049 -0.185199 0.548859
0.011225 -0.312736 0.201094
-0.0160319 0.280035 0.189878
0.0095469 0.216093 0.338234
0.0398954 -0.206506 0.401467
-0.0835999 -0.156732 0.538427
-0.0044563 0.149192 0.267825
-0.0032503 0.111825 0.204817
-0.00648082 0.467533 0.244367
0.00389441 0.236952 0.366071
-0.087286 -0.20975 0.549233
0.0892573 -0.18505 0.541316
0.00592319 -0.457615 0.139139
0.0281151 -0.194131 0.397479
0.0100652 0.340779 0.357304
-0.0106502 -0.20369 0.398753
-0.0164474 0.31108 0.165703
-0.006494 0.215605 0.347111
-0.00425939 -0.0376727 0.486328
0.0108808 0.153003 0.534685
-0.00842757 -0.416009 0.0651045
0.00179691 -0.161046 0.442992
-0.00575897 0.255 0.246331
0.00993773 -0.352638 0.173339
-0.00947455 0.282961 0.215692
-0.00228852 0.118046 0.135891
0.0100185 0.097624 0.315699
-0.00891358 -0.278385 0.13812
-0.00540932 -0.111968 0.20783
-0.00413902 0.0744662 0.46734
-0.00735299 -0.174653 0.445112
-0.0136922 -0.309618 0.166193
-0.00516004 0.113476 0.176208
0.00314099 -0.0584189 0.474176
0.000494342 0.42716 0.0964499
0.00999634 0.173598 0.0691743
0.0124564 0.188734 0.509563
-0.00790803 -0.44665 0.0834142
0.00983826 0.0686119 0.231853
-0.0045142 0.31805 0.00424394
0.0102069 0.17919 0.319376
0.00704203 -0.383074 0.174692
-0.00764152 0.252139 0.170468
-0.0245481 0.0552312 0.249641
-0.00187747 -0.300176 0.022621
-0.00201448 -0.346476 0.371691
-0.0828269 0.0646664 0.287307
0.00990611 0.444163 0.0986508
0.012865 -0.326954 0.18287
-0.00447695 0.131021 0.161395
0.00188296 0.0477044 0.235035
0.00892094 -0.190558 0.432282
-0.00466608 0.135884 0.135579
-0.00665868 0.270368 0.363871
-0.00746596 -0.367552 0.23755
0.0118881 -0.272144 0.219698
-0.00749243 0.302062 0.240569
-0.0112222 0.312695 0.187588
0.00679454 -0.225129 0.206564
0.0102026 -0.0190488 0.29374
-0.0063756 0.362877 0.356006
-0.0233632 0.0143861 0.175092
-0.00781602 -0.221232 0.176211
-0.00847496 -0.129657 0.131016
0.0796641 -0.161361 0.543254
0.00801769 -0.295529 0.36871
0.0102696 0.405026 0.0476861
0.0266044 0.207911 0.332295
-0.0196795 0.196058 0.136589
0.00140093 0.321495 0.040503
0.00273467 -0.168746 0.158842
0.0558676 0.0674847 0.124482
-0.00735892 -0.390055 0.34954
-0.00278796 -0.0201972 0.472606
-0.00668607 0.317384 0.133477
-0.00175797 0.0697586 0.217372
-0.00660833 0.465526 0.142027
0.00936783 -0.333155 0.229606
0.00815127 -0.411222 0.0575526
0.004959 -0.345874 0.267164
-0.00587144 0.37052 0.0205522
0.00936625 0.150514 0.464789
0.00631586 0.255329 0.0061628
-0.0410799 -0.269927 0.218831
-0.0327378 -0.211249 0.359153
0.0408751 -0.249914 0.278704
0.00669355 -0.210479 0.162929
-0.00849173 -0.467288 0.222048
0.00809958 -0.466408 0.244794
-0.0137289 0.192063 0.372877
0.01303 0.311638 0.194404
0.00905992 0.0191602 0.481085
0.00802302 0.259817 0.0231902
0.015584 0.0973927 0.531477
-0.00802488 -0.192989 0.414663
-0.0042939 -0.150591 0.548923
0.00609969 0.115352 0.145728
-0.00839939 -0.399981 0.0519597
-0.0205618 -0.29642 0.194253
-0.00806941 -0.146268 0.290025
0.00827419 0.344006 0.0239767
-0.0584837 -0.150289 0.554968
0.00641458 -0.300538 0.266529
0.00928386 0.192105 0.33871
-0.0201797 -0.16028 0.540542
-0.0146551 0.286077 0.153578
0.00974844 0.0670515 0.20402
0.0106712 0.241774 0.148407
0.000353242 -0.324816 0.348619
-0.0279756 0.0633334 0.158614
0.00188119 0.187256 0.035754
0.0381873 0.288311 0.207946
0.00723271 0.140199 0.508273
-0.00452175 0.462189 0.273228
0.0416819 -0.217867 0.374738
-0.027723 0.103811 0.227007
-0.0108917 -0.258818 0.220738
-0.0148816 0.115903 0.529848
0.00980201 -0.154648 0.416281
-0.00645091 0.0510424 0.211666
-0.0053531 -0.313576 0.35697
0.00099635 -0.0709255 0.352948
0.010623 0.0571535 0.202045
0.00649377 0.323878 0.291156
0.00861752 -0.161434 0.503622
-0.00680595 0.230143 0.156697
0.00824948 -0.219606 0.0334169
-0.0187604 0.0564447 0.190247
0.0115236 0.281408 0.235301
0.0143833 0.316115 0.215509
-0.00845458 -0.296676 0.255305
0.00889412 -0.168052 0.48853
0.0107067 0.24427 0.192132
-0.0117016 -0.32453 0.20212
0.00131167 0.142264 0.221537
0.0101262 0.124847 0.169826
0.00690434 0.137355 0.532842
0.00961086 0.34956 0.243879
-0.0977381 0.0601495 0.289517
-0.0187589 0.305165 0.169126
0.0102053 0.370868 0.173855
0.0234409 0.122565 0.197876
0.00777385 -0.443417 0.101087
-0.00200065 -0.407349 0.316762
0.00959492 0.108706 0.336946
-0.00661902 0.27509 0.013984
0.0168696 0.311836 0.176876
-0.0114224 -0.282763 0.192318
-0.00742253 -0.117718 0.388046
0.00228909 -0.336209 0.0607086
-0.00602464 0.172579 0.305198
-0.00535503 -0.0951484 0.489248
-0.00554886 -0.357456 0.0136499
6.87446e-05 -0.384334 0.32444
-0.000319534 -0.417831 0.292437
-0.0316437 0.209174 0.532298
0.00941564 0.427469 0.0585387
0.0499256 -0.149895 0.540526
0.0295425 0.224943 0.304959
-0.00322622 -0.439632 0.0679427
-0.00417838 -0.166278 0.513216
0.00785096 -0.401307 0.326542
-0.00945113 0.29099 0.146202
-0.010476 -0.339221 0.15172
-0.00457854 -0.446787 0.113873
0.087581 -0.227933 0.518838
-0.00483601 0.22168 0.243371
0.00818895 -0.315898 0.363832
0.0104726 0.0418091 0.223428
0.0870598 0.0498365 0.125195
-0.000430541 -0.137403 0.479922
0.00813612 0.447437 0.265682
0.0127852 -0.313236 0.165246
-0.0211633 0.15533 0.234722
-0.0133264 0.292583 0.198187
0.00867987 -0.245923 0.141751
0.0148892 -0.284703 0.202292
0.09469 -0.208526 0.542833
-0.000866094 0.102928 0.350099
-0.0081602 0.26232 0.155918
0.0300343 0.210628 0.538513
-0.00620086 -0.194734 0.0356936
0.00801735 -0.237983 0.183142
0.00783447 0.279715 0.372567
-0.000689853 -0.143135 0.155568
0.0126792 0.289229 0.181435
0.00302512 -0.309734 0.00294502
0.0590737 -0.149 0.555685
0.0100382 0.319554 0.0104743
0.0152223 0.118849 0.510887
0.0105802 -0.299974 0.138862
0.0376251 -0.256088 0.246954
-0.00684572 0.23521 0.226301
0.00841976 0.221089 0.184942
-0.0119728 -0.256149 0.198754
0.0098192 0.381914 0.338061
-0.00617662 0.206561 0.0328825
0.00779264 -0.292778 0.110508
-0.00484976 -0.377855 0.255379
0.00259572 0.308362 0.0330327
-0.0145991 0.126225 0.521564
-0.00626936 -0.171032 0.300215
-0.0271912 0.106707 0.19686
0.00963301 0.297977 0.36878
-0.00738026 -0.311055 0.11467
-0.00575959 -0.0610311 0.337668
-0.00859361 -0.133641 0.257552
0.00987996 -0.0886014 0.483153
0.0300726 0.252488 0.267607
0.0449488 -0.240041 0.298639
-0.00395605 0.361284 0.268958
-0.00506704 0.159896 0.536158
0.00290309 -0.394866 0.134432
-0.00600455 0.18413 0.331425
-0.00735446 0.197772 0.513705
0.00774158 -0.17372 0.0579613
0.0100958 0.127757 0.132736
0.0443409 -0.20548 0.362502
0.00817729 -0.195448 0.335515
-0.0159316 0.0534027 0.220881
0.00735469 -0.124226 0.480912
-0.00164633 -0.155321 0.262449
0.00212306 0.212163 0.322386
-0.022054 0.159515 0.524273
0.00888064 0.132606 0.47333
0.00813189 -0.130654 0.237848
0.0111991 -0.0378264 0.307202
-0.0282336 0.0854535 0.233576
-0.0112422 -0.304572 0.199861
0.0159426 0.162968 0.415494
-0.0886263 -0.162498 0.558046
-0.0151984 0.270775 0.127932
0.00417425 0.239072 0.292278
-0.0033018 0.0404689 0.208236
-0.000160909 0.0836794 0.253544
-0.0114236 -0.287003 0.220061
-0.00317473 0.203343 0.179766
-0.0276325 0.0455094 0.156273
0.00151061 -0.214438 0.303507
-0.0171482 0.142817 0.51489
-0.000820423 0.210703 0.0835416
0.0229239 0.150824 0.516783
0.09298 0.0322868 0.126305
-0.0066354 0.401185 0.0470292
0.0589744 0.049194 0.127135
0.00760772 -0.475283 0.226091
0.00944293 0.12975 0.261764
-0.0045027 0.204276 0.209396
-0.0150043 0.309985 0.226795
0.004929 -0.142032 0.0873361
-0.00531536 0.227524 0.358731
-0.000380301 0.22904 0.0132604
0.0283699 0.20513 0.191182
-0.000489563 -0.137694 0.201075
0.00572212 -0.103234 0.383926
-0.00649772 0.47409 0.160491
0.00807926 -0.16701 0.076546
-0.0124449 0.264703 0.186096
-0.0282319 0.0714015 0.221421
-0.0508144 0.0707028 0.288159
-0.00619158 0.274121 0.246181
0.00802227 -0.26561 0.360165
-0.0877934 -0.224514 0.540008
0.0019148 -0.239102 0.0330834
-0.0449139 0.0592334 0.274904
-0.00270176 -0.289311 0.377751
0.00606127 -0.46413 0.218868
-0.00857531 -0.182615 0.0549755
-0.00439874 0.145991 0.115202
-0.00815038 -0.121271 0.151065
0.00813966 -0.236531 0.357234
0.00013137 0.211132 0.539796
-0.00657471 -0.34361 0.353076
-0.0656486 0.0627005 0.28934
-0.0448056 -0.154595 0.536752
0.011546 -0.255436 0.191272
-0.0132056 -0.325192 0.176747
0.00741403 -0.344368 0.122779
-0.0106402 -0.267942 0.165194
0.010979 0.313493 0.140245
-0.00175952 -0.439716 0.17836
-0.00747656 -0.0912534 0.361405
0.00719781 0.288711 0.00204858
-0.0157175 0.312783 0.151863
0.00111038 -0.225177 0.363756
-0.00678953 0.413145 0.322224
0.0088743 0.354092 0.136894
0.00251164 -0.190825 0.319685
0.00760009 -0.207753 0.0443174
0.00636642 -0.371243 0.155011
0.00432576 0.144473 0.41735
-0.00683023 0.349361 0.357018
-0.00664613 0.136663 0.257241
-0.00854236 -0.257629 0.359529
0.00673641 -0.338054 0.0240472
0.00700732 -0.135786 0.101322
0.0073218 0.449689 0.118241
0.0115328 0.35661 0.203761
0.0173565 0.199709 0.542969
0.00167283 0.392454 0.350457
0.00207487 -0.141592 0.252238
0.00967083 0.282178 0.256118
0.00152484 0.062598 0.243589
0.00929522 0.44217 0.300625
0.0135606 0.266465 0.197187
-0.00463656 0.171775 0.0734806
-0.00443272 0.157433 0.280864
0.0137385 0.295695 0.227059
-0.00664894 0.294555 0.129549
0.0230182 -0.156971 0.546949
0.00988341 0.394006 0.0359636
0.00783385 -0.376337 0.342019
0.0124485 0.277984 0.218561
-0.00876533 -0.46517 0.244916
-0.00140651 -0.178701 0.481867
-0.0238928 0.0791008 0.175011
1.22409e-05 -0.143101 0.218004
-0.00426472 -0.416704 0.174563
-0.00837973 -0.27755 0.368106
-0.00655913 -0.458436 0.138861
0.0111529 -0.100867 0.369102
0.00699754 -0.271783 0.255794
0.00791901 -0.468805 0.169503
0.0240551 0.0493766 0.205441
0.00789781 0.27121 0.107509
-0.00777987 -0.115848 0.163532
0.0133842 0.326062 0.203573
0.0102353 0.245958 0.356739
-0.0217417 0.200446 0.343912
0.00266044 0.483041 0.218728
0.000937456 -0.27003 0.0349948
-4.52087e-05 0.459561 0.230039
0.0182885 0.117031 0.527599
-0.00297627 -0.183278 0.260385
-0.00432173 -0.130835 0.2749
-0.00688564 0.277894 0.179194
0.00367686 0.464599 0.195138
-0.00464216 0.379536 0.231896
-0.00655883 0.459768 0.125984
-0.00291158 0.401849 0.159253
0.00285002 -0.137899 0.139056
0.00933478 0.29133 0.0168077
-0.0232496 0.0239645 0.202308
-0.00923064 0.15374 0.507797
0.00250768 0.152553 0.437663
-0.00949174 -0.263106 0.246914
-0.0842566 -0.21503 0.491833
0.0888269 -0.223243 0.545587
-0.0054846 0.247382 0.0110648
-0.00593359 0.452658 0.286168
0.0240551 0.0682718 0.205969
0.00318195 0.438128 0.277777
0.0882708 -0.154579 0.540759
0.0255391 0.196428 0.512635
-0.00446832 0.347209 0.103976
-0.00810935 -0.170007 0.318566
-0.00159215 0.200737 0.259728
0.00825342 0.369554 0.0335618
0.00873576 0.129718 0.222071
0.0333335 0.267346 0.241768
-0.0393813 0.0620565 0.241409
0.00599725 -0.2795 0.0228964
0.00988397 -0.290129 0.231385
-0.00867887 -0.471474 0.206819
-0.00660512 0.115154 0.361487
0.00655789 -0.426192 0.302729
-0.00486375 -0.360527 0.3454
0.00110473 -0.10921 0.191508
-0.00483128 -0.223834 0.340935
-0.00436062 0.249014 0.0270522
-0.00552731 0.223975 0.141462
-0.00802283 0.307992 0.203039
0.00243711 -0.13584 0.391374
-0.0067784 -0.364566 0.033177
0.0106342 0.298916 0.116841
-0.00885469 0.333026 0.178123
-0.00797783 0.100611 0.535474
-0.0118746 -0.313476 0.150379
0.00703554 -0.406261 0.0416536
0.00924924 0.223094 0.200649
-0.00763379 -0.237304 0.15345
0.00537044 -0.438819 0.310783
-0.0146062 0.282524 0.16798
-0.00499213 -0.220551 0.134513
0.00613051 -0.172443 0.452707
-0.00855612 -0.451761 0.101159
-0.00671893 -0.217967 0.0392354
-4.87845e-05 -0.248534 0.341228
-0.0766551 0.0536801 0.292214
-0.00718222 0.362734 0.162905
0.0107673 -0.299218 0.201193
0.0500229 -0.217319 0.353963
0.00204358 0.1643 0.102058
0.0152315 0.32399 0.185208
-0.00636471 0.328126 0.0178696
-0.00013686 -0.124323 0.405705
-0.0072833 0.0329083 0.238766
-0.00602205 0.156269 0.0746562
-0.00332469 0.102815 0.477443
0.00233287 0.379173 0.302642
-0.0686087 -0.15022 0.540115
-0.00432684 0.0867848 0.30014
0.00263193 0.214857 0.0188639
0.0120678 -0.315457 0.222869
-0.00670454 -0.328483 0.0225422
0.00884393 0.386293 0.195701
-0.00827662 0.179427 0.540542
-0.035805 -0.219459 0.372621
-0.00806455 -0.305914 0.00868414
0.00156042 -0.153558 0.513708
-0.00697337 0.300115 0.196738
-0.0117908 -0.313766 0.230629
-0.0107926 -0.348431 0.174295
0.000383998 0.220487 0.309631
-0.00671822 -0.240295 0.35091
0.00978035 0.332369 0.116146
0.0135748 -0.206663 0.402395
-0.00400685 0.389562 0.20328
0.0071847 -0.286463 0.259993
-0.00313468 0.314874 0.0211074
-0.00579597 -0.202072 0.205565
-0.00652624 -0.437032 0.095049
0.00199514 0.143482 0.159966
-0.0176052 0.174568 0.402366
0.00115517 -0.251525 0.37251
-0.0245709 0.203776 0.51759
-0.0160208 0.272446 0.20686
-0.0248484 0.0300521 0.183637
0.0082903 -0.456559 0.114646
0.00898941 0.245235 0.237741
0.0112597 -0.331599 0.198579
-0.000682317 0.123735 0.47733
0.0118036 0.2821 0.148211
-0.00440088 -0.158655 0.494644
-0.00768931 -0.127115 0.20574
-0.0263482 0.0207644 0.222537
-0.00784481 -0.222085 0.0230547
0.00678021 -0.267202 0.123985
0.00224291 -0.115462 0.143002
-0.00776569 -0.346942 0.139242
0.00768291 0.155128 0.276567
-0.00615943 0.304545 0.170737
0.0035457 0.121021 0.122446
0.00475071 0.413477 0.308373
0.00175954 0.154676 0.232572
-0.00685059 -0.249046 0.110264
0.00856029 -0.183037 0.442806
0.0109831 -0.18965 0.419229
0.000662958 0.37862 0.0596051
0.00459066 -0.191404 0.0600376
-0.0166618 0.285816 0.126006
0.00665848 0.172885 0.511619
0.000753359 -0.0782444 0.491839
0.0066849 -0.369655 0.203245
-0.00660225 0.126428 0.150006
-0.00308471 0.393782 0.243549
-0.00692554 -0.0140352 0.287403
0.0043857 -0.132164 0.16244
-0.00688622 0.335963 0.138528
0.00787839 -0.229212 0.192018
-0.00420834 0.434176 0.314114
-0.00942131 -0.354508 0.225522
-0.00863442 0.29603 0.21427
0.00782103 -0.0812644 0.340396
-0.0187156 0.288717 0.186256
-0.00617659 0.270191 0.112172
-0.0263511 0.0687278 0.243306
-0.0187629 0.28998 0.176993
0.00958783 0.460293 0.267343
-0.0160528 0.303802 0.159225
0.00118242 0.482025 0.152044
0.0053134 0.0449015 0.482548
0.00422077 -0.459743 0.233122
0.00839699 0.209931 0.173539
-0.00458815 0.189701 0.0568689
-0.0450831 -0.232526 0.324282
0.0190662 -0.193064 0.408966
0.0100901 0.158862 0.47696
-0.0205145 0.0447364 0.210763
-0.00345859 -0.169691 0.208932
0.0052615 -0.447658 0.26446
0.00533924 -0.22443 0.237415
0.00127567 0.0941689 0.280623
0.0157554 -0.156299 0.536954
0.0111028 0.0141262 0.255955
0.00207478 0.125464 0.364558
-0.00122487 -0.134414 0.495234
-0.00122682 -0.16035 0.54036
0.00975227 0.276046 0.357889
-0.0044548 -0.322658 0.0927313
0.00727636 -0.323929 0.252419
-0.00602898 -0.453396 0.252255
0.00181096 0.444815 0.140447
0.00434295 -0.210052 0.333233
0.0772218 0.0437265 0.129675
0.0154326 0.283038 0.169133
-0.00287205 -0.00553015 0.485471
-0.0282282 0.0394561 0.19685
-0.0890399 -0.194763 0.556642
-0.00165195 -0.18848 0.343423
0.00767342 -0.136337 0.274508
0.00776752 -0.23434 0.150262
-0.000269975 -0.474132 0.12518
0.000245379 0.401127 0.11054
0.00348595 0.150344 0.106576
-0.0330647 0.257109 0.257647
0.00169551 0.410744 0.338237
-0.0112878 -0.303801 0.178904
0.00273731 0.325437 0.374101
0.010956 0.0566912 0.190295
0.00704256 0.371726 0.135344
0.00772003 0.482986 0.183054
0.00812164 -0.351202 0.214806
0.032042 0.181205 0.539716
-0.00198985 -0.159157 0.278305
0.0935586 -0.209219 0.482615
0.00954363 -0.0660068 0.485277
-0.0320267 -0.209447 0.402573
0.00489929 -0.161495 0.527332
0.0401537 0.279725 0.18992
-0.00638255 -0.436965 0.283329
0.00814005 0.292826 0.266741
-0.0180105 0.192104 0.230598
-0.014781 0.334084 0.196175
-0.00634391 -0.378517 0.174083
-0.00247166 -0.416506 0.117577
-0.00473186 -0.420577 0.330557
0.00769298 -0.477844 0.201648
-0.0253714 0.300103 0.190611
0.00825775 -0.133528 0.122481
-0.00529763 -0.385522 0.21789
-0.03661 -0.158098 0.546623
-0.0282312 0.0472226 0.219589
0.0076839 0.317725 0.277979
-0.00602375 0.479979 0.193138
0.0432616 -0.159868 0.544461
-0.0174734 0.29812 0.149732
0.00974444 0.117195 0.204514
0.0952044 -0.219425 0.524833
0.00823273 -0.231097 0.219138
-0.00160213 0.277473 0.00197917
-0.00316833 0.210208 0.141753
0.00272484 0.183251 0.285437
0.00598611 -0.288834 0.358286
0.00201895 0.172771 0.537725
0.00219893 0.434105 0.256556
-0.0282294 0.0647501 0.203756
0.00979366 0.406015 0.321532
-0.0131926 -0.150836 0.538965
-0.00648841 0.156791 0.474574
-0.004526 0.212478 0.333695
0.00793758 -0.127323 0.212445
-0.0118185 -0.297591 0.168853
-0.00616042 0.311813 0.173801
-0.0107557 0.293161 0.222389
0.00534351 -0.416955 0.0725653
0.00954563 0.243227 0.125806
0.00994479 0.23235 0.354257
-0.00826468 -0.477436 0.177896
0.00720907 0.24528 0.277709
-0.0263455 0.0500739 0.2021
0.0050075 0.169355 0.169525
-0.00517008 0.292604 0.270837
-0.00597874 -0.3405 0.273522
-0.00586179 0.259433 0.262388
-0.0282291 0.0892183 0.198141
0.00779037 0.0734245 0.264451
0.00658142 -0.281145 0.117646
-0.0147688 0.262309 0.176241
0.00814229 0.077962 0.467566
-0.00237205 -0.192658 0.395447
-0.0062212 0.149247 0.0863865
-0.00780763 -0.114548 0.180976
0.00284101 -0.282805 0.0031934
-0.00608568 0.118315 0.216075
-0.00725125 0.164877 0.425124
-0.00558746 0.322657 0.251845
0.0102928 0.230964 0.156698
0.0738927 -0.150005 0.542792
-0.0047584 0.183149 0.314168
0.0148877 -0.291632 0.181155
7.09049e-05 -0.144383 0.299973
0.00349099 -0.330844 0.374528
-0.00613001 0.126514 0.178145
0.00549903 -0.358985 0.113345
6.13944e-05 -0.170093 0.0996678
0.00632721 0.134145 0.391848
0.0423528 0.301827 0.188537
-0.00171186 0.354262 0.0834082
0.00650563 -0.313692 0.263484
0.0449147 0.0536987 0.179841
-0.00872765 0.30325 0.150044
-0.0282345 0.0384224 0.242744
0.0357875 0.243926 0.192957
-0.00604637 0.364264 0.17625
0.0102839 0.371661 0.190662
-0.00643048 0.125108 0.203024
-0.0263424 0.0264051 0.173286
-0.00643279 -0.141574 0.125084
0.0337428 0.19531 0.542978
-0.00614974 0.290367 0.184364
0.00141446 0.453064 0.153442
0.00660834 -0.144013 0.401186
-0.0267084 0.0824742 0.16425
0.00682323 -0.357026 0.364756
0.00586544 0.308521 0.355206
-0.0282322 0.0605166 0.22768
0.00455467 0.174104 0.329402
-0.000149669 0.042357 0.467276
0.00271778 0.0478166 0.199576
0.0798554 0.0676667 0.127182
0.0443481 -0.220421 0.316927
-0.00827862 -0.395848 0.0390055
-0.00714109 -0.107914 0.379763
-0.00147459 0.415296 0.0421744
0.00178961 0.331458 0.347345
0.0419965 -0.290502 0.193107
0.0240551 0.0476048 0.192485
-0.00497188 -0.391608 0.175667
0.00780869 -0.464827 0.154414
0.00947889 0.258278 0.239942
0.00984922 0.137499 0.248913
-0.00682347 0.00442265 0.269557
-0.0292931 0.176751 0.523729
-0.00541456 -0.290109 0.0993929
0.00622926 -0.467607 0.183443
-0.00753982 -0.296961 0.120948
-0.000243627 -0.482563 0.156951
0.0100266 -0.0171674 0.47871
-0.0036308 -0.202158 0.24463
0.00625804 -0.361382 0.146126
0.00803483 -0.389023 0.0429279
-0.0248939 0.00404238 0.206666
0.0911221 -0.162129 0.559682
-0.00398901 0.247582 0.367134
0.00625658 0.37989 0.124025
-0.00803665 0.240046 0.165463
-0.00596382 0.0617535 0.224903
-0.00583732 0.358404 0.0156231
-0.00629642 -0.211084 0.389343
-0.00591103 -0.269592 0.00644327
-0.00413249 0.285919 0.0202576
0.00105827 -0.318708 0.328354
0.00755083 -0.244116 0.248153
0.0012569 -0.0561339 0.311923
-0.00294541 0.236407 0.11218
0.0176442 0.19746 0.35944
0.00310886 -0.244091 0.0104856
0.00685355 0.420674 0.0742227
-0.00799582 -0.237808 0.232694
0.0109133 0.331897 0.245871
-0.0160387 0.301009 0.178807
-0.00679142 -0.30704 0.284134
-0.0205145 0.0565754 0.213084
0.00765685 0.233388 0.242599
0.00452515 0.257242 0.350448
-0.00240689 0.215666 0.0413708
-0.00293872 -0.179169 0.156543
-0.00614482 0.288322 0.191709
0.0112817 -0.305359 0.154185
0.0078939 0.200552 0.0504467
-0.0844373 0.0455922 0.286095
0.00228987 0.435447 0.209449
0.000226032 -0.212141 0.0550411
-0.00628778 0.346225 0.237692
0.00120333 -0.152712 0.480554
-0.00930182 -0.256906 0.135309
0.0293385 0.246584 0.278898
-0.00759644 -0.127672 0.395704
0.00491619 0.422633 0.299033
-0.0335471 -0.296189 0.193979
0.00792662 -0.129727 0.224943
-0.00305621 0.120755 0.395039
-0.00844637 -0.196944 0.331129
-0.0106154 0.325722 0.190432
0.0102138 0.163691 0.0770529
-0.0106031 0.274958 0.158774
-0.0160498 0.319764 0.161887
0.00630707 0.232743 0.104312
-0.00664235 0.0979481 0.314872
0.0206644 0.144993 0.527816
-0.0248497 0.0832486 0.189777
0.0120697 0.151909 0.508008
0.00959915 0.286353 0.118096
-0.0168751 0.293571 0.168707
-0.00771444 -0.22671 0.224856
0.00456133 0.1624 0.524493
-0.00813508 -0.378345 0.0278577
-0.00644347 0.320664 0.366176
-0.00658524 0.390916 0.0372484
-0.000592739 0.428732 0.146709
-0.000744526 0.223528 0.338375
0.00795503 0.276738 0.0208452
-0.000341148 -0.444834 0.164299
-0.0157892 0.0890363 0.204168
-0.00828183 -0.294197 0.194588
-0.0163097 0.259465 0.217897
0.00353891 -0.112273 0.393753
-0.000609095 0.0573571 0.466351
0.0143651 0.171037 0.537378
0.00790245 -0.0996896 0.490559
-0.00369528 0.0282613 0.251644
-0.0337668 -0.235021 0.294317
-0.0263493 0.0890751 0.226392
0.00095415 0.299284 6.15203e-05
-0.00396 0.128016 0.532344
-0.00222217 -0.460289 0.149276
0.00602957 0.198345 0.212216
-0.00753684 0.162366 0.520963
-0.00364851 -0.358285 0.299756
0.00595574 0.108342 0.513145
0.00798849 -0.374016 0.0283688
0.00240459 0.0579845 0.212917
-0.00035726 0.34171 0.370778
-0.00931389 -0.359717 0.214386
-0.0232468 0.0639026 0.169685
0.00569406 -0.252702 0.119571
0.0272581 0.183734 0.508158
0.00846022 0.378835 0.159907
-0.000496363 -0.37601 0.316068
0.0100436 0.191741 0.326032
-0.00583036 0.139519 0.281839
-0.00969834 -0.339022 0.213596
-0.0232522 0.0321996 0.22164
-0.00807424 -0.367376 0.189455
0.00997416 0.371015 0.350236
0.0445226 0.0499032 0.152849
-0.000992133 0.0679026 0.255904
0.0101101 0.465538 0.236478
0.0123944 0.333093 0.177552
0.00685857 -0.416701 0.330887
0.0107075 -0.259851 0.178103
-0.00442455 -0.287094 0.0226521
0.00795759 0.313044 0.266695
0.0101612 0.324806 0.362489
0.0035189 -0.267757 0.306752
0.00906659 0.455304 0.0932479
0.0113937 0.329671 0.148122
-6.47707e-05 0.218992 0.530498
0.00386079 0.12162 0.254636
0.00483935 0.352584 0.0087197
0.00828386 0.132603 0.233875
-0.0220983 0.0783062 0.247167
-0.00139654 -0.189835 0.0991876
-0.00592387 0.414315 0.0631754
-0.00461296 0.306839 0.0916861
-0.00751489 -0.115727 0.219176
0.00740976 -0.216827 0.355338
0.00398764 -0.36462 0.0158213
-0.0160376 0.281711 0.181953
-0.026344 0.0490434 0.19048
0.0945098 -0.195931 0.542006
0.00880617 -0.17793 0.470133
0.0497289 -0.223167 0.334791
0.012197 0.2666 0.214498
0.00490056 0.183556 0.125569
-0.00854992 -0.467125 0.153927
0.0217367 -0.204844 0.391096
-0.0129909 -0.273593 0.1907
-0.00399525 -0.0488723 0.475822
0.00397258 0.00521895 0.46995
0.00153413 0.0758075 0.279084
-0.00707438 -0.0713431 0.343693
-0.0830433 -0.205418 0.470848
-0.0393741 -0.223747 0.310056
0.0132119 0.319815 0.226856
0.0393374 -0.196874 0.394264
0.00549359 0.223213 0.0877279
-0.00150825 -0.342452 0.0512075
0.00947024 0.134868 0.405886
-0.00737936 -0.33194 0.357762
0.00183343 -0.38243 0.0879553
0.00261848 0.36579 0.363334
-0.0181437 0.185908 0.542468
0.00692881 -0.36592 0.235786
0.004272 -0.364325 0.102305
0.00083176 -0.363114 0.317865
-0.0838703 -0.175986 0.550428
0.0106332 -0.159447 0.431335
0.00239039 0.283952 0.334603
-0.00603655 -0.236558 0.271584
0.0631738 0.041054 0.125281
-0.00627184 0.149223 0.45656
0.00996149 0.101714 0.327299
0.0203921 0.0924112 0.200965
0.0019882 0.416521 0.101587
0.00432251 0.30614 0.375631
0.00456156 -0.468804 0.116334
0.000362084 0.0930287 0.324447
-0.0306536 0.0577501 0.220954
0.00517833 -0.0461619 0.327284
-0.00443535 0.318549 0.354656
0.00419968 -0.400018 0.057592
-0.00793164 -0.224658 0.164842
-0.00590546 0.433283 0.0656696
0.0455011 -0.212255 0.384458
0.00847828 -0.0403865 0.485833
0.0341031 0.0553481 0.193573
-0.00115032 -0.464301 0.277169
0.0851636 -0.223999 0.495502
-0.000921745 -0.079552 0.360816
-0.0282276 0.0709366 0.190363
0.00367768 -0.210455 0.123164
0.0017631 0.126489 0.109862
-0.0248939 0.00905966 0.223571
0.00378136 -0.195282 0.204374
-0.00679991 0.286516 0.207568
0.00850259 0.254116 0.269999
0.0129568 0.341574 0.204643
-0.00390703 0.133802 0.427652
0.00730061 0.375202 0.228205
0.00632314 0.00208782 0.485025
-0.0325133 -0.224045 0.349475
-0.0111192 -0.347659 0.194386
-0.0126651 0.214396 0.536784
-0.00700213 -0.035612 0.300868
-0.000372497 -0.451319 0.298575
0.0200231 0.207115 0.343726
-0.00640707 -0.154177 0.10144
0.00141481 -0.163997 0.291589
-0.037615 -0.259566 0.222999
0.00188656 0.207212 0.0611811
-0.00646448 0.132047 0.239248
-0.00195757 -0.347468 0.00887891
-0.0081687 -0.21894 0.204788
-0.00604814 0.0587588 0.20261
-0.0107894 -0.333808 0.198769
0.0168666 0.298989 0.178805
0.0168662 0.300713 0.193566
-0.00766101 -0.365108 0.157933
4.22889e-05 0.437868 0.0919951
0.00630893 -0.388696 0.217405
-0.0282306 0.0717469 0.211499
0.00756921 -0.336782 0.0122335
0.00473027 -0.0948081 0.35137
0.00111808 -0.255695 0.0278938
0.00960496 -0.2444 0.160083
0.0344147 0.25425 0.187938
-0.00855534 -0.124846 0.231591
0.00764396 -0.15497 0.0770286
0.000570521 -0.300384 0.378212
-0.0103371 -0.242023 0.206703
-0.0020947 -0.192478 0.111672
-0.00833131 -0.452159 0.282027
-0.0133393 0.312468 0.215645
0.0115021 0.347223 0.159753
-0.000169938 0.115743 0.385061
0.0603429 0.0570592 0.12244
-0.0913308 -0.226059 0.500698
-0.0162277 0.11025 0.196602
-0.00801356 -0.462342 0.112356
0.00725555 0.360852 0.271555
-0.0336094 0.252301 0.187771
-0.00109992 -0.165552 0.257196
0.00621944 0.145031 0.117627
0.0148908 -0.280251 0.182833
0.0142662 0.301681 0.152675
0.00601788 0.142909 0.456205
0.0103477 0.145052 0.10115
-0.0248939 0.0241618 0.242963
-0.0101228 0.337909 0.189249
-0.0180243 -0.207393 0.407773
-0.0208432 0.213025 0.322889
-0.00292355 0.226977 0.0354015
-0.000445866 -0.433178 0.232383
-0.00664104 0.0172063 0.477089
0.0122396 0.262105 0.169654
-0.0404851 -0.210919 0.393252
-0.00794073 -0.17171 0.0583075
0.00143995 0.274064 0.327962
0.00997774 0.361735 0.145287
-0.0919686 -0.197315 0.544195
0.00571003 -0.215992 0.172864
-0.0001427 0.170982 0.121822
-0.0234374 0.0470333 0.247094
-0.00644639 0.265195 0.134053
0.0117911 0.274393 0.139833
-0.0244901 0.015475 0.190204
-0.00053882 0.466818 0.107052
-0.00646383 0.30884 0.0104449
-0.000254748 0.0639991 0.192542
-0.0829707 -0.189503 0.542758
-0.00634287 0.386548 0.345032
0.0076633 0.116142 0.227716
0.0174677 0.0420703 0.212885
-0.000130325 -0.11678 0.494296
-0.00732092 -0.251665 0.256438
0.00753607 0.211052 0.0439437
0.0381822 0.202564 0.526211
-0.00576065 0.249532 0.118384
0.0107179 -0.0668422 0.332929
-0.00657504 0.0185912 0.244624
0.00563916 -0.181893 0.335543
-0.00762172 -0.3766 0.205388
0.0158603 0.154321 0.434427
0.00827095 0.269886 0.096345
-0.0109126 0.173003 0.505132
-0.00242546 -0.381692 0.335079
0.00331564 -0.326371 0.085416
0.0017686 0.0326713 0.223277
0.00184998 0.440666 0.199667
0.00738327 -0.305022 0.36116
0.00269913 -0.148138 0.429794
-0.00441388 0.141057 0.125639
0.0491748 -0.208241 0.374663
0.0132471 0.314356 0.16402
-0.00654472 -0.323806 0.0069512
0.0822364 0.0325075 0.129412
-0.0894895 0.078792 0.285711
-0.0268041 0.106259 0.216346
-0.0283088 0.190553 0.193366
-0.00663358 0.3723 0.35
-0.00612186 0.322798 0.262998
-0.0153023 -0.287759 0.182498
-0.00615598 0.297632 0.17521
0.00680567 -0.266131 0.371965
-0.00523415 -0.179071 0.455114
0.00186259 0.154139 0.163166
0.00621798 0.394386 0.202857
-0.000174805 -0.230688 0.0623413
-0.00304493 0.111548 0.331875
0.0022885 0.124804 0.410495
-0.00128945 -0.0324422 0.289288
0.00397803 -0.384771 0.138918
-0.00798021 -0.123764 0.243796
0.00584601 0.26414 0.0724985
0.010375 -0.267671 0.160787
0.00130072 -0.129622 0.189407
0.0076047 -0.317509 0.00939023
0.00787912 -0.216962 0.341135
0.0063082 -0.277826 0.359468
-0.041497 -0.26105 0.247673
-0.0468886 -0.218984 0.345295
0.0873205 -0.169086 0.541211
0.00439912 0.413248 0.257878
-0.00473957 0.129129 0.214226
0.00940983 0.167469 0.31714
-0.00644155 0.172428 0.316241
-0.00127616 -0.182752 0.470619
-0.00432843 -0.456598 0.0921829
0.0100122 0.383305 0.0386614
-0.00230275 0.00178968 0.279274
0.000233286 0.246341 0.0351883
-0.0112179 0.309111 0.193498
-0.00779004 -0.234204 0.0313209
-0.00612349 0.464609 0.152987
0.00230354 0.155683 0.0952308
-0.0571519 0.0780858 0.290358
-0.00743972 -0.129492 0.158327
-0.00664397 0.321568 0.240706
0.000671118 -0.429226 0.293783
-0.0160425 0.312031 0.173039
0.00505821 0.143809 0.4757
-0.00657888 -0.0285352 0.480517
0.00701792 0.199765 0.346921
0.00796562 -0.264533 0.0210369
0.00174266 0.139447 0.0861581
-0.00975672 0.293197 0.159073
0.0072477 -0.202174 0.385047
0.0100805 0.358894 0.35186
0.00381458 0.392629 0.324536
0.00377004 0.422266 0.201804
0.00964779 0.458137 0.103877
0.00983318 0.342491 0.0132738
-0.000376644 0.309691 0.063044
-0.0349807 0.285171 0.187334
0.00726892 0.475402 0.241876
-0.0385362 -0.211364 0.349934
-0.0151003 0.102329 0.527416
-0.0273905 0.247452 0.277432
0.0102159 0.12316 0.182162
0.00145174 -0.231834 0.0802257
0.00430169 -0.346312 0.277995
-0.0917081 -0.213805 0.536024
0.00913148 0.114465 0.347463
-0.00216143 -0.15908 0.158293
-0.00873661 -0.379822 0.346218
0.0696739 -0.151033 0.556757
-0.024848 0.0499928 0.180441
0.00363008 -0.444604 0.0747421
0.00724771 0.311832 0.0207432
0.00439066 -0.311704 0.286045
0.00574358 -0.0648416 0.321905
-0.0248536 0.0798639 0.220744
0.00533482 0.451708 0.2528
-0.00689653 -0.165864 0.43876
-0.00698048 0.303298 0.186609
0.00742917 0.311384 0.101517
-0.0818714 -0.211553 0.540074
-0.0286401 0.230082 0.193568
-0.0320754 -0.226553 0.334022
-0.00611151 0.239225 0.360656
-0.000194197 0.111987 0.374952
-0.00531837 -0.173692 0.329565
-0.00290257 -0.484973 0.183434
-0.000863666 0.442122 0.30765
0.00256707 0.167225 0.293485
-0.000879274 -0.398631 0.349011
0.0092308 -0.292643 0.193076
0.0136722 0.177971 0.393087
0.0865635 -0.213936 0.475962
-0.00629889 0.231273 0.198646
0.00621696 -0.350014 0.13182
-0.00814578 -0.247497 0.141149
-0.0232489 0.0332693 0.193366
0.00952057 -0.0271124 0.482642
-0.00766131 -0.101833 0.370968
0.0915969 -0.1611 0.548565
0.0375638 -0.258717 0.224224
0.00638299 -0.237094 0.262567
0.0104088 -0.303638 0.226531
-0.00696502 0.299527 0.207841
-0.00809765 0.296328 0.164468
-0.0078623 -0.272631 0.129069
0.00787848 -0.298074 0.0189009
-0.00178636 -0.263289 0.351828
-0.00464824 0.279332 0.106942
0.00157919 -0.264145 0.326455
-0.0311787 -0.209884 0.372515
-0.00604196 -0.181916 0.0446785
0.0998606 0.0602956 0.123286
-0.0234332 0.00738193 0.183035
0.00789252 -0.389272 0.335684
-0.00852676 -0.123812 0.175905
