-0.0514386 -0.206194 0.302848
-0.006437 0.125937 0.323516
-0.0120805 -0.197408 0.194231
-0.000530473 -0.112648 0.192001
-0.00087662 0.179857 0.18067
0.0429686 -0.244639 0.223501
-0.00179564 0.122499 0.187628
-0.0084914 -0.310685 0.027721
-0.0127477 0.363495 0.297498
0.00187903 -0.130522 0.540807
0.00789505 -0.0432656 0.508528
0.00408148 -0.16769 0.473444
-0.00874352 -0.199634 0.255333
0.00556049 -0.208842 0.0376847
-0.00736624 0.160262 0.383825
0.00152113 0.177187 0.163611
-0.0293874 0.192138 0.15603
-0.100646 -0.192881 0.582013
-0.00270102 -0.422032 0.0725799
0.0251308 0.113813 0.268364
-0.00764249 -0.251823 0.00210413
-0.0135767 -0.116574 0.0998568
-0.00262674 -0.16956 0.466711
-0.0171602 0.169321 0.202027
0.00860013 -0.353721 0.146743
0.0022948 0.222179 0.0730493
-0.000737701 0.274213 0.303277
0.0104341 -0.45674 0.205772
0.00585725 0.0720888 0.185355
0.00372333 -0.429929 0.223301
0.0100611 -0.103667 0.13263
-0.0129728 -0.434089 0.111874
-0.00436956 -0.297325 0.315835
0.0603013 -0.236235 0.241383
0.0127686 0.133672 0.266277
0.0310775 0.247035 0.320756
-0.0141451 -0.120837 0.244075
-0.0362332 -0.173012 0.40792
-0.0271979 0.114661 0.230228
0.00151303 0.257841 0.297717
-0.00295661 -0.233315 0.370666
-0.00297284 0.27988 0.262508
-0.0188188 0.382114 0.299856
0.00315427 0.178872 0.42405
-0.0363941 -0.188389 0.59432
-0.0204952 -0.253684 0.189592
-0.0115024 -0.21143 0.247042
-0.0627686 0.296551 0.206746
0.00843846 -0.35679 0.243054
-0.0123684 0.358761 0.0584768
0.00310725 0.0708505 0.187578
0.032188 0.127612 0.280601
-0.00538737 0.06612 0.480169
0.00141814 -0.173909 0.456612
0.0370265 -0.282071 0.177606
-0.0229641 0.299695 0.163208
0.00723482 0.208665 0.534688
-0.00962257 -0.366969 0.219717
-0.00715705 -0.0713776 0.325346
-0.00869736 0.172031 0.424778
-0.0184698 0.260841 0.194486
-0.0127264 -0.439317 0.169611
0.00121496 0.409449 0.0806909
0.000517121 -0.0881581 0.212615
0.00292346 -0.435185 0.213878
0.00352668 0.238654 0.542735
-0.0107782 0.0102207 0.268293
-0.0146607 -0.102007 0.203506
-0.00960863 -0.440379 0.207702
-0.00688403 0.194381 0.42847
-0.00862636 -0.399866 0.0806421
-0.016682 0.381563 0.158706
0.00477244 0.139062 0.32545
0.00176944 0.0753474 0.200821
0.0110721 -0.253046 0.365851
-0.00745388 0.092765 0.21294
-0.0615706 -0.26568 0.198661
-0.00200359 0.258551 0.572311
-0.0308097 0.109493 0.162534
0.00131539 0.271956 0.570558
-0.0450316 -0.196962 0.334321
0.0105288 -0.102298 0.191949
-0.0668257 0.267584 0.17935
0.0363034 -0.267475 0.192118
-0.00218739 -0.131041 0.540739
-0.0470272 -0.2034 0.309557
-0.00392164 0.442436 0.164317
0.0102112 -0.344679 0.201071
-0.00102312 0.17434 0.127259
-0.0282277 -0.198669 0.344419
-0.0185099 0.358091 0.310475
0.00122013 0.0840831 0.223109
-0.0126544 -0.00367613 0.276519
-0.00586311 0.372457 0.293104
-0.0135271 0.35445 0.3019
-0.00330189 0.226421 0.0820072
0.00316683 -0.313685 0.00540147
0.00219713 0.151512 0.441588
-0.0196574 -0.29557 0.188374
-0.0592271 0.270625 0.245276
-0.0103726 0.352349 0.0568846
-0.00974283 -0.389533 0.308552
0.0115568 -0.41502 0.29977
0.0249126 0.225584 0.359815
0.0112182 -0.174586 0.0453373
0.0249743 0.224903 0.357816
0.00594386 -0.169714 0.0348421
-0.0113863 -0.105566 0.259269
-0.00235406 -0.364976 0.31937
0.0405983 -0.198979 0.324725
-0.0132017 0.389974 0.0758874
-0.117964 -0.222972 0.644969
-0.0176651 0.254151 0.0583162
0.0526597 0.300656 0.189156
-0.000395688 0.457519 0.1717
-0.0165175 0.312153 0.0344366
-0.0278186 0.173541 0.188804
-0.00581286 -0.145367 0.502145
-0.00548689 0.209039 0.558223
-0.011863 -0.432479 0.276326
-0.0173947 0.247013 0.0626353
0.000554499 0.353178 0.229161
-0.0229756 -0.270483 0.180819
-0.00463891 -0.428368 0.145586
0.0144994 0.114687 0.260733
-0.00231021 0.200696 0.538773
0.00949979 -0.269545 0.181933
-0.00883203 0.238315 0.274575
0.00222239 0.187438 0.127166
-0.0131109 -0.415802 0.0919662
-0.00255668 -0.127089 0.121491
0.0638067 0.118345 0.267887
-0.0128742 -0.447493 0.193813
-0.000834205 -0.124564 0.539212
-0.0789112 0.037281 0.10798
0.00201895 -0.303539 0.0313071
-0.0127615 -0.223568 0.362019
-0.0190953 0.351333 0.315546
0.0221917 -0.171327 0.412182
-0.00501369 0.454716 0.225899
0.0110918 -0.15048 0.309926
0.000118291 0.188474 0.129969
-0.00135875 0.0203614 0.263874
-0.0143369 0.30603 0.0494391
-0.00450456 -0.0588444 0.506047
-0.0183027 0.246498 0.305628
-0.031076 0.0982852 0.158894
-0.0146158 -0.267425 0.190932
-9.52785e-05 0.456982 0.186105
-0.0330335 -0.183754 0.426413
-0.00277909 -0.248702 0.0324329
-0.0132725 0.410191 0.262373
0.0551875 0.310985 0.183892
0.00260974 -0.0423585 0.319883
0.111937 -0.188698 0.594425
-0.0443022 0.228168 0.17812
-0.0101676 -0.354567 0.0230319
-0.0290749 0.0707454 0.164013
-0.0114966 -0.40581 0.0612799
-0.00915068 -0.272605 0.00325615
-0.00287491 -0.381217 0.342421
-0.0143185 -0.137514 0.0841999
-0.0133146 -0.380903 0.055046
-0.00727621 0.184698 0.461526
0.0473743 -0.211842 0.281863
0.0110746 -0.26746 0.366634
-0.0084245 -0.0886114 0.1996
0.0104789 -0.110092 0.19373
-0.0281004 0.0955994 0.229025
0.00177852 0.233526 0.067518
-0.00726221 0.368746 0.29463
-0.0133255 0.252099 0.316989
-0.00505175 0.187168 0.432946
-0.0140919 -0.259501 0.0147454
-0.00475412 -0.338048 0.0380557
-0.00315798 -0.119167 0.154747
0.0045481 -0.28519 0.0247547
0.0332891 0.106901 0.274579
-0.0023933 0.419689 0.103573
0.00668306 0.110041 0.458977
0.011112 -0.274736 0.0164856
-0.0187177 0.328555 0.0429571
-0.0118185 -0.231135 0.0109499
-0.0125962 -0.320714 0.351367
-0.0214629 -0.191531 0.581361
-0.00823693 -0.33636 0.363541
-0.014849 -0.125893 0.0961951
-0.0135278 -0.350917 0.0344202
-0.00766229 0.245064 0.0717962
-0.0133862 -0.329881 0.356393
0.000424415 0.220329 0.271209
-0.00879228 -0.366995 0.348005
0.00127775 0.215432 0.538017
0.0134652 -0.330551 0.199913
0.0111403 -0.114183 0.258928
-0.0125164 -0.360053 0.335474
0.0127011 0.0515439 0.226419
0.0176002 0.177987 0.55415
-0.00943193 0.260863 0.571419
0.00538098 0.181561 0.436478
0.00104078 -0.0567568 0.310275
0.000458593 -0.0782415 0.525768
-0.0464653 0.0544972 0.117037
-0.0019895 0.374784 0.314011
-0.0064048 0.311715 0.330334
-0.00782184 -0.421028 0.123487
0.110289 -0.196236 0.626934
-0.00869469 0.162544 0.402505
-0.0187124 0.33613 0.314102
-0.0320445 0.154082 0.156429
0.00152289 -0.0163888 0.296738
0.029642 0.25775 0.278939
-0.010474 -0.310318 0.367547
-0.0103377 -0.405958 0.0955953
-0.00737807 -0.0841065 0.354929
0.00320724 0.131469 0.303217
-0.00635813 0.187531 0.144265
-0.0127834 0.306446 0.0529934
0.0419579 -0.233286 0.239554
0.119996 -0.226174 0.647901
0.0179835 -0.270162 0.181434
-0.0354891 -0.197473 0.332337
-0.00327316 0.1722 0.405845
-0.00423188 -0.0897752 0.15672
0.0430712 -0.199806 0.358548
0.0097227 0.0873508 0.213239
0.0123997 -0.435987 0.238927
-0.0282436 0.214104 0.382043
-0.017939 0.22091 0.289498
-0.0290905 0.0758592 0.184133
0.0524442 0.304067 0.199002
0.0660572 0.115458 0.27845
-0.0119238 0.0431866 0.22771
0.0477232 -0.290196 0.189141
-0.00891961 -0.116876 0.215063
0.00222449 0.299252 0.224021
0.00879528 0.195456 0.43577
-0.0153669 -0.319108 0.188009
-0.0183068 0.24574 0.0594737
-0.0244395 0.093814 0.191765
0.00383093 0.0290059 0.492412
0.0180339 0.231194 0.338295
-0.0325562 0.0615808 0.161711
-0.00174113 0.437475 0.207457
-0.113048 -0.221312 0.654344
-0.0365645 -0.173313 0.420245
0.0113068 -0.26172 0.0156073
-0.0123063 0.434043 0.219104
-0.000901317 -0.433484 0.193342
0.00640701 -0.137312 0.53051
0.012618 -0.0891311 0.355077
0.00291869 0.353079 0.170322
-0.0146944 -0.109987 0.142446
-0.030848 0.315263 0.160169
0.00680469 0.179627 0.458942
-0.00788383 0.461486 0.161852
0.00196919 0.181923 0.178662
0.043005 0.288636 0.179178
-0.033421 -0.185774 0.426879
0.0344838 -0.284582 0.201058
0.110205 -0.196677 0.626159
0.0108206 -0.107269 0.246528
0.00287553 -0.204808 0.334949
0.00142702 0.346604 0.310046
-0.036695 0.240424 0.331502
0.0120592 -0.081633 0.338489
-0.00717867 -0.155684 0.476449
0.0285899 -0.288445 0.197065
-0.00763222 -0.161568 0.461504
-0.0146217 -0.133809 0.0900708
-0.000911419 0.179913 0.177571
-0.011792 -0.308528 0.112267
-0.0493258 -0.200478 0.329547
0.0343072 -0.204264 0.355733
0.0165705 0.232058 0.357501
-0.0655348 0.0671529 0.102019
-0.0305067 0.14294 0.225392
-0.0077202 -0.290927 0.351365
-0.0124388 -0.232126 0.364376
0.014547 -0.241104 0.176518
-0.00341225 0.245758 0.0473098
-0.00553883 -0.418915 0.112101
-0.00901219 -0.167655 0.0689455
0.0180718 -0.278974 0.202829
-0.0136997 -0.30059 0.0168655
0.0109162 -0.182976 0.341045
-0.00515731 0.245263 0.545273
-0.0128062 -0.37891 0.0639922
0.0290385 0.244854 0.172952
0.0110453 -0.158717 0.31313
-0.0596446 0.279109 0.217319
0.000393805 0.32385 0.0356656
-0.00928998 -0.130954 0.257965
0.0635498 -0.185946 0.583222
-0.0672872 -0.243027 0.230928
-0.0124911 0.26697 0.037894
0.0518754 -0.282669 0.186871
0.0108406 -0.205037 0.0393602
0.0421164 0.282669 0.223986
-0.038842 0.171367 0.186105
-0.0383399 0.0700174 0.169848
-0.0113854 -0.300282 0.0225399
0.00689008 -0.130267 0.56037
-0.0189833 0.193794 0.423399
0.0117341 -0.302744 0.353597
0.0147306 0.100653 0.252709
0.00895117 -0.190315 0.175079
0.00716883 8.43108e-05 0.491232
-0.0109848 0.216223 0.215017
-0.0175584 0.212849 0.0759247
-0.0111361 -0.141387 0.0984291
0.00719866 0.16784 0.415132
0.00575293 0.268629 0.549662
-0.000762 0.30905 0.313687
-0.0186329 0.35184 0.306786
-0.012739 -0.223362 0.362063
-0.014215 0.452807 0.232028
0.0105722 0.184062 0.185136
0.0358224 0.286934 0.229039
-0.108 -0.22617 0.65293
0.00856004 -0.194755 0.175215
6.74899e-05 0.441451 0.220541
0.121551 -0.183465 0.589031
-0.0244355 0.0938243 0.199146
0.0092312 -0.184948 0.330491
-0.0109631 0.182147 0.169507
0.00458556 -0.141916 0.283578
0.00527398 -0.148166 0.490209
-0.00336943 0.395453 0.220767
-0.00375202 0.434639 0.265785
0.011565 -0.388053 0.0716936
-0.0489983 0.0678858 0.105656
0.00109423 0.187381 0.105665
-0.00618474 0.220625 0.091465
-0.0510915 0.305608 0.172968
0.0123983 -0.440028 0.151966
0.0107584 -0.12694 0.267079
0.041528 0.301926 0.204728
0.00126681 -0.125493 0.252811
-0.00863227 -0.425191 0.25573
-0.0623005 0.262979 0.171158
-0.00711775 0.230964 0.30786
0.0104297 0.0452833 0.223784
-0.0248825 0.208922 0.39527
-0.0149791 0.347123 0.0537019
0.0011188 -0.179555 0.438659
-0.0163694 0.438074 0.257443
-0.00856361 0.20298 0.251176
0.0113312 -0.164792 0.0515254
0.0109821 -0.198451 0.348432
-0.0524046 0.03766 0.105119
0.0104124 -0.255802 0.00792728
-0.000835164 0.219405 0.0668235
-0.0126733 0.330535 0.0777533
-0.0040225 0.0866482 0.461621
-0.027535 0.162375 0.219977
-0.0408497 0.241907 0.323865
0.0202366 -0.180286 0.397243
0.00640129 -0.345333 0.0446503
0.000631537 -0.297469 0.345886
-0.0188312 0.362855 0.305782
0.00535152 0.13279 0.340277
0.0214606 0.217803 0.365838
-0.00791551 -0.152167 0.505338
-0.0129527 0.205612 0.559282
-0.0243386 0.0732796 0.180721
-0.00367961 -0.201996 0.329585
-0.057658 -0.247589 0.233461
0.0066853 0.0938282 0.216802
-0.00452783 -0.452226 0.127992
0.0112969 -0.447198 0.245634
-0.0157131 0.178799 0.190137
0.00842565 -0.144284 0.51374
-0.0123383 -0.422735 0.25025
-0.00743212 0.0864923 0.197221
0.0115678 -0.45221 0.157364
-0.0291181 0.0505944 0.112751
-0.00461851 0.412242 0.264368
0.032469 0.119427 0.267774
-0.0074293 0.181564 0.443441
-0.00835935 0.438124 0.161443
-0.00644123 -0.43423 0.183102
-0.0659332 -0.235477 0.231935
0.00432713 -0.17523 0.312865
-0.0103613 0.0246233 0.256097
-0.0544315 0.281392 0.240654
-0.0122597 0.218459 0.563837
-0.00112945 -0.177887 0.444372
0.00419447 -0.374166 0.029032
-0.00513135 0.320731 0.280818
-0.00842169 -0.172429 0.430548
0.019643 0.262214 0.570628
0.0337383 0.248641 0.308662
0.0241658 0.215481 0.550914
-0.0205871 -0.263619 0.19512
0.0408369 -0.190361 0.360607
0.000338553 0.308605 0.035418
-0.00337294 -0.441066 0.102756
0.00730963 -0.0570337 0.312241
-0.0089012 -0.170029 0.416722
-0.0293898 0.243104 0.205276
0.00145374 0.0192475 0.242679
-0.00333555 -0.318292 0.0346554
-0.00491838 -0.23167 0.344947
0.00192442 -0.133541 0.541551
-0.0138459 -0.336001 0.0246033
-0.0572358 -0.187401 0.582334
0.000487438 -0.457543 0.146386
-0.000520106 -0.179552 0.438928
-0.0262058 0.251251 0.554691
-0.0663727 -0.242001 0.236562
-0.0577048 0.314181 0.17937
0.012273 0.0504782 0.223447
0.0111841 -0.201026 0.338337
0.0631865 0.13753 0.272487
-0.00806076 -0.328321 0.36566
0.0112798 -0.116964 0.263564
-0.0270375 0.156149 0.222204
-0.00511824 -0.107761 0.272282
-0.00196065 0.392858 0.304462
-0.00251058 -0.148052 0.485403
-0.051995 0.281815 0.231768
-0.00117881 -0.072081 0.346495
-0.0299694 0.241038 0.158996
-0.034097 0.275244 0.199299
-0.0142626 -0.1034 0.19346
0.0107045 -0.438778 0.153805
-0.085655 0.052774 0.109928
-0.0185877 0.367673 0.064073
0.0116051 -0.203904 0.348571
0.00994846 -0.384846 0.0430338
-0.0175275 0.436287 0.148338
-0.00846215 -0.302639 0.371449
-0.0354921 0.294658 0.173874
0.00769859 -0.362994 0.0540022
-0.0272126 0.269029 0.564566
-0.00349682 -0.194179 0.325857
0.0302983 0.271271 0.26097
-0.00782377 0.101519 0.192657
0.010514 -0.301497 0.0211312
-0.0352811 0.315729 0.179657
0.000819127 0.265872 0.0425781
0.0199765 0.318459 0.185316
-0.0208641 0.212807 0.369526
-0.00587294 -0.256133 0.0286632
0.00406856 -0.103311 0.532305
0.0109382 -0.415797 0.111749
0.00754637 0.106797 0.262676
-0.00373176 0.286385 0.0337919
0.00747111 0.132326 0.321601
0.0112633 -0.22479 0.0184174
-0.0139352 0.208596 0.548121
-0.0631731 0.291535 0.172861
-0.0362585 -0.195987 0.380723
0.00672352 -0.392818 0.330856
0.0121959 -0.402801 0.0659069
0.0150746 -0.234881 0.176262
-0.0749769 0.30227 0.179301
-0.00381131 -0.184389 0.430653
-0.0341109 0.297436 0.161951
0.0175514 0.213455 0.180081
0.001663 -0.154696 0.463069
-0.0427813 0.258898 0.290851
-0.0293245 0.17627 0.189569
0.0113338 -0.243723 0.0203776
0.0117834 -0.437449 0.135781
0.00446985 -0.161514 0.488384
0.00240106 0.173807 0.165453
-0.0218194 0.326847 0.152357
0.0116699 -0.422688 0.125553
-0.014184 -0.142113 0.285716
0.0124113 -0.421782 0.275255
0.00944451 0.314094 0.188795
0.0122356 -0.405422 0.0779804
0.00222045 0.260822 0.1903
-0.00720099 0.0843002 0.201242
-0.0509681 -0.276601 0.199148
-0.00556359 -0.459595 0.21442
0.0167291 -0.296356 0.193161
-0.00120783 -0.113798 0.165814
0.00553699 0.325207 0.193093
0.000111323 0.273861 0.0577939
-0.00102311 -0.461975 0.209111
-0.0189306 0.286882 0.0434601
0.000783025 -0.410176 0.272587
0.000673652 0.115696 0.46728
-0.0180639 0.4349 0.141701
0.0456527 -0.241447 0.225326
-0.00120668 -0.0178115 0.492085
-0.00528673 -0.398681 0.232986
0.00423244 0.0143598 0.26889
-0.0183943 0.210816 0.277294
-0.0596419 0.280061 0.175296
-0.0148967 -0.102771 0.150929
-0.0158504 0.294789 0.308155
-0.0035198 0.212939 0.0691198
0.0619158 -0.186351 0.582656
-0.000267386 0.214373 0.53394
0.0525593 -0.252624 0.229891
0.0126437 0.0564548 0.222084
-0.031232 0.223059 0.36589
-0.00817477 -0.155975 0.295176
-0.0128081 -0.036996 0.303538
-0.0114403 0.201528 0.416753
0.0408278 -0.276248 0.177585
0.0116469 -0.0359367 0.297397
-0.0256303 0.115701 0.215065
-0.00472277 0.148544 0.443394
-0.0385225 0.0681919 0.108043
-0.00325679 -0.366518 0.303946
-0.0073564 -0.184883 0.586948
0.0103297 0.219077 0.379905
0.0115392 -0.302908 0.0228639
-0.0185542 0.425791 0.0921272
-0.0173271 -0.290506 0.190915
-0.00664324 -0.357879 0.115916
0.011215 -0.152547 0.0611664
-0.00988308 -0.26591 0.353575
6.98674e-05 0.174865 0.457588
-0.0144262 -0.13908 0.0907678
-0.00166567 0.187801 0.210382
0.00250528 0.182465 0.480028
-0.0122521 -0.453421 0.183466
0.00105102 0.207498 0.512205
0.0431162 -0.193408 0.583488
-0.00432459 0.116385 0.265055
-0.01135 0.233879 0.0766867
0.00112402 -0.0921263 0.228765
-0.0299091 0.219598 0.156592
0.00711774 -0.438701 0.192988
0.00146726 0.333949 0.0449737
-0.00371945 0.208304 0.0726827
0.0297636 0.260437 0.274596
0.0479259 -0.225785 0.241942
0.0264889 0.111181 0.282329
0.00993068 -0.095249 0.172973
0.00707921 -0.215042 0.342474
0.00581304 -0.187806 0.35195
0.0114195 -0.437352 0.141273
-0.0120222 0.239347 0.11757
-0.0518443 0.236074 0.173626
-0.0384248 -0.197317 0.330577
-0.0142086 -0.267183 0.0125139
-0.00399563 0.0834423 0.181374
-0.0452864 -0.223416 0.285511
-0.0243456 0.0760994 0.194748
-0.0273308 0.0499352 0.227294
0.00568774 -0.166459 0.431002
-0.00983418 0.322143 0.330603
-0.00792071 0.2087 0.258191
-0.00659263 -0.415211 0.11206
-0.0139048 -0.228318 0.350778
-0.0173943 0.178127 0.205182
-0.0495733 -0.273255 0.201989
-0.00609303 -0.172747 0.413901
0.0102777 -0.119574 0.0987644
-0.0514483 0.219877 0.176682
0.00994697 -0.205038 0.340963
-0.110954 -0.190316 0.585279
-0.0262346 0.0655221 0.238204
-0.00386689 -0.0253555 0.282799
0.0119757 0.163118 0.193069
-0.0150699 0.253423 0.0668503
-0.00245045 0.0894945 0.189392
0.0140379 -0.304116 0.158879
-0.0106737 -0.384917 0.333386
0.00516916 -0.166611 0.474373
-0.00936673 -0.45664 0.160471
-0.00802177 0.14708 0.371459
0.00331878 -0.00437064 0.263846
0.00233059 0.181686 0.234903
-0.0601343 -0.264315 0.213425
0.0068644 -0.420799 0.252437
-0.0138059 -0.204366 0.344812
-0.0383116 0.0642677 0.166957
-0.0424377 0.262292 0.280378
-0.0137747 -0.187183 0.326529
-0.00662471 -0.42426 0.122303
-0.0143875 -0.160673 0.0637444
-0.00797654 0.123279 0.458446
-0.00644614 -0.167856 0.462922
0.000339391 -0.125593 0.0745918
-0.0323405 -0.28911 0.194801
0.00561573 -0.285196 0.0281286
-0.0159066 0.290381 0.0352208
-0.00108653 -0.0431306 0.514916
0.0077278 -0.325249 0.345727
-0.0294968 0.149379 0.183781
-0.00518695 -0.0945574 0.527457
-0.0308197 0.0461933 0.20764
0.0018428 0.246844 0.301827
-0.0646264 -0.223105 0.249215
0.000771412 0.26398 0.153691
0.00163171 -0.277501 0.000876094
0.00899358 -0.247846 0.00691215
-0.00358395 0.140394 0.459382
-0.0487109 0.256745 0.267108
0.00823673 -0.268936 0.278249
-0.00579516 0.179019 0.43496
-0.0188292 0.292284 0.042763
0.00188643 -0.181233 0.31712
-0.00671776 -0.318225 0.341645
-0.0400363 -0.287594 0.197716
-0.014194 -0.119994 0.243347
-0.00192155 -0.376379 0.0295268
-0.0255164 0.08841 0.160653
-0.00447356 -0.354006 0.0188494
0.00260277 -0.348075 0.0465426
-0.00278057 0.35539 0.0557882
0.00898724 -0.361993 0.0451685
0.00729596 -0.0138418 0.273992
0.00174966 -0.288306 0.0254826
0.00851817 -0.185928 0.0281568
-0.0057519 -0.0309272 0.499138
-0.00619714 0.169407 0.434676
0.000369053 -0.188468 0.0530386
-0.0714651 0.283082 0.177757
-0.0190712 0.43535 0.241581
-0.00303218 0.24771 0.294502
0.0109341 -0.318356 0.362677
-0.0310945 0.109711 0.16821
-0.0111097 -0.0988653 0.364026
-0.0132701 -0.33034 0.356717
-0.0139248 -0.22844 0.351391
-0.00348627 0.443386 0.174027
0.0279988 0.254328 0.311916
0.00228206 0.200088 0.261932
0.0394364 -0.207332 0.298092
-0.0335933 0.17374 0.191972
-0.00352583 -0.0167 0.50622
-0.03056 0.0434686 0.105539
-0.0158616 0.261802 0.569585
-0.0213787 0.294796 0.149934
-0.0214422 -0.287356 0.195156
0.0173582 -0.258068 0.203602
-0.00045216 0.240623 0.192682
-0.0111314 -0.214924 0.0388702
-0.0125204 -0.452402 0.17537
0.00730501 0.116877 0.280317
-0.00276313 0.217511 0.295487
0.00618412 0.329969 0.193755
-0.0184295 0.306372 0.318347
0.0091039 -0.149032 0.412826
0.0183108 0.186239 0.552051
-0.0119791 -0.353308 0.336579
-0.0170595 0.177199 0.186913
-0.0101332 -0.344021 0.332254
0.00713831 -0.112517 0.223225
-0.00468609 -0.189574 0.581097
-0.00827199 -0.17037 0.435078
-0.00224883 0.317705 0.0527607
0.00962743 0.112193 0.275504
-0.017027 0.345452 0.304594
-0.00340912 -0.127335 0.552699
0.00857042 -0.157434 0.585224
0.0394348 -0.220049 0.266361
-0.0331642 0.303969 0.165691
-0.0649269 0.286714 0.22146
-0.00115963 -0.29673 0.0273354
0.0365912 0.261188 0.271121
-0.00923234 -0.419913 0.0752628
-0.0143663 -0.26796 0.0131091
-0.0404157 0.178469 0.182894
0.0104544 -0.271728 0.260388
0.00796658 0.0823473 0.205828
0.111991 -0.186001 0.582756
0.0247859 -0.176807 0.407583
-0.116955 -0.186239 0.609434
-0.00628744 -0.143374 0.541338
0.0355788 -0.181935 0.408925
-0.0166431 0.179594 0.202761
0.115853 -0.197832 0.633927
0.0212939 -0.188888 0.377471
-0.000130283 0.206275 0.282648
-0.039832 0.235577 0.316096
0.0124319 -0.42683 0.264578
-0.00759934 0.125889 0.458891
-0.0478157 0.264868 0.277458
0.0419091 -0.24557 0.225162
-0.00198775 0.271241 0.302391
-0.0164651 0.434528 0.141036
-0.011425 -0.133199 0.385361
0.0316041 0.243166 0.313932
-0.0318331 0.224333 0.156015
0.00210859 0.192965 0.120961
0.00921746 -0.45716 0.163891
-0.0334395 0.313691 0.207359
-0.014272 0.292224 0.0541397
0.00346581 0.118227 0.270133
-0.0530361 -0.275301 0.17697
-0.0308819 0.328691 0.175836
-0.00688004 0.0119256 0.493898
-0.0130341 0.245972 0.123216
-0.0158828 0.278475 0.0520404
0.00559818 -0.373031 0.028623
-0.00752435 0.185035 0.192291
-0.0042541 -0.461173 0.20884
-0.0129539 -0.202976 0.331501
0.018282 -0.291442 0.188867
0.0119636 -0.332637 0.0235375
-0.0308801 0.0682927 0.152544
0.00905504 -0.151364 0.301931
0.111456 -0.225491 0.655355
-0.011164 -0.340838 0.127973
0.00245781 -0.362882 0.321271
0.00712549 0.177402 0.439804
0.00254802 -0.147963 0.482524
-0.0428019 -0.220889 0.292297
0.000619373 0.24305 0.289565
0.000916337 0.224519 0.274694
-0.111734 -0.211723 0.645619
-0.0154715 0.454981 0.141431
-0.00171075 -0.389957 0.298383
-0.00479744 0.39825 0.0584728
-0.00962695 -0.375408 0.342477
0.00556664 -0.393981 0.204755
-0.0133266 -0.380998 0.328199
-0.00862131 0.123372 0.305688
0.00864262 -0.167588 0.307674
-0.00524224 -0.0659538 0.509281
0.00350792 -0.146905 0.486615
-0.00147856 0.200065 0.537495
-0.0141544 -0.152593 0.0784151
-0.00237742 0.100042 0.221428
-0.0125232 -0.359699 0.335669
-0.0106601 0.270839 0.32459
-0.0243806 0.0837915 0.203935
-0.00702281 -0.296453 0.308191
-0.0360486 0.317596 0.179381
-0.0178036 0.184221 0.150948
-0.00561356 -0.137764 0.532062
-0.0125007 -0.0569618 0.324002
-0.0628083 -0.23895 0.242934
0.000567742 0.22696 0.0845256
0.0109444 -0.107724 0.236941
-0.00953311 0.197794 0.425118
0.0113473 -0.410186 0.289057
-0.00117214 -0.112724 0.179072
0.0121507 -0.392823 0.056492
0.000351842 -0.414029 0.271486
-0.0353272 0.169388 0.18148
-0.00556871 0.400368 0.119815
0.0416005 -0.203986 0.308028
-0.0180974 0.201764 0.268542
-0.0185879 0.304032 0.317297
0.0528078 0.301728 0.199098
-0.0144863 -0.162206 0.0588459
-0.0589988 0.278076 0.219663
-0.0130674 0.0545268 0.224009
0.00878515 -0.154579 0.586264
-0.00723811 0.437741 0.158932
0.00318454 -0.279423 0.202617
-0.00868127 -0.114977 0.198633
0.000289142 0.330678 0.12806
-0.0183145 0.353105 0.318151
0.000559197 -0.311766 0.0302481
0.0317404 0.277504 0.176393
-0.000483904 -0.11242 0.282895
-0.00440371 0.436512 0.151401
-0.0492056 -0.260953 0.21503
0.00441632 -0.164198 0.240323
-0.0130243 -0.40001 0.301331
0.0502464 -0.216056 0.307121
-0.109576 -0.230053 0.651586
0.025961 0.137789 0.276814
-0.00363861 -0.272818 0.0288448
-0.0194242 0.42848 0.257742
0.0082966 -0.360264 0.201932
0.0123555 -0.429128 0.254425
-0.0067182 0.225112 0.273805
-0.0106913 -0.430518 0.150782
-0.000308336 0.183033 0.212054
-0.0103433 -0.287142 0.180549
-0.114844 -0.200117 0.618867
0.00429195 -0.316575 0.369583
-0.014052 -0.207175 0.0369196
-0.015657 0.276331 0.322955
-0.0142831 -0.130245 0.109825
-0.0604848 0.274438 0.18059
0.000317074 0.298039 0.325968
0.00118382 0.224901 0.0773304
0.0440413 -0.199942 0.35604
-0.00112032 -0.424021 0.301344
0.000614419 -0.0908018 0.513729
-0.0091052 0.196417 0.546608
0.00720763 -0.195849 0.137896
0.0165259 0.185979 0.54922
0.120622 -0.185466 0.581728
-0.0145408 -0.110366 0.158807
0.0443884 -0.204171 0.307924
0.00735608 -0.241203 0.344412
-0.0203807 -0.253647 0.188336
0.0018905 0.249883 0.059219
-0.0289655 0.0450322 0.119226
0.0112346 -0.429263 0.0932687
0.00759519 -0.130936 0.530298
-0.0115555 -0.374807 0.0627583
-0.00255015 0.351097 0.306738
0.00638515 0.154848 0.37144
-0.011405 0.0305509 0.237712
-0.020537 -0.273864 0.177741
-0.0121999 0.434107 0.141861
0.00031904 0.131546 0.30111
-0.00662704 -0.149094 0.0495944
-0.010967 -0.14935 0.322697
-0.0383179 0.0659793 0.171731
0.000903728 -0.144551 0.0907096
0.00570644 0.0482455 0.23786
0.0111172 0.192194 0.436273
-0.00823546 -0.0302609 0.306424
0.00927391 -0.122032 0.258187
0.000433675 -0.24051 0.0294637
-0.0143376 -0.11077 0.198295
0.00546366 0.148983 0.352991
-0.000579424 0.25624 0.301301
-0.00687977 0.309634 0.0508999
-0.00283817 -0.265165 0.375332
-0.0141682 -0.130088 0.264793
0.0103843 -0.182289 0.0560613
0.00201123 -0.122284 0.236253
0.00185363 0.188328 0.140961
-0.0484344 -0.270567 0.20426
-0.0123228 -0.164743 0.042647
-0.0170498 -0.235266 0.181879
0.00188265 0.239407 0.0586551
0.041125 0.122955 0.281091
-0.00567585 0.400134 0.301504
0.0249829 0.228663 0.174761
-0.00496954 -0.421769 0.0732009
0.0451445 -0.270557 0.181284
0.0127727 0.195494 0.428145
-0.0419714 -0.203876 0.308889
-0.00360804 -0.291827 0.374891
0.00643977 -0.423793 0.298923
-0.0119386 -0.100273 0.356814
-0.0165099 0.454271 0.143054
-0.00227763 -0.347209 0.361005
0.00715404 0.158765 0.398024
-0.0264424 0.14072 0.194542
0.0159569 0.199726 0.179148
-0.00675151 0.347878 0.303113
0.0118073 -0.388867 0.0692996
-0.0148265 0.460718 0.182274
0.00745697 0.0947374 0.22531
0.00631892 0.326904 0.188222
-0.011811 -0.158954 0.0466428
-0.0151188 0.290751 0.311395
-0.109121 -0.224739 0.654027
0.00240041 -0.359357 0.323653
-0.010985 0.195135 0.129843
-0.0414426 -0.189973 0.362625
-0.0338617 0.302184 0.164009
-0.0300059 0.0462568 0.219219
-0.00569357 -0.415679 0.065967
-0.00833069 -0.3665 0.218491
-0.00948941 0.39189 0.0786968
-0.0072298 -0.193743 0.045973
-0.0098554 -0.179391 0.432422
0.00126252 0.170813 0.401841
-0.0185758 0.268687 0.568576
0.0010297 -0.138963 0.512965
0.00100058 0.425504 0.104003
0.0340807 -0.290347 0.1901
-0.0123646 0.0628696 0.218487
0.0103606 -0.221005 0.0262338
0.0245809 0.256659 0.301417
-0.0100033 -0.41893 0.257433
-0.0132522 -0.319986 0.0156605
0.00699935 -0.161938 0.583014
0.0031344 -0.184853 0.429091
-0.00419375 -0.0875077 0.205661
0.00157621 0.316336 0.0421904
-0.00812939 -0.119211 0.240137
-0.0242968 -0.271636 0.179753
-0.0125446 -0.320038 0.252534
-0.0171309 0.347793 0.304092
-0.0178865 0.445981 0.165254
-0.0296258 0.180982 0.184313
-0.0296081 0.196734 0.212456
0.0079604 -0.159203 0.462206
0.00385285 -0.154365 0.510858
0.009106 -0.363022 0.201604
0.0122325 -0.421204 0.265586
0.0123674 -0.442271 0.167536
-0.0141547 -0.106608 0.250245
-0.0149546 0.434296 0.140952
0.00324599 0.339955 0.199758
-0.00913922 -0.384925 0.31148
0.00606289 -0.119041 0.131425
-0.061051 0.282841 0.23331
0.000981149 0.429354 0.246828
0.0105506 -0.140023 0.0933824
-0.0113543 0.288009 0.308595
-0.012999 -0.359771 0.329144
0.0469338 0.114178 0.268325
0.000123642 -0.417914 0.121838
0.0228689 0.248104 0.570543
0.0293642 -0.205559 0.324074
-0.0143328 -0.179303 0.336932
-0.00585829 -0.136089 0.532526
0.00849894 -0.175466 0.418655
0.00416995 -0.254121 0.37429
0.0512858 -0.236782 0.24878
0.0208332 0.307564 0.173537
0.00132405 0.369154 0.306403
0.046827 -0.288274 0.182704
-0.000595353 -0.417108 0.11793
-0.00411236 0.460987 0.189821
-0.0060031 -0.432041 0.160246
-0.00890124 -0.20301 0.335765
-0.000316597 0.310211 0.114999
0.000266593 0.161017 0.375963
-0.0054349 0.0592847 0.207661
-0.062353 0.292245 0.19104
0.00342329 0.170723 0.548447
-0.00989963 0.44382 0.252953
0.0409451 -0.234599 0.24102
-0.0084274 0.30022 0.18185
0.0338472 -0.176751 0.407494
-0.00140487 -0.115806 0.195219
-0.00165761 0.331556 0.307448
-0.0310811 0.10784 0.166519
-0.00213312 0.0428528 0.243765
0.0225075 0.2516 0.306493
-0.0181054 0.211174 0.0933669
0.082899 -0.18444 0.586767
0.0363751 -0.267309 0.190835
-0.00285656 -0.250117 0.0462888
-0.0064498 0.0722729 0.186304
0.0007317 0.421022 0.10743
-0.0315081 0.177798 0.217717
-0.0378683 -0.185752 0.417134
-0.0383873 0.0802912 0.180985
0.00998206 -0.106415 0.159883
0.0043808 0.0906899 0.202052
-0.118213 -0.192376 0.623719
-0.079615 0.0676692 0.10513
-0.0117616 -0.264159 0.355448
-0.0133239 -0.29687 0.359315
-0.0278569 0.0415975 0.214849
0.0339599 0.134842 0.266154
-0.000934637 -0.43637 0.189165
0.0372947 -0.19351 0.583661
0.00864867 -0.347983 0.236523
-0.0163606 -0.184483 0.401939
-0.0145228 -0.11778 0.260217
-0.0227938 0.203635 0.386987
-0.0624062 0.27902 0.233875
-0.0173899 0.39876 0.0787214
-0.00353959 0.029935 0.492318
-0.015858 0.301811 0.176665
-0.0290811 0.0738423 0.182146
0.0020285 0.234231 0.290555
0.00157652 -0.316297 0.0341932
-0.015528 0.175745 0.234624
-0.0178887 0.230142 0.0805183
0.0179353 0.231767 0.543859
-0.0114796 0.390852 0.080485
0.0032701 -0.118824 0.137375
0.00151471 -0.154885 0.460326
-0.0170747 0.366211 0.316337
0.0212238 -0.283029 0.202079
0.0023605 0.196477 0.257706
-0.00592516 -0.122903 0.577548
-0.00613009 -0.0878635 0.183344
0.0193712 0.125239 0.280851
0.00204636 -0.454216 0.242658
-0.00996671 0.390186 0.0802164
-0.00752177 0.190615 0.134696
-0.00344254 0.435766 0.0978275
0.0069937 -0.102775 0.529346
-0.0118007 -0.401457 0.318424
0.0507269 -0.225966 0.280527
-0.0190366 0.362669 0.0532202
-0.0174773 0.205014 0.252105
0.0103251 -0.155535 0.0784431
0.00208836 0.0497944 0.237576
0.0169994 -0.273552 0.206077
0.00244317 -0.461731 0.194222
-0.0314502 0.174089 0.218966
0.115184 -0.204704 0.640181
-0.0120043 0.4406 0.202477
0.00667308 -0.434348 0.193065
0.0112177 -0.0526742 0.324115
0.0124538 -0.444213 0.192992
0.00957906 -0.372122 0.323581
-0.0042625 0.261481 0.30092
0.00878235 -0.270208 0.198527
0.0262168 0.223766 0.550846
-0.000196413 -0.0019979 0.261567
0.00645202 -0.234646 0.0878693
0.00776489 -0.0794547 0.521121
0.016869 -0.248934 0.178593
-0.00608823 -0.44647 0.1154
-0.0146103 0.203456 0.111691
0.00396623 -0.00250655 0.501949
-0.0168109 0.183164 0.247433
-0.0108085 -0.35259 0.335628
-0.0138362 0.351717 0.324355
-0.0254993 0.126337 0.194758
-0.0580425 -0.269967 0.196506
-0.0190314 -0.261812 0.158783
-0.00869379 -0.35337 0.0483058
-0.0309073 0.0459062 0.185103
-0.013349 -0.194381 0.585458
0.0173211 0.206404 0.403502
-0.0128754 -0.415044 0.278514
0.0112191 -0.16951 0.329425
0.00107897 0.326414 0.317023
-0.0184084 0.222893 0.288917
0.00122113 0.254412 0.303136
-0.00416962 -0.062307 0.336954
0.0520942 -0.186373 0.582704
-0.0491121 -0.269197 0.196535
0.0114616 -0.173552 0.329955
-0.0316514 -0.180935 0.425809
-0.0197503 0.117974 0.196759
-0.00462629 -0.0758048 0.348805
-0.000438902 0.338189 0.311661
-0.016647 0.410545 0.0717395
0.0566791 0.107085 0.27516
-0.0174155 0.212371 0.284879
-0.00139045 -0.149279 0.477722
-0.00880488 -0.253474 0.087071
0.0077682 0.0839853 0.200502
-0.0126181 -0.44654 0.195547
-0.00510958 -0.186478 0.424201
0.00646736 -0.142132 0.513934
0.0871622 -0.191659 0.581735
-0.008803 -0.434181 0.144593
-0.00353799 -0.135529 0.272392
-0.0591973 -0.273544 0.188972
-0.0186308 0.451385 0.142638
-0.0178902 0.183734 0.217258
-0.024924 -0.196602 0.371701
0.00135441 -0.310162 0.342985
-0.00565244 -0.138974 0.522423
-0.0309078 0.126749 0.194151
-0.0243046 0.0687647 0.199804
-0.00124991 0.210333 0.258104
-0.00903705 0.417319 0.0725141
-0.00868287 -0.415432 0.068822
-0.0145869 0.241645 0.0733664
-0.0250774 -0.271795 0.179601
-0.0143236 -0.106148 0.221152
0.0113855 -0.344416 0.332524
0.00617173 -0.391586 0.204191
0.0398313 -0.205277 0.350186
-0.0162457 0.401266 0.279374
0.00029019 0.27451 0.303497
0.000113282 -0.327014 0.338812
0.00124717 0.261563 0.191031
0.0125651 -0.273245 0.129969
0.0458451 0.289755 0.176357
0.00401933 -0.132323 0.399648
0.00403621 0.197626 0.4139
0.00233736 0.17838 0.422092
-0.01454 -0.107864 0.190474
0.0105904 -0.234206 0.352728
-0.0206385 0.342029 0.211121
0.00158824 -0.039305 0.317224
-0.116866 -0.190396 0.623747
-0.0182185 0.38428 0.296153
0.00179486 -0.0604421 0.313556
0.00961689 0.0599726 0.210103
0.0105933 -0.128308 0.110884
0.00960731 0.115661 0.271759
0.0119431 -0.397831 0.295767
-0.0173879 0.194919 0.0966919
-0.0108224 0.391118 0.0776195
0.00198605 -0.300794 0.0307048
0.0106225 -0.173028 0.417991
0.0122802 -0.438631 0.211912
0.0659619 0.133509 0.275999
-0.014518 -0.15134 0.0653217
-0.00495099 0.129667 0.336124
-0.00722784 0.00468412 0.494876
0.0132549 0.281026 0.555219
-0.00854931 -0.17942 0.348228
-0.0191059 0.410197 0.0912127
0.00310977 -0.380799 0.261104
0.00189575 0.19191 0.25844
0.0050102 -0.374607 0.257965
0.00955034 -0.114748 0.243512
0.00254444 -0.151597 0.473803
-0.0133602 -0.340666 0.344923
0.00474261 -0.332127 0.341305
-0.000514667 -0.0571804 0.519285
0.0407529 0.276962 0.180299
-0.0288999 0.185277 0.156507
0.000688468 0.178384 0.195469
0.115116 -0.230284 0.650308
-0.048012 0.0377025 0.110443
-0.0136624 0.224071 0.060903
-0.0081697 -0.453732 0.23305
-0.0646702 0.296257 0.181672
-0.0312204 0.302649 0.175616
-0.00235356 0.221661 0.559359
-0.00643268 -0.397468 0.289956
-0.0114123 0.0595424 0.211649
-0.0605742 0.274849 0.229398
-0.0249277 0.0604399 0.230544
-0.0184898 0.309211 0.31387
0.0105764 -0.216363 0.017959
-0.0313941 0.0682705 0.108433
0.0109296 -0.401496 0.0573251
0.0283895 0.232269 0.55108
-0.0147542 0.347138 0.0575345
-0.000996946 -0.419053 0.0681819
0.00627228 0.224929 0.569655
0.00584546 -0.191169 0.0508238
0.0105178 -0.12006 0.0997903
-0.00380582 0.199997 0.119638
0.00245356 -0.115446 0.362709
0.00033498 -0.0505654 0.327285
0.0120638 0.0240959 0.245841
0.0143602 0.173608 0.551567
-0.014609 0.237591 0.284909
-0.0261343 0.246521 0.562258
0.0456103 0.112031 0.282239
-0.00415207 -0.0324245 0.31043
-0.0394436 0.257448 0.288818
0.0101474 -0.145372 0.0925778
-0.0291002 -0.201453 0.359808
-0.0310307 0.209344 0.155712
0.0106145 -0.441992 0.171581
-0.013269 -0.224684 0.351293
-0.03125 0.274055 0.15732
0.00289315 0.243361 0.544031
-0.000459603 0.24622 0.290954
-0.0182216 0.288026 0.0533014
0.0390686 -0.196862 0.331777
-0.0498894 0.275417 0.252061
-0.0352645 0.243894 0.32445
-0.0188216 0.359046 0.311283
0.000386231 0.139198 0.363538
-0.000561379 -0.207369 0.043928
-0.00447517 -0.1442 0.0528018
-0.0234885 0.311872 0.192502
-0.0302208 0.184453 0.155289
0.00466789 -0.204483 0.280177
-0.00503903 0.453402 0.231379
-0.00827037 0.204499 0.563494
0.00151754 0.342515 0.312839
0.00963946 0.109314 0.270095
-0.00503 -0.314509 0.0301702
0.00230051 0.207322 0.275205
-0.00879569 0.18846 0.21003
0.12006 -0.23974 0.659959
0.00218774 -0.187394 0.58204
-0.0183 0.258185 0.060232
-7.28945e-05 0.00691484 0.275899
0.0357767 0.268728 0.562587
0.0121597 -0.387188 0.324255
0.0116385 -0.298354 0.256674
-0.00335284 0.277662 0.303713
-0.0152174 0.300361 0.186235
-0.0102639 -0.385719 0.312286
-0.0287149 0.183871 0.15738
-0.0638973 0.0605339 0.102715
0.0055896 -0.301279 0.0302854
-0.0060759 -0.109748 0.37852
-0.00154679 -0.087971 0.21417
-0.0140854 -0.225457 0.0262659
-0.00783866 -0.410787 0.314291
-0.0191595 0.43954 0.128502
0.00982132 -0.157487 0.310044
-0.0190106 0.416798 0.260931
-0.0100879 0.384457 0.0892262
-0.0112163 -0.388811 0.0648029
0.0148457 -0.192651 0.582248
-0.0288548 0.223339 0.209198
-0.0261621 -0.196273 0.354057
0.00128843 0.347767 0.31826
-0.00111428 0.187563 0.448405
0.0650992 -0.188513 0.58119
-0.0162823 0.300639 0.0341761
0.0112911 -0.232615 0.0226101
0.00453062 -0.132229 0.260331
0.00715576 -0.414044 0.0991951
-0.00810423 0.299516 0.0511651
0.00749655 -0.21823 0.0125335
-0.0600766 0.278612 0.178259
0.0177837 -0.184598 0.401579
0.00955645 -0.447338 0.250384
0.0097529 0.0805818 0.204007
0.00567281 0.00271043 0.498957
-0.00451936 0.214689 0.135486
0.0120909 -0.36301 0.332976
-0.0254075 0.0420818 0.185908
0.00972269 0.088308 0.222312
-0.00161961 0.31233 0.0482677
0.00935483 -0.115929 0.214102
0.0112851 -0.276138 0.350961
-0.0580425 -0.275487 0.18236
0.0358234 -0.209592 0.33739
-0.0146477 -0.115699 0.256922
0.00295859 -0.0340909 0.312419
0.014389 0.221044 0.382618
-0.0161924 -0.185759 0.409792
-0.0466324 -0.270314 0.195572
0.00699827 -0.459872 0.165916
-0.0216745 0.346376 0.17984
-0.00477595 0.452535 0.232992
-0.00942381 -0.187492 0.351031
-0.00256978 0.156858 0.454862
0.0117432 -0.22865 0.0192553
-0.00144619 0.348302 0.303801
-0.000604195 -0.453063 0.127078
-0.0722629 0.29613 0.186517
0.010917 -0.399294 0.30112
-0.0210031 0.262119 0.551972
-0.00669964 -0.138085 0.543936
0.0298132 0.270031 0.554626
-0.00931025 0.332211 0.329862
0.0483174 -0.238457 0.246699
-0.0437801 -0.198941 0.3246
-0.000548769 -0.132956 0.108617
-0.0169601 -0.297373 0.159276
0.02126 0.315218 0.175379
0.000778758 0.40816 0.0912296
-2.07848e-06 0.0328206 0.230601
0.0101968 0.280054 0.554654
-0.00852098 -0.363091 0.322061
-0.0090282 0.17774 0.247022
0.00255702 -0.0621271 0.505656
-0.026551 0.0813212 0.162422
-0.0468886 -0.199573 0.351787
-0.0290359 0.0626624 0.158224
0.00560794 -0.359378 0.0221929
0.000166806 0.440491 0.191847
0.0109585 -0.284456 0.0267426
-0.00682302 0.184395 0.454798
-0.0185941 0.214053 0.0801123
-0.0558486 0.28773 0.211184
-0.00938887 0.112506 0.190428
-0.011936 0.197336 0.118803
-0.018665 0.29907 0.227147
-0.0131067 -0.364196 0.0496971
-0.00124017 -0.131292 0.526531
-0.0339168 -0.168492 0.42188
-0.0146111 -0.123697 0.0942495
-0.115468 -0.203865 0.626042
-0.0312681 0.183274 0.159016
-0.0561523 -0.267923 0.19303
0.000699194 0.232069 0.280776
-0.0049816 0.438789 0.162125
0.000293773 -0.187091 0.410171
-0.0107246 -0.0965678 0.234148
-0.0178486 0.235746 0.302003
0.00441539 -0.454898 0.139837
-0.0143357 0.301621 0.311902
0.042315 -0.218394 0.264946
0.0858149 -0.19018 0.594185
-0.0290027 0.0519689 0.117204
-0.00158055 -0.138726 0.510364
-0.00949209 -0.237279 0.348693
-0.0135392 0.205929 0.252328
-0.00301497 -0.248715 0.0430795
-0.0070996 -0.0956167 0.133854
0.00271134 -0.336873 0.0107398
0.0130741 0.216041 0.540273
0.00591077 0.330589 0.195364
0.0104043 -0.143916 0.091096
0.0429742 -0.221027 0.299014
0.00188075 0.20143 0.261277
0.0111552 -0.286307 0.349073
-0.0703244 0.0506591 0.103753
-0.00570194 0.102316 0.264656
0.0116998 -0.390558 0.30166
-0.0316441 0.229838 0.329001
0.0505242 -0.285222 0.200597
-0.00391027 -0.159741 0.0400461
-0.0285105 0.123369 0.174208
-0.010358 -0.377342 0.310881
0.011117 -0.219563 0.351792
0.0191089 0.216339 0.387477
-0.00476856 0.353145 0.0592197
0.019127 -0.267302 0.179444
0.00431594 -0.187019 0.0534479
0.0195611 -0.184593 0.389773
0.0208912 0.185547 0.18923
-0.00356167 0.401627 0.299531
0.0367821 -0.28935 0.194536
-0.00812007 0.1134 0.459983
-0.00249326 -0.118653 0.231358
-0.0139911 0.184614 0.44569
-0.00564472 -0.34914 0.284309
-0.0075701 0.264855 0.291055
-0.0117964 -0.4118 0.28578
0.000369329 -0.186227 0.304916
-0.00406178 0.27729 0.265842
0.00690786 -0.209013 0.333871
0.0565773 -0.271723 0.199024
-0.0052783 -0.139156 0.514638
0.00461734 0.0297501 0.479297
-0.00474646 -0.183385 0.423185
0.0374319 0.250188 0.178432
-0.0104131 0.189168 0.0948661
0.00102714 0.422647 0.0997458
0.00805054 -0.459032 0.193039
-0.0289095 -0.188511 0.407309
0.0183516 -0.263126 0.177437
0.010627 -0.112525 0.226093
0.0122479 -0.364693 0.339859
0.114269 -0.185862 0.612157
-0.000722566 0.161812 0.55464
0.0248619 0.252376 0.315061
-0.00156161 -0.112962 0.196444
-0.00159853 -0.376791 0.0661627
-0.078764 -0.185544 0.590878
0.0243153 0.254765 0.307081
0.0124093 -0.369673 0.0409456
-0.0135865 -0.371511 0.334862
-0.00371333 0.185835 0.160538
-0.0119473 -0.301813 0.0297682
-0.0158993 0.241084 0.0672651
-0.0113184 -0.031293 0.293312
-0.00128949 -0.331076 0.0458864
-0.0133331 0.163532 0.193193
-0.00768724 0.0879206 0.202834
-0.0568344 -0.244488 0.218578
0.0110065 -0.181777 0.0447306
-0.00113894 -0.0931106 0.140014
0.000733593 0.424612 0.111938
-0.0182532 0.222185 0.0788221
0.0173574 0.269141 0.570417
0.00647508 -0.15482 0.501717
0.0194222 0.239315 0.342172
0.0539917 -0.184689 0.590101
-0.0308556 0.313296 0.205916
-0.0134453 -0.357281 0.0388426
0.0112729 -0.451126 0.228412
0.00160965 0.307027 0.313682
-0.00870115 0.145166 0.353999
0.00715348 -0.157423 0.466455
-0.0338178 -0.186581 0.405316
0.0178497 0.0778811 0.199282
-0.00991704 -0.449583 0.243924
-0.0181129 0.453379 0.146476
-0.00426809 -0.220312 0.321795
-0.00731037 0.344674 0.326965
0.00868768 0.0559523 0.229078
-0.00657826 0.21795 0.246286
-0.0068896 0.239524 0.0844422
0.0061866 0.128631 0.452209
-0.0140242 -0.21731 0.349603
-0.000459418 -0.269107 0.0291109
-0.0176869 0.219742 0.289725
-0.00364189 0.28192 0.556004
0.0131391 0.24036 0.571645
0.0580034 -0.238272 0.231271
0.0147861 0.233261 0.542732
0.0496524 -0.237184 0.248256
0.000864628 0.376197 0.0672254
-0.00351685 -0.0121895 0.270912
-0.0289907 0.049275 0.113496
-0.0200484 0.27497 0.555789
-0.0190132 0.415756 0.277994
0.0298318 0.264938 0.288576
-0.0353657 0.192885 0.188762
0.0126508 -0.402682 0.306606
-0.0245521 0.300086 0.177483
-0.00774438 -0.13471 0.538456
0.0474613 -0.281891 0.194768
0.00155758 0.345368 0.216684
-0.110962 -0.185282 0.606129
0.0265695 0.106861 0.274535
0.0347243 -0.198701 0.37334
-0.0129876 -0.415678 0.294264
-0.002456 -0.347228 0.332831
-0.00337162 0.305843 0.0943694
0.00389963 0.275659 0.552506
0.00111715 -0.353978 0.01832
0.0109575 -0.151579 0.304238
-0.0614233 0.281499 0.171291
-0.00441689 0.176936 0.434567
-0.0107169 -0.0951735 0.228322
0.00054766 0.183962 0.186685
0.0152346 0.11993 0.267721
0.0415726 -0.282171 0.202416
-0.0182268 0.279729 0.314272
-0.0382664 -0.186242 0.372738
0.00170184 0.216712 0.287271
0.0104467 -0.128711 0.113537
0.0263788 0.235642 0.174093
-0.0110189 0.242306 0.288043
0.031923 -0.184862 0.590423
0.00127433 -0.120883 0.145535
-0.000170564 -0.132528 0.310237
-0.0137331 -0.105303 0.189643
-0.0325318 0.244849 0.206626
0.0978287 -0.193798 0.585376
0.00672472 0.195208 0.510234
0.00735712 -0.218937 0.338623
-0.00920225 0.191478 0.132395
0.0171584 -0.251705 0.205624
0.0044335 -0.124182 0.124004
-0.0134136 -0.289111 0.365141
-0.0138723 -0.114366 0.247586
0.00143364 0.145787 0.338061
-0.0145683 -0.110603 0.154394
0.027861 -0.27066 0.19935
-0.0223393 -0.288196 0.181908
-0.00820533 0.172644 0.435663
0.00286131 -0.204402 0.361233
-0.00238451 -0.119716 0.223169
0.00101134 0.43606 0.237513
-0.0143846 -0.172206 0.0526103
-0.0490843 0.27028 0.243254
-0.0646839 0.306104 0.181369
-0.0132375 -0.403643 0.30842
0.00792071 -0.429359 0.0861625
-0.0214354 0.314637 0.176222
-0.0175172 0.246095 0.0520056
1.57559e-05 0.301472 0.0350074
-0.0159375 0.336793 0.30635
-0.0840153 0.0582779 0.102952
-0.0301394 0.173427 0.217044
-0.0139728 -0.28723 0.0144447
0.114959 -0.193623 0.600509
-0.0308286 0.0477451 0.212538
-0.00637792 -0.209992 0.0420383
-0.0183403 0.286448 0.052358
0.0489388 -0.270253 0.198989
-0.0186597 0.407936 0.287157
0.00704498 -0.187939 0.0255337
-0.119142 -0.226941 0.6511
-0.00221495 0.0332361 0.252361
-0.0247534 0.219879 0.378449
0.0417067 -0.214722 0.275394
0.0323515 0.249197 0.31494
-0.0177649 0.245228 0.548467
0.00180407 0.169721 0.199972
0.00617842 -0.259916 0.373425
-0.0143809 0.167923 0.149479
-0.0133853 -0.131557 0.2794
-0.0351532 0.315596 0.190944
-0.00252594 -0.278957 0.349908
0.00897081 -0.172313 0.434059
0.000563854 0.358453 0.0603509
0.00108155 -0.136281 0.403912
0.000470118 -0.261758 0.336435
-0.0243658 0.0792451 0.1878
-0.0151144 0.186843 0.207057
0.0117416 -0.383014 0.0651205
0.0267934 0.258202 0.283583
-0.0138853 -0.16342 0.0582741
0.00486958 0.192568 0.469836
-0.0177708 0.228211 0.288649
-0.010161 -0.177909 0.407785
-0.00553263 -0.364784 0.111274
0.0174747 -0.280774 0.203757
-0.00157387 0.127911 0.188944
-0.00203207 -0.165459 0.0347724
-0.00701929 -0.144043 0.52465
-0.00881436 -0.367559 0.32502
-0.0160426 0.343661 0.323913
-0.0132006 -0.37347 0.326726
0.0120905 -0.0207225 0.294041
0.0113933 -0.246216 0.0184522
-0.00718915 -0.336591 0.0406354
-0.0139131 -0.0952976 0.208323
0.009242 0.150412 0.182736
-0.00829296 0.430457 0.22819
-0.0142784 -0.164435 0.317034
0.0106504 -0.278971 0.356866
-0.00403251 -0.230945 0.341298
-0.000653155 0.186455 0.258398
-0.0169265 -0.237484 0.18595
-0.0614303 0.308671 0.190701
0.000911288 0.385248 0.0580891
0.00151921 -0.430917 0.144774
-0.0117159 0.122425 0.191285
0.0109348 0.171753 0.191581
-0.00647581 0.454346 0.131612
0.0913118 -0.193941 0.585961
0.0495088 0.304147 0.173801
0.00239353 -0.410134 0.204507
0.00054589 0.412237 0.0871191
-0.0492056 -0.223077 0.251826
-0.0158231 0.300386 0.0478923
-0.00354364 -0.132025 0.576307
-0.0186457 0.303779 0.04632
-0.000793532 0.307916 0.109081
0.000515769 -0.0387038 0.294217
-0.00966855 -0.118413 0.22203
-0.0193045 0.413375 0.0873111
0.0109392 -0.149535 0.307894
0.00469983 -0.158495 0.454602
-0.0543229 -0.26457 0.196582
0.0428093 -0.18454 0.588922
0.00282196 0.244769 0.544407
-0.000996303 -0.146864 0.287283
-0.0172168 0.314299 0.0351373
-0.008834 0.210415 0.25691
0.011819 0.218957 0.368617
-0.00464669 0.278609 0.0546466
-0.0177367 0.263732 0.0537117
0.0430376 0.318601 0.176339
-0.0340115 -0.276992 0.20249
-0.0650153 0.303822 0.176361
-0.0132699 -0.234333 0.343436
-0.0652072 -0.237529 0.229318
0.115147 -0.231391 0.651285
0.00349708 0.108695 0.197222
0.0054284 -0.112387 0.215267
0.0461212 0.283458 0.237766
-0.0140516 -0.104494 0.129148
-0.00331465 0.401342 0.273158
-0.0209079 0.28669 0.152399
0.00463458 0.194772 0.438605
-0.00742544 -0.385413 0.308887
-0.00480592 -0.147464 0.0502787
0.0142441 0.269327 0.57076
-0.0141334 -0.0963757 0.166346
-0.00916025 0.210551 0.564225
0.0204726 0.212847 0.383333
-0.0179441 -0.312133 0.189209
0.00957186 -0.121162 0.257222
-0.0114662 -0.323593 0.034622
0.0036695 0.0349243 0.228884
0.00680308 -0.408701 0.0996778
-0.118156 -0.193203 0.601423
0.000244205 -0.190599 0.582194
0.00855131 -0.115507 0.2118
-0.00578359 0.404012 0.298487
-0.00444754 0.244298 0.289385
-0.0007223 -0.122755 0.246023
-0.113736 -0.240868 0.661814
0.00223805 0.19671 0.423079
0.0095834 -0.0474079 0.305152
-0.00602565 -0.163715 0.0683608
-0.00809376 -0.370464 0.0599949
-0.0301526 0.0722461 0.239094
-0.0172929 0.34005 0.323417
-0.0735099 0.298536 0.182929
-0.00751067 0.161988 0.183331
-0.0280334 0.14781 0.194191
-0.0166399 0.227275 0.0842549
-0.00627561 -0.192859 0.0829827
0.10503 -0.184233 0.587296
-0.0175702 0.221335 0.282277
-0.0098295 -0.420404 0.107792
-0.0482114 -0.267298 0.189417
0.0108327 -0.287508 0.357312
-0.0190576 0.35926 0.167198
-0.0145665 -0.121684 0.117507
-0.00843126 0.106117 0.262303
0.00646502 -0.322369 0.0303861
-0.00141022 -0.4548 0.241219
-0.0530183 0.0682929 0.109731
1.80751e-05 0.16518 0.386384
-0.00562562 0.442468 0.174438
0.01062 -0.300946 0.26224
0.0105419 -0.112483 0.218972
-0.003261 0.138158 0.359557
0.00555233 0.295276 0.18519
0.000626873 -0.117467 0.228634
0.00741122 -0.279133 0.0225792
0.107949 -0.186924 0.593942
-0.00300347 -0.183925 0.582722
-0.0113328 -0.0247581 0.298458
0.00988715 0.0130304 0.266869
-0.0045341 0.0223863 0.240232
0.0815338 -0.185021 0.584733
0.0294299 -0.188357 0.410562
0.0010369 0.354429 0.311289
0.00555244 0.050789 0.215673
0.000602211 -0.340988 0.0401779
0.00944285 -0.205364 0.0350605
-0.0114085 -0.449658 0.236752
0.00121113 -0.37759 0.313033
-0.0641599 0.313898 0.17957
0.0189143 0.191225 0.17839
-0.0577499 0.240988 0.183507
0.0146666 0.189782 0.189475
0.0051589 0.151746 0.388551
0.00134106 0.311579 0.323197
0.0287083 0.26406 0.177059
-0.0128012 -0.391614 0.0740974
0.0447534 0.118143 0.267909
0.0366164 -0.270374 0.181386
-0.00513106 0.144213 0.33677
0.00612188 0.206519 0.548909
-0.00684868 -0.449792 0.252442
-0.00810015 0.462013 0.191831
0.00100107 0.436496 0.236175
0.00251027 -0.135926 0.108278
-0.0560216 -0.222953 0.243365
0.00870713 -0.166072 0.315139
-0.0489948 0.225973 0.186559
-0.00242681 0.274602 0.303123
-0.00680246 -0.0131476 0.49526
-0.018087 0.303419 0.323561
0.00643563 -0.176474 0.345725
-0.0136519 0.380967 0.239441
-0.00310065 0.27827 0.265688
-0.0696361 -0.194077 0.591083
0.0406497 -0.191431 0.381299
-0.00217841 -0.115023 0.169392
-0.0346051 0.236711 0.314118
-0.0110714 0.395951 0.0558831
0.000123328 0.198781 0.0887257
0.00832275 -0.167506 0.441028
0.00892548 -0.417377 0.0730681
-0.0106436 0.399116 0.0841696
-0.0047939 0.130018 0.300333
-0.00568683 0.177967 0.562773
-0.00140569 -0.128767 0.306098
-0.0300259 0.0879251 0.153035
-0.0652925 -0.250365 0.21847
-0.0290621 0.0683976 0.165047
-0.0158981 0.209247 0.104105
-0.0347196 -0.185881 0.584183
0.011073 -0.350931 0.0254341
-0.00874691 -0.160477 0.421128
-0.000796093 0.206553 0.260672
0.0533228 -0.184984 0.585188
-0.0493093 -0.221563 0.296524
-0.0292077 0.165892 0.158434
0.0189567 0.0962265 0.228165
-0.00671875 -0.140654 0.405716
-0.014296 -0.161127 0.314401
-0.0107375 -0.303246 0.368985
0.0116213 -0.347186 0.0404494
