-0.00590035 0.0164957 0.209575
-0.00850946 -0.149575 0.124296
-0.00855007 0.463877 0.145319
0.000377574 0.214839 0.0444846
-0.0289195 0.222548 0.152126
0.00371464 0.469895 0.23174
0.0255667 0.20396 0.183861
0.00271431 0.125149 0.21603
-0.00596458 0.33136 0.256169
-0.00638917 -0.339185 0.00587501
-0.00049334 0.161274 0.553571
-0.00680512 0.303814 0.0122225
-0.00428453 -0.27302 0.16246
-0.000123175 -0.306441 0.0161937
-0.00594346 0.155966 0.154851
0.00236117 -0.314295 0.340234
-0.000153371 0.0486876 0.452189
-0.0197407 0.0730196 0.193735
-0.0278119 0.208416 0.185428
0.0035114 0.346535 0.353255
-0.00678021 0.430363 0.281238
-0.00414112 0.429489 0.183412
-0.00484804 -0.251211 0.0423069
-0.0116926 0.470877 0.193693
0.000855799 -0.112923 0.335237
-0.00830282 0.347039 0.0266591
0.000771539 0.131821 0.166522
-0.00686279 -0.392714 0.0438525
0.0248613 0.185856 0.311631
-0.00474951 -0.305369 0.174307
0.00306964 0.14071 0.53468
-0.00684559 -0.414556 0.055916
0.000579739 -0.111285 0.319607
-0.00364293 -0.22294 0.0511178
-0.0025037 -0.337219 0.129082
-0.00922754 0.121047 0.193141
-0.00239962 0.29919 0.119463
-0.0311205 -0.00311029 0.236834
-0.00960135 0.301133 0.343585
-0.0032146 0.205834 0.162049
-0.0275521 0.171546 0.192234
-0.0182717 0.121223 0.56598
-0.00336445 0.388867 0.0460438
-0.00243619 -0.34036 0.185291
-0.0137195 0.0409919 0.193526
-0.00417243 -0.317948 0.177681
-0.0101362 0.0736279 0.303884
0.000691913 0.104291 0.448708
-0.0087735 -0.230913 0.0297235
-0.00409673 0.076711 0.451334
-0.00390337 0.182209 0.0608932
-0.00653672 -0.458419 0.22575
-0.00482435 -0.294283 0.339495
-0.00245209 0.25441 0.2987
-0.00745819 -0.241016 0.0243056
-0.00999315 -0.231052 0.427009
0.000249652 -0.179148 0.290747
-0.03834 -0.286007 0.267777
-0.00766095 0.348671 0.0272428
-0.0151477 -0.239432 0.405721
-0.00456861 0.380143 0.345858
-0.0884504 0.0348544 0.264569
0.0246718 0.0265272 0.191019
-0.005852 0.273332 0.222692
-0.0224152 0.0179401 0.20438
-0.00061087 0.281644 0.188926
-0.0328231 0.227751 0.254114
-0.00134146 0.392833 0.0268615
-0.00433349 0.298458 0.259392
-0.00200299 0.291591 0.227777
0.0236013 0.16997 0.331355
-0.00548955 0.205187 0.337169
-0.00201447 -0.442153 0.2544
-0.00382356 0.0215302 0.209516
-0.0311205 0.0309304 0.22935
-0.000137321 0.401507 0.0540844
-0.00468891 0.181682 0.13148
-0.0268838 -0.0157608 0.207508
0.00347639 0.468602 0.153465
-0.00435647 -0.250307 0.337778
-0.00198885 0.300337 0.201792
-0.00582451 -0.396201 0.309618
0.00186342 -0.446689 0.104706
0.00399304 0.345067 0.012745
-0.00975158 -0.183703 0.059301
-0.00591688 -0.282958 0.0211892
-0.00334923 0.323176 0.350766
0.0248901 0.296717 0.187562
-0.00105694 -0.245971 0.0220391
-0.0311205 0.0238863 0.202874
0.00303781 -0.0692731 0.451682
-0.0268838 0.00624568 0.218912
-0.0535981 0.0231773 0.264569
-0.00915993 0.447156 0.241976
0.00413412 0.0150958 0.188781
-0.0341841 0.250695 0.22653
0.00143305 0.434302 0.302515
0.0353654 -0.273668 0.307135
0.00295615 -0.148229 0.137845
0.0224113 0.196645 0.296587
-0.00182021 0.244299 0.0348128
-0.0314381 0.184206 0.548718
-0.00457489 -0.303677 0.138454
-0.00657707 -0.134008 0.252784
-0.00386652 0.233269 0.0131105
-0.00101497 -0.274359 0.294438
0.0137116 0.107117 0.188211
-0.00735537 0.0995745 0.430952
-0.00548495 -0.195632 0.551645
0.0145941 0.113156 0.399958
-0.00652798 0.404475 0.0630419
-0.0134403 0.0892402 0.356683
0.0037398 -0.245897 0.0223177
-0.00392694 -0.33288 0.175407
-0.0093019 0.172101 0.0560931
-0.0274651 0.139582 0.566362
-0.00113369 -0.211171 0.17865
0.0429937 -0.197971 0.554046
-0.0268838 0.0430147 0.228702
0.0144791 0.0114932 0.184997
0.00508493 -0.471762 0.199006
-0.00165816 -0.210314 0.533383
-0.0752318 -0.200628 0.546818
-0.00336226 0.302986 0.353094
-0.002305 -0.283242 0.185999
-0.00620199 -0.19321 0.416288
-0.00370437 -0.294431 0.285275
-0.00557008 0.278511 0.238778
0.00399304 0.472324 0.167475
-0.00524995 0.307331 0.340889
-0.00399019 0.26723 0.0961428
-0.00110425 -0.310576 0.253312
3.9191e-05 -0.143363 0.198967
-0.00874268 -0.0163924 0.447338
-0.0041377 0.29634 0.212702
0.00237184 -0.480575 0.194118
-0.00199378 0.273716 0.154904
0.00198618 -0.326068 0.343829
-0.00480929 -0.303939 0.199589
-0.0107564 -0.410254 0.0495079
-0.00244764 -0.362045 0.341445
-0.016232 0.0442134 0.184367
-0.00468428 -0.207793 0.548088
-0.00255265 0.364582 0.226387
-0.00190888 0.142231 0.13308
-0.00581203 -0.213567 0.320391
0.00501917 -0.135384 0.121924
-0.000400825 -0.196509 0.420008
-0.00405492 -0.339325 0.159868
0.0360017 -0.288844 0.205624
0.000771539 0.322891 0.0184048
-0.00752408 -0.216305 0.49931
-0.00436308 0.369219 0.325925
-0.00100515 -0.314988 0.185816
-0.0058955 0.190687 0.136571
0.00162982 -0.458756 0.235363
0.00143503 0.121718 0.166146
-0.00632719 0.376335 0.335515
0.000813246 -0.169233 0.0745276
-0.00092624 -0.19463 0.21887
-0.0107564 -0.246049 0.346787
-0.00464266 0.338431 0.341797
-0.00547052 0.264922 0.159075
0.0367775 -0.282249 0.259454
-0.000400523 0.270834 0.342858
-0.00818726 -0.129321 0.128836
0.0297618 -0.268622 0.281546
-0.00264573 -0.089727 0.314025
-0.000968861 -0.376037 0.154403
-0.00483576 -0.252242 0.169844
-0.00303513 0.251319 0.345276
-0.00731454 -0.376216 0.0381
0.0247775 0.18135 0.316411
-0.029331 -0.0140118 0.163554
-0.00706035 0.294459 0.363613
-0.00177029 -0.176377 0.292919
0.00583949 0.0332203 0.178391
-0.00247575 -0.44535 0.246563
-0.00440344 0.37846 0.231744
-0.0138997 -0.295964 0.181508
-0.00442153 -0.37055 0.332998
-0.0778238 -0.209049 0.557159
-0.028846 0.181015 0.5658
-0.0101022 -0.313478 0.180694
0.00399304 0.353328 0.0150723
-0.0100132 0.451928 0.256424
-0.0301484 0.32124 0.189814
-0.0268838 0.0296574 0.213414
-0.00475804 -0.216713 0.119064
-0.00766337 0.338757 0.00557379
-0.0805958 -0.200007 0.556693
0.000581535 0.276773 0.0216779
-0.0012501 -0.203413 0.465852
-0.00518487 0.197938 0.160843
0.00400663 0.125671 0.567039
-0.0848607 0.0463216 0.268265
0.00152204 0.118157 0.478885
0.000609956 -0.228967 0.418848
-0.0323973 -0.200033 0.55671
-0.00855007 0.463853 0.178896
-0.00427562 0.381427 0.166952
-0.0366404 0.274678 0.180558
0.00096206 -0.35951 0.0121442
0.000103734 0.324876 0.0217544
0.00377788 0.175221 0.551645
0.000771539 0.194743 0.308314
-0.00745819 -0.45464 0.239941
-0.00378461 -0.00630549 0.212977
-0.00547028 0.355192 0.3358
9.78028e-05 -0.140585 0.215333
-0.00200816 -0.265868 0.0209337
-0.0311205 0.0190429 0.191713
-0.000916283 -0.205753 0.310412
-0.00486485 -0.303226 0.123741
-0.00624799 0.309581 0.340629
-0.00960135 0.249623 0.0282959
-0.0196509 0.05568 0.19462
-0.00482489 -0.300139 0.181059
0.0806016 -0.207699 0.545439
-0.00420705 -0.185726 0.0674665
-0.00615103 0.162411 0.0893787
2.34335e-05 0.435534 0.302495
-0.00284961 -0.184611 0.0916021
0.0114245 0.0964766 0.187537
-0.00637429 0.473249 0.236377
-0.0810911 0.00157503 0.264569
-0.00568231 0.228281 0.195093
-0.0314223 0.222404 0.264362
-0.0118483 0.454574 0.267183
-0.00615022 0.239969 0.333717
-0.0107564 -0.467039 0.232182
-0.0386631 0.269248 0.209764
0.00187696 0.187332 0.298342
0.0350152 0.0273715 0.183947
-0.00870159 0.378041 0.0445769
-0.00459645 -0.335692 0.283214
-0.00543395 -0.200171 0.315644
-0.00745819 -0.466431 0.163636
0.00508493 -0.396297 0.330929
-0.00778281 0.0092803 0.209802
0.00291551 -0.138421 0.168409
-0.0118483 0.326877 0.0108163
-0.000915062 -0.264624 0.341687
-0.0011472 -0.332222 0.338495
0.0568952 -0.203963 0.556358
-0.00750921 0.32773 0.347041
0.00399304 0.385361 0.333461
0.0319851 -0.249166 0.382779
-0.00807567 -0.149441 0.134872
-0.00218428 0.252755 0.0317873
0.00288546 -0.176411 0.389147
-0.0118483 0.158806 0.0814537
-0.00502405 0.320092 0.00228623
0.00423455 -0.465765 0.117361
-0.00745819 -0.414911 0.0585622
-0.0111349 0.0841186 0.333848
-0.00136557 -0.265983 0.00455512
0.0029839 -0.240754 0.339812
-0.00745819 -0.393511 0.0442211
-0.00670929 -0.463904 0.190506
-0.000375248 -0.155375 0.247352
-0.00741497 0.320526 0.0175001
-0.00313211 0.0990796 0.364595
-0.0040683 0.386985 0.265216
-0.00612039 -0.266369 0.34182
-0.00221099 0.242871 0.0944947
-0.00173907 -0.304083 0.142736
-0.0017769 -0.353641 0.193111
-0.00390421 0.185898 0.0736518
-0.0118483 0.3586 0.0191548
0.00215809 -0.457718 0.270844
-0.00142617 -0.289225 0.340991
-0.00482046 0.053231 0.242924
-0.00524779 0.292933 0.182966
-0.0292099 0.0202955 0.165495
-0.0227966 0.143393 0.567658
-0.00794108 0.150458 0.119096
-0.00817204 0.0944144 0.415924
-0.00552018 0.28058 0.0141354
-0.00108994 0.318916 0.362484
-0.0102833 0.460781 0.12979
0.0389634 -0.299998 0.188291
-0.0107564 -0.459893 0.115256
-0.00537419 0.281937 0.0937482
-0.00644566 0.38214 0.323286
-0.00337499 0.190919 0.20564
0.00816587 -0.206544 0.55687
0.00157895 0.413176 0.0431327
-0.00811863 0.150195 0.262554
-0.0111648 0.129865 0.229729
0.0145279 0.160309 0.551535
0.00443001 0.0829139 0.329584
-0.0311205 0.0110011 0.211407
-0.0393385 0.0232048 0.19898
0.0443115 0.0397949 0.1157
0.086515 -0.1958 0.55073
0.000771539 0.158314 0.0917156
-0.00513786 0.381374 0.33231
-0.00183947 -0.290519 0.179489
-0.00903111 -0.371284 0.0185516
-0.00789524 -0.324183 0.343964
-0.0053268 0.4418 0.0885344
-0.00440849 -0.258782 0.274668
-0.00444072 -0.364064 0.328646
-0.00340709 0.22436 0.210885
-0.00817018 0.349011 0.338011
-0.00591173 -0.305171 0.012385
0.0340229 0.168358 0.562767
0.00180962 0.134726 0.567355
-0.00396752 -0.217567 0.19164
-0.0392585 0.310952 0.179749
-0.00960135 0.350987 0.334131
-0.000940778 -0.294531 0.334484
-0.00332112 -0.442204 0.264172
0.0976287 0.0322304 0.118329
0.0462848 0.0142028 0.118329
-0.061236 -0.207506 0.547801
0.00747885 0.1582 0.568175
-0.00836852 0.440258 0.0687307
-0.00210655 0.148295 0.125141
-0.0268838 0.0633118 0.196763
-0.00219004 -0.290051 0.193956
-0.00559566 0.300027 0.185414
-0.00850946 -0.403391 0.0591653
-0.00283754 -0.318976 0.0972588
-0.00712709 -0.332052 0.00509796
-0.00436682 0.150318 0.567899
-0.00556256 0.301595 0.0638899
-0.00664138 -0.123703 0.145058
-0.00294161 0.355498 0.168509
0.0230405 0.25033 0.229975
-0.00467705 0.139179 0.129665
-0.0094084 0.134078 0.251769
0.00222805 -0.282487 0.190412
-0.030693 0.303972 0.198875
-0.00212843 -0.12987 0.121294
-0.00855007 0.200622 0.314497
-0.00696994 0.451421 0.135163
0.0420375 0.0184844 0.11687
0.115946 -0.195976 0.553956
0.00187696 0.248336 0.332514
-0.0311205 0.0144178 0.18509
0.000602721 -0.0109476 0.219289
-0.00355796 -0.462214 0.162875
0.00412329 -0.182359 0.314891
-0.0315491 0.315056 0.178379
-0.0268838 0.060703 0.21582
-0.00474304 -0.241012 0.219023
-0.00850946 -0.327866 0.0250841
0.00508493 -0.187225 0.0531298
0.000664977 0.320596 0.0171476
0.000659377 0.148409 0.280493
-0.00850946 -0.182152 0.289593
-0.00114328 0.170017 0.308696
-0.00874399 -0.199877 0.557686
-0.0013005 -0.18184 0.464731
-0.00751654 -0.435428 0.302426
-0.00232599 0.264348 0.189898
-0.0289195 0.317386 0.19835
-0.00576777 -0.460315 0.148573
-0.00122687 0.469766 0.169604
-0.00595536 0.337422 0.0900387
-0.00228616 -0.293526 0.120399
0.00150547 -0.414793 0.30498
-0.0021027 0.283461 0.193871
-0.00202657 0.347441 0.213633
-0.00308731 -0.350752 0.0790809
-0.0225293 0.114629 0.553373
-0.000109833 0.458447 0.141659
-0.00091612 -0.289721 0.106165
-0.0149439 0.0408111 0.202006
-0.00768999 0.177387 0.050102
0.106774 0.0221821 0.110783
-0.00559144 0.259277 0.122507
-0.0046585 0.14946 0.0805261
-0.00855007 0.46638 0.183457
-0.00484251 -0.229059 0.0650928
-0.00744515 -0.266165 0.0195948
0.000995514 0.266266 0.360228
-0.00132319 -0.232743 0.0682398
0.00274184 -0.326575 0.0171208
-0.0268838 0.0341088 0.210203
-0.0118483 0.137025 0.131146
-0.0096366 0.178037 0.0672207
0.00199418 -0.324773 0.0221373
0.0234568 0.188304 0.560532
-0.00960135 0.366986 0.0382542
0.00187696 0.414546 0.293692
-0.0104484 0.00248407 0.195185
-0.000896534 -0.232562 0.164682
-0.0415813 -0.252742 0.357544
-0.00276187 0.185823 0.296387
-0.00239275 0.223122 0.0647061
0.000897264 -0.21707 0.465413
-0.00229767 0.367745 0.0797231
0.000771539 0.327293 0.0164445
-0.00315798 -0.337573 0.349016
-0.00484111 -0.280376 0.188557
7.95075e-05 -0.424662 0.0669455
-0.0111986 0.285817 0.174957
-0.004476 0.371445 0.183362
-0.000293765 -0.466337 0.220909
-0.000930631 0.170312 0.272503
-0.00304573 0.329929 0.154397
-0.00210483 -0.165619 0.278397
-0.00486333 -0.361836 0.16008
-0.00464068 0.24724 0.179577
-0.00423067 -0.24528 0.123215
-0.00213519 -0.158288 0.261563
-0.00249313 -0.359779 0.28165
-0.00333428 0.218165 0.331391
0.00429985 -0.303616 0.175068
0.0146108 0.150754 0.550983
-0.00898803 0.169992 0.272001
-0.000827994 0.0119335 0.184236
-0.00198231 0.174855 0.267749
-0.00279608 0.317877 0.13394
-0.00510251 -0.085847 0.292891
-0.0247725 0.154509 0.188603
-0.00329973 -0.14605 0.131074
0.0181668 -0.242725 0.411632
-0.0107564 -0.24746 0.0150363
-0.00486754 -0.283018 0.219788
-0.0118483 0.324428 0.355637
-0.0076432 -0.143542 0.164404
-0.00466727 -0.424454 0.28956
0.020024 0.21984 0.179132
0.000771539 0.246178 0.0279539
0.0014268 0.202919 0.307909
-0.0289195 0.0498009 0.146677
-0.00443933 0.218344 0.213338
-0.00424511 0.326339 0.0148195
0.00480051 -0.457733 0.102413
0.0251807 0.134243 0.191657
0.000771539 0.419806 0.0645348
-0.00153514 -0.204696 0.0562893
-0.000245877 -0.209216 0.551403
-0.00580138 -0.193746 0.315149
-0.00604776 0.427494 0.295613
-0.0111306 0.213888 0.0362473
0.0330742 -0.288019 0.252163
-0.00136236 -0.268359 0.227571
-0.0038891 -0.301143 0.133893
-0.00675813 -0.429136 0.0824921
-0.00023157 -0.303522 0.348872
-0.0110749 0.440349 0.0853597
-0.00222713 -0.138714 0.195984
-0.00933586 -0.133606 0.34966
-0.00278357 -0.3847 0.322074
-0.0031174 -0.290701 0.1831
-0.0315491 0.312823 0.178576
-0.000683711 -0.467269 0.147167
-0.00487473 0.387231 0.195728
-0.00517988 -0.130558 0.12094
-0.00745819 -0.336425 0.346698
-0.00181909 -0.307374 0.191301
0.000771539 0.133688 0.187152
-0.00442643 -0.296137 0.258873
-0.0110574 0.123235 0.54936
-0.0049875 0.263066 0.239845
0.00368945 -0.222596 0.457823
0.0836121 -0.209194 0.552693
-0.0107564 -0.15136 0.0915325
-0.00382924 0.328689 0.0462953
-0.0421472 -0.263673 0.329762
-0.00624138 -0.427031 0.0801952
-0.00257586 -0.400719 0.311479
0.00187696 0.350245 0.0286071
-0.0111986 0.316277 0.185827
-0.0107422 -0.317559 0.352982
0.00333312 0.295734 0.012277
-0.0058951 -0.170908 0.281756
-0.000668455 -0.176313 0.298319
-0.00486519 0.193754 0.18322
0.001396 0.380145 0.0406662
-0.00775358 0.433334 0.0968988
-0.000910577 -0.307744 0.151778
-0.00462577 -0.283444 0.135531
-0.00555928 0.279944 0.180247
0.0221007 0.173433 0.31871
-0.00200062 0.378069 0.0660033
-0.00487881 0.220763 0.333044
-0.0273125 0.316206 0.179392
-0.00397526 -0.466374 0.18198
-0.0268838 0.00697293 0.172183
0.0875673 -0.211124 0.551099
-0.00269856 -0.418099 0.208844
0.00389892 -0.24865 0.0213868
-0.00594067 0.300203 0.256303
-0.0104856 -0.455139 0.268049
0.0302205 0.0229535 0.189576
-0.00590358 0.31372 0.252426
-0.00584381 0.368209 0.152659
-0.00198906 0.302017 0.185146
-0.00276619 -0.237987 0.150164
-0.00243982 0.283676 0.260879
-0.00449725 -0.131251 0.118304
-0.00318872 0.174803 0.29019
-0.029323 0.044239 0.157466
-0.0283784 0.209563 0.274563
-0.00114969 -0.29116 0.020604
-0.00558827 0.394664 0.274073
-0.00476484 -0.12061 0.207351
-0.00960135 0.140252 0.210056
0.0213366 0.166938 0.32652
-0.00988616 -0.474333 0.219965
8.33969e-05 0.115984 0.411565
-0.00280218 0.0968038 0.358632
-0.026105 0.171532 0.568641
-0.00258356 -0.138784 0.130191
-0.00282877 0.311728 0.198199
-0.0351299 -0.283655 0.265475
-0.0051082 0.192736 0.183065
0.00399304 0.39935 0.324674
-0.0311205 -0.00757966 0.169913
-0.00606638 -0.237034 0.0321926
0.0256968 0.134558 0.184904
0.0202518 0.295743 0.179864
0.0366116 -0.264036 0.305689
0.00186342 -0.429721 0.28774
0.0357411 -0.298637 0.195169
-0.00245963 -0.276655 0.177612
0.00407809 -0.305099 0.360192
0.08249 0.0394495 0.109251
-0.00855007 0.145114 0.133688
-0.00693451 0.146831 0.129231
-0.0449952 0.0190465 0.233355
-0.00205962 0.242222 0.17119
0.00095779 -0.134307 0.188054
-0.00253404 0.309692 0.236345
-0.00552334 0.243107 0.219304
-0.00449238 -0.270264 0.0920212
-0.00383076 0.331722 0.196221
-0.00483591 -0.327377 0.146179
-0.00331941 0.42244 0.179573
-0.00314934 -0.318793 0.138326
-0.00745819 -0.45908 0.138244
-0.00855007 0.219056 0.33142
0.0377918 0.0211359 0.112618
-0.0045436 0.382394 0.149534
-0.00845593 -0.133816 0.453061
-0.0118483 0.200476 0.323967
0.00186342 -0.160776 0.267418
-0.00617175 0.448801 0.0995419
-0.0044825 0.257926 0.247855
-0.0144701 0.0663782 0.185075
-0.00424595 0.375571 0.0292195
-0.00469708 -0.2288 0.147181
0.00296884 -0.140295 0.165227
0.0106414 0.191866 0.564484
0.00116274 -0.196213 0.405088
-0.0757509 0.0187888 0.264569
0.0046756 0.102951 0.383644
0.00429985 -0.286632 0.179334
-0.000895849 -0.333181 0.046865
-0.0039761 -0.135513 0.194408
-0.0872509 0.0229552 0.264569
0.00195435 0.353337 0.353422
-0.00463437 -0.0206229 0.227535
-0.0380918 0.165771 0.548467
-0.00142949 -0.167139 0.120795
-0.0923753 -0.19571 0.551184
-0.00725978 0.081386 0.545219
-0.00411485 0.4265 0.0971741
-0.00104718 -0.275698 0.0144869
-0.0127942 0.295898 0.18102
-0.00480838 -0.298235 0.188198
-0.00579633 0.466864 0.180871
-0.0284518 0.209698 0.273555
-0.00764716 -0.414054 0.0660303
-0.00850946 -0.358175 0.0336059
-0.0757805 -0.00168067 0.27208
0.000771539 0.358939 0.337728
-0.00171891 -0.19881 0.542
-0.00609448 -0.0467611 0.254475
-0.000889948 -0.195873 0.311505
-0.001311 -0.462252 0.130951
-0.00587575 0.303223 0.164044
-0.00314871 -0.358059 0.182159
-0.00918002 -0.199948 0.413684
-1.88649e-05 0.357604 0.0227859
-0.0114761 0.132525 0.464061
-0.00623769 0.286861 0.196443
-0.00582584 -0.450128 0.285129
0.00275903 -0.203265 0.0462087
-0.00447397 0.23617 0.183363
-0.0311442 0.205593 0.280019
-0.00218768 -0.287591 0.196208
-0.00486247 -0.437499 0.262919
-0.00334596 0.217153 0.322209
-0.00960135 0.302513 0.0219039
0.00187696 0.146439 0.134938
-0.0273125 0.280474 0.176319
-0.001912 -0.379632 0.111697
-0.0101506 -0.191847 0.0518236
-0.0106652 0.277003 0.358787
0.034408 -0.276471 0.246639
0.0421121 0.017171 0.143076
-0.00121405 -0.234704 0.203882
0.0180832 0.296566 0.17819
-0.0012162 -0.301347 0.178263
-0.00621173 -0.352898 0.336884
-0.0304843 -0.00678416 0.229563
-0.000896523 -0.27794 0.11735
-0.00118334 -0.413101 0.208578
-0.00182792 -0.385147 0.320266
0.00186342 -0.161032 0.0970098
-0.0855311 0.0460379 0.273647
-0.0289195 0.324996 0.176823
-0.0053177 0.215181 0.044095
-0.00488515 0.309925 0.347942
-0.00687756 -0.459466 0.18856
0.00635668 0.0228535 0.180109
-0.00790039 0.232131 0.0147737
-0.000896269 -0.310802 0.13956
-0.0268838 0.0247628 0.168237
-0.00213864 0.220946 0.0197133
-0.0101234 -0.461611 0.126034
-0.00541325 -0.244674 0.0257795
-0.00485802 -0.32361 0.150958
-0.00587684 0.213775 0.314813
0.00186342 -0.20677 0.317095
0.00200684 0.46103 0.132607
0.00852382 0.0865257 0.367833
-0.0155422 0.0313114 0.206163
-0.00745819 -0.18916 0.0562056
0.0294094 -0.259642 0.327748
-0.000558485 -0.144414 0.240643
-0.00351927 0.302345 0.228554
-0.0015744 -0.203328 0.0513362
-0.0293002 0.208598 0.189826
-0.00500402 0.302099 0.312893
0.0909948 0.0119913 0.109251
-0.00426849 -0.317451 0.347733
-0.0426487 0.0261125 0.271135
-0.00495035 0.217028 0.123116
-0.00283766 -0.197405 0.0717594
-0.00226983 -0.236524 0.323844
-0.00596175 0.272117 0.153114
-0.00514574 0.334273 0.186087
-0.00270368 0.479587 0.151118
0.00429985 -0.293494 0.172722
-0.000908884 -0.193871 0.131589
-0.00820241 0.148948 0.241473
-0.00296475 -0.325599 0.334358
-0.0139808 0.197407 0.560288
-0.00130782 -0.194816 0.195283
-0.00745819 -0.155699 0.265453
-0.0118483 0.284746 0.00821096
0.0134466 0.102495 0.406149
-0.00412458 -0.297582 0.149774
-0.000487926 -0.209247 0.492571
0.00186342 -0.216737 0.326216
-0.00165667 0.455863 0.23122
0.00429985 -0.288625 0.172962
-0.00700978 -0.203974 0.546152
-0.0311205 0.0231022 0.213594
-0.00633876 -0.139708 0.211954
0.00752506 0.193324 0.549258
-0.00580907 0.321074 0.229397
-0.00265257 0.348408 0.0194951
-0.00855007 0.163606 0.0846941
0.00814358 0.0826812 0.345875
0.00223599 0.431036 0.289087
-0.00710094 -0.133912 0.18366
0.000771539 0.454372 0.12543
-0.0289195 0.308507 0.203117
-0.00942702 -0.227931 0.0301615
-0.00152587 -0.293419 0.142218
-0.00291957 -0.298887 0.180932
-0.000540323 -0.211449 0.418711
-0.0111707 0.0571136 0.261688
-0.00501385 0.257807 0.291374
-0.0017099 0.463243 0.189308
-0.0126213 0.0995239 0.418303
0.00992855 0.163461 0.552175
0.0366489 -0.30179 0.199714
-0.00518997 0.191279 0.074535
-0.039313 0.0252149 0.268363
0.0197604 0.24315 0.183946
-0.00548892 0.474353 0.233726
-0.00310564 -0.138594 0.194292
0.00186342 -0.25566 0.34135
0.00224745 0.00270768 0.197115
0.0368398 -0.256179 0.346773
0.0306499 -0.28052 0.253689
-0.00754553 0.203347 0.308181
-0.00311012 -0.380779 0.110968
-0.00120854 -0.221944 0.0456695
0.000771539 0.13814 0.219953
-0.00745819 -0.137438 0.222303
0.00187696 0.324019 0.339716
-0.00370469 0.178656 0.294623
-0.00679085 0.269413 0.338092
-0.00931189 -0.171736 0.457656
0.0020762 0.0218413 0.180134
0.0625503 0.0434911 0.109251
-0.00608718 -0.203435 0.513042
0.0161407 0.187499 0.565251
0.0137109 0.107061 0.188113
0.00319482 -0.136209 0.219041
-0.0101739 -0.175532 0.0675494
-0.00414128 0.0422009 0.195275
-0.0257529 0.178726 0.568001
0.00508493 -0.24516 0.346824
-0.00798872 0.475031 0.228702
-0.0284341 0.212401 0.186739
-0.00396744 0.41598 0.290678
-0.00592963 0.216857 0.058102
0.00296884 -0.172173 0.0858941
-0.00942778 0.259227 0.0200206
-0.0107564 -0.337279 0.353244
0.00248371 -0.365298 0.0336468
-0.00291056 0.208785 0.025931
-0.0023315 0.212413 0.0529671
-0.0111986 0.294316 0.188978
-0.0311438 0.235225 0.185848
-0.0441198 0.155238 0.554627
-0.00850946 -0.162113 0.26583
0.00187696 0.21288 0.319404
-0.0101365 0.139311 0.517465
-0.00278789 0.449295 0.236001
-0.0315491 0.283922 0.19569
-0.00559083 0.19125 0.327372
-0.00130767 0.249282 0.0281731
-0.00699043 0.308408 0.0127521
0.00203562 0.312786 0.35041
-0.00104385 -0.437025 0.0884015
-0.00291599 0.149795 0.514649
-0.00238683 0.171667 0.283157
-0.0421362 -0.257459 0.345477
0.00508493 -0.41543 0.312461
-0.0311205 -0.0253123 0.191032
-0.00264727 -0.188089 0.300502
0.0018946 0.133471 0.201027
-0.0156833 -0.243327 0.407414
0.097817 -0.196086 0.549509
-0.00195705 -0.425119 0.165918
-0.0144649 0.0328148 0.184235
0.0899463 -0.203992 0.557751
-0.0414312 -0.259701 0.319543
0.00370636 0.104667 0.440117
-0.00850946 -0.304583 0.341977
0.017498 -0.295535 0.18347
0.00287742 -0.0769095 0.289589
-0.00388477 0.240124 0.168253
0.00399304 0.281657 0.0098009
-0.00796712 -0.197565 0.5518
0.040988 0.0267974 0.13512
0.000289358 0.48012 0.166398
-0.00752498 -0.129054 0.23915
-0.00475096 0.285564 0.189562
0.000771539 0.399781 0.317586
0.0487009 0.00524502 0.109251
-0.0374502 0.270704 0.205008
-0.0311205 0.0169562 0.239392
0.00409449 -0.246164 0.021747
0.0233002 0.271737 0.208723
0.00905832 0.0912265 0.549087
-0.00960135 0.202584 0.0568358
-0.000939131 -0.287285 0.186844
-0.000928566 -0.203188 0.195671
-0.00191265 0.247902 0.0335236
-0.00202668 0.241122 0.181052
0.000771539 0.447461 0.256533
-0.0262234 0.158334 0.191721
0.0933274 -0.203722 0.557782
-0.00745819 -0.229374 0.0360988
-0.00357717 -0.339706 0.197732
-0.0303613 0.230883 0.184709
-0.0122823 0.0622258 0.27948
-0.000928385 -0.220992 0.0940687
-0.00268302 -0.269486 0.337835
-0.00559257 0.152699 0.257634
0.00508493 -0.364257 0.34355
-0.0250167 -0.209116 0.553321
-0.00279436 0.140691 0.183035
-0.00117887 -0.382232 0.312623
-0.00315346 0.388054 0.0963485
0.0264457 0.283675 0.176564
0.000771539 0.247298 0.336779
0.0360842 -0.300159 0.204376
-0.0107564 -0.411903 0.318534
3.76413e-05 0.366484 0.33176
0.000751938 -0.203231 0.425643
0.000130151 0.287491 0.0133384
-0.00500384 0.219861 0.0589977
-0.00244377 0.1878 0.293473
-0.0015918 -0.415512 0.323301
-0.00316862 -0.458288 0.172065
-0.00624259 0.406692 0.310059
-0.0082719 -0.363635 0.333409
-0.0010308 -0.437434 0.270995
-0.00579782 0.405176 0.160912
-0.00201016 0.224242 0.0689651
-0.0107564 -0.145335 0.102539
0.0363388 -0.279128 0.269549
0.0025156 0.459957 0.261905
-0.0280256 0.197512 0.190152
-0.00588852 0.313611 0.0204547
-0.00346372 0.191689 0.0369881
0.00296884 -0.156404 0.107928
-0.00247278 0.365674 0.155811
0.0016137 0.099592 0.430534
-0.000985272 -0.297064 0.279612
-0.00745819 -0.217569 0.326804
0.0101425 0.302889 0.177069
0.0421809 -0.207167 0.55644
-0.066944 -0.200123 0.544854
-0.00480717 -0.341153 0.226417
-0.00535446 0.433866 0.28916
-0.00130952 0.0867185 0.332502
-0.00827403 0.173582 0.277644
-0.0049073 -0.281514 0.175224
-0.0049451 -0.320955 0.344194
-0.00100783 -0.334595 0.110588
-0.0458049 0.00702167 0.267479
-0.00261947 0.457176 0.161923
0.00162759 0.0624327 0.450093
0.00325053 -0.455422 0.271783
-0.00315172 0.290225 0.179275
-0.00481966 -0.260367 0.267198
0.00303327 0.0890522 0.545762
0.00508493 -0.329591 0.0131156
0.000909562 -0.320476 0.176988
-0.015548 0.0210843 0.195864
-0.00469587 0.137332 0.151545
-0.00626778 -0.149665 0.229708
0.00296884 -0.461637 0.195953
-0.00951045 -0.406094 0.0501119
-0.00199458 -0.324111 0.157814
0.000771539 0.137052 0.229223
0.0240057 0.178288 0.565853
-0.00442234 0.267178 0.197305
0.00458149 0.0336461 0.211158
-0.00906782 0.309638 0.00282521
-0.00413423 -0.144631 0.127347
-0.00177862 -0.209906 0.416745
-0.00738675 -0.145302 0.13291
-0.00100768 -0.343844 0.347076
0.00322281 -0.167178 0.382317
-0.00327771 0.1309 0.474122
-0.0087049 0.263359 0.00557198
-0.00486079 -0.356448 0.106199
0.000889425 -0.313301 0.340305
-0.00460806 0.0805658 0.315914
0.00205406 -0.194664 0.455882
-0.0107564 -0.240542 0.34513
0.0249727 0.272011 0.202816
0.0344405 0.0179522 0.166083
-0.00211469 0.333875 0.16684
-0.00850946 -0.322614 0.0258849
0.00433075 0.14363 0.557589
-0.00642528 -0.354351 0.336282
0.0156572 0.113282 0.552033
0.00317084 0.22544 0.0302354
-0.00325903 -0.217097 0.457382
-0.00735505 -0.20393 0.0426255
-0.00438439 0.447877 0.240306
-0.0273125 0.295048 0.170774
0.0302025 -0.266885 0.284154
0.000771539 0.146334 0.252702
7.40662e-05 0.468837 0.203669
-0.0642008 -0.198641 0.558013
-0.00432853 -0.246423 0.294959
-0.0106958 0.470017 0.176737
-0.00140342 -0.320893 0.180083
-0.00138905 0.150085 0.120139
-0.00253365 0.301766 0.119
-0.0111904 0.341903 0.347673
0.0302829 -0.258789 0.360857
-0.00340013 0.34537 0.346813
0.000771539 0.446172 0.256815
0.00320346 0.300328 0.191142
-0.00973646 0.330421 0.00579407
-0.0378412 0.0275403 0.214104
-0.00698124 0.0650802 0.275837
0.00508493 -0.271913 0.0114944
-0.00238193 -0.31833 0.22545
-0.00391233 0.305369 0.166315
0.000369699 0.441346 0.272355
-0.00657089 0.0644209 0.440671
-0.00568801 0.236432 0.118865
-0.012281 0.058568 0.269691
-0.00447954 -0.268811 0.0878585
0.000224862 -0.271675 0.342813
-0.00028552 0.153176 0.26724
0.0203839 0.129526 0.555379
0.000509457 -0.244807 0.0106088
0.0334749 -0.269679 0.326264
-0.0311205 0.0310943 0.20862
-0.0042811 0.458483 0.191968
0.00187696 0.158386 0.258253
-0.00240872 0.214862 0.180212
-0.00264086 -0.420629 0.209481
0.0185633 0.157272 0.343425
0.0251152 -0.197932 0.549968
-0.00564328 0.277652 0.129275
0.000444375 0.174228 0.312272
-0.0254922 0.172787 0.190111
-0.00226453 0.130063 0.17964
-0.00538297 0.4153 0.226361
-0.0309597 0.176913 0.316346
-0.00121236 0.319958 0.339432
-0.00117362 -0.162285 0.451736
0.00429985 -0.285583 0.175971
-0.0359979 -0.281084 0.247284
-0.00483862 -0.367386 0.331887
-0.00134461 -0.285927 0.23802
-0.0437541 0.0171467 0.228757
-0.0597678 0.00356043 0.264569
-0.00509042 -0.138566 0.263401
-0.002598 0.332766 0.147067
0.00209275 -0.205576 0.425919
0.00140476 -0.282203 0.339868
0.00363039 -0.131454 0.181804
-0.00936659 0.156887 0.07477
-0.00303069 0.260353 0.340857
-0.00392586 0.24111 0.337188
-0.00105376 -0.120811 0.210789
-0.00800087 0.371653 0.0354642
-0.00365856 -0.331679 0.0277236
-0.00745819 -0.422741 0.296738
-0.00702133 -0.292295 0.00259598
-0.00689711 -0.473825 0.131777
-0.00869855 0.115146 0.442376
-0.00936067 -0.0699903 0.453176
-0.00229687 -0.326406 0.219834
0.0023566 0.457763 0.0987502
-0.00536189 0.413052 0.133253
-0.00655875 0.303855 0.0161358
-0.00850946 -0.451855 0.129537
-0.00261574 0.304675 0.179999
-0.00592256 0.184324 0.102712
0.00305053 -0.151866 0.365778
-0.00906625 0.210362 0.323882
0.00168409 0.10069 0.448004
-0.00927649 -0.448613 0.264307
-0.00903555 0.252274 0.00927672
-9.42689e-05 -0.282611 0.0174856
-0.00381901 0.260409 0.237211
0.00231877 0.429839 0.0591841
0.00399304 0.434018 0.0731343
0.00173433 -0.351771 0.0281297
-0.00966649 -0.446655 0.284582
-0.00586928 0.239877 0.0363948
-0.0458049 0.0367433 0.2649
-0.00445634 -0.410299 0.262642
0.0030512 0.405043 0.0390695
0.000480662 0.175585 0.287725
-0.00198845 -0.44082 0.109432
-0.00595663 0.327925 0.0402279
0.000215957 -0.46632 0.169685
-0.00855007 0.137518 0.149062
-0.00397512 -0.137394 0.173903
-0.00960135 0.412898 0.294751
-0.00361241 -0.322537 0.164169
-0.0273125 0.284755 0.183537
0.0246159 0.0271444 0.181447
0.00187696 0.282826 0.340132
-0.0029269 -0.215835 0.0402672
-0.00745819 -0.355471 0.337786
-0.00287866 0.242329 0.329586
-0.0955189 -0.210403 0.548522
-0.00562488 0.14829 0.125153
0.00174394 0.200355 0.0331009
0.00211213 -0.123816 0.344118
-0.00913343 -0.218352 0.462094
-0.00589062 0.272669 0.20845
0.0687112 0.0396516 0.109251
-0.00526781 0.306246 0.345472
-0.0177243 0.117848 0.395387
0.0010505 0.297402 0.0152571
-0.00566446 0.180719 0.101951
0.000771539 0.301587 0.346846
-0.00223099 0.462939 0.172011
0.00296884 -0.218522 0.0444069
-0.0054223 0.358566 0.158811
-0.0405342 -0.268322 0.286086
-0.0381183 0.281348 0.19236
-0.00434631 0.186693 0.298832
-0.106809 0.0463216 0.266359
0.0435426 0.025767 0.168898
-0.00937311 -0.0618065 0.277597
-0.0811399 0.0388558 0.273647
-0.000882183 0.0460591 0.289001
-0.00445032 0.399514 0.0444516
0.030611 -0.283298 0.27155
-0.00210455 -0.20515 0.159659
-0.00453395 -0.313351 0.178319
-0.00290647 -0.25625 0.181665
-0.00479402 -0.209913 0.194919
-0.0026519 -0.132622 0.159062
-0.000779983 -0.139694 0.14065
-0.00466345 0.165116 0.553146
0.0958615 -0.209148 0.550806
-0.00509553 0.237132 0.24702
-0.00413539 -0.212264 0.234042
0.00121984 0.00409091 0.453606
-0.0045274 0.239479 0.239675
-0.000504476 -0.180211 0.302573
-0.00871335 0.161698 0.0980118
0.00304164 -0.425864 0.31098
-0.00240585 0.23207 0.226918
-0.00481218 0.222356 0.0395299
-0.00564942 0.223193 0.23323
-0.00859919 0.328241 0.338477
-0.00207155 -0.208051 0.559015
-0.0311205 -0.00130472 0.235412
-0.00996898 -0.138327 0.11058
-0.027409 0.318184 0.172864
-0.0413007 -0.279019 0.256952
0.0359407 -0.248371 0.367439
-0.000266252 0.0449607 0.45246
-0.00187322 -0.154504 0.23522
-0.00539547 -0.470672 0.182272
-0.00385152 0.131219 0.450962
0.0274508 0.306967 0.182234
-0.00011755 0.195278 0.311522
-0.00362137 0.244728 0.324457
-0.0311205 0.0585078 0.198571
0.0209817 0.131275 0.18174
-0.00850946 -0.354841 0.335925
-0.00346424 -0.461424 0.224044
-0.0187058 0.130749 0.37994
0.00296884 -0.377029 0.326237
-0.00855007 0.235561 0.336689
0.00279587 0.341268 0.0181299
0.000480555 0.147177 0.0869133
-0.00850946 -0.17062 0.274359
0.00260125 -0.105945 0.317572
-0.000971817 -0.1935 0.329846
-0.00237661 0.298481 0.16535
-0.00508557 0.0178714 0.213717
-0.00418541 0.457036 0.160707
-0.00441825 -0.313536 0.192825
0.00399304 0.281847 0.012577
-0.00577868 -0.407752 0.0593812
0.00790277 0.0486011 0.275333
-0.00391483 -0.296312 0.244921
-0.00409794 0.22944 0.170298
-0.0380617 0.296823 0.1856
0.00940373 0.127213 0.567093
-0.00471184 -0.257812 0.112975
-0.00222236 -0.482762 0.188413
-0.0240469 0.122008 0.557415
0.000113257 -0.196337 0.308165
-0.0018763 0.149212 0.251378
0.00167445 -0.442867 0.26961
0.0314402 -0.20414 0.546171
-0.0268838 0.0534377 0.18095
-0.114791 -0.196585 0.548207
-0.00211503 0.435549 0.0787072
-0.0194828 0.0465574 0.195239
-0.0037813 0.322582 0.187552
-0.00504705 0.356263 0.261276
-0.00947475 -0.142502 0.122692
0.0443115 0.0399247 0.112502
-0.015548 0.0238811 0.200617
-0.0247428 0.17203 0.187674
-0.0118483 0.473662 0.149471
0.00534083 0.0874484 0.390798
0.0146104 0.116005 0.399263
0.010805 0.0319276 0.205908
-0.00108599 -0.417705 0.187583
0.00214086 -0.31717 0.0166099
-0.0118483 0.270971 0.353576
-0.0115728 0.451204 0.0904372
0.0833615 0.0327298 0.118329
-0.00446096 -0.302511 0.185144
0.00854803 0.109768 0.424139
-0.00565777 0.358235 0.338258
0.00041096 -0.137233 0.461554
-0.00486396 -0.377426 0.111275
-0.0101632 0.14213 0.531458
-0.0584053 0.0298971 0.264569
-0.0176448 0.08358 0.19573
-0.00558541 0.301559 0.1049
-0.00846154 0.286007 0.0166094
-0.00484062 -0.29997 0.182685
0.0364308 -0.253432 0.356397
-0.00749972 -0.436012 0.101091
-0.00855007 0.465984 0.200605
-0.00462108 -0.143459 0.237018
-0.00887486 -0.43986 0.08789
-0.00745819 -0.131263 0.18748
-0.010144 0.135242 0.218536
-0.00424997 -0.20041 0.311194
-0.00254146 0.363123 0.271977
0.00340431 -0.158725 0.0916091
-0.003021 -0.360115 0.249311
-0.0100828 0.381645 0.341539
0.00296884 -0.150826 0.125908
-0.000358274 0.335726 0.342071
-0.00204852 -0.383576 0.322722
-0.00456416 -0.318613 0.15575
-0.0038141 0.258703 0.279394
0.0127622 0.0882415 0.182829
-0.0259941 -0.233287 0.407686
0.00222288 -0.208713 0.515101
-0.00790385 0.328475 0.33845
-0.00375905 -0.0193269 0.243554
-0.00480281 -0.283837 0.351901
2.89857e-05 0.110974 0.437973
0.0029586 -0.154348 0.266153
0.00104563 -0.466919 0.175732
-0.00919851 -0.132831 0.20448
-0.0270033 -0.0246161 0.187096
-0.00101853 -0.293642 0.129429
0.0020831 0.162193 0.295682
-0.000916592 -0.230079 0.148401
-0.00164735 -0.299167 0.181609
0.000771539 0.401968 0.312695
-0.00803989 0.447957 0.12548
-0.0890402 0.0201605 0.273647
-0.0246051 0.128671 0.18458
-0.0304612 -0.238863 0.381265
-0.0311205 0.00102578 0.191373
-0.00208927 0.359952 0.157436
-0.00573282 0.37 0.249731
-0.00102822 -0.411571 0.114535
-0.00799512 0.470839 0.186316
-0.0056302 -0.0465188 0.445857
-0.0104093 -0.428311 0.0602219
-0.01152 0.366985 0.346831
-0.0277516 -0.234806 0.40689
-0.00711095 0.151106 0.263986
0.0014094 -0.151447 0.249405
0.0113007 0.1048 0.407241
-0.00478419 -0.323942 0.340441
-0.00764279 0.342968 0.00684404
0.00245046 0.077998 0.546626
-0.00428501 -0.215232 0.342866
-0.00586856 0.268864 0.169317
-0.00256547 0.00409175 0.202574
-0.010861 0.133057 0.152861
-0.0384713 -0.261077 0.30233
0.0042953 0.127311 0.549842
-0.00273103 0.443711 0.113616
-0.0101761 0.01436 0.197987
-0.0118483 0.400807 0.3279
-0.00801645 -0.224718 0.322561
-0.000444117 -0.148734 0.136605
-0.0107564 -0.298704 0.0112064
0.000771539 0.347225 0.0264025
-0.0107564 -0.130663 0.156706
-0.0036206 -0.462392 0.220202
-0.000322435 0.144296 0.124507
-0.00243436 -0.241634 0.238438
-0.0107564 -0.172998 0.297945
-0.00778965 -0.370015 0.0163028
0.00253094 -0.237736 0.332651
0.0100796 0.0135901 0.212514
-0.00453247 0.302309 0.0399151
0.000798818 0.434072 0.0898125
-0.00855007 0.195714 0.0485236
0.00357493 0.265231 0.0153321
0.00186342 -0.269092 0.349461
-0.00592136 0.258655 0.0815933
-0.0028177 -0.475705 0.133845
-0.0268838 0.0459354 0.228576
0.00012873 0.1626 0.096322
-0.0040793 -0.313152 0.162215
-0.00248693 0.428676 0.126888
-0.00745819 -0.138183 0.16358
-0.00328833 -0.189815 0.0639187
-0.00649592 -0.171171 0.379265
-0.006181 -0.467117 0.182507
-0.00111017 -0.231948 0.222732
-0.00554504 0.421476 0.205116
-0.00571263 -0.217129 0.501019
-0.00374065 0.436494 0.0619803
-0.00770136 -0.208489 0.33759
0.0147977 0.0704696 0.189198
-0.0390722 -0.283713 0.228491
-0.00220495 -0.206909 0.305332
-0.0107564 -0.202192 0.0407583
0.00231584 -0.0958815 0.306905
-0.00970172 -0.329012 0.00758883
-0.00304695 0.285636 0.206481
-0.00930045 0.375067 0.0326816
-0.00482575 -0.392506 0.149555
-0.00468406 0.36617 0.352339
-0.00591099 0.281564 0.174316
-0.0118483 0.45921 0.111102
-0.00232311 0.365351 0.279682
-0.00340797 -0.315857 0.144733
-0.00118048 -0.288779 0.196115
0.000896431 -0.0479312 0.270207
0.00426423 0.0674176 0.339424
-0.0900885 -0.00168067 0.269166
-0.00477641 -0.39615 0.226733
0.000306326 -0.232979 0.0309489
-0.00469259 -0.162136 0.065941
0.0201842 0.132864 0.562373
-0.00423215 -0.329251 0.196501
0.0117039 0.0406836 0.197198
-0.00444275 -0.202338 0.194209
-0.0853738 -0.195744 0.550888
-0.00339643 0.269677 0.112204
-0.00716168 0.164078 0.553174
-0.00818106 -0.325915 0.00504375
-0.00383568 0.17679 0.0490577
0.00296884 -0.453742 0.130196
0.00203492 -0.207761 0.463644
0.00148808 -0.0813509 0.302975
-0.0101683 -0.466111 0.224939
0.00320346 0.303176 0.161814
-0.00745819 -0.225699 0.3352
-0.0906285 -0.210669 0.549264
0.000771539 0.13472 0.143317
-0.0289195 0.150605 0.230115
-0.00855007 0.4309 0.284148
0.00189776 0.256634 0.35624
0.0015839 0.299569 0.350912
-0.00276359 0.386814 0.237819
-0.00141472 0.102584 0.374877
-0.0107564 -0.375555 0.0249557
-0.00578566 0.300952 0.179188
-0.00733348 -0.289439 0.0205793
0.00187696 0.14837 0.229458
-0.00850946 -0.246476 0.0296989
-0.00485202 -0.388863 0.150238
0.0159341 -0.235256 0.396224
-0.018652 0.061851 0.184487
-0.00790714 -0.300924 0.362947
-0.00111962 -0.26977 0.181186
-0.00138515 -0.21131 0.454263
0.00296884 -0.260157 0.337528
-0.0117979 0.140831 0.120459
0.0361801 -0.29462 0.226697
-0.0061538 0.463562 0.216407
-0.00745819 -0.139742 0.224219
-0.00252378 0.401935 0.0605031
-0.00131088 -0.111919 0.449068
0.00296884 -0.170199 0.277555
-0.00134365 -0.363712 0.0436488
-0.0441574 0.0226233 0.247819
0.00809741 0.121689 0.449544
-0.0311205 0.0374765 0.188096
-0.0268838 0.0629625 0.198685
-0.0468098 0.00147752 0.273647
-0.0067785 -0.166363 0.374724
-0.00855007 0.177832 0.290256
0.00471784 -0.226166 0.33669
0.00276348 0.472752 0.138408
-0.00471435 0.430202 0.310604
0.00440366 -0.202495 0.554047
-0.00931267 -0.0598024 0.274483
0.00166965 -0.196784 0.0573331
-0.00678589 -0.139718 0.21005
-0.0390459 -0.206709 0.54714
-0.0105207 0.237008 0.0160359
-0.00317654 -0.252964 0.288762
-0.0367463 -0.297965 0.206981
-0.000608122 -0.368691 0.339389
0.000632412 -0.389207 0.0462407
0.000698227 -0.384015 0.322302
-0.00421947 -0.140265 0.214299
0.0165587 0.0305666 0.185436
-0.00411374 -0.236946 0.167319
-0.00740633 0.339599 0.341228
-0.00357375 0.353534 0.0551372
-0.00273502 0.163746 0.553338
-0.0268838 0.0467648 0.230498
-0.0284751 0.0321127 0.1626
0.00187696 0.459119 0.14793
-0.00855007 0.358935 0.340225
-0.00338899 0.299055 0.180117
0.0566341 0.0142268 0.118329
-0.00461303 -0.31354 0.124283
-0.00476019 -0.306616 0.0333974
-0.00588809 -0.387701 0.325178
-0.0106634 0.130126 0.477901
-0.0032643 -0.142842 0.22263
0.00284105 0.13323 0.122186
0.0250008 0.193227 0.294483
-0.00855007 0.157566 0.269255
-0.0042075 -0.283785 0.258664
-0.00707958 0.39631 0.0562011
-0.00745819 -0.432585 0.288615
-0.00556913 0.390934 0.047529
-0.0309818 0.21475 0.273697
-0.0351973 0.26475 0.181334
-0.00426587 0.246845 0.0470121
-0.00744746 -0.177758 0.314682
-0.00582442 0.202331 0.0823755
0.00296884 -0.3687 0.0350373
-0.0032602 -0.384862 0.247429
0.00280692 -0.0721928 0.290909
-0.00850946 -0.415049 0.0683734
-0.000883152 0.480322 0.164578
-0.0268838 0.0447718 0.187672
0.00296884 -0.262273 0.0258124
-0.0086062 -0.158699 0.0730469
-0.00465311 -0.291442 0.178266
-0.00272715 -0.37937 0.306109
0.000258066 -0.448641 0.113842
-0.00110446 -0.303049 0.185433
-0.0259054 -0.205186 0.546397
-0.00596218 0.190089 0.257236
-0.00166532 -0.415755 0.2979
-0.0105975 0.304042 0.36084
-0.010398 -0.332329 0.350566
-0.00389667 0.371711 0.149759
0.00466076 -0.466066 0.142265
-0.00407626 -0.195737 0.0693487
-0.00563987 0.379156 0.258681
-0.00887654 -0.052228 0.449418
-0.00125011 -0.162729 0.0963992
-0.00210328 0.370786 0.22813
-0.0289195 0.321909 0.170621
-0.00267746 0.0154805 0.208235
-0.0276227 0.168658 0.325766
-0.0313983 0.310014 0.164304
0.00287968 -0.103436 0.456573
-0.00855007 0.133433 0.163685
-0.0108368 0.136004 0.114003
0.000754374 -0.199398 0.0453623
0.0539274 0.00123027 0.118329
-0.00396379 -0.295911 0.254815
-0.00446286 0.410761 0.0592464
-0.0184798 0.0810295 0.183505
-0.00691995 -0.312016 0.0162473
-0.00448044 -0.305451 0.174353
0.00465494 -0.127067 0.149126
-0.00484167 -0.286736 0.181271
-0.0118483 0.466261 0.12736
-0.0112134 -0.30042 0.187717
-0.00522561 -0.0168986 0.240712
-0.00638643 -0.446724 0.270029
-0.0134413 0.0230764 0.180202
0.00186342 -0.436064 0.273517
-0.0031154 0.17006 0.272108
-0.0118483 0.129867 0.143426
0.0100796 0.0390217 0.202526
-0.00113956 0.0417311 0.199365
-0.00331409 0.153106 0.240435
0.00442454 -0.199616 0.0460914
-0.0408786 0.298718 0.184804
-0.0407995 0.281516 0.180276
-0.00134708 -0.442559 0.103293
-0.00605173 -0.16224 0.0970983
0.00296884 -0.269243 0.33915
-0.00337056 0.431232 0.0935946
-0.00451671 -0.342559 0.19319
-0.00345915 -0.326641 0.121649
-0.00176357 -0.214283 0.342446
-0.00575642 0.239914 0.156045
-0.0013087 -0.458205 0.221067
-0.00960135 0.435488 0.268931
-0.000939763 -0.331494 0.21452
0.103463 0.0417241 0.118329
-0.0100208 0.100041 0.374308
-0.00593145 0.314652 0.106681
-0.0103804 0.388612 0.337352
-0.00284814 0.258511 0.335493
-0.00375062 -0.178474 0.258661
-0.00202117 0.14685 0.153325
-0.0046196 0.457242 0.22693
-4.36706e-05 0.318103 0.344104
0.00817906 0.0695352 0.327349
-0.00823697 -0.140274 0.156813
-0.00166315 -0.304487 0.0604088
-0.00431837 -0.186462 0.066991
-0.0281428 0.0446875 0.180658
-0.0276645 0.168047 0.192395
-0.0046359 -0.430905 0.278522
-0.00477989 -0.296101 0.17882
-0.0385717 0.156544 0.548125
0.018676 0.128743 0.188788
-0.000933508 0.21273 0.0510749
-0.000941376 -0.280611 0.223798
-0.00284647 0.265752 0.262871
-0.00385531 0.222874 0.0180546
-0.00213083 0.236877 0.0885526
0.000115026 -0.438128 0.26202
-0.00151574 -0.411845 0.210791
-0.00461813 -0.231906 0.192263
-0.00314814 0.273208 0.156792
0.00367213 0.475039 0.15484
-0.00772869 -0.23553 0.437237
0.0202272 0.117986 0.194479
-0.00855007 0.32032 0.347696
-0.0311205 0.0406594 0.196831
-0.00371861 -0.294366 0.177306
-0.00448665 -0.313756 0.214811
-0.00455471 -0.284021 0.0767219
-0.0107564 -0.394188 0.0368686
0.0225896 0.2105 0.284683
0.025787 0.167014 0.188802
-0.0059794 -0.14201 0.173981
0.111611 -0.198106 0.553887
0.00305399 -0.0993515 0.313288
-0.0689784 0.0458998 0.264569
-0.00201664 0.369641 0.0782555
-0.00306071 0.394469 0.179676
-0.0038428 0.217244 0.127729
-0.00593721 0.405547 0.224169
-0.00745819 -0.43692 0.277571
-0.0295133 -0.25151 0.388112
-0.00410123 0.276865 0.179463
0.00241675 -0.407674 0.0374427
-0.0661769 -0.198085 0.549539
-0.00807331 0.144392 0.208333
-0.0268838 0.0592742 0.192182
0.0222802 0.188398 0.309033
-0.0390239 0.254392 0.184855
-0.0470705 0.0463216 0.270665
-0.014181 0.100945 0.413616
-0.0704013 0.0405288 0.273647
-0.00349111 0.392827 0.220859
0.00363965 0.394974 0.325312
-0.0142595 0.136937 0.549876
0.00479998 -0.406495 0.316516
0.000771539 0.147143 0.239918
-0.00216628 0.201357 0.182267
0.00077621 0.325293 0.361251
-0.000103444 0.119693 0.176652
-0.00483017 -0.224844 0.335172
0.0378235 -0.294497 0.181067
-0.00365222 -0.420244 0.297195
-0.0101132 -0.302402 0.35984
-0.00930445 0.324676 0.338888
0.000407616 0.181028 0.299608
-0.0311205 0.0606613 0.199824
0.000902274 -0.0761744 0.284801
-0.00485823 0.0332801 0.204719
-0.0012534 0.267246 0.0192028
-0.00530797 0.182555 0.0705296
-0.00475485 -0.250235 0.0281089
-0.0278974 0.0537826 0.192428
0.0893194 -0.195691 0.552104
-0.00436976 0.406595 0.203099
-0.00353993 0.137112 0.15502
-0.0118483 0.442993 0.284233
-0.00419492 0.0827701 0.387802
-0.0398299 0.274649 0.200179
-0.00269786 -0.448007 0.124265
-0.00855007 0.46194 0.216891
-0.0026932 0.302649 0.171842
-0.00157218 -0.21578 0.235447
-0.00213412 0.301143 0.205892
0.0293196 -0.248909 0.357618
-0.00439272 -0.185816 0.177889
-0.0107564 -0.472502 0.159955
-0.00595622 0.394567 0.181366
-0.0147794 0.0178121 0.207975
-0.00914648 -0.0160694 0.233469
-0.0183171 0.119669 0.386784
-0.116565 -0.197562 0.546798
-0.000684943 0.42383 0.050105
-0.00729591 -0.222879 0.460421
-0.000301474 -0.166435 0.373923
-0.00302925 -0.00933186 0.215817
-0.00526181 0.461303 0.159094
-0.00321815 0.162298 0.268153
-0.00831622 0.157226 0.104771
-0.0748139 0.0103286 0.264569
0.00414573 -0.454537 0.0936742
-0.019116 0.113271 0.407691
-0.00439899 -0.299134 0.162031
-0.0011442 -0.215748 0.505737
-0.00855007 0.138003 0.14162
-0.00442571 -0.0780245 0.459377
-0.00796496 -0.415885 0.0617311
0.000907999 -0.462315 0.131153
0.00295816 -0.0359191 0.449533
-0.00220945 -0.262749 0.0798363
0.00125083 -0.201004 0.0320018
0.00213536 -0.18792 0.065655
0.0421689 0.0264181 0.129596
-0.0201563 0.0669079 0.187044
-0.0010899 0.467223 0.217651
-0.00855007 0.39341 0.0442972
-0.00745819 -0.284859 0.0180527
-0.0047498 -0.392542 0.205171
-0.00632796 0.126955 0.440959
0.0124125 0.102733 0.553468
-0.000506801 -0.168864 0.279526
0.0100796 0.0283503 0.209865
-0.00502924 -0.136873 0.360742
-0.0118483 0.226135 0.339663
-0.00789936 -0.396916 0.3193
-3.67099e-05 -0.259271 0.340685
-0.00246307 -0.245105 0.416755
-0.00404456 -0.206033 0.216871
-0.00678112 0.141183 0.13561
-0.00960135 0.342307 0.335739
0.0100796 0.0178623 0.200295
-0.00607069 0.191469 0.566251
-0.0296248 0.133314 0.18152
-0.0419468 -0.266185 0.303417
0.00296884 -0.437828 0.0970518
0.000410912 -0.22572 0.475148
-0.026546 0.158853 0.334408
0.000973417 0.147692 0.12726
-0.0027794 0.269108 0.225007
-0.00445279 -0.286734 0.0959712
0.0429157 0.0170302 0.151825
-0.00199905 0.206448 0.0872626
-0.00103412 -0.228998 0.436048
0.0341561 0.0216093 0.168071
0.00399304 0.307154 0.354513
-0.00346279 0.182101 0.161466
-0.00778253 0.171331 0.293452
0.0647111 -0.210746 0.549368
-0.000984946 -0.255762 0.0562544
-0.00396425 -0.302435 0.181411
-0.00355463 -0.426707 0.0752193
-0.000900735 -0.275637 0.18505
0.00319263 -0.234464 0.432314
-0.000364404 -0.23373 0.0388743
-0.00742676 0.140481 0.137206
0.00484981 0.0449705 0.27827
0.00432981 0.156724 0.553353
-0.0114968 0.297748 0.0116536
-0.00745819 -0.146436 0.240711
-0.0116978 0.227726 0.0216909
-0.00758406 0.459186 0.143285
-0.0136244 0.180475 0.568953
-0.00418604 0.323705 0.167814
-0.00480763 -0.272482 0.134526
-0.00528081 0.210508 0.0470681
-0.00163833 -0.359996 0.194787
-0.00237394 -0.317867 0.344415
-0.00502589 -0.455383 0.121865
-0.00525094 -0.290015 0.198772
-0.00960135 0.313188 0.0226815
-0.00186436 -0.453507 0.127061
-0.0146718 0.0875235 0.36414
-0.00222452 -0.142953 0.193234
-0.0055231 0.222724 0.214971
0.00212285 -0.276074 0.0170613
-0.0150038 0.0765475 0.194793
-0.00458641 -0.443123 0.249113
-0.00124724 -0.305895 0.0898574
-0.00850946 -0.208769 0.313519
0.00320583 -0.223462 0.449665
-0.00104097 0.0516152 0.238768
0.00596527 0.306084 0.178959
0.0259409 0.155709 0.18589
-0.0309984 0.134451 0.183541
-0.0376766 0.306585 0.17837
0.035192 0.0170302 0.172039
-0.00223023 -0.457192 0.138973
-0.0118483 0.131884 0.223068
0.00568657 0.107945 0.56642
-0.00942448 0.454216 0.089821
0.000145102 0.461073 0.155822
-0.0705368 -0.198698 0.558049
-0.00174436 -0.29762 0.216512
-0.00582613 0.250919 0.216294
-0.0299316 0.00329522 0.237064
-0.00644493 -0.132134 0.204951
-0.0101022 -0.308682 0.172701
-0.00390847 -0.291765 0.10993
-0.00218049 -0.07713 0.301297
-0.00666438 0.185659 0.291333
-0.001313 -0.166031 0.274707
-0.00194423 0.472999 0.127509
-0.00279889 -0.296452 0.234994
-0.00418454 -0.0689689 0.293076
-0.00733679 0.024411 0.185296
-0.00149613 0.455512 0.217723
-0.015548 0.0346377 0.202451
-0.00728418 -0.207867 0.429927
-0.00962169 0.127089 0.137357
0.0165587 0.0108083 0.193037
-0.0100143 0.142308 0.505213
0.00508493 -0.42368 0.304019
-0.0347406 0.261313 0.181055
-0.0129141 0.176347 0.551353
0.0100717 -0.241074 0.405409
0.00086706 -0.42117 0.297559
0.00320346 0.31146 0.170583
-0.0289195 0.128181 0.148433
-0.00715726 -0.429931 0.281471
-0.00132609 -0.385046 0.203916
-0.00384373 -0.359518 0.0360719
-0.00646923 -0.30558 0.0194267
-0.00989947 0.0943487 0.546364
-0.00745819 -0.318573 0.350951
-0.0309206 0.195528 0.289079
-0.00228309 -0.304527 0.0169972
-0.0381602 0.0275367 0.215957
-0.00410342 -0.307639 0.180349
-0.00331766 0.295024 0.192758
-0.0562802 0.00374302 0.264569
0.000222513 0.421316 0.0674077
-0.00318644 0.247967 0.306372
0.00321504 -0.444762 0.0944054
-0.0177965 0.303121 0.176943
0.00559363 0.0152686 0.213379
-0.00235876 0.441075 0.100549
0.0024884 -0.342257 0.0294152
-0.0311205 -0.00512009 0.226016
0.000821754 -0.333562 0.360738
-0.0044502 -0.258328 0.222162
