-0.00394691 -0.476754 0.132329
0.00602414 0.345127 0.00452152
-0.00853881 -0.0555269 0.437001
-0.17357 -0.242006 0.512143
-0.000160737 0.181506 0.222989
-0.0149386 -0.234709 0.417792
0.039644 0.308618 0.168715
0.00853889 0.0909789 0.209539
-0.00853881 0.086401 0.432573
0.0125782 0.133319 0.413503
-0.00652255 0.242042 0.0408931
-0.0321485 0.321475 0.174984
0.0451868 0.111708 0.0593884
-0.00853881 0.109671 0.338546
-0.00102092 0.0852466 0.227281
-0.00853881 -0.105281 0.449825
-0.0312832 0.0342113 0.237567
0.023929 0.105752 0.514201
0.00945873 -0.217291 0.391557
-0.000568668 -0.480236 0.162134
0.00849057 -0.17672 0.173618
0.162227 -0.257457 0.525356
0.00853889 0.13299 0.155716
0.0346686 0.257791 0.161316
-0.0483248 0.01328 0.246798
-0.0198027 0.087604 0.515438
0.0079916 0.247935 0.280687
0.00849057 -0.216093 0.2628
0.00652149 -0.250069 0.0240207
-0.00849049 -0.220329 0.0548826
0.00809561 0.452125 0.0849344
0.0424034 -0.327864 0.176143
0.00837432 -0.458491 0.105841
0.00432782 -0.190968 0.0781751
-0.0313978 0.26636 0.16286
0.00853889 -0.0352762 0.431999
0.139078 -0.24264 0.538802
-0.0398187 0.0287551 0.252068
-0.0340533 -0.256679 0.519692
-0.00462994 0.435666 0.0492378
-0.0167376 0.0375928 0.158645
0.00276935 -0.27209 0.305801
-0.0297549 0.196582 0.163285
-0.00853881 -0.0949234 0.434112
0.00741638 0.181489 0.182571
0.0386799 0.202526 0.160143
-0.00849049 -0.215646 0.0573147
0.00146656 0.478507 0.17387
0.00243716 -0.331195 0.175813
0.00234279 0.0471895 0.438334
0.00853889 0.120609 0.46002
0.00501336 0.134158 0.148015
0.0020638 -0.462145 0.230045
-0.00853881 0.0927957 0.278013
-0.00674502 0.193855 0.0973516
0.0301342 -0.305859 0.16561
0.0387354 0.217755 0.271214
0.0170174 0.186315 0.330278
0.00743232 0.2931 0.297303
-0.00853881 -0.0590221 0.236463
-0.00853881 -0.179991 0.455589
0.00809561 0.178539 0.144122
0.000330602 -0.372143 0.289064
0.039644 0.315022 0.157139
0.00853889 -0.0486466 0.431693
0.012143 0.310497 0.1417
0.00849057 -0.232944 0.273283
-0.00665849 -0.251326 0.341278
-0.0147927 -0.245811 0.384266
0.0349 0.320332 0.169156
-0.000340989 -0.214953 0.412635
-0.100058 -0.23817 0.531936
0.0166606 -0.256118 0.298936
-0.0697093 0.0559773 0.237676
-0.0019474 -0.244497 0.531094
0.0400467 0.210816 0.149426
-0.00908806 -0.246542 0.532399
0.00853889 -0.186565 0.315654
-0.0295801 0.162104 0.149544
-0.00360576 -0.309848 0.145791
-0.00853881 -0.219195 0.332824
-0.00639988 0.073361 0.168302
0.00116165 0.0886721 0.254151
-0.0156444 -0.255004 0.280219
0.0228933 0.118359 0.07823
0.00159009 -0.215927 0.529921
0.00436949 -0.168999 0.17135
-0.0278799 0.178792 0.155281
0.0393606 0.227102 0.15154
-0.00849049 -0.257823 0.291399
-0.0130907 0.142024 0.398097
-0.163517 -0.242536 0.51233
-0.00335222 -0.248677 0.361925
-0.0888612 -0.25632 0.53215
-0.0167376 0.0408789 0.143916
0.0256051 0.174591 0.515133
-0.0217409 0.286943 0.113212
0.0254583 -0.30884 0.173049
0.00781128 -0.102843 0.257514
0.00595245 -0.0730207 0.239227
-0.020817 0.248322 0.196347
-0.00799825 0.389781 0.028998
-0.000697653 0.406576 0.267959
-0.00868006 0.455961 0.0971177
-0.018813 -0.335819 0.145924
-0.00238063 -0.319298 0.142462
-0.0167376 0.07478 0.156037
-0.0128072 -0.222573 0.478645
-0.00413519 0.17077 0.127005
0.00853889 0.0082591 0.201409
-0.00332101 0.447009 0.0615064
0.00314244 -0.231059 0.264284
-0.00853881 -0.212048 0.341822
0.0146044 -0.306579 0.16696
0.00809561 0.294605 0.300576
0.00136135 0.203447 0.0570368
-0.0223365 0.30791 0.153504
0.00314916 0.0546244 0.437686
0.0292445 -0.332459 0.145901
-0.00436799 -0.190548 0.331181
-0.0186238 0.165969 0.199831
-0.0167376 0.109943 0.153868
0.00853889 -0.0671673 0.441687
-0.0227046 -0.235465 0.308029
0.106215 -0.259935 0.535595
-0.0220967 -0.265817 0.237577
0.0170744 0.114369 0.0964786
0.00490036 0.170766 0.50591
0.00696916 -0.250977 0.0242817
0.0764087 -0.257401 0.531126
-0.0149386 -0.235157 0.420013
0.00809561 0.24091 0.278201
0.030989 0.156365 0.159837
-0.0312832 0.08991 0.156641
-0.00533892 0.103227 0.230946
0.0136604 -0.227071 0.398213
0.00559954 -0.0628366 0.232982
-0.174994 -0.23809 0.526286
0.0462968 0.124058 0.0693122
0.00645442 0.0849439 0.139032
0.00813418 -0.182818 0.192859
-0.00210636 -0.245959 0.519141
-0.0355433 0.171146 0.163748
0.00733374 0.350615 0.297902
-0.00412819 0.174513 0.112891
0.0135249 0.163057 0.365166
0.00426872 -0.236167 0.529485
-0.0721956 0.0559773 0.247746
0.00437431 -0.184735 0.177289
0.00764167 -0.463102 0.193843
0.00853889 -0.00668126 0.4363
-0.00903536 -0.207694 0.510038
-0.0052273 -0.17897 0.102615
0.0223914 -0.247878 0.266437
-0.000737189 -0.264779 0.0137339
-0.0223365 0.312367 0.156497
0.00339555 -0.476928 0.132282
0.00853889 0.094141 0.433743
-0.00602681 -0.326554 0.142151
-0.00427105 0.127573 0.416776
0.0362033 -0.306981 0.183978
-0.0262849 0.164833 0.160858
-0.00936309 0.160626 0.356426
0.00427973 0.120587 0.147114
-0.117221 -0.26126 0.528804
-0.00581973 0.129295 0.438218
-0.0032791 0.0952012 0.305366
0.00221095 -0.32441 0.141441
-0.0766837 0.01328 0.247233
-0.00637461 -0.219772 0.0449129
-0.0226745 -0.262744 0.271235
-0.0346655 0.309611 0.166961
0.00853889 0.0658609 0.159952
0.00853889 0.111013 0.31065
0.0673417 0.111708 0.0659862
-0.0149386 -0.225345 0.391514
0.0058103 -0.196817 0.24664
0.000759552 -0.20466 0.0867203
-0.0297233 -0.293003 0.193395
-0.031976 0.219039 0.152732
0.00468927 -0.388288 0.28319
-0.00853881 -0.134884 0.292631
0.0421321 -0.258877 0.527105
0.00809561 0.194754 0.224014
0.0108224 0.173259 0.510902
0.0179851 0.156497 0.493134
0.174994 -0.246879 0.531147
-0.00084958 -0.0502876 0.225283
0.0170744 0.0989793 0.120872
0.00853889 0.126934 0.428332
0.0212627 -0.261199 0.277695
0.00468236 0.367551 0.30571
0.00849057 -0.46812 0.141484
-0.0223385 0.316093 0.1257
0.00627934 -0.24224 0.274765
0.000579191 -0.15365 0.288663
-0.00313821 -0.102158 0.257089
0.00853889 -0.0476155 0.24404
0.0023664 -0.392221 0.0186571
-0.00813349 0.157406 0.52358
-0.00172127 -0.185009 0.172217
-0.00853881 0.000139304 0.200642
-0.0339951 0.157761 0.161611
-0.0312832 0.0765273 0.171744
0.00853889 0.108992 0.281264
0.100567 -0.263272 0.528087
0.00510908 0.348115 0.00391096
-0.00550806 -0.183219 0.169872
-0.00888546 0.207949 0.247085
0.119396 -0.234178 0.525279
-0.0338673 -0.309763 0.170428
-0.0167376 0.102426 0.113972
0.00212051 -0.173505 0.116801
0.0256132 0.0990454 0.132037
-0.00805476 0.0587862 0.419953
0.0328408 0.177167 0.146207
-0.00195615 0.128657 0.433141
-0.100055 -0.238403 0.532522
0.0106351 0.0772716 0.169882
0.00669422 0.186337 0.0896903
0.00305535 0.410454 0.0276365
-0.0167376 0.049951 0.18517
-0.00690588 -0.339902 0.30111
-0.00398254 -0.138026 0.43705
0.0335794 0.307304 0.168542
-0.0677006 -0.243941 0.529666
0.00809561 0.211121 0.250162
-0.00864305 0.204559 0.239765
-0.0024058 0.201687 0.0890381
0.00264566 0.119561 0.360824
0.000561462 -0.448904 0.21911
0.00794692 0.153888 0.366719
0.00849057 -0.47076 0.126679
0.00426375 0.349209 0.309534
-0.029401 0.183195 0.150807
-0.154191 -0.236869 0.536968
-0.00139123 0.47846 0.1357
-0.134056 -0.26047 0.525489
-0.036301 0.240236 0.247605
0.00822292 -0.436843 0.258042
3.51918e-05 0.133725 0.162399
-0.0347832 -0.281255 0.21112
-0.0293011 0.172862 0.510107
-0.00849049 -0.384074 0.0212948
-0.0330425 -0.279595 0.208512
-0.00888546 0.308489 0.304996
-0.00333794 -0.213533 0.325383
-0.0754181 0.0473397 0.252871
0.0128837 0.1305 0.406554
-0.00460041 0.102661 0.416141
-0.0199684 0.103446 0.517645
-0.0413609 0.335412 0.152038
0.00351053 0.0671031 0.14806
-0.0282296 -0.260391 0.253053
-0.00849049 -0.364953 0.0150155
-0.13886 -0.247847 0.539834
0.00805741 0.280835 0.29542
0.119574 -0.243224 0.538154
-0.0128072 -0.233268 0.516612
0.000717753 -0.132424 0.453981
0.00609266 0.166118 0.363065
0.00233036 0.133261 0.469749
-0.0021602 -0.455326 0.242168
-0.00849049 -0.24832 0.288861
-0.0186677 0.0718021 0.507457
0.0424034 -0.317939 0.153317
0.00392461 0.425293 0.274618
0.00786658 -0.171527 0.299627
-0.120632 -0.252243 0.513592
-0.00561955 0.207198 0.236046
-0.082865 0.0334415 0.252871
-0.0321557 0.241929 0.153895
0.0333391 -0.257287 0.52022
-0.0223365 0.351009 0.179465
0.0117588 0.0818566 0.171455
0.00566232 0.227255 0.0524067
0.00358383 -0.140402 0.437257
0.00174692 -0.243572 0.401723
-0.0025129 0.204208 0.228652
-0.00853881 -0.0789656 0.243765
-0.00376184 0.308197 0.296253
0.00391312 -0.202234 0.442628
0.0412685 0.134336 0.0693122
-0.00849049 -0.314946 0.305295
0.00288598 -0.072931 0.448798
0.0395766 0.175303 0.148211
0.0553144 0.128806 0.0693122
0.00781028 -0.44665 0.0839857
-0.0218295 -0.270154 0.252602
0.00605892 -0.238341 0.271633
0.00329919 -0.208571 0.32234
0.0055295 -0.331225 0.00413587
-0.00844993 0.393263 0.0225644
-0.0207851 -0.248444 0.265243
-0.0120064 -0.235078 0.467934
0.0388633 0.238826 0.160405
-0.00344821 -0.234503 0.472417
0.0354353 0.198075 0.160049
-0.0084877 0.271776 0.0218649
0.00853889 0.0558224 0.428979
-0.0167376 0.104933 0.138359
-0.0108771 0.166536 0.347399
-0.00517259 0.333181 0.311688
0.0313772 -0.270072 0.226068
0.00762076 0.00767487 0.424393
0.0256132 0.1172 0.0819969
0.0377535 0.302297 0.166019
-0.00283568 0.108612 0.410561
-0.0167376 0.049926 0.118541
0.0153439 0.329733 0.146223
0.00616691 -0.0449902 0.446364
0.00853889 -0.161404 0.451026
-0.0167376 0.0900335 0.175282
0.00196569 0.0683668 0.520124
0.0136604 -0.22355 0.411439
0.042818 0.111708 0.0539108
-0.00121862 -0.07846 0.242557
0.00809561 0.19178 0.217846
0.0071432 -0.021389 0.228523
-0.0322929 -0.308669 0.170823
0.0232886 0.107404 0.0988619
-0.00304721 -0.201702 0.442582
-0.0149386 -0.231468 0.375752
-0.0425073 -0.310613 0.148115
-0.00624219 -0.398627 0.0239203
-0.00177026 -0.198753 0.33616
-0.0138107 -0.248822 0.360795
0.00853889 0.101749 0.15343
-0.073429 0.015442 0.252871
0.0849427 -0.255187 0.532662
0.0480958 0.111708 0.0526912
-0.0413609 0.322795 0.166524
0.0936901 -0.256952 0.52431
0.00853889 0.111259 0.304413
0.0256132 0.130714 0.0679168
0.0260618 -0.248395 0.267625
-0.00448081 -0.0993235 0.275819
0.00849057 -0.345354 0.0129414
-0.0167376 0.0381727 0.138955
0.00853889 -0.149629 0.446109
-0.00748473 0.421718 0.261068
0.00628816 0.458917 0.228033
-0.0018597 0.386348 0.0138299
-0.0682355 0.0151126 0.252871
-0.0149386 -0.223109 0.364579
-0.0256972 0.19798 0.302434
-0.0312832 0.0878524 0.159299
0.00853889 0.125938 0.465937
-0.00853881 -0.0649007 0.444316
-0.0411731 0.167473 0.501065
0.000785465 0.379928 0.0107828
-0.00849049 -0.43472 0.062429
0.00459374 0.464619 0.158891
0.0386357 0.306502 0.14086
0.00755641 -0.42343 0.273301
-0.0121114 0.145692 0.379238
-0.00606163 0.321768 0.141387
-0.0272116 -0.263707 0.236462
-0.0398187 0.027666 0.237849
-0.00853881 -0.13928 0.453013
-0.0223365 0.303126 0.148762
0.0100899 0.0540582 0.506931
0.0349514 -0.251335 0.517316
-0.00307984 -0.304366 0.0197633
-0.0318459 0.285179 0.1948
-0.00853881 0.0443956 0.182516
-0.00131449 -0.47134 0.108478
0.020887 -0.250201 0.517639
0.000207646 0.170175 0.12333
0.072304 0.111708 0.0583315
0.174994 -0.244307 0.529285
0.00503518 -0.426548 0.0418808
-0.17107 -0.232478 0.535822
-0.031655 -0.304057 0.159064
0.00623141 -0.340124 0.00546501
0.00839154 -0.47426 0.151574
0.00804417 -0.00361862 0.44276
-0.0418063 -0.258246 0.528824
0.0345864 -0.304916 0.163349
0.00683652 -0.181375 0.1484
-0.153855 -0.251473 0.537496
-0.00835056 -0.473726 0.169859
-0.0202363 0.189776 0.31941
0.0921288 -0.242743 0.526588
-0.0167376 0.082113 0.167421
-0.00438768 0.463399 0.147972
0.00809561 0.282684 0.0122798
-0.0149386 -0.238327 0.334629
-0.00853881 -0.172734 0.318376
0.00377572 0.168016 0.360146
0.0137019 -0.250707 0.294263
0.00197313 -0.183604 0.227994
0.00853889 0.110244 0.318852
0.00849057 -0.225525 0.267136
0.0991288 -0.261881 0.51972
-0.0288106 0.18684 0.156951
-0.00853881 -0.174235 0.455949
-0.00853881 -0.0107018 0.21815
-0.0117544 0.0874446 0.521214
0.0040428 -0.189863 0.330765
-0.000543935 0.219531 0.274148
0.00232427 0.334528 0.156123
-0.00815689 0.128794 0.163563
-0.00481594 -0.244846 0.0423882
-0.00853881 -0.0899537 0.258463
0.00849057 -0.194544 0.0910366
0.00809561 0.231599 0.0380481
0.0219151 0.170599 0.52019
0.0421507 0.14853 0.0693122
0.00775554 0.170527 0.520282
0.0424034 -0.332007 0.147833
0.00752215 0.0959497 0.311237
0.00605356 0.402598 0.274749
0.0161007 -0.25431 0.306496
-0.0167376 0.0980253 0.192601
0.00849057 -0.433512 0.0638841
-0.00317159 0.463725 0.155787
-0.0167376 0.0966491 0.137577
-0.0321212 -0.272108 0.228022
-0.00756038 0.47384 0.129072
-0.174994 -0.233724 0.526795
-0.00686796 0.202015 0.0831382
0.0178398 0.0658661 0.505827
-0.00888546 0.182301 0.112765
-0.00150807 -0.171207 0.194844
0.00853889 0.0994243 0.147407
0.0105675 -0.236328 0.313261
-0.00853881 0.0723841 0.433389
0.00435635 -0.225067 0.0386852
0.00639328 -0.232519 0.0494385
-0.00774606 0.243641 0.037703
0.0254698 -0.246299 0.271947
0.00677423 -0.18664 0.119266
-0.0340916 -0.27853 0.216883
0.01369 0.117457 0.521776
0.0569491 0.151386 0.0693122
0.0396045 -0.303954 0.175423
0.00670085 -0.0325175 0.445278
0.0345322 0.307978 0.162565
-0.0073372 -0.429916 0.254654
0.00131206 0.220857 0.250651
-0.00853881 0.0877496 0.421996
-0.00853881 -0.0707229 0.239429
-0.00426838 0.136542 0.511653
-0.00888546 0.367362 0.0148975
0.0116841 -0.237531 0.448817
-0.00723212 -0.171121 0.163574
0.00558931 -0.0411275 0.428632
-0.0223365 0.339505 0.168069
0.0052497 0.379074 0.300641
0.0369897 0.24949 0.16114
0.026099 -0.277584 0.235839
0.00563179 0.181579 0.157011
-0.0149386 -0.228256 0.419824
-0.161264 -0.237034 0.537369
-0.0180254 0.307578 0.169709
0.00783513 -0.341248 0.0153406
-0.000912209 -0.287243 0.00674557
-0.0325028 0.313133 0.164027
-0.00853881 0.064853 0.173289
0.0231164 -0.267526 0.239465
-0.00849049 -0.175909 0.158363
0.00164561 -0.454515 0.243932
0.00853889 -0.0917744 0.261646
-0.0293176 0.329812 0.145113
0.00764402 0.155898 0.492818
0.000310577 -0.2167 0.396885
-0.00888546 0.462845 0.109431
-0.00849049 -0.466391 0.204322
-0.0167376 0.0447703 0.135811
0.00676501 0.2516 0.290985
-0.0345397 -0.32964 0.175361
-0.01261 -0.22232 0.532157
-0.00414107 0.461157 0.0845484
0.00581054 -0.180678 0.325191
-0.00272714 -0.181507 0.458257
0.0979807 -0.245069 0.513878
0.00952275 -0.212897 0.43117
0.0170744 0.132633 0.0675404
0.000547779 0.206362 0.259762
0.00849057 -0.326891 0.306345
0.0170744 0.0765076 0.145934
-0.00531391 0.202084 0.0865197
-0.00475128 -0.458973 0.195603
-0.00713524 -0.213778 0.250427
0.00242281 -0.358143 0.0067599
0.170499 -0.237376 0.537948
-0.0682205 -0.254425 0.533006
0.173856 -0.254053 0.532173
0.00324076 0.109455 0.146366
0.000275915 -0.285092 0.00701591
0.00357491 0.237405 0.0275485
0.00639985 0.465266 0.0981433
-0.0553553 -0.257375 0.531199
0.00730766 -0.315966 0.30194
-0.0738655 -0.244381 0.530796
0.0020986 0.0694675 0.436393
-0.00603463 0.225051 0.275534
0.0136007 0.16451 0.354042
0.0109508 0.123951 0.521378
-0.0216672 0.284614 0.112499
-0.00991449 -0.242178 0.319799
0.00473262 0.169038 0.145695
-0.00848114 0.270641 0.015196
0.137901 -0.232762 0.528324
0.0418607 0.164868 0.500423
-0.0103344 0.144037 0.149435
0.00612505 0.0570574 0.516294
0.00325745 -0.145424 0.283619
0.0284761 0.327961 0.165
-0.0897921 0.0145957 0.252871
0.00827574 0.129798 0.442216
0.0180339 0.167615 0.499599
0.0323919 0.20124 0.155547
-0.00853881 -0.159798 0.297413
-0.0679244 -0.24489 0.531679
0.000882577 -0.272253 0.287817
0.00394261 -0.450284 0.097809
-0.000764464 -0.0410449 0.240452
-0.0149386 -0.226502 0.396157
0.0291179 0.330854 0.158172
0.0149423 0.0995141 0.520125
0.00809561 0.442805 0.242198
0.0159374 -0.248543 0.278101
0.00853889 -0.15081 0.291888
0.00853889 0.0947135 0.289642
-0.0361143 -0.290124 0.199046
-0.00696186 0.118198 0.349983
-0.00543873 0.0674091 0.162078
0.006616 -0.0801465 0.264181
-0.000707626 0.460586 0.0812677
0.00165544 0.0931129 0.166962
-0.0003251 0.0654763 0.175807
-0.0121175 -0.215781 0.405168
-0.00853881 0.0764756 0.435689
-0.00912128 0.0833713 0.138454
-0.00498354 0.461986 0.180295
-0.0394741 0.15448 0.500435
0.0103284 0.162773 0.353147
-0.0266398 0.128414 0.514277
0.0128581 -0.223554 0.335094
-0.01135 0.0669868 0.519519
-0.00853881 -0.195375 0.323817
-0.0297359 0.220786 0.281018
-0.00355973 0.461408 0.129385
0.0102077 -0.250638 0.319524
-0.00777469 0.0249482 0.179148
-0.00334345 -0.322702 0.00324455
0.00373562 -0.168021 0.164759
0.0197688 -0.256743 0.296325
-0.00804036 -0.439993 0.254829
0.033769 -0.30527 0.182964
0.00853889 0.0171934 0.19236
0.0768233 0.139413 0.0598536
-0.0325797 -0.27645 0.212756
-0.0039512 -0.236773 0.533393
0.00242251 0.331705 0.312294
0.0121336 -0.251995 0.305601
-0.00330328 0.0595864 0.517849
0.0171738 -0.334264 0.14634
-0.00853881 -0.0233657 0.215596
-0.0217607 -0.250245 0.323493
-0.0165308 -0.326816 0.17718
0.0908288 -0.251085 0.534381
0.137299 -0.25704 0.534542
0.00853889 0.11307 0.355346
-0.0238878 0.156917 0.152944
0.144455 -0.243864 0.53959
0.0066273 0.287826 0.29499
-0.00305555 0.171636 0.191883
-0.00638693 0.174839 0.116664
0.00435076 -0.451573 0.216866
-0.00853881 0.0174179 0.187005
0.00853889 0.0632506 0.174464
0.00849057 -0.251069 0.0276105
-0.0167376 0.0471332 0.130383
0.00832447 0.312949 0.171448
-0.00853881 0.124418 0.418358
0.0170744 0.0806961 0.141717
-0.00951033 0.126041 0.409734
-0.00853881 -0.20116 0.453177
-0.00490376 -0.454949 0.0764936
-0.00910991 -0.244327 0.326234
0.00146823 0.277426 0.288733
-0.00867384 0.240996 0.282903
-0.0033769 0.207424 0.078741
-0.0246824 -0.278654 0.223175
-0.0167376 0.100252 0.156047
-0.00849049 -0.40903 0.0413889
-0.00204234 0.451139 0.214136
-0.0378365 0.228972 0.161852
0.00849057 -0.292242 0.0137712
-0.024865 0.197571 0.306885
0.00751212 -0.238936 0.042763
0.0377581 -0.320977 0.158222
-0.0342902 0.282902 0.205673
0.022331 -0.244128 0.316141
0.000104655 -0.37896 0.0121333
-0.00218138 -0.277068 0.0265805
0.0584971 -0.256997 0.531843
-0.00344981 0.219797 0.273169
-0.00485061 0.31945 0.0164402
-0.00888546 0.275796 0.299551
0.022347 -0.24851 0.317076
0.00210997 -0.432382 0.0709676
-0.00853881 0.0541596 0.166807
0.000708153 -0.199633 0.442402
-0.013593 0.331331 0.145536
0.0319262 0.272688 0.201275
0.0293999 0.157093 0.520795
-0.00187919 0.439538 0.233977
0.0373944 -0.315351 0.170684
-0.0153158 -0.230886 0.318896
-0.00853881 0.0978426 0.426215
0.0350014 0.131293 0.49376
0.017615 0.138876 0.483842
0.00912528 -0.255873 0.519333
-0.00793535 -0.180706 0.177006
-0.00311626 0.274984 0.00819587
-0.00735529 -0.41082 0.272319
-0.0128072 -0.212037 0.524524
-0.00775922 -0.195382 0.0779146
0.0133647 0.152453 0.36903
-0.00888546 0.190122 0.215313
0.00785021 0.369687 0.0126113
-0.174994 -0.253266 0.528377
-0.0144428 0.171819 0.518644
0.0136604 -0.232211 0.441637
-0.00424604 0.453632 0.103521
-0.00595129 0.472968 0.117215
0.00544785 -0.1837 0.143972
0.0238238 -0.305871 0.165444
-0.00849049 -0.279329 0.301094
0.0014801 0.200738 0.222305
0.00469543 -0.223133 0.338887
0.00424196 0.101311 0.416258
0.00853889 0.122457 0.408517
-0.0044566 0.124114 0.39702
0.00511641 -0.470141 0.208713
0.0164483 -0.253276 0.518179
-0.00384752 -0.462436 0.177146
0.0122978 -0.239004 0.301761
0.00499562 0.163454 0.367162
-0.00533296 -0.428828 0.0654223
-0.00402533 0.390164 0.280289
0.032775 0.148958 0.51313
0.00849057 -0.346883 0.305578
0.0201729 -0.25374 0.255773
0.00809561 0.176347 0.156625
-0.00849049 -0.33893 0.304524
0.00809561 0.197373 0.0848457
-0.0135249 0.192576 0.324022
-0.0198192 0.213443 0.197212
-0.00710986 -0.191241 0.213418
-0.124423 -0.255794 0.515347
0.0239476 0.100467 0.510133
0.111096 -0.235816 0.523305
-0.0167376 0.0849617 0.1486
0.00765344 0.176012 0.121945
0.0212555 0.153636 0.522613
0.00853889 -0.207538 0.459091
-0.00657014 0.0990984 0.335935
-0.0312832 0.0406206 0.224593
0.157391 -0.24102 0.513094
0.0256132 0.133359 0.0637945
-0.0167376 0.101011 0.133306
0.00087058 0.189688 0.0765956
-0.0239602 -0.315979 0.142976
-0.147329 -0.231984 0.528861
0.00501499 -0.242618 0.526266
0.0137492 0.173628 0.347982
-0.0128043 0.127058 0.414503
0.00853889 -0.00505446 0.44037
0.0256122 0.112132 0.0588279
-0.0223365 0.343914 0.165485
0.0070418 0.183513 0.189059
-0.00840319 -0.212242 0.251314
-0.0276665 0.176846 0.156965
-0.00789677 -0.370465 0.0142694
-0.0371742 0.140544 0.494985
-0.0223365 0.327294 0.13639
0.0424034 -0.322903 0.165704
0.00396343 -0.356645 0.0069801
-0.0270975 0.202355 0.302186
0.0134493 0.159489 0.371382
-0.00125325 0.0187405 0.182958
-0.00788852 0.278992 0.302079
-0.0383372 -0.303576 0.177024
-0.00849049 -0.334593 0.0111146
0.0136604 -0.226421 0.460181
-0.0167376 0.0487477 0.143861
-0.00836401 0.4593 0.089819
-0.0365428 0.278269 0.20887
0.00853889 0.0497264 0.17864
0.0170744 0.116442 0.0964452
0.00170664 0.168715 0.173199
0.0338614 0.266624 0.20239
-0.00686522 -0.430556 0.049583
-0.000432087 0.189327 0.120762
-0.0138307 0.0576611 0.51092
-0.00041845 -0.42654 0.0399775
0.00679622 -0.209533 0.0572019
0.000584953 -0.258741 0.527475
-0.00853881 0.107618 0.3276
0.00488925 0.113308 0.311099
0.00853889 -0.182554 0.31301
0.0136604 -0.236339 0.354322
0.00624152 0.476278 0.147446
0.00853889 0.0987016 0.423105
-0.00853881 -0.0105582 0.426981
-0.0576995 -0.258338 0.528574
0.0188424 -0.260911 0.260982
-0.0050087 -0.404485 0.273328
0.00809561 0.372115 0.0148296
0.0352542 0.260796 0.16138
-0.168755 -0.256251 0.52404
0.0174842 0.303612 0.166074
0.00853889 0.0315118 0.181273
0.00853889 0.0947614 0.18441
-0.00849049 -0.301831 0.306818
-0.00870119 -0.228133 0.478065
-0.00622041 0.221753 0.0588326
0.0181481 0.303 0.164704
-0.0113708 -0.332067 0.174995
0.00472452 -0.183863 0.147055
0.00741081 -0.303457 0.00755964
0.00117884 -0.1853 0.17319
0.00604502 -0.218242 0.0457281
0.00774251 0.196544 0.0879048
-0.00202451 -0.168808 0.140854
0.0136604 -0.230892 0.327278
0.0768233 0.135382 0.0545058
-0.00612848 -0.26054 0.031765
-0.0052312 0.170616 0.131379
-0.00486337 0.172626 0.119212
0.00721844 -0.457155 0.106827
-0.00292442 0.321352 0.312261
0.0738415 -0.246765 0.518855
-0.00853881 -0.00555972 0.435226
-0.0288784 -0.292546 0.199521
0.00494189 -0.311562 0.145445
0.00208811 -0.478788 0.172319
-0.000941367 0.124749 0.497087
-0.0223385 0.321972 0.120337
-0.0248265 0.307738 0.146678
-0.0392858 0.145464 0.487316
-0.0223365 0.319932 0.16827
0.00496315 -0.253353 0.296961
0.00853889 0.0237366 0.199708
-0.00853881 0.11561 0.40527
-0.00861528 0.228426 0.265878
-0.0198497 -0.251765 0.258981
-0.00785971 0.413031 0.0444059
-0.00782014 -0.249133 0.518017
0.00634258 -0.326551 0.0166894
-0.0223365 0.292975 0.143497
-0.00567031 0.100962 0.212936
0.00853889 0.106455 0.421857
0.00132515 -0.1224 0.269501
-0.0312832 0.0933804 0.16517
0.00853889 0.0908923 0.43086
0.00060601 -0.31268 0.297647
0.0180227 0.118581 0.098285
-0.00016095 -0.207294 0.234507
0.00549207 0.0959294 0.161353
0.00691374 -0.293632 0.00907706
-0.0244352 0.162853 0.496485
0.00480101 -0.478599 0.164896
0.111256 -0.257727 0.536708
0.00853889 0.0731826 0.425341
0.0643754 0.114987 0.0693122
-0.0167376 0.130427 0.151619
-0.0017193 -0.173918 0.202616
-0.00880626 0.173583 0.336635
0.00660453 0.132813 0.466192
0.0357934 -0.339043 0.168177
-0.00101251 0.134912 0.153173
-0.00423763 0.463968 0.161254
0.0332495 0.223744 0.160594
-0.0044614 -0.103557 0.257947
0.0327537 0.308519 0.140585
-0.00743316 -0.465101 0.185525
-0.0131445 0.302786 0.155238
-0.0613987 0.0383571 0.252871
-5.23236e-05 0.249861 0.274808
-0.0324081 0.309908 0.171439
-0.0312832 0.0695114 0.161849
-0.0149386 -0.235252 0.454577
-0.00888546 0.208436 0.066559
-0.0361473 0.140567 0.500594
0.00809561 0.20879 0.0664246
0.00426872 -0.242249 0.52725
-0.00853881 -0.0514145 0.444931
0.000640727 0.18696 0.185447
-0.0082599 0.468129 0.201162
-0.00630613 0.258085 0.0173575
0.0554551 -0.252983 0.533657
-0.0078051 0.115949 0.522062
-0.0103715 0.109879 0.522115
0.00998769 -0.255372 0.519111
0.0221823 -0.247824 0.266535
-0.00888546 0.179071 0.181845
-0.0149386 -0.229908 0.447404
0.0553223 -0.251199 0.517285
-0.0283377 -0.288065 0.201256
-0.00853881 -0.209771 0.453919
0.0014575 0.281854 0.306993
0.00738446 0.0988834 0.196409
0.00550901 0.475462 0.182564
0.0400754 -0.304286 0.17495
-0.0850909 -0.243896 0.529549
0.02016 0.0969938 0.136495
-0.038421 -0.3355 0.172623
0.00776955 0.0988584 0.163233
-0.00853881 0.114254 0.399187
0.00428458 0.195829 0.0972185
-0.00147337 0.250785 0.27579
-0.0398187 0.0390962 0.240796
-0.00745223 0.205322 0.237791
0.0984112 -0.249378 0.539876
-0.0278888 -0.290774 0.205895
-0.00775383 0.144144 0.381602
0.00305797 0.116231 0.146821
-0.00849049 -0.323151 0.0120883
-0.0223365 0.31234 0.193701
-0.0129393 0.132536 0.399991
-0.00853881 -0.167779 0.306474
0.00239139 -0.46116 0.185846
0.0261792 0.161391 0.495714
0.00252684 -0.162391 0.314093
-0.0149386 -0.224103 0.374896
-0.00289271 0.103649 0.234302
-0.00393472 0.19417 0.243298
0.0360771 0.304379 0.159424
-0.00568971 -0.239333 0.287824
-0.000867777 0.317941 0.139873
-0.00413703 -0.239787 0.0276298
-0.00853881 -0.132608 0.293896
-0.00309378 0.236968 0.286098
-0.00715846 0.275878 0.0109626
-0.00853881 0.00398067 0.201547
0.032328 0.210447 0.155426
0.00622014 -0.0578707 0.250663
-0.0200009 -0.320406 0.177125
-0.00245971 0.480176 0.157686
-0.0260607 0.200018 0.304248
-0.00853881 0.0819136 0.190283
-0.0470366 0.0206375 0.252871
-0.0213643 0.154699 0.150149
-0.00446819 0.327895 0.143788
0.0006386 -0.183127 0.326677
0.00853889 0.0100603 0.429327
0.00138341 -0.238575 0.0484467
0.00809561 0.176997 0.186311
-0.00853881 0.105451 0.27783
-0.00714278 0.0462649 0.438415
0.016797 0.138791 0.155078
0.00608629 0.14314 0.383136
-0.0367328 0.0474912 0.225358
-0.0235953 0.154263 0.491955
0.00853889 -0.199265 0.320904
0.0021798 0.341421 0.295377
-0.0939098 -0.238811 0.528558
-0.00813983 0.199843 0.068666
0.0319449 0.200098 0.289362
0.003954 0.291044 0.308237
-0.00849049 -0.42809 0.0539066
-0.0084124 0.21973 0.0566148
-0.0167376 0.109754 0.139158
-0.00616632 -0.333356 0.300174
-0.00853881 0.114018 0.374796
0.0253099 -0.248941 0.274258
-0.00398029 0.118566 0.146978
0.0393888 0.173674 0.159564
-0.0312832 0.0947219 0.148688
-0.00533199 -0.195205 0.217565
-0.0121343 -0.323609 0.178749
-0.00224822 0.472665 0.111131
0.00652727 -0.103364 0.257832
-0.0191351 -0.23561 0.30356
-0.0231251 0.209466 0.298455
-0.00849049 -0.472111 0.170876
-0.0398187 0.0336349 0.251058
-0.00808465 -0.174985 0.440261
-0.00693093 0.098919 0.163234
-0.0128072 -0.216609 0.512979
0.000451812 -0.226731 0.504859
-0.00853881 -0.129025 0.275489
0.00660145 0.472225 0.121426
0.0136604 -0.224378 0.385333
-0.00561006 -0.244014 0.398276
-0.0137147 -0.245368 0.29368
-0.00888546 0.344292 0.303284
0.0069164 0.423296 0.272213
0.00253615 -0.108426 0.260933
0.0020752 0.109482 0.280683
-0.0312832 0.0601569 0.200654
-0.00763295 -0.438393 0.245625
0.0256132 0.0867799 0.148872
0.00737156 -0.113981 0.434961
-0.0317691 0.282191 0.16133
-0.00214268 0.348208 0.310704
-0.00732991 -0.3025 0.300477
-0.00483831 0.464091 0.15387
-0.0167376 0.112116 0.174715
-0.00170103 0.28472 0.022551
0.00853889 -0.0373043 0.231296
-0.00371855 0.190982 0.237767
-0.0143412 -0.24323 0.288521
0.0256132 0.114074 0.09327
0.00375677 0.102829 0.227779
0.00809561 0.1939 0.0852543
0.003689 -0.222832 0.501458
0.000309706 0.209563 0.0765816
-0.021327 0.268721 0.195826
-0.0383916 -0.310687 0.172326
0.0242802 -0.244888 0.273433
-0.00478312 0.168446 0.162365
-0.00225189 -0.120299 0.452925
0.00719106 -0.199501 0.0874879
-0.00596135 -0.408812 0.271428
0.00564503 -0.134701 0.277046
0.0354266 0.23551 0.240388
-0.00538449 -0.184734 0.133761
0.00849057 -0.468747 0.12331
0.0561204 0.128833 0.0693122
0.0136604 -0.230871 0.438475
0.00853889 -0.114214 0.274588
0.0352513 -0.273529 0.221361
-0.0312832 0.0401042 0.2199
-0.000512487 0.13754 0.407013
-0.0358465 0.0387937 0.240916
0.122241 -0.237704 0.535852
-0.00849049 -0.458445 0.0996634
-0.0637968 0.0413661 0.252871
-0.00737688 0.171938 0.141678
-0.033226 0.229189 0.261024
-0.0167376 0.0867015 0.150812
0.00849057 -0.193436 0.0901116
-2.34864e-05 0.411349 0.0270876
-0.00457286 -0.43868 0.239977
-0.0149386 -0.226946 0.471499
0.00703016 -0.195353 0.0759378
-0.0293577 0.15345 0.164348
0.00390186 -0.246558 0.378443
0.029724 0.147025 0.488139
-0.0136956 0.171648 0.353748
0.0407946 -0.308833 0.173505
-0.00446712 0.10563 0.250055
0.00261229 -0.320868 0.298205
0.00195052 0.0866545 0.238325
-0.036199 0.27705 0.155679
-0.0339453 0.266039 0.227018
-0.00120098 -0.436168 0.0757754
-0.0312832 0.0829108 0.145896
-0.0061757 -0.196852 0.245731
0.00417849 0.323262 0.296818
0.154824 -0.233859 0.516494
0.00360993 0.10951 0.280907
-0.00423954 0.394693 0.0353148
-0.0260056 -0.2475 0.518595
-0.00576137 0.228182 0.0527913
0.0054585 0.47761 0.150234
-0.00666127 -0.0193066 0.444127
-0.0196222 0.207228 0.111427
0.00491209 -0.223766 0.333185
0.0182305 0.13945 0.161729
0.0116322 0.331449 0.149919
0.00831021 0.104323 0.239657
-0.0323775 -0.273353 0.218273
-0.0344599 0.216707 0.285191
0.00849057 -0.46198 0.100617
-0.0301052 -0.265939 0.240989
-0.00335437 0.137721 0.483233
-0.0333896 0.236928 0.153641
0.0379368 0.241144 0.240781
-0.0158254 0.304032 0.153018
-0.0362452 0.235608 0.26004
-0.00888546 0.218365 0.051803
-0.0167376 0.107267 0.11176
0.122916 -0.240157 0.536961
-0.00801787 -0.464263 0.124427
0.00849057 -0.174662 0.172628
0.0211103 -0.249299 0.533602
-0.00827969 -0.139908 0.300449
-0.0167376 0.0370061 0.136791
0.00979596 0.0723612 0.52108
-0.00882285 0.42656 0.0545265
0.0048812 -0.164005 0.295013
0.00704444 -0.189729 0.458973
-0.0149386 -0.237784 0.39869
-0.0149386 -0.22073 0.452037
0.00196171 0.0742893 0.435973
-0.0328995 0.0574958 0.207461
0.00763358 0.436413 0.247036
-0.00735986 -0.225531 0.0531469
0.00536508 0.464399 0.146798
0.00811982 -0.181116 0.132127
0.0182942 -0.238238 0.295025
0.0322132 0.226759 0.149165
-0.0327722 0.0588215 0.20509
0.00849057 -0.231709 0.277202
-0.00849049 -0.266662 0.0203524
0.000170683 0.124317 0.521346
0.00853889 0.0483124 0.427386
-0.00685984 0.432425 0.264458
0.040336 0.201787 0.147543
0.00880772 0.171944 0.518486
-0.0391383 0.0662272 0.172464
-0.0375638 0.0465979 0.207496
0.00301904 0.368528 0.0234676
0.00772555 0.238524 0.273227
-0.00634195 0.16743 0.499228
-0.0167376 0.0543423 0.118066
0.00499169 0.235673 0.283883
0.0246286 -0.268553 0.25702
0.00809561 0.357889 0.301453
0.031886 0.273958 0.151388
0.00755395 -0.441253 0.254398
-0.0217574 -0.33569 0.145775
0.0170744 0.0687067 0.146107
0.0217026 0.0891699 0.133203
-0.130147 -0.233078 0.527065
-0.0312832 0.0720833 0.159775
0.00579536 0.0869974 0.241015
0.00374227 0.0046792 0.424653
0.00147983 0.0942971 0.298274
0.000977341 0.396057 0.0371104
-0.00085994 -0.167298 0.152884
-0.0167376 0.101295 0.148382
0.00337705 -0.371923 0.0271987
0.0393157 0.119118 0.0693122
-0.00849675 -0.164599 0.439359
0.00693585 -0.161853 0.293695
0.0062164 0.435354 0.260986
0.000598327 0.134352 0.151964
0.00853889 -0.108596 0.441523
0.00286994 -0.470003 0.211583
0.0240992 0.143206 0.153532
-0.00632802 0.193344 0.238792
-0.0207483 -0.32492 0.140959
-0.0889526 -0.245406 0.531904
-0.0206673 -0.317269 0.142618
0.0334956 0.271347 0.196623
-0.00671231 0.114393 0.455909
0.0288999 0.164533 0.525409
0.00416091 -0.135411 0.29772
0.00349545 -0.30828 0.170942
0.0073579 0.114601 0.457537
-0.00853881 0.0334966 0.182098
-0.0232809 -0.242527 0.302065
0.00809561 0.182327 0.208418
0.106562 -0.253215 0.538956
-0.00853881 0.0386705 0.42867
0.0256132 0.105778 0.108137
0.0346403 0.240766 0.246078
0.0071714 0.464296 0.213798
-0.0425073 -0.313896 0.165867
-0.0240256 0.169371 0.521746
-0.0313361 -0.290634 0.193615
-0.0149386 -0.237867 0.342144
-0.00849049 -0.176886 0.128084
-0.0185892 0.107057 0.518551
-0.0149386 -0.249875 0.33197
-0.12136 -0.261268 0.524121
0.000405629 0.442205 0.0549836
-0.0367198 0.266786 0.166039
-0.00464659 -0.0560818 0.249577
-0.0223365 0.343276 0.159959
0.0331987 0.307473 0.152836
0.0270456 -0.256304 0.519525
0.00853889 0.0198041 0.435402
0.0208341 0.146531 0.487878
-0.0240997 0.0950517 0.163352
-0.00853881 0.116937 0.398085
0.00623117 -0.187951 0.230576
0.0659935 0.121792 0.0693122
-0.0177405 0.0767645 0.169734
0.00161958 -0.152242 0.455708
0.00853889 -0.203493 0.337239
-0.111009 -0.236604 0.530888
0.00715412 -0.21923 0.256367
-0.0425073 -0.330385 0.14674
-0.148792 -0.255593 0.535174
-0.0364221 0.178912 0.164315
0.00722056 0.449889 0.225298
-0.00276323 -0.461052 0.132073
0.0067866 0.249287 0.289887
-0.0110601 -0.211329 0.487647
-0.0301863 -0.269025 0.240467
0.0173458 0.30067 0.158982
-0.0041554 0.395808 0.276977
0.0407762 0.193876 0.158334
0.017176 -0.317096 0.176837
0.0450916 0.138882 0.0693122
-0.00174143 -0.211723 0.441755
-0.0315227 0.147194 0.513642
-0.0380272 0.0712799 0.163447
-0.00888546 0.261968 0.28864
-0.00853881 -0.0724424 0.247044
0.0548142 0.12582 0.0693122
0.00255683 0.437427 0.238515
0.00853889 0.124401 0.160107
0.00296889 -0.288771 0.294069
0.00504486 -0.316016 0.175991
-0.023612 -0.239564 0.296389
-0.00737831 -0.214641 0.0525829
0.0020773 0.164714 0.497466
-0.00156369 0.0485795 0.438213
-0.0072259 0.0950192 0.163688
-0.0021599 -0.472692 0.113327
0.00853889 0.047452 0.421589
0.0661644 0.137901 0.0693122
-0.00529523 0.110595 0.289533
0.0276674 -0.280427 0.218947
0.104934 -0.24276 0.53727
-0.00853881 0.0422771 0.180687
0.00792852 0.449375 0.0852761
0.00731917 0.308196 0.169454
0.0380439 -0.319643 0.178592
0.02127 0.146417 0.157294
0.0405761 0.198544 0.156558
-0.00853881 0.11447 0.154448
-0.0036565 -0.462114 0.17995
0.0321353 0.238121 0.153131
0.00548089 -0.190206 0.113761
-0.00757056 -0.341694 0.301731
-0.0149386 -0.227489 0.415761
-0.00690209 0.175667 0.19623
0.00779212 0.468462 0.161496
-0.00688323 0.36694 0.00953195
0.00206258 -0.124447 0.453286
-0.0048533 0.14096 0.391246
-0.00778709 0.299841 0.306916
0.0136604 -0.227726 0.377608
-0.00849049 -0.384946 0.0240342
-0.0346245 0.129332 0.492874
-0.000319038 0.176485 0.332814
-0.00426244 -0.419778 0.0367128
-0.0007362 -0.474043 0.115877
0.171672 -0.239645 0.51305
-0.160173 -0.234385 0.536154
0.00703812 -0.335904 0.00613858
0.00184574 0.461964 0.173912
-0.00888546 0.285262 0.0138145
0.00849057 -0.469092 0.195741
0.00809561 0.472419 0.174988
0.0526713 0.111708 0.0672439
-0.1344 -0.256897 0.516512
-0.00732622 0.106164 0.391358
-0.00853881 0.121603 0.395522
0.00359205 0.0100403 0.44157
0.00568096 -0.467413 0.102659
-0.0124642 -0.338861 0.151848
-0.00387692 0.398948 0.0384222
0.129408 -0.246874 0.540214
0.00619291 -0.25803 0.032823
-0.0067819 0.204817 0.0595157
-0.00888546 0.469066 0.177579
-0.000726171 -0.242804 0.52493
0.0102578 -0.239401 0.316458
1.31199e-05 0.271558 0.00886277
0.0299573 -0.264604 0.248014
-0.0221823 -0.271873 0.237698
-0.0327214 -0.307985 0.148974
-0.0255973 0.0984236 0.50138
-0.000745174 0.127139 0.479572
0.00853889 -0.0964875 0.439022
0.0389103 0.129907 0.0693122
0.00809561 0.31998 0.304924
0.00849057 -0.278365 0.0150473
-0.0223365 0.301842 0.161354
0.00375357 -0.221976 0.254796
-0.00673552 0.440349 0.256122
0.00689994 0.341195 0.299173
-0.00853881 0.119571 0.418202
0.0044075 0.386002 0.298412
-0.0297281 0.195112 0.153475
-0.00393411 -0.205062 0.258939
0.000570535 -0.151128 0.307258
0.000342689 0.204349 0.0853685
0.000130819 -0.167765 0.14537
0.00258213 -0.127106 0.436102
-0.0194428 0.195724 0.109867
0.00445048 0.169118 0.50261
0.00483702 -0.441287 0.05776
-0.00849049 -0.363737 0.0134749
-0.0480563 -0.256969 0.531856
-0.0304393 0.168042 0.500454
-0.0149386 -0.243173 0.333525
-0.0269728 0.309379 0.145809
0.00214318 0.0955682 0.308244
0.0467428 -0.243247 0.527883
0.00436476 0.45512 0.205502
-0.0121331 0.334541 0.160384
-0.00888546 0.178179 0.144183
-0.00387634 -0.252544 0.517853
0.00793838 -0.467013 0.172489
0.00595149 -0.363899 0.307167
-0.0344931 0.254354 0.24181
0.0173253 -0.324281 0.179362
-0.0166522 0.320076 0.140953
-0.00668825 -0.376599 0.0151114
0.00853889 0.110638 0.316859
0.00610811 0.0774388 0.435699
0.0424034 -0.318185 0.165328
-0.0226171 0.207266 0.297553
0.00809561 0.189009 0.214479
-0.0223365 0.339485 0.141422
0.000692711 -0.138852 0.279589
0.00849057 -0.292946 0.0122169
-0.00452559 0.10819 0.407251
-0.00853881 0.0327211 0.183817
0.0768233 0.118302 0.0635523
0.00426872 -0.231033 0.517683
0.00791041 0.0658217 0.151357
0.0229525 0.146423 0.487822
0.0112305 0.0547495 0.506561
-0.0366969 0.296396 0.181577
0.00809561 0.177003 0.127444
-0.00853881 -0.0208179 0.427724
0.0228433 -0.262905 0.24084
0.00190857 -0.210179 0.0516259
-0.00180506 0.18982 0.076467
-0.0619675 0.036143 0.252871
-0.0167376 0.113852 0.177003
0.0025173 0.0341711 0.173499
0.0138213 0.176257 0.341088
0.0134176 0.157235 0.370285
0.032398 0.219719 0.262759
-0.00596975 0.3864 0.297592
-0.00853881 0.0576012 0.432777
-0.0173909 0.0703233 0.16707
0.0201162 -0.261845 0.25457
-0.00132275 -0.244624 0.393526
-0.000803189 0.434627 0.241023
0.0066301 0.2255 0.261389
-0.000356973 -0.208255 0.50517
0.0351556 0.256198 0.226902
-0.0216055 0.146011 0.159647
0.00388796 -0.389031 0.0343939
-0.00120253 -0.186358 0.13246
0.00548685 -0.217969 0.385439
-0.0425073 -0.318947 0.147453
-0.0147854 -0.239372 0.434468
-0.000908945 0.138288 0.483532
-0.144026 -0.235845 0.536046
-0.0172102 0.195677 0.307861
-0.00827121 -0.462009 0.0976842
-0.00444439 0.142305 0.52114
-0.0336422 -0.309476 0.180214
0.000692781 0.06881 0.436451
-0.00821377 0.463649 0.122347
-0.0223365 0.327398 0.134606
-0.0167376 0.11758 0.15635
-0.0316695 0.277898 0.162498
-0.00849049 -0.219864 0.26345
-0.00876729 0.209915 0.0579657
-0.0172496 0.105215 0.204632
-0.00579326 -0.407703 0.288022
-0.00447174 -0.249988 0.533903
0.00818494 -0.419829 0.0499254
0.00682916 -0.243074 0.0408443
-0.0167376 0.125675 0.146283
0.00669202 -0.427768 0.271538
0.0768233 0.123301 0.0587451
0.00471364 0.297041 0.0188266
-0.00853881 -0.125148 0.436513
0.0101364 -0.247913 0.367882
0.0061761 0.276809 0.302878
0.000351075 0.0410905 0.190606
-0.172136 -0.229659 0.52961
0.00809561 0.211248 0.0570823
-0.0136872 -0.208664 0.469329
-0.027268 0.203779 0.303108
0.00676829 -0.476803 0.154118
-0.0133274 0.153485 0.380093
-0.0398177 0.0566538 0.205029
-0.00494289 0.4641 0.153595
-0.00386973 0.114719 0.32232
0.0372495 0.155598 0.148475
0.00853889 -0.225782 0.336358
0.000999943 -0.172989 0.200632
-0.00853881 0.092829 0.239861
0.0373133 0.163601 0.509826
-0.00786742 0.476069 0.159105
0.0070367 0.358699 0.00899961
0.00377394 -0.257877 0.521735
0.00259835 0.102138 0.416187
0.00030891 -0.222926 0.278908
0.000224548 -0.422525 0.27992
-0.0176775 0.332808 0.165813
-0.0293551 0.191511 0.152408
0.00435338 0.42698 0.251424
-0.0374728 0.258064 0.163511
0.0424034 -0.331585 0.164849
0.00387915 0.409582 0.267405
0.00853889 0.105284 0.31571
0.00426872 0.129977 0.511961
0.00853889 0.110011 0.401613
0.00111684 0.106001 0.253004
-0.00330376 -0.15151 0.307489
-0.0169099 0.30433 0.152601
-0.00519305 0.114859 0.323437
0.00900871 0.320629 0.171467
-0.00853881 0.119802 0.157353
0.0349075 0.206956 0.276546
-0.00724219 -0.209726 0.460716
0.00267628 0.135347 0.160235
0.0170744 0.0895651 0.161161
-0.0080281 -0.444485 0.237872
0.00561943 0.0882281 0.250669
0.00627673 -0.247516 0.0384763
-0.00562583 0.11329 0.163392
0.0324681 0.187773 0.154602
0.0020371 0.381738 0.283497
-0.0789051 -0.248892 0.518102
-0.00189881 3.72678e-05 0.194425
0.00726606 0.0332304 0.43955
-0.00853881 -0.183291 0.311177
0.00853889 -0.0869002 0.444901
-0.0312832 0.0463677 0.218823
-0.00573377 0.380038 0.0279383
-0.0362873 -0.318814 0.1662
0.000728682 -0.210595 0.266482
-0.00249859 0.133767 0.473772
-0.00179091 -0.463064 0.152011
-0.113246 -0.246656 0.539368
-0.00743905 -0.226441 0.504606
0.00853889 -0.122854 0.443853
-0.00820565 -0.18285 0.306568
-0.00426203 -0.209705 0.342806
-0.0149386 -0.230255 0.432272
-0.0325839 0.218392 0.274465
-0.00415071 0.19406 0.102988
-0.00849049 -0.241891 0.282819
0.00853889 0.029267 0.183969
-0.0037104 0.00648492 0.424496
-0.00853881 -0.0242664 0.226113
0.00549175 0.226079 0.259699
0.00134596 -0.403019 0.023677
0.0768233 0.120765 0.0623445
0.00658499 -0.254491 0.0338619
-0.00853881 0.0952072 0.230053
-0.0304361 0.171852 0.517021
-0.0312832 0.0740884 0.163878
0.0128669 0.330961 0.148898
0.00853889 0.130203 0.153714
-0.139443 -0.250861 0.538454
-0.00505651 -0.252286 0.0210027
-0.00340211 0.106133 0.254054
-0.00783086 -0.465841 0.135676
0.00585279 0.00687899 0.441846
0.132925 -0.253739 0.537471
-0.0372454 0.276394 0.161484
-0.0398187 0.0299944 0.238484
0.00314945 -0.440074 0.236553
0.0491464 0.154402 0.0596491
-0.00601215 -0.463106 0.22414
-0.0565191 -0.247611 0.518556
0.0424034 -0.308274 0.161004
-0.00888546 0.201299 0.238449
0.0023621 -0.193446 0.459297
-0.0372509 0.0346019 0.248414
0.00809561 0.185273 0.213221
0.0211383 -0.270193 0.250574
6.74026e-05 -0.184434 0.157288
-0.0322904 0.3039 0.176331
-0.00849049 -0.4434 0.247657
-0.00331914 -0.477219 0.134524
-0.0899355 -0.245227 0.5194
0.00439616 0.347376 0.00322954
-0.0149386 -0.226389 0.361686
0.174994 -0.235983 0.518695
-0.0610873 -0.259217 0.526178
0.00175838 0.307581 0.312213
-0.0228369 -0.253335 0.25602
-0.00295971 -0.198607 0.336071
-0.00888546 0.18829 0.220733
0.00809561 0.349888 0.303641
0.0170744 0.0775395 0.157732
-0.11014 -0.23652 0.530445
-0.0225978 0.204387 0.307443
-0.0167376 0.0824918 0.120724
0.0716733 0.111708 0.0615896
0.0133416 0.174898 0.514744
0.0256132 0.113042 0.106595
0.00232496 0.239414 0.267992
-0.0171628 0.107524 0.105864
-0.00458567 -0.0410033 0.428622
-0.00843714 0.211243 0.24726
0.0073853 0.465843 0.132631
0.00849057 -0.454596 0.0928851
-0.00458549 0.0494392 0.18554
-0.00406887 0.305145 0.166456
0.0121874 -0.341347 0.161179
-0.00497396 0.119085 0.357038
-0.00853881 -0.170136 0.311094
0.0256132 0.117902 0.0988359
-0.00222126 -0.173433 0.11711
0.0248021 -0.340461 0.16398
-0.0307456 0.237277 0.263425
-0.0110741 0.143374 0.398041
0.00237377 -0.229113 0.0348646
-0.0076636 0.425749 0.257057
0.00117589 -0.293188 0.294359
0.0372897 -0.308297 0.172034
-0.0167376 0.0673216 0.136617
0.00853889 -0.0102226 0.215511
0.0424034 -0.330474 0.159668
0.0201574 -0.258834 0.287581
-0.00206752 -0.131811 0.43651
0.00343457 0.351659 0.0195227
-0.027108 -0.260023 0.260267
-0.00288702 0.476143 0.122998
-0.000751178 0.138353 0.518983
0.103401 -0.262845 0.523328
0.00853889 0.034393 0.436331
-0.00408674 -0.273949 0.0107875
0.00610292 0.186518 0.118437
-0.0398187 0.0381144 0.249234
0.00426872 -0.20746 0.515498
-0.0398177 0.0447719 0.214322
0.00214719 -0.242282 0.271839
-0.000976306 -0.262627 0.30236
0.00558917 0.205384 0.25501
-0.0128072 -0.230423 0.512998
0.039644 0.311619 0.158975
0.00727621 -0.173039 0.179563
0.00853889 -0.012524 0.219007
-0.00483022 -0.25752 0.530802
0.00849057 -0.204293 0.246779
0.0136604 -0.236347 0.334792
-0.00736535 0.424097 0.0547514
0.0136604 -0.233696 0.417757
0.00532073 0.340209 0.297152
-0.00853881 0.0532868 0.424303
0.0480554 0.154402 0.0659325
0.00155872 -0.431183 0.0452433
0.00672402 0.101941 0.220718
0.031532 -0.268711 0.240086
0.00663768 0.386439 0.285115
0.0227753 0.0847142 0.141595
-0.00397364 0.0819185 0.201175
0.00161009 -0.186231 0.132395
0.0768233 0.129846 0.0610396
-0.02873 0.121601 0.510194
0.0021671 -0.210843 0.449683
0.00853889 -0.0717946 0.446661
0.145898 -0.241894 0.513212
-0.0254414 0.0975883 0.152672
-0.137184 -0.241283 0.538118
-0.0206544 0.0726655 0.168046
-0.00888546 0.466671 0.190732
0.00645853 -0.399983 0.0251029
-0.0273282 -0.265463 0.258851
0.00853889 0.109153 0.309714
0.00849057 -0.354409 0.0131891
-0.00214314 0.18743 0.187728
0.0320341 0.259072 0.215114
-0.0149386 -0.212588 0.441601
0.0247707 -0.338361 0.16969
-0.0471298 0.0268612 0.252871
-0.0379291 0.221524 0.161979
-0.00670323 -0.070343 0.258232
-0.0324032 0.309277 0.157724
0.00633235 0.129353 0.419603
-0.120209 -0.255823 0.515162
0.0136604 -0.232464 0.374568
-0.00853881 -0.0920131 0.258498
-0.0167376 0.0388437 0.167123
-0.00512294 0.128708 0.40518
-0.0167376 0.0966053 0.119837
0.00853889 -0.151665 0.442576
-0.127353 -0.248992 0.512462
-0.00537102 -0.47733 0.175061
-0.00257655 -0.137862 0.278982
-0.00188073 0.169276 0.521866
-0.00491998 -0.164575 0.439357
-0.00556924 0.358787 0.00592922
0.0348379 0.169792 0.509867
-0.00674457 0.220079 0.0428803
0.00342848 -0.152248 0.438286
0.00711751 -0.181402 0.143925
-0.0821291 0.0506509 0.252871
0.00331132 -0.0256634 0.210187
0.00643681 0.103888 0.373503
-0.0369412 0.161085 0.512112
-0.00415583 -0.0223854 0.229128
0.00718236 -0.309395 0.310887
0.0700325 0.111708 0.0690284
0.00417399 -0.298132 0.00536417
-0.00255289 -0.423991 0.27789
0.0370459 0.134404 0.487327
-0.0370868 0.132935 0.484911
0.00717509 -0.255608 0.0324623
-0.00853881 -0.153515 0.293371
0.00489814 0.0883203 0.434751
-0.00853881 -0.050027 0.226396
0.00805248 0.0922046 0.28186
-0.0318621 0.0851077 0.158068
-0.00236837 0.136299 0.149366
-0.0168903 -0.248464 0.271212
0.0324062 0.15229 0.490915
-0.00651178 -0.358302 0.00951039
0.00853889 0.0486677 0.16582
-0.0138303 0.175021 0.336778
-0.00754123 -0.250764 0.345656
-0.00438066 -0.477631 0.176687
-0.00853881 0.0850388 0.217938
0.00809561 0.470486 0.138875
0.00853889 -0.108102 0.263127
0.0137736 0.164488 0.525397
-0.0167143 0.156467 0.493117
-0.0755036 -0.246763 0.532496
0.0075272 0.289469 0.303837
0.00695622 -0.267501 0.3004
0.00363369 0.128111 0.428802
-0.052635 -0.252684 0.517916
-0.0121588 -0.258581 0.523542
0.00853889 0.125637 0.443806
-0.00750872 0.465092 0.134343
-0.0149386 -0.226001 0.474575
-0.0346021 0.255953 0.154607
-0.0354313 0.263195 0.230618
0.00853889 -0.09624 0.44504
-0.00849049 -0.227036 0.269212
0.0345118 -0.25931 0.525923
0.00465691 -0.248462 0.518255
-0.00591894 -0.197689 0.0942515
-0.00121721 0.27159 0.285681
-0.00048247 0.0983396 0.416517
-0.0167376 0.113175 0.179133
0.00853889 -0.192094 0.443272
-0.0051095 0.0499395 0.185236
-0.00403884 -0.443044 0.0592852
-0.0223365 0.314884 0.148298
0.0041896 -0.0775238 0.26259
-0.0167376 0.0453808 0.173344
0.00238943 0.115806 0.330962
0.00538868 -0.475027 0.123957
-0.13106 -0.232637 0.526195
-0.135212 -0.232208 0.526075
-0.00912545 0.305913 0.167528
0.00648971 -0.0745424 0.448939
-0.00614791 -0.234369 0.473462
-0.0118919 -0.253887 0.307348
-0.0141696 0.168085 0.523376
-0.00853881 0.0993839 0.295135
-0.0563623 -0.25287 0.533708
-0.0137465 -0.210501 0.452766
0.00113034 0.274405 0.305429
0.00843665 -0.0275199 0.21133
0.00853889 0.0995467 0.426389
0.00853889 -0.0991099 0.267054
-0.0312832 0.0384646 0.239286
0.0136222 -0.24199 0.414056
-0.00411592 0.442763 0.0570691
0.00655425 0.317408 0.173038
-0.0371566 0.0737583 0.17837
-0.00821576 0.427681 0.266872
0.0112523 -0.245935 0.383303
-0.052044 -0.254583 0.51876
0.00809561 0.264541 0.291601
0.00717268 0.45085 0.0900208
0.0184413 -0.252882 0.312465
0.0329074 0.227708 0.249916
-0.0718397 0.0559773 0.242
-0.0315967 0.27483 0.155599
-0.00579254 0.244391 0.0404589
0.0525653 0.154402 0.0691202
-0.0234514 -0.243151 0.524038
0.0380436 0.258346 0.156235
0.0182325 -0.245787 0.519202
0.0338392 0.164711 0.516364
0.00679044 0.333482 0.308893
0.00818561 0.107007 0.415764
0.0181087 0.10919 0.114907
-0.0148083 0.187563 0.331059
0.0256132 0.0896433 0.136076
0.0155714 -0.259189 0.280747
0.00714473 -0.388917 0.0210798
-0.00853881 0.101089 0.280067
0.00141838 -0.239897 0.430374
-0.00104964 -0.0948841 0.273125
0.00853889 0.0180798 0.435251
-0.108645 -0.245773 0.513232
0.00419491 -0.0519205 0.446968
0.0146717 0.0729728 0.518567
-0.0230654 0.126752 0.518182
0.00853889 -0.0878496 0.257193
0.0369802 0.267482 0.202569
-0.0230702 0.126348 0.518123
-0.0154648 0.160712 0.524428
-0.00849049 -0.272469 0.0208201
0.00823272 -0.215226 0.254202
-0.00320921 0.00383627 0.424726
-0.00853881 -0.0903248 0.445362
-0.00849049 -0.360431 0.299662
0.00853889 0.0227307 0.193427
-0.00888546 0.321863 0.00965196
0.0361249 0.264636 0.216419
0.00809561 0.44312 0.0712949
0.0234934 -0.239055 0.292373
0.0160662 0.121171 0.521057
0.00159048 -0.274957 0.0277628
-0.00633226 0.0929177 0.14215
0.00284002 -0.168328 0.169883
-0.00849049 -0.421452 0.269586
0.174994 -0.254798 0.526394
-0.0361629 0.226477 0.275973
-0.00222777 -0.16828 0.147176
0.00509587 -0.25397 0.0202445
-0.00853881 -0.12252 0.443002
0.0136604 -0.22967 0.3307
-0.0344173 0.309074 0.172546
-0.0379707 0.317594 0.174359
-0.0167376 0.067509 0.190375
-0.069817 0.0355154 0.252871
-0.0106397 -0.220495 0.362672
0.03155 -0.337735 0.171603
-0.00853881 -0.0633418 0.251045
0.00809561 0.185711 0.208708
-0.00517303 0.215879 0.246509
-0.005227 0.287399 0.292267
