0.00442859 -0.0452648 0.243013
0.00853889 0.0849246 0.433816
-0.0216839 -0.247444 0.326441
0.0256132 0.0792331 0.157104
-0.00888546 0.461318 0.201813
0.037771 0.248733 0.234939
0.0091797 0.162786 0.524961
-0.00853881 -0.137801 0.278983
0.0101111 0.0535442 0.504871
0.00426872 -0.225922 0.531959
-0.00802116 -0.218653 0.379274
0.0599766 0.111708 0.0540561
-0.00549923 0.461691 0.0863762
0.00296891 0.379189 0.284926
-0.00313873 0.370544 0.00776997
0.00592681 0.18725 0.195906
0.119034 -0.262068 0.525538
-0.0073691 -0.18486 0.195639
-0.0402162 -0.32176 0.140412
-0.00472669 0.181688 0.0923717
-0.0366072 0.256253 0.154623
-0.000131381 -0.122963 0.435742
-0.00888546 0.262107 0.0226808
0.00542346 -0.307512 0.16905
0.0280941 0.324135 0.141555
-0.0214601 0.277907 0.110641
0.00853889 -0.0348528 0.432266
0.00811923 -0.369955 0.302768
-0.0167376 0.0563905 0.191068
0.00675143 0.127144 0.147555
-0.00363462 0.260013 0.298454
-0.00849049 -0.239017 0.0378586
0.0170744 0.137249 0.0648709
0.00429527 0.10557 0.386702
0.00853889 0.104859 0.275398
-0.0736997 -0.253129 0.533592
-0.0910297 0.0350875 0.238564
-0.141151 -0.258241 0.530185
0.033633 -0.258795 0.527327
-0.0149386 -0.236902 0.439788
-0.0392155 0.158615 0.507317
-0.0136187 0.165245 0.352484
-0.0223365 0.354167 0.163256
0.0057148 -0.247367 0.277444
0.0361811 0.196484 0.160015
-0.00124733 0.0977688 0.187546
-0.00853881 -0.172205 0.447
-0.0314347 0.243794 0.242842
0.0370212 0.15058 0.490014
0.0089612 -0.234247 0.324067
-0.0300587 -0.338501 0.167611
-0.132102 -0.232878 0.525188
0.00853889 -0.0141724 0.216399
-0.00853881 -0.0870191 0.252409
-0.0338891 -0.274731 0.21665
0.00849057 -0.458566 0.101279
-0.00654396 0.303447 0.161995
0.00138444 0.129279 0.438093
-0.0223365 0.290777 0.154
-0.00806376 -0.174623 0.131021
0.00648075 -0.464141 0.181864
0.155663 -0.241418 0.539035
0.00934022 -0.248715 0.361634
-0.00368155 0.37802 0.302383
-0.0366237 0.290794 0.194539
0.0237279 -0.268183 0.236387
-0.0156329 0.188415 0.315691
0.00391738 -0.445256 0.255265
0.00421776 0.379875 0.0119778
0.0424034 -0.325413 0.174814
0.00516118 0.113246 0.522086
-0.0379981 0.215939 0.164476
-0.00703931 0.0507197 0.420653
0.00853889 0.0556171 0.163258
0.0249149 0.311023 0.170294
0.112257 -0.235502 0.523799
-0.0294238 0.0671578 0.161772
-0.00424315 -0.283866 0.293511
-0.0128072 -0.219826 0.505237
0.0108778 0.0882511 0.521714
-0.00849049 -0.276731 0.0177507
0.00867221 -0.213516 0.425589
0.00849057 -0.195124 0.22942
0.00628443 -0.407454 0.0442088
-0.0438592 -0.243149 0.524043
-0.000500681 -0.186459 0.181213
0.00107421 -0.376333 0.287403
0.00655113 0.205106 0.0766743
-0.00853881 0.115821 0.361083
-0.00418235 -0.165036 0.315698
0.0013152 0.420272 0.279214
-0.00218786 -0.0869665 0.450021
-0.0700776 0.01328 0.236258
-0.0149386 -0.236384 0.394808
-0.0167376 0.0828796 0.109516
0.00288578 0.246467 0.020853
0.00819251 -0.354775 0.017546
-0.0127477 0.139357 0.520786
-0.00888546 0.178037 0.17627
-0.00191384 0.440958 0.231606
-0.00732232 0.107328 0.163326
-0.0196521 0.0703367 0.502743
-0.0069451 0.190942 0.232805
0.00853889 0.0839725 0.201029
0.00588478 -0.197259 0.335254
0.00482751 0.332969 0.159605
0.00754786 -0.183156 0.0997446
-0.0246059 -0.245132 0.283983
-0.00853881 -0.0209165 0.208555
-0.00550193 0.104558 0.415976
-0.00853881 0.106522 0.280381
0.0382035 0.221695 0.25726
0.0133247 0.151848 0.374718
0.0076672 0.410171 0.0329402
0.0321273 0.278419 0.151381
-0.00514224 0.434438 0.0703407
0.0170744 0.0961797 0.129621
-0.000633815 0.18677 0.080828
0.00547493 -0.210118 0.0538066
-0.0149386 -0.213006 0.468814
-0.032215 0.130542 0.506771
0.0319585 0.270853 0.205748
-0.0223385 0.322227 0.116916
-0.104821 -0.249082 0.540043
-0.0155184 0.14846 0.156769
0.00156336 0.339581 0.0174968
-0.00723295 0.204722 0.236109
-0.00289555 -0.224386 0.332038
-0.0413609 0.320341 0.166379
0.00809561 0.467431 0.118955
-0.0383261 0.0537191 0.214217
-0.00828871 0.164935 0.497582
0.0231414 -0.251099 0.305597
-0.00853881 0.0970792 0.220546
0.003555 -0.211727 0.441712
0.00442074 0.242246 0.27094
-0.0692293 0.0460552 0.252871
0.11291 -0.257607 0.536684
-0.0118047 -0.207249 0.5139
0.00128585 -0.223763 0.279113
0.00803412 -0.474453 0.149018
-0.00392751 0.344203 0.295139
0.00853889 -0.118693 0.287238
0.14717 -0.255594 0.516627
0.0483066 0.12872 0.0693122
0.00569891 -0.433125 0.247602
0.0073287 -0.217504 0.389633
-0.0167376 0.0398225 0.16724
-0.00853881 -0.0164784 0.443342
-0.00293887 0.075017 0.140316
0.0397077 0.176384 0.15656
-0.00849049 -0.443397 0.0711254
0.0019479 -0.0796173 0.431976
0.00398233 0.134538 0.500949
0.00809561 0.46949 0.175593
0.00853889 0.0396343 0.184297
0.00809561 0.178043 0.123337
-0.00511589 0.296792 0.294339
-0.0190316 0.178117 0.200063
0.00853889 0.107176 0.308089
0.00853889 0.112047 0.338816
-0.00724252 -0.333996 0.145462
0.00475002 0.47486 0.192515
0.0255012 0.141118 0.517786
0.00853889 0.00470452 0.43837
0.000677749 0.0898579 0.263452
-0.0167376 0.104464 0.128623
-0.0149386 -0.243885 0.357982
0.0014014 -0.125123 0.453345
-0.00849049 -0.345659 0.307686
0.00809561 0.4319 0.0580957
-0.01339 -0.30727 0.16785
-0.00281842 -0.249302 0.295974
-0.0312832 0.0281367 0.244435
0.00713754 -0.0728665 0.259763
0.00853889 0.131681 0.465388
0.00181205 0.123243 0.390097
-0.152293 -0.248778 0.538779
-0.0076684 -0.34794 0.00903597
-0.0167376 0.0811174 0.174689
-0.0198932 0.214526 0.199795
0.0452616 0.154402 0.0558168
0.00529952 -0.405286 0.290664
0.00853889 -0.153339 0.2929
0.0256122 0.114061 0.0598198
0.0138012 0.176536 0.345234
0.00809561 0.282024 0.0166749
-0.00613128 0.236737 0.045308
0.0613189 -0.253848 0.518433
0.0973987 -0.239374 0.517836
0.0768233 0.127566 0.0660693
0.00853889 -0.18187 0.454834
0.00849057 -0.297386 0.0156051
0.0136604 -0.230604 0.353178
-0.00585277 -0.204281 0.234281
0.0292826 0.173882 0.51215
0.0332525 -0.309336 0.147562
-0.0167376 0.129941 0.138639
0.00791624 0.0451065 0.438516
-0.124123 -0.259732 0.520941
0.039644 0.308978 0.15477
-0.0223365 0.328586 0.181085
-0.00250755 0.105133 0.246102
-0.0013548 -0.0571012 0.22946
-0.0230742 0.170517 0.520294
0.0133262 -0.332943 0.175369
-0.0131565 -0.215249 0.409961
-0.00888546 0.395819 0.0285203
-0.0312803 0.271828 0.218303
0.00385464 -0.267449 0.0304091
-0.00606581 0.171608 0.129058
0.109757 -0.259818 0.517313
0.00862744 -0.249962 0.533891
-0.0322872 0.331307 0.145775
-0.00412503 -0.223333 0.256447
0.0136604 -0.238144 0.440776
-0.0133661 0.155623 0.378448
-0.00888546 0.46805 0.118548
0.00786764 0.445643 0.246171
-0.00743281 -0.467027 0.108977
0.00853889 0.0214613 0.198808
-0.170317 -0.255149 0.521675
0.000616044 0.113444 0.448461
0.00849057 -0.392028 0.0270246
-0.0378124 0.19435 0.164496
0.0127415 0.141432 0.401028
0.00209715 -0.285212 0.309798
-0.0071158 0.313623 0.142221
-0.0184347 0.161409 0.109375
0.000944138 0.399218 0.273595
-0.0207078 0.247623 0.109178
0.0322812 0.217 0.150044
-0.0128072 -0.235599 0.520907
-0.00074545 0.28586 0.308393
-0.0149386 -0.215202 0.443782
-0.00101558 -0.202 0.0912744
0.0198409 -0.257912 0.255955
-0.0110294 -0.239881 0.3111
0.00705448 0.105197 0.163303
-0.0874723 -0.248558 0.51822
-0.0425073 -0.329822 0.152251
-0.0082475 -0.471804 0.189478
0.0186192 0.301956 0.148816
0.00777822 -0.340857 0.302211
0.00387131 -0.20775 0.509548
-0.0362125 0.229975 0.264261
-0.0167376 0.0815048 0.15551
0.0396579 -0.300077 0.181009
0.00790343 -0.472036 0.126948
0.00593674 0.126586 0.416681
-0.034846 0.0680906 0.188509
0.000323825 -0.184414 0.1566
-0.00691313 0.337565 0.0038009
0.154756 -0.234031 0.51607
0.000904338 -0.235811 0.462226
-0.0615406 -0.244305 0.5306
0.00543948 0.462789 0.223771
-0.00853881 -0.0639983 0.252042
-0.0167376 0.111604 0.185647
-0.00853881 -0.0573431 0.439512
0.0132166 0.161925 0.495995
-0.00578864 0.31412 0.0159145
-0.0167376 0.125255 0.175217
0.00853889 0.0951798 0.213933
0.00853889 0.0330802 0.428768
0.00849057 -0.426954 0.261218
-0.00572558 -0.464949 0.16202
0.00199995 0.354736 0.309163
-0.00853881 0.0788008 0.419332
0.0182133 0.127156 0.0831073
0.00209042 -0.134322 0.297059
-0.00581095 -0.458226 0.233371
-0.0626093 0.0258639 0.252871
-0.00720468 -0.404677 0.0296756
0.0060665 -0.251244 0.341915
-0.00515422 0.226637 0.258764
-1.08008e-05 -0.310659 0.297464
-0.00849049 -0.367044 0.0170372
0.04555 -0.243165 0.524002
-0.00431505 -0.225706 0.487315
-0.00888546 0.285777 0.0115963
-0.0333796 0.301011 0.171611
0.00192074 0.263895 0.282678
-0.0169874 -0.262586 0.271898
-0.0223365 0.292109 0.169529
0.00849057 -0.180388 0.12766
-0.00392289 -0.454469 0.209132
-0.00479451 -0.214757 0.0700243
-0.00325322 -0.0272891 0.232104
0.0424034 -0.33715 0.157075
-0.0169872 -0.308549 0.148018
0.00853889 0.00625978 0.202408
-0.00483248 0.234952 0.283907
-0.00853881 -0.00573684 0.20851
-0.00536246 -0.240922 0.422384
0.00380228 -0.151813 0.45567
-0.00258792 0.0655747 0.175747
-0.00888546 0.470941 0.171974
-0.0688847 0.0559773 0.236169
-0.0100662 -0.220881 0.359193
-0.0311871 -0.294542 0.202627
0.0136604 -0.234042 0.390091
0.00710042 -0.00817665 0.443157
-0.00540794 -0.0993778 0.275852
-0.0404624 -0.321314 0.176885
0.00809561 0.200784 0.244438
-0.151945 -0.237751 0.514454
-0.00225752 0.197478 0.216506
0.00357981 0.357668 0.0208318
-0.0269656 0.206634 0.304288
-0.00711605 0.0645812 0.519143
-0.00861219 0.204885 0.0630989
0.0222442 0.0835168 0.14385
0.0290035 -0.282884 0.223408
0.00436549 -0.267943 0.287189
-0.0227932 -0.276525 0.235639
-0.00853881 -0.145433 0.453291
0.00853889 -0.102772 0.43964
0.00307711 -0.422829 0.278555
0.0240745 0.0906511 0.501439
0.00863885 0.145863 0.487527
0.00327409 -0.169911 0.18221
-0.00853881 0.110118 0.386212
0.00849057 -0.239313 0.0403671
-0.0377559 0.135406 0.484975
0.0358861 0.136007 0.496005
0.00565149 0.420381 0.260417
0.01394 -0.237439 0.297621
-0.00630322 -0.286609 0.00980372
0.0008468 -0.0400527 0.445934
0.000291021 -0.361684 0.292298
0.00557708 -0.25168 0.517469
-0.00804456 -0.192738 0.441803
-0.027801 0.0971033 0.151436
-0.00853881 -0.157061 0.294825
0.00853889 -0.0986985 0.264648
-0.0893175 0.01328 0.2508
-0.00853881 -0.208032 0.325841
-0.00511562 0.0975533 0.145565
-0.00493247 0.398989 0.292914
0.00909413 0.0841464 0.170539
0.00793914 0.17418 0.175461
-0.00853881 0.0302252 0.185885
0.00853889 0.0855227 0.418819
0.0645686 -0.249105 0.533518
0.00656715 -0.330814 0.0055575
0.0196307 0.140431 0.156281
-0.0180329 0.115432 0.519248
-0.00819168 0.383935 0.0178968
0.00577584 -0.311508 0.14549
-0.00853881 0.0993279 0.431743
0.00190524 0.36747 0.289603
0.00809561 0.469632 0.151071
-0.0309224 0.159137 0.494525
0.0012785 0.194892 0.102653
-0.0377786 0.233571 0.159943
-0.00350045 -0.179733 0.217967
0.00830372 -0.445919 0.0814295
-0.0910297 0.0497875 0.239743
-0.00188092 0.27859 0.289133
0.000481828 -0.18218 0.326102
-0.119821 -0.250351 0.539613
-0.0146236 -0.330814 0.175454
-0.00647286 0.46153 0.225239
-0.000488439 0.395778 0.0374168
0.0186943 0.191341 0.305043
0.00853889 -0.0328961 0.218691
-0.00849049 -0.397769 0.287151
0.00853889 0.0624241 0.424396
-0.0106869 0.134287 0.412015
5.59194e-05 0.101065 0.35136
-0.00849049 -0.187264 0.107961
-0.00728732 0.1758 0.333249
-0.0031109 0.133612 0.163616
-0.0167917 0.100786 0.201738
-0.029574 0.165032 0.149719
-0.00826526 -0.338757 0.167588
0.00579536 -0.444919 0.230849
0.0189437 0.0730633 0.50744
-0.00951634 0.319776 0.173563
0.000447138 0.449979 0.0638483
-0.00726915 -0.425 0.0573914
-0.00461525 0.0941713 0.297287
-0.00853881 0.115854 0.340222
-0.0333423 0.274105 0.166197
0.00853889 0.114752 0.364033
0.135369 -0.246453 0.540306
-0.0941314 -0.236558 0.52599
-0.00403387 0.0918266 0.522274
0.00779888 0.23278 0.0362999
0.0109914 0.306514 0.168667
0.0342382 0.328431 0.162423
0.0246763 0.0979059 0.11675
-0.0255229 0.0865997 0.169492
-0.0301541 0.118592 0.500416
-0.0223365 0.307059 0.13323
0.00809561 0.460023 0.0977492
0.00849057 -0.46584 0.202962
0.0290887 -0.243408 0.523377
0.0216336 -0.243622 0.325936
0.038127 0.233453 0.245805
-0.0169688 0.10192 0.106043
-0.00731831 0.457463 0.10658
-0.0265454 0.0820295 0.13797
-0.0167376 0.0545758 0.154541
0.00853889 -0.167516 0.440672
0.03836 0.15787 0.511204
0.0136604 -0.227611 0.368991
0.131444 -0.235149 0.532652
-0.0134222 0.154354 0.522797
-0.0223365 0.320532 0.160117
-0.0398205 -0.258169 0.529033
-0.00529686 0.317392 0.296852
-0.0223365 0.342584 0.138179
-0.00853881 0.103375 0.26327
-0.00380518 0.179662 0.216876
0.067101 0.111708 0.069208
-0.00110623 -0.211045 0.488967
0.00853889 0.0897344 0.180801
-0.0398187 0.0187498 0.25264
-0.00168604 -0.461211 0.0850214
0.00849057 -0.226749 0.269435
-0.00888546 0.172893 0.156715
0.00490801 0.14214 0.388747
0.0407078 0.186652 0.146775
-0.00756199 -0.432856 0.263947
0.00426872 0.128618 0.487255
-0.00151876 0.0657497 0.436717
-0.0970663 -0.263986 0.524543
0.00505806 -0.198258 0.316017
-0.0149386 -0.231967 0.461083
0.00426872 -0.228578 0.513165
-0.0213767 0.278292 0.197723
-0.0167376 0.0654266 0.136021
-0.0358352 -0.306397 0.152944
0.000251672 -0.245275 0.388447
0.0136604 -0.223065 0.451323
-0.0149386 -0.232969 0.33618
-0.00888546 0.182249 0.110816
0.00996668 0.133378 0.520551
-0.00888546 0.327361 0.304638
0.00849057 -0.37088 0.0204805
0.0123526 -0.326187 0.142555
-0.00577076 -0.462336 0.129938
-0.060865 -0.258134 0.522394
-0.00315262 0.0961332 0.174541
0.00853889 -0.172001 0.308418
-0.00289762 0.0797691 0.184316
0.00853889 -0.220941 0.336451
-0.00410633 -0.326666 0.298623
0.0341268 0.209596 0.272036
-0.00282428 -0.19891 0.459773
-0.0231985 -0.24929 0.30477
0.00853889 0.1107 0.405756
0.0170744 0.0678792 0.152446
0.0135359 0.160921 0.357555
0.00239866 -0.47898 0.1692
0.00253528 0.0246295 0.440299
0.0136604 -0.225792 0.409317
0.0614273 0.149585 0.0693122
-0.00472497 -0.228392 0.0546701
-0.0326726 0.334774 0.165176
-0.00626788 0.434997 0.0502695
-0.00429739 0.326426 0.1432
-0.0065958 0.221424 0.0584332
-0.132475 -0.244522 0.512786
-0.00953116 0.0532151 0.505147
0.126251 -0.244595 0.512992
0.00613915 -0.190585 0.207334
0.017413 0.121202 0.0728749
-0.00788258 -0.235454 0.272629
0.00849057 -0.427938 0.0527381
-0.00853881 -0.10493 0.439884
-0.0316677 -0.244619 0.520262
-0.0817386 0.0326126 0.252871
0.00852996 -0.0833181 0.245542
-0.0178993 -0.326647 0.141825
0.0161012 -0.258982 0.276917
0.00716297 0.264719 0.0257036
-0.0482609 0.0537258 0.252871
0.164902 -0.25444 0.533686
0.0849471 -0.243228 0.527835
0.0070811 0.0382506 0.171001
0.0361549 -0.311314 0.165163
-0.00905344 0.172019 0.518391
0.0256122 0.152757 0.057635
-0.00853881 0.120405 0.425009
0.0254592 0.113023 0.514095
0.00240214 0.115125 0.325546
-0.017165 0.0943917 0.518699
-0.0295649 0.148644 0.516357
0.0374036 0.255543 0.219188
2.96533e-05 -0.209094 0.465453
-0.0016142 -0.386018 0.301532
0.00755747 -0.139215 0.279815
0.0922858 -0.256931 0.519803
-0.169236 -0.253915 0.53387
0.00434595 0.444563 0.0856521
-0.0326411 0.206542 0.152097
-0.00853881 0.0560246 0.162112
-0.000466844 -0.00366636 0.425378
-0.00853881 -0.0436636 0.221947
-0.0128072 -0.224746 0.526767
0.00250621 0.254419 0.0345471
-0.156961 -0.252624 0.515466
-0.0081824 0.131378 0.454782
0.0371519 -0.322777 0.142448
0.000403229 0.461539 0.139101
-0.00467713 0.163558 0.367002
-0.0268702 0.156822 0.164472
0.0437951 0.111708 0.0653147
-0.00285367 0.112372 0.303659
0.00517923 0.329568 0.00241039
0.0375166 0.157147 0.158978
0.0077029 -0.192453 0.441778
0.00853889 0.124664 0.162282
-0.00232213 0.185695 0.1366
-0.000632647 0.0917411 0.278225
0.0768233 0.145266 0.0680151
-0.00853881 -0.21029 0.34136
0.00853889 0.110636 0.431215
0.000744596 -0.457991 0.194395
-0.0217175 -0.249375 0.533635
-0.00853881 0.0881586 0.234206
-0.0163862 0.336185 0.157241
0.00667477 -0.202555 0.0648995
-0.00118519 0.478388 0.134214
-0.013369 -0.24678 0.376716
0.03248 0.255217 0.161261
-0.00122028 -0.211283 0.266991
-0.155551 -0.232812 0.533186
0.0199684 0.331035 0.150234
-0.0379001 0.0343995 0.229267
0.00569465 0.39506 0.0204385
0.0170744 0.0953601 0.155925
-0.0270373 -0.251954 0.260722
-0.0149386 -0.222198 0.427636
-0.00853881 0.0684321 0.164115
-0.00849049 -0.44451 0.24405
-0.00853881 -0.0331102 0.432775
-0.0112147 -0.234564 0.471948
0.00587815 -0.271302 0.0132945
-0.00853881 -0.158326 0.452035
-0.00689065 0.432943 0.247713
0.036599 0.292026 0.160839
0.00529469 -0.169059 0.16883
-0.00583226 0.296102 0.00459974
0.00849057 -0.310631 0.0105095
-0.0290945 0.18813 0.151102
0.0413532 0.144827 0.0693122
-0.0167376 0.0413266 0.14873
-0.00731071 -0.369314 0.304044
-0.00853881 0.0876112 0.202695
0.000837586 -0.018619 0.426677
-0.00216455 0.368279 0.0239583
-0.00489116 -0.451776 0.0997666
-0.0015085 -0.0839238 0.266474
0.0038542 -0.215503 0.407675
0.0124788 -0.240531 0.425429
0.00808121 -0.0728186 0.448789
0.00809561 0.302073 0.302674
0.0285341 -0.268439 0.25613
0.0125494 0.320051 0.171374
0.174994 -0.240991 0.539556
0.0266394 0.157818 0.523686
0.00641145 0.349332 0.00601301
-0.00840833 -0.1737 0.171787
-0.00377702 0.41043 0.0470245
-0.00888546 0.411943 0.273926
-0.00849049 -0.266512 0.296507
-0.00853881 -0.116036 0.283082
0.000341776 -0.357518 0.00595363
0.00849057 -0.178378 0.196721
-0.0204451 -0.244966 0.27318
0.00114725 0.102824 0.227738
-0.00605332 -0.239827 0.287561
0.0103554 0.317668 0.139384
0.00224099 -0.00159862 0.216513
0.00414648 -0.209641 0.527722
0.051584 -0.257328 0.531326
-0.00888546 0.360495 0.297507
-0.0223365 0.34924 0.180877
-0.00430675 0.0443888 0.188604
-0.00853881 -0.132403 0.443749
-0.00853881 0.0344887 0.422582
0.00853889 -0.0110759 0.20386
-0.0351775 0.0408374 0.217777
0.0047432 -0.175033 0.114738
-0.111978 -0.236241 0.530228
-0.00853881 -0.0908522 0.435284
0.00853889 0.123968 0.454855
-0.0268899 -0.263091 0.237622
-0.0167376 0.0864013 0.128438
0.00853889 0.104672 0.2929
-0.0362728 0.26184 0.232333
0.000297454 0.479627 0.167643
0.00134205 -0.362608 0.309747
0.136011 -0.258327 0.520551
-0.00212696 0.127735 0.513159
0.00753954 -0.19033 0.0862963
0.00814949 -0.227582 0.0501333
-0.00413713 0.0962484 0.31358
-0.0371505 0.0540201 0.19425
0.00853889 -0.062944 0.241887
-0.00255346 0.1033 0.368892
-0.000792809 0.0745162 0.521718
-0.00388054 0.201925 0.253459
-0.0167376 0.0713377 0.200801
-0.0167376 0.0691871 0.174244
0.00379463 0.300438 0.0184495
-0.00390026 -0.299836 0.312116
0.000730002 0.268645 0.0103691
0.00853889 0.113945 0.377948
0.022439 -0.235654 0.311884
0.0017883 0.11196 0.146534
0.00322491 0.215803 0.245846
0.00497664 0.273145 0.303579
0.0302114 -0.316196 0.17685
-0.0167376 0.119341 0.158506
-0.00501411 0.14503 0.386008
0.0768233 0.114642 0.0529454
-0.0223365 0.307929 0.173074
0.00853889 0.105604 0.258159
-0.0149386 -0.23515 0.413728
0.0226937 -0.306986 0.168247
-0.00866412 0.200744 0.0804786
-0.006698 -0.332337 0.0161192
-0.0401735 0.0394647 0.252871
0.00668186 0.466603 0.209043
-0.00597278 -0.302277 0.0185003
-0.00532525 -0.332347 0.313158
-0.0019442 0.225285 0.0351758
-0.00853881 -4.05759e-05 0.438524
0.00260399 0.146037 0.521589
0.00289773 -0.20855 0.0783665
0.029856 -0.258121 0.248524
-0.0267477 0.171005 0.506388
-0.00532565 -0.156671 0.43867
-0.0176347 0.186858 0.330408
0.00942023 0.0865652 0.139655
0.0298745 0.165397 0.149006
0.00780482 -0.466287 0.139774
0.039644 0.327114 0.150608
0.0081056 -0.389759 0.287039
0.015797 -0.317658 0.177039
0.00809561 0.226445 0.269092
0.00809561 0.336601 0.302674
-0.0149386 -0.220929 0.394525
0.00273163 0.172142 0.508665
-0.00646784 -0.373072 0.0252234
-0.00588409 -0.469793 0.206766
0.00225578 -0.263283 0.302187
0.00521887 -0.190338 0.114446
-0.00146174 -0.168345 0.297674
-0.00292332 -0.317517 0.176397
-0.00853881 0.0427722 0.436721
-0.00462597 0.417906 0.0522534
-0.0370734 0.290252 0.156701
0.00853889 -0.0496143 0.229045
-0.0149386 -0.231462 0.350206
-0.0831743 0.0559773 0.252143
0.0023469 -0.422888 0.038155
-0.00189105 0.463027 0.16274
0.00150541 0.174184 0.20089
0.00769868 0.24563 0.286665
-0.0037906 -0.219219 0.0428209
-0.00774186 0.248857 0.279605
0.00809561 0.421732 0.0454735
-0.00853881 -0.0152208 0.220588
0.166564 -0.229297 0.527182
-0.00492539 -0.254398 0.0360293
0.0136604 -0.210314 0.455631
0.0089551 -0.234225 0.474587
-0.000334371 0.166679 0.158558
-0.000471589 -0.173738 0.203371
0.00771907 -0.284432 0.0200595
0.00853889 0.0232995 0.183493
0.0177146 -0.245078 0.519453
0.015098 -0.251274 0.319187
0.00632473 -0.219408 0.372473
0.00487616 0.450793 0.217483
-0.0218843 -0.234593 0.319462
0.0315905 0.308316 0.140776
-0.0084607 0.444551 0.0774026
-0.0757314 0.01328 0.252216
-0.0867717 -0.247584 0.532854
-0.00689251 -0.189197 0.0865249
0.0389563 0.236671 0.159879
0.0154768 -0.306143 0.155185
-0.000202072 0.459779 0.186901
-0.0167376 0.0600229 0.119256
0.16615 -0.25371 0.516933
-0.00386192 -0.222375 0.345724
-0.0318478 0.243071 0.256091
-0.0222072 0.305848 0.113996
0.0341503 -0.299215 0.196313
-0.00362429 0.13388 0.474677
-0.13419 -0.242052 0.538317
-0.000348304 -0.186402 0.13498
0.00662687 0.390284 0.293777
0.10222 -0.262012 0.531066
0.00350841 -0.0639268 0.430613
-0.00591446 -0.192782 0.212879
0.0136604 -0.244191 0.378447
0.0424034 -0.322208 0.157291
-0.0295001 0.304588 0.161221
-0.0152321 0.153122 0.491354
0.0056165 0.382073 0.0278625
0.00526028 0.321321 0.0156438
-0.00623005 0.0102718 0.209309
0.0021445 0.0992144 0.336845
-0.0359927 0.27465 0.204429
0.00332784 0.168999 0.14211
-0.00853881 0.0650285 0.419948
0.0278207 0.129202 0.512963
-0.00689124 -0.246835 0.532527
0.00809561 0.190662 0.0911351
0.0307841 -0.339626 0.166436
-0.00560414 -0.0727077 0.23903
0.00684295 0.179655 0.107766
0.00561882 0.131245 0.401305
-0.0413609 0.327554 0.15648
-0.155726 -0.257084 0.529149
0.0389871 0.316961 0.170175
-0.00418324 0.454093 0.240912
-0.0369055 0.144104 0.501101
0.00849057 -0.179308 0.143869
-0.00662129 -0.183484 0.458429
0.0253167 0.15063 0.49004
-0.00853881 0.12047 0.404338
0.0389082 0.211963 0.160344
0.00853889 0.118038 0.473187
0.00636462 -0.469287 0.111117
-0.0188064 -0.238688 0.293565
-0.00849049 -0.471224 0.173389
-0.00214697 -0.389465 0.035196
-0.00402833 0.136732 0.148164
-0.167611 -0.240339 0.512955
0.00619148 -0.214471 0.249276
-0.00540227 -0.474065 0.121165
0.140956 -0.232524 0.523702
0.0968581 -0.23955 0.534568
0.00853889 0.049109 0.425801
-0.0284228 0.319546 0.141789
0.0074415 0.176216 0.332614
-0.113149 -0.260361 0.532444
-0.0115885 0.178057 0.344707
-0.051756 0.0374708 0.252871
0.0351555 0.12212 0.0693122
-0.036196 -0.309613 0.168004
0.00386683 0.195533 0.0686586
-0.00888546 0.352079 0.00961883
0.0136604 -0.234396 0.337394
0.0071918 0.405173 0.284597
-0.00628379 0.0244653 0.200695
-0.0167376 0.0531066 0.174137
0.0170744 0.110256 0.109348
-0.0422399 -0.340476 0.161861
0.079817 -0.252296 0.517743
-0.0318433 -0.3374 0.147544
0.00830592 -0.34099 0.15789
0.000370805 -0.147049 0.304783
0.00485285 0.439404 0.259343
0.149352 -0.256222 0.533309
-0.00018323 0.472098 0.107562
0.0108649 0.0697065 0.166753
0.014323 -0.251053 0.289773
-0.174339 -0.233115 0.536254
-0.00778188 -0.209308 0.25782
0.00330257 0.0843879 0.220545
-0.00831046 -0.474504 0.1527
-0.0223365 0.322433 0.133396
-0.00853881 0.0839702 0.212296
-0.0376145 0.246593 0.165597
-0.019351 0.0810887 0.512145
-0.00537753 -0.290368 0.0220068
-0.0825947 -0.257309 0.520275
-0.00853881 -0.0510622 0.245573
0.00453487 0.456399 0.201902
0.0367691 0.280006 0.195875
0.0323961 0.200378 0.147704
0.00853889 -0.0850819 0.441336
-0.0024613 -0.246416 0.522038
0.0263929 0.146764 0.160667
0.0236712 -0.242848 0.296597
0.0394921 0.224148 0.158715
-0.00280752 -0.305709 0.155728
0.00293142 -0.449764 0.0665127
-0.00352016 -0.106621 0.451733
-0.00818549 -0.455374 0.0852704
0.0068654 0.199462 0.227899
-0.025614 -0.281918 0.218129
0.00853889 -0.114667 0.448631
-0.00849049 -0.179271 0.146061
-0.0149386 -0.246602 0.339673
-0.000809979 0.10031 0.207756
-0.00728188 0.189337 0.20518
0.0245593 0.127408 0.0611869
0.00563972 0.0541281 0.182694
-0.00853881 0.085138 0.430437
-0.0080468 0.113822 0.31519
0.00853889 -0.133935 0.446767
-0.00853881 0.121408 0.440078
0.00853889 -0.109751 0.273915
0.00802213 -0.279846 0.296763
0.00781493 0.438451 0.0685059
-0.00683767 0.121641 0.377355
0.00285597 -0.223871 0.502364
0.00809561 0.40943 0.27334
0.00153984 0.168506 0.359393
0.00580835 0.225287 0.054246
-0.00849049 -0.419729 0.272539
0.0232199 -0.250506 0.534129
0.00362727 0.0216864 0.423176
-0.0225226 -0.340752 0.156329
-0.0149386 -0.232218 0.366952
-0.00245136 0.110517 0.425503
0.121157 -0.255892 0.515238
-0.00853881 -0.0726364 0.435674
-0.0221121 -0.25831 0.289772
-0.00752616 -0.212464 0.0553671
0.00853889 -0.207388 0.327123
0.00631476 -0.255634 0.0211525
-0.0198052 -0.235729 0.303171
0.130446 -0.258055 0.533754
-0.0251537 0.206231 0.290998
-0.00853881 -0.14342 0.293688
0.017367 0.172364 0.509111
-0.00817303 -0.178609 0.117199
0.000513729 -0.454803 0.113087
0.00809206 0.357766 0.297528
0.0375913 0.268778 0.159536
0.140228 -0.241789 0.51346
0.00349456 0.216268 0.0665851
0.00425062 0.428821 0.271105
-0.00531051 -0.262958 0.0162698
0.00853889 0.00978619 0.18862
0.00639671 0.454378 0.0777744
0.0247068 0.144176 0.146433
-0.006565 -0.169922 0.159561
-0.029887 0.222679 0.272023
0.0229363 0.0924438 0.144548
0.0173822 0.131661 0.0751348
-0.0312832 0.0711398 0.175436
-0.00726106 0.393832 0.281665
-0.00683285 0.172848 0.1875
-0.0326274 -0.295901 0.186507
-0.00853881 -0.101594 0.259633
-0.00821329 -0.25384 0.285859
-0.0910297 0.0175297 0.237198
0.00169573 -0.0599423 0.447667
-0.00456717 0.133736 0.400659
0.0257181 -0.258815 0.269356
0.00369333 0.4277 0.25033
0.00405191 -0.325903 0.018579
-0.00888546 0.244774 0.0337429
-0.0134983 0.0976231 0.152599
0.00849057 -0.35509 0.302507
-0.026567 0.145201 0.487177
-0.00144184 0.44926 0.0964656
0.0108676 0.139221 0.147054
-0.0152673 0.0662512 0.149963
0.00642853 -0.218412 0.0631711
0.00151983 0.0979019 0.32655
-0.00318038 0.120177 0.163468
0.0145618 0.104197 0.520551
-0.0188263 0.329776 0.144862
0.000569791 -0.371941 0.0092699
-0.00665412 0.297172 0.307905
-0.00611491 0.121434 0.147171
0.00193321 -0.0258905 0.444701
-0.000194332 0.0776795 0.167925
0.01317 0.0690354 0.51883
0.00564759 -0.475516 0.189439
0.0252621 0.114801 0.0849308
0.0136604 -0.226481 0.42273
0.00849057 -0.176556 0.157313
-0.00853881 -0.128551 0.289218
-0.00849049 -0.200504 0.0726694
-0.00784117 0.115313 0.46312
-0.00627897 0.150425 0.372007
0.00260523 0.205729 0.0551478
-0.017678 -0.317507 0.175936
0.00853889 -0.15789 0.30844
-0.00849049 -0.222152 0.268644
0.0216427 -0.257387 0.520476
-0.00853881 -0.194351 0.328497
-0.0909356 0.0448843 0.252871
-0.105141 -0.261247 0.519714
0.0333341 0.138819 0.483812
-0.00230512 0.318209 0.000734486
0.00853889 0.0938203 0.294196
0.0249596 0.103605 0.508411
0.00809561 0.288681 0.300165
-0.021818 0.291848 0.111754
-0.0026625 0.173758 0.351317
0.0060155 0.185724 0.223903
-0.00775445 -0.208649 0.501751
-0.000183928 -0.393603 0.279155
0.00316446 0.0954313 0.434131
-0.00793683 0.274924 0.301094
0.00350451 -0.221051 0.357656
-0.0184277 0.303282 0.155466
-0.0167376 0.0742236 0.124436
0.0599075 0.136109 0.0693122
0.0340819 0.299691 0.150065
-0.00871298 -0.23263 0.325321
-0.0066716 -0.432325 0.250532
0.00778696 0.0958454 0.310419
-0.00853881 0.124391 0.415033
0.000790273 0.11869 0.353894
-0.00888546 0.231569 0.270454
-0.00848913 -0.462532 0.218115
-0.00525732 -0.191374 0.238941
-0.00442947 -0.433557 0.0491896
0.0170744 0.0765817 0.162632
-0.0201808 0.227178 0.107467
-0.00805325 0.408782 0.031218
0.00817006 -0.454118 0.221107
-0.00854587 -0.207801 0.527079
0.00619032 -0.341339 0.0176689
-0.0368267 0.18229 0.158684
-0.0573752 0.01328 0.251784
-0.0223365 0.328598 0.193314
0.0635585 0.154402 0.0576548
-0.00853881 0.103379 0.304838
0.00853889 0.100082 0.247256
0.113957 -0.24517 0.538748
-0.00250233 0.0180602 0.183374
-0.00888546 0.177394 0.144314
-0.0312832 0.0595844 0.20054
0.00797902 -0.325124 0.309619
-0.00500204 -0.248167 0.365905
0.0344306 -0.335597 0.147474
0.0994012 -0.253012 0.539387
-0.0338166 0.0381296 0.242104
-0.0128072 -0.21605 0.487326
0.0011463 0.185743 0.177354
0.0245348 -0.256095 0.285459
0.00853889 -0.168592 0.4557
0.00790116 0.372446 0.299549
-0.00853881 -0.0418674 0.237268
0.0182798 -0.312824 0.145409
-0.0121815 -0.250454 0.305254
0.00298447 -0.228452 0.0356051
-0.00446233 0.145943 0.487569
0.00482614 0.300882 0.157573
-0.00726632 0.278419 0.0208241
-0.167372 -0.242423 0.54002
-0.0478271 -0.253376 0.518223
0.00853889 0.10725 0.354989
0.00510261 0.0966991 0.149926
0.000194727 0.188794 0.12177
0.0256132 0.0900455 0.132806
-0.0413609 0.317608 0.145479
-0.00888546 0.468905 0.187279
0.0259872 0.299878 0.158402
-0.00329192 0.460433 0.126346
0.00853889 0.098043 0.199919
-0.00196025 0.0663405 0.149915
-0.0286142 0.318866 0.174708
-0.00305646 0.222341 0.275221
-0.0211126 0.264604 0.109354
-0.00457297 -0.258359 0.528516
-0.00633267 0.120202 0.521707
-0.00263088 -0.239276 0.435209
0.0357269 0.143269 0.506413
-0.0089203 -0.248836 0.328831
0.00588441 -0.403298 0.275403
0.00311993 -0.318927 0.00321918
-0.00888546 0.341102 0.306159
-0.105242 -0.237652 0.520152
0.00048557 -0.445404 0.0917683
-0.0398177 0.0710556 0.176571
-0.00710206 -0.212883 0.431297
0.0332899 -0.272884 0.231596
-0.0267464 -0.257 0.249108
0.00549211 -0.46042 0.123833
-0.00426838 0.126055 0.49785
0.00571991 0.361422 0.00776811
0.000569551 0.480081 0.152828
0.00352723 -0.239939 0.516386
0.0682362 -0.244207 0.521321
0.00522186 -0.463658 0.168789
0.000226261 0.0290727 0.176624
0.000915177 0.153538 0.382411
-0.00790395 -0.27662 0.302917
-0.00331081 -0.188241 0.123238
-0.0358163 0.224397 0.153004
0.00724258 -0.184524 0.221841
0.0215129 -0.230049 0.323309
-0.0223365 0.347627 0.151963
0.00194128 -0.303313 0.00346807
-0.00820494 -0.411176 0.28133
-0.0040509 0.38348 0.0302249
0.0118899 -0.250589 0.307362
0.0161519 0.07428 0.140633
-0.00239176 -0.00602303 0.198141
0.00779164 0.454033 0.232247
0.00658461 0.297788 0.00641514
-0.00774485 0.193222 0.0956068
-0.00794621 0.0887116 0.254461
-0.0167376 0.0980385 0.118317
-0.0350012 -0.285956 0.210759
0.00849057 -0.203765 0.242431
-0.0320074 0.268185 0.155229
-0.00468005 -0.168912 0.45716
0.0371684 0.26389 0.211443
-0.00901178 -0.237225 0.451202
-0.0167376 0.0933384 0.165797
-0.00846272 0.110949 0.292341
-0.00853881 -0.0292305 0.218279
-0.0318208 -0.272215 0.229996
0.00375944 0.034683 0.194495
-0.0217002 0.290981 0.19695
-0.00075436 0.0955964 0.162184
0.0136604 -0.223888 0.380812
0.00793436 -0.309287 0.309819
-0.040235 -0.318471 0.161184
-0.00846455 0.475136 0.160023
-0.0398177 0.0459901 0.227735
0.0417912 -0.309196 0.174163
0.00853889 -0.0851733 0.259472
0.00320943 0.308011 0.296326
0.00652051 -0.0990528 0.451074
-0.0040115 -0.213202 0.245416
-0.00366113 -0.250659 0.346475
-0.00106141 0.172987 0.114297
-0.0223365 0.299549 0.183249
-0.00747304 0.219766 0.0446964
0.0589525 0.121296 0.0693122
0.0459501 -0.258027 0.52212
-0.0145429 -0.210066 0.456693
0.0317072 0.154402 0.068136
0.000706058 -0.362681 0.0247366
0.174994 -0.255827 0.526442
0.00772579 -0.179529 0.440656
-0.0178442 0.143398 0.109657
0.0250318 -0.327021 0.143324
0.0318653 0.136991 0.0693122
0.0321947 0.229439 0.149357
-0.0110631 0.330936 0.168407
-0.00853881 0.102707 0.344825
0.00853889 0.0745682 0.424506
0.00849057 -0.446608 0.243963
0.00695223 0.189416 0.207534
0.0189799 0.105447 0.121534
0.125544 -0.235261 0.520817
0.00397207 0.060688 0.518134
-0.00853881 -0.204309 0.443164
-0.00849049 -0.19525 0.226291
0.112853 -0.247216 0.512566
0.00583906 0.099821 0.416388
-0.0250686 0.149605 0.154845
0.0374648 -0.249494 0.517889
-0.0189664 0.17679 0.106447
0.00831328 -0.457625 0.0894021
-0.0236178 0.103356 0.513517
0.0203085 0.32816 0.166662
-0.0135566 0.164985 0.364658
0.00665252 -0.409554 0.0322104
-0.00420987 -0.411275 0.0490845
0.00643522 -0.207503 0.258584
-0.0264059 0.123451 0.514457
-0.00853881 0.0452499 0.174293
-0.00849049 -0.357355 0.303824
-0.0974262 -0.261096 0.534958
0.0194388 0.0842547 0.514223
0.00100827 -0.342059 0.00309524
-0.00849049 -0.378516 0.296407
0.00853889 0.0931337 0.23114
0.00627485 -0.171886 0.134142
-0.00333524 -0.46242 0.142182
0.00231665 -0.109746 0.282144
-0.014991 0.14152 0.148421
-0.0053256 -0.331272 0.00385704
-0.00853881 0.0213498 0.423873
-0.144245 -0.246891 0.512322
0.00853889 -0.145879 0.445518
0.0182036 -0.247951 0.266304
0.00581504 0.191424 0.234606
-0.000660202 -0.210492 0.452849
-0.0063352 -0.232738 0.510101
-0.0342282 0.302476 0.180897
0.00748785 0.261081 0.294253
-0.00853881 -0.158271 0.306694
0.0294418 -0.305183 0.158076
0.00853889 -0.015651 0.431444
0.00140192 -0.257626 0.281694
0.0045506 -0.0199417 0.227645
-0.00487643 0.469181 0.209988
0.0195968 0.123742 0.519572
-0.00853881 0.108113 0.330426
-0.00853881 0.109718 0.407139
-0.0281387 -0.310767 0.144704
0.00853889 0.114154 0.417075
-0.0345515 0.162531 0.160843
0.152428 -0.23261 0.531828
0.0035628 -0.241907 0.414699
-0.0170475 0.112521 0.200739
0.0381862 0.254839 0.150978
-0.0167376 0.0739475 0.189343
-0.0167376 0.118417 0.14317
0.00132065 -0.180675 0.305235
-0.0240864 -0.305666 0.163439
-0.0352908 -0.249399 0.533646
-0.00888546 0.467809 0.135708
-0.00853881 -0.199935 0.318032
-0.00853881 -0.0434846 0.438081
-0.00343528 0.194099 0.243502
-0.0124675 0.305501 0.148679
-0.0425073 -0.331905 0.173743
0.00101438 0.0361501 0.439296
-0.00380732 -0.29967 0.296533
-0.00562425 0.0898954 0.41725
0.00426872 -0.233244 0.523715
-0.00560667 0.421424 0.257653
0.00187989 -0.0966199 0.433453
-0.0223365 0.332484 0.170008
-0.00150007 0.10828 0.271125
-0.0227224 0.197607 0.30295
0.00763424 0.17639 0.191595
-0.00474206 0.29051 0.0203891
-0.00853881 0.0961256 0.285523
-0.00173431 -0.42851 0.0669539
-0.00630575 0.132819 0.466241
-0.0725478 -0.242995 0.527235
-0.00548991 0.209876 0.261729
-0.0628382 -0.245821 0.51919
-0.146557 -0.256502 0.518755
-0.0167376 0.100547 0.189089
-0.0223365 0.338606 0.186891
-0.0127448 -0.246712 0.518874
0.0256122 0.136908 0.0570824
-0.00853881 -0.0601132 0.238402
-0.0193601 0.0670148 0.161293
-0.0045639 0.235037 0.0293059
0.101477 -0.253012 0.513034
0.0346187 0.301444 0.170683
-0.174994 -0.240192 0.52717
-0.0939098 -0.250774 0.538576
0.0387059 0.216858 0.268243
-0.0065387 -0.194551 0.0981207
-0.0311482 0.255633 0.165262
-0.0167376 0.0762952 0.139689
-0.00269541 0.158331 0.523818
0.00849057 -0.180613 0.185462
-0.0167376 0.0338441 0.157428
0.00853889 0.0595101 0.435488
-0.0251818 -0.254992 0.276108
0.00265918 -0.238587 0.269425
-0.0103412 -0.248538 0.318559
-0.0463484 -0.249074 0.533504
0.0556878 -0.243625 0.528854
-0.000950465 0.247811 0.293782
-0.0167376 0.0890865 0.146995
-0.00853881 0.0555481 0.430859
0.0016853 -0.455891 0.24145
0.00617928 -0.380786 0.0161508
0.00853889 -0.179313 0.318641
-0.0338176 0.128026 0.495295
-0.00240959 -0.437243 0.240588
-0.00091546 0.155461 0.492587
-0.00724612 0.383449 0.286126
-0.0714503 -0.255735 0.519272
0.0384226 0.160489 0.495238
0.00426872 -0.216222 0.480498
0.00501562 0.200971 0.0877466
-0.0133648 -0.245319 0.388106
0.0471072 0.154402 0.0669328
-0.00767402 0.333309 0.151449
0.0136604 -0.220309 0.440415
-0.00853881 -0.010222 0.43374
-0.0288984 -0.258565 0.527955
0.00853889 0.11464 0.155109
-0.00564966 0.410669 0.284597
0.00853889 -0.189902 0.322651
0.00197123 0.142998 0.398619
0.0336121 -0.246158 0.532232
-0.0249237 0.06996 0.142186
0.00494883 -0.464088 0.151938
-0.0340864 0.326841 0.172933
0.00827695 -0.198021 0.459696
-0.0371082 0.167304 0.498977
-0.0939098 -0.253499 0.527996
0.000944196 -0.200131 0.222909
-0.102105 -0.238995 0.534559
-0.000948295 0.326557 0.169936
-0.0167376 0.0388161 0.137013
0.0215977 -0.341694 0.160526
-0.138532 -0.235452 0.516803
0.0136604 -0.238209 0.369107
-0.00477799 0.0163321 0.441022
0.00675354 0.346775 0.297858
0.0136604 -0.240059 0.347417
-0.000488034 -0.439192 0.0813333
-0.00309177 -0.401758 0.0427734
-0.00608672 0.345352 0.016996
0.170674 -0.231727 0.5177
-0.00853881 -0.121388 0.452985
0.0322198 0.242218 0.241908
0.00853889 0.0809245 0.187447
-0.00910218 -0.232689 0.533451
0.0264101 0.202521 0.300685
-0.0381349 0.204901 0.160594
0.0414656 -0.33882 0.168958
-0.0223385 0.312686 0.122609
0.00392426 -0.0426776 0.22062
-0.0137073 0.310046 0.170667
0.00167758 0.120779 0.370506
-0.00418705 0.128063 0.428424
0.00853889 0.0936538 0.25614
-0.0312832 0.0839764 0.159701
0.00849057 -0.418894 0.046543
0.00260313 -0.0274315 0.211271
0.024982 0.103043 0.107075
0.00419171 0.327236 0.311677
0.0271174 -0.25114 0.260504
-0.0967982 -0.24218 0.51494
0.00647254 0.115006 0.460719
0.00849057 -0.415742 0.272296
0.00728394 0.475643 0.160293
0.00745633 0.103927 0.373811
0.00853889 -0.128514 0.278038
0.0132692 -0.258307 0.528657
0.00853889 0.00229049 0.427751
0.00853889 0.121906 0.426162
0.00664689 0.32715 0.14324
-0.0255624 0.0922822 0.141942
-0.0085421 0.448914 0.228379
-0.0128072 -0.216983 0.518578
-0.00849049 -0.29315 0.304923
-0.00849049 -0.316809 0.306737
-0.0100682 0.18267 0.32389
0.00325019 0.441134 0.055176
0.000947029 -0.397322 0.296556
0.0364657 0.208609 0.281272
-0.0312832 0.0758318 0.150745
0.00109527 0.169256 0.521891
0.0103319 -0.244783 0.392283
0.0161606 -0.240548 0.287527
-0.0324438 0.310902 0.169958
-0.0072054 0.214223 0.248093
-0.039477 0.145425 0.488575
0.00853889 -0.0407346 0.235158
-0.0036334 -0.179384 0.440643
0.00746742 0.172407 0.163276
-0.00828138 0.169176 0.343367
0.00853889 0.0967895 0.283861
-0.00853881 -0.0678222 0.445274
-0.00374662 -0.201307 0.0626367
-0.00135034 -0.0351906 0.428117
-0.0315625 0.259798 0.222918
-0.00707024 -0.175676 0.322155
-0.0398187 0.0452633 0.242181
0.00189457 -0.455487 0.0755024
-0.01625 0.0618241 0.508271
-0.00810183 0.463948 0.0981036
0.143193 -0.239642 0.537676
0.00707652 -0.180877 0.211784
-0.0029877 0.309369 0.170161
0.00853889 -0.159566 0.447825
-0.00711396 -0.244721 0.277912
-0.00853881 0.115837 0.395246
-0.00849049 -0.460652 0.0950443
0.00232653 0.308777 0.14332
-0.0167376 0.116592 0.169003
-0.0363722 0.251342 0.237163
0.00517993 -0.19244 0.240813
0.00853889 0.109161 0.285141
0.0044459 -0.183352 0.165658
0.0768233 0.115748 0.0635313
-0.00356808 0.269856 0.0276699
0.00252663 0.106986 0.397804
0.0136604 -0.235268 0.402452
-0.0146107 -0.246027 0.287492
-0.0149386 -0.223631 0.468967
0.00763243 0.459589 0.108355
-0.00334164 0.208912 0.0762564
-0.0312832 0.0420285 0.232631
0.00390848 -0.288249 0.00750395
0.0349952 0.2886 0.151891
-0.0223928 -0.244287 0.315308
-0.00133457 -0.339521 0.153867
-0.00770098 -0.324076 0.140984
-0.0210549 0.148328 0.164159
-0.0149386 -0.222134 0.370014
0.00205763 -0.436614 0.266026
-0.00215271 0.354259 0.292556
0.00617783 0.310929 0.0142674
0.015233 -0.256115 0.29895
-0.0826725 -0.257639 0.530477
0.0939098 -0.251341 0.528347
-0.0307944 -0.325257 0.177434
-0.00853881 0.114208 0.432426
0.0031225 0.0465456 0.165912
-0.00433739 -0.314043 0.0186303
-0.029797 0.198232 0.158959
0.00850434 -0.140885 0.454718
-0.00211556 0.183906 0.152489
0.121777 -0.237628 0.535797
-0.00849049 -0.185167 0.206022
-0.0581295 0.0502942 0.252871
0.00386371 -0.151718 0.43824
-0.00853881 -0.0238236 0.435932
0.00507598 0.475889 0.126255
0.00454348 -0.477341 0.179233
0.0282376 -0.2786 0.213945
-0.00888546 0.371923 0.0168883
0.00853889 0.119697 0.436316
-0.124083 -0.235833 0.519737
-0.00853881 0.0911762 0.244395
0.00529111 0.16323 0.367506
-0.037882 0.19148 0.151568
-0.00853881 0.110823 0.375867
0.0157121 0.0628527 0.510916
0.00459538 -0.232344 0.283879
-0.00319953 0.278401 0.00706105
-0.085434 0.0229461 0.252871
-0.0346198 0.167182 0.511899
0.00809561 0.39746 0.0302039
-0.005682 -0.150939 0.287001
-0.0125107 -0.223182 0.338447
0.0218499 0.311705 0.1403
-0.00735352 0.182994 0.18519
0.000588458 0.0392071 0.421654
0.00493556 0.222008 0.253907
-0.0265449 -0.261757 0.263889
-0.0478123 0.01328 0.247935
-0.0483378 0.0237792 0.252871
-0.0167376 0.0724923 0.114287
-0.00849049 -0.43427 0.0617485
-0.00703999 0.197357 0.0699326
-0.0011971 -0.424983 0.253936
-0.00853881 0.0869188 0.176834
-0.0591639 -0.253941 0.533224
-0.00839008 0.44568 0.0668182
-0.0370255 0.26453 0.16599
-0.00560679 -0.182813 0.167571
-0.00849049 -0.440976 0.251104
0.00853889 -0.119945 0.440271
-0.00240291 -0.222334 0.0625843
0.00777328 0.464265 0.19146
-0.00219464 0.0990388 0.197644
-0.0031914 0.135765 0.520355
0.0023369 0.439102 0.0772548
0.0319272 0.182861 0.150359
0.00450534 -0.252528 0.331908
0.00853889 -0.0328901 0.228899
0.00853889 0.126512 0.476729
-0.0268358 -0.279806 0.208226
-0.00888546 0.310423 0.303372
-0.00432265 0.442706 0.256395
0.00832328 0.0625225 0.1776
-0.07128 0.0559773 0.251902
-0.0312832 0.0854251 0.147349
-0.00561017 -0.378301 0.0142402
0.00298597 -0.349661 0.295908
0.0318368 0.285507 0.188896
0.00826376 -0.0642406 0.254528
-0.0319699 0.290456 0.165474
0.0255475 0.195902 0.310973
0.123041 -0.249545 0.539822
-0.00849049 -0.464402 0.120393
0.0424034 -0.312051 0.150975
-0.0204248 0.23821 0.199273
-3.77119e-06 -0.176172 0.105869
0.00809561 0.225066 0.042839
-0.00849138 0.159136 0.358702
0.0256132 0.125144 0.077277
0.00274212 0.135518 0.155562
-0.0939098 -0.256752 0.52001
-0.0356726 0.224045 0.280174
0.00631898 -0.272567 0.303536
0.000897465 -0.105075 0.258877
0.0292064 0.119246 0.505229
-0.00495837 0.402927 0.0225444
0.00853889 0.0919327 0.1919
-0.00010992 0.0595835 0.157916
-0.00887579 0.458003 0.211317
0.00853889 0.117613 0.398449
0.00265326 -0.188937 0.458905
-0.00426838 0.130171 0.482961
0.00433562 -0.101485 0.277131
0.0349626 0.170181 0.504739
0.0010612 -0.249435 0.356022
0.00170744 0.4618 0.174936
-0.00844042 0.426613 0.0553801
0.0136604 -0.249224 0.335722
-0.00622263 0.373851 0.288753
-0.0022245 -0.202256 0.338286
0.0059838 -0.349461 0.310377
-0.0031913 -0.240633 0.046174
-0.00853881 -0.0801201 0.245045
0.00553282 -0.217268 0.327673
-0.0182142 -0.256447 0.26255
-0.00470644 -0.384123 0.285113
0.00709475 0.114027 0.316822
0.0136604 -0.230112 0.434876
-0.0134408 -0.214151 0.419861
-0.0425073 -0.327787 0.161996
0.0129035 -0.215048 0.411777
0.00853889 -0.0179924 0.443845
-0.0398187 0.0272296 0.239425
-0.00232108 -0.192585 0.312538
0.00853889 0.0212794 0.431794
0.0704697 0.137752 0.0693122
-0.00849049 -0.4712 0.136062
0.0295792 0.169807 0.521194
-0.00853881 0.00267869 0.196101
0.091451 -0.247131 0.518726
0.00030657 0.329631 0.0177885
-0.00822732 -0.461056 0.203114
0.0038369 0.0743321 0.418602
0.0321132 0.25575 0.22716
0.039644 0.312124 0.1451
0.00800296 -0.323343 0.179271
0.00975436 0.154446 0.365865
-0.0137288 -0.253947 0.294068
0.00436552 0.340558 0.00193569
-0.0110011 0.170468 0.505313
0.00145616 -0.00914125 0.22109
0.0244762 -0.246252 0.286195
-0.0316294 0.0498053 0.201772
0.00853889 -0.205683 0.448593
-0.00623673 0.214727 0.0664104
-0.136037 -0.253466 0.514858
0.0735039 -0.258172 0.522491
0.00809561 0.455605 0.0873854
0.000358427 -0.377442 0.305916
-0.0081693 0.179788 0.163683
0.0212881 -0.270172 0.249722
-0.0161962 0.0735689 0.517621
-0.0301667 0.21396 0.15804
0.00598411 -0.304218 0.159818
0.00557537 0.404979 0.0409653
-0.00186167 0.0816157 0.1988
-0.00703726 0.351799 0.306874
-0.00377783 0.053079 0.513045
0.0181163 -0.243728 0.529118
0.00577718 -0.162755 0.294247
0.0128193 0.127034 0.409767
0.13842 -0.251436 0.514068
0.00844113 -0.453804 0.233909
-0.146366 -0.234898 0.535739
0.00775751 0.0667011 0.149133
-0.00852198 0.402594 0.277565
0.0073609 -0.222341 0.346033
-0.00400272 0.347144 0.0027779
0.00282343 0.191332 0.11159
-0.00317778 0.0893137 0.140746
-0.022749 0.194378 0.312748
0.028397 0.152667 0.151785
-0.00888546 0.181205 0.200085
-0.00537734 -0.264471 0.0310843
-0.00681073 0.404539 0.0398707
-0.00853881 -0.079727 0.261254
0.00140286 0.126039 0.521195
0.04042 0.20211 0.152873
0.0109329 0.168949 0.50227
-0.00853881 -0.197868 0.452018
-0.0237014 0.161938 0.524743
0.00538746 0.0955644 0.170019
-0.00287389 -0.461727 0.181401
-0.0149386 -0.225547 0.412605
-0.0282532 -0.270635 0.25143
-0.143537 -0.244088 0.539646
-0.00329438 -0.228143 0.478027
-0.00357246 0.167948 0.149561
-0.114513 -0.261149 0.52198
0.00502483 -0.329746 0.298886
-0.00575785 -0.136264 0.454316
-0.0162647 0.130387 0.520813
-0.0149386 -0.226844 0.452924
-0.0241782 0.334526 0.151823
0.000702404 0.085561 0.229747
0.00424703 0.0831773 0.211049
-0.00515478 0.16961 0.173515
-0.00477112 -0.265168 0.286136
-0.000252821 0.450671 0.248978
-0.00514706 -0.130165 0.274262
-0.0777473 0.0559773 0.24424
-0.026076 0.0959636 0.160797
-0.00569124 -0.0958552 0.450796
-0.00758066 0.00216442 0.214229
0.0424034 -0.317803 0.16842
-0.0391882 0.335225 0.15114
0.00849057 -0.176793 0.173488
0.0364647 0.154402 0.0595462
0.000632833 0.252671 0.277061
-0.00853881 0.0991397 0.33371
0.00809561 0.24823 0.0299026
-0.0398177 0.0586455 0.186341
-0.00853881 -0.0191524 0.427558
-0.00567208 0.360454 0.00637432
-0.00849049 -0.445836 0.080334
-0.00835418 0.102904 0.228374
0.00853889 -0.138095 0.289218
0.000901669 0.0678413 0.163053
-0.0223365 0.311274 0.150369
-0.0167376 0.106936 0.114947
0.00202171 -0.279039 0.00895306
-0.000695756 -0.216423 0.399378
-0.0156798 -0.251429 0.279963
0.00475313 0.239229 0.026724
-0.0413609 0.335982 0.160872
-0.00853881 0.106375 0.360035
0.0215045 0.142931 0.485981
0.00849057 -0.25847 0.290876
-0.000762821 -0.0923024 0.251045
0.0372559 0.29921 0.158524
-0.00562982 -0.222831 0.498268
0.00937299 -0.339131 0.167118
0.00711194 -0.333443 0.145658
-0.023845 -0.247884 0.295427
0.140541 -0.255001 0.536543
-0.0355672 0.171827 0.152457
0.0126285 -0.242253 0.412007
-0.0167376 0.102168 0.162399
0.0064025 0.193678 0.216299
0.0161378 0.180303 0.328681
-0.00195892 -0.316944 0.143314
-0.00802738 0.25347 0.291121
0.0331103 0.271333 0.19664
-0.00148512 -0.234631 0.471424
-0.0381684 0.304289 0.159172
0.00426872 -0.221613 0.523576
0.00234451 0.206228 0.232653
-0.0407772 -0.312901 0.143551
-0.1062 -0.251746 0.512693
-0.0226408 0.0928379 0.509101
-0.00881735 0.186849 0.220308
0.00853889 0.00492157 0.21172
-0.00849049 -0.390304 0.292869
0.0243326 0.158902 0.494401
-0.0335868 -0.285808 0.200128
-0.0132223 0.147309 0.382822
0.00357322 0.137522 0.515056
0.00360491 -0.473331 0.200095
0.00578597 -0.243272 0.527946
0.0136604 -0.231796 0.466834
-0.0058742 -0.0641446 0.430632
0.00355778 0.178111 0.211272
0.0116488 0.135652 0.158507
0.00500805 0.305146 0.310901
-0.123645 -0.258019 0.535799
-0.00113283 -0.0656797 0.23472
-0.170366 -0.249084 0.514522
-0.00853881 -0.182032 0.44818
-0.0204531 0.235472 0.111822
-0.0149386 -0.234874 0.423094
0.0110951 0.304905 0.144084
-0.00440202 -0.478926 0.162769
-0.0129314 -0.255132 0.532686
0.0057018 0.296504 0.295642
-0.0331998 0.233868 0.255199
0.00853889 0.102891 0.333032
0.0326997 0.30717 0.16357
0.0332431 -0.303991 0.186534
-0.0241405 0.157459 0.149421
0.0518375 0.140772 0.0693122
-0.00549708 0.0324034 0.195878
0.0333162 0.227072 0.263092
0.00450031 0.31453 0.172196
0.00500437 -0.384433 0.0320175
0.00630032 0.0778097 0.139277
-0.00853881 0.0359595 0.174638
-0.0223365 0.305645 0.142417
-0.00853881 -0.18968 0.320464
-0.00130554 0.230882 0.0521481
0.0450544 -0.251452 0.534349
0.00562359 0.387876 0.282995
-0.014374 0.0848976 0.139057
0.00809561 0.435841 0.251029
0.00424358 0.0142182 0.441206
-0.00455679 -0.231328 0.265027
-0.00188127 0.287724 0.00476743
0.0170744 0.119007 0.0859696
0.00245435 0.0525656 0.437866
0.00581826 0.294413 0.307347
-0.0167376 0.0596796 0.164349
-0.0366039 0.282053 0.197564
-0.00888546 0.306925 0.0109985
0.00659714 -0.0500885 0.429411
0.0075696 -0.214762 0.264168
-0.0167376 0.0566053 0.145542
0.00477177 0.101765 0.219321
-0.0149386 -0.236243 0.404028
-0.0275883 0.176244 0.156254
-0.00775308 0.369758 0.302099
0.00364217 0.131731 0.457584
0.00214939 -0.196329 0.100617
-0.0326342 0.157094 0.153237
0.0387122 0.167705 0.159465
-0.00849049 -0.333851 0.304645
-0.00491608 0.111115 0.522105
-0.00849049 -0.187021 0.220561
0.0684239 0.125649 0.0693122
-0.0149386 -0.226266 0.378236
0.00705893 -0.351702 0.00894823
0.0242396 -0.308061 0.150547
0.0150817 -0.308955 0.17302
0.00403694 0.179469 0.0990115
-0.00226859 -0.191716 0.203811
-0.0939098 -0.244256 0.530993
-0.00853881 0.0929843 0.210551
-0.000263884 -0.160011 0.456385
-0.0128072 -0.228777 0.514765
-0.00121085 0.0100865 0.424183
-0.0535739 -0.246271 0.51903
0.00853889 0.0954427 0.15928
0.0301721 0.148736 0.515761
0.00570322 -0.450939 0.0968687
-0.00546923 0.328726 0.00189461
0.0768016 0.154402 0.0674831
0.00809561 0.328926 0.0110557
0.00711742 0.381652 0.296759
-0.0223365 0.319162 0.191059
0.0170744 0.0818065 0.155123
0.0409282 0.190178 0.155197
-0.00450713 0.142719 0.399048
0.0237799 -0.251971 0.296369
