0.0198612 -0.108795 0.397826 0 0 1
0.262921 -0.0937149 0.35425 0 -0.44268 -0.89668
-0.149728 0.0912804 0.397826 0 0 1
-0.361379 0.0406596 0.384014 0 0 -1
-0.131618 0.272634 0.384014 0 0 -1
0.0435424 -0.00821641 0.397826 0 0 1
-0.26733 0.0620702 0.397826 0 0 1
0.193114 -0.203751 0.384014 0 0 -1
0.179339 -0.0858108 0.397826 0 0 1
-0.0196752 0.266111 0.397826 0 0 1
-0.121396 -0.162445 0.384014 0 0 -1
-0.204204 -0.0419478 0.384014 0 0 -1
-0.121208 0.0596887 0.384014 0 0 -1
0.367365 -0.0142094 0.385131 0.991131 0 -0.132886
-0.0411414 0.0770287 0.397826 0 0 1
0.095441 -0.0922388 0.37664 0 0.774151 0.633001
0.233394 -0.106702 0.397826 0 0 1
0.233159 0.0498357 0.384014 0 0 -1
-0.0741145 -0.238249 0.384014 0 0 -1
0.361602 -0.0885438 0.384014 0 0 -1
-0.115421 0.154443 0.384014 0 0 -1
0.283196 -0.171698 0.384014 0 0 -1
0.0655366 -0.0815295 0.355459 0 0.707461 -0.706752
-0.218587 0.268279 0.384014 0 0 -1
0.0573974 0.0717156 0.384014 0 0 -1
-0.295358 -0.0555707 0.353687 -0.966001 0.22659 -0.124499
0.0712796 -0.205693 0.384014 0 0 -1
0.0140434 0.218376 0.384014 0 0 -1
0.132809 -0.273816 0.397826 0 0 1
-0.163481 -0.15952 0.384014 0 0 -1
0.34968 0.0975152 0.397826 0 0 1
0.207415 0.121202 0.384014 0 0 -1
-0.345662 0.155595 0.384014 0 0 -1
0.299346 -0.0593475 0.397826 0 0 1
0.10704 0.0414051 0.397826 0 0 1
-0.228574 -0.184026 0.384014 0 0 -1
-0.131966 0.237642 0.397826 0 0 1
0.288002 -0.162441 0.147427 0.258872 0.846548 -0.465127
-0.0438032 0.00392371 0.397826 0 0 1
0.326089 0.078032 0.362181 0 -0.340984 0.940069
-0.0681014 0.230756 0.397826 0 0 1
0.1519 -0.0961135 0.356311 0 -0.707121 -0.707092
0.284298 0.0196315 0.397826 0 0 1
-0.274104 0.0448805 0.371638 0.891696 -0.0885414 0.443891
-0.193963 0.183252 0.397826 0 0 1
-0.32945 0.0123444 0.397826 0 0 1
0.274334 0.0287846 0.361223 -1 0 0
0.248383 -0.118411 0.397826 0 0 1
-0.00248575 0.0385758 0.384014 0 0 -1
0.282447 -0.201027 0.0857551 -0.707762 -0.706451 0
0.172807 0.0808691 0.397826 0 0 1
-0.0602495 0.083155 0.397826 0 0 1
0.326501 0.0111824 0.397826 0 0 1
0.0951796 -0.0252052 0.397826 0 0 1
0.288124 0.0860621 0.397826 0 0 1
0.281171 -0.213214 1.45554e-06 -0.271837 -0.656049 -0.704063
0.338633 -0.0568809 0.384014 0 0 -1
-0.220733 0.00430158 0.397826 0 0 1
0.278308 0.179859 0.384014 0 0 -1
-0.300304 -0.0235701 0.368758 -1 0 0
-0.16968 0.0314837 0.384014 0 0 -1
0.291815 -0.0976037 0.397826 0 0 1
0.116703 -0.0886721 0.397826 0 0 1
0.290673 0.128999 0.384014 0 0 -1
-0.180868 0.226369 0.397826 0 0 1
-0.0764346 -0.0634805 0.384014 0 0 -1
0.169114 0.0856071 0.356939 0 0 -1
0.155774 -0.0266311 0.384014 0 0 -1
-0.0393845 -0.214537 0.384014 0 0 -1
0.296428 0.221127 0.384014 0 0 -1
-0.352595 -0.253991 0.397826 0 0 1
0.116218 -0.151797 0.397826 0 0 1
0.3064 0.182943 0.00280235 0.309573 -0.128431 0.942163
0.214387 -0.0468437 0.384014 0 0 -1
-0.00998196 -0.168812 0.397826 0 0 1
0.291352 0.198032 0.11557 0.258786 0.881388 0.395204
-0.262293 -0.0788597 0.397826 0 0 1
-0.230863 -0.238699 0.397826 0 0 1
-0.114994 -0.117032 0.384014 0 0 -1
-0.363753 0.232601 0.384014 0 0 -1
-0.279516 0.00452539 0.397826 0 0 1
-0.33093 0.233527 0.397826 0 0 1
-0.106636 0.200925 0.384014 0 0 -1
0.200779 -0.248405 0.397826 0 0 1
-0.0949067 0.266228 0.384014 0 0 -1
-0.123065 -0.191591 0.397826 0 0 1
-0.129544 0.0941161 0.37712 -6.89348e-06 0.440642 0.897683
0.2459 -0.185475 0.397826 0 0 1
0.307955 -0.205234 0.384014 0 0 -1
-0.288658 0.199794 0.397826 0 0 1
0.0672581 0.253441 0.384014 0 0 -1
-0.307503 -0.129155 0.397826 0 0 1
0.0469759 -0.108234 0.384014 0 0 -1
0.23707 0.119526 0.376547 0 0.936364 -0.35103
0.245206 0.0961554 0.363928 0 -1 0
0.0781997 0.0992785 0.384014 0 0 -1
-0.0642243 0.03768 0.397826 0 0 1
0.0647163 -0.0588248 0.384014 0 0 -1
-0.083974 0.13226 0.397826 0 0 1
-0.311571 0.062912 0.369418 -0.675658 -0.737215 0
-0.203979 0.0137561 0.384014 0 0 -1
-0.0474244 -0.188277 0.397826 0 0 1
0.326362 -0.256837 0.384014 0 0 -1
0.264348 -0.239704 0.397826 0 0 1
0.336446 0.18383 0.397826 0 0 1
-0.139681 -0.0763168 0.397826 0 0 1
0.227687 -0.0155045 0.384014 0 0 -1
-0.280799 -0.136111 0.224874 0.706647 -0.620124 0.340727
0.0324577 0.0513624 0.397826 0 0 1
0.0522458 -0.24287 0.384014 0 0 -1
0.0408601 0.233105 0.397826 0 0 1
0.323432 0.12568 0.397826 0 0 1
0.177869 0.168922 0.397826 0 0 1
-0.315642 0.0863618 0.397826 0 0 1
-0.276167 0.142219 0.384014 0 0 -1
0.134107 0.0872552 0.397826 0 0 1
-0.127598 -0.239613 0.384014 0 0 -1
0.0223075 -0.177802 0.397826 0 0 1
-0.20017 -0.194286 0.397826 0 0 1
-0.080801 -0.268506 0.384014 0 0 -1
0.111261 0.0885459 0.37462 0 0 1
-0.100855 -0.0795619 0.366212 0 1 0
0.345 -0.119315 0.397826 0 0 1
-0.052488 -0.124346 0.384014 0 0 -1
0.201783 0.00915909 0.384014 0 0 -1
0.0827813 -0.162319 0.397826 0 0 1
-0.206438 0.245121 0.397826 0 0 1
0.190155 -0.0475887 0.397826 0 0 1
-0.25203 0.0915761 0.384014 0 0 -1
-0.0931995 -0.00659126 0.397826 0 0 1
-0.320154 -0.269956 0.384014 0 0 -1
0.160698 -0.120082 0.397826 0 0 1
-0.217017 -0.0944862 0.384014 0 0 -1
0.341156 0.276277 0.387284 0 1 0
0.316624 -0.0992755 0.361915 0 -0.631421 0.775441
-0.0847712 -0.171781 0.384014 0 0 -1
-0.110335 0.0808698 0.397826 0 0 1
0.0733447 -0.115011 0.397826 0 0 1
-0.204604 -0.249582 0.384014 0 0 -1
-0.269182 0.104597 0.397826 0 0 1
-0.000941902 -0.245433 0.384014 0 0 -1
-0.367437 -0.147182 0.389574 -1 0 0
0.337957 0.0457969 0.384014 0 0 -1
0.263014 0.273538 0.397826 0 0 1
-0.0452399 0.173867 0.384014 0 0 -1
0.333749 -0.208597 0.397826 0 0 1
-0.292338 0.156688 0.190566 -0.7074 0.619464 0.340367
-0.125324 0.0882943 0.356939 0 0 -1
0.0808698 0.138745 0.397826 0 0 1
0.210948 -0.0732137 0.384014 0 0 -1
0.237978 0.188906 0.384014 0 0 -1
0.149652 0.00236738 0.397826 0 0 1
0.23252 0.249101 0.397826 0 0 1
0.272729 -0.0361138 0.397826 0 0 1
0.0159559 -0.0345231 0.397826 0 0 1
-0.0567007 0.0965539 0.356731 0 0.707427 -0.706786
0.34431 -0.00925636 0.384014 0 0 -1
0.293466 0.128594 0.214722 0.706881 -0.619922 -0.340611
0.161496 0.253355 0.397826 0 0 1
-0.281512 -0.0833346 0.376205 0 -0.443185 -0.89643
0.270458 0.114804 0.397826 0 0 1
-0.0277246 -0.13689 0.397826 0 0 1
0.329343 0.219944 0.397826 0 0 1
0.0430915 0.123769 0.384014 0 0 -1
-0.27982 -0.155396 0.168716 0.706552 0.62021 -0.340769
-0.2636 -0.249434 0.397826 0 0 1
0.136352 -0.0774169 0.371981 0 0.707257 0.706957
0.152106 0.152257 0.397826 0 0 1
0.123188 -0.187268 0.397826 0 0 1
0.113772 0.238987 0.397826 0 0 1
-0.114485 -0.144499 0.397826 0 0 1
-0.0406704 0.243285 0.384014 0 0 -1
0.26021 0.035699 0.397826 0 0 1
-0.344811 -0.0223224 0.397826 0 0 1
0.0289397 -0.0769324 0.37123 0 0.892924 0.450207
0.149829 0.206719 0.397826 0 0 1
0.293454 0.214912 0.00156073 0.271938 0.656099 -0.703977
0.16489 -0.0944509 0.384014 0 0 -1
-0.193375 -0.0778676 0.369433 0 0.341425 -0.939909
0.0018101 0.0801604 0.374712 -5.42886e-06 -0.707256 0.706957
0.341005 0.15738 0.384014 0 0 -1
0.0305311 0.164334 0.384014 0 0 -1
-0.0432831 0.0986606 0.384014 0 0 -1
-0.339092 -0.198937 0.384014 0 0 -1
0.367437 -0.252684 0.393379 1 0 0
-0.266758 0.228418 0.397826 0 0 1
0.284773 0.162089 0.397826 0 0 1
0.127548 -0.0417259 0.384014 0 0 -1
-0.24537 -0.14773 0.384014 0 0 -1
-0.230919 0.0782584 0.361085 5.91949e-06 0.63702 -0.770847
-0.0433168 -0.0929851 0.377246 0 0.214798 0.976658
-0.223651 0.187503 0.397826 0 0 1
-0.0418097 -0.0279039 0.384014 0 0 -1
-0.283831 -0.108103 0.28072 0.258211 -0.846697 0.465222
0.290724 -0.0695659 0.350905 0.258738 -0.846578 0.465146
0.295442 0.107797 0.259315 0.966021 -0.226522 -0.124461
0.274334 -0.0207196 0.361861 -1 0 0
0.279387 -0.137541 0.217763 -0.965761 -0.227382 0.124915
-0.243536 0.158597 0.384014 0 0 -1
-0.275765 -0.122812 0.397826 0 0 1
-0.303366 0.206447 0.384014 0 0 -1
-0.322185 -0.0426214 0.384014 0 0 -1
0.154498 0.273599 0.384014 0 0 -1
0.337295 -0.144886 0.397826 0 0 1
0.240941 0.167186 0.384014 0 0 -1
0.19859 0.0806734 0.36613 0 1 0
0.2405 -0.0876576 0.384014 0 0 -1
0.291672 0.0512257 0.397826 0 0 1
-0.115174 -0.0127685 0.384014 0 0 -1
-0.156695 0.216785 0.384014 0 0 -1
0.274888 -0.262931 0.384014 0 0 -1
0.294666 0.1673 0.166423 0.706853 0.619944 0.34063
-0.15476 -0.0972333 0.364561 0 -1 0
-0.108916 -0.0646905 0.384014 0 0 -1
0.00889281 0.118982 0.375096 0 0.936364 -0.35103
-0.338087 -0.111615 0.397826 0 0 1
0.174104 -0.19113 0.384014 0 0 -1
-0.11632 -0.0972333 0.366041 0 -1 0
-0.116742 0.177919 0.397826 0 0 1
-0.16384 0.276277 0.392918 0 1 0
0.0199895 0.136413 0.397826 0 0 1
0.0152562 0.247843 0.384014 0 0 -1
0.210683 0.0710845 0.384014 0 0 -1
-0.291694 0.196564 0.0281431 -0.708044 0.706168 0
0.121785 -0.111444 0.384014 0 0 -1
0.295704 -0.0080848 0.384014 0 0 -1
0.225551 -0.181232 0.384014 0 0 -1
-0.191811 -0.103754 0.384014 0 0 -1
-0.0136438 0.12428 0.397826 0 0 1
-0.310994 0.096916 0.372905 0 -0.707444 -0.70677
-0.319909 0.157122 0.397826 0 0 1
-0.324364 -0.0975241 0.373836 -5.42886e-06 -0.707257 0.706957
0.216919 0.153193 0.397826 0 0 1
0.18722 0.0342313 0.384014 0 0 -1
0.0684972 -0.0972333 0.365108 0 -1 0
-0.223746 0.0324306 0.397826 0 0 1
0.0482549 0.0987962 0.372581 0 0.707223 0.706991
-0.222749 0.0555573 0.384014 0 0 -1
0.109358 0.19316 0.397826 0 0 1
-0.175418 0.0711114 0.397826 0 0 1
-0.0362054 -0.0905488 0.397826 0 0 1
0.0576386 -0.26875 0.397826 0 0 1
-0.298059 0.03195 0.358043 0 0 -1
0.0337066 -0.0837351 0.397826 0 0 1
0.0614368 0.183866 0.384014 0 0 -1
-0.329282 0.182436 0.384014 0 0 -1
-0.194512 0.12353 0.384014 0 0 -1
0.354823 0.241643 0.384014 0 0 -1
0.237685 0.214918 0.384014 0 0 -1
-0.00669175 -0.0811084 0.375675 -5.42625e-06 0.707596 0.706617
0.0821135 0.0533713 0.384014 0 0 -1
-0.182447 0.0932541 0.376105 0 0.76285 -0.646576
0.0953142 -0.2081 0.397826 0 0 1
-0.316727 -0.0817637 0.397826 0 0 1
-0.295156 0.0756724 0.315602 -0.965752 -0.227404 -0.124946
0.0840598 0.0298508 0.397826 0 0 1
-0.114249 -0.210013 0.384014 0 0 -1
0.0897219 -0.0803121 0.369718 0 -0.342047 0.939683
-0.358835 0.0135025 0.397826 0 0 1
-0.023558 0.0545056 0.397826 0 0 1
-0.286746 -0.212651 0.397826 0 0 1
-0.297137 -0.161596 0.397826 0 0 1
0.0653595 0.231365 0.384014 0 0 -1
-0.274989 -0.165674 0.384014 0 0 -1
0.0903549 0.0138765 0.384014 0 0 -1
-0.302434 0.00718081 0.384014 0 0 -1
-0.16577 -0.0784394 0.384014 0 0 -1
-0.0908006 -0.098661 0.3727 0 -0.707596 0.706617
0.292318 -0.194509 0.0193741 0.966105 -0.258149 0
-0.278749 -0.180496 0.134637 0.966198 -0.225942 0.124143
0.0121184 -0.271701 0.397826 0 0 1
-0.249184 -0.078892 0.369061 0 0.341425 -0.939909
-0.0920114 0.230024 0.384014 0 0 -1
0.197176 -0.0926061 0.356951 0 -0.940067 0.340988
-0.00478759 0.00978047 0.384014 0 0 -1
-0.347352 -0.224066 0.384014 0 0 -1
-0.218371 0.227499 0.384014 0 0 -1
0.118999 -0.230925 0.384014 0 0 -1
-0.302941 -0.248065 0.397826 0 0 1
-0.0515929 0.0784797 0.360089 0 0.707556 0.706657
0.0444721 -0.159522 0.384014 0 0 -1
-0.238621 0.117485 0.37462 0 0 -1
-0.0707418 -0.211911 0.397826 0 0 1
-0.16135 -0.208108 0.384014 0 0 -1
-0.0639312 0.144696 0.384014 0 0 -1
0.0762283 -0.0375933 0.384014 0 0 -1
0.00161803 -0.131942 0.384014 0 0 -1
0.0311801 0.035877 0.384014 0 0 -1
0.180159 0.188237 0.384014 0 0 -1
0.0345551 -0.0660015 0.384014 0 0 -1
0.205728 -0.273888 0.384014 0 0 -1
0.279035 0.212926 0.397826 0 0 1
-0.278536 -0.0167104 0.384014 0 0 -1
-0.295287 0.259059 0.397826 0 0 1
0.143858 -0.24743 0.384014 0 0 -1
-0.0127088 0.164909 0.397826 0 0 1
0.0634011 0.090632 0.397826 0 0 1
0.233059 -0.241745 0.384014 0 0 -1
0.123376 0.183352 0.384014 0 0 -1
-0.00328168 0.0812222 0.357343 0 0.707556 0.706657
0.0508816 0.0137722 0.384014 0 0 -1
0.263084 0.0836996 0.384014 0 0 -1
-0.181336 0.137131 0.397826 0 0 1
-0.262192 0.0660136 0.358043 0 0 -1
-0.0637156 -0.14479 0.397826 0 0 1
-0.0629815 0.0208869 0.384014 0 0 -1
0.224796 0.0196757 0.384014 0 0 -1
0.17974 0.240261 0.384014 0 0 -1
-0.191051 0.0806734 0.364151 0 1 0
0.291428 0.245504 0.397826 0 0 1
0.111495 0.120662 0.397826 0 0 1
-0.0901377 -0.0446856 0.397826 0 0 1
-0.237551 0.194368 0.384014 0 0 -1
-0.260377 -0.0985248 0.384014 0 0 -1
0.358677 0.0329354 0.397826 0 0 1
0.144877 0.22656 0.397826 0 0 1
-0.109237 0.0125555 0.384014 0 0 -1
0.0838897 0.0783092 0.3587 0 -0.707121 -0.707093
-0.0387017 -0.076807 0.36066 1.73424e-06 0.974165 0.225836
-0.269945 0.16671 0.397826 0 0 1
-0.227396 -0.0410692 0.397826 0 0 1
0.120056 0.0994805 0.384014 0 0 -1
-0.323343 -0.149217 0.384014 0 0 -1
-0.19789 -0.231464 0.397826 0 0 1
0.294696 0.0881796 0.310358 0.706853 0.619944 0.34063
0.143745 -0.0972891 0.397826 0 0 1
-0.0958769 0.0843249 0.374278 0 -0.939991 -0.341199
-0.318399 -0.109181 0.384014 0 0 -1
0.260987 -0.0820919 0.397826 0 0 1
-0.205254 -0.0922414 0.357956 0 -0.940067 0.340988
0.0246503 -0.137165 0.397826 0 0 1
-0.2507 0.013961 0.397826 0 0 1
-0.321848 0.137348 0.384014 0 0 -1
-0.13502 -0.061887 0.384014 0 0 -1
-0.295175 0.122867 0.229852 -0.965752 -0.227404 -0.124946
-0.071007 0.100966 0.384014 0 0 -1
0.283688 -0.0903087 0.37462 0 0 1
0.292988 -0.115285 0.264544 0.706853 -0.619943 0.340631
0.168323 0.0620908 0.384014 0 0 -1
0.161668 -0.203437 0.397826 0 0 1
-0.220721 -0.276267 0.396185 -7.89243e-06 -0.96126 0.275642
0.0719286 -0.229666 0.397826 0 0 1
-0.179883 0.162699 0.384014 0 0 -1
-0.0988483 0.146938 0.397826 0 0 1
0.186924 0.15352 0.384014 0 0 -1
-0.257508 0.204995 0.384014 0 0 -1
-0.156498 0.0215477 0.397826 0 0 1
0.106797 0.259069 0.384014 0 0 -1
-0.202832 -0.0150149 0.384014 0 0 -1
-0.352287 -0.0564815 0.384014 0 0 -1
0.245287 -0.0189659 0.384014 0 0 -1
-0.0147299 0.215003 0.384014 0 0 -1
0.290772 -0.0731641 0.384014 0 0 -1
0.138031 0.158241 0.384014 0 0 -1
-0.28891 -0.0931356 0.355573 0 -0.763188 0.646176
0.283525 -0.230618 0.384014 0 0 -1
-0.270967 0.263432 0.397826 0 0 1
-0.101347 0.0490204 0.397826 0 0 1
0.211345 -0.0879786 0.397826 0 0 1
-0.143214 -0.158968 0.397826 0 0 1
0.145626 0.0322974 0.397826 0 0 1
0.0430586 -0.183276 0.384014 0 0 -1
-0.25735 -0.276185 0.385359 -7.90606e-06 -0.962921 -0.269783
-0.344762 0.102983 0.384014 0 0 -1
0.334477 -0.0268188 0.384014 0 0 -1
-0.365445 -0.118878 0.384014 0 0 -1
0.223917 -0.131519 0.384014 0 0 -1
0.271034 0.0939366 0.355671 0 -0.707514 0.706699
-0.237508 0.0904807 0.397826 0 0 1
-0.161606 0.0525864 0.397826 0 0 1
-0.0296257 -0.200459 0.397826 0 0 1
-0.353029 0.250606 0.397826 0 0 1
0.117176 -0.0992743 0.361916 0 -0.631421 0.775441
0.192245 0.209302 0.384014 0 0 -1
0.186885 -0.0284022 0.384014 0 0 -1
-0.313763 0.240315 0.384014 0 0 -1
-0.361233 0.160651 0.397826 0 0 1
-0.288205 -0.0656427 0.37241 0 0 1
0.0277193 0.108624 0.397826 0 0 1
0.230727 0.0865266 0.37462 0 0 1
0.289084 -0.0549042 0.343748 0.259158 0.846478 -0.465094
-0.146205 0.078197 0.372746 0 -0.707596 0.706617
-0.259461 0.0121263 0.384014 0 0 -1
-0.148516 -0.0390213 0.397826 0 0 1
-0.294034 0.0709943 0.359701 0 0 -1
-0.36091 -0.192291 0.397826 0 0 1
0.191851 -0.0941223 0.37711 -6.90954e-06 -0.436358 0.899773
0.3344 0.109456 0.384014 0 0 -1
0.142172 -0.147279 0.384014 0 0 -1
-0.0685755 -0.0841908 0.374603 0 0.939978 -0.341235
0.267545 -0.136081 0.397826 0 0 1
-0.139977 0.157378 0.397826 0 0 1
0.182028 -0.164278 0.384014 0 0 -1
0.167623 -0.253538 0.397826 0 0 1
-0.205752 0.101519 0.384014 0 0 -1
0.145928 0.0814701 0.376023 -5.42886e-06 -0.707256 0.706957
0.292354 -0.0926777 0.356753 0 -0.940067 0.340988
-0.138814 -0.275566 0.39747 0 -0.706534 0.707679
0.0268004 -0.0196706 0.384014 0 0 -1
0.196936 0.0988607 0.372516 0 0.707223 0.706991
-0.0182374 -0.240145 0.384014 0 0 -1
-0.0924728 -0.247866 0.397826 0 0 1
0.0069775 -0.0897101 0.397826 0 0 1
-0.0591046 0.0561505 0.384014 0 0 -1
-0.12599 0.119799 0.384014 0 0 -1
0.292845 -0.144633 0.384014 0 0 -1
0.288026 0.193448 0.397826 0 0 1
0.115499 0.0667143 0.397826 0 0 1
0.28019 0.0633492 0.384014 0 0 -1
-0.291853 0.274357 0.384014 0 0 -1
-0.0202595 0.180978 0.384014 0 0 -1
0.323122 -0.084571 0.373556 0 0.939978 -0.341235
0.211359 -0.0309473 0.397826 0 0 1
-0.287505 -0.044221 0.384014 0 0 -1
0.16698 -0.138938 0.397826 0 0 1
0.00127941 0.246165 0.397826 0 0 1
-0.0175319 -0.150944 0.384014 0 0 -1
-0.154516 -0.141635 0.397826 0 0 1
0.0928757 -0.0912963 0.397826 0 0 1
0.0126201 -0.214628 0.384014 0 0 -1
0.232064 0.129674 0.397826 0 0 1
-0.220673 0.131977 0.384014 0 0 -1
0.207006 -0.218978 0.397826 0 0 1
-0.0603761 -0.0477754 0.397826 0 0 1
-0.0166015 -0.1849 0.384014 0 0 -1
0.0298138 0.0684701 0.384014 0 0 -1
0.347174 0.123385 0.397826 0 0 1
0.212059 0.261881 0.384014 0 0 -1
-0.290076 0.185735 0.0930611 -0.25834 -0.966054 0
0.16355 0.11995 0.397826 0 0 1
-0.239064 -0.188372 0.397826 0 0 1
-0.362259 0.0852726 0.384014 0 0 -1
0.31236 0.268098 0.384014 0 0 -1
0.109569 -0.000592291 0.397826 0 0 1
0.326494 0.0440002 0.397826 0 0 1
0.287959 0.0439849 0.37241 0 0 1
0.253602 -0.0813439 0.357204 0 -0.707421 0.706793
-0.349145 0.0063943 0.384014 0 0 -1
0.312591 0.0972495 0.363422 0 1 0
-0.249712 0.0542555 0.384014 0 0 -1
-0.143064 -0.103362 0.397826 0 0 1
-0.285243 0.119352 0.384014 0 0 -1
-0.285326 -0.0938544 0.307484 0.258896 -0.846542 0.465123
-0.127734 -0.219609 0.397826 0 0 1
-0.0168593 -0.258336 0.397826 0 0 1
-0.248119 -0.0631375 0.384014 0 0 -1
0.161204 0.16305 0.384014 0 0 -1
0.152945 -0.273186 0.384014 0 0 -1
-0.245713 -0.252471 0.384014 0 0 -1
0.240322 -0.000635892 0.397826 0 0 1
-0.181633 -0.18902 0.384014 0 0 -1
-0.0874697 0.250238 0.397826 0 0 1
0.117263 0.0822749 0.356289 0 0.707556 0.706657
-0.306486 -0.0734585 0.37241 0 0 1
0.28197 0.188658 0.0722679 -0.68814 -0.686759 -0.234149
0.202038 -0.148372 0.397826 0 0 1
-0.185284 -0.242894 0.384014 0 0 -1
-0.0911019 -0.104299 0.384014 0 0 -1
-0.286006 -0.235753 0.397826 0 0 1
-0.281485 -0.191936 0.0157242 0.924607 0.380426 0.019462
-0.216211 -0.098344 0.397826 0 0 1
0.186561 -0.238505 0.384014 0 0 -1
-0.182795 0.200813 0.397826 0 0 1
-0.045388 0.206242 0.384014 0 0 -1
-0.0993631 0.176125 0.384014 0 0 -1
0.178457 0.00698167 0.384014 0 0 -1
0.326521 -0.158693 0.384014 0 0 -1
0.18758 0.120152 0.397826 0 0 1
0.109657 -0.253101 0.384014 0 0 -1
-0.283433 -0.19694 0.384014 0 0 -1
0.0373376 -0.229383 0.397826 0 0 1
0.26349 -0.189007 0.384014 0 0 -1
-0.276436 0.191558 0.00661089 0.332079 -0.0436732 0.94224
0.30437 0.157274 0.384014 0 0 -1
0.335408 0.0853574 0.384014 0 0 -1
0.238817 -0.0996809 0.361585 0 -0.631421 0.775441
0.114139 -0.132512 0.384014 0 0 -1
0.301375 0.0799723 0.374524 0 -0.707596 0.706617
0.0498182 -0.0260211 0.384014 0 0 -1
-0.200631 0.275095 0.397695 0 0.259319 0.965792
-0.294627 0.0956871 0.355864 0 0.707427 -0.706786
0.35148 -0.181447 0.384014 0 0 -1
0.245314 0.0731773 0.384014 0 0 -1
-0.164225 -0.257339 0.397826 0 0 1
-0.305133 0.0237946 0.397826 0 0 1
-0.286335 -0.201816 0.074521 0.25333 -0.947386 -0.195662
0.294103 -0.0810361 0.30257 0.706855 0.619946 -0.340623
0.34277 0.0686457 0.384014 0 0 -1
0.109797 -0.213878 0.384014 0 0 -1
-5.3972e-05 -0.0162034 0.384014 0 0 -1
-0.0117666 -0.0528468 0.384014 0 0 -1
-0.219784 -0.132887 0.384014 0 0 -1
0.264652 -0.168237 0.397826 0 0 1
-0.0350427 0.27518 0.384166 0 0.257131 -0.966376
-0.0209493 0.0917319 0.375403 0 -0.93992 0.341396
0.304032 -0.183081 0.397826 0 0 1
0.182648 -0.219721 0.397826 0 0 1
0.218652 -0.105129 0.384014 0 0 -1
-0.303899 0.205322 0.00339084 -0.265988 0.203754 0.942197
-0.155695 -0.236299 0.384014 0 0 -1
-0.213673 -0.220191 0.384014 0 0 -1
-0.281173 0.109986 0.273225 0.706524 0.620232 0.340788
0.279148 0.0601218 0.346485 -0.965752 -0.227404 -0.124946
-0.280546 0.0308107 0.384014 0 0 -1
-0.0637527 -0.167057 0.384014 0 0 -1
-0.150412 0.172622 0.384014 0 0 -1
-0.312106 -0.213319 0.397826 0 0 1
0.309383 0.0515062 0.384014 0 0 -1
0.365467 0.10768 0.384014 0 0 -1
-0.278624 0.181029 0.130483 0.966185 -0.225984 -0.124165
-0.274334 -0.0277436 0.361731 1 0 0
0.0430162 -0.0998365 0.361317 0 -0.974117 0.226046
0.270897 -0.0105607 0.397826 0 0 1
-0.229985 0.254483 0.397826 0 0 1
-0.306052 -0.0323742 0.397826 0 0 1
-0.269546 0.0919109 0.375896 0 -0.93992 0.341396
-0.207896 0.174894 0.384014 0 0 -1
-0.203831 0.215709 0.397826 0 0 1
-0.0160727 0.248078 0.384014 0 0 -1
-0.308568 -0.181631 0.384014 0 0 -1
0.107957 -0.276275 0.394484 -8.2105e-06 -1 0
0.34271 -0.0349409 0.397826 0 0 1
0.176869 -0.0769826 0.370138 0 0.974557 -0.224141
0.314498 -0.0462961 0.397826 0 0 1
-0.0169715 -0.00300637 0.397826 0 0 1
0.207522 -0.195024 0.397826 0 0 1
-0.29549 -0.135025 0.210114 -0.965748 0.227408 -0.124967
-0.267679 0.12744 0.397826 0 0 1
-0.274618 -0.0495669 0.397826 0 0 1
-0.00669855 -0.0843352 0.354649 0 -0.774151 -0.633001
0.295153 -0.190058 0.0927158 0.965999 0.258548 0
0.052568 -0.221469 0.384014 0 0 -1
0.303359 -0.107011 0.384014 0 0 -1
0.0312389 0.188865 0.384014 0 0 -1
-0.172928 0.0147921 0.397826 0 0 1
-0.291315 -0.0751974 0.308057 -0.258765 0.846573 -0.46514
-0.353795 -0.100945 0.384014 0 0 -1
0.231952 -0.0615096 0.37462 0 0 -1
-0.295968 -0.0682615 0.338302 -0.966025 -0.22651 0.124455
-0.190515 -0.0628043 0.384014 0 0 -1
0.228259 0.106723 0.37904 0 0 -1
0.0803155 0.115813 0.397826 0 0 1
0.300568 0.137856 0.397826 0 0 1
0.313582 0.24138 0.384014 0 0 -1
-0.245623 0.11338 0.397826 0 0 1
0.120847 -0.0732913 0.384014 0 0 -1
-0.282851 0.0734937 0.384014 0 0 -1
0.091639 -0.0935691 0.354182 0 0.216905 -0.976193
0.306163 0.00572833 0.397826 0 0 1
0.146226 -0.0449234 0.397826 0 0 1
-0.330354 0.08301 0.384014 0 0 -1
0.0447617 0.0326144 0.397826 0 0 1
0.220696 0.23403 0.384014 0 0 -1
-0.329705 -0.262472 0.397826 0 0 1
-0.0970947 -0.184506 0.397826 0 0 1
0.279948 -0.196735 0.109393 -0.705957 -0.685756 0.1771
0.281479 0.109249 0.275197 -0.707182 0.619655 0.340472
0.269613 0.203021 0.00348705 -0.309575 0.128143 0.942201
-0.343602 0.264305 0.384014 0 0 -1
-0.232712 -0.0287792 0.384014 0 0 -1
-0.279278 0.186363 0.384014 0 0 -1
-0.0973441 0.115376 0.384014 0 0 -1
0.294273 -0.136371 0.202212 0.706881 0.619922 -0.340611
0.0856891 0.244742 0.384014 0 0 -1
0.259645 -0.274818 0.397768 0 -0.25757 0.96626
-0.289992 0.0516131 0.350276 -0.258765 -0.846573 -0.46514
0.165251 0.0457138 0.397826 0 0 1
-0.305358 0.186217 0.397826 0 0 1
0.110243 -0.0680421 0.397826 0 0 1
0.31082 -0.260746 0.397826 0 0 1
-0.343489 -0.270208 0.384014 0 0 -1
-0.300074 -0.195531 0 0 0 -1
0.0299581 0.254869 0.397826 0 0 1
-0.0578296 -0.0805786 0.397826 0 0 1
0.295674 -0.21566 0.397826 0 0 1
-0.0528707 -0.24722 0.384014 0 0 -1
0.278712 0.0764206 0.323804 -0.965727 0.227484 0.124992
0.0415243 -0.0537176 0.397826 0 0 1
0.0522693 0.21337 0.384014 0 0 -1
0.304337 -0.059798 0.37241 0 0 1
0.0163451 -0.0769491 0.384014 0 0 -1
0.301715 0.176593 0.384014 0 0 -1
-0.231978 -0.0486139 0.380744 0 1 0
0.249644 0.082722 0.397826 0 0 1
-0.159561 0.0972495 0.363842 0 1 0
-0.294745 -0.115432 0.397826 0 0 1
-0.238951 0.273973 0.397826 0 0 1
0.0133315 0.0408536 0.397826 0 0 1
0.213955 -0.165838 0.397826 0 0 1
-0.362533 0.140003 0.397826 0 0 1
0.135008 0.00991961 0.397826 0 0 1
0.224147 -0.155188 0.384014 0 0 -1
0.0532533 0.136757 0.397826 0 0 1
0.364916 0.149516 0.397826 0 0 1
-0.269001 0.0840886 0.397826 0 0 1
-0.0318947 0.0992585 0.397826 0 0 1
-0.0605822 0.0825232 0.375518 0 0.707486 -0.706727
0.288652 0.00707688 0.37241 0 0 1
-0.164866 0.15732 0.397826 0 0 1
0.162771 0.0811234 0.374117 0 0.707486 -0.706727
-0.243051 -0.0909086 0.358043 0 0 1
-0.14157 -0.00954279 0.397826 0 0 1
-0.125054 -0.0860225 0.384014 0 0 -1
0.364558 -0.0374325 0.384014 0 0 -1
-0.121541 0.208722 0.384014 0 0 -1
-0.290579 0.177688 0.154233 -0.258385 0.846656 0.465199
-0.0287259 -0.226567 0.397826 0 0 1
-0.360824 -0.207578 0.384014 0 0 -1
-0.0181673 0.0821804 0.397826 0 0 1
-0.188076 -0.0390724 0.397826 0 0 1
0.162771 0.0972509 0.37257 0 -0.707444 -0.70677
-0.292861 -0.118358 0.232069 -0.707428 0.619443 -0.340346
-0.174992 -0.0922769 0.397826 0 0 1
-0.299875 -0.13395 0.384014 0 0 -1
0.0313855 0.0844983 0.376731 0 0.774151 0.633001
-0.0830771 0.0993011 0.361908 0 0.631477 0.775395
-0.333846 -0.0519924 0.397826 0 0 1
0.222239 -0.0987249 0.36936 0 -0.341425 -0.939909
-0.182998 0.0497701 0.397826 0 0 1
-0.302837 -0.212683 0.384014 0 0 -1
-0.203219 -0.2693 0.397826 0 0 1
-0.229671 0.170627 0.397826 0 0 1
0.0830394 0.0987775 0.360592 0 -0.894302 0.447464
-0.248936 0.0988246 0.362169 0 0.340806 0.940134
0.147531 0.0426866 0.384014 0 0 -1
-0.0891784 -0.0971081 0.397826 0 0 1
-0.135165 -0.208261 0.384014 0 0 -1
-0.159689 0.0770777 0.384014 0 0 -1
-0.0263852 0.149164 0.384014 0 0 -1
-0.207078 -0.0524241 0.397826 0 0 1
-0.123283 -0.262591 0.397826 0 0 1
0.297453 0.0837557 0.354296 0 0.216906 -0.976192
0.327649 -0.0815191 0.357088 1 0 0
0.0975894 0.0686455 0.384014 0 0 -1
-0.266274 -0.0607751 0.384014 0 0 -1
-0.0877736 -0.0811705 0.357377 0 -0.707421 0.706793
0.192819 0.25478 0.397826 0 0 1
0.300304 0.0175391 0.364407 1 0 0
-0.170106 -0.08026 0.361822 0 -0.340332 -0.940306
-0.227873 0.0830101 0.376005 0 0.707486 -0.706727
0.337191 0.214088 0.384014 0 0 -1
-0.0296371 -0.0619145 0.397826 0 0 1
0.287202 0.110916 0.384014 0 0 -1
-0.0454328 0.230168 0.397826 0 0 1
0.279189 0.196485 0.095456 -0.965739 0.259513 0
0.236232 -0.19885 0.384014 0 0 -1
-0.081789 0.0128986 0.397826 0 0 1
0.0146643 0.0969694 0.372852 0 -0.707444 -0.70677
-0.285697 -0.221734 0.384014 0 0 -1
0.0617274 -0.0802094 0.374776 -5.42625e-06 0.707596 0.706617
0.149434 -0.0951865 0.376178 -5.42886e-06 -0.707257 0.706957
0.274129 -0.0794469 0.362698 0 0.340985 0.940069
0.286112 0.17216 0.0028576 -0.0439445 -0.332046 0.942239
-0.0979746 0.215454 0.397826 0 0 1
-0.139754 -0.0960083 0.356206 0 -0.707121 -0.707092
-0.344605 0.133454 0.384014 0 0 -1
0.246907 0.231418 0.384014 0 0 -1
0.121256 0.276041 0.384848 0 0.961084 -0.276256
0.102497 0.202905 0.384014 0 0 -1
0.0440278 -0.146822 0.397826 0 0 1
0.134599 0.140421 0.397826 0 0 1
-0.343875 0.17026 0.397826 0 0 1
-0.227278 0.0992504 0.369609 0 0.630138 -0.776483
-0.242578 -0.104901 0.397826 0 0 1
-0.341506 -0.161819 0.384014 0 0 -1
0.29519 -0.118734 0.397826 0 0 1
0.0769575 -0.0638179 0.397826 0 0 1
0.183651 0.0998486 0.361338 0 0.974443 0.224634
-0.307387 0.112896 0.384014 0 0 -1
-0.0780987 0.154605 0.397826 0 0 1
-0.335909 -0.0885087 0.384014 0 0 -1
0.127261 -0.0313008 0.397826 0 0 1
-0.141144 0.213628 0.397826 0 0 1
0.333041 -0.0721328 0.397826 0 0 1
0.302652 -0.208575 0.000886905 0.562334 -0.431584 -0.705348
-0.231651 -0.0981275 0.371676 0 0.707351 -0.706863
-0.118786 0.0988469 0.36076 0 -0.972946 -0.231033
0.3296 -0.276277 0.393535 -8.2105e-06 -1 0
0.198756 0.0535242 0.384014 0 0 -1
-0.0158145 -0.202266 0.384014 0 0 -1
-0.141289 0.0715508 0.397826 0 0 1
0.30719 -0.0825093 0.384014 0 0 -1
-0.177945 -0.147873 0.384014 0 0 -1
-0.259693 -0.0710567 0.36541 1 0 0
0.0896684 0.158655 0.397826 0 0 1
0.0840024 -0.228971 0.384014 0 0 -1
-0.0798213 0.0983098 0.397826 0 0 1
0.201278 -0.0619987 0.397826 0 0 1
-0.0726247 -0.116927 0.384014 0 0 -1
0.0864967 -0.18743 0.397826 0 0 1
0.11143 -0.0538184 0.384014 0 0 -1
0.187815 0.077072 0.384014 0 0 -1
0.069699 -0.146049 0.397826 0 0 1
0.159878 -0.218597 0.384014 0 0 -1
0.131341 0.120108 0.397826 0 0 1
-0.00132695 0.223988 0.397826 0 0 1
0.199242 0.0227602 0.397826 0 0 1
-0.246729 -0.224417 0.397826 0 0 1
-0.0590827 0.249578 0.397826 0 0 1
-0.166706 0.23092 0.384014 0 0 -1
0.289811 0.189539 0.0535272 0.707304 -0.70691 0
0.15327 0.0966003 0.397826 0 0 1
0.280482 0.0938367 0.301175 -0.707182 0.619655 0.340472
-0.213142 -0.177483 0.397826 0 0 1
-0.258111 -0.144877 0.397826 0 0 1
0.197607 -0.0806569 0.366729 0 -1 0
-0.0178178 0.026098 0.384014 0 0 -1
-0.307852 -0.269186 0.397826 0 0 1
0.322932 -0.00915822 0.384014 0 0 -1
0.258329 -0.107314 0.384014 0 0 -1
0.0528085 0.0596556 0.397826 0 0 1
0.255039 -0.255949 0.384014 0 0 -1
0.167073 -0.0421875 0.397826 0 0 1
-0.299983 -0.0973776 0.372427 0 0.707351 -0.706863
-0.0727514 -0.180649 0.397826 0 0 1
0.348893 -0.203304 0.384014 0 0 -1
-0.226164 -0.218291 0.397826 0 0 1
-0.289711 -0.160186 0.186542 -0.258208 -0.846707 0.465205
-0.332038 0.0372249 0.384014 0 0 -1
0.308327 0.258167 0.397826 0 0 1
-0.290274 0.197675 0.0576812 -0.707304 0.70691 0
0.181958 0.0795087 0.359059 0 0.707556 0.706657
0.00239092 0.271057 0.384014 0 0 -1
0.344826 -0.156314 0.384014 0 0 -1
0.1575 0.140991 0.384014 0 0 -1
-0.255118 -0.189502 0.384014 0 0 -1
-0.326276 0.215307 0.384014 0 0 -1
-0.229521 -0.119988 0.397826 0 0 1
0.147768 -0.258619 0.397826 0 0 1
-0.0848769 -0.227074 0.397826 0 0 1
0.288956 -0.1527 0.165687 0.258872 0.846548 -0.465127
-0.194387 0.238044 0.384014 0 0 -1
-0.089611 -0.0713455 0.397826 0 0 1
-0.119169 0.263579 0.397826 0 0 1
-0.279673 -0.184729 0.1155 0.705679 0.64637 -0.290211
-0.327099 -0.230884 0.397826 0 0 1
0.263894 -0.0836359 0.376012 0 0.76285 -0.646576
0.0133594 0.0623376 0.384014 0 0 -1
0.357273 0.192392 0.384014 0 0 -1
-0.0793119 0.0802739 0.369738 0 0.342048 0.939682
0.0676185 -0.025026 0.397826 0 0 1
0.141818 -0.00118515 0.384014 0 0 -1
0.328077 -0.222702 0.384014 0 0 -1
0.309931 0.118732 0.384014 0 0 -1
-0.0263336 -0.0821633 0.375174 0 -0.707351 -0.706863
-0.172353 -0.0901856 0.37462 0 0 1
-0.363598 0.219721 0.397826 0 0 1
-0.0406967 0.118126 0.397826 0 0 1
0.046898 0.144459 0.384014 0 0 -1
-0.00397113 -0.276043 0.384857 0 -0.961084 -0.276256
0.266268 0.190953 0.397826 0 0 1
0.250692 0.0806734 0.364181 0 1 0
-0.00651333 -0.0950738 0.384014 0 0 -1
-0.118749 -0.0801807 0.358368 0 -0.707421 0.706793
0.129294 -0.173609 0.384014 0 0 -1
-0.293663 0.0244878 0.37241 0 0 1
-0.0265462 0.06989 0.384014 0 0 -1
0.272898 0.243749 0.384014 0 0 -1
-0.0866118 0.047095 0.384014 0 0 -1
-0.0809537 0.00182062 0.384014 0 0 -1
-0.186213 -0.131322 0.397826 0 0 1
-0.273466 -0.192001 0.397826 0 0 1
-0.144937 0.250428 0.384014 0 0 -1
0.350694 -0.242135 0.384014 0 0 -1
0.0259782 -0.0966978 0.373107 0 0.707351 -0.706863
0.232839 0.0864087 0.356939 0 0 -1
-0.273777 -0.181628 0 0 0 -1
-0.163045 -0.276273 0.393926 -8.2105e-06 -1 0
0.0672796 0.164148 0.397826 0 0 1
-0.0309687 0.251709 0.397826 0 0 1
0.29955 -0.0481384 0.384014 0 0 -1
-0.230865 -0.0785731 0.373138 0 0.707257 0.706957
0.363407 -0.274872 0.384085 0 -0.255395 -0.966837
0.0646918 -0.262662 0.384014 0 0 -1
-0.350627 -0.0357651 0.384014 0 0 -1
0.236141 -0.167007 0.397826 0 0 1
0.272212 0.154699 0.384014 0 0 -1
0.17755 -0.0961383 0.365765 0 1 0
0.316414 -0.175467 0.384014 0 0 -1
-0.325954 0.274459 0.397826 0 0 1
0.279004 -0.0964663 0.289566 -0.966025 -0.22651 0.124455
-0.0636394 0.188215 0.384014 0 0 -1
0.296119 -0.189141 0 0 0 -1
-0.000529259 0.197205 0.384014 0 0 -1
0.286478 0.199952 0.0128752 -0.131745 0.991102 0.0189548
-0.0746493 -0.0939899 0.384014 0 0 -1
-0.00396392 0.0993297 0.35951 0 0.707427 -0.706786
0.184092 -0.0672401 0.384014 0 0 -1
0.0432231 0.0870356 0.384014 0 0 -1
-0.277785 0.0784688 0.366402 0 1 0
0.348988 -0.0982994 0.397826 0 0 1
-0.108024 -0.177156 0.384014 0 0 -1
-0.0454013 0.0576316 0.397826 0 0 1
-0.0669456 -0.257637 0.397826 0 0 1
0.0496865 0.253684 0.397826 0 0 1
-0.349503 0.0279266 0.397826 0 0 1
0.0160249 0.233504 0.397826 0 0 1
-0.0722625 0.269121 0.397826 0 0 1
-0.197135 0.258106 0.384014 0 0 -1
0.34963 0.16906 0.397826 0 0 1
-0.220151 -0.19985 0.397826 0 0 1
0.258173 -0.211368 0.384014 0 0 -1
-0.136932 -0.188579 0.384014 0 0 -1
-0.296092 0.0845389 0.373689 0 -0.939991 -0.341199
0.0947032 0.0913188 0.37462 0 0 1
-0.118982 0.0806734 0.368568 0 1 0
-0.2493 0.0806734 0.363736 0 1 0
0.316071 0.220611 0.384014 0 0 -1
-0.172511 0.205109 0.384014 0 0 -1
0.282451 0.0820499 0.376604 0 -0.707596 0.706617
-0.281603 -0.0825901 0.397826 0 0 1
-0.328459 -0.00160858 0.384014 0 0 -1
0.22966 0.228268 0.397826 0 0 1
-0.269761 -0.135438 0.384014 0 0 -1
0.347058 0.253262 0.397826 0 0 1
-0.0894088 0.193374 0.384014 0 0 -1
0.00164548 -0.0479468 0.397826 0 0 1
0.16187 -0.0128365 0.397826 0 0 1
-0.118992 0.0404602 0.397826 0 0 1
0.286258 0.0434747 0.358043 0 0 -1
0.0155395 -0.0799168 0.358632 0 -0.707421 0.706793
-0.110621 -0.240598 0.397826 0 0 1
0.238013 0.0342492 0.397826 0 0 1
-0.23066 0.207096 0.397826 0 0 1
-0.274871 -0.0990067 0.372353 -5.42886e-06 -0.707257 0.706957
0.0448294 -0.123165 0.397826 0 0 1
-0.262126 -0.11746 0.384014 0 0 -1
-0.0484883 0.188868 0.397826 0 0 1
-0.0522582 0.129032 0.384014 0 0 -1
-0.29603 -0.184318 0.126594 -0.965761 -0.227382 0.124915
-0.189193 0.21552 0.384014 0 0 -1
0.13177 0.0322711 0.384014 0 0 -1
0.126979 0.0781587 0.370557 0 0.637074 0.770803
0.305952 0.211355 0.397826 0 0 1
0.243759 -0.134425 0.384014 0 0 -1
-0.135416 0.185569 0.384014 0 0 -1
0.315492 -0.217546 0.397826 0 0 1
0.147851 -0.115635 0.384014 0 0 -1
0.289955 -0.188284 0.0663773 0.252782 0.93866 -0.23456
-0.251593 0.223442 0.384014 0 0 -1
-0.322698 -0.0775179 0.361913 0 0.631421 0.775441
-0.00886226 0.0693142 0.384014 0 0 -1
0.0395188 0.0969065 0.357084 0 0.707427 -0.706786
-0.130846 0.0875495 0.397826 0 0 1
-0.0280398 -0.175697 0.397826 0 0 1
0.225243 0.198767 0.397826 0 0 1
0.325316 0.140203 0.384014 0 0 -1
-0.23258 0.150723 0.397826 0 0 1
-0.27869 0.144445 0.196556 0.966189 -0.225972 -0.124158
0.0457549 -0.0896121 0.37462 0 0 1
0.237575 -0.0469236 0.384014 0 0 -1
0.320854 0.167208 0.384014 0 0 -1
0.209792 -0.0052385 0.397826 0 0 1
0.350921 0.206703 0.397826 0 0 1
-0.290111 0.180599 0.115584 -0.258872 -0.846547 -0.465128
0.291817 -0.247947 0.384014 0 0 -1
-0.364724 0.175468 0.384014 0 0 -1
-0.26435 -0.236115 0.384014 0 0 -1
-0.242976 0.0362791 0.384014 0 0 -1
-0.226711 -0.0105531 0.384014 0 0 -1
0.128776 -0.0846855 0.355077 0 -0.774151 -0.633001
0.177889 -0.111615 0.397826 0 0 1
0.203531 -0.124318 0.397826 0 0 1
-0.163436 0.0891003 0.373516 0 0 -1
-0.288507 0.106496 0.397826 0 0 1
0.223456 0.0961554 0.363795 0 -1 0
0.167261 0.185389 0.397826 0 0 1
-0.276366 0.208073 0.384014 0 0 -1
0.0414574 -0.25047 0.397826 0 0 1
-0.0441864 0.0174808 0.384014 0 0 -1
-0.164185 -0.0998437 0.384014 0 0 -1
-0.277797 0.0359048 0.358043 0 0 -1
0.144179 0.169852 0.397826 0 0 1
-0.246565 0.0734283 0.384014 0 0 -1
-0.0863848 -0.084254 0.374429 0 0.939978 -0.341235
0.00110236 -0.233214 0.397826 0 0 1
0.276022 -0.0662341 0.359701 0 0 -1
0.262043 0.0964872 0.397826 0 0 1
0.297996 0.033683 0.397826 0 0 1
0.113506 0.0527125 0.384014 0 0 -1
0.0936906 -0.155209 0.384014 0 0 -1
-0.159237 0.100136 0.384014 0 0 -1
0.250405 0.270414 0.384014 0 0 -1
-0.262863 -0.0835179 0.37731 0 -0.214798 0.976658
0.0779282 -0.102877 0.384014 0 0 -1
-0.18198 0.18899 0.384014 0 0 -1
0.186776 -0.260547 0.384014 0 0 -1
0.285175 -0.0882381 0.317623 -0.258895 -0.846536 0.465134
-0.0186152 -0.132058 0.384014 0 0 -1
0.195826 0.163003 0.397826 0 0 1
0.308315 0.0895776 0.384014 0 0 -1
0.283862 0.144828 0.213928 -0.258387 0.846656 0.465199
-0.367383 -0.258732 0.385267 -0.991131 0 -0.132886
-0.325395 -0.131009 0.384014 0 0 -1
-0.0535682 -0.108397 0.397826 0 0 1
-0.119039 -0.0733177 0.397826 0 0 1
0.159115 -0.0796804 0.37269 0 -0.707351 -0.706863
-0.06137 -0.275569 0.397467 0 -0.706534 0.707679
-0.103213 0.0302788 0.397826 0 0 1
-0.00515202 0.0249024 0.397826 0 0 1
0.287708 0.179623 0.116022 0.258872 -0.846542 -0.465136
0.0352667 0.2206 0.384014 0 0 -1
-0.174862 0.098657 0.360396 0 -0.707514 0.706699
0.145971 0.0975048 0.372316 0 -0.707444 -0.70677
0.146305 -0.229064 0.384014 0 0 -1
-0.193599 0.104656 0.397826 0 0 1
-0.17937 -0.229208 0.397826 0 0 1
-0.290143 0.081623 0.295741 -0.258765 -0.846573 -0.46514
0.240832 0.0930629 0.37726 0 -0.214822 0.976653
-0.121725 0.24485 0.384014 0 0 -1
-0.0934044 -0.147618 0.397826 0 0 1
-0.239637 0.132249 0.397826 0 0 1
-0.206531 -0.166884 0.384014 0 0 -1
0.207743 -0.0928962 0.375406 0 -0.939978 -0.341235
-0.203061 -0.096503 0.374859 -5.42886e-06 -0.707257 0.706957
0.102676 0.2333 0.384014 0 0 -1
-0.291328 0.166296 0.174551 -0.258385 0.846656 0.465199
0.0910978 -0.00269511 0.397826 0 0 1
-0.0396041 0.0856873 0.373516 0 0 -1
0.270285 -0.198154 0 0 0 -1
0.0177312 -0.0111707 0.397826 0 0 1
0.180958 0.136268 0.384014 0 0 -1
-0.284871 -0.252701 0.384014 0 0 -1
-0.277861 0.0568648 0.359701 0 0 -1
-0.226888 0.0204458 0.384014 0 0 -1
-0.135841 0.0776805 0.359329 0 -0.707121 -0.707093
-0.0774669 0.217194 0.384014 0 0 -1
0.142037 -0.16294 0.397826 0 0 1
-0.0782223 -0.14205 0.384014 0 0 -1
0.128713 -0.0933396 0.377324 0 0.214798 0.976658
0.168273 0.0138326 0.397826 0 0 1
0.0633868 0.0984739 0.362296 0 0.340806 0.940134
0.115825 0.0898669 0.397826 0 0 1
-0.206796 -0.0765502 0.397826 0 0 1
0.178026 -0.012209 0.384014 0 0 -1
0.137937 0.243654 0.397826 0 0 1
0.296991 0.0684993 0.397826 0 0 1
0.331828 -0.133979 0.384014 0 0 -1
0.142892 0.106078 0.384014 0 0 -1
-0.0286227 0.138443 0.397826 0 0 1
0.0159982 0.176666 0.384014 0 0 -1
0.10929 -0.167764 0.384014 0 0 -1
-0.303457 -0.0544207 0.369275 -0.800653 0.599128 0
0.149541 0.0565646 0.397826 0 0 1
-0.0378256 -0.141656 0.384014 0 0 -1
0.0912164 -0.110725 0.397826 0 0 1
0.172077 -0.12426 0.384014 0 0 -1
0.288933 0.136557 0.195084 0.258872 -0.846542 -0.465136
-0.258376 0.112816 0.384014 0 0 -1
-0.103121 -0.114795 0.397826 0 0 1
0.0629392 0.0143438 0.397826 0 0 1
-0.25106 -0.0455766 0.384014 0 0 -1
0.0743655 0.181047 0.397826 0 0 1
-0.159737 -0.0602668 0.384014 0 0 -1
-0.178084 -0.200521 0.397826 0 0 1
0.202651 0.181599 0.384014 0 0 -1
0.292276 -0.185696 0.137872 0.706976 -0.619837 0.340569
-0.29559 0.0545084 0.37241 0 0 1
0.257535 -0.0228612 0.397826 0 0 1
0.279557 -0.00360653 0.358043 0 0 -1
0.300304 -0.0227142 0.369598 1 0 0
-0.104006 0.250373 0.384014 0 0 -1
0.273604 -0.0961996 0.397826 0 0 1
0.271575 0.263326 0.384014 0 0 -1
0.00785011 0.0235458 0.384014 0 0 -1
-0.162649 0.00877535 0.384014 0 0 -1
0.283552 -0.193601 0.397826 0 0 1
-0.318228 -0.0612961 0.397826 0 0 1
0.272439 0.0195921 0.384014 0 0 -1
-0.275176 -0.0762423 0.360886 0 -1 0
-0.283626 0.0896612 0.314201 0.258922 0.84653 0.46513
-0.188381 0.0243625 0.397826 0 0 1
0.0508986 -0.0739438 0.384014 0 0 -1
0.220974 -0.208713 0.384014 0 0 -1
-0.197763 -0.133738 0.384014 0 0 -1
0.248941 -0.174083 0.384014 0 0 -1
-0.192569 0.157415 0.397826 0 0 1
0.216106 0.113243 0.397826 0 0 1
0.328343 0.268923 0.397826 0 0 1
0.287109 0.0738237 0.344967 -0.260423 0.846185 0.46492
0.143777 -0.0148053 0.397826 0 0 1
0.0323101 -0.1189 0.384014 0 0 -1
0.0558585 -0.00999218 0.384014 0 0 -1
0.313146 -0.1165 0.397826 0 0 1
-0.257568 -0.00640008 0.397826 0 0 1
-0.0536729 -0.00224915 0.384014 0 0 -1
-0.168363 0.11836 0.384014 0 0 -1
0.0470146 0.0806734 0.362289 0 1 0
0.367437 -0.0549089 0.386826 1 0 0
-0.267784 0.199616 0.397826 0 0 1
-0.147309 0.0961554 0.367692 0 -1 0
-0.0801256 0.120691 0.384014 0 0 -1
0.0162908 0.0801066 0.384014 0 0 -1
-0.293774 0.13847 0.384014 0 0 -1
0.246921 -0.247769 0.397826 0 0 1
0.298685 -0.0980755 0.370298 0 0.342047 0.939683
-0.362948 0.0661455 0.384014 0 0 -1
0.340787 0.00836957 0.384014 0 0 -1
-0.0811482 -0.0973568 0.359111 0 0.707421 0.706793
-0.188087 -0.172281 0.384014 0 0 -1
0.0002186 -0.153465 0.384014 0 0 -1
0.274334 -0.0365059 0.370335 -1 0 0
0.287561 0.204846 0.384014 0 0 -1
-0.12562 0.0774391 0.384014 0 0 -1
0.362253 0.0900747 0.384014 0 0 -1
-0.287509 -0.0928823 0.384014 0 0 -1
-0.13289 -0.015085 0.384014 0 0 -1
0.218683 -0.252344 0.384014 0 0 -1
-0.293197 -0.167512 0.169051 -0.707523 -0.619355 0.340308
0.279473 -0.179484 0.126695 -0.965748 0.227408 -0.124967
0.0343597 0.146985 0.397826 0 0 1
-0.192876 0.0999448 0.360923 1.7343e-06 0.974164 0.225843
0.252023 -0.0752321 0.384014 0 0 -1
0.0775391 0.258074 0.397826 0 0 1
-0.279017 0.127857 0.224204 0.966185 -0.225984 -0.124165
0.348886 -0.0714638 0.384014 0 0 -1
0.290194 -0.203875 0.384014 0 0 -1
-0.295532 0.176903 0.13426 -0.965748 -0.227417 -0.124952
-0.0954971 -0.168443 0.397826 0 0 1
0.229064 0.0602815 0.397826 0 0 1
0.00878143 0.132193 0.384014 0 0 -1
0.278669 0.11558 0.252205 -0.965761 0.227375 0.124929
0.36668 -0.0998797 0.397788 0.470012 0 0.88266
-0.321026 -0.116509 0.397826 0 0 1
-0.21847 -0.115365 0.384014 0 0 -1
-0.27922 0.175343 0 0 0 -1
0.0149077 0.000408143 0.384014 0 0 -1
0.341488 -0.267213 0.384014 0 0 -1
0.248884 0.0363823 0.384014 0 0 -1
-0.350307 0.221085 0.384014 0 0 -1
0.268124 0.214706 0.384014 0 0 -1
0.0690687 -0.188141 0.384014 0 0 -1
0.12958 -0.256424 0.397826 0 0 1
-0.351817 -0.147883 0.397826 0 0 1
-0.0651355 -0.223025 0.384014 0 0 -1
-0.0087989 -0.0999832 0.36057 -3.43494e-06 -0.894382 -0.447305
-0.338198 -0.217955 0.397826 0 0 1
-0.209752 -0.0778714 0.372436 0 0.707257 0.706957
0.35548 -0.0171436 0.397826 0 0 1
0.273039 0.128852 0.384014 0 0 -1
-0.186416 -0.120256 0.384014 0 0 -1
-0.327094 -0.25185 0.384014 0 0 -1
0.120077 -0.220043 0.397826 0 0 1
-0.140599 -0.171378 0.384014 0 0 -1
0.302327 0.230272 0.397826 0 0 1
-0.0234719 -0.0784228 0.397826 0 0 1
-0.118133 0.22765 0.384014 0 0 -1
-0.139924 0.0937734 0.35427 0 0.437964 -0.898993
-0.120894 -0.0464491 0.384014 0 0 -1
0.278863 0.168438 0.151547 -0.965748 -0.227417 -0.124952
-0.347499 -0.00498271 0.397826 0 0 1
-0.0518436 -0.0961759 0.356373 0 -0.707121 -0.707092
0.0690476 0.0740236 0.397826 0 0 1
-0.298107 0.0868439 0.397826 0 0 1
0.0881813 0.148003 0.384014 0 0 -1
0.275745 0.0534258 0.37241 0 0 1
0.102492 0.135848 0.397826 0 0 1
-0.109586 -0.100387 0.384014 0 0 -1
0.101445 -0.0742035 0.384014 0 0 -1
-0.282535 0.0573703 0.384014 0 0 -1
-0.219217 -0.236753 0.384014 0 0 -1
-0.142062 -0.224427 0.384014 0 0 -1
-0.0147978 -0.105269 0.397826 0 0 1
-0.277276 -0.143592 0.397826 0 0 1
-0.184504 0.0765407 0.384014 0 0 -1
0.248782 -0.2343 0.384014 0 0 -1
-0.159679 0.204505 0.397826 0 0 1
-0.242837 -0.0540171 0.397826 0 0 1
-0.223374 -0.264168 0.384014 0 0 -1
0.135487 0.0463859 0.397826 0 0 1
0.218975 -0.116351 0.397826 0 0 1
0.329679 -0.188978 0.384014 0 0 -1
0.304141 0.275875 0.397161 0 0.706534 0.707679
-0.33763 -0.171555 0.397826 0 0 1
-0.277225 0.228251 0.384014 0 0 -1
0.32666 0.0589297 0.384014 0 0 -1
-0.156968 -0.0829989 0.355547 0 -0.707421 0.706793
0.0127932 0.077362 0.361773 0 -0.631369 0.775483
0.249761 0.257842 0.397826 0 0 1
-0.160484 -0.189929 0.397826 0 0 1
-0.070664 -0.0463093 0.384014 0 0 -1
-0.280134 0.00934704 0.37241 0 0 1
-0.26381 0.0728068 0.384014 0 0 -1
0.295018 0.172321 0.138593 0.966021 -0.226522 -0.124461
-0.286958 -0.185107 0.0787632 0.258361 0.965299 -0.0380503
0.292718 -0.126664 0.216652 0.706855 0.619946 -0.340623
-0.316206 -0.195503 0.397826 0 0 1
-0.291021 0.0336637 0.397826 0 0 1
0.267373 0.0806734 0.365753 0 1 0
0.34848 -0.10965 0.384014 0 0 -1
-0.323308 -0.0917757 0.355991 0 0.939918 -0.341401
0.0797739 0.010796 0.397826 0 0 1
0.0220537 -0.250819 0.384014 0 0 -1
-0.115559 0.217755 0.397826 0 0 1
0.276933 0.0682852 0.397826 0 0 1
0.107496 -0.194268 0.397826 0 0 1
0.319393 -0.0936465 0.384014 0 0 -1
0.217351 0.190472 0.384014 0 0 -1
-0.038214 0.0996443 0.35986 0 0.894512 -0.447044
0.0972071 0.0296024 0.384014 0 0 -1
0.334581 -0.00635377 0.397826 0 0 1
-0.237535 0.213659 0.384014 0 0 -1
-0.137457 -0.0934776 0.376197 0 0.443185 -0.89643
0.209282 -0.0806863 0.356303 0 0.707461 -0.706752
-0.198355 -0.0836372 0.384014 0 0 -1
0.367437 0.208308 0.38693 1 0 0
0.182077 0.0926002 0.377062 0 -0.774151 0.633001
0.0949789 0.239773 0.397826 0 0 1
-0.11365 0.0903647 0.384014 0 0 -1
-0.334756 -0.0224001 0.384014 0 0 -1
-0.295741 0.110001 0.257643 -0.965748 -0.227417 -0.124952
0.08143 -0.00691128 0.384014 0 0 -1
0.29534 -0.0739418 0.332843 0.966025 -0.22651 0.124456
-0.0943417 -0.0801774 0.384014 0 0 -1
-0.0970637 -0.0519012 0.384014 0 0 -1
0.288423 0.202384 0.0800585 0.25834 0.966054 0
0.0994334 -0.128939 0.397826 0 0 1
-0.0894204 0.175431 0.397826 0 0 1
0.159923 -0.242131 0.384014 0 0 -1
0.235541 -0.116389 0.384014 0 0 -1
0.120809 0.124064 0.384014 0 0 -1
-0.0539491 -0.150698 0.384014 0 0 -1
-0.227013 -0.167657 0.397826 0 0 1
0.164564 -0.159947 0.397826 0 0 1
0.0480353 0.169396 0.384014 0 0 -1
-0.0952844 0.156118 0.384014 0 0 -1
0.293997 0.119722 0.231972 0.706845 -0.619953 -0.340629
0.311735 -0.276277 0.38954 -8.2105e-06 -1 0
0.205726 -0.157426 0.384014 0 0 -1
0.132628 -0.0578634 0.384014 0 0 -1
0.2595 0.00428125 0.397826 0 0 1
-0.0607913 0.0662563 0.397826 0 0 1
-0.141815 0.203902 0.384014 0 0 -1
0.0735753 0.0860191 0.37462 0 0 1
0.0734681 -0.159603 0.384014 0 0 -1
0.12995 -0.00640398 0.397826 0 0 1
0.294091 -0.0401313 0.397826 0 0 1
0.074437 0.02877 0.384014 0 0 -1
-0.193827 0.140382 0.384014 0 0 -1
-0.0869922 -0.198172 0.397826 0 0 1
0.283345 0.189704 0 0 0 -1
-0.0692505 0.0978392 0.369032 0 0.341246 -0.939974
-0.247862 0.204532 0.397826 0 0 1
-0.332027 0.258757 0.397826 0 0 1
-0.268538 -0.0944894 0.397826 0 0 1
-0.183749 0.0159557 0.384014 0 0 -1
-0.0924132 0.0699873 0.397826 0 0 1
0.0818894 0.164263 0.384014 0 0 -1
-0.348817 -0.121367 0.384014 0 0 -1
-0.35353 0.0991805 0.397826 0 0 1
0.164324 0.214218 0.384014 0 0 -1
-0.280234 0.26116 0.384014 0 0 -1
-0.0216942 0.129392 0.384014 0 0 -1
0.29252 0.119651 0.397826 0 0 1
-0.126202 -0.271659 0.384014 0 0 -1
0.0102352 -0.0902701 0.37462 0 0 1
-0.14464 0.0340099 0.384014 0 0 -1
-0.233161 0.105655 0.384014 0 0 -1
0.20136 -0.0124376 0.384014 0 0 -1
0.010451 0.266068 0.397826 0 0 1
0.203284 -0.237771 0.384014 0 0 -1
0.0585182 -0.158494 0.397826 0 0 1
-0.0787881 0.253927 0.384014 0 0 -1
-0.135882 0.115991 0.397826 0 0 1
-0.296065 -0.0753509 0.323172 -0.966001 0.22659 -0.124499
-0.362398 0.250013 0.384014 0 0 -1
-0.322487 -0.0294909 0.397826 0 0 1
-0.0733152 0.0516665 0.397826 0 0 1
-0.185376 0.119999 0.397826 0 0 1
-0.314108 0.0793842 0.368889 0 -0.341424 -0.939909
0.0322373 0.12466 0.397826 0 0 1
0.170635 0.269493 0.384014 0 0 -1
-0.0466819 -0.0438151 0.384014 0 0 -1
0.341934 0.017576 0.397826 0 0 1
0.238502 -0.0766448 0.397826 0 0 1
0.207367 0.104583 0.384014 0 0 -1
0.0720722 0.0413442 0.397826 0 0 1
0.279172 -0.119522 0.248907 -0.965761 -0.227382 0.124915
0.17747 -0.209277 0.384014 0 0 -1
0.222085 0.0795784 0.365447 0 -1 0
-0.191235 -0.0849725 0.355861 0 -0.939918 -0.341401
0.175878 0.0473348 0.384014 0 0 -1
-0.349718 -0.232923 0.397826 0 0 1
0.279375 -0.15557 0.384014 0 0 -1
0.0709556 -0.0450542 0.397826 0 0 1
-0.0331356 -0.185453 0.384014 0 0 -1
0.333465 0.200117 0.397826 0 0 1
0.299177 0.0999537 0.360882 0 0.974443 0.224634
0.173077 -0.0648208 0.397826 0 0 1
0.125895 0.192839 0.397826 0 0 1
-0.212338 0.0443946 0.397826 0 0 1
0.191096 -0.163794 0.397826 0 0 1
0.284133 0.00311077 0.397826 0 0 1
0.239689 -0.0777079 0.362068 0 0.340985 0.940069
-0.0691326 0.23976 0.384014 0 0 -1
-0.120365 -0.129062 0.397826 0 0 1
0.294328 0.151403 0.174998 0.706845 -0.619953 -0.340629
-0.147586 0.00783917 0.397826 0 0 1
-0.308428 0.0809094 0.384014 0 0 -1
-0.140262 -0.150433 0.384014 0 0 -1
0.367398 0.118309 0.396458 0.991173 0 0.132572
0.150269 -0.0821676 0.397826 0 0 1
0.354389 -0.12717 0.384014 0 0 -1
0.32327 0.095612 0.37577 -5.42651e-06 0.707562 0.706651
0.177636 -0.238821 0.397826 0 0 1
-0.245803 -0.0794163 0.384014 0 0 -1
0.270242 -0.00168523 0.384014 0 0 -1
-0.0717311 0.085029 0.358043 0 0 1
0.115985 0.0755752 0.384014 0 0 -1
-0.000756025 0.254952 0.384014 0 0 -1
0.203889 -0.102594 0.397826 0 0 1
0.197279 -0.271301 0.397826 0 0 1
0.129998 -0.108216 0.397826 0 0 1
0.226075 -0.0839938 0.375145 0 0.939978 -0.341235
-0.21157 -0.0138729 0.397826 0 0 1
-0.286297 -0.117832 0.384014 0 0 -1
-0.0456621 -0.242225 0.397826 0 0 1
-0.162704 0.187033 0.384014 0 0 -1
-0.292584 0.0904928 0.282239 -0.707392 -0.619474 -0.340365
-0.26997 -0.197515 0 0 0 -1
-0.150111 -0.0734626 0.384014 0 0 -1
-0.00859571 0.0935445 0.384014 0 0 -1
-0.181811 0.248549 0.397826 0 0 1
0.240692 0.0156859 0.397826 0 0 1
-0.303852 0.227343 0.384014 0 0 -1
-0.262395 -0.0136297 0.384014 0 0 -1
-0.0330231 -0.122027 0.397826 0 0 1
0.105768 0.114147 0.384014 0 0 -1
-0.155353 -0.0808313 0.397826 0 0 1
0.150741 0.19811 0.384014 0 0 -1
-0.351044 0.276277 0.392194 0 1 0
-0.0274114 -0.253607 0.384014 0 0 -1
-0.0717728 0.08156 0.384014 0 0 -1
-0.106125 0.0982421 0.369178 0 0.341246 -0.939974
-0.176211 0.264578 0.397826 0 0 1
-0.00151023 -0.0399633 0.384014 0 0 -1
-0.30437 -0.261348 0.384014 0 0 -1
-0.140176 0.273137 0.397826 0 0 1
0.356731 0.0412845 0.384014 0 0 -1
0.0563555 -0.173949 0.384014 0 0 -1
0.338454 0.130676 0.384014 0 0 -1
-0.219875 -0.0589158 0.384014 0 0 -1
0.201607 0.249482 0.384014 0 0 -1
-0.320936 -0.245993 0.397826 0 0 1
0.255242 0.0926364 0.354453 0 -0.774151 -0.633001
0.283026 -0.0360738 0.384014 0 0 -1
0.123002 -0.146698 0.384014 0 0 -1
-0.267221 0.0602189 0.37232 0.524583 -0.572728 0.629917
-0.305219 -0.095785 0.357538 0 0.707421 0.706793
0.0787965 -0.209592 0.397826 0 0 1
0.0575824 -0.252036 0.397826 0 0 1
0.316732 0.190984 0.397826 0 0 1
