0.170408 -0.181871 0.461784 0 0 1
-0.212878 -0.197708 0.363026 -0.843447 0.522238 0.125955
0.0698412 0.159541 0.461784 0 0 1
-0.214093 0.0113783 0.445053 0 0 -1
0.277104 0.243398 0.445053 0 0 -1
-0.139666 -0.317433 0.461784 0 0 1
-0.324101 0.0545099 0.461784 0 0 1
-0.187485 0.279542 0.445053 0 0 -1
-0.183102 0.169546 0.421977 -0.0623672 -0.937245 -0.343048
-0.0187297 0.121075 0.461784 0 0 1
0.0761179 0.30194 0.461784 0 0 1
0.138435 0.0255856 0.461784 0 0 1
0.31011 -0.312703 0.00486515 0.203551 -0.265105 0.942489
-0.297318 -0.304691 0.0958125 0 -1 0
-0.248583 0.0610669 0.445053 0 0 -1
-0.247715 0.315618 0.455131 -0.59559 0.803289 0
0.263203 0.277419 0.194921 -0.52294 0.843075 0.125535
0.175034 -0.105514 0.461784 0 0 1
-0.0800301 -0.00819262 0.445053 0 0 -1
0.339278 0.0839546 0.445053 0 0 -1
0.0704954 -0.30999 0.461784 0 0 1
-0.151966 0.217278 0.445053 0 0 -1
-0.215927 0.0761111 0.445053 0 0 -1
0.343114 -0.0397343 0.445053 0 0 -1
-0.29896 -0.103795 0.445053 0 0 -1
-0.034444 0.0275157 0.461784 0 0 1
-0.309971 0.178145 0.445053 0 0 -1
-0.0126874 -0.128764 0.445053 0 0 -1
-0.125093 0.150587 0.445053 0 0 -1
0.172199 0.174062 0.461784 0 0 1
0.261252 0.058181 0.445053 0 0 -1
-0.164056 0.032663 0.445053 0 0 -1
0.262594 0.117446 0.445053 0 0 -1
0.296834 -0.250578 0.445053 0 0 -1
0.193575 -0.351567 0.452315 0.514108 -0.857726 0
0.132508 -0.328045 0.461784 0 0 1
-0.365323 -0.0485789 0.445053 0 0 -1
-0.107731 0.305213 0.445053 0 0 -1
-0.10221 0.0196914 0.445053 0 0 -1
0.0561657 -0.368694 0.461784 0 0 1
0.0814516 0.393055 0.447161 0.242994 0.970028 0
-0.274817 0.288665 0.160955 0.843277 0.522557 -0.125769
-0.274032 0.104247 0.461784 0 0 1
-0.0355585 -0.115458 0.445053 0 0 -1
0.30368 0.0278436 0.461784 0 0 1
-0.0793705 -0.274776 0.445053 0 0 -1
0.353579 0.103666 0.461784 0 0 1
0.0429164 0.0174987 0.461784 0 0 1
-0.330066 0.0096052 0.461784 0 0 1
-0.231851 -0.274448 0.461784 0 0 1
-0.250419 -0.257054 0.216675 0.779769 0.415227 -0.468558
0.201798 -0.187837 0.376208 0.522314 0.843407 -0.125904
0.286919 0.194918 0.461784 0 0 1
0.171723 0.324598 0.445053 0 0 -1
0.107923 -0.191071 0.461784 0 0 1
0.257492 -0.0148727 0.445053 0 0 -1
-0.0453135 -0.396665 0.445053 0 0 -1
0.154952 0.131466 0.445053 0 0 -1
0.0522807 -0.164347 0.445053 0 0 -1
-0.0434808 0.0630638 0.461784 0 0 1
0.00253816 0.155206 0.445053 0 0 -1
-0.379916 0.0225363 0.461784 0 0 1
0.156587 -0.272118 0.461784 0 0 1
-0.330821 -0.0225967 0.461784 0 0 1
0.230489 0.328167 0.460453 0.575633 0.776348 0.25677
-0.183937 0.148977 0.461784 0 0 1
0.317219 -0.183764 0.461784 0 0 1
-0.234142 0.15064 0.461784 0 0 1
-0.0625265 0.34364 0.445053 0 0 -1
-0.230732 0.21511 0.31541 -0.843034 -0.523015 0.125492
-0.171864 -0.166378 0.435014 0 0 -1
-0.295253 0.236356 0.445053 0 0 -1
0.0160685 0.36998 0.445053 0 0 -1
0.369301 0.140101 0.445053 0 0 -1
0.305874 0.317696 0.00416572 0.128022 0.308676 0.942512
-0.0360843 0.291611 0.445053 0 0 -1
0.367255 -0.0176487 0.461784 0 0 1
-0.339823 -0.0822714 0.461784 0 0 1
0.0382466 0.236377 0.445053 0 0 -1
-0.335264 -0.158623 0.461784 0 0 1
0.169158 0.0270169 0.445053 0 0 -1
0.119561 -0.364595 0.461784 0 0 1
-0.243509 -0.00237833 0.461784 0 0 1
-0.210594 -0.0478665 0.445053 0 0 -1
0.221004 -0.281783 0.445053 0 0 -1
0.165721 0.275806 0.461784 0 0 1
0.0957658 -0.106637 0.445053 0 0 -1
-0.277362 0.179974 0.461784 0 0 1
-0.296811 0.287913 0.0386574 -0.500677 -0.865634 0
-0.196896 0.208626 0.445053 0 0 -1
0.0542576 -0.0334499 0.445053 0 0 -1
0.365843 0.0344286 0.461784 0 0 1
0.283899 0.292857 0.127045 -0.987478 0.011031 -0.157371
-0.0565746 -0.0569643 0.445053 0 0 -1
0.114364 -0.252204 0.445053 0 0 -1
-0.160167 -0.338331 0.445053 0 0 -1
0.188653 0.309936 0.461784 0 0 1
-0.0358995 -0.313779 0.445053 0 0 -1
-0.183689 0.338953 0.461784 0 0 1
-0.0338194 0.228812 0.461784 0 0 1
0.18042 0.207408 0.441706 0 0 -1
0.219604 0.160757 0.445053 0 0 -1
-0.266961 -0.105989 0.461784 0 0 1
0.397111 0.00223104 0.461784 0 0 1
-0.250968 0.264122 0.218888 0.843277 0.522557 -0.125769
-0.212076 0.118085 0.461784 0 0 1
-0.19303 0.193307 0.461784 0 0 1
-0.132714 -0.0428614 0.461784 0 0 1
0.114094 -0.0273664 0.445053 0 0 -1
0.294306 0.300802 0.0352252 0 1 0
0.150895 0.184278 0.441706 0 0 -1
-0.0728426 0.179657 0.461784 0 0 1
-0.139184 0.253828 0.445053 0 0 -1
-0.307043 0.0921864 0.461784 0 0 1
0.00915495 -0.207328 0.461784 0 0 1
0.176908 -0.33049 0.461784 0 0 1
0.141672 -0.171358 0.461784 0 0 1
-0.213315 0.242414 0.461784 0 0 1
0.313121 0.190959 0.461784 0 0 1
0.0407177 0.278291 0.445053 0 0 -1
0.259217 -0.140185 0.445053 0 0 -1
0.108984 0.351837 0.461784 0 0 1
-0.249471 0.24128 0.276326 -0.781003 0.413187 0.468306
0.256907 -0.204324 0.461784 0 0 1
0.363694 0.0693787 0.461784 0 0 1
0.299745 -0.11854 0.445053 0 0 -1
-0.267052 -0.167968 0.461784 0 0 1
-0.0138061 -0.292077 0.461784 0 0 1
-0.305269 0.0434535 0.461784 0 0 1
0.198849 -0.1868 0.441706 0 0 -1
-0.220691 -0.300202 0.445053 0 0 -1
-0.197843 -0.235041 0.461784 0 0 1
0.175678 -0.0606012 0.461784 0 0 1
-0.182024 -0.1731 0.412012 -0.0624624 0.937254 -0.343008
0.0064382 0.0637827 0.461784 0 0 1
-0.117181 0.0915633 0.461784 0 0 1
0.252789 0.272687 0.445053 0 0 -1
0.204497 0.238032 0.461784 0 0 1
-0.343808 -0.0983763 0.445053 0 0 -1
-0.0366731 -0.35254 0.445053 0 0 -1
-0.267263 -0.00541535 0.461784 0 0 1
0.222518 -0.0509825 0.461784 0 0 1
0.241098 -0.114388 0.445053 0 0 -1
-0.184893 0.051831 0.445053 0 0 -1
-0.221845 -0.167049 0.443038 -0.991409 0.130798 0
0.0285237 -0.381749 0.445053 0 0 -1
-0.0942753 -0.189564 0.445053 0 0 -1
0.155445 -0.00950154 0.461784 0 0 1
0.0956492 0.304041 0.445053 0 0 -1
0.0809773 -0.354287 0.445053 0 0 -1
-0.294448 -0.138002 0.461784 0 0 1
-0.12315 -0.102164 0.461784 0 0 1
-0.11291 -0.258275 0.445053 0 0 -1
0.0923166 -0.172101 0.445053 0 0 -1
0.192808 0.0897663 0.461784 0 0 1
0.344456 -0.170447 0.461784 0 0 1
-0.00287944 0.290092 0.461784 0 0 1
-0.143056 0.0976538 0.445053 0 0 -1
-0.0687862 -0.328347 0.445053 0 0 -1
-0.0525579 -0.231238 0.445053 0 0 -1
-0.15952 -0.0554055 0.445053 0 0 -1
0.0393778 -0.0839703 0.461784 0 0 1
-0.0532195 -0.184279 0.461784 0 0 1
0.0810366 0.085257 0.461784 0 0 1
-0.189676 -0.0290491 0.445053 0 0 -1
0.367002 -0.0586586 0.445053 0 0 -1
0.0343851 0.334859 0.445053 0 0 -1
-0.271815 -0.285486 0.17662 0.523086 -0.842997 0.125445
-0.183259 0.320852 0.445053 0 0 -1
0.231199 -0.216337 0.30726 0.522118 0.843511 -0.126026
0.215712 -0.179032 0.461784 0 0 1
0.0226235 -0.237884 0.445053 0 0 -1
-0.258262 0.279831 0.461784 0 0 1
-0.193768 -0.121131 0.445053 0 0 -1
-0.132943 0.334195 0.461784 0 0 1
0.067442 -0.0560592 0.461784 0 0 1
-0.0685026 -0.134082 0.445053 0 0 -1
-0.203554 -0.217329 0.342609 0.843509 -0.52212 -0.126029
-0.177736 -0.0930229 0.461784 0 0 1
-0.202073 -0.192101 0.461784 0 0 1
-0.147409 -0.158941 0.461784 0 0 1
-0.239948 -0.121819 0.461784 0 0 1
0.184738 -0.272177 0.445053 0 0 -1
0.103626 -0.301035 0.445053 0 0 -1
0.287961 -0.271601 0.461784 0 0 1
-0.271577 -0.206317 0.445053 0 0 -1
-0.0551563 0.0104027 0.445053 0 0 -1
0.029271 -0.0263452 0.461784 0 0 1
0.189636 -0.126118 0.445053 0 0 -1
-0.297616 0.121383 0.445053 0 0 -1
-0.216164 0.173026 0.441706 0 0 -1
-0.103881 0.0556858 0.445053 0 0 -1
-0.235625 -0.0915827 0.461784 0 0 1
0.235013 0.113282 0.461784 0 0 1
-0.0308976 0.190826 0.445053 0 0 -1
-0.0395534 0.127539 0.445053 0 0 -1
0.039011 -0.230784 0.461784 0 0 1
0.0207229 0.204483 0.461784 0 0 1
0.0201527 -0.332936 0.445053 0 0 -1
-0.0853692 0.222824 0.461784 0 0 1
-0.261836 -0.0622575 0.445053 0 0 -1
0.0207507 0.163386 0.461784 0 0 1
-0.081409 0.121724 0.461784 0 0 1
0.123017 0.0499967 0.461784 0 0 1
-0.277476 0.0366958 0.445053 0 0 -1
-0.233775 -0.325953 0.45935 -0.59559 -0.803289 0
0.137641 0.34305 0.445053 0 0 -1
0.110456 0.21604 0.445053 0 0 -1
0.180547 0.0693881 0.461784 0 0 1
-0.372328 0.0695147 0.445053 0 0 -1
-0.10739 -0.297877 0.445053 0 0 -1
-0.366703 -0.162723 0.449638 -0.903954 -0.427629 0
0.0584995 -0.126775 0.445053 0 0 -1
0.0783079 -0.102906 0.461784 0 0 1
-0.195087 -0.210991 0.445053 0 0 -1
-0.00856872 -0.00830562 0.461784 0 0 1
0.293002 0.0982889 0.445053 0 0 -1
0.134347 -0.186867 0.441706 0 0 -1
0.275317 -0.0176705 0.461784 0 0 1
0.3169 0.244427 0.445398 0.568133 0.421299 -0.706917
-0.30436 -0.0793887 0.461784 0 0 1
0.160482 -0.137348 0.461784 0 0 1
-0.0506695 0.377798 0.445053 0 0 -1
0.228643 0.215167 0.328568 0.93722 -0.0621975 0.343147
0.29621 -0.0318749 0.445053 0 0 -1
0.192457 -0.0549852 0.445053 0 0 -1
0.272816 -0.0870081 0.461784 0 0 1
-0.0439744 -0.159968 0.445053 0 0 -1
0.193856 0.200482 0.360939 -0.779769 -0.415227 -0.468558
-0.0443957 -0.256459 0.461784 0 0 1
0.218544 -0.203574 0.340252 0.522118 0.843511 -0.126026
-0.353789 0.13885 0.445053 0 0 -1
-0.197725 -0.10043 0.445053 0 0 -1
0.235902 -0.0499325 0.445053 0 0 -1
0.0705351 0.368585 0.461784 0 0 1
0.0247914 -0.284771 0.445053 0 0 -1
-0.174934 0.100667 0.461784 0 0 1
-0.0726149 -0.03758 0.461784 0 0 1
0.0519266 0.129025 0.461784 0 0 1
0.0110478 0.0207453 0.461784 0 0 1
0.186026 -0.0151618 0.445053 0 0 -1
0.170037 0.0963779 0.445053 0 0 -1
0.17614 -0.208035 0.445053 0 0 -1
0.238904 -0.296017 0.461784 0 0 1
-0.160483 0.15045 0.441706 0 0 -1
-0.172741 0.257677 0.461784 0 0 1
-0.245394 -0.0359446 0.461784 0 0 1
-0.0916865 -0.358549 0.461784 0 0 1
0.194203 0.140123 0.441706 0 0 -1
0.114994 -0.121907 0.461784 0 0 1
0.271439 0.022233 0.445053 0 0 -1
0.0485138 0.0438544 0.445053 0 0 -1
0.258391 0.236418 0.461784 0 0 1
-0.261609 0.292846 0.445053 0 0 -1
-0.232248 -0.235206 0.445053 0 0 -1
0.282031 0.285666 0.455289 0.671698 0.740825 0
0.238394 -0.238225 0.445053 0 0 -1
-0.0888556 0.270924 0.461784 0 0 1
0.0555865 0.0773367 0.445053 0 0 -1
0.299162 -0.21112 0.445053 0 0 -1
0.20887 -0.311578 0.461784 0 0 1
-0.33593 -0.209716 0.461784 0 0 1
-0.106217 0.14773 0.461784 0 0 1
-0.143225 -0.216497 0.461784 0 0 1
-0.251177 -0.257414 0.445053 0 0 -1
-0.108606 -0.062408 0.461784 0 0 1
-0.242662 -0.110149 0.445053 0 0 -1
-0.195578 0.209895 0.366917 0.522121 0.843509 0.126026
-0.215776 0.0336963 0.461784 0 0 1
-0.0186987 0.370404 0.445053 0 0 -1
0.118023 0.170033 0.461784 0 0 1
0.015103 0.116194 0.461784 0 0 1
0.205433 0.283825 0.461784 0 0 1
0.377268 -0.13611 0.450191 0.941577 -0.336799 0
0.0835812 0.326365 0.461784 0 0 1
-0.359611 0.0977357 0.445053 0 0 -1
0.321047 -0.0873364 0.461784 0 0 1
0.139661 -0.352821 0.461784 0 0 1
0.195829 -0.19921 0.399726 0.41521 -0.779743 0.468616
-0.137222 -0.341224 0.461784 0 0 1
-0.02885 0.0947871 0.461784 0 0 1
0.201215 0.20957 0.461784 0 0 1
-0.243614 0.0905155 0.445053 0 0 -1
0.0837777 -0.284031 0.445053 0 0 -1
0.183689 0.174755 0.407791 0.0624624 -0.937254 -0.343008
-0.129282 0.12348 0.461784 0 0 1
0.0931936 -0.219793 0.461784 0 0 1
0.184782 0.2857 0.445053 0 0 -1
0.290675 0.0521041 0.461784 0 0 1
-0.0904129 -0.0809625 0.445053 0 0 -1
0.342979 0.207903 0.456695 0.857719 0.514119 0
0.145305 -0.101694 0.461784 0 0 1
-0.244917 0.201658 0.445053 0 0 -1
0.092813 -0.00079599 0.445053 0 0 -1
-0.243379 -0.211264 0.461784 0 0 1
-0.181206 0.209664 0.445053 0 0 -1
-0.142324 3.17767e-06 0.445053 0 0 -1
0.15806 -0.244936 0.461784 0 0 1
-0.0665958 -0.214396 0.461784 0 0 1
-0.401165 0.00785394 0.449824 -0.998795 0.049079 0
0.216722 0.14556 0.461784 0 0 1
-0.119143 0.0421188 0.461784 0 0 1
-0.273677 -0.301196 0.00537467 0.308609 -0.127994 0.942538
-0.140866 0.30113 0.445053 0 0 -1
0.214255 0.0239384 0.461784 0 0 1
0.101233 0.257872 0.461784 0 0 1
0.206972 -0.320882 0.445053 0 0 -1
0.339644 0.125021 0.445053 0 0 -1
-0.0739208 -0.0632245 0.461784 0 0 1
0.150352 0.240563 0.445053 0 0 -1
0.219455 -0.162385 0.445053 0 0 -1
-0.158422 -0.259629 0.445053 0 0 -1
-0.306207 0.199959 0.461784 0 0 1
-0.312689 0.30015 0.00671148 -0.308702 0.127984 0.942509
0.0653698 0.202659 0.461784 0 0 1
0.341886 -0.00633593 0.445053 0 0 -1
-0.0656547 -0.38691 0.461784 0 0 1
0.161479 -0.315681 0.461784 0 0 1
-0.386185 -0.0779701 0.445053 0 0 -1
-0.25153 0.161216 0.445053 0 0 -1
-0.284125 0.298285 0.142042 0.522927 0.843336 0.12382
0.246293 -0.258821 0.228213 -0.843172 -0.522755 -0.125651
0.0469054 -0.185393 0.461784 0 0 1
-0.163408 -0.000897728 0.461784 0 0 1
0.0864356 0.125083 0.461784 0 0 1
-0.129545 0.354304 0.445053 0 0 -1
-0.196413 -0.158741 0.441706 0 0 -1
0.279104 -0.147893 0.461784 0 0 1
0.257336 -0.220062 0.445053 0 0 -1
0.0615679 0.00948983 0.445053 0 0 -1
-0.278031 -0.0981941 0.445053 0 0 -1
-0.0643679 -0.160152 0.461784 0 0 1
-0.0860954 -0.11353 0.445053 0 0 -1
0.242846 0.2284 0.289611 0.843117 -0.522855 0.125602
0.0217263 0.0690893 0.445053 0 0 -1
-0.295721 -0.226282 0.445053 0 0 -1
0.119476 0.151329 0.445053 0 0 -1
0.0315413 -0.368095 0.461784 0 0 1
-0.193258 -0.00226973 0.461784 0 0 1
-0.212334 0.099751 0.445053 0 0 -1
0.289462 -0.0895497 0.445053 0 0 -1
-0.372957 -0.064031 0.461784 0 0 1
-0.25963 0.265318 0.445053 0 0 -1
0.302284 0.160427 0.461784 0 0 1
-0.12721 0.17582 0.461784 0 0 1
0.335231 -0.1531 0.445053 0 0 -1
0.0130613 -0.137804 0.445053 0 0 -1
0.00712024 -0.0488572 0.461784 0 0 1
-0.250481 0.0715106 0.461784 0 0 1
-0.290495 -0.299507 0.0228118 0.431011 -0.564457 0.704001
-0.0903676 0.0358766 0.461784 0 0 1
-0.0209825 -0.362972 0.461784 0 0 1
-0.160931 0.0691955 0.445053 0 0 -1
-0.187687 0.297366 0.461784 0 0 1
0.38233 -0.0659717 0.461784 0 0 1
-0.129597 0.21099 0.461784 0 0 1
0.100831 -0.0755459 0.445053 0 0 -1
0.144993 0.292056 0.445053 0 0 -1
-0.0540746 -0.117892 0.461784 0 0 1
0.295292 0.127869 0.445053 0 0 -1
0.101589 0.244567 0.445053 0 0 -1
-0.04566 0.202935 0.461784 0 0 1
-0.166799 -0.110878 0.445053 0 0 -1
-0.172712 -0.292905 0.445053 0 0 -1
0.19053 -0.156663 0.435487 0.608444 0.793597 0
-0.34988 -0.125703 0.445053 0 0 -1
0.341062 0.175851 0.445053 0 0 -1
-0.198799 -0.144791 0.461784 0 0 1
-0.108343 -0.220652 0.445053 0 0 -1
-0.0877518 -0.195535 0.461784 0 0 1
-0.00714794 -0.273998 0.461784 0 0 1
0.0701074 0.233251 0.445053 0 0 -1
0.341642 0.15082 0.461784 0 0 1
0.3557 -0.0972831 0.445053 0 0 -1
-0.0627132 0.247733 0.461784 0 0 1
0.0443409 0.0638216 0.461784 0 0 1
0.259425 -0.306162 0.459482 0.671698 -0.740825 0
0.0941325 0.0712434 0.445053 0 0 -1
0.291074 -0.231652 0.461784 0 0 1
-0.122235 -0.354134 0.445053 0 0 -1
0.115155 0.00958364 0.445053 0 0 -1
0.00444119 -0.162841 0.461784 0 0 1
-0.352705 0.191676 0.447581 -0.857719 0.514119 0
-0.192706 -0.189397 0.435014 0 0 -1
0.0891648 0.22858 0.461784 0 0 1
0.143963 -0.268194 0.445053 0 0 -1
-0.394256 0.0683214 0.461531 -0.255182 0.0378603 0.966152
-0.153386 0.188354 0.461784 0 0 1
0.258066 0.26665 0.230531 -0.0624865 0.937237 0.343047
-0.373654 -0.0288263 0.461784 0 0 1
-0.196453 0.142228 0.445053 0 0 -1
0.222945 -0.100919 0.461784 0 0 1
0.128858 -0.158532 0.445053 0 0 -1
-0.0406009 0.318871 0.445053 0 0 -1
0.235329 0.0469349 0.461784 0 0 1
0.0694646 -0.162711 0.461784 0 0 1
0.00689158 -0.0815601 0.461784 0 0 1
-0.310493 -0.0297934 0.461784 0 0 1
0.1862 0.11103 0.445053 0 0 -1
0.190735 0.0488804 0.445053 0 0 -1
-0.284673 0.294696 0.107405 1 0 0
-0.353459 -0.025871 0.445053 0 0 -1
-0.0189575 -0.327134 0.461784 0 0 1
0.344581 -0.066426 0.445053 0 0 -1
0.233533 0.179824 0.461784 0 0 1
-0.281206 0.254024 0.461784 0 0 1
0.105707 0.33022 0.445053 0 0 -1
0.0256923 0.278347 0.461784 0 0 1
0.324149 0.0696241 0.461784 0 0 1
-0.24369 0.24343 0.461784 0 0 1
-0.000616493 -0.117947 0.461784 0 0 1
-0.118401 -0.0398586 0.445053 0 0 -1
-0.365545 0.0568172 0.461784 0 0 1
0.00656228 0.399367 0.461745 0.012585 0.25565 0.966688
0.057416 -0.318334 0.445053 0 0 -1
0.0741537 -0.286225 0.461784 0 0 1
0.0946818 -0.336448 0.461784 0 0 1
0.147524 0.192562 0.461784 0 0 1
-0.228481 0.133359 0.445053 0 0 -1
-0.0567407 0.286363 0.461784 0 0 1
-0.0827643 -0.323716 0.461784 0 0 1
-0.174472 -0.138021 0.441706 0 0 -1
0.178607 0.259211 0.445053 0 0 -1
0.241344 0.137255 0.445053 0 0 -1
0.0501931 0.234622 0.461784 0 0 1
-0.305116 -0.281714 0.00755901 -0.203545 0.265111 0.942489
-0.0913158 -0.231774 0.461784 0 0 1
0.288541 -0.294446 0.0263714 -1 0 0
-0.213323 0.227736 0.321022 0.522121 0.843509 0.126026
-0.109692 -0.309283 0.461784 0 0 1
0.0194547 -0.215387 0.445053 0 0 -1
-0.177734 0.0288065 0.461784 0 0 1
0.0499238 -0.0728072 0.445053 0 0 -1
-0.0475397 0.260727 0.445053 0 0 -1
-0.175143 -0.0308417 0.461784 0 0 1
-0.071091 0.0652983 0.461784 0 0 1
0.160351 -0.185339 0.435014 0 0 -1
-0.215003 -0.120488 0.461784 0 0 1
0.0528107 0.296615 0.461784 0 0 1
-0.0515695 -0.367456 0.461784 0 0 1
0.121357 0.0583962 0.445053 0 0 -1
-0.330281 0.17488 0.461784 0 0 1
-0.140803 0.148902 0.461784 0 0 1
-0.322143 -0.0830849 0.445053 0 0 -1
-0.160199 -0.204643 0.441706 0 0 -1
0.159799 -0.0339564 0.461784 0 0 1
0.33011 -0.116759 0.445053 0 0 -1
-0.116964 -0.384116 0.451128 -0.336815 -0.941571 0
0.277639 -0.291274 0.162232 -0.522976 -0.843053 0.125532
-0.105382 0.206837 0.445053 0 0 -1
0.0184134 -0.396904 0.445053 0 0 -1
-0.00939859 0.0604791 0.445053 0 0 -1
-0.125711 -0.190508 0.445053 0 0 -1
-0.304743 0.148717 0.461784 0 0 1
0.275922 0.275616 0.00230018 -0.793113 -0.609074 0
-0.264759 -0.157879 0.445053 0 0 -1
-0.119321 0.240062 0.445053 0 0 -1
0.289229 -0.30297 0.097205 -0.500063 -0.865989 0
0.262114 -0.0410246 0.445053 0 0 -1
0.0966308 0.378215 0.445053 0 0 -1
-0.313089 -0.140035 0.445053 0 0 -1
0.252197 0.0151026 0.461784 0 0 1
0.0680977 -0.205676 0.461784 0 0 1
-0.217202 -0.23152 0.310057 0.843509 -0.52212 -0.126029
0.244545 0.164724 0.445053 0 0 -1
0.314869 0.00159595 0.445053 0 0 -1
-0.10773 0.29502 0.461784 0 0 1
-0.0884098 -0.143403 0.445053 0 0 -1
0.116796 0.100346 0.445053 0 0 -1
-0.195061 0.195659 0.406315 -0.415211 0.779743 0.468615
-0.142954 -0.123278 0.461784 0 0 1
-0.0271511 -0.3824 0.445053 0 0 -1
0.011546 0.22526 0.445053 0 0 -1
0.25128 -0.180798 0.445053 0 0 -1
0.120375 0.188733 0.445053 0 0 -1
-0.00695096 0.0118059 0.445053 0 0 -1
0.277697 0.291663 0.154316 -0.843369 0.522387 -0.125861
-0.013432 -0.156192 0.445053 0 0 -1
0.243709 -0.0810831 0.461784 0 0 1
-0.15449 -0.293321 0.461784 0 0 1
0.162783 0.0433417 0.461784 0 0 1
0.00773682 0.19467 0.445053 0 0 -1
-0.0196781 -0.0953943 0.461784 0 0 1
0.367629 0.0543922 0.445053 0 0 -1
-0.192281 -0.325988 0.445053 0 0 -1
-0.146972 -0.0240046 0.445053 0 0 -1
0.272887 0.286254 0.175932 -0.52294 0.843075 0.125535
-0.334043 -0.0363348 0.445053 0 0 -1
-0.00519665 -0.238989 0.445053 0 0 -1
-0.0464143 0.393355 0.461784 0 0 1
-0.31776 0.121466 0.461784 0 0 1
0.119296 -0.0907803 0.461784 0 0 1
0.195065 0.183064 0.435014 0 0 -1
-0.0123205 -0.193012 0.461784 0 0 1
0.364815 -0.0236935 0.445053 0 0 -1
-0.0394576 -0.0373823 0.461784 0 0 1
0.0933657 0.198563 0.461784 0 0 1
0.375229 0.0910494 0.445053 0 0 -1
0.110683 -0.241826 0.461784 0 0 1
-0.312014 0.252575 0.455212 -0.803289 0.59559 0
-0.0886678 0.2905 0.445053 0 0 -1
-0.000458294 0.264549 0.461784 0 0 1
0.176664 0.155968 0.445053 0 0 -1
0.279797 -0.212777 0.461784 0 0 1
-0.297847 -0.211885 0.461784 0 0 1
0.227922 0.239325 0.274659 -0.937245 0.0623671 -0.343049
-0.262645 0.151215 0.461784 0 0 1
0.00719236 0.258561 0.445053 0 0 -1
0.214331 0.199103 0.352496 0.522516 -0.843299 -0.125792
0.333207 -0.130244 0.461784 0 0 1
-0.19418 -0.25249 0.445053 0 0 -1
-0.0995001 0.164078 0.445053 0 0 -1
-0.308525 -0.256819 0.448635 -0.740825 -0.671698 0
-0.164366 0.283513 0.461784 0 0 1
0.137984 0.0826144 0.445053 0 0 -1
0.208892 0.198569 0.379503 0.93722 -0.0621975 0.343147
-0.11667 -0.123379 0.445053 0 0 -1
0.246631 -0.132498 0.461784 0 0 1
-0.316723 -0.208268 0.445053 0 0 -1
-0.0670463 0.362814 0.461784 0 0 1
-0.27818 0.202193 0.461784 0 0 1
-0.294375 -0.173475 0.461784 0 0 1
0.0804628 -0.122199 0.445053 0 0 -1
-0.358408 -0.101984 0.461784 0 0 1
0.395317 0.0683469 0.458163 0.989172 0.146762 0
0.203093 -0.251444 0.445053 0 0 -1
0.205189 0.194905 0.445053 0 0 -1
0.162345 0.341372 0.461784 0 0 1
0.173215 0.206432 0.461784 0 0 1
-0.350095 0.0251613 0.461784 0 0 1
0.0397028 0.00145933 0.445053 0 0 -1
-0.224688 0.061176 0.461784 0 0 1
-0.0584619 -0.303844 0.445053 0 0 -1
-0.00859411 0.311971 0.445053 0 0 -1
-0.0575297 0.074676 0.445053 0 0 -1
-0.103489 -0.0325199 0.461784 0 0 1
-0.343421 -0.145529 0.445053 0 0 -1
0.0513477 0.165836 0.461784 0 0 1
0.330185 0.0359457 0.461784 0 0 1
0.12781 0.262873 0.445053 0 0 -1
0.38062 0.0202147 0.445053 0 0 -1
0.0845865 0.18022 0.461784 0 0 1
0.0584079 0.393675 0.461784 0 0 1
0.184101 -0.19127 0.423064 -0.0623556 -0.93723 0.343092
-0.17703 0.125248 0.461784 0 0 1
0.111889 -0.385076 0.445981 0.171759 -0.685444 -0.707577
-0.00417461 0.180231 0.461784 0 0 1
-0.233578 0.244676 0.260118 0.937269 0.0627112 -0.342921
-0.1425 -0.1029 0.445053 0 0 -1
-0.0817677 -0.30444 0.445053 0 0 -1
0.334331 -0.211615 0.445053 0 0 -1
-0.190923 -0.190992 0.374228 0.780369 0.414279 -0.468399
-0.020257 0.244008 0.461784 0 0 1
-0.137833 0.364863 0.461784 0 0 1
0.171635 -0.0954119 0.445053 0 0 -1
-0.152565 -0.358769 0.445053 0 0 -1
0.00270249 -0.0316664 0.445053 0 0 -1
-0.292879 -0.240015 0.461784 0 0 1
0.138401 0.221893 0.445053 0 0 -1
-0.208021 -0.0621084 0.461784 0 0 1
0.0843542 -0.237206 0.445053 0 0 -1
-0.236749 0.278634 0.461784 0 0 1
-0.0545975 -0.268057 0.445053 0 0 -1
0.106912 -0.361708 0.445053 0 0 -1
-0.295285 -0.122601 0.445053 0 0 -1
-0.268608 0.255827 0.201794 -0.0623672 -0.937245 -0.343048
-0.238444 -0.241483 0.2504 0.780369 0.414279 -0.468399
0.0768076 -0.0316226 0.461784 0 0 1
0.210942 0.317738 0.445053 0 0 -1
0.0467371 -0.255954 0.461784 0 0 1
-0.334151 0.113546 0.445053 0 0 -1
0.209205 -0.277691 0.461784 0 0 1
0.160619 0.11182 0.461784 0 0 1
-0.165963 0.013017 0.445053 0 0 -1
-0.23921 -0.0455332 0.445053 0 0 -1
-0.278357 0.292659 0.00736178 0.331312 -0.0434765 0.942519
0.289204 -0.273915 0.162189 0.522314 0.843407 -0.125904
0.114247 -0.316605 0.461784 0 0 1
-0.326164 -0.176238 0.461784 0 0 1
0.134087 -0.301445 0.461784 0 0 1
0.0607452 0.184987 0.445053 0 0 -1
-0.284693 -0.291592 0.112259 1 0 0
-0.197822 -0.0739521 0.445053 0 0 -1
0.300909 -0.0368597 0.461784 0 0 1
0.0550471 0.372874 0.445053 0 0 -1
-0.207062 0.268267 0.461784 0 0 1
-0.264072 -0.147625 0.461784 0 0 1
-0.0326651 0.221556 0.445053 0 0 -1
0.0308022 -0.356913 0.445053 0 0 -1
-0.240909 -0.229162 0.269549 -0.0627219 0.937269 -0.342917
-0.000379777 0.129494 0.445053 0 0 -1
0.250989 0.245562 0.445053 0 0 -1
-0.0216396 0.0669469 0.461784 0 0 1
0.373103 -0.092865 0.461784 0 0 1
-0.0723739 0.204782 0.461784 0 0 1
0.169778 0.222248 0.443446 -0.130153 0.991494 0
-0.289651 -0.29692 0.0723542 0.864315 -0.499512 -0.0587221
0.21359 -0.037144 0.445053 0 0 -1
-0.14206 0.124009 0.445053 0 0 -1
0.239399 0.240834 0.249384 -0.780293 -0.414398 -0.468419
0.14382 0.000662587 0.445053 0 0 -1
0.236483 -0.194838 0.461784 0 0 1
-0.0570609 -0.110406 0.445053 0 0 -1
-0.0831136 -0.260106 0.461784 0 0 1
-0.347082 0.058169 0.445053 0 0 -1
-0.0591163 0.150803 0.445053 0 0 -1
-0.205275 -0.0228489 0.461784 0 0 1
-0.0940916 0.386539 0.461784 0 0 1
0.0617196 0.104866 0.461784 0 0 1
-0.121574 0.280532 0.445053 0 0 -1
-0.263681 0.0576515 0.461784 0 0 1
-0.0577845 0.132922 0.461784 0 0 1
-0.163008 0.19409 0.441335 0.608572 0.793498 0
-0.210903 0.196912 0.353185 -0.522314 -0.843407 -0.125904
-0.0464426 0.330831 0.461784 0 0 1
-0.0140852 -0.0341338 0.461784 0 0 1
0.234214 0.0976093 0.445053 0 0 -1
0.129086 -0.314038 0.445053 0 0 -1
0.266805 0.180467 0.461784 0 0 1
-0.162477 -0.226316 0.445053 0 0 -1
-0.0341442 -0.289234 0.445053 0 0 -1
0.310496 -0.249757 0.461784 0 0 1
0.199884 0.0271178 0.445053 0 0 -1
-0.263675 0.186404 0.445053 0 0 -1
0.0469238 -0.396373 0.461784 0 0 1
-0.0148211 -0.251428 0.461784 0 0 1
-0.0585765 0.299088 0.445053 0 0 -1
-0.268353 -0.0708068 0.461784 0 0 1
-0.0977665 0.233638 0.445053 0 0 -1
-0.0718935 0.0969406 0.445053 0 0 -1
0.186177 0.355608 0.451605 0.427629 0.903954 0
0.0428955 -0.145605 0.445053 0 0 -1
-0.207537 0.316496 0.461784 0 0 1
-0.0815201 0.332037 0.445053 0 0 -1
0.273148 -0.260229 0.445053 0 0 -1
0.142281 0.0643041 0.461784 0 0 1
0.274851 -0.172617 0.461784 0 0 1
0.283107 -0.0660376 0.445053 0 0 -1
0.255372 -0.106262 0.461784 0 0 1
-0.254194 -0.310814 0.448887 -0.59559 -0.803289 0
0.0588747 0.335446 0.461784 0 0 1
-0.146349 0.336915 0.445053 0 0 -1
-0.110095 -0.016075 0.445053 0 0 -1
-0.00436398 -0.285557 0.445053 0 0 -1
-0.183764 0.35675 0.453196 -0.42761 0.903964 0
0.36178 -0.0382707 0.461784 0 0 1
-0.225513 0.319124 0.445053 0 0 -1
0.0780759 0.151651 0.445053 0 0 -1
-0.155459 0.242642 0.461784 0 0 1
0.296044 0.288528 0.0586302 0 -1 0
0.290589 0.264947 0.445053 0 0 -1
0.340139 -0.195218 0.461784 0 0 1
0.0958423 0.28262 0.461784 0 0 1
-0.369322 -0.0872032 0.445053 0 0 -1
-0.34519 -0.0550024 0.445053 0 0 -1
0.315906 0.129828 0.461784 0 0 1
0.366362 -0.163445 0.45119 0.903954 -0.427629 0
-0.185276 -0.205807 0.461784 0 0 1
0.191674 0.258369 0.461784 0 0 1
0.310174 -0.287637 0.00741383 0.30864 0.127939 0.942536
-0.307784 0.00128371 0.461784 0 0 1
-0.23329 -0.21908 0.297329 -0.522516 0.843299 -0.125792
-0.29372 -0.278223 0.155517 -0.842991 0.523093 0.125462
0.173362 -0.248732 0.445053 0 0 -1
0.241979 -0.151432 0.445053 0 0 -1
-0.0963315 -0.0999472 0.461784 0 0 1
-0.328018 -0.0487963 0.461784 0 0 1
-0.0403099 0.306656 0.461784 0 0 1
-0.274779 -0.192015 0.461784 0 0 1
-0.0273748 -0.0687487 0.445053 0 0 -1
-0.369658 0.000616778 0.461784 0 0 1
0.221858 -0.235833 0.296537 -0.843343 -0.522435 -0.125836
0.275795 0.120477 0.461784 0 0 1
0.0339615 -0.20294 0.461784 0 0 1
-0.20301 -0.29647 0.461784 0 0 1
-0.296239 -0.0417165 0.445053 0 0 -1
0.268564 0.253812 0.211006 0.522479 -0.843319 -0.125813
-0.312754 0.274505 0.0016445 -0.608983 -0.793183 0
0.134148 -0.242584 0.445053 0 0 -1
-0.146777 -0.165719 0.441706 0 0 -1
0.257754 -0.252436 0.252667 0.780858 -0.41342 0.468343
0.136604 -0.198536 0.461784 0 0 1
0.294285 -0.284023 0.106171 0 1 0
-0.3562 0.145817 0.461784 0 0 1
-0.321749 0.153581 0.445053 0 0 -1
0.335461 0.00740591 0.461784 0 0 1
-0.287732 -0.0758559 0.445053 0 0 -1
0.155706 0.164288 0.435589 -0.793597 -0.608444 0
-0.105161 0.246209 0.461784 0 0 1
0.289502 0.285598 0.103835 -0.499905 -0.86608 0
-0.148198 -0.0232822 0.461784 0 0 1
0.144435 0.110032 0.445053 0 0 -1
0.0930174 0.0952321 0.445053 0 0 -1
0.103805 0.0258056 0.461784 0 0 1
-0.205764 0.228312 0.445053 0 0 -1
-0.0321574 -0.0610197 0.461784 0 0 1
0.124356 -0.0762791 0.445053 0 0 -1
-0.229221 -0.157858 0.461784 0 0 1
-0.257759 -0.1865 0.445053 0 0 -1
0.0313983 0.164545 0.445053 0 0 -1
-0.149608 0.0463021 0.461784 0 0 1
-0.319029 0.208924 0.445053 0 0 -1
0.204412 0.0658619 0.461784 0 0 1
0.0454718 -0.159904 0.461784 0 0 1
0.310398 -0.162804 0.461784 0 0 1
-0.206584 -0.34377 0.450423 -0.514119 -0.857719 0
-0.0251213 0.146887 0.445053 0 0 -1
0.229667 -0.0282156 0.461784 0 0 1
0.124074 -0.289614 0.445053 0 0 -1
0.172376 -0.0456645 0.445053 0 0 -1
-0.120997 0.332813 0.445053 0 0 -1
-0.00616872 0.229573 0.461784 0 0 1
-0.278001 -0.233047 0.445053 0 0 -1
0.398748 0.0291501 0.445223 0.25653 0.0126284 -0.966454
0.328912 0.109665 0.461784 0 0 1
0.0345916 0.143325 0.445053 0 0 -1
0.0212486 0.103102 0.445053 0 0 -1
-0.0315535 -0.206683 0.461784 0 0 1
0.233117 -0.267564 0.461784 0 0 1
-0.24166 -0.0218881 0.445053 0 0 -1
-0.125888 0.109151 0.445053 0 0 -1
-0.28144 -0.000748026 0.445053 0 0 -1
0.223786 -0.222759 0.461784 0 0 1
0.00429679 -0.327525 0.461784 0 0 1
0.106154 0.375372 0.461784 0 0 1
-0.250367 0.13466 0.445053 0 0 -1
-0.19909 0.119798 0.445053 0 0 -1
0.00472465 0.0340745 0.445053 0 0 -1
0.137257 0.0413973 0.445053 0 0 -1
-0.0370873 -0.279337 0.461784 0 0 1
0.117197 -0.343613 0.461784 0 0 1
-0.0340043 -0.24655 0.445053 0 0 -1
-0.170245 -0.259102 0.461784 0 0 1
0.206718 -0.147303 0.441706 0 0 -1
0.267084 -0.162324 0.445053 0 0 -1
-0.0933448 -0.00332272 0.461784 0 0 1
0.289888 0.20603 0.445053 0 0 -1
-0.168075 0.228641 0.445053 0 0 -1
-0.112696 0.345029 0.461784 0 0 1
-0.101127 -0.278483 0.445053 0 0 -1
-0.16214 0.265486 0.445053 0 0 -1
-0.131864 0.05004 0.445053 0 0 -1
0.0891111 -0.388125 0.445053 0 0 -1
0.0520542 0.274829 0.461784 0 0 1
-0.0936663 -0.247078 0.445053 0 0 -1
-0.116619 0.195934 0.461784 0 0 1
0.215523 -0.206498 0.362774 0.937219 0.0622079 0.343148
-0.255024 -0.280885 0.445053 0 0 -1
-0.163328 -0.363124 0.461784 0 0 1
-0.143138 -0.0691504 0.461784 0 0 1
-0.194263 0.19055 0.441079 -0.793517 0.608548 0
0.209554 0.108422 0.461784 0 0 1
0.200853 0.18748 0.39945 0.93722 -0.0621975 0.343147
0.136062 0.303372 0.461784 0 0 1
-0.2702 0.0840083 0.445053 0 0 -1
0.163143 -0.330492 0.445053 0 0 -1
-0.373911 0.145493 0.451297 -0.941585 0.336777 0
0.124907 -0.260025 0.461784 0 0 1
-0.213721 0.0914034 0.461784 0 0 1
0.362169 0.126471 0.461784 0 0 1
0.194916 -0.218246 0.442306 0.382596 -0.923916 0
-0.0790841 -0.172706 0.445053 0 0 -1
0.234853 0.280525 0.461784 0 0 1
-0.292945 0.288684 0.161997 -0.781003 0.413187 0.468306
0.341551 -0.0204317 0.461784 0 0 1
0.0262439 -0.25955 0.445053 0 0 -1
0.132767 0.1693 0.441706 0 0 -1
0.109627 0.297073 0.461784 0 0 1
0.00180245 0.375067 0.461784 0 0 1
0.140862 -0.139457 0.445053 0 0 -1
0.134385 -0.377884 0.453251 0.336799 -0.941577 0
-0.223075 0.172284 0.461784 0 0 1
-0.32276 -0.158163 0.445053 0 0 -1
0.189934 0.24184 0.445053 0 0 -1
0.0646164 0.134053 0.445053 0 0 -1
0.165211 0.0107061 0.461784 0 0 1
0.167257 0.188826 0.445053 0 0 -1
0.221951 0.184186 0.444882 0.99141 0.130793 0
0.10238 -0.018158 0.461784 0 0 1
-0.27769 0.131714 0.461784 0 0 1
0.127498 0.343541 0.461784 0 0 1
0.213467 0.0018204 0.461784 0 0 1
0.248521 0.25958 0.248109 -0.0624865 0.937237 0.343047
-0.114292 0.0744496 0.445053 0 0 -1
0.154524 -0.0787414 0.461784 0 0 1
0.0714956 0.0294647 0.445053 0 0 -1
0.32783 0.223461 0.461784 0 0 1
0.301519 0.175141 0.445053 0 0 -1
-0.312313 -0.228835 0.461784 0 0 1
-0.284379 0.0828334 0.461784 0 0 1
0.00468698 0.323083 0.461784 0 0 1
0.307701 -0.19149 0.445053 0 0 -1
0.281141 -0.142477 0.445053 0 0 -1
0.26487 0.0780159 0.461784 0 0 1
0.323069 -0.147996 0.461784 0 0 1
0.284572 0.230951 0.461784 0 0 1
-0.226489 -0.0464901 0.461784 0 0 1
0.193947 0.333714 0.445053 0 0 -1
-0.354896 -0.0157182 0.461784 0 0 1
0.244289 0.317985 0.446546 0.575151 0.775698 -0.259798
0.29548 0.016034 0.445053 0 0 -1
-0.125403 -0.327017 0.445053 0 0 -1
0.187468 -0.286167 0.461784 0 0 1
-0.246933 0.218633 0.461784 0 0 1
0.236763 0.0786032 0.461784 0 0 1
0.383716 0.0303455 0.461784 0 0 1
0.2622 0.292115 0.445053 0 0 -1
0.302083 0.296822 0.013869 0.922808 0.381724 0.052083
0.179067 -0.307228 0.461784 0 0 1
-0.262249 -0.275284 0.205289 0.523086 -0.842997 0.125445
-0.0524782 -0.20985 0.445053 0 0 -1
-0.191277 0.161019 0.445053 0 0 -1
-0.0439239 0.0503087 0.445053 0 0 -1
0.0372786 -0.117497 0.461784 0 0 1
0.389228 -0.0181227 0.461784 0 0 1
-0.280133 -0.25739 0.461784 0 0 1
0.179441 -0.142131 0.461784 0 0 1
-0.0653234 -0.249096 0.445053 0 0 -1
-0.00912526 -0.401101 0.447054 -0.0473704 -0.964528 -0.259696
0.19824 0.225611 0.445053 0 0 -1
-0.0718562 0.15623 0.461784 0 0 1
-0.214022 -0.226303 0.445053 0 0 -1
0.287186 -0.0465986 0.445053 0 0 -1
0.281442 -0.281868 0.143025 -0.782169 0.415889 -0.463947
0.0728908 -0.236518 0.461784 0 0 1
0.134961 -0.0492878 0.461784 0 0 1
0.0560286 0.24962 0.445053 0 0 -1
-0.197055 -0.210207 0.370738 0.522073 -0.843531 0.126077
-0.157977 0.175542 0.445053 0 0 -1
0.0798807 -0.379168 0.461784 0 0 1
0.300822 0.0430511 0.445053 0 0 -1
-0.138736 -0.194165 0.461784 0 0 1
0.0674203 0.291587 0.445053 0 0 -1
0.113514 -0.212472 0.461784 0 0 1
0.0735311 -0.340149 0.461784 0 0 1
0.0365399 -0.0446613 0.445053 0 0 -1
0.218432 -0.196408 0.442595 0.923757 -0.382979 0
-0.0656872 0.193196 0.445053 0 0 -1
-0.224791 0.211373 0.338342 -0.937216 -0.0621639 0.343165
0.180489 0.154327 0.461784 0 0 1
0.368367 -0.0810847 0.445053 0 0 -1
0.240118 0.155716 0.461784 0 0 1
-0.0827008 0.213091 0.445053 0 0 -1
-0.207089 -0.255434 0.461784 0 0 1
0.260524 0.190027 0.445053 0 0 -1
0.195432 -0.105601 0.445053 0 0 -1
0.0486033 -0.382165 0.445053 0 0 -1
0.159114 -0.199902 0.461784 0 0 1
-0.0203561 0.384385 0.461784 0 0 1
0.0556011 -0.0129472 0.445053 0 0 -1
-0.163063 -0.0462923 0.461784 0 0 1
-0.161886 0.10186 0.445053 0 0 -1
0.276456 -0.229331 0.445053 0 0 -1
-0.280019 0.167186 0.445053 0 0 -1
0.0215434 0.390769 0.445053 0 0 -1
0.279452 0.256218 0.461784 0 0 1
0.294657 -0.18194 0.461784 0 0 1
0.205357 0.295933 0.445053 0 0 -1
0.298053 0.0747097 0.461784 0 0 1
0.0589747 -0.0921451 0.461784 0 0 1
-0.386596 -0.00674399 0.445053 0 0 -1
0.241421 0.226075 0.445053 0 0 -1
-0.172068 -0.18879 0.435014 0 0 -1
-0.115098 0.0205826 0.461784 0 0 1
0.245858 -0.00926961 0.461784 0 0 1
0.00260621 0.0424521 0.461784 0 0 1
0.0897493 0.348283 0.461784 0 0 1
-0.258828 -0.265089 0.234271 -0.413422 -0.780857 0.468342
-0.0884014 0.190543 0.445053 0 0 -1
-0.210434 -0.211347 0.461784 0 0 1
-0.270677 0.0217362 0.461784 0 0 1
-0.286651 0.190809 0.445053 0 0 -1
-0.242566 -0.249605 0.274278 0.062514 -0.93724 0.343036
-0.104553 0.0933577 0.445053 0 0 -1
-0.0482273 -0.0267497 0.445053 0 0 -1
-0.0297779 0.352387 0.445053 0 0 -1
-0.294115 0.300802 0.0546148 0 1 0
0.0921986 -0.283221 0.461784 0 0 1
-0.0397331 -0.301742 0.461784 0 0 1
0.207304 0.21535 0.32663 -0.937283 0.0628799 -0.342852
0.117828 -0.107836 0.445053 0 0 -1
-0.0102767 0.243824 0.445053 0 0 -1
0.292947 -0.00893265 0.445053 0 0 -1
0.187831 -0.181051 0.39294 -0.415225 0.779771 -0.468556
0.20629 -0.219756 0.345299 -0.522267 -0.843431 0.125941
-0.240583 0.237154 0.294783 -0.779769 0.415141 0.468634
0.0993972 -0.152454 0.445053 0 0 -1
0.00223794 -0.0603081 0.445053 0 0 -1
0.129822 -0.338094 0.445053 0 0 -1
-0.350445 0.175248 0.461784 0 0 1
-0.155062 -0.305726 0.445053 0 0 -1
-0.0322954 0.00137144 0.461784 0 0 1
0.0862641 -0.315743 0.445053 0 0 -1
-0.340981 0.169767 0.445053 0 0 -1
0.235531 0.221073 0.308218 0.843117 -0.522855 0.125602
-0.295677 0.0311795 0.445053 0 0 -1
0.257853 -0.271595 0.21196 -0.522976 -0.843053 0.125532
-0.0092348 0.151642 0.461784 0 0 1
-0.231289 0.111156 0.445053 0 0 -1
-0.277847 -0.0338678 0.461784 0 0 1
0.184516 0.0382993 0.461784 0 0 1
-0.0690102 -0.00279123 0.461784 0 0 1
0.0266943 0.0824844 0.461784 0 0 1
-0.322364 -0.0966594 0.461784 0 0 1
0.0412486 0.10642 0.445053 0 0 -1
-0.0630265 -0.338101 0.461784 0 0 1
0.178706 0.13145 0.441706 0 0 -1
0.323803 -0.0572782 0.461784 0 0 1
-0.254922 -0.0938935 0.445053 0 0 -1
0.174874 -0.170678 0.435014 0 0 -1
0.0439664 -0.238066 0.445053 0 0 -1
-0.388432 -0.0792668 0.461784 0 0 1
0.020949 -0.0972897 0.461784 0 0 1
-0.0815626 0.0723341 0.445053 0 0 -1
-0.328265 0.103047 0.461784 0 0 1
-0.234204 0.0100807 0.445053 0 0 -1
0.022892 -0.195283 0.445053 0 0 -1
-0.0554232 0.0462906 0.461784 0 0 1
-0.100688 -0.372428 0.445053 0 0 -1
-0.285066 -0.27 0.179377 -0.842991 0.523093 0.125462
-0.183115 -0.112877 0.461784 0 0 1
-0.0551678 -0.0762079 0.445053 0 0 -1
0.0847744 0.00935297 0.461784 0 0 1
-0.375603 0.110636 0.445053 0 0 -1
-0.0921794 0.356198 0.461784 0 0 1
0.219241 -0.304416 0.445053 0 0 -1
0.255925 0.210845 0.461784 0 0 1
0.0889738 0.145402 0.461784 0 0 1
0.155979 0.208384 0.441706 0 0 -1
0.142064 -0.210667 0.445053 0 0 -1
-0.224676 -0.0592047 0.445053 0 0 -1
-0.187936 0.0805764 0.445053 0 0 -1
-0.111782 -0.099247 0.445053 0 0 -1
-0.351475 -0.0810468 0.445053 0 0 -1
-0.162666 0.295097 0.445053 0 0 -1
0.273247 -0.125389 0.445053 0 0 -1
-0.231978 0.297699 0.445053 0 0 -1
0.112937 0.19792 0.461784 0 0 1
0.0818803 0.173269 0.445053 0 0 -1
-0.349055 0.00364879 0.461784 0 0 1
-0.196269 0.0388555 0.461784 0 0 1
-0.248208 0.165312 0.461784 0 0 1
-0.242461 -0.0762546 0.445053 0 0 -1
0.101144 0.0620936 0.461784 0 0 1
0.234362 0.135509 0.461784 0 0 1
-0.380729 -0.109207 0.445053 0 0 -1
-0.173814 -0.272638 0.445053 0 0 -1
-0.0749051 -0.116085 0.461784 0 0 1
-0.242997 -0.16702 0.445053 0 0 -1
-0.0357023 -0.338583 0.461784 0 0 1
0.344148 -0.0511326 0.461784 0 0 1
0.146796 0.269951 0.445053 0 0 -1
-0.345544 0.114255 0.461784 0 0 1
-0.199775 0.134192 0.461784 0 0 1
0.000631175 -0.229248 0.461784 0 0 1
0.165866 -0.0139612 0.445053 0 0 -1
-0.0539266 0.226699 0.461784 0 0 1
-0.268905 0.254209 0.221923 -0.843034 -0.523015 0.125492
-0.0789337 0.233508 0.445053 0 0 -1
0.200036 -0.000616081 0.445053 0 0 -1
0.32603 -0.0289637 0.445053 0 0 -1
-0.0762321 -0.211084 0.445053 0 0 -1
0.185483 0.222623 0.461784 0 0 1
-0.174505 -0.334299 0.461784 0 0 1
0.183123 0.331043 0.461784 0 0 1
-0.213034 0.19134 0.461784 0 0 1
0.0158095 0.327195 0.445053 0 0 -1
0.0118565 -0.372357 0.445053 0 0 -1
-0.258003 0.201865 0.461784 0 0 1
0.287221 0.0720072 0.445053 0 0 -1
-0.162086 -0.0797354 0.445053 0 0 -1
-0.0353315 -0.0911535 0.445053 0 0 -1
0.218051 -0.336897 0.454397 0.514108 -0.857726 0
-0.0571898 -0.241249 0.461784 0 0 1
0.118896 -0.0373259 0.461784 0 0 1
0.233163 0.268757 0.445053 0 0 -1
-0.157012 0.13595 0.461784 0 0 1
0.261806 0.0933866 0.445053 0 0 -1
0.338704 0.18657 0.461784 0 0 1
0.0242889 0.289711 0.445053 0 0 -1
0.376448 -0.0994003 0.445053 0 0 -1
-0.0471935 0.107881 0.445053 0 0 -1
-0.323257 0.0436124 0.445053 0 0 -1
-0.283443 0.27654 0.149295 0.414225 -0.780404 -0.468388
-0.0118741 -0.205956 0.445053 0 0 -1
-0.188983 -0.0765167 0.461784 0 0 1
0.240213 -0.276415 0.445053 0 0 -1
0.120911 0.0286775 0.445053 0 0 -1
-0.0416696 -0.225118 0.461784 0 0 1
0.319632 0.0364706 0.445053 0 0 -1
-0.320774 0.00745141 0.445053 0 0 -1
-0.187985 -0.230642 0.445053 0 0 -1
0.268272 -0.289287 0.461784 0 0 1
0.0266386 0.368033 0.461784 0 0 1
-0.241062 0.0330888 0.445053 0 0 -1
0.377405 -0.000174438 0.461784 0 0 1
-0.224995 -0.0926543 0.445053 0 0 -1
0.208708 -0.0853629 0.461784 0 0 1
-0.134827 0.377696 0.446954 -0.325397 0.909652 -0.258166
0.214486 0.241675 0.445053 0 0 -1
0.196847 0.169293 0.445053 0 0 -1
0.350483 0.15672 0.445053 0 0 -1
0.282047 -0.269823 0.192559 0.937239 0.0624785 0.343044
-0.320048 -0.0224623 0.445053 0 0 -1
0.265363 -0.102809 0.445053 0 0 -1
-0.108559 0.186659 0.445053 0 0 -1
-0.303327 0.0794751 0.445053 0 0 -1
-0.311874 0.107697 0.445053 0 0 -1
0.248262 -0.314974 0.446348 0.575222 -0.775644 -0.259799
0.261863 -0.2594 0.196938 -0.414163 0.780442 -0.468379
0.110398 -0.180857 0.445053 0 0 -1
-0.328516 0.0823021 0.461784 0 0 1
-0.208996 -0.183154 0.441706 0 0 -1
-0.296635 -0.304547 0.120039 -0.00153362 -0.998946 0.0458819
-0.303426 0.30049 0.109513 -0.866003 0.500038 0
-0.135489 -0.275694 0.461784 0 0 1
-0.293681 0.0603931 0.461784 0 0 1
0.120807 0.352907 0.445053 0 0 -1
-0.0269442 -0.335428 0.445053 0 0 -1
0.13767 -0.125215 0.461784 0 0 1
-0.0356338 0.0172707 0.445053 0 0 -1
0.0185951 0.18292 0.461784 0 0 1
0.179648 0.186765 0.434502 -0.0625246 0.93724 0.343033
-0.244915 0.296483 0.461784 0 0 1
0.0899544 -0.268602 0.445053 0 0 -1
-0.324037 -0.136796 0.461784 0 0 1
0.10147 -0.227636 0.445053 0 0 -1
0.0303169 -0.331843 0.461784 0 0 1
-0.325636 -0.107013 0.445053 0 0 -1
-0.280405 -0.120245 0.461784 0 0 1
-0.246745 -0.22203 0.445053 0 0 -1
-0.11804 0.270978 0.461784 0 0 1
-0.249888 -0.158536 0.461784 0 0 1
-0.273816 0.221285 0.461784 0 0 1
-0.196849 0.174099 0.461784 0 0 1
0.029339 0.253472 0.445053 0 0 -1
0.241387 -0.24627 0.281055 0.41521 -0.779743 0.468616
0.275026 -0.30771 0.00478492 -0.265094 -0.20358 0.942486
-0.0660329 0.169087 0.445053 0 0 -1
0.0417761 -0.28948 0.461784 0 0 1
-0.0274666 -0.170721 0.445053 0 0 -1
-0.0497377 0.0851468 0.461784 0 0 1
0.298413 0.285707 0.150785 0.93873 -0.0609115 0.339228
-0.0335254 -0.05063 0.445053 0 0 -1
0.308313 0.238353 0.461784 0 0 1
0.358708 0.0370853 0.445053 0 0 -1
-0.198799 -0.0118518 0.445053 0 0 -1
0.190701 -0.333738 0.445053 0 0 -1
0.271633 0.266836 0.175893 -0.414336 -0.780322 -0.468426
-0.144871 -0.190365 0.441706 0 0 -1
-0.310846 0.168267 0.461784 0 0 1
0.330791 -0.0891671 0.445053 0 0 -1
0.0672628 -0.153199 0.445053 0 0 -1
0.381067 0.124759 0.446143 0.909841 0.325427 -0.257463
0.351058 0.0175975 0.461784 0 0 1
0.391128 -0.061859 0.445053 0 0 -1
-0.24474 0.248201 0.233949 0.780362 -0.414272 -0.468416
-0.290191 0.0111276 0.461784 0 0 1
-0.234865 -0.244511 0.461784 0 0 1
0.0352643 0.21722 0.461784 0 0 1
-0.178891 -0.0486029 0.445053 0 0 -1
-0.0321568 0.27966 0.461784 0 0 1
0.174277 -0.114413 0.445053 0 0 -1
-0.105335 -0.270382 0.461784 0 0 1
0.0928822 -0.162509 0.461784 0 0 1
-0.218274 -0.181636 0.461784 0 0 1
-0.0651026 -0.310747 0.461784 0 0 1
-0.178177 0.175615 0.445053 0 0 -1
0.233415 -0.25804 0.445053 0 0 -1
0.200145 -0.288022 0.445053 0 0 -1
-0.179422 0.145974 0.441706 0 0 -1
-0.0793739 -0.373431 0.461784 0 0 1
0.0580668 -0.0546656 0.445053 0 0 -1
0.0163141 -0.0805718 0.445053 0 0 -1
0.137103 0.364209 0.445053 0 0 -1
0.26328 -0.197355 0.445053 0 0 -1
0.280421 -0.280397 0.445053 0 0 -1
0.0455717 0.393754 0.445053 0 0 -1
0.110084 0.151541 0.461784 0 0 1
0.304842 -0.297366 0.122239 0.864317 -0.499064 0.0623812
0.288919 0.30925 0.00758034 -0.127974 0.30861 0.94254
0.0729709 0.0645866 0.445053 0 0 -1
-0.332708 -0.19204 0.445053 0 0 -1
-0.388102 0.0961172 0.445257 -0.249909 0.0625967 -0.966244
-0.0102343 0.187316 0.445053 0 0 -1
0.204493 0.0404011 0.461784 0 0 1
0.125054 0.237918 0.445053 0 0 -1
-0.133979 -0.172585 0.461784 0 0 1
0.0561657 -0.107818 0.445053 0 0 -1
0.31355 0.112805 0.445053 0 0 -1
0.274147 -0.0679752 0.461784 0 0 1
0.271808 0.271279 0.445053 0 0 -1
-0.151769 0.267712 0.461784 0 0 1
-0.369957 -0.12787 0.445053 0 0 -1
0.0867605 -0.0629337 0.445053 0 0 -1
0.302511 -0.199008 0.461784 0 0 1
-0.286291 -0.28974 0.0915543 0.859633 0.497246 -0.117375
-0.252344 -0.0604491 0.461784 0 0 1
0.208284 0.309013 0.461784 0 0 1
0.177224 -0.017536 0.461784 0 0 1
0.011791 -0.274155 0.461784 0 0 1
-0.127146 -0.211401 0.445053 0 0 -1
-0.288081 -0.0882255 0.461784 0 0 1
-0.250193 0.255089 0.258579 -0.415211 0.779743 0.468615
0.261322 0.275565 0.461784 0 0 1
0.353558 0.190254 0.448055 0.857719 0.514119 0
-0.260056 -0.273454 0.461784 0 0 1
0.2209 0.231761 0.319082 -0.0624865 0.937237 0.343047
0.14019 0.202343 0.445053 0 0 -1
0.173619 -0.349163 0.461784 0 0 1
0.0396787 0.35306 0.445053 0 0 -1
-0.239376 -0.297112 0.445053 0 0 -1
-0.0950261 0.317527 0.461784 0 0 1
-0.210751 -0.207972 0.327807 0.415285 0.779743 -0.468549
-0.0213712 0.0994764 0.445053 0 0 -1
-0.221601 0.00675903 0.461784 0 0 1
-0.0558114 0.0191506 0.461784 0 0 1
-0.241749 0.177714 0.445053 0 0 -1
-0.267537 -0.248006 0.445053 0 0 -1
0.0593178 -0.222353 0.461784 0 0 1
-0.18722 0.19729 0.378158 0.937253 0.0624623 -0.343008
0.100557 -0.0888416 0.461784 0 0 1
-0.315237 -0.180396 0.445053 0 0 -1
-0.336234 0.134772 0.445053 0 0 -1
-0.390742 -0.0361839 0.445053 0 0 -1
0.219993 0.0302866 0.445053 0 0 -1
0.0185235 -0.388353 0.461784 0 0 1
-0.282059 -0.150576 0.445053 0 0 -1
-0.0515795 -0.341122 0.445053 0 0 -1
0.0806952 0.255427 0.445053 0 0 -1
-0.309685 0.234362 0.461784 0 0 1
-0.367762 -0.0830527 0.461784 0 0 1
0.0376994 0.191679 0.461784 0 0 1
0.27589 -0.192318 0.461784 0 0 1
-0.30921 -0.161375 0.461784 0 0 1
0.352724 -0.166051 0.445053 0 0 -1
-0.341621 -0.127435 0.461784 0 0 1
-0.200622 -0.108481 0.461784 0 0 1
-0.285886 -0.286431 0.00902007 0.265084 0.203573 0.94249
0.172027 0.0480208 0.445053 0 0 -1
-0.337763 0.0417101 0.461784 0 0 1
0.042986 0.325548 0.461784 0 0 1
-0.168517 0.30176 0.461784 0 0 1
-0.175284 -0.210509 0.445053 0 0 -1
0.27797 0.268095 0.203438 0.937233 -0.0624119 0.343073
-0.293461 0.304348 0.124857 -0.00145039 0.998989 0.0449431
-0.119831 -0.235393 0.445053 0 0 -1
0.168062 -0.0638451 0.445053 0 0 -1
-0.136776 0.242549 0.461784 0 0 1
0.38482 0.0470978 0.445053 0 0 -1
-0.286605 0.0430704 0.461784 0 0 1
-0.116189 0.382814 0.445191 -0.0866514 0.242127 -0.966367
0.243936 0.117798 0.445053 0 0 -1
0.332952 -0.101706 0.461784 0 0 1
-0.167127 0.247506 0.445053 0 0 -1
-0.272955 0.263391 0.181915 -0.0628695 -0.937282 -0.342856
0.0386568 -0.185686 0.445053 0 0 -1
0.0996722 0.0999257 0.461784 0 0 1
0.0245646 0.0614824 0.461784 0 0 1
-0.159557 -0.243884 0.461784 0 0 1
-0.158188 0.155814 0.461784 0 0 1
-0.105789 -0.19307 0.461784 0 0 1
0.298402 0.209536 0.461784 0 0 1
-0.0160021 -0.0115023 0.445053 0 0 -1
-0.230835 0.3252 0.461784 0 0 1
0.145887 -0.153291 0.461784 0 0 1
0.27299 0.162968 0.461784 0 0 1
0.0667959 0.0155765 0.461784 0 0 1
-0.00246599 -0.306762 0.461784 0 0 1
0.0376497 -0.0252116 0.445053 0 0 -1
-0.102954 0.364668 0.445053 0 0 -1
-0.0545127 0.264458 0.461784 0 0 1
-0.0460476 -0.385117 0.461784 0 0 1
-0.0964632 0.0710128 0.461784 0 0 1
0.196574 -0.122363 0.461784 0 0 1
-0.133126 -0.377262 0.445319 -0.0872103 -0.243689 -0.965925
-0.230506 0.244747 0.278352 0.522121 0.843509 0.126026
0.0773787 0.281837 0.461784 0 0 1
0.102198 0.323207 0.461784 0 0 1
0.259391 -0.148001 0.461784 0 0 1
0.274648 0.142695 0.445053 0 0 -1
-0.23994 0.0447084 0.461784 0 0 1
0.251503 0.190795 0.461784 0 0 1
-0.228701 -0.125729 0.445053 0 0 -1
-0.212504 0.145367 0.442484 -0.793111 -0.609077 0
0.233987 0.0122206 0.461784 0 0 1
0.154653 -0.118057 0.461784 0 0 1
-0.28846 0.232702 0.461784 0 0 1
0.205188 -0.205076 0.381675 0.413792 -0.780607 0.468432
-0.353243 -0.165867 0.461784 0 0 1
-0.150647 0.0983162 0.461784 0 0 1
-0.0839718 0.114568 0.445053 0 0 -1
0.168751 -0.284319 0.461784 0 0 1
-0.296019 0.130913 0.461784 0 0 1
-0.0718465 -0.159445 0.445053 0 0 -1
0.335656 -0.179032 0.445053 0 0 -1
0.350525 -0.118028 0.445053 0 0 -1
0.344113 0.0478627 0.461784 0 0 1
0.203896 0.100909 0.445053 0 0 -1
0.107724 -0.123671 0.445053 0 0 -1
0.171689 0.256422 0.461784 0 0 1
0.152009 0.289534 0.461784 0 0 1
-0.072736 -0.140186 0.461784 0 0 1
0.136764 -0.359646 0.445053 0 0 -1
-0.259211 0.0356561 0.445053 0 0 -1
0.221326 -0.155233 0.461784 0 0 1
-0.213326 -0.226356 0.33007 0.522073 -0.843531 0.126077
0.216455 -0.0551319 0.445053 0 0 -1
0.371586 0.0722272 0.445053 0 0 -1
0.0408479 0.0245337 0.445053 0 0 -1
0.0857314 0.378716 0.461784 0 0 1
0.241435 0.263496 0.461784 0 0 1
-0.121925 0.157151 0.461784 0 0 1
0.0222833 -0.222075 0.461784 0 0 1
0.201163 -0.168304 0.441706 0 0 -1
-0.174682 0.343975 0.445053 0 0 -1
-0.153389 0.335374 0.461784 0 0 1
-0.272787 0.111295 0.445053 0 0 -1
0.259234 0.138217 0.445053 0 0 -1
-0.250123 0.11243 0.445053 0 0 -1
0.382355 0.091095 0.461784 0 0 1
-0.243999 -0.26092 0.461784 0 0 1
0.0774586 0.366971 0.445053 0 0 -1
-0.23723 0.0873985 0.461784 0 0 1
-0.0136578 0.163415 0.445053 0 0 -1
0.214179 0.193827 0.461784 0 0 1
-0.332765 -0.173796 0.445053 0 0 -1
0.169842 -0.360542 0.445053 0 0 -1
-0.0212816 -0.302037 0.445053 0 0 -1
0.182185 0.00262614 0.445053 0 0 -1
-0.00849198 0.0794477 0.461784 0 0 1
0.144181 0.00764642 0.461784 0 0 1
-0.160176 -0.146075 0.461784 0 0 1
0.0895446 0.321104 0.445053 0 0 -1
0.357113 -0.00265382 0.461784 0 0 1
-0.226877 -0.0081864 0.445053 0 0 -1
-0.151014 -0.266365 0.461784 0 0 1
-0.196725 0.341718 0.445053 0 0 -1
-0.178144 0.0107052 0.461784 0 0 1
-0.136816 -0.00648367 0.461784 0 0 1
0.253971 0.264084 0.207991 -0.937283 0.0628799 -0.342852
0.193272 -0.0359206 0.445053 0 0 -1
0.279211 -0.205524 0.445053 0 0 -1
0.321291 -0.233634 0.445053 0 0 -1
0.0329453 0.000202405 0.461784 0 0 1
-0.361494 -0.144895 0.445053 0 0 -1
0.181333 -0.0772164 0.461784 0 0 1
-0.10361 -0.0577662 0.445053 0 0 -1
0.0331431 -0.087136 0.445053 0 0 -1
-0.0460705 0.0320139 0.445053 0 0 -1
0.0175658 0.131404 0.445053 0 0 -1
0.10106 0.111386 0.445053 0 0 -1
-0.206456 -0.314823 0.445053 0 0 -1
-0.225793 -0.304617 0.461784 0 0 1
0.0381362 -0.331513 0.445053 0 0 -1
0.293696 0.176282 0.461784 0 0 1
-0.144366 0.279923 0.445053 0 0 -1
-0.153992 0.0512856 0.445053 0 0 -1
-0.0325432 -0.109547 0.461784 0 0 1
0.00344333 -0.135466 0.461784 0 0 1
0.234667 -0.13118 0.445053 0 0 -1
0.263893 -0.00378538 0.461784 0 0 1
-0.11313 0.0394503 0.445053 0 0 -1
0.126762 0.287991 0.461784 0 0 1
0.0350635 -0.350473 0.461784 0 0 1
0.103162 0.348838 0.445053 0 0 -1
-0.148066 0.212033 0.461784 0 0 1
0.160413 0.282859 0.445053 0 0 -1
-0.111279 -0.00417345 0.461784 0 0 1
-0.305637 0.316524 0.0045819 -0.127974 0.30861 0.94254
-0.129962 -0.263892 0.445053 0 0 -1
-0.266936 0.29827 0.461313 -0.475082 0.524078 0.706852
0.0894481 0.281594 0.445053 0 0 -1
-0.144917 -0.0449849 0.445053 0 0 -1
0.357297 0.0913237 0.445053 0 0 -1
-0.311109 0.0668664 0.461784 0 0 1
-0.0220338 0.196241 0.461784 0 0 1
0.091335 0.189689 0.445053 0 0 -1
0.140851 -0.0305032 0.461784 0 0 1
0.187811 0.187413 0.382579 -0.780293 -0.414398 -0.468419
-0.0973937 0.33526 0.461784 0 0 1
-0.14829 0.0163308 0.445053 0 0 -1
0.0797573 0.040568 0.461784 0 0 1
-0.343395 0.0632808 0.461784 0 0 1
