-0.0481069 -0.26178 0.461784 0 0 1
0.152042 -0.053768 0.445053 0 0 -1
0.35617 -0.183532 0.461137 0.640072 -0.302715 0.706167
0.207943 -0.327701 0.445053 0 0 -1
-0.0385858 -0.0619326 0.445053 0 0 -1
0.127693 0.358326 0.461784 0 0 1
-0.27996 -0.314961 0.00424244 0.203593 -0.265064 0.942492
0.229481 0.222395 0.326339 0.779744 0.41521 0.468615
-0.191954 0.22748 0.445053 0 0 -1
-0.200213 -0.209134 0.377134 0.062514 -0.93724 0.343036
0.149934 -0.177766 0.445053 0 0 -1
-0.235003 -0.0911282 0.445053 0 0 -1
0.118489 -0.0985184 0.445053 0 0 -1
-0.0459552 -0.0179378 0.461784 0 0 1
0.319202 -0.0688703 0.461784 0 0 1
-0.134828 0.220085 0.445053 0 0 -1
0.0393697 -0.309634 0.461784 0 0 1
0.30226 -0.0493631 0.461784 0 0 1
-0.060381 0.207705 0.445053 0 0 -1
-0.0898283 0.3039 0.445053 0 0 -1
-0.246121 -0.0638174 0.445053 0 0 -1
-0.318493 -0.113925 0.445053 0 0 -1
-0.327955 -0.0756917 0.445053 0 0 -1
0.0338506 0.26956 0.461784 0 0 1
0.314614 0.150179 0.461784 0 0 1
0.0847826 0.132454 0.445053 0 0 -1
-0.0358607 -0.279569 0.445053 0 0 -1
-0.340462 -0.0576235 0.461784 0 0 1
-0.362548 -0.0671597 0.461784 0 0 1
0.346002 0.0896104 0.461784 0 0 1
0.329373 -0.0714812 0.461784 0 0 1
-0.222974 -0.212704 0.461784 0 0 1
-0.228955 0.0269895 0.445053 0 0 -1
-0.0333112 -0.0179016 0.445053 0 0 -1
-0.0877444 0.113432 0.445053 0 0 -1
-0.0408934 -0.027648 0.445053 0 0 -1
0.0523922 -0.0989279 0.445053 0 0 -1
0.340562 0.0605781 0.445053 0 0 -1
0.0920198 -0.186462 0.445053 0 0 -1
0.140689 0.0200433 0.445053 0 0 -1
0.186302 0.246811 0.461784 0 0 1
-0.214591 -0.134748 0.461784 0 0 1
-0.14506 0.183252 0.445053 0 0 -1
-0.267472 0.264135 0.184088 0.414225 -0.780404 -0.468388
-0.0904909 -0.364006 0.461784 0 0 1
-0.188132 -0.177599 0.40083 -0.0624624 0.937254 -0.343008
0.0687735 0.213913 0.461784 0 0 1
-0.129653 -0.181512 0.443683 0.991483 -0.130233 0
-0.255567 0.247106 0.223245 -0.0628695 -0.937282 -0.342856
-0.028996 0.34215 0.461784 0 0 1
-0.0712662 -0.0276378 0.461784 0 0 1
0.212021 0.196981 0.365753 0.843446 -0.522238 0.125958
0.263197 -0.201615 0.461784 0 0 1
-0.17441 0.198437 0.441631 0.130151 0.991494 0
-0.00140229 -0.0999119 0.445053 0 0 -1
0.234458 0.169322 0.461784 0 0 1
0.102367 -0.0632614 0.445053 0 0 -1
-0.089278 -0.00725319 0.445053 0 0 -1
0.355154 -0.150843 0.461784 0 0 1
-0.0518466 0.290962 0.445053 0 0 -1
-0.118672 0.0726525 0.445053 0 0 -1
-0.06308 0.350582 0.445053 0 0 -1
-0.108373 -0.0388567 0.461784 0 0 1
0.33626 -0.108917 0.445053 0 0 -1
0.174726 -0.332375 0.461784 0 0 1
0.304996 0.296504 0.125221 0.99895 0 0.0458118
0.401511 -0.000807571 0.457456 0.998796 -0.0490534 0
0.253058 -0.0538579 0.445053 0 0 -1
0.035634 -0.294008 0.461784 0 0 1
-0.268342 0.281837 0.175994 0.843277 0.522557 -0.125769
0.0855868 0.228969 0.461784 0 0 1
0.22521 -0.295488 0.445053 0 0 -1
0.0372508 0.00146167 0.461784 0 0 1
0.302893 0.138495 0.445053 0 0 -1
0.253828 -0.111915 0.445053 0 0 -1
-0.076632 0.169508 0.445053 0 0 -1
-0.225442 -0.332132 0.447143 -0.59559 -0.803289 0
-0.0760026 -0.128769 0.461784 0 0 1
-0.340482 -0.212068 0.455031 -0.857719 -0.514119 0
0.355261 -0.064692 0.445053 0 0 -1
-0.0632761 0.0405462 0.445053 0 0 -1
0.0128841 0.0792234 0.445053 0 0 -1
0.179309 -0.154147 0.435014 0 0 -1
-0.0914777 -0.380383 0.445053 0 0 -1
-0.0443059 0.374028 0.461784 0 0 1
0.249516 0.259418 0.248733 -0.0624865 0.937237 0.343047
0.243087 -0.252886 0.235631 -0.937268 -0.0627121 -0.342924
0.278004 -0.286633 0.14637 -0.937268 -0.0627121 -0.342924
0.366448 0.0793653 0.461784 0 0 1
-0.377362 0.0193084 0.445053 0 0 -1
-0.143844 0.199698 0.441706 0 0 -1
0.257919 -0.307528 0.451413 0.671698 -0.740825 0
-0.0128215 -0.335524 0.461784 0 0 1
-0.0334651 -0.107955 0.461784 0 0 1
0.127075 0.248207 0.445053 0 0 -1
-0.225826 -0.175053 0.445053 0 0 -1
-0.0448375 0.336676 0.461784 0 0 1
-0.235225 -0.248839 0.270316 0.523086 -0.842997 0.125445
-0.0436457 -0.27473 0.461784 0 0 1
0.106665 -0.351613 0.461784 0 0 1
0.312632 -0.0736027 0.461784 0 0 1
-0.0343448 0.13937 0.461784 0 0 1
-0.296154 0.301359 0.138889 -0.450961 0.815166 0.363508
0.112318 0.277007 0.461784 0 0 1
0.229962 0.168219 0.445053 0 0 -1
-0.252969 0.0791372 0.445053 0 0 -1
0.366804 -0.104291 0.461784 0 0 1
0.239799 -0.250563 0.244192 -0.937268 -0.0627121 -0.342924
0.288487 -0.119438 0.445053 0 0 -1
0.140936 0.0898564 0.461784 0 0 1
-0.0958326 -0.174881 0.445053 0 0 -1
0.164549 0.136749 0.461784 0 0 1
-0.359039 0.126008 0.461784 0 0 1
0.113278 0.304027 0.461784 0 0 1
0.301404 0.302514 0.0947448 0.49655 0.859962 -0.117917
0.122603 0.268826 0.461784 0 0 1
-0.245863 0.0721109 0.461784 0 0 1
0.00236356 0.241193 0.461784 0 0 1
-0.280921 -0.247946 0.445053 0 0 -1
-0.117049 0.154014 0.445053 0 0 -1
0.175177 -0.21842 0.441706 0 0 -1
0.262424 0.188798 0.461784 0 0 1
0.137026 0.193303 0.441706 0 0 -1
0.254227 0.0790307 0.461784 0 0 1
-0.113681 0.0374002 0.445053 0 0 -1
-0.200112 -0.322193 0.445053 0 0 -1
0.0430714 -0.387359 0.461784 0 0 1
-0.181645 0.0940444 0.461784 0 0 1
-0.0139153 0.337356 0.445053 0 0 -1
0.171759 -0.182527 0.435014 0 0 -1
-0.000195634 -0.388234 0.445053 0 0 -1
-0.0444377 -0.263249 0.445053 0 0 -1
0.267807 -0.20518 0.461784 0 0 1
-0.123444 0.283105 0.445053 0 0 -1
-0.120493 -0.16444 0.461784 0 0 1
-0.240269 -0.253774 0.247859 0.843244 -0.522623 -0.125716
0.154948 0.203922 0.445053 0 0 -1
0.0721074 -0.216801 0.461784 0 0 1
-0.00682475 -0.122023 0.461784 0 0 1
-0.171202 0.216123 0.441706 0 0 -1
-0.316108 -0.29346 0.0058336 -0.331325 0.0435267 0.942512
0.211024 -0.306642 0.445053 0 0 -1
-0.207295 0.332792 0.461784 0 0 1
-0.212064 0.0665028 0.445053 0 0 -1
-0.377287 0.0740532 0.445053 0 0 -1
0.16788 -0.002217 0.461784 0 0 1
0.0535548 -0.0601214 0.445053 0 0 -1
0.379423 -0.0833362 0.445053 0 0 -1
-0.133048 -0.101236 0.461784 0 0 1
0.367254 0.0362998 0.445053 0 0 -1
0.296164 0.105858 0.461784 0 0 1
-0.172435 0.118811 0.461784 0 0 1
-0.0925293 -0.319807 0.461784 0 0 1
-0.0029031 -0.121487 0.445053 0 0 -1
0.357122 -0.0978397 0.461784 0 0 1
-0.138096 -0.376557 0.459142 -0.336815 -0.941571 0
-0.34074 -0.211639 0.45824 -0.857719 -0.514119 0
0.215379 0.208983 0.322024 -0.414336 -0.780322 -0.468426
0.295933 0.125035 0.461784 0 0 1
-0.249359 0.0516068 0.445053 0 0 -1
-0.322885 0.0163998 0.461784 0 0 1
-0.0503403 0.229494 0.445053 0 0 -1
0.274086 0.259584 0.195247 0.522479 -0.843319 -0.125813
-0.273613 -0.288486 0.445053 0 0 -1
0.284905 0.271502 0.16187 0.0627219 -0.937269 -0.342917
-0.321719 -0.0637178 0.445053 0 0 -1
-0.0281656 0.182561 0.461784 0 0 1
0.186196 0.244075 0.445053 0 0 -1
0.146576 0.155324 0.441706 0 0 -1
0.207195 -0.188313 0.445053 0 0 -1
-0.0895126 -0.199251 0.445053 0 0 -1
-0.201172 0.22206 0.461784 0 0 1
-0.154769 -0.109028 0.445053 0 0 -1
0.280317 -0.11793 0.445053 0 0 -1
-0.300304 -0.303251 0.108252 -0.500117 -0.865958 0
-0.219088 0.288272 0.461784 0 0 1
-0.103292 -0.0490202 0.461784 0 0 1
-0.22595 -0.200888 0.461784 0 0 1
0.0329084 0.0176247 0.445053 0 0 -1
-0.327099 -0.178721 0.445053 0 0 -1
0.190516 0.22543 0.461784 0 0 1
-0.231061 -0.031 0.445053 0 0 -1
0.0561106 0.0605597 0.461784 0 0 1
0.191345 -0.096362 0.461784 0 0 1
0.100584 0.298539 0.445053 0 0 -1
-0.267335 0.256379 0.230304 -0.937216 -0.0621639 0.343165
0.0318088 -0.360731 0.445053 0 0 -1
-0.0861444 -0.372915 0.461784 0 0 1
-0.0404047 -0.236773 0.461784 0 0 1
-0.221351 -0.206684 0.330837 -0.522516 0.843299 -0.125792
0.0863355 0.187304 0.461784 0 0 1
0.376507 -0.022451 0.461784 0 0 1
0.189256 -0.224606 0.461784 0 0 1
0.227274 0.265908 0.461784 0 0 1
-0.0132911 -0.243851 0.445053 0 0 -1
-0.173296 -0.246972 0.461784 0 0 1
-0.0806036 0.230539 0.461784 0 0 1
-0.265234 0.258927 0.461784 0 0 1
-0.056357 0.0274386 0.445053 0 0 -1
0.0610183 -0.238668 0.445053 0 0 -1
0.169787 -0.133791 0.461784 0 0 1
-0.137281 -0.260062 0.461784 0 0 1
0.289218 0.293065 0.0583348 -1 0 0
-0.170329 -0.140091 0.445053 0 0 -1
0.106591 -0.384353 0.445053 0 0 -1
-0.205656 0.198483 0.387156 -0.781003 0.413187 0.468306
0.230428 -0.288167 0.445053 0 0 -1
0.269268 -0.29597 0.461451 0.475304 -0.524305 0.706534
0.15311 -0.174485 0.441706 0 0 -1
0.230536 -0.245038 0.461784 0 0 1
-0.24798 -0.289799 0.461784 0 0 1
-0.0261046 -0.109321 0.461784 0 0 1
-0.259041 0.26871 0.194916 0.937269 0.0627112 -0.342921
-0.211442 0.252502 0.445053 0 0 -1
0.222175 0.0886608 0.445053 0 0 -1
0.0196822 0.193759 0.445053 0 0 -1
-0.156976 -0.093048 0.461784 0 0 1
0.115447 0.26244 0.445053 0 0 -1
0.252492 0.304092 0.445053 0 0 -1
-0.242854 0.100489 0.461784 0 0 1
0.00500816 -0.247201 0.445053 0 0 -1
-0.193731 0.351474 0.458229 -0.514119 0.857719 0
0.129403 -0.151722 0.445053 0 0 -1
0.348142 0.0448023 0.445053 0 0 -1
-0.198194 0.205535 0.386657 0.0624119 0.937233 0.343073
-0.169126 0.311029 0.461784 0 0 1
-0.112465 -0.0519634 0.461784 0 0 1
-0.0550282 0.178067 0.461784 0 0 1
-0.244617 0.217935 0.445053 0 0 -1
-0.291296 -0.287682 0.0123547 0.382188 0.922616 0.0520854
0.248224 -0.186219 0.461784 0 0 1
0.136134 -0.0804796 0.461784 0 0 1
-0.183339 -0.333634 0.461784 0 0 1
-0.0174121 -0.360333 0.461784 0 0 1
-0.195891 0.200122 0.357851 0.779671 -0.415405 -0.468563
-0.211034 -0.00517892 0.445053 0 0 -1
-0.332266 -0.155805 0.445053 0 0 -1
0.0910834 0.343068 0.445053 0 0 -1
0.226949 0.211128 0.324299 0.522479 -0.843319 -0.125813
-0.110595 0.125264 0.461784 0 0 1
-0.285229 0.295375 0.0907761 0.993108 0 -0.117206
0.312005 -0.130806 0.461784 0 0 1
-0.26356 -0.27499 0.183774 0.937272 -0.0627193 -0.342911
0.0377531 -0.209899 0.445053 0 0 -1
0.122353 -0.297117 0.445053 0 0 -1
0.383185 0.0222763 0.445053 0 0 -1
-0.231497 -0.120336 0.461784 0 0 1
0.233014 0.0663404 0.445053 0 0 -1
-0.240094 0.208177 0.461784 0 0 1
-0.0928499 -0.273783 0.445053 0 0 -1
-0.0320551 0.394121 0.461784 0 0 1
0.0423304 -0.0772844 0.461784 0 0 1
0.017462 0.0597633 0.445053 0 0 -1
0.146569 0.0642324 0.461784 0 0 1
-0.0369848 0.145562 0.445053 0 0 -1
0.0923283 0.296931 0.445053 0 0 -1
0.0376412 0.145907 0.445053 0 0 -1
-0.108728 0.246722 0.461784 0 0 1
0.0377566 -0.0757613 0.445053 0 0 -1
-0.193614 0.0693838 0.445053 0 0 -1
-0.28618 0.0253188 0.461784 0 0 1
0.19222 0.277876 0.445053 0 0 -1
0.0593041 -0.107054 0.461784 0 0 1
0.335403 0.194919 0.445053 0 0 -1
-0.377162 0.122987 0.461784 0 0 1
-0.133954 0.166491 0.445053 0 0 -1
0.246948 0.152795 0.445053 0 0 -1
0.0200477 -0.27751 0.445053 0 0 -1
-0.104351 0.170828 0.445053 0 0 -1
0.137156 0.0493803 0.461784 0 0 1
0.156886 0.350173 0.445053 0 0 -1
0.284343 0.279783 0.143076 -0.416094 -0.782074 -0.463925
-0.115467 0.0897123 0.461784 0 0 1
0.112215 -0.204688 0.461784 0 0 1
0.0633268 0.0788905 0.445053 0 0 -1
-0.112304 -0.336648 0.461784 0 0 1
0.344509 -0.161145 0.445053 0 0 -1
-0.302059 -0.286456 0.102044 -0.499984 0.866035 0
-0.136267 -0.0719333 0.461784 0 0 1
0.186773 0.160113 0.445053 0 0 -1
-0.0525373 -0.0212656 0.445053 0 0 -1
0.00587254 0.2235 0.461784 0 0 1
0.236748 0.302168 0.445053 0 0 -1
-0.29479 0.301909 0.139077 0.0343478 0.963237 0.266449
0.271858 0.294889 0.458511 0.671698 0.740825 0
0.0261886 0.130605 0.461784 0 0 1
0.0975748 0.287472 0.445053 0 0 -1
0.253965 0.0246276 0.461784 0 0 1
-0.300176 -0.182863 0.461784 0 0 1
-0.166485 -0.332804 0.445053 0 0 -1
-0.0949127 -0.050262 0.445053 0 0 -1
-0.239849 0.272594 0.461784 0 0 1
0.314395 0.0149479 0.445053 0 0 -1
-0.180608 -0.201783 0.445053 0 0 -1
-0.279796 -0.18437 0.461784 0 0 1
-0.289148 0.308809 0.00775538 0.12795 0.308598 0.942548
-0.117999 0.341278 0.461784 0 0 1
-0.269412 -0.278706 0.199661 0.0624758 -0.937237 0.343051
0.240541 -0.255926 0.445053 0 0 -1
-0.147559 -0.248739 0.445053 0 0 -1
0.265892 -0.0776582 0.461784 0 0 1
0.23901 0.253147 0.253688 -0.843509 0.52212 -0.126026
-0.222139 0.236063 0.301813 0.522121 0.843509 0.126026
0.202637 0.205244 0.461784 0 0 1
-0.284061 -0.256942 0.461784 0 0 1
-0.29064 -0.303754 0.110646 0.500117 -0.865958 0
0.39117 -0.0694529 0.461784 0 0 1
0.0927468 -0.00595713 0.461784 0 0 1
-0.369817 0.0703617 0.461784 0 0 1
-0.319511 -0.240761 0.445318 -0.207337 -0.153797 -0.966105
0.275245 -0.236159 0.461784 0 0 1
-0.251114 -0.245029 0.230369 0.414272 0.780362 -0.468417
-0.142345 0.244689 0.461784 0 0 1
0.00776142 -0.257119 0.461784 0 0 1
0.0876441 -0.383145 0.445053 0 0 -1
-0.297752 -0.00859603 0.445053 0 0 -1
-0.281121 -0.125434 0.445053 0 0 -1
-0.12292 0.136153 0.445053 0 0 -1
0.265222 -0.0711703 0.461784 0 0 1
0.377986 -0.0777459 0.445053 0 0 -1
0.186447 -0.201893 0.441706 0 0 -1
-0.0987038 0.0667451 0.445053 0 0 -1
0.177009 0.0823592 0.461784 0 0 1
-0.305411 -0.0116138 0.461784 0 0 1
0.216032 -0.232904 0.461784 0 0 1
-0.0251563 -0.121244 0.461784 0 0 1
0.106655 0.0299399 0.461784 0 0 1
-0.0445003 0.00785463 0.461784 0 0 1
-0.0360881 0.0345828 0.445053 0 0 -1
0.131396 -0.275698 0.445053 0 0 -1
0.266568 0.298858 0.461126 0.475264 0.524339 0.706535
-0.134068 -0.13004 0.445053 0 0 -1
-0.306009 0.0183304 0.461784 0 0 1
0.304961 -0.29765 0.118323 0.864317 -0.499064 0.0623812
0.24765 0.21902 0.461784 0 0 1
-0.11878 0.383207 0.46069 -0.325342 0.909603 0.25841
0.256369 0.268959 0.223261 -0.521999 0.84357 0.126121
0.163437 -0.214557 0.441706 0 0 -1
-0.114207 -0.384709 0.44655 -0.234768 -0.937219 -0.257883
0.0303439 0.0580986 0.445053 0 0 -1
0.0161971 -0.280729 0.461784 0 0 1
0.222549 -0.233957 0.313442 -0.0623556 -0.93723 0.343092
0.00430429 0.331514 0.445053 0 0 -1
0.00410181 -0.383863 0.461784 0 0 1
0.307021 0.123815 0.461784 0 0 1
0.260536 -0.255067 0.245706 0.780858 -0.41342 0.468343
0.335741 0.133397 0.445053 0 0 -1
0.0905336 -0.39078 0.45448 0.242994 -0.970028 0
-0.188014 -0.273601 0.445053 0 0 -1
-0.222204 0.159173 0.445053 0 0 -1
-0.0149298 -0.315684 0.461784 0 0 1
-0.137425 -0.00789371 0.461784 0 0 1
0.182786 0.179274 0.40035 -0.415285 -0.779743 -0.46855
-0.258539 -0.244673 0.252019 -0.842991 0.523093 0.125462
-0.19603 0.186318 0.378505 -0.0623672 -0.937245 -0.343048
-0.110585 0.256783 0.461784 0 0 1
-0.285957 -0.281709 0.447275 -0.740825 -0.671698 0
-0.0358906 0.152362 0.461784 0 0 1
0.362595 0.146505 0.445053 0 0 -1
0.195572 0.35037 0.453686 0.514108 0.857726 0
0.306391 -0.0887932 0.461784 0 0 1
0.128069 -0.155398 0.445053 0 0 -1
0.254686 0.310449 0.452861 0.595602 0.80328 0
0.12999 -0.046429 0.461784 0 0 1
0.125946 0.228385 0.461784 0 0 1
0.199295 0.197378 0.398733 0.779744 0.41521 0.468615
-0.288541 -0.29463 0.0279674 1 0 0
0.271549 0.295081 0.446812 0.649591 0.716443 -0.254441
0.151955 -0.289023 0.445053 0 0 -1
-0.0371469 0.348271 0.445053 0 0 -1
0.353662 0.149564 0.445053 0 0 -1
-0.278646 0.145531 0.461784 0 0 1
-0.0045494 0.23031 0.445053 0 0 -1
0.0446303 0.0920388 0.461784 0 0 1
-0.0858024 0.353758 0.445053 0 0 -1
0.136408 -0.167106 0.445053 0 0 -1
-0.252243 -0.312261 0.458772 -0.59559 -0.803289 0
0.339333 0.189176 0.445053 0 0 -1
-0.246859 -0.122964 0.445053 0 0 -1
-0.0678267 0.187546 0.461784 0 0 1
-0.314924 -0.117248 0.461784 0 0 1
0.100551 -0.20658 0.461784 0 0 1
-0.388982 0.0977089 0.45837 -0.970023 0.243013 0
-0.0838682 0.140593 0.461784 0 0 1
0.171528 0.338966 0.445053 0 0 -1
0.162134 -0.275839 0.461784 0 0 1
0.147253 -0.16031 0.445053 0 0 -1
0.028667 0.123304 0.445053 0 0 -1
-0.22052 -0.212554 0.461784 0 0 1
0.0471199 0.380056 0.445053 0 0 -1
0.203714 0.0399678 0.461784 0 0 1
0.301428 -0.220759 0.461784 0 0 1
-0.19126 0.157223 0.439465 -0.608366 -0.793657 0
0.296856 -0.155092 0.445053 0 0 -1
-0.399448 0.0285883 0.445625 -0.70783 0.0348052 -0.705525
0.184407 0.134545 0.445053 0 0 -1
-0.254668 -0.254678 0.211699 0.780369 0.414279 -0.468399
-0.0680004 0.104283 0.445053 0 0 -1
-0.0650462 -0.255234 0.445053 0 0 -1
-0.0636829 -0.138935 0.461784 0 0 1
-0.150703 0.356456 0.461784 0 0 1
-0.24388 0.202571 0.461784 0 0 1
0.125538 -0.198401 0.461784 0 0 1
0.380197 0.0450825 0.445053 0 0 -1
0.240497 -0.226279 0.279231 0.522314 0.843407 -0.125904
-0.301872 -0.142114 0.461784 0 0 1
-0.0613391 -0.0279694 0.445053 0 0 -1
-0.0841717 0.35659 0.461784 0 0 1
-0.00392635 0.382962 0.445053 0 0 -1
0.0276525 -0.0162245 0.461784 0 0 1
-0.313875 -0.0727699 0.445053 0 0 -1
0.192774 0.0549142 0.461784 0 0 1
-0.083035 -0.351184 0.461784 0 0 1
0.193379 -0.133565 0.441706 0 0 -1
-0.0213608 0.131971 0.461784 0 0 1
-0.211757 -0.0167197 0.445053 0 0 -1
-0.169555 0.239193 0.445053 0 0 -1
0.21763 0.150606 0.461784 0 0 1
0.00700787 -0.364641 0.445053 0 0 -1
0.144218 -0.0464392 0.445053 0 0 -1
-0.0661339 0.129211 0.445053 0 0 -1
0.28807 -0.283928 0.131292 -0.450468 0.814865 -0.364791
-0.183523 0.332956 0.461784 0 0 1
-0.0524662 0.397673 0.458513 -0.146764 0.989172 0
-0.270826 -0.0324801 0.461784 0 0 1
0.288541 -0.296017 0.0350473 -1 0 0
-0.179591 -0.132503 0.445053 0 0 -1
0.253478 -0.231651 0.445053 0 0 -1
-0.0682306 -0.34371 0.445053 0 0 -1
0.0581179 -0.283679 0.445053 0 0 -1
0.294318 0.119763 0.461784 0 0 1
-0.313961 -0.0767804 0.445053 0 0 -1
0.0760642 -0.00809732 0.461784 0 0 1
0.165523 -0.0595032 0.445053 0 0 -1
-0.00879905 0.392035 0.445053 0 0 -1
0.153231 -0.0103772 0.445053 0 0 -1
0.241336 0.235333 0.255169 -0.414336 -0.780322 -0.468426
0.188853 0.28254 0.445053 0 0 -1
-0.10582 -0.145482 0.461784 0 0 1
-0.282819 0.265301 0.445053 0 0 -1
0.236257 0.0210495 0.445053 0 0 -1
-0.083434 0.309766 0.461784 0 0 1
0.262193 0.269186 0.445053 0 0 -1
0.188334 -0.24513 0.461784 0 0 1
0.116955 0.239409 0.461784 0 0 1
-0.210389 -0.0391032 0.461784 0 0 1
-0.285598 0.298743 0.0993213 0.866003 0.500038 0
0.0770592 -0.173429 0.461784 0 0 1
-0.300235 0.284609 0.134401 -0.512295 -0.853102 -0.0988469
-0.0266866 -0.130091 0.461784 0 0 1
-0.287498 -0.281842 0.00815554 0.203504 0.265009 0.942527
0.18613 -0.199949 0.387001 -0.843172 -0.522755 -0.125651
-0.0503556 0.0510434 0.445053 0 0 -1
0.199224 0.0459657 0.461784 0 0 1
0.0555862 0.303356 0.461784 0 0 1
-0.190559 0.179287 0.396722 -0.0623672 -0.937245 -0.343048
0.14782 0.313888 0.461784 0 0 1
-0.293077 -0.0369471 0.461784 0 0 1
0.28995 0.1453 0.445053 0 0 -1
-0.0241021 -0.233632 0.461784 0 0 1
-0.267529 -0.161635 0.461784 0 0 1
0.0850745 -0.349504 0.461784 0 0 1
0.38041 0.0899825 0.445053 0 0 -1
0.231648 0.143687 0.445053 0 0 -1
0.0308246 -0.400037 0.4566 0.0490534 -0.998796 0
0.325424 0.0190976 0.445053 0 0 -1
-0.154052 0.191304 0.441706 0 0 -1
-0.22358 -0.179322 0.461784 0 0 1
-0.378244 -0.0782019 0.461784 0 0 1
0.377193 0.12867 0.461784 0 0 1
-0.245815 0.252731 0.461784 0 0 1
-0.0412184 -0.28808 0.461784 0 0 1
0.00580117 -0.170256 0.445053 0 0 -1
0.0571136 0.0666004 0.461784 0 0 1
-0.192341 -0.206007 0.370755 0.843509 -0.52212 -0.126029
-0.257957 -0.117023 0.461784 0 0 1
0.0516483 -0.13883 0.445053 0 0 -1
0.0673327 0.236358 0.461784 0 0 1
0.0919852 0.173055 0.445053 0 0 -1
0.0517075 -0.00493995 0.445053 0 0 -1
-0.0713552 0.275336 0.445053 0 0 -1
-0.0802274 -0.235401 0.461784 0 0 1
0.0634918 0.153028 0.461784 0 0 1
0.160546 -0.108701 0.445053 0 0 -1
-0.0262931 0.0539779 0.461784 0 0 1
0.153599 -0.371012 0.458878 0.336799 -0.941577 0
-0.0535406 -0.0296662 0.445053 0 0 -1
-0.252828 -0.00820741 0.461784 0 0 1
0.358659 0.0122738 0.445053 0 0 -1
-0.0498651 0.165926 0.461784 0 0 1
-0.275558 0.165859 0.445053 0 0 -1
-0.224834 0.240242 0.461784 0 0 1
0.00251341 0.131714 0.445053 0 0 -1
-0.0224103 0.0200903 0.461784 0 0 1
0.115502 -0.16063 0.445053 0 0 -1
-0.208672 0.0535091 0.461784 0 0 1
0.00626584 -0.382598 0.461784 0 0 1
-0.14168 0.0581587 0.445053 0 0 -1
0.202997 -0.145792 0.441706 0 0 -1
0.0614161 -0.295085 0.461784 0 0 1
0.195148 0.247107 0.445053 0 0 -1
-0.0310479 -0.077132 0.461784 0 0 1
0.0447954 -0.236834 0.445053 0 0 -1
0.276809 -0.205187 0.461784 0 0 1
0.249479 -0.0208379 0.461784 0 0 1
0.236426 -0.317394 0.445053 0 0 -1
-0.38788 0.102108 0.454442 -0.970023 0.243013 0
-0.299422 -0.29839 0.0664244 -0.865704 -0.500556 0
0.0459304 0.140807 0.461784 0 0 1
0.235168 0.219727 0.305067 0.843446 -0.522238 0.125958
-0.10351 -0.0124092 0.461784 0 0 1
-0.0527052 0.0721954 0.445053 0 0 -1
-0.231736 -0.124881 0.445053 0 0 -1
-0.330844 -0.160822 0.445053 0 0 -1
0.0594525 0.21258 0.445053 0 0 -1
-0.231709 0.122303 0.445053 0 0 -1
-0.301016 -0.0413804 0.461784 0 0 1
0.343632 0.00294031 0.461784 0 0 1
-0.199981 0.31024 0.445053 0 0 -1
-0.112824 -0.0484121 0.445053 0 0 -1
0.293629 -0.0191552 0.461784 0 0 1
-0.276369 -0.263843 0.445053 0 0 -1
-0.216929 -0.129947 0.461784 0 0 1
-0.292013 -0.281755 0.16756 -0.937223 0.0622561 0.34313
0.246466 0.306564 0.445053 0 0 -1
0.048778 0.0180941 0.461784 0 0 1
0.348694 -0.0321516 0.461784 0 0 1
0.165507 0.206124 0.461784 0 0 1
-0.0450044 0.201612 0.461784 0 0 1
-0.0500385 0.262168 0.445053 0 0 -1
-0.148448 -0.213688 0.444585 0.609117 -0.793081 0
0.220102 -0.230002 0.461784 0 0 1
-0.00513389 0.094309 0.445053 0 0 -1
0.284611 0.0240048 0.461784 0 0 1
0.252355 -0.191383 0.461784 0 0 1
0.283345 0.00154688 0.461784 0 0 1
0.0902866 0.0917573 0.461784 0 0 1
-0.0247531 0.053352 0.461784 0 0 1
0.264649 0.210177 0.445053 0 0 -1
-0.313284 -0.120817 0.461784 0 0 1
-0.0719506 0.374381 0.461784 0 0 1
-0.376107 0.0983986 0.445053 0 0 -1
-0.309742 0.0991439 0.445053 0 0 -1
-0.291081 -0.221171 0.445053 0 0 -1
0.363194 -0.165922 0.445107 0.23384 -0.110606 -0.965963
-0.119823 -0.108668 0.461784 0 0 1
0.176305 -0.256205 0.461784 0 0 1
-0.0915896 -0.0364207 0.461784 0 0 1
-0.365877 -0.102821 0.445053 0 0 -1
0.247059 -0.140331 0.461784 0 0 1
0.00489872 0.136709 0.445053 0 0 -1
-0.327091 0.171844 0.445053 0 0 -1
0.290563 0.276629 0.449402 0.740825 0.671698 0
0.251012 0.270288 0.445053 0 0 -1
0.195373 0.157811 0.461784 0 0 1
0.247201 -0.205285 0.461784 0 0 1
0.376699 0.0553774 0.461784 0 0 1
-0.0100671 -0.0942514 0.461784 0 0 1
0.143463 -0.127395 0.445053 0 0 -1
-0.271078 0.173902 0.461784 0 0 1
0.132912 0.15743 0.461784 0 0 1
-0.0695077 -0.0580976 0.445053 0 0 -1
-0.277732 -0.21248 0.461784 0 0 1
0.0964734 0.216744 0.461784 0 0 1
-0.269825 0.108412 0.445053 0 0 -1
-0.224037 0.208928 0.327175 -0.522118 -0.843511 -0.126026
-0.260895 0.225403 0.445053 0 0 -1
0.0513314 -0.193211 0.445053 0 0 -1
0.19254 0.230014 0.461784 0 0 1
0.0601113 -0.0116904 0.461784 0 0 1
-0.104987 -0.19498 0.445053 0 0 -1
0.296012 -0.0607026 0.461784 0 0 1
-0.240238 0.234747 0.297487 -0.781003 0.413187 0.468306
-0.241803 -0.191138 0.445053 0 0 -1
0.0383729 -0.0638389 0.461784 0 0 1
0.216883 0.215734 0.353207 0.780645 0.413731 0.468423
0.200871 -0.211263 0.461784 0 0 1
0.221561 -0.234628 0.309027 -0.522976 -0.843053 0.125532
-0.206914 -0.0890224 0.445053 0 0 -1
0.0980658 -0.120761 0.461784 0 0 1
0.0649422 -0.388814 0.461784 0 0 1
0.219462 -0.0749761 0.461784 0 0 1
0.234882 -0.255295 0.445053 0 0 -1
0.392224 -0.0708582 0.461784 0 0 1
0.202315 -0.0241221 0.445053 0 0 -1
0.282627 0.24774 0.461784 0 0 1
0.145669 -0.299265 0.461784 0 0 1
0.285491 -0.224544 0.461784 0 0 1
0.109337 0.346685 0.445053 0 0 -1
-0.310101 -0.0270111 0.461784 0 0 1
-0.0596412 -0.144672 0.445053 0 0 -1
-0.0248146 0.269326 0.461784 0 0 1
0.0978204 -0.204212 0.445053 0 0 -1
0.324316 0.0759499 0.461784 0 0 1
-0.123093 0.0898286 0.445053 0 0 -1
0.212368 -0.111874 0.461784 0 0 1
-0.393911 0.0778269 0.454547 -0.989176 0.146737 0
0.236048 -0.00545588 0.461784 0 0 1
-0.248828 -0.127562 0.461784 0 0 1
0.0303652 0.374539 0.461784 0 0 1
-0.0793528 -0.20484 0.461784 0 0 1
-0.0258236 -0.275075 0.445053 0 0 -1
0.0468329 0.174043 0.461784 0 0 1
-0.180025 0.30508 0.461784 0 0 1
0.370762 -0.0193625 0.445053 0 0 -1
0.191289 -0.0802367 0.445053 0 0 -1
0.0560982 -0.0344689 0.461784 0 0 1
0.190656 0.17766 0.42552 0.93722 -0.0621975 0.343147
-0.267549 -0.267357 0.222786 -0.415203 -0.779732 0.468641
-0.0175869 -0.0242467 0.461784 0 0 1
-0.259048 0.110268 0.461784 0 0 1
-0.185394 -0.179617 0.461784 0 0 1
-0.0230853 0.280538 0.445053 0 0 -1
0.227903 0.197203 0.445053 0 0 -1
-0.12181 -0.0143767 0.445053 0 0 -1
-0.0391093 0.245073 0.461784 0 0 1
0.0395098 -0.322163 0.445053 0 0 -1
-0.378083 0.0380576 0.461784 0 0 1
0.0573098 0.386635 0.461784 0 0 1
0.26969 0.276182 0.206187 0.413422 0.780857 0.468342
0.094094 -0.372932 0.445053 0 0 -1
-0.307047 0.283188 0.00749858 -0.265085 -0.203572 0.942491
-0.132767 -0.193585 0.443899 0.92369 -0.383141 0
-0.356626 0.0208478 0.445053 0 0 -1
0.315983 0.16443 0.461784 0 0 1
0.288425 0.278091 0.461116 0.5233 0.474322 0.707937
0.123889 -0.296762 0.445053 0 0 -1
0.302518 0.180301 0.461784 0 0 1
-0.324512 -0.122313 0.445053 0 0 -1
0.28714 0.301359 0.116078 -0.86608 0.499905 0
0.0782011 -0.173219 0.461784 0 0 1
0.247307 -0.233302 0.279861 0.843406 0.52231 0.125929
0.239738 -0.0267029 0.445053 0 0 -1
0.295505 -0.281951 0.133823 0.0354385 0.963166 -0.266563
-0.353909 -0.126632 0.461784 0 0 1
0.15146 0.248642 0.445053 0 0 -1
0.209071 -0.161037 0.441706 0 0 -1
0.285154 0.021001 0.445053 0 0 -1
-0.103452 0.232496 0.461784 0 0 1
0.225011 -0.27918 0.461784 0 0 1
0.145474 0.0623001 0.445053 0 0 -1
0.0525721 -0.251457 0.445053 0 0 -1
-0.161739 -0.215138 0.441706 0 0 -1
0.0405774 -0.232524 0.445053 0 0 -1
0.240863 0.260565 0.445053 0 0 -1
-0.0194379 0.155234 0.461784 0 0 1
0.0603035 -0.353347 0.461784 0 0 1
-0.0465224 -0.263773 0.445053 0 0 -1
-0.00753414 0.0735795 0.445053 0 0 -1
-0.222097 -0.290685 0.461784 0 0 1
-0.178968 -0.201558 0.441706 0 0 -1
0.0337267 0.137688 0.461784 0 0 1
0.270652 -0.232453 0.445053 0 0 -1
-0.0136583 -0.40088 0.449396 -0.0490534 -0.998796 0
-0.351814 -0.0159024 0.445053 0 0 -1
0.126105 -0.190515 0.461784 0 0 1
0.0825041 -0.378933 0.445053 0 0 -1
0.126892 -0.148547 0.461784 0 0 1
-0.223197 0.172867 0.445053 0 0 -1
-0.0365864 -0.105402 0.461784 0 0 1
0.300188 -0.290384 0.0446711 0.865561 0.500803 0
0.171363 -0.362616 0.456151 0.427629 -0.903954 0
-0.29427 -0.287872 0.0315979 0 1 0
-0.0516707 0.197473 0.461784 0 0 1
0.205095 -0.145248 0.461784 0 0 1
-0.0931294 -0.0419373 0.445053 0 0 -1
-0.152137 0.186025 0.461784 0 0 1
-0.240162 -0.188462 0.461784 0 0 1
-0.00697207 0.101435 0.445053 0 0 -1
-0.066278 -0.125233 0.445053 0 0 -1
0.38674 -0.0424056 0.461784 0 0 1
0.0877803 -0.391382 0.460095 0.23501 -0.937864 0.255307
-0.140399 -0.106948 0.445053 0 0 -1
-0.302795 -0.162432 0.445053 0 0 -1
-0.294339 0.145234 0.461784 0 0 1
-0.165189 0.031598 0.445053 0 0 -1
-0.204446 0.217152 0.355098 0.522976 0.843053 0.125532
-0.220746 -0.224325 0.33585 -0.415203 -0.779732 0.468641
0.315809 -0.0850288 0.461784 0 0 1
0.12573 0.0571578 0.461784 0 0 1
0.119172 0.383326 0.454917 0.336799 0.941577 0
-0.106929 -0.35285 0.461784 0 0 1
-0.210227 0.199652 0.445053 0 0 -1
0.149306 0.146218 0.441706 0 0 -1
0.357 0.128097 0.445053 0 0 -1
-0.273616 0.265037 0.445053 0 0 -1
-0.159551 -0.0254891 0.461784 0 0 1
-0.12947 -0.112552 0.461784 0 0 1
0.0176987 -0.12844 0.461784 0 0 1
0.234972 0.0355991 0.461784 0 0 1
-0.0501598 0.379062 0.461784 0 0 1
0.0850834 0.183582 0.461784 0 0 1
0.199333 0.199561 0.396025 0.415203 0.779732 0.468641
0.0142216 -0.0703721 0.461784 0 0 1
0.298646 0.2997 0.0528519 0.50067 0.865638 0
0.0272343 0.279788 0.461784 0 0 1
-0.246152 -0.259094 0.23051 0.843244 -0.522623 -0.125716
0.103379 -0.387562 0.454764 0.242994 -0.970028 0
0.152955 0.131438 0.461784 0 0 1
0.1579 -0.313212 0.445053 0 0 -1
0.148457 -0.292478 0.445053 0 0 -1
0.0534974 -0.00928993 0.445053 0 0 -1
-0.30188 0.286693 0.132529 -0.861315 -0.504821 0.0573834
0.284028 -0.269816 0.168172 0.522314 0.843407 -0.125904
-0.195359 -0.208565 0.3747 0.522073 -0.843531 0.126077
-0.272914 -0.272374 0.445053 0 0 -1
-0.254273 -0.241198 0.263286 -0.937219 0.0621974 0.34315
0.122335 -0.183587 0.445053 0 0 -1
0.110582 0.0331759 0.461784 0 0 1
0.196895 0.077836 0.461784 0 0 1
-0.194185 -0.18148 0.461784 0 0 1
-0.160869 -0.311057 0.445053 0 0 -1
-0.110007 0.224254 0.445053 0 0 -1
-0.0517777 0.100766 0.461784 0 0 1
-0.152461 0.371418 0.453735 -0.336815 0.941571 0
0.222017 0.00325497 0.461784 0 0 1
-0.0577824 0.207119 0.445053 0 0 -1
-0.340379 -0.157115 0.461784 0 0 1
0.133294 0.161733 0.445053 0 0 -1
-0.276065 0.0668357 0.445053 0 0 -1
0.0283559 -0.139275 0.461784 0 0 1
-0.296346 0.0357488 0.445053 0 0 -1
-0.0910855 0.23705 0.445053 0 0 -1
0.174563 -0.0864367 0.445053 0 0 -1
-0.274429 0.0546922 0.461784 0 0 1
-0.138969 -0.0549197 0.445053 0 0 -1
0.293957 0.106369 0.445053 0 0 -1
-0.211395 0.198331 0.348479 -0.0623672 -0.937245 -0.343048
-0.106973 -0.220789 0.445053 0 0 -1
0.146648 -0.147034 0.445053 0 0 -1
-0.333216 0.167544 0.461784 0 0 1
0.163606 0.0931737 0.461784 0 0 1
-0.0127125 -0.153851 0.461784 0 0 1
-0.262022 0.173241 0.461784 0 0 1
-0.0234288 -0.129784 0.445053 0 0 -1
-0.000357582 0.278949 0.445053 0 0 -1
0.370089 0.129563 0.445053 0 0 -1
0.0100752 0.360026 0.461784 0 0 1
-0.244288 -0.0221751 0.445053 0 0 -1
0.301832 -0.0989854 0.445053 0 0 -1
-0.10786 -0.103378 0.461784 0 0 1
-0.235328 0.236221 0.260227 0.779671 -0.415405 -0.468563
-0.0104612 0.216204 0.461784 0 0 1
-0.259147 -0.0197524 0.445053 0 0 -1
0.325212 0.18246 0.461784 0 0 1
0.269149 -0.0659178 0.445053 0 0 -1
0.107904 -0.128084 0.445053 0 0 -1
-0.26047 -0.256941 0.244173 -0.780645 -0.413731 0.468423
0.383895 0.0713622 0.461784 0 0 1
-0.196892 0.201328 0.355117 0.779671 -0.415405 -0.468563
0.0577409 0.392719 0.445053 0 0 -1
-0.0561866 0.0569439 0.445053 0 0 -1
-0.204415 0.0598301 0.461784 0 0 1
-0.240509 -0.32096 0.458858 -0.59559 -0.803289 0
-0.271393 0.26846 0.173415 0.414225 -0.780404 -0.468388
-0.0325868 -0.051403 0.461784 0 0 1
0.215175 0.0241431 0.461784 0 0 1
0.249064 -0.0773511 0.445053 0 0 -1
-0.051097 0.37797 0.461784 0 0 1
-0.118268 -0.303997 0.445053 0 0 -1
-0.189005 0.337796 0.445053 0 0 -1
-0.246034 -0.252009 0.461784 0 0 1
-0.296932 -0.293177 0.151373 -0.782751 -0.415856 0.462995
0.15981 -0.284369 0.461784 0 0 1
0.0621865 -0.0771792 0.461784 0 0 1
0.286989 -0.277393 0.180435 0.937239 0.0624785 0.343044
-0.375489 -0.0441713 0.461784 0 0 1
0.107688 0.263846 0.461784 0 0 1
-0.304065 -0.277803 0.00664646 -0.12856 0.308316 0.942557
-0.198639 -0.136317 0.441706 0 0 -1
-0.185472 -0.274791 0.445053 0 0 -1
0.0691206 0.146554 0.461784 0 0 1
-0.194397 -0.112823 0.445053 0 0 -1
0.301928 0.0743741 0.445053 0 0 -1
-0.0537816 0.240868 0.445053 0 0 -1
-0.259066 0.272413 0.211524 0.522976 0.843053 0.125532
0.29636 0.0103603 0.461784 0 0 1
-0.226045 -0.0376217 0.461784 0 0 1
0.107011 0.129637 0.445053 0 0 -1
0.0264779 -0.372372 0.461784 0 0 1
-0.108719 -0.149464 0.445053 0 0 -1
-0.197586 -0.252987 0.445053 0 0 -1
0.028011 0.178967 0.445053 0 0 -1
0.0744779 -0.135163 0.445053 0 0 -1
-0.0121935 0.132764 0.461784 0 0 1
0.235686 0.179096 0.461784 0 0 1
0.338278 0.0985425 0.445053 0 0 -1
0.234699 -0.0697364 0.461784 0 0 1
0.156117 -0.0639146 0.445053 0 0 -1
-0.125773 -0.217668 0.445053 0 0 -1
-0.20509 0.0413439 0.461784 0 0 1
0.240215 -0.16875 0.461784 0 0 1
-0.17144 0.245848 0.461784 0 0 1
-0.241269 0.209965 0.461784 0 0 1
0.293709 -0.0117801 0.445053 0 0 -1
0.0496098 0.0149539 0.445053 0 0 -1
0.283289 0.292386 0.164812 -0.0624865 0.937237 0.343047
0.333258 0.0961131 0.445053 0 0 -1
-0.0562301 -0.366042 0.445053 0 0 -1
-0.353511 -0.153973 0.461784 0 0 1
0.0635028 0.258217 0.461784 0 0 1
0.0214041 0.00566897 0.445053 0 0 -1
0.0458867 0.289072 0.461784 0 0 1
-0.0493514 -0.166765 0.445053 0 0 -1
-0.0466634 -0.21583 0.445053 0 0 -1
0.0859106 0.0203785 0.461784 0 0 1
-0.278847 -0.246141 0.461784 0 0 1
-0.196061 -0.0472709 0.461784 0 0 1
0.111753 0.366528 0.445053 0 0 -1
0.0690237 0.328691 0.445053 0 0 -1
-0.115936 0.321709 0.445053 0 0 -1
0.27545 -0.277029 0.199705 0.413792 -0.780607 0.468432
-0.335483 -0.0786417 0.445053 0 0 -1
0.214013 -0.149355 0.445053 0 0 -1
-0.260538 0.0640806 0.445053 0 0 -1
0.00586846 -0.0640201 0.445053 0 0 -1
0.0537843 0.308858 0.445053 0 0 -1
-0.291844 0.124376 0.461784 0 0 1
0.33058 0.0137659 0.461784 0 0 1
-0.276095 0.302837 0.00594394 0.308676 0.128022 0.942512
-0.130252 0.0496955 0.445053 0 0 -1
0.265222 0.254184 0.235734 0.937233 -0.0624119 0.343073
0.266373 -0.0783296 0.445053 0 0 -1
-0.114898 0.278445 0.445053 0 0 -1
-0.214854 -0.196958 0.445053 0 0 -1
-0.293162 0.301429 0.0180382 0.129648 0.990207 0.0517846
-0.271366 0.260849 0.188571 -0.0628695 -0.937282 -0.342856
0.270918 0.262902 0.461784 0 0 1
-0.0165889 -0.0978439 0.445053 0 0 -1
-0.306796 0.0773481 0.445053 0 0 -1
-0.138058 -0.266496 0.461784 0 0 1
0.0127024 -0.201341 0.461784 0 0 1
-0.194809 -0.180087 0.398888 -0.522516 0.843299 -0.125792
-0.387205 -0.0992324 0.445227 -0.250707 -0.0627851 -0.966025
0.340675 -0.0464688 0.461784 0 0 1
0.0845954 0.383739 0.461784 0 0 1
0.196031 0.0761805 0.445053 0 0 -1
-0.066056 0.122096 0.461784 0 0 1
0.268263 0.076308 0.445053 0 0 -1
-0.252052 0.260209 0.212465 0.937253 0.0624623 -0.343008
-0.00261682 -0.330941 0.461784 0 0 1
-0.265314 0.182513 0.445053 0 0 -1
-0.292115 0.130056 0.445053 0 0 -1
-0.0852966 0.0418402 0.445053 0 0 -1
-0.342559 0.208603 0.458273 -0.857719 0.514119 0
0.152822 -0.181148 0.441706 0 0 -1
-0.262065 -0.215154 0.461784 0 0 1
0.223341 0.133648 0.461784 0 0 1
-0.257037 -0.21455 0.445053 0 0 -1
-0.26164 -0.0263853 0.461784 0 0 1
0.282775 -0.0692117 0.445053 0 0 -1
0.032955 0.383072 0.461784 0 0 1
-0.160328 0.302734 0.461784 0 0 1
-0.10998 0.0783108 0.461784 0 0 1
-0.233789 0.234949 0.30663 -0.413665 0.780685 0.468414
-0.251977 0.231822 0.461784 0 0 1
-0.0105503 0.265607 0.445053 0 0 -1
0.344898 0.101759 0.445053 0 0 -1
-0.311695 -0.0389826 0.461784 0 0 1
-0.289199 0.295934 0.0636933 0.865623 0.500697 0
0.104017 0.0436345 0.445053 0 0 -1
-0.337027 -0.0667218 0.461784 0 0 1
0.201802 0.099082 0.445053 0 0 -1
-0.196505 0.178218 0.461784 0 0 1
0.0698593 -0.0834897 0.461784 0 0 1
-0.380858 0.0691715 0.445053 0 0 -1
-0.13438 -0.184439 0.445053 0 0 -1
-0.342744 -0.119552 0.461784 0 0 1
0.0230678 -0.188986 0.461784 0 0 1
0.18842 -0.310124 0.461784 0 0 1
0.205873 -0.13262 0.445053 0 0 -1
-0.0204332 0.183694 0.445053 0 0 -1
-0.317074 0.0100766 0.445053 0 0 -1
-0.088161 0.022414 0.461784 0 0 1
-0.22518 0.188854 0.445053 0 0 -1
-0.228955 0.292092 0.461784 0 0 1
-0.234942 0.144843 0.461784 0 0 1
-0.0140384 -0.392847 0.461784 0 0 1
-0.293914 -0.0723629 0.445053 0 0 -1
-0.137656 -0.287743 0.445053 0 0 -1
0.0791624 0.243409 0.461784 0 0 1
0.207884 0.213045 0.366013 0.413422 0.780857 0.468342
-0.1869 0.249654 0.461784 0 0 1
-0.311773 0.295552 0.00734178 -0.331296 0.0435168 0.942523
-0.247787 0.257803 0.223683 0.937269 0.0627112 -0.342921
0.197211 -0.335597 0.445053 0 0 -1
0.126626 0.110404 0.461784 0 0 1
-0.175795 -0.156795 0.445053 0 0 -1
0.208059 0.0497803 0.445053 0 0 -1
0.0212502 -0.379644 0.445053 0 0 -1
0.351408 -0.045011 0.445053 0 0 -1
-0.311957 0.065246 0.445053 0 0 -1
-0.267512 -0.172624 0.461784 0 0 1
-0.11659 -0.38425 0.454947 -0.336815 -0.941571 0
0.0436332 -0.150609 0.445053 0 0 -1
0.144368 -0.025732 0.445053 0 0 -1
0.18707 0.194368 0.461784 0 0 1
-0.286291 -0.267583 0.445053 0 0 -1
-0.217013 0.14306 0.461784 0 0 1
-0.203239 0.216937 0.342859 0.843298 0.522518 -0.125791
0.154266 -0.188651 0.445053 0 0 -1
-0.0610551 -0.380368 0.445053 0 0 -1
0.269905 -0.282121 0.16768 -0.937268 -0.0627121 -0.342924
-0.287515 0.26934 0.461784 0 0 1
0.273335 0.15136 0.445053 0 0 -1
0.18361 0.0958694 0.461784 0 0 1
-0.240702 0.140984 0.445053 0 0 -1
0.0875385 0.359146 0.461784 0 0 1
-0.148228 -0.132516 0.461784 0 0 1
-0.135953 -0.151147 0.445053 0 0 -1
0.315399 0.177832 0.445053 0 0 -1
-0.190949 0.234752 0.445053 0 0 -1
-0.00783281 -0.385917 0.461784 0 0 1
0.127565 -0.296853 0.461784 0 0 1
-0.129739 0.0596381 0.445053 0 0 -1
-0.0940889 -0.348881 0.445053 0 0 -1
0.310406 0.254744 0.452947 0.740825 0.671698 0
0.258715 0.168431 0.461784 0 0 1
0.041979 -0.0875753 0.461784 0 0 1
0.244848 -0.0189065 0.445053 0 0 -1
-0.11183 0.0895628 0.445053 0 0 -1
-0.319707 -0.228684 0.445053 0 0 -1
0.199159 -0.323882 0.461784 0 0 1
0.103163 -0.364643 0.461784 0 0 1
-0.0732797 0.0844871 0.461784 0 0 1
0.24222 -0.125654 0.445053 0 0 -1
-0.384302 -0.116388 0.447205 -0.970023 -0.243013 0
-0.262097 0.216315 0.461784 0 0 1
0.160073 0.342889 0.461784 0 0 1
0.0156489 -0.400782 0.456017 0.0490534 -0.998796 0
-0.0705634 0.0625862 0.445053 0 0 -1
0.140489 0.238522 0.461784 0 0 1
-0.193302 -0.237224 0.445053 0 0 -1
0.0208144 -0.382123 0.445053 0 0 -1
0.0583544 0.129053 0.461784 0 0 1
0.181625 0.276115 0.461784 0 0 1
-0.157852 0.312417 0.445053 0 0 -1
-0.0788971 0.220073 0.461784 0 0 1
-0.298076 -0.288645 0.030509 -0.500677 0.865634 0
0.243122 -0.200779 0.461784 0 0 1
-0.298417 -0.288842 0.0364651 -0.500677 0.865634 0
0.13988 0.0421893 0.461784 0 0 1
0.0280262 -0.0748755 0.445053 0 0 -1
0.273075 0.260341 0.2154 0.93722 -0.0621975 0.343147
-0.346312 0.00290621 0.445053 0 0 -1
-0.133087 0.351895 0.461784 0 0 1
0.329031 -0.205654 0.445053 0 0 -1
-0.384243 0.00119712 0.445053 0 0 -1
-0.128442 -0.377511 0.461784 0 0 1
0.0104463 -0.200285 0.461784 0 0 1
0.216318 -0.202463 0.338465 0.522314 0.843407 -0.125904
0.214968 0.224977 0.461784 0 0 1
0.11824 0.332946 0.445053 0 0 -1
0.0570931 0.308138 0.445053 0 0 -1
0.238655 -0.230306 0.445053 0 0 -1
-0.198303 -0.193819 0.461784 0 0 1
-0.351569 -0.00417554 0.461784 0 0 1
0.239613 0.305599 0.445053 0 0 -1
0.0829142 0.148237 0.445053 0 0 -1
-0.255773 -0.265424 0.203308 0.937272 -0.0627193 -0.342911
-0.199223 0.152614 0.441706 0 0 -1
-0.20326 0.210718 0.461784 0 0 1
-0.170424 -0.184134 0.434903 0.522073 -0.843531 0.126077
-0.176383 -0.00389019 0.461784 0 0 1
0.173437 0.352983 0.461784 0 0 1
-0.062115 0.0978991 0.461784 0 0 1
-0.177867 -0.222133 0.461784 0 0 1
0.0677038 -0.237147 0.445053 0 0 -1
0.233265 0.193722 0.461784 0 0 1
-0.291383 -0.245935 0.461784 0 0 1
0.129518 -0.000639003 0.445053 0 0 -1
-0.364421 0.127552 0.445053 0 0 -1
-0.191971 0.124992 0.461784 0 0 1
0.299795 -0.285181 0.111547 0.500175 0.865924 0
0.302465 -0.144939 0.461784 0 0 1
0.00280007 0.372237 0.445053 0 0 -1
-0.141462 -0.331649 0.445053 0 0 -1
0.204469 0.323081 0.461784 0 0 1
-0.0427125 -0.35583 0.445053 0 0 -1
-0.31784 -0.0902436 0.461784 0 0 1
0.203423 0.105473 0.461784 0 0 1
0.286392 -0.0694437 0.445053 0 0 -1
0.21354 -0.0339947 0.445053 0 0 -1
0.138874 -0.288249 0.461784 0 0 1
-0.223188 -0.219984 0.338947 -0.780645 -0.413731 0.468423
0.139246 -0.0564041 0.461784 0 0 1
-0.0769265 0.0565782 0.461784 0 0 1
0.166279 -0.243599 0.445053 0 0 -1
0.0843589 -0.0891479 0.445053 0 0 -1
0.0160601 -0.270184 0.461784 0 0 1
0.296021 -0.287872 0.0466183 0 1 0
-0.154447 -0.171945 0.445053 0 0 -1
-0.103567 -0.235838 0.445053 0 0 -1
-0.102707 -0.247135 0.445053 0 0 -1
0.141671 0.282616 0.461784 0 0 1
0.100129 -0.113663 0.445053 0 0 -1
0.196274 0.251235 0.445053 0 0 -1
0.000478329 0.183176 0.461784 0 0 1
0.244847 -0.313674 0.445053 0 0 -1
0.239979 0.194892 0.461784 0 0 1
-0.10242 -0.0193962 0.445053 0 0 -1
0.102498 -0.233475 0.461784 0 0 1
-0.128647 -0.313907 0.445053 0 0 -1
-0.181887 -0.28806 0.461784 0 0 1
-0.160261 0.00669844 0.461784 0 0 1
0.303621 -0.0951863 0.461784 0 0 1
-0.211345 0.191775 0.445053 0 0 -1
-0.333303 -0.0352812 0.461784 0 0 1
-0.11081 0.183604 0.461784 0 0 1
0.123936 -0.316366 0.461784 0 0 1
0.222011 0.0211266 0.445053 0 0 -1
-0.00674086 -0.111656 0.461784 0 0 1
-0.283847 -0.194033 0.445053 0 0 -1
0.182601 0.196858 0.400196 -0.52294 0.843075 0.125535
0.35903 -0.0776793 0.445053 0 0 -1
-0.232127 0.224904 0.445053 0 0 -1
0.150485 0.309497 0.445053 0 0 -1
0.353267 0.0560862 0.445053 0 0 -1
0.0632695 0.295012 0.461784 0 0 1
0.175792 -0.101095 0.445053 0 0 -1
0.187066 0.0971328 0.461784 0 0 1
-0.119619 0.266097 0.461784 0 0 1
0.336169 0.205693 0.461784 0 0 1
-0.195952 -0.320351 0.445053 0 0 -1
0.0734006 0.149827 0.445053 0 0 -1
-0.181168 -0.174292 0.410074 0.415285 0.779743 -0.468549
0.106601 0.142423 0.461784 0 0 1
-0.376057 0.00780577 0.461784 0 0 1
0.337595 0.199165 0.461784 0 0 1
-0.169627 -0.208283 0.461784 0 0 1
0.00291993 0.0537968 0.445053 0 0 -1
0.337723 0.207715 0.445053 0 0 -1
-0.226788 0.153492 0.461784 0 0 1
-0.286074 0.0222863 0.445053 0 0 -1
-0.0374577 -0.279799 0.461784 0 0 1
0.0512234 0.108527 0.461784 0 0 1
0.115837 0.219745 0.461784 0 0 1
-0.0301418 -0.233135 0.461784 0 0 1
0.137063 -0.298913 0.461784 0 0 1
-0.219734 -0.1719 0.441706 0 0 -1
0.324497 -0.220372 0.445053 0 0 -1
0.247887 -0.0388231 0.445053 0 0 -1
0.0810141 -0.0962446 0.461784 0 0 1
0.211601 -0.0640338 0.445053 0 0 -1
-0.00953268 0.304996 0.445053 0 0 -1
0.0866664 -0.0891428 0.461784 0 0 1
0.275464 -0.10358 0.461784 0 0 1
0.180518 0.206531 0.461784 0 0 1
-0.242151 -0.302314 0.461784 0 0 1
0.238843 0.313146 0.461784 0 0 1
-0.245721 -0.224646 0.461784 0 0 1
-0.0028198 -0.389237 0.445053 0 0 -1
0.175707 0.331664 0.445053 0 0 -1
-0.0809592 0.351282 0.461784 0 0 1
0.314684 -0.17935 0.461784 0 0 1
-0.0514096 0.316387 0.445053 0 0 -1
-0.0234215 0.341507 0.461784 0 0 1
-0.209788 0.0179649 0.461784 0 0 1
-0.0446331 0.396295 0.445053 0 0 -1
-0.0605153 -0.316126 0.461784 0 0 1
0.156369 0.136171 0.441706 0 0 -1
0.274435 0.10081 0.461784 0 0 1
0.30115 -0.0752316 0.461784 0 0 1
0.0606423 0.153197 0.445053 0 0 -1
0.352807 -0.0437821 0.445053 0 0 -1
-0.244536 0.0751814 0.445053 0 0 -1
0.017252 0.262801 0.461784 0 0 1
0.132179 -0.0118385 0.461784 0 0 1
0.0508507 0.315891 0.445053 0 0 -1
-0.195693 -0.188103 0.374219 0.414272 0.780362 -0.468417
-0.0702587 0.20438 0.445053 0 0 -1
-0.0637484 -0.240489 0.445053 0 0 -1
-0.230126 -0.218371 0.29707 -0.0627219 0.937269 -0.342917
-0.229635 0.0677856 0.445053 0 0 -1
0.0663677 0.340711 0.445053 0 0 -1
0.351955 -0.083704 0.445053 0 0 -1
0.164946 0.0263368 0.461784 0 0 1
0.29065 -0.139275 0.461784 0 0 1
0.381354 0.10475 0.445053 0 0 -1
-0.143912 0.106657 0.445053 0 0 -1
-0.377034 -0.136761 0.451441 -0.941585 -0.336777 0
0.179151 0.0253638 0.461784 0 0 1
-0.217843 0.165922 0.461784 0 0 1
0.29961 0.28494 0.12232 0.499515 -0.866154 -0.0161636
-0.0956131 -0.114712 0.445053 0 0 -1
0.103617 -0.269244 0.461784 0 0 1
-0.00445448 0.26491 0.461784 0 0 1
-0.138146 0.204975 0.461784 0 0 1
-0.285465 -0.274451 0.184122 -0.937223 0.0622561 0.34313
-0.0640836 0.366568 0.445053 0 0 -1
0.0235702 -0.379957 0.461784 0 0 1
-0.111111 -0.143117 0.461784 0 0 1
0.145248 0.0825613 0.445053 0 0 -1
0.0980543 0.216529 0.461784 0 0 1
-0.252131 -0.206314 0.445053 0 0 -1
-0.2967 0.281864 0.15046 -0.843034 -0.523015 0.125492
-0.226765 -0.221652 0.331517 -0.779744 -0.41521 0.468615
0.0314252 -0.342492 0.461784 0 0 1
0.0430307 0.371692 0.461784 0 0 1
0.256362 -0.279069 0.445053 0 0 -1
-0.347745 0.130203 0.445053 0 0 -1
-0.322438 0.109342 0.445053 0 0 -1
0.0646918 -0.160075 0.461784 0 0 1
0.0600348 0.046871 0.461784 0 0 1
-0.0218961 -0.240053 0.461784 0 0 1
0.212031 -0.0916393 0.461784 0 0 1
0.142884 -0.3309 0.461784 0 0 1
0.0833959 0.132432 0.445053 0 0 -1
-0.304436 -0.135685 0.461784 0 0 1
-0.143416 0.245926 0.461784 0 0 1
-0.197633 -0.161387 0.441706 0 0 -1
-0.263617 0.271639 0.21797 0.0624119 0.937233 0.343073
0.275305 -0.0420275 0.445053 0 0 -1
-0.231732 0.086326 0.461784 0 0 1
-0.324462 0.194085 0.461784 0 0 1
-0.04204 0.0503578 0.445053 0 0 -1
-0.209532 -0.0519268 0.461784 0 0 1
-0.199748 -0.320004 0.445053 0 0 -1
-0.0721125 0.282432 0.445053 0 0 -1
-0.0672617 -0.165658 0.445053 0 0 -1
0.325331 0.00993734 0.461784 0 0 1
0.175186 0.347663 0.461784 0 0 1
-0.13414 0.198495 0.445053 0 0 -1
-0.281967 0.285037 0.00761552 0.264994 -0.203504 0.942531
0.214821 -0.234417 0.461784 0 0 1
0.318789 0.0427613 0.461784 0 0 1
-0.136483 -0.341997 0.461784 0 0 1
-0.174139 -0.25656 0.445053 0 0 -1
-0.018222 0.271943 0.445053 0 0 -1
-0.238776 -0.240675 0.461784 0 0 1
0.21888 0.191477 0.445053 0 0 -1
-0.138047 0.0391503 0.461784 0 0 1
0.277941 -0.221179 0.461784 0 0 1
0.30596 -0.291811 0.00932326 0.331228 0.0434655 0.942549
0.0828266 0.201244 0.461784 0 0 1
-0.0327563 -0.011713 0.461784 0 0 1
0.310258 -0.0666109 0.461784 0 0 1
0.198262 0.297665 0.461784 0 0 1
0.223576 -0.221845 0.445053 0 0 -1
0.231176 -0.113725 0.461784 0 0 1
-0.15678 -0.257827 0.461784 0 0 1
0.234946 -0.245699 0.283619 -0.0623556 -0.93723 0.343092
-0.231073 -0.327957 0.451349 -0.59559 -0.803289 0
-0.292636 0.176643 0.445053 0 0 -1
-0.202762 0.00339377 0.445053 0 0 -1
-0.277543 0.13429 0.461784 0 0 1
-0.287264 0.194582 0.461784 0 0 1
0.14946 -0.0124774 0.445053 0 0 -1
-0.191074 0.321159 0.445053 0 0 -1
-0.304417 -0.065776 0.445053 0 0 -1
-0.20957 -0.256771 0.445053 0 0 -1
0.209576 -0.335368 0.445053 0 0 -1
0.362491 -0.0213562 0.461784 0 0 1
0.10974 0.260541 0.461784 0 0 1
0.301469 0.286116 0.0972174 0.499905 -0.86608 0
-0.134006 0.018636 0.461784 0 0 1
0.0281356 0.348277 0.461784 0 0 1
-0.0592762 0.347222 0.461784 0 0 1
-0.0717185 0.0187394 0.445053 0 0 -1
-0.204337 0.21768 0.338587 0.843298 0.522518 -0.125791
-0.116319 0.182154 0.445053 0 0 -1
0.059847 0.280648 0.445053 0 0 -1
0.245828 -0.295681 0.445053 0 0 -1
-0.229435 0.272299 0.461784 0 0 1
-0.127904 -0.00884632 0.461784 0 0 1
0.220663 0.262348 0.461784 0 0 1
0.113776 -0.0027889 0.445053 0 0 -1
-0.207353 0.0812683 0.445053 0 0 -1
-0.119129 0.118552 0.445053 0 0 -1
-0.259691 -0.0254767 0.461784 0 0 1
0.0290556 -0.0685015 0.445053 0 0 -1
0.390621 -0.0911672 0.452897 0.970029 -0.24299 0
-0.253168 0.0539975 0.445053 0 0 -1
-0.039452 0.0798718 0.445053 0 0 -1
0.0467443 0.184554 0.445053 0 0 -1
0.0459284 -0.161515 0.445053 0 0 -1
0.237826 -0.225486 0.305299 0.937239 0.0624785 0.343044
0.230868 -0.208571 0.445053 0 0 -1
0.157982 0.0373195 0.445053 0 0 -1
-0.22293 -0.111844 0.461784 0 0 1
-0.0584803 -0.336735 0.445053 0 0 -1
0.035129 0.344195 0.461784 0 0 1
-0.0926757 0.226799 0.461784 0 0 1
0.109828 0.239215 0.461784 0 0 1
0.0235918 -0.10901 0.461784 0 0 1
-0.211762 0.0358806 0.445053 0 0 -1
0.300065 -0.298503 0.04353 0.865634 -0.500677 0
-0.348229 -0.0695252 0.445053 0 0 -1
-0.204978 0.0699193 0.461784 0 0 1
-0.248206 0.258981 0.249747 0.0623556 0.93723 0.343092
0.238002 -0.222118 0.445053 0 0 -1
-0.148562 -0.327345 0.445053 0 0 -1
-0.0586038 0.391265 0.461784 0 0 1
-0.164694 0.212867 0.441706 0 0 -1
0.191484 -0.128482 0.461784 0 0 1
-0.0969632 0.229117 0.445053 0 0 -1
-0.113047 -0.363554 0.461784 0 0 1
0.197178 -0.12642 0.461784 0 0 1
-0.253437 0.154521 0.445053 0 0 -1
-0.116052 -0.141419 0.445053 0 0 -1
0.381568 0.0552056 0.461784 0 0 1
0.194921 -0.150828 0.441706 0 0 -1
-0.15855 0.363512 0.445053 0 0 -1
0.196492 0.270374 0.445053 0 0 -1
0.107545 0.105155 0.461784 0 0 1
-0.325427 -0.119106 0.461784 0 0 1
-0.0228339 0.340234 0.461784 0 0 1
0.176622 -0.122404 0.461784 0 0 1
0.142191 0.150971 0.445053 0 0 -1
0.00869134 -0.178673 0.445053 0 0 -1
-0.31263 -0.171512 0.445053 0 0 -1
-0.1989 0.224476 0.445053 0 0 -1
0.00189427 -0.00547186 0.445053 0 0 -1
-0.231955 0.0917313 0.461784 0 0 1
0.132804 0.0574163 0.445053 0 0 -1
0.24403 -0.104723 0.445053 0 0 -1
0.110466 0.151566 0.461784 0 0 1
0.0203563 -0.0954028 0.445053 0 0 -1
0.0470238 0.17925 0.461784 0 0 1
-0.20378 0.171199 0.441706 0 0 -1
-0.288524 0.289502 0.082708 0.841807 -0.486307 -0.234238
0.127709 -0.0883189 0.445053 0 0 -1
0.0466529 -0.00720203 0.461784 0 0 1
0.00108046 0.390204 0.445053 0 0 -1
0.0388493 -0.227662 0.461784 0 0 1
0.0530048 -0.0314768 0.461784 0 0 1
0.152145 0.0315243 0.461784 0 0 1
0.314398 0.191405 0.461784 0 0 1
0.250225 0.0667858 0.461784 0 0 1
0.14935 0.0961709 0.445053 0 0 -1
0.000960405 -0.196269 0.445053 0 0 -1
0.257956 0.0978356 0.445053 0 0 -1
0.124779 0.35361 0.461784 0 0 1
0.233581 0.281987 0.445053 0 0 -1
-0.305846 0.184021 0.445053 0 0 -1
-0.162222 0.00617293 0.445053 0 0 -1
0.0273955 0.318741 0.461784 0 0 1
-0.252777 -0.044948 0.445053 0 0 -1
0.130317 0.0723391 0.461784 0 0 1
-0.208424 -0.336767 0.445053 0 0 -1
0.0356572 -0.189334 0.461784 0 0 1
-0.0979618 -0.0289618 0.445053 0 0 -1
-0.0800059 0.0233808 0.445053 0 0 -1
0.214675 0.0212926 0.461784 0 0 1
-0.229866 -0.0456246 0.461784 0 0 1
0.341824 0.0312456 0.461784 0 0 1
-0.171135 -0.0862698 0.445053 0 0 -1
-0.255138 0.223729 0.445053 0 0 -1
-0.239936 0.27999 0.461784 0 0 1
-0.360864 0.126832 0.461784 0 0 1
-0.199636 -0.255149 0.461784 0 0 1
-0.111574 -0.303863 0.461784 0 0 1
0.273325 -0.260471 0.214684 0.937239 0.0624785 0.343044
-0.120213 -0.345498 0.461784 0 0 1
0.0725019 -0.313714 0.445053 0 0 -1
0.230131 0.142717 0.445053 0 0 -1
-0.291484 0.275614 0.45733 -0.740825 0.671698 0
0.166927 -0.136526 0.461784 0 0 1
-0.199596 -0.258059 0.445053 0 0 -1
0.155537 0.0729057 0.445053 0 0 -1
-0.0844307 -0.158071 0.445053 0 0 -1
-0.291803 0.304456 0.11089 0.499984 0.866035 0
-0.0217194 0.252593 0.461784 0 0 1
0.205237 0.0248893 0.445053 0 0 -1
0.0876407 -0.0745253 0.461784 0 0 1
0.199978 0.34773 0.456908 0.514108 0.857726 0
0.241919 -0.310211 0.445053 0 0 -1
-0.0514281 -0.182025 0.445053 0 0 -1
-0.140385 0.197152 0.461784 0 0 1
