0.275302 -0.346289 0.311693 0 0 1
0.17621 -0.22857 0.311693 0 0 1
0.0943798 -0.0844138 0.300786 0 0 -1
-0.155391 -0.157945 0.311693 0 0 1
-0.0334655 -0.269757 0.282028 0 0 -1
-0.00979766 0.184816 0.311693 0 0 1
0.121382 0.308137 0.311693 0 0 1
-0.0939212 0.267133 0.28078 0 -0.20503 0.978756
-0.244585 -0.204611 0.311693 0 0 1
0.274257 -0.166397 0.281067 -0.938989 3.38278e-06 -0.343946
-0.11726 0.0748318 0.300786 0 0 -1
-0.0168834 0.05368 0.300786 0 0 -1
0.243247 0.256158 0.311693 0 0 1
0.106144 0.263799 0.311693 0 0 1
-0.295951 0.213908 0.300786 0 0 -1
-0.18693 0.341172 0.300786 0 0 -1
0.341465 0.234179 0.311693 0 0 1
0.0314712 0.287563 0.311693 0 0 1
0.0958944 0.159701 0.311693 0 0 1
-0.161439 -0.0661021 0.311693 0 0 1
0.113478 0.00363344 0.311693 0 0 1
0.284524 0.179186 0.311693 0 0 1
0.191982 -0.283677 0.311693 0 0 1
0.323527 -0.113116 0.300786 0 0 -1
0.189454 -0.00525245 0.300786 0 0 -1
-0.317826 -0.257322 0.300786 0 0 -1
0.222154 0.185496 0.300786 0 0 -1
-0.294951 -0.145275 0.300786 0 0 -1
0.2806 -0.0343297 0.285235 0.974408 0 0.224787
0.0537634 -0.198585 0.311693 0 0 1
0.232728 0.085523 0.300786 0 0 -1
0.293602 0.112031 0.300786 0 0 -1
-0.202361 -0.292909 0.311693 0 0 1
0.136238 0.342507 0.300786 0 0 -1
0.0226643 -0.138339 0.300786 0 0 -1
0.311499 -0.241903 0.300786 0 0 -1
-0.314564 0.100092 0.311693 0 0 1
-0.0739262 -0.0418388 0.300786 0 0 -1
-0.109474 -0.311825 0.311693 0 0 1
-0.147293 0.0545081 0.300786 0 0 -1
0.232186 -0.0492558 0.311693 0 0 1
0.285431 -0.00408983 0.300786 0 0 -1
0.266737 0.141094 0.311693 0 0 1
0.287075 0.34655 0.300786 0 0 -1
0.0151975 0.343152 0.311693 0 0 1
-0.266913 0.134757 0.281265 -0.70801 0 0.706202
-0.150695 -0.00449973 0.311693 0 0 1
-0.048189 -0.291073 0.300786 0 0 -1
0.0848776 -0.265619 0.311693 0 0 1
-0.0954236 -0.183596 0.300786 0 0 -1
-0.196451 0.244627 0.300786 0 0 -1
0.0144044 0.261512 0.311693 0 0 1
-0.0172977 -0.0942674 0.300786 0 0 -1
-0.0795879 0.168202 0.300786 0 0 -1
0.34625 -0.244516 0.300786 0 0 -1
-0.310929 0.315443 0.0611455 0.992979 0 -0.118292
-0.00308681 0.128731 0.311693 0 0 1
0.164153 -0.119854 0.311693 0 0 1
0.167807 0.243357 0.311693 0 0 1
-0.299462 -0.0138167 0.300786 0 0 -1
0.0838503 0.0467278 0.300786 0 0 -1
-0.158529 -0.274668 0.2813 0 -0.939416 0.342779
-0.254139 0.348992 0.310279 0 1 0
-0.195132 0.194088 0.300786 0 0 -1
0.347051 0.083955 0.311693 0 0 1
-0.0889843 0.304329 0.311693 0 0 1
0.30012 -0.303503 0.311693 0 0 1
-0.221133 0.00466755 0.311693 0 0 1
0.264136 0.0574259 0.293971 0.707471 0 -0.706742
-0.0107704 -0.021437 0.300786 0 0 -1
-0.0436408 -0.243883 0.300786 0 0 -1
0.255149 -0.199417 0.311693 0 0 1
-0.237835 0.103011 0.300786 0 0 -1
-0.297361 0.268675 0.311693 0 0 1
0.128423 -0.21754 0.300786 0 0 -1
-0.125592 -0.0227478 0.311693 0 0 1
-0.277883 -0.168932 0.28304 0.70801 0 0.706202
0.0913616 0.300745 0.311693 0 0 1
0.0356873 -0.0581908 0.300786 0 0 -1
0.244553 -0.298252 0.311693 0 0 1
0.121511 0.0977221 0.300786 0 0 -1
-0.212811 -0.0833452 0.311693 0 0 1
-0.00557366 -0.197501 0.300786 0 0 -1
0.0215464 0.0128305 0.311693 0 0 1
0.0547229 -0.346909 0.311693 0 0 1
0.322579 0.269733 0.311693 0 0 1
-0.196408 -0.186631 0.300786 0 0 -1
-0.159344 0.294229 0.300786 0 0 -1
-0.0349876 0.265276 0.281239 0 -0.707194 -0.70702
-0.348991 -0.136269 0.305809 -1 0 0
-0.305353 -0.0651415 0.300786 0 0 -1
-0.222756 -0.244741 0.283555 0 0 -1
0.2126 -0.253 0.283555 0 0 -1
-0.33673 0.218205 0.300786 0 0 -1
-0.344291 0.312679 0.300786 0 0 -1
-0.289401 -0.212729 0.300786 0 0 -1
0.273404 0.198475 0.311693 0 0 1
0.172483 -0.169279 0.311693 0 0 1
-0.128379 0.2189 0.311693 0 0 1
-0.280983 -0.294729 0.300786 0 0 -1
0.035046 0.161369 0.311693 0 0 1
-0.0686278 -0.139218 0.311693 0 0 1
0.162543 -0.347572 0.300786 0 0 -1
0.299969 -0.0813289 0.311693 0 0 1
-0.130964 -0.209468 0.300786 0 0 -1
0.251143 0.130857 0.311693 0 0 1
-0.24406 0.199186 0.286475 0 -0.707511 -0.706702
-0.193849 -0.12816 0.300786 0 0 -1
-0.265329 -0.255936 0.235294 -0.843479 0.522178 0.12599
-0.269812 0.266253 0.198238 0.414724 -0.780084 -0.468479
0.145541 0.141787 0.300786 0 0 -1
-0.0995315 -0.280316 0.311693 0 0 1
0.112354 0.202907 0.311693 0 0 1
-0.302138 -0.292768 0.131208 -0.522397 0.843362 -0.125866
0.172854 0.307476 0.311693 0 0 1
-0.266859 0.0251595 0.311693 0 0 1
0.324981 -0.00950298 0.300786 0 0 -1
-0.137007 0.117389 0.300786 0 0 -1
0.242179 0.301288 0.300786 0 0 -1
0.075871 0.246162 0.300786 0 0 -1
0.216951 0.241136 0.311693 0 0 1
0.235582 -0.209254 0.283555 0 0 -1
0.0300042 0.0611803 0.300786 0 0 -1
0.277072 -0.130071 0.311693 0 0 1
-0.0558645 0.0796581 0.311693 0 0 1
0.15901 -0.278763 0.285426 7.42035e-06 0.340434 -0.940268
0.121703 -0.306537 0.311693 0 0 1
-0.200649 0.144751 0.300786 0 0 -1
-0.297069 0.0486876 0.311693 0 0 1
-0.049488 0.169714 0.311693 0 0 1
-0.00196746 -0.297292 0.300786 0 0 -1
0.191931 -0.0548343 0.300786 0 0 -1
0.0881158 -0.236091 0.311693 0 0 1
0.276333 -0.236895 0.280258 0.707624 0 -0.706589
0.020798 0.207959 0.311693 0 0 1
0.131395 -0.0388202 0.311693 0 0 1
-0.305962 -0.34389 0.300786 0 0 -1
0.262474 0.347076 0.300786 0 0 -1
-0.222504 0.260123 0.311693 0 0 1
-0.257235 0.249469 0.311693 0 0 1
-0.316865 -0.312766 0.0501192 0 0.972253 -0.233931
-0.0484157 0.337695 0.300786 0 0 -1
-0.0959291 0.252739 0.311693 0 0 1
-0.20414 0.297431 0.300786 0 0 -1
0.248135 0.063277 0.300786 0 0 -1
-0.197147 0.0451967 0.311693 0 0 1
-0.34737 0.0968861 0.311693 0 0 1
0.0718528 -0.313109 0.300786 0 0 -1
0.243097 -0.156246 0.311693 0 0 1
-0.070917 -0.217116 0.311693 0 0 1
0.0583927 0.271256 0.282901 0 0 1
-0.291594 0.122395 0.300786 0 0 -1
0.252381 -0.249725 0.268193 0.77969 -0.41527 0.468652
-0.230554 -0.279165 0.311693 0 0 1
-0.171715 -0.271569 0.311693 0 0 1
0.252908 0.242673 0.263487 0.843382 -0.52236 0.125885
-0.10341 0.0285112 0.311693 0 0 1
0.316134 0.201458 0.311693 0 0 1
-0.301881 0.314138 0.300786 0 0 -1
0.187689 0.0863105 0.311693 0 0 1
-0.0200892 0.00494739 0.300786 0 0 -1
0.272719 -0.280589 0.181844 -0.937278 -0.0628919 -0.342861
0.306372 -0.315576 0.100557 -0.843244 -0.522618 -0.125736
-0.27001 -0.0603176 0.282901 0 0 1
-0.204484 0.27872 0.285442 -7.42034e-06 -0.340434 -0.940268
-0.141305 -0.109543 0.311693 0 0 1
0.0780855 -0.143797 0.300786 0 0 -1
-0.0647205 -0.087054 0.311693 0 0 1
-0.277366 -0.230012 0.281296 -0.707196 0 -0.707017
-0.145818 -0.317268 0.300786 0 0 -1
-0.294661 -0.128706 0.311693 0 0 1
-0.174732 0.212827 0.300786 0 0 -1
0.273589 -0.0615647 0.282028 0 0 -1
-0.235051 0.2386 0.311693 0 0 1
-0.211503 -0.341314 0.300786 0 0 -1
-0.276398 -0.178414 0.300786 0 0 -1
0.0364443 -0.0945267 0.311693 0 0 1
-0.202524 -0.239108 0.311693 0 0 1
-0.0215847 0.240187 0.311693 0 0 1
0.145021 -0.0114713 0.311693 0 0 1
-0.271245 0.180762 0.311693 0 0 1
0.274563 0.170809 0.282786 0.939416 0 0.342779
-0.0275357 0.0942372 0.300786 0 0 -1
0.212084 0.278804 0.286335 0 0.34189 0.93974
0.302742 -0.044099 0.311693 0 0 1
0.277795 0.287164 0.174839 -0.523139 0.842969 0.125413
0.104528 0.119215 0.300786 0 0 -1
0.203261 -0.197968 0.311693 0 0 1
0.322405 0.316844 0.0908779 0.963243 -0.0345523 0.266402
0.2757 -0.274632 0.300786 0 0 -1
0.0647509 0.136151 0.311693 0 0 1
-0.341693 -0.238456 0.300786 0 0 -1
-0.275867 -0.125873 0.281019 0.70801 0 0.706202
0.218909 0.145142 0.300786 0 0 -1
0.0969906 -0.295912 0.300786 0 0 -1
-0.0498623 -0.105179 0.311693 0 0 1
0.137679 0.0327896 0.311693 0 0 1
-0.119998 0.280099 0.285516 0 0.974417 0.224747
0.134618 -0.0835145 0.311693 0 0 1
0.0838235 -0.0259939 0.300786 0 0 -1
0.310298 0.29728 0.311693 0 0 1
0.236061 -0.0942512 0.311693 0 0 1
0.264581 -0.0177021 0.311693 0 0 1
-0.273451 -0.241574 0.311693 0 0 1
0.00800259 -0.267272 0.28088 0 0.766723 0.641979
0.268065 -0.216349 0.311693 0 0 1
-0.291994 -0.170707 0.300786 0 0 -1
0.338364 0.0460453 0.311693 0 0 1
-0.316359 0.243638 0.300786 0 0 -1
0.0139364 0.0974253 0.311693 0 0 1
0.244268 0.204927 0.283555 0 0 -1
0.147518 0.179138 0.311693 0 0 1
-0.198752 -0.0337238 0.311693 0 0 1
0.309857 0.153523 0.311693 0 0 1
0.305624 0.0802378 0.311693 0 0 1
-0.264176 -0.190898 0.284009 -0.70801 0 0.706202
-0.224162 0.346569 0.300786 0 0 -1
-0.0346864 0.204757 0.300786 0 0 -1
-0.0544407 0.2801 0.300786 0 0 -1
-0.0957738 0.106381 0.311693 0 0 1
-0.110756 -0.342613 0.311693 0 0 1
-0.126897 -0.252802 0.300786 0 0 -1
0.0725301 0.00895992 0.300786 0 0 -1
0.0624419 0.315818 0.311693 0 0 1
-0.110394 -0.0618015 0.311693 0 0 1
0.109814 -0.266833 0.311693 0 0 1
-0.308273 -0.316774 0.311693 0 0 1
0.137635 0.278677 0.294973 5.5796e-06 0.707194 0.70702
0.177229 0.0256878 0.300786 0 0 -1
0.208161 0.0542735 0.311693 0 0 1
-0.0808805 -0.267831 0.282258 0 0.93982 0.341671
-0.274022 0.225933 0.281706 0.939813 -3.36057e-06 -0.341688
0.125757 -0.128506 0.311693 0 0 1
0.178059 -0.0842529 0.300786 0 0 -1
0.159148 -0.261343 0.311693 0 0 1
-0.264931 0.0927394 0.283252 -0.70801 0 0.706202
0.0878402 -0.166879 0.300786 0 0 -1
-0.321084 -0.233447 0.311693 0 0 1
0.229461 -0.00505632 0.300786 0 0 -1
0.00807098 0.300623 0.311693 0 0 1
0.00796181 -0.225543 0.300786 0 0 -1
-0.268648 -0.0207836 0.280743 -0.939433 -3.37084e-06 -0.342732
-0.327743 -0.279388 0.311693 0 0 1
-0.18283 -0.102605 0.300786 0 0 -1
0.278486 -0.126228 0.288433 1 0 0
-0.0138125 -0.12161 0.300786 0 0 -1
0.0634494 -0.273578 0.281728 0 0.939643 -0.342157
0.302422 0.236862 0.300786 0 0 -1
0.0663023 0.268273 0.311693 0 0 1
-0.034699 -0.3287 0.300786 0 0 -1
-0.0930648 0.198872 0.300786 0 0 -1
0.155356 0.089385 0.311693 0 0 1
0.300119 -0.159569 0.300786 0 0 -1
0.085639 0.0826141 0.311693 0 0 1
0.295098 0.0278733 0.300786 0 0 -1
-0.0280842 -0.272734 0.311693 0 0 1
-0.221665 -0.157875 0.311693 0 0 1
-0.138915 -0.278902 0.311693 0 0 1
-0.0700535 -0.306651 0.300786 0 0 -1
0.185413 -0.32071 0.300786 0 0 -1
-0.238548 0.276788 0.281154 0 0.707281 -0.706933
0.193575 0.281545 0.311693 0 0 1
-0.348606 -0.0415864 0.311249 -0.707853 0 0.706359
-0.233459 0.0759486 0.311693 0 0 1
-0.0342034 0.273736 0.311693 0 0 1
0.133728 0.250884 0.300786 0 0 -1
0.126194 -0.110373 0.300786 0 0 -1
-0.312444 -0.0986782 0.300786 0 0 -1
-0.276031 -0.0467264 0.311693 0 0 1
0.218838 -0.288495 0.300786 0 0 -1
0.250295 0.27592 0.280286 0 0.707281 -0.706933
0.270587 0.0831635 0.311693 0 0 1
-0.0621432 0.0478742 0.311693 0 0 1
0.314542 -0.0990554 0.300786 0 0 -1
-0.0887738 0.334893 0.300786 0 0 -1
0.121113 -0.269511 0.282028 0 0 -1
-0.159917 0.0256745 0.311693 0 0 1
-0.148347 0.324738 0.300786 0 0 -1
0.277784 0.312298 0.311693 0 0 1
0.0016821 0.276072 0.280438 0 0.707281 -0.706933
-0.313856 0.02688 0.300786 0 0 -1
0.251548 -0.12563 0.311693 0 0 1
0.0683139 -0.103793 0.311693 0 0 1
-0.116983 0.181122 0.311693 0 0 1
0.11705 0.0595842 0.300786 0 0 -1
-0.148708 0.0883226 0.311693 0 0 1
-0.0408223 -0.196882 0.311693 0 0 1
-0.307212 -0.0476339 0.311693 0 0 1
0.131007 -0.331245 0.311693 0 0 1
-0.0728351 0.264099 0.288194 0 -1 0
0.0491756 -0.163945 0.311693 0 0 1
0.318942 -0.333564 0.300786 0 0 -1
0.153456 -0.149776 0.311693 0 0 1
0.32593 0.136121 0.311693 0 0 1
0.0409887 -0.238103 0.311693 0 0 1
-0.332695 -0.165052 0.311693 0 0 1
0.340023 -0.207904 0.300786 0 0 -1
0.204857 -0.079111 0.300786 0 0 -1
0.0319659 0.132166 0.311693 0 0 1
0.262803 0.007513 0.28415 -0.707278 0 -0.706935
-0.167607 -0.190009 0.300786 0 0 -1
0.0136145 0.237727 0.300786 0 0 -1
-0.316781 0.186412 0.300786 0 0 -1
-0.0728418 -0.265085 0.311693 0 0 1
-0.0469707 -0.00958529 0.311693 0 0 1
-0.238248 -0.176551 0.300786 0 0 -1
0.333101 -0.270756 0.300786 0 0 -1
0.105768 -0.197021 0.311693 0 0 1
-0.128191 -0.164438 0.300786 0 0 -1
0.0041917 -0.0879528 0.311693 0 0 1
-0.116039 -0.265936 0.281808 0 -0.707918 0.706294
-0.246718 -0.0940966 0.300786 0 0 -1
0.202084 0.210223 0.300786 0 0 -1
0.348991 -0.152801 0.308278 1 0 0
-0.316652 0.136294 0.300786 0 0 -1
0.19517 -0.267242 0.280845 0 0.766723 0.641979
-0.101351 -0.138994 0.300786 0 0 -1
-0.120371 0.279534 0.311693 0 0 1
-0.239265 -0.268831 0.282901 0 0 1
0.0610425 0.175705 0.311693 0 0 1
0.319547 0.334444 0.311693 0 0 1
0.255644 -0.274227 0.281129 0.447798 0.840503 -0.305011
-0.166159 0.269754 0.282901 0 0 1
0.247135 0.233427 0.283555 0 0 -1
-0.274998 -0.0655843 0.311693 0 0 1
-0.272716 0.0377284 0.282028 0 0 -1
0.237121 -0.321426 0.300786 0 0 -1
-0.215121 -0.204925 0.311693 0 0 1
-0.273906 0.137225 0.311693 0 0 1
0.0959778 0.272889 0.282901 0 0 1
0.261606 0.241107 0.311693 0 0 1
-0.0592369 0.150071 0.300786 0 0 -1
-0.0566007 0.243376 0.300786 0 0 -1
0.276149 -0.204057 0.280121 0.438212 0 -0.898872
-0.099107 -0.00426552 0.300786 0 0 -1
0.274154 -0.310135 0.300786 0 0 -1
0.0588971 0.0674328 0.311693 0 0 1
0.00967821 -0.315839 0.300786 0 0 -1
0.0214248 -0.178329 0.311693 0 0 1
-0.156763 0.143063 0.311693 0 0 1
-0.169944 -0.0341568 0.300786 0 0 -1
0.234676 -0.225699 0.311693 0 0 1
0.0945641 -0.277885 0.285744 7.42035e-06 0.340434 -0.940268
-0.190257 -0.26461 0.283137 0 -0.707918 0.706294
0.108833 -0.0500119 0.300786 0 0 -1
-0.267605 -0.164549 0.311693 0 0 1
-0.242099 -0.226526 0.283555 0 0 -1
-0.275454 0.16905 0.28078 -0.197817 0 0.980239
-0.232718 -0.0299104 0.311693 0 0 1
0.137169 0.00615215 0.311693 0 0 1
-0.033278 -0.144324 0.300786 0 0 -1
-0.262569 -0.138941 0.28567 0.630262 0 0.776383
-0.0991361 0.141045 0.311693 0 0 1
-0.347532 0.0632944 0.300786 0 0 -1
0.269334 -0.169281 0.311693 0 0 1
0.181915 0.0538833 0.300786 0 0 -1
-0.283041 0.34895 0.30194 0 0.966112 -0.258122
-0.0143555 0.341845 0.311693 0 0 1
0.253397 0.168059 0.300786 0 0 -1
-0.306089 -0.195002 0.311693 0 0 1
-0.330619 -0.00219348 0.311693 0 0 1
0.111782 0.325797 0.300786 0 0 -1
0.158454 -0.215714 0.300786 0 0 -1
0.234059 0.334209 0.311693 0 0 1
0.0405714 0.338585 0.300786 0 0 -1
0.19102 0.17827 0.311693 0 0 1
0.324494 0.103915 0.300786 0 0 -1
0.207701 0.302122 0.300786 0 0 -1
-0.242621 -0.231089 0.311693 0 0 1
0.348991 -0.12512 0.309404 1 0 0
-0.219629 0.124742 0.300786 0 0 -1
0.0736174 -0.0771356 0.300786 0 0 -1
-0.177443 0.169767 0.311693 0 0 1
-0.176997 -0.297024 0.300786 0 0 -1
0.348991 -0.0820802 0.305804 1 0 0
-0.269095 0.217331 0.311693 0 0 1
-0.0380136 0.122909 0.311693 0 0 1
-0.272726 -0.0110055 0.311693 0 0 1
0.113049 0.28392 0.311693 0 0 1
0.085564 0.189372 0.300786 0 0 -1
0.278486 0.0303822 0.286805 1 0 0
0.217891 0.265731 0.311693 0 0 1
-0.300115 0.153046 0.300786 0 0 -1
-0.246858 0.0168195 0.300786 0 0 -1
-0.0315954 -0.0453723 0.300786 0 0 -1
-0.00581601 -0.143228 0.300786 0 0 -1
0.307891 -0.208296 0.311693 0 0 1
0.19031 -0.132836 0.300786 0 0 -1
-0.274183 0.287771 0.311693 0 0 1
-0.251448 0.130478 0.311693 0 0 1
0.156269 -0.290714 0.300786 0 0 -1
0.100055 -0.320365 0.300786 0 0 -1
0.00759628 0.160764 0.300786 0 0 -1
0.301342 0.202323 0.300786 0 0 -1
0.202941 0.255729 0.294462 0 0 1
-0.183625 0.272866 0.311693 0 0 1
0.263832 -0.0601322 0.311693 0 0 1
0.142306 -0.191768 0.311693 0 0 1
-0.00782366 0.278029 0.295622 0 0.707537 0.706677
-0.253868 -0.306245 0.311693 0 0 1
-0.119151 0.307807 0.300786 0 0 -1
-0.159645 -0.124315 0.311693 0 0 1
-0.169226 0.12556 0.300786 0 0 -1
0.20522 0.115161 0.300786 0 0 -1
0.0351467 0.27656 0.282151 0 -0.708007 0.706205
0.337839 0.0149432 0.311693 0 0 1
-0.316018 0.284172 0.300786 0 0 -1
-0.345765 0.196598 0.311693 0 0 1
0.309696 0.332577 0.000579936 -0.382904 0.923788 0
0.269064 0.0880128 0.281884 0.940016 0 -0.341131
0.247295 0.222879 0.311693 0 0 1
-0.212273 0.236601 0.283555 0 0 -1
0.177346 -0.0353046 0.300786 0 0 -1
-0.0606274 -0.17233 0.300786 0 0 -1
0.226682 0.211082 0.311693 0 0 1
-0.227711 0.179447 0.300786 0 0 -1
0.328803 -0.29816 0.311693 0 0 1
-0.308775 0.317621 0.0928963 0.843243 0.522953 -0.12434
0.0420802 -0.308756 0.311693 0 0 1
-0.0864708 -0.337518 0.311693 0 0 1
-0.0233636 0.156656 0.311693 0 0 1
0.0455304 0.0364302 0.311693 0 0 1
0.346774 0.186965 0.300786 0 0 -1
-0.201084 0.328225 0.311693 0 0 1
-0.214208 -0.101649 0.300786 0 0 -1
-0.275974 -0.0911341 0.281127 0.70801 0 0.706202
0.0424173 0.238284 0.300786 0 0 -1
0.0135599 -0.0339231 0.300786 0 0 -1
0.0394941 0.00441507 0.300786 0 0 -1
-0.152012 0.28018 0.285162 0 0.974417 0.224747
-0.127324 -0.0786489 0.300786 0 0 -1
0.174397 0.332143 0.311693 0 0 1
-0.174862 0.318538 0.311693 0 0 1
0.334999 0.287501 0.300786 0 0 -1
0.191772 0.239332 0.311693 0 0 1
-0.288011 -0.267329 0.311693 0 0 1
-0.137195 0.0215174 0.300786 0 0 -1
0.0303947 0.190537 0.300786 0 0 -1
-0.159023 0.348507 0.311348 0 0.707129 0.707085
-0.0814355 0.0672555 0.300786 0 0 -1
0.301693 -0.266355 0.311693 0 0 1
-0.286391 0.235291 0.311693 0 0 1
-0.0105905 -0.244042 0.311693 0 0 1
0.0133246 0.0387375 0.300786 0 0 -1
-0.348991 -0.288349 0.305545 -1 0 0
0.272986 0.139568 0.282901 0 0 1
-0.223146 0.151947 0.300786 0 0 -1
-0.100579 -0.210278 0.300786 0 0 -1
-0.0372104 0.035592 0.311693 0 0 1
0.115637 0.236229 0.311693 0 0 1
-0.195809 -0.00372791 0.311693 0 0 1
-0.211754 -0.267901 0.311693 0 0 1
-0.0759576 -0.105612 0.300786 0 0 -1
0.272484 -0.0915733 0.282901 0 0 1
-0.32539 -0.302204 0.00271936 -0.127922 0.308621 0.942544
0.218278 -0.23123 0.283555 0 0 -1
-0.318074 -0.13995 0.300786 0 0 -1
0.228212 -0.266327 0.311693 0 0 1
-0.219117 -0.316061 0.311693 0 0 1
-0.264185 -0.282148 0.300786 0 0 -1
0.140801 0.219476 0.300786 0 0 -1
-0.0876452 -0.075142 0.311693 0 0 1
0.164098 0.273402 0.300786 0 0 -1
0.17228 0.116076 0.311693 0 0 1
0.192589 -0.251998 0.311693 0 0 1
-0.295457 -0.28812 0.160421 -0.937221 0.0622265 0.343138
0.229177 0.117268 0.300786 0 0 -1
-0.122573 0.147902 0.300786 0 0 -1
0.113768 0.173013 0.300786 0 0 -1
-0.000949204 -0.268038 0.311693 0 0 1
0.275116 0.196387 0.281271 0.939416 0 0.342779
-0.252731 0.199425 0.311693 0 0 1
-0.331454 -0.33121 0.311693 0 0 1
0.0647903 -0.287221 0.311693 0 0 1
0.194873 -0.0986169 0.300786 0 0 -1
-0.14776 0.228254 0.300786 0 0 -1
-0.00714201 0.219195 0.300786 0 0 -1
-0.225829 -0.0512736 0.300786 0 0 -1
-0.315055 0.313663 0.0269778 0.500618 -0.865668 0
0.0590048 -0.0500551 0.300786 0 0 -1
-0.277734 -0.348992 0.306734 0 -1 0
-0.27849 0.251911 0.289976 -1 0 0
-0.0973856 -0.0298565 0.300786 0 0 -1
0.0912982 0.342505 0.311693 0 0 1
0.032226 -0.20761 0.311693 0 0 1
-0.3155 0.066726 0.300786 0 0 -1
0.066622 -0.229285 0.311693 0 0 1
-0.0986891 0.0536432 0.300786 0 0 -1
0.322744 -0.066835 0.300786 0 0 -1
-0.239649 0.320889 0.311693 0 0 1
0.00463179 0.32174 0.300786 0 0 -1
-0.0598499 0.314228 0.311693 0 0 1
0.297443 0.0582881 0.300786 0 0 -1
0.0785849 -0.348992 0.308114 0 -1 0
-0.0567044 0.105535 0.311693 0 0 1
-0.18928 -0.149186 0.311693 0 0 1
0.00779992 -0.055086 0.311693 0 0 1
0.263141 -0.143232 0.294205 -0.707191 0 0.707022
0.0877425 0.220346 0.311693 0 0 1
0.115269 0.269674 0.282901 0 0 1
-0.341129 0.126406 0.311693 0 0 1
-0.205785 0.0855273 0.300786 0 0 -1
0.0577066 -0.258268 0.300786 0 0 -1
0.117874 0.148978 0.300786 0 0 -1
-0.285675 -0.109145 0.300786 0 0 -1
0.348991 0.124643 0.305936 1 0 0
0.144362 -0.313796 0.311693 0 0 1
-0.299275 -0.307594 0.115121 0.84321 -0.522687 -0.12568
0.255499 0.100037 0.311693 0 0 1
-0.271626 0.00391072 0.295115 0 0 -1
0.2175 0.00905797 0.300786 0 0 -1
-0.0710055 -0.243916 0.300786 0 0 -1
0.0877432 0.107994 0.300786 0 0 -1
-0.316785 0.324373 0.311693 0 0 1
-0.157898 0.185875 0.300786 0 0 -1
-0.184919 -0.218001 0.311693 0 0 1
0.192121 0.147343 0.311693 0 0 1
-0.0371541 0.228643 0.300786 0 0 -1
0.178939 -0.200202 0.311693 0 0 1
0.0969939 -0.105033 0.311693 0 0 1
0.272576 0.0363753 0.311693 0 0 1
-0.070449 0.201157 0.311693 0 0 1
-0.092197 -0.155795 0.311693 0 0 1
0.149513 -0.0704375 0.300786 0 0 -1
-0.14957 -0.27805 0.287963 0 -1 0
-0.200294 -0.317654 0.300786 0 0 -1
-0.235716 -0.34854 0.311315 0 -0.707129 0.707085
-0.0247755 0.0751234 0.311693 0 0 1
-0.310777 0.00330758 0.300786 0 0 -1
0.0021928 -0.000162542 0.300786 0 0 -1
-0.0520901 -0.0597076 0.300786 0 0 -1
-0.330584 -0.119635 0.311693 0 0 1
0.290298 -0.115782 0.300786 0 0 -1
0.258446 0.190132 0.300786 0 0 -1
0.121815 0.121441 0.311693 0 0 1
0.277762 -0.243831 0.311693 0 0 1
0.259241 -0.222474 0.294462 0 0 1
0.211011 -0.221152 0.300786 0 0 -1
-0.134192 0.263581 0.293852 0 0.707379 -0.706834
0.159652 -0.0265478 0.311693 0 0 1
-0.177635 0.0595424 0.300786 0 0 -1
0.147868 0.298741 0.300786 0 0 -1
-0.267128 0.325566 0.300786 0 0 -1
-0.292557 0.0808903 0.311693 0 0 1
-0.172034 0.239226 0.300786 0 0 -1
-0.311041 -0.293541 0.300786 0 0 -1
-0.252277 0.268107 0.300786 0 0 -1
0.310519 -0.13892 0.311693 0 0 1
-0.11365 0.241003 0.300786 0 0 -1
0.346593 -0.0246201 0.300786 0 0 -1
0.0484821 -0.109115 0.300786 0 0 -1
-0.177488 0.15071 0.311693 0 0 1
0.136494 0.0726037 0.311693 0 0 1
-0.246833 -0.0121198 0.300786 0 0 -1
0.0391498 -0.26361 0.28414 0 -0.707918 0.706294
0.155088 -0.102286 0.300786 0 0 -1
-0.230132 0.0328749 0.311693 0 0 1
-0.119004 -0.194332 0.311693 0 0 1
-0.13354 -0.231833 0.311693 0 0 1
0.304074 0.317175 0.300786 0 0 -1
-0.332241 -0.0971664 0.311693 0 0 1
-0.259935 0.257549 0.221474 0.414724 -0.780084 -0.468479
-0.288507 -0.240079 0.300786 0 0 -1
-0.277622 0.195706 0.29191 1 0 0
0.297287 -0.339868 0.311693 0 0 1
-0.250485 -0.243604 0.254644 -0.0624184 0.93725 -0.343026
0.0626496 -0.00802889 0.311693 0 0 1
0.235914 0.265506 0.282239 0 0.707918 0.706294
0.136711 -0.27373 0.300786 0 0 -1
0.292904 0.283807 0.152917 0.52263 -0.843238 -0.125729
0.216813 0.240783 0.283555 0 0 -1
0.0134087 0.0735285 0.311693 0 0 1
-0.348991 0.241141 0.305115 -1 0 0
0.277957 -0.271765 0.205219 0.937156 0.0612838 0.343488
-0.218647 -0.223833 0.300786 0 0 -1
-0.193388 -0.0673327 0.300786 0 0 -1
-0.338698 0.292056 0.311693 0 0 1
-0.235158 0.219762 0.300786 0 0 -1
0.0384979 0.30856 0.300786 0 0 -1
0.0299449 -0.332003 0.300786 0 0 -1
-0.0116411 0.294151 0.300786 0 0 -1
-0.149878 -0.201175 0.311693 0 0 1
-0.114582 -0.125517 0.311693 0 0 1
-0.275441 0.280369 0.174366 0.937235 0.0621761 -0.34311
-0.146219 -0.0814726 0.300786 0 0 -1
-0.290137 -0.0907682 0.311693 0 0 1
0.251533 -0.0337482 0.300786 0 0 -1
0.231122 -0.273623 0.282901 0 0 1
0.301401 -0.309665 0.122205 -0.523143 -0.842964 0.125434
-0.168091 0.0967066 0.300786 0 0 -1
-0.0101077 -0.164118 0.311693 0 0 1
-0.123187 -0.295863 0.300786 0 0 -1
0.236411 -0.138439 0.300786 0 0 -1
-0.268253 -0.261777 0.208223 -0.0624184 0.93725 -0.343026
0.261883 -0.252959 0.245717 0.937225 0.0622155 0.34313
0.28015 -0.188213 0.300786 0 0 -1
0.186749 -0.338677 0.311693 0 0 1
-0.320504 -0.323186 0.0721035 -0.500137 -0.865946 0
0.0812504 -0.265427 0.281088 0 0.707194 -0.70702
-0.0511335 -0.271321 0.295115 0 0 -1
0.179911 0.256284 0.300786 0 0 -1
0.0545335 0.24673 0.311693 0 0 1
0.294627 0.276981 0.311693 0 0 1
0.0873363 0.141324 0.300786 0 0 -1
0.236277 -0.176906 0.300786 0 0 -1
-0.19131 0.125072 0.311693 0 0 1
-0.0753872 0.0891924 0.311693 0 0 1
-0.0696243 0.302085 0.300786 0 0 -1
-0.242456 -0.257111 0.300786 0 0 -1
-0.134684 -0.0566592 0.311693 0 0 1
0.226527 0.0265422 0.311693 0 0 1
-0.310958 0.30155 0.002679 0.127928 -0.308637 0.942538
0.222483 0.221469 0.284653 -0.70709 -0.707124 0
-0.0669541 -0.29231 0.311693 0 0 1
-0.269572 -0.254419 0.282801 0 -1 0
0.0880136 -0.212041 0.300786 0 0 -1
0.258141 -0.323178 0.311693 0 0 1
-0.264109 -0.101059 0.286454 0.341682 0 0.939816
0.145085 0.321471 0.311693 0 0 1
-0.189269 -0.336958 0.311693 0 0 1
0.322743 0.227702 0.311693 0 0 1
0.308274 0.000285298 0.311693 0 0 1
-0.327878 -0.0581062 0.300786 0 0 -1
-0.225426 0.0576583 0.300786 0 0 -1
0.294893 -0.174247 0.311693 0 0 1
-0.00947422 0.108471 0.311693 0 0 1
0.199508 -0.0342084 0.311693 0 0 1
0.322593 -0.160983 0.311693 0 0 1
0.265692 0.327574 0.311693 0 0 1
-0.0852665 -0.195745 0.311693 0 0 1
0.0230664 -0.107682 0.311693 0 0 1
0.242369 -0.237089 0.283555 0 0 -1
-0.0474877 -0.12858 0.311693 0 0 1
-0.01964 0.0279082 0.311693 0 0 1
-0.266723 -0.259864 0.300786 0 0 -1
0.150966 0.2631 0.28532 -7.41443e-06 0.342494 -0.93952
0.275965 0.162864 0.296899 -0.707379 0 -0.706834
-0.318283 -0.212271 0.300786 0 0 -1
-0.20214 0.0265856 0.300786 0 0 -1
0.277529 0.221977 0.311693 0 0 1
-0.228896 0.295793 0.311693 0 0 1
-0.317076 0.161263 0.311693 0 0 1
0.199237 -0.182727 0.300786 0 0 -1
-0.0432708 0.061977 0.300786 0 0 -1
-0.254072 -0.0703935 0.300786 0 0 -1
-0.170994 -0.0884111 0.311693 0 0 1
0.266042 -0.181905 0.280909 -0.707278 0 -0.706935
-0.285133 0.0991797 0.300786 0 0 -1
-0.0930661 0.273236 0.295988 0 0 1
0.112091 -0.0700707 0.311693 0 0 1
0.330332 0.177581 0.311693 0 0 1
0.113354 -0.0197326 0.311693 0 0 1
0.100387 -0.129669 0.300786 0 0 -1
-0.10693 0.321985 0.311693 0 0 1
-0.0650995 -0.325251 0.311693 0 0 1
0.105184 -0.154063 0.311693 0 0 1
0.0238919 -0.277968 0.292304 0 0.342177 0.939636
-0.115568 0.00509277 0.311693 0 0 1
-0.117958 0.0493031 0.311693 0 0 1
-0.0816659 -0.0225514 0.311693 0 0 1
0.348991 0.256795 0.30492 1 0 0
0.291437 -0.281541 0.166501 0.842969 0.523138 0.12542
0.0987998 0.0393816 0.311693 0 0 1
0.0504642 0.285031 0.300786 0 0 -1
0.271527 0.279722 0.198714 -0.522978 0.843054 0.125514
-0.245668 -0.144275 0.300786 0 0 -1
0.0555353 -0.13589 0.300786 0 0 -1
-0.341921 -0.260504 0.311693 0 0 1
0.261024 0.252448 0.283555 0 0 -1
0.267807 0.00470036 0.311693 0 0 1
0.147852 -0.127463 0.300786 0 0 -1
-0.188979 0.262683 0.291922 0 -0.341907 -0.939734
-0.0131071 -0.263422 0.291653 0 0.341907 -0.939734
-0.193426 0.218714 0.300786 0 0 -1
-0.206341 0.167311 0.300786 0 0 -1
0.267738 -0.112007 0.311693 0 0 1
-0.210791 -0.277186 0.287748 0 1 0
0.102609 0.0676905 0.311693 0 0 1
0.334307 -0.107526 0.311693 0 0 1
-0.0327888 -0.0220591 0.300786 0 0 -1
-0.0265576 -0.210642 0.300786 0 0 -1
0.292242 0.255084 0.311693 0 0 1
0.255858 0.0422294 0.300786 0 0 -1
-0.217823 -0.297131 0.300786 0 0 -1
0.253643 0.252037 0.236212 -0.415393 -0.779675 -0.468568
0.0759917 0.163505 0.300786 0 0 -1
0.0312413 -0.0174227 0.311693 0 0 1
0.229781 -0.194873 0.311693 0 0 1
0.26249 -0.24997 0.292489 -0.976124 0 -0.217212
0.164102 0.0679347 0.311693 0 0 1
0.140162 -0.348992 0.303399 0 -1 0
-0.263428 -0.214102 0.285986 -0.707107 0 -0.707107
-0.232014 -0.245856 0.311693 0 0 1
0.26412 -0.0249469 0.282832 -0.707278 0 -0.706935
-0.0228989 -0.229473 0.300786 0 0 -1
0.290185 0.152258 0.300786 0 0 -1
0.214802 0.0945 0.311693 0 0 1
0.291422 -0.227556 0.300786 0 0 -1
-0.15173 -0.255917 0.311693 0 0 1
0.0175278 -0.0749512 0.300786 0 0 -1
0.23178 0.252797 0.294462 0 0 1
0.0711139 0.0325331 0.300786 0 0 -1
-0.089679 -0.056131 0.300786 0 0 -1
-0.267045 0.110575 0.311693 0 0 1
-0.075297 -0.27889 0.29476 0 -0.707537 0.706677
-0.0820388 0.0363408 0.300786 0 0 -1
0.328386 -0.132576 0.311693 0 0 1
-0.273731 0.156158 0.300786 0 0 -1
-0.280452 0.0631699 0.28567 -0.630262 0 0.776383
-0.130872 -0.340492 0.300786 0 0 -1
-0.0330094 -0.312875 0.311693 0 0 1
-0.313204 -0.172908 0.311693 0 0 1
0.294875 0.13432 0.311693 0 0 1
-0.286129 -0.316848 0.300786 0 0 -1
-0.0310824 -0.18188 0.300786 0 0 -1
-0.246981 0.0583534 0.300786 0 0 -1
0.324019 -0.301058 0.00200055 0.382904 0.923788 0
0.332377 0.210405 0.300786 0 0 -1
-0.221676 0.259807 0.283555 0 0 -1
-0.0543788 -0.212253 0.300786 0 0 -1
-0.138528 0.3048 0.311693 0 0 1
-0.292707 0.192382 0.311693 0 0 1
0.0763003 -0.1889 0.311693 0 0 1
0.239643 0.283665 0.311693 0 0 1
0.274425 0.164717 0.311693 0 0 1
0.109214 -0.22158 0.311693 0 0 1
0.339962 -0.331648 0.302892 0.772888 -0.634542 0
0.227303 -0.0730889 0.300786 0 0 -1
0.206797 -0.267883 0.300786 0 0 -1
0.0649143 -0.32912 0.311693 0 0 1
-0.0464676 -0.27564 0.311693 0 0 1
0.0365594 0.0917006 0.311693 0 0 1
0.244373 -0.27677 0.300786 0 0 -1
-0.0224001 0.263027 0.294528 0 -0.707107 0.707107
-0.265271 -0.0479477 0.296337 0.70745 5.57758e-06 0.706764
0.237919 0.347724 0.300798 0 0.264995 -0.96425
0.32686 -0.0392158 0.300786 0 0 -1
0.04846 -0.0772673 0.300786 0 0 -1
-0.280563 -0.0243357 0.292624 -0.974318 0 -0.225177
0.172319 0.00644952 0.311693 0 0 1
0.247448 0.198343 0.311693 0 0 1
0.320759 0.323039 0.0686113 0.500015 0.866017 0
-0.185896 -0.255923 0.300786 0 0 -1
0.303081 0.179695 0.300786 0 0 -1
0.16093 0.221239 0.311693 0 0 1
-0.130558 0.196433 0.300786 0 0 -1
0.261889 0.210584 0.294462 0 0 1
0.141514 -0.23543 0.300786 0 0 -1
0.19066 0.268257 0.280866 0 0.939807 -0.341705
-0.310134 0.226907 0.311693 0 0 1
-0.111854 0.116949 0.300786 0 0 -1
0.201059 -0.30497 0.300786 0 0 -1
-0.252217 0.178654 0.300786 0 0 -1
-0.0772723 0.133864 0.300786 0 0 -1
-0.0526988 -0.0361703 0.300786 0 0 -1
0.24793 -0.00321513 0.311693 0 0 1
0.0498025 0.176405 0.300786 0 0 -1
-0.20948 -0.143306 0.300786 0 0 -1
-0.0972649 0.0793801 0.311693 0 0 1
0.131033 -0.0187577 0.300786 0 0 -1
-0.0169261 -0.314622 0.300786 0 0 -1
-0.0402965 -0.0742465 0.311693 0 0 1
-0.201356 -0.240337 0.291555 0.500105 0.500152 0.706924
-0.248523 -0.199532 0.291074 0 1 0
-0.0725135 0.334209 0.311693 0 0 1
-0.278732 -0.151891 0.282663 -0.707196 0 -0.707017
-0.293034 0.331829 0.311693 0 0 1
0.0981613 0.00557378 0.300786 0 0 -1
0.314012 0.310121 0.112145 0.780583 0.413831 0.468438
0.164473 0.184325 0.300786 0 0 -1
0.172947 -0.265435 0.295708 0 -0.707379 -0.706834
-0.126142 -0.27805 0.290843 0 -1 0
-0.331309 0.0458916 0.300786 0 0 -1
0.294049 0.220558 0.311693 0 0 1
-0.0375802 0.255609 0.300786 0 0 -1
0.0638235 0.112486 0.311693 0 0 1
-0.291697 0.00377396 0.311693 0 0 1
-0.279834 0.0143666 0.283765 -0.707196 0 -0.707017
-0.0777589 -0.17169 0.311693 0 0 1
0.282948 0.0958057 0.311693 0 0 1
0.199986 -0.242149 0.291425 -0.707107 0 0.707107
0.211493 -0.0563819 0.311693 0 0 1
-0.222218 0.200171 0.300786 0 0 -1
-0.290038 -0.0300745 0.311693 0 0 1
0.0359984 0.0253106 0.300786 0 0 -1
0.269846 -0.0480605 0.295988 0 0 1
-0.0949256 0.22486 0.311693 0 0 1
-0.337502 -0.215637 0.300786 0 0 -1
0.281963 -0.293826 0.311693 0 0 1
-0.186281 -0.279213 0.293194 0 0.897416 -0.441186
0.101569 -0.250739 0.300786 0 0 -1
-0.160092 0.161345 0.300786 0 0 -1
0.272441 0.0772983 0.295115 0 0 -1
-0.182302 0.0304052 0.311693 0 0 1
0.0792572 0.316505 0.300786 0 0 -1
-0.00666827 -0.217116 0.311693 0 0 1
-0.139628 -0.183264 0.311693 0 0 1
0.283623 -0.206304 0.300786 0 0 -1
-0.0244845 0.174672 0.300786 0 0 -1
0.23369 0.0438793 0.300786 0 0 -1
0.226372 0.307291 0.311693 0 0 1
0.138224 -0.27564 0.311693 0 0 1
0.0439359 0.265574 0.300786 0 0 -1
-0.310483 -0.275472 0.300786 0 0 -1
0.285147 0.293882 0.300786 0 0 -1
0.285821 -0.0200312 0.300786 0 0 -1
0.173607 -0.102414 0.311693 0 0 1
-0.293973 0.290762 0.300786 0 0 -1
0.00606623 0.191232 0.300786 0 0 -1
0.274297 -0.078318 0.297058 -0.938915 0 0.34415
0.138338 -0.295811 0.300786 0 0 -1
-0.174895 -0.200373 0.311693 0 0 1
-0.160767 0.0682545 0.311693 0 0 1
-0.0940598 0.289011 0.300786 0 0 -1
-0.128522 0.0932147 0.300786 0 0 -1
-0.0698898 0.284779 0.311693 0 0 1
0.143572 -0.263577 0.284172 0 -0.707918 0.706294
0.22297 -0.243611 0.300786 0 0 -1
-0.215086 -0.182657 0.311693 0 0 1
-0.053152 0.204955 0.311693 0 0 1
-0.170688 -0.263019 0.2918 0 0.341907 -0.939734
-0.19172 0.0683685 0.311693 0 0 1
-0.268709 -0.124234 0.297108 -0.939734 0 0.341907
0.139751 0.115394 0.300786 0 0 -1
0.292971 -0.318664 0.300786 0 0 -1
-0.116589 -0.173876 0.311693 0 0 1
0.0138602 0.280502 0.300786 0 0 -1
-0.239042 -0.0783136 0.311693 0 0 1
0.0704754 0.297222 0.311693 0 0 1
0.259722 0.222812 0.283555 0 0 -1
0.248266 0.245927 0.294462 0 0 1
0.155918 0.286124 0.311693 0 0 1
-0.268255 0.234925 0.295791 0.940269 0 -0.340434
-0.0870117 -0.309487 0.311693 0 0 1
-0.348991 -0.114411 0.303756 -1 0 0
-0.181832 0.280203 0.292957 0 0.974626 -0.22384
0.325283 -0.221618 0.311693 0 0 1
0.325459 -0.0874448 0.311693 0 0 1
0.261766 -0.178394 0.300786 0 0 -1
-0.264124 0.184527 0.285534 -0.342333 -7.41489e-06 -0.939579
-0.299484 -0.230961 0.311693 0 0 1
-0.0517886 0.27168 0.282028 0 0 -1
-0.27069 0.113467 0.282901 0 0 1
0.223581 0.325151 0.300786 0 0 -1
-0.274085 -0.225565 0.300786 0 0 -1
-0.293452 0.251785 0.300786 0 0 -1
-0.265399 -0.16211 0.29199 -1 0 0
0.0778805 0.279074 0.292707 0 -0.342177 0.939636
-0.276944 0.0473031 0.300786 0 0 -1
0.171462 -0.318298 0.311693 0 0 1
-0.0710222 -0.191073 0.300786 0 0 -1
-0.279054 0.308948 0.311693 0 0 1
0.26919 0.0984699 0.295115 0 0 -1
0.00466725 -0.124486 0.311693 0 0 1
0.0603398 0.0867538 0.300786 0 0 -1
0.0672031 -0.160675 0.300786 0 0 -1
0.270261 0.0612534 0.311693 0 0 1
0.299669 -0.286574 0.300786 0 0 -1
-0.146791 -0.342098 0.300786 0 0 -1
0.118437 -0.27366 0.296514 0 0.939942 0.341333
-0.0583567 -0.272142 0.282901 0 0 1
-0.333718 -0.299964 0.311693 0 0 1
0.118074 0.0398083 0.311693 0 0 1
-0.321107 -0.0314368 0.311693 0 0 1
0.346385 -0.180106 0.300786 0 0 -1
0.279532 0.0497458 0.292719 -0.632578 0 0.774497
-0.231807 0.274813 0.300786 0 0 -1
0.0742384 -0.277177 0.296476 -5.57961e-06 -0.707194 0.70702
0.319097 0.320991 0.0159893 0.362027 0.626008 -0.690688
-0.164011 -0.328473 0.300786 0 0 -1
-0.348583 -0.181399 0.311271 -0.707853 0 0.706359
-0.191803 -0.170358 0.311693 0 0 1
-0.0852743 0.0109056 0.300786 0 0 -1
0.284535 -0.0636624 0.311693 0 0 1
-0.225184 -0.117271 0.311693 0 0 1
-0.206047 0.273793 0.300786 0 0 -1
-0.137002 -0.130283 0.311693 0 0 1
0.0816907 0.264099 0.291206 0 -1 0
-0.0851073 -0.246367 0.311693 0 0 1
-0.277277 -0.19848 0.29686 0 0 -1
0.129213 0.0493647 0.300786 0 0 -1
-0.0904604 -0.224903 0.311693 0 0 1
-0.132537 0.00283161 0.311693 0 0 1
-0.242069 0.142625 0.300786 0 0 -1
0.0706094 -0.124256 0.311693 0 0 1
0.0168434 0.178636 0.311693 0 0 1
0.216408 0.0703009 0.300786 0 0 -1
0.209861 -0.331097 0.311693 0 0 1
0.21657 -0.273233 0.282028 0 0 -1
-0.143933 -0.265317 0.29559 0 -0.707379 -0.706834
-0.25476 0.268584 0.281782 -0.00196725 0.940016 -0.341124
0.0661842 0.191305 0.300786 0 0 -1
0.0149701 0.264099 0.289936 0 -1 0
-0.108858 -0.0139585 0.311693 0 0 1
0.339123 0.108475 0.311693 0 0 1
0.303544 -0.0231437 0.311693 0 0 1
0.305977 -0.0617093 0.300786 0 0 -1
0.278674 0.00957254 0.286541 0.341479 0 0.939889
0.323153 0.314224 0.300786 0 0 -1
0.322133 -0.312402 0.0871435 0.861264 0.504924 0.057237
-0.0555951 -0.151443 0.300786 0 0 -1
-0.176351 0.187795 0.311693 0 0 1
-0.254111 -0.348717 0.301342 0 -0.703412 -0.710782
-0.0847445 -0.291235 0.300786 0 0 -1
-0.0319903 0.330646 0.311693 0 0 1
-0.138639 0.282333 0.300786 0 0 -1
0.0390239 0.0731246 0.311693 0 0 1
-0.125498 0.0259049 0.311693 0 0 1
-0.0741447 0.246232 0.311693 0 0 1
0.0368073 -0.191648 0.300786 0 0 -1
0.26856 -0.103538 0.295115 0 0 -1
0.210107 0.157279 0.311693 0 0 1
0.276541 -0.155906 0.29755 0.707537 -5.57689e-06 0.706676
0.020962 -0.0931315 0.300786 0 0 -1
-0.329368 0.262763 0.300786 0 0 -1
-0.0667038 0.00335595 0.311693 0 0 1
0.233085 -0.25295 0.283555 0 0 -1
-0.243999 0.22971 0.294462 0 0 1
0.279746 0.21666 0.292998 -0.898869 0 -0.438217
-0.270277 0.162236 0.311693 0 0 1
-0.00556642 0.259936 0.300786 0 0 -1
0.0693434 0.230024 0.311693 0 0 1
-0.313736 0.120565 0.311693 0 0 1
0.254251 0.150667 0.300786 0 0 -1
0.107041 -0.336907 0.300786 0 0 -1
0.159242 0.261934 0.311693 0 0 1
-0.262449 0.248216 0.285356 0.974116 0 0.22605
-0.0590069 -0.235974 0.311693 0 0 1
-0.0746838 0.279204 0.293213 0 -0.897416 -0.441186
0.249703 0.267672 0.2962 0 -0.940108 -0.340876
-0.0193215 -0.341586 0.300786 0 0 -1
0.252331 -0.306043 0.300786 0 0 -1
0.0409964 0.114843 0.311693 0 0 1
0.326365 -0.19979 0.311693 0 0 1
0.0312883 0.321189 0.311693 0 0 1
-0.321597 -0.315707 0.0305721 -0.865783 0.50042 0
0.258461 -0.201782 0.283555 0 0 -1
-0.0168352 -0.0539971 0.311693 0 0 1
0.183067 0.279332 0.286143 0 0.34189 0.93974
-0.140837 0.0737222 0.300786 0 0 -1
0.185525 0.214427 0.311693 0 0 1
0.0838759 -0.319833 0.311693 0 0 1
0.186738 -0.279071 0.292705 0 0.342177 0.939636
-0.196332 -0.111367 0.311693 0 0 1
-0.271082 -0.145912 0.300786 0 0 -1
0.149148 0.199294 0.311693 0 0 1
0.0212436 -0.233766 0.311693 0 0 1
0.0133605 -0.152554 0.311693 0 0 1
-0.203024 -0.259002 0.294462 0 0 1
-0.0232508 0.278812 0.285407 -7.42034e-06 -0.340434 -0.940268
0.0953499 0.321571 0.311693 0 0 1
0.302002 0.309388 0.00239802 -0.92379 -0.382899 0
0.317402 0.249297 0.300786 0 0 -1
0.284883 0.0743219 0.300786 0 0 -1
-0.243819 -0.160651 0.311693 0 0 1
-0.0678615 -0.072098 0.300786 0 0 -1
0.0320965 0.221459 0.300786 0 0 -1
0.117806 0.268601 0.296204 0 0.939734 0.341907
-0.269189 0.12584 0.295988 0 0 1
-0.222197 -0.264094 0.28826 0 -1 0
-0.270632 0.202656 0.282028 0 0 -1
0.202329 0.134076 0.300786 0 0 -1
0.208997 -0.0204733 0.300786 0 0 -1
-0.29463 -0.285883 0.311693 0 0 1
0.0824546 0.123822 0.311693 0 0 1
-0.245443 -0.278266 0.294158 0 0.707469 -0.706745
0.17052 -0.283846 0.311693 0 0 1
-0.186426 -0.203876 0.300786 0 0 -1
-0.166183 0.274441 0.300786 0 0 -1
0.230363 0.278537 0.293888 0 -0.707469 -0.706745
-0.00604716 0.0818188 0.311693 0 0 1
-0.348991 0.144135 0.30556 -1 0 0
0.173463 -0.244951 0.300786 0 0 -1
-0.114534 0.262847 0.311693 0 0 1
-0.0437903 0.298041 0.311693 0 0 1
0.0893583 -0.0534373 0.300786 0 0 -1
-0.243355 -0.0507391 0.311693 0 0 1
-0.132146 0.327775 0.311693 0 0 1
-0.104617 -0.277186 0.290604 0 1 0
0.260501 0.302736 0.311693 0 0 1
-0.279107 -0.05684 0.29498 -0.707452 0 0.706761
0.137488 0.283966 0.311693 0 0 1
-0.262803 0.0135393 0.28586 0.630262 0 0.776383
0.165309 -0.0464597 0.311693 0 0 1
0.0498529 0.01711 0.311693 0 0 1
-0.160654 0.218159 0.311693 0 0 1
-0.264535 -0.237934 0.29046 1 0 0
-0.15872 0.110101 0.311693 0 0 1
0.15379 0.0015035 0.300786 0 0 -1
-0.237074 -0.321803 0.311693 0 0 1
0.311483 0.0171616 0.300786 0 0 -1
-0.337036 0.0802995 0.311693 0 0 1
0.348991 -0.225808 0.305718 1 0 0
0.175931 0.158516 0.311693 0 0 1
-0.116092 -0.10947 0.300786 0 0 -1
0.0501349 -0.290798 0.300786 0 0 -1
0.307628 0.098567 0.300786 0 0 -1
-0.0555892 -0.256201 0.311693 0 0 1
0.279078 -0.251002 0.29255 -0.342494 0 0.93952
-0.0401476 0.00493386 0.300786 0 0 -1
0.27613 0.187703 0.297907 0.434831 -7.10659e-06 0.900512
-0.175122 0.0120321 0.300786 0 0 -1
-0.276783 0.252088 0.311693 0 0 1
0.0478371 -0.0366843 0.311693 0 0 1
0.316672 -0.317764 0.311693 0 0 1
-0.30754 -0.238716 0.300786 0 0 -1
0.189799 -0.211876 0.300786 0 0 -1
-0.0333094 -0.105062 0.300786 0 0 -1
-0.0957001 -0.264566 0.292163 0 -0.342494 0.93952
-0.265399 0.0275346 0.287299 -1 0 0
-0.266092 0.0557637 0.28086 0.707194 0 -0.70702
-0.180124 -0.316053 0.300786 0 0 -1
0.128439 0.181818 0.311693 0 0 1
0.268178 0.0186771 0.297955 0.777463 0 0.628929
0.155683 0.336668 0.311693 0 0 1
0.169765 0.0959894 0.300786 0 0 -1
0.343398 0.0685389 0.300786 0 0 -1
-0.0230806 0.137781 0.311693 0 0 1
0.187248 0.314049 0.300786 0 0 -1
0.0712042 -0.0354773 0.311693 0 0 1
-0.111437 0.0953111 0.311693 0 0 1
0.0115501 0.122855 0.300786 0 0 -1
0.116745 -0.0977647 0.311693 0 0 1
0.269755 -0.0361423 0.311693 0 0 1
-0.0582395 -0.118483 0.300786 0 0 -1
0.277102 0.254419 0.295891 0 1 0
0.338714 0.333168 0.307878 0.772888 0.634542 0
-0.183216 -0.0204063 0.300786 0 0 -1
0.187415 0.0177477 0.311693 0 0 1
0.139513 -0.165877 0.311693 0 0 1
0.0626345 -0.214207 0.300786 0 0 -1
0.0189461 0.150069 0.311693 0 0 1
-0.345344 0.181013 0.300786 0 0 -1
0.0837574 0.0234199 0.311693 0 0 1
-0.28299 0.184629 0.300786 0 0 -1
0.0507808 -0.321645 0.300786 0 0 -1
-0.242985 0.336901 0.300786 0 0 -1
0.236583 -0.10979 0.300786 0 0 -1
-0.276477 -0.0378074 0.28163 0.70801 0 0.706202
-0.311482 0.0805879 0.311693 0 0 1
-0.224453 -0.219661 0.283555 0 0 -1
0.132792 -0.14608 0.311693 0 0 1
-0.169816 -0.176934 0.311693 0 0 1
0.0992188 0.275009 0.298132 0 -0.210459 0.977603
0.245389 -0.26205 0.292502 0 0.976125 -0.217212
-0.207876 -0.0621468 0.311693 0 0 1
0.263264 -0.126678 0.286147 -0.341682 0 0.939816
-0.279491 0.151221 0.286243 -0.341688 0 0.939813
-0.174879 -0.0486962 0.311693 0 0 1
0.121614 0.219307 0.311693 0 0 1
0.272848 0.235803 0.300786 0 0 -1
0.013689 -0.191548 0.300786 0 0 -1
0.0612108 -0.0645958 0.311693 0 0 1
-0.0769682 -0.15447 0.300786 0 0 -1
-0.242356 0.252955 0.300786 0 0 -1
0.0481589 0.196574 0.300786 0 0 -1
0.171663 -0.145251 0.311693 0 0 1
-0.242578 -0.251698 0.266318 0.523091 -0.842994 0.125446
0.232655 -0.301762 0.300786 0 0 -1
0.155359 0.123994 0.311693 0 0 1
0.31734 -0.276562 0.311693 0 0 1
0.303361 -0.116716 0.311693 0 0 1
0.277653 -0.171272 0.296437 0.707537 -5.57689e-06 0.706676
-0.094568 0.166209 0.311693 0 0 1
-0.104107 0.277186 0.287743 0 -1 0
-0.284052 -0.15582 0.311693 0 0 1
-0.169511 0.0373086 0.300786 0 0 -1
-0.180861 0.275899 0.280265 0 0.707281 -0.706933
-0.216026 0.230663 0.300786 0 0 -1
0.0401325 -0.277186 0.291978 0 1 0
0.213603 -0.00615236 0.311693 0 0 1
-0.119711 0.162747 0.311693 0 0 1
-0.190108 -0.279106 0.311693 0 0 1
0.0144096 -0.301586 0.311693 0 0 1
-0.249522 -0.27891 0.311693 0 0 1
-0.289921 0.164006 0.311693 0 0 1
0.23592 0.173118 0.300786 0 0 -1
0.238335 -0.022049 0.300786 0 0 -1
0.201887 0.273152 0.297463 1 0 0
-0.328131 0.0151305 0.300786 0 0 -1
-0.18698 0.0825193 0.300786 0 0 -1
-0.260907 -0.228549 0.311693 0 0 1
-0.128665 0.0389247 0.300786 0 0 -1
-0.348901 0.00888255 0.30176 -0.966112 0 -0.258122
-0.149956 0.264912 0.295184 0 0.707379 -0.706834
0.0734943 0.0700908 0.300786 0 0 -1
0.272255 -0.0769762 0.311693 0 0 1
-0.0389922 0.279036 0.292693 0 -0.342177 0.939636
-0.255 -0.245632 0.300786 0 0 -1
-0.284457 0.0643884 0.311693 0 0 1
0.0176514 -0.209496 0.300786 0 0 -1
0.218683 0.262716 0.285736 0 0 -1
-0.224896 0.320405 0.300786 0 0 -1
0.130345 0.266768 0.279959 0 -0.440988 -0.897513
-0.292565 0.283113 0.165475 -0.84338 -0.522359 0.125906
0.0305182 0.237251 0.311693 0 0 1
0.169101 0.0466775 0.311693 0 0 1
-0.0116028 -0.278435 0.291547 0 -0.341907 -0.939734
-0.209766 0.109329 0.300786 0 0 -1
0.000255227 0.343254 0.300786 0 0 -1
0.168003 -0.190421 0.300786 0 0 -1
0.217117 0.286456 0.300786 0 0 -1
-0.271695 0.0859381 0.300786 0 0 -1
0.318736 0.0737193 0.300786 0 0 -1
-0.151104 -0.143994 0.300786 0 0 -1
0.265649 -0.00509807 0.296715 -0.707534 -5.57691e-06 0.706679
-0.348991 -0.154137 0.303021 -1 0 0
0.124971 -0.231703 0.311693 0 0 1
-0.277315 -0.203182 0.282471 0.70801 0 0.706202
-0.00487807 0.204806 0.311693 0 0 1
-0.279161 -0.0779242 0.29258 0.342338 0 0.939577
0.187324 0.0728291 0.300786 0 0 -1
-0.322819 -0.316275 0.300786 0 0 -1
0.201208 -0.161406 0.300786 0 0 -1
0.2704 -0.189548 0.311693 0 0 1
0.264536 0.177838 0.28971 -1 0 0
-0.30135 0.292347 0.130897 -0.522386 -0.84337 -0.125856
0.306388 0.263708 0.300786 0 0 -1
0.198111 -0.234725 0.311693 0 0 1
-0.252289 0.285298 0.311693 0 0 1
-0.114193 -0.210841 0.311693 0 0 1
0.296681 -0.241045 0.311693 0 0 1
-0.1036 -0.230503 0.300786 0 0 -1
-0.199682 0.348429 0.311426 0 0.707129 0.707085
-0.0734838 0.152617 0.311693 0 0 1
-0.00311941 -0.183248 0.311693 0 0 1
-0.14727 -0.236365 0.300786 0 0 -1
0.0303535 0.263867 0.294139 0 0.707379 -0.706834
-0.0685028 -0.262857 0.291859 0 0.341907 -0.939734
0.236038 -0.33947 0.300786 0 0 -1
-0.138927 0.145911 0.311693 0 0 1
0.213351 -0.246929 0.311693 0 0 1
0.204563 0.32341 0.300786 0 0 -1
0.0981675 0.205204 0.300786 0 0 -1
-0.189715 0.257281 0.311693 0 0 1
0.0931293 -0.0672592 0.311693 0 0 1
0.348991 -0.291902 0.305785 1 0 0
-0.102466 0.178132 0.300786 0 0 -1
-0.314992 -0.313124 0.0125236 0.607757 0.792419 0.051995
-0.227074 -0.0704971 0.300786 0 0 -1
-0.0705386 0.102593 0.300786 0 0 -1
-0.327498 -0.183742 0.311693 0 0 1
0.151387 -0.33353 0.300786 0 0 -1
-0.230398 -0.205782 0.300786 0 0 -1
-0.267584 -0.08803 0.297236 0.19617 -7.73839e-06 -0.98057
0.287108 0.0485319 0.311693 0 0 1
0.0408042 -0.148134 0.311693 0 0 1
0.0666053 -0.247246 0.311693 0 0 1
-0.192707 0.180149 0.311693 0 0 1
0.336515 0.0320286 0.300786 0 0 -1
-0.280213 -0.00825578 0.284144 -0.707196 0 -0.707017
0.231237 -0.210653 0.300786 0 0 -1
-0.229424 0.165346 0.311693 0 0 1
0.319859 -0.310669 0.0695683 0.500006 0.866022 0
0.264518 0.0376603 0.282434 -0.707278 0 -0.706935
-0.26433 0.258231 0.239983 -0.937223 -0.0622556 0.343128
-0.163348 -0.0993926 0.300786 0 0 -1
-0.00188747 -0.104651 0.311693 0 0 1
-0.225566 -0.27805 0.28697 0 -1 0
0.181444 -0.117442 0.300786 0 0 -1
0.225839 0.0560014 0.311693 0 0 1
-0.233401 -0.137509 0.311693 0 0 1
0.279628 -0.147631 0.311693 0 0 1
-0.213306 -0.00692505 0.300786 0 0 -1
-0.2034 0.00801587 0.300786 0 0 -1
-0.298119 0.0680852 0.300786 0 0 -1
0.149247 0.277871 0.282238 0 0.707281 -0.706933
0.11937 0.337479 0.311693 0 0 1
-0.182582 0.114015 0.300786 0 0 -1
0.106006 -0.280705 0.300786 0 0 -1
0.179059 -0.157009 0.300786 0 0 -1
0.288837 -0.0950395 0.311693 0 0 1
-0.241901 0.00385714 0.311693 0 0 1
0.007447 0.225305 0.311693 0 0 1
-0.316418 0.310259 0.0788144 0 -0.999046 -0.0436644
-0.208736 0.203356 0.311693 0 0 1
-0.331921 -0.139601 0.311693 0 0 1
0.279762 -0.0172951 0.283692 0.707624 0 -0.706589
-0.176799 -0.12374 0.300786 0 0 -1
0.117306 -0.177897 0.311693 0 0 1
-0.276795 -0.267723 0.193834 -0.52263 0.843237 -0.125731
0.273437 -0.1129 0.282028 0 0 -1
0.243293 -0.220725 0.294462 0 0 1
0.28874 0.0156089 0.311693 0 0 1
-0.330602 0.310919 0.311693 0 0 1
-0.309497 -0.119257 0.311693 0 0 1
0.20899 0.18962 0.311693 0 0 1
0.18192 0.133033 0.311693 0 0 1
-0.117852 0.332391 0.300786 0 0 -1
0.27744 -0.332701 0.300786 0 0 -1
0.240998 0.322965 0.300786 0 0 -1
0.0455512 0.0530502 0.300786 0 0 -1
0.200105 0.0124938 0.300786 0 0 -1
0.173408 0.287417 0.311693 0 0 1
0.0820561 -0.284779 0.311693 0 0 1
-0.26476 0.152662 0.282191 0.707194 0 -0.70702
-0.28218 0.0160425 0.300786 0 0 -1
-0.30422 -0.255616 0.311693 0 0 1
0.177847 -0.26906 0.282901 0 0 1
0.346792 -0.271206 0.311693 0 0 1
-0.330666 -0.318848 0.00396695 -0.331324 -0.0435047 0.942513
-0.206852 0.131157 0.311693 0 0 1
0.127487 -0.0558122 0.311693 0 0 1
-0.0365615 0.0219958 0.300786 0 0 -1
0.310248 0.126106 0.311693 0 0 1
-0.0231462 -0.256064 0.311693 0 0 1
0.236154 0.147635 0.300786 0 0 -1
0.101759 -0.0384202 0.311693 0 0 1
0.338667 0.300534 0.311693 0 0 1
0.0192898 0.0529033 0.311693 0 0 1
0.204722 0.254393 0.311693 0 0 1
-0.286444 -0.277187 0.170467 -0.52263 0.843237 -0.125731
0.279598 0.0724794 0.285246 -0.643885 0 -0.765122
0.0745867 0.265234 0.281281 0 -0.707194 -0.70702
-0.266609 -0.270163 0.223308 -0.413662 -0.780705 0.468384
-0.258297 -0.0844564 0.311693 0 0 1
-0.225681 0.277159 0.311693 0 0 1
-0.0539915 0.224615 0.300786 0 0 -1
-0.195509 -0.0844931 0.300786 0 0 -1
0.21982 -0.133594 0.300786 0 0 -1
-0.00677925 0.309454 0.311693 0 0 1
-0.307259 -0.316388 0.10131 0.52314 -0.842968 0.125416
-0.101784 -0.332668 0.300786 0 0 -1
0.158488 -0.180995 0.311693 0 0 1
0.317086 -0.304647 0.300786 0 0 -1
0.0984294 0.235555 0.311693 0 0 1
0.042806 0.139972 0.300786 0 0 -1
-0.220677 0.279909 0.29374 0 0.707537 0.706677
0.348991 -0.0624833 0.304103 1 0 0
-0.319241 0.0390753 0.311693 0 0 1
-0.323037 0.215505 0.311693 0 0 1
-0.226028 0.113103 0.311693 0 0 1
-0.257953 0.232301 0.311693 0 0 1
0.0744406 0.211017 0.300786 0 0 -1
0.269265 0.200473 0.295988 0 0 1
-0.127553 -0.0398096 0.311693 0 0 1
0.220232 0.228282 0.300786 0 0 -1
0.25616 -0.158454 0.300786 0 0 -1
-0.0481198 -0.323916 0.311693 0 0 1
0.0977543 0.0947637 0.311693 0 0 1
0.270869 -0.236707 0.295115 0 0 -1
-0.254151 0.113518 0.300786 0 0 -1
0.103918 0.144559 0.311693 0 0 1
-0.0383193 -0.0912678 0.311693 0 0 1
0.250994 -0.238836 0.300786 0 0 -1
0.00170618 -0.0256632 0.311693 0 0 1
-0.0370767 -0.277209 0.296442 -5.57961e-06 -0.707194 0.70702
-0.169235 -0.30865 0.311693 0 0 1
-0.0362495 0.159363 0.300786 0 0 -1
0.134995 -0.278945 0.284542 0 0.708007 0.706205
0.243336 0.115662 0.311693 0 0 1
0.135377 0.103007 0.311693 0 0 1
0.0285299 0.0379941 0.311693 0 0 1
0.133866 0.0854439 0.300786 0 0 -1
-0.0477176 0.0433915 0.300786 0 0 -1
0.183421 -0.176408 0.300786 0 0 -1
0.271138 0.256386 0.311693 0 0 1
0.0186819 -0.33882 0.311693 0 0 1
-0.0273586 0.289009 0.300786 0 0 -1
0.077908 0.0977195 0.311693 0 0 1
-0.109861 0.201252 0.300786 0 0 -1
-0.26875 0.208898 0.296995 -0.939734 0 0.341907
-0.0463576 0.148557 0.311693 0 0 1
0.249336 -0.0968477 0.300786 0 0 -1
-0.318864 -0.161274 0.300786 0 0 -1
-0.0102465 0.0190239 0.300786 0 0 -1
0.335945 -0.0172866 0.311693 0 0 1
0.101461 0.289611 0.300786 0 0 -1
0.109398 -0.1085 0.300786 0 0 -1
-0.22073 0.0777121 0.300786 0 0 -1
-0.176788 0.264962 0.291766 0 1 0
-0.256951 0.155681 0.300786 0 0 -1
-0.138914 -0.0969452 0.300786 0 0 -1
0.245236 -0.253729 0.2535 -0.84324 -0.522626 -0.125731
0.245441 0.0496647 0.311693 0 0 1
0.126676 0.165096 0.311693 0 0 1
0.264601 -0.0680345 0.295666 -0.707191 0 0.707022
-0.166716 -0.152038 0.300786 0 0 -1
-0.050944 0.264962 0.290282 0 1 0
-0.038055 0.192452 0.311693 0 0 1
-0.304588 0.141108 0.311693 0 0 1
0.26793 -0.222171 0.28133 -0.93982 0 0.341671
-0.237611 0.119763 0.300786 0 0 -1
-0.19344 0.16345 0.311693 0 0 1
