-0.294732 0.151576 0.324356 0 0 1
0.282309 0.00778924 0.276844 -0.259283 0.965801 0
0.275057 0.0439791 0.279943 -0.965733 -0.259537 0
-0.0873287 0.225119 0.310843 0 0 -1
0.338304 0.0500628 0.324356 0 0 1
0.20221 -0.220482 0.316937 0.205223 -0.721291 -0.661531
-0.413558 -0.0399272 0.324356 0 0 1
0.406338 -0.0656239 0.324356 0 0 1
-0.354577 0.00746524 0.310843 0 0 -1
-0.259975 0.0486663 0.19666 0.966056 0.258332 0
-0.303651 0.114375 0.310843 0 0 -1
0.458484 0.038387 0.324356 0 0 1
0.0880168 0.180564 0.324356 0 0 1
-0.357275 -0.0150705 0.310843 0 0 -1
0.177348 0.047896 0.310843 0 0 -1
-0.364506 -0.136427 0.324356 0 0 1
-0.249729 0.13605 0.305459 -0.000575813 -0.00331873 -0.999994
0.372516 0.034245 0.324356 0 0 1
-0.272739 -0.00255165 0.285911 0 0 -1
0.454616 0.0155031 0.310843 0 0 -1
0.278661 0.106807 0.0956766 -0.707517 0.367519 0.603614
-0.262433 -0.114604 0.0619522 0.964491 -0.150177 0.217265
-0.11351 -0.135307 0.324356 0 0 1
-0.348552 -0.144637 0.324356 0 0 1
-0.0637776 0.0415286 0.310843 0 0 -1
0.36617 0.0199095 0.310843 0 0 -1
0.277156 0.111669 0.0806477 -0.987053 -0.0475808 -0.153173
-0.10159 -0.12817 0.324356 0 0 1
-0.311382 0.111957 0.310843 0 0 -1
-0.193669 0.191686 0.324356 0 0 1
-0.111646 0.0322187 0.25556 0.335856 -0.195248 0.921455
-0.42008 -0.0398083 0.324356 0 0 1
0.0588427 -0.00988209 0.310843 0 0 -1
0.0924177 -0.24183 0.323422 0.0638681 -0.997958 0
-0.401232 0.13081 0.324356 0 0 1
0.27291 -0.135739 0.310843 0 0 -1
-0.259069 0.0778625 0.296171 -0.000724701 0.160315 -0.987066
0.204623 -0.0960783 0.324356 0 0 1
0.393577 -0.102701 0.324356 0 0 1
0.0231661 -0.100976 0.310843 0 0 -1
0.209045 0.0156877 0.310843 0 0 -1
-0.0239804 0.0813771 0.324356 0 0 1
-0.0892611 0.11278 0.310843 0 0 -1
0.284379 0.175467 0.00450445 0 0 1
0.0367317 0.162707 0.324356 0 0 1
-0.27428 -0.0168847 0.109712 -0.999443 -0.0208951 -0.0260049
0.287102 -0.00632106 0.200328 0.706941 -0.707273 0
-0.262188 0.0607209 0.103308 0 -0.460601 -0.887607
-0.174422 0.0828239 0.310843 0 0 -1
0.267009 -0.0103467 0.324356 0 0 1
0.41439 0.0816412 0.324356 0 0 1
0.246734 -0.168224 0.310843 0 0 -1
0.19519 0.109459 0.324356 0 0 1
-0.0235977 0.122678 0.324356 0 0 1
0.275348 0.00214909 0.282086 -0.965752 0.259467 0
-0.227502 -0.00125821 0.310843 0 0 -1
-0.202434 -0.0587663 0.324356 0 0 1
-0.186979 -0.214127 0.310843 0 0 -1
0.0894673 -0.0555538 0.324356 0 0 1
0.0856818 0.220082 0.310843 0 0 -1
-0.134311 0.00229496 0.310843 0 0 -1
-0.177228 -0.0551975 0.324356 0 0 1
0.348855 0.0819238 0.324356 0 0 1
-0.152009 0.0972083 0.310843 0 0 -1
0.043959 -0.168444 0.310843 0 0 -1
-0.311421 0.0415469 0.310843 0 0 -1
0.441846 0.0311298 0.310843 0 0 -1
0.0648647 0.129997 0.310843 0 0 -1
-0.267103 -0.0721827 0.310839 0 0.00016017 1
0.0739295 -0.230693 0.310843 0 0 -1
0.328745 -0.177608 0.324356 0 0 1
0.2754 0.0427025 0.250349 -0.965733 -0.259537 0
-0.268637 0.00741269 0.293154 -0.259345 0.965785 0
-0.240301 0.127412 0.324356 0 0 1
0.315638 -0.0737136 0.310843 0 0 -1
-0.256484 0.0780985 0.310843 0 0 -1
-0.0725062 0.120653 0.324356 0 0 1
0.400298 0.111765 0.324356 0 0 1
0.053435 -0.0436398 0.310843 0 0 -1
0.19544 0.0724992 0.324356 0 0 1
-0.0245745 0.0658877 0.310843 0 0 -1
0.118775 -0.174323 0.324356 0 0 1
0.282426 -0.0717447 0.091586 -0.258893 -0.494678 0.829619
0.0420539 0.00454612 0.310843 0 0 -1
-0.168692 -0.171689 0.310843 0 0 -1
0.231576 0.0568534 0.324356 0 0 1
-0.212261 0.0431091 0.324356 0 0 1
-0.261168 0.145076 0.305432 1.64155e-05 -0.0033348 -0.999994
-0.351335 0.0339047 0.324356 0 0 1
-0.270796 -0.00683747 0.207829 -0.258584 -0.965989 0
-0.191431 0.230264 0.321784 -0.149822 0.988713 0
-0.147222 0.0167145 0.324356 0 0 1
-0.316303 0.134286 0.324356 0 0 1
-0.258555 0.0293999 0.129453 1 0 0
0.161856 -0.0190405 0.324356 0 0 1
0.298346 0.197931 0.324356 0 0 1
0.207359 -0.090017 0.310843 0 0 -1
0.103172 0.0575603 0.310843 0 0 -1
-0.13769 -0.0294024 0.324356 0 0 1
-0.16395 0.0311351 0.324356 0 0 1
-0.372627 -0.0401343 0.310843 0 0 -1
-0.337341 -0.0211508 0.310843 0 0 -1
-0.242465 -0.0421708 0.324356 0 0 1
-0.236543 0.0382482 0.324356 0 0 1
-0.0674293 -0.141813 0.324356 0 0 1
-0.351698 -0.0638344 0.324356 0 0 1
0.450026 0.0688587 0.324356 0 0 1
-0.314145 -0.00857526 0.324356 0 0 1
-0.290104 -0.00434469 0.310843 0 0 -1
-0.0973108 0.231661 0.324356 0 0 1
0.3458 -0.154406 0.324356 0 0 1
-0.255353 0.0767876 0.297559 1 0 0
-0.25927 0.0581882 0.115293 0.999459 0.0206112 -0.0256463
0.0968462 -0.0439909 0.324356 0 0 1
-0.286705 -0.071768 0.324356 0 0 1
0.285699 0.0912896 0.310843 0 0 -1
-0.254036 -0.0414501 0.324356 0 0 1
-0.269496 0.0378618 0.277019 -0.259347 -0.965784 0
0.0953607 -0.0349682 0.324356 0 0 1
-0.315578 0.00234504 0.310843 0 0 -1
0.25815 0.0946864 0.310843 0 0 -1
0.0707286 -0.019533 0.324356 0 0 1
-0.273051 0.0969472 0.305715 -1 0 0
0.286539 0.158548 0.0643539 0.696185 0.37308 0.613301
0.235123 0.0489415 0.324356 0 0 1
0.125087 0.152871 0.310843 0 0 -1
0.229341 -0.118764 0.324356 0 0 1
0.37507 -0.147848 0.324356 0 0 1
0.270799 -0.0784227 0.324356 0 0 1
-0.038993 -0.0141008 0.324356 0 0 1
-0.348843 0.160082 0.310843 0 0 -1
0.43798 0.0114898 0.310843 0 0 -1
0.277699 0.197666 0.324356 0 0 1
-0.357505 -0.1472 0.324356 0 0 1
-0.266195 0.0420982 0.112443 0 -0.130793 -0.99141
0.24422 -0.0146509 0.324356 0 0 1
0.27623 -0.00626961 0.128187 -0.692639 -0.530963 0.488191
-0.269954 -0.120133 0.310843 0 0 -1
-0.440127 -0.0633603 0.324356 0 0 1
0.397349 0.0486068 0.310843 0 0 -1
-0.193846 0.0215325 0.324356 0 0 1
-0.153886 -0.0703285 0.324356 0 0 1
0.0242701 -0.0854158 0.310843 0 0 -1
0.425975 -0.0269122 0.310843 0 0 -1
-0.052887 -0.136795 0.310843 0 0 -1
0.0244386 0.24477 0.324356 0 0 1
-0.00818103 -0.118011 0.324356 0 0 1
0.29419 0.122922 0.306056 1 0 0
-0.148646 0.0126176 0.158895 0.282927 0.563388 -0.776239
0.326844 -0.0957961 0.324356 0 0 1
-0.239317 0.0615863 0.310843 0 0 -1
-0.00893285 -0.0170499 0.324356 0 0 1
-0.14485 -0.0433777 0.324356 0 0 1
-0.266108 0.178801 0.310843 0 0 -1
0.368033 -0.0957279 0.324356 0 0 1
-0.303788 0.150618 0.310843 0 0 -1
0.0415405 -0.0163019 0.310843 0 0 -1
0.244285 -0.0958511 0.310843 0 0 -1
0.169535 -0.0597338 0.324356 0 0 1
0.138422 -0.0572152 0.310843 0 0 -1
-0.358714 -0.0441446 0.310843 0 0 -1
0.174622 0.176495 0.324356 0 0 1
0.119525 -0.0786166 0.324356 0 0 1
0.0721446 -0.241405 0.317626 0.0496727 -0.776151 -0.628587
0.017764 -0.211164 0.324356 0 0 1
0.0505598 -0.0958212 0.310843 0 0 -1
0.288292 0.014262 0.119671 0 0.382599 -0.923914
-0.20632 0.138086 0.310843 0 0 -1
0.193676 -0.148544 0.324356 0 0 1
-0.261766 0.0506916 0.295534 0.707083 0.70713 0
-0.255053 -0.203178 0.310843 0 0 -1
-0.368235 0.11153 0.310843 0 0 -1
-0.0301954 0.0147821 0.324356 0 0 1
0.354466 -0.0439338 0.324356 0 0 1
0.282056 -0.0969679 0.0610233 0 0.588445 -0.808537
0.123494 -0.179286 0.324356 0 0 1
-0.440119 -0.0205382 0.310843 0 0 -1
-0.14904 -0.0984893 0.310843 0 0 -1
0.306151 0.130655 0.310843 0 0 -1
-0.39299 -0.0528713 0.310843 0 0 -1
-0.053413 -0.225703 0.310843 0 0 -1
0.258974 -0.117153 0.310843 0 0 -1
-0.286695 -0.0791461 0.310843 0 0 -1
-0.350341 -0.0284311 0.310843 0 0 -1
0.188068 0.0334081 0.149811 -0.19237 -0.827306 -0.527786
0.310059 -0.0916777 0.310843 0 0 -1
-0.205056 -0.213295 0.324356 0 0 1
-0.0572609 0.00555435 0.324356 0 0 1
-0.0829514 0.102531 0.324356 0 0 1
-0.255353 0.0366206 0.305418 1 0 0
-0.281194 0.0797942 0.310843 0 0 -1
-0.400729 -0.0995121 0.310843 0 0 -1
0.335876 0.0228038 0.310843 0 0 -1
0.437692 -0.0961209 0.321093 0.706301 -0.707911 0
-0.206038 0.169961 0.324356 0 0 1
-0.221558 0.00310673 0.310843 0 0 -1
-0.122176 -0.140764 0.310843 0 0 -1
0.290536 5.42807e-05 0.117226 0.992006 0.0421623 -0.118937
-0.160518 0.122624 0.324356 0 0 1
-0.063655 0.133176 0.324356 0 0 1
-0.332688 -0.170506 0.310916 -0.37282 -0.560577 -0.739431
0.248047 -0.207054 0.316516 0.205214 -0.72117 -0.661666
0.0513665 0.137037 0.310843 0 0 -1
-0.314607 -0.0910742 0.324356 0 0 1
0.267278 -0.0849907 0.324356 0 0 1
-0.0844282 0.104683 0.310843 0 0 -1
0.282593 0.00786543 0.236747 -0.259283 0.965801 0
0.0154067 -0.119546 0.310843 0 0 -1
0.0418754 -0.0397246 0.324356 0 0 1
-0.209789 0.0318869 0.291262 0.335856 -0.195248 0.921455
0.161954 -0.218177 0.310843 0 0 -1
-0.213513 0.108214 0.324356 0 0 1
0.288026 -0.19452 0.318164 0.286979 -0.660439 -0.693876
-0.262865 -0.144633 0.310843 0 0 -1
0.205097 -0.182612 0.324356 0 0 1
-0.3843 0.00398146 0.310843 0 0 -1
-0.188 0.18041 0.324356 0 0 1
-0.0139453 -0.184134 0.310843 0 0 -1
-0.265908 -0.125193 0 0 0 -1
-0.386638 -0.031621 0.324356 0 0 1
0.222991 -0.117514 0.324356 0 0 1
-0.172083 -0.0835384 0.324356 0 0 1
0.261625 -0.107225 0.310843 0 0 -1
-0.18594 -0.13281 0.310843 0 0 -1
-0.259271 -0.000990383 0.303414 0.966057 -0.258329 0
-0.0133697 -0.117432 0.310843 0 0 -1
-0.184121 0.0532352 0.324356 0 0 1
0.370471 0.118312 0.310843 0 0 -1
0.0375215 0.0295408 0.204506 -0.192367 0.827312 -0.527779
-0.144812 -0.092458 0.310843 0 0 -1
-0.235038 -0.14261 0.324356 0 0 1
0.0887273 -0.181659 0.310843 0 0 -1
-0.312237 0.0677179 0.324356 0 0 1
-0.291993 0.0327441 0.310843 0 0 -1
-0.433301 0.0353699 0.324356 0 0 1
0.288442 0.0132037 0.324356 0 0 1
-0.0312817 0.0103429 0.310843 0 0 -1
0.0190129 0.216356 0.324356 0 0 1
0.00808369 -0.202547 0.310843 0 0 -1
-0.380163 0.0741525 0.310843 0 0 -1
0.419741 -0.111316 0.318195 0.444906 -0.44592 -0.776668
0.313319 -0.101767 0.310843 0 0 -1
0.0879606 -0.0911449 0.324356 0 0 1
-0.405747 -0.0705042 0.310843 0 0 -1
0.336341 0.0220495 0.310843 0 0 -1
-0.258236 0.213032 0.321299 -0.271039 0.962568 0
-0.281082 0.13039 0.310843 0 0 -1
0.286962 -0.0119527 0.324356 0 0 1
0.182423 0.0222716 0.324356 0 0 1
0.328168 0.170616 0.324356 0 0 1
0.290279 -0.0819117 0.303295 -0.000724682 -0.160469 -0.987041
0.0961917 0.242656 0.319106 0.0368656 0.776707 -0.628782
-0.37021 0.070739 0.310843 0 0 -1
0.166739 0.01493 0.324356 0 0 1
-0.166298 -0.207042 0.310843 0 0 -1
-0.426797 -0.105124 0.317782 -0.448093 -0.43679 -0.780017
-0.245614 -0.0624597 0.310843 0 0 -1
-0.406824 0.0818269 0.324356 0 0 1
0.284983 -0.126827 0.00842108 0.382969 -0.923761 0
-0.348351 -0.14705 0.324356 0 0 1
0.27629 0.0498628 0.110122 -0.807261 -0.253592 -0.532936
-0.232776 0.0278415 0.324356 0 0 1
-0.308062 -0.112785 0.324356 0 0 1
0.0423777 0.0983109 0.324356 0 0 1
-0.343237 -0.0805265 0.310843 0 0 -1
0.249802 -0.175713 0.310843 0 0 -1
0.286924 -0.0301088 0.324356 0 0 1
0.00599184 0.211594 0.310843 0 0 -1
-0.219148 0.182376 0.324356 0 0 1
0.34454 -0.104329 0.324356 0 0 1
0.025575 -0.0516779 0.324356 0 0 1
0.221053 0.192479 0.324356 0 0 1
0.0317074 -0.021413 0.324356 0 0 1
0.277988 0.0207384 0.310843 0 0 -1
-0.317521 0.162664 0.310843 0 0 -1
-0.0977602 0.184587 0.324356 0 0 1
-0.166569 0.0626146 0.324356 0 0 1
0.260544 0.00197896 0.324356 0 0 1
-0.115293 0.00770684 0.310843 0 0 -1
-0.315607 -0.0199772 0.324356 0 0 1
0.256398 -0.0103922 0.324356 0 0 1
0.0221948 -0.0931805 0.310843 0 0 -1
0.361945 0.134499 0.310843 0 0 -1
0.314699 -0.060018 0.310843 0 0 -1
0.34133 -0.159364 0.324356 0 0 1
-0.401294 0.129291 0.313154 -0.45631 0.410795 -0.789322
-0.0687286 -0.155477 0.324356 0 0 1
0.204284 0.213954 0.310843 0 0 -1
0.290537 0.0379554 0.134421 1 0 0
0.290282 0.0459964 0.235151 0.966058 0.258325 0
0.298038 -0.0851308 0.310843 0 0 -1
0.0663973 -0.116496 0.310843 0 0 -1
-0.204147 0.133491 0.324356 0 0 1
0.163294 0.139319 0.310843 0 0 -1
-0.234306 0.0911556 0.324356 0 0 1
0.0606413 -0.163519 0.324356 0 0 1
-0.271659 0.0610408 0.310831 0 -0.00016017 1
0.276803 0.0856733 0.310835 0 -0.00016017 1
-0.272934 0.0497661 0.26002 -0.707696 0.706517 0
0.33181 -0.0445144 0.324356 0 0 1
0.0720219 0.0203277 0.310843 0 0 -1
0.0398081 -0.224186 0.324356 0 0 1
-0.24492 0.113289 0.310843 0 0 -1
0.00298384 -0.169673 0.324356 0 0 1
-0.272446 -0.0052102 0.260853 -0.707558 -0.706655 0
0.0018916 0.208321 0.310843 0 0 -1
0.0906947 0.180984 0.324356 0 0 1
0.147174 0.148715 0.310843 0 0 -1
-0.15849 -0.0914531 0.324356 0 0 1
0.230262 -0.21404 0.318615 0.205223 -0.721291 -0.661531
0.268307 -0.0869499 0.324356 0 0 1
0.0158856 0.244816 0.317067 0.0368382 0.776583 -0.628937
-0.261214 -0.0630515 0.0922043 0.965886 -0.147752 0.21268
-0.164803 -0.120325 0.324356 0 0 1
0.106061 0.0567168 0.310843 0 0 -1
-0.221255 0.0152971 0.310843 0 0 -1
-0.313118 0.082929 0.310843 0 0 -1
-0.280881 0.152823 0.310843 0 0 -1
0.193164 0.22638 0.324356 0 0 1
0.135924 -0.165535 0.310843 0 0 -1
-0.137849 0.154334 0.310843 0 0 -1
0.183882 -0.0953489 0.310843 0 0 -1
0.277203 -0.0751883 0.0794483 -0.991026 0.0419858 -0.126903
-0.110569 0.0644858 0.324356 0 0 1
-0.0385387 -0.132595 0.324356 0 0 1
-0.152328 -0.0645681 0.324356 0 0 1
-0.435296 -0.0295644 0.324356 0 0 1
0.430773 -0.0390327 0.324356 0 0 1
-0.292701 0.194778 0.313173 -0.29185 0.645728 -0.705591
-0.150628 -0.14872 0.324356 0 0 1
-0.074151 -0.244201 0.318742 -0.028552 -0.776839 -0.629051
-0.156643 0.0665938 0.310843 0 0 -1
-0.145742 -0.0464623 0.324356 0 0 1
-0.315845 0.18097 0.324356 0 0 1
-0.0528579 0.0774211 0.324356 0 0 1
-0.255353 -0.0363944 0.306888 1 0 0
0.429294 -0.0685819 0.324356 0 0 1
0.288412 0.0500569 0.216262 0.707079 0.707134 0
-0.205939 0.0677962 0.310843 0 0 -1
-0.0852017 0.184351 0.324356 0 0 1
0.146154 -0.0868631 0.310843 0 0 -1
-0.0834088 -0.110226 0.324356 0 0 1
0.236496 -0.00791715 0.310843 0 0 -1
0.377607 -0.0728211 0.310843 0 0 -1
-0.312133 -0.0051837 0.324356 0 0 1
-0.264556 0.0191276 0.140531 0.255389 0 0.966838
-0.466896 0.0392693 0.320505 -0.988259 0.152785 0
-0.135366 -0.2064 0.324356 0 0 1
-0.273393 0.0499008 0.131802 -0.692999 0.691829 0.202792
0.285949 0.0520461 0.231945 0.258403 0.966037 0
-0.305143 0.0578924 0.324356 0 0 1
0.069212 -0.0428868 0.310843 0 0 -1
0.136531 -0.0112446 0.310843 0 0 -1
-0.279911 0.146913 0.324356 0 0 1
-0.161598 0.051557 0.310843 0 0 -1
0.395097 0.0214657 0.324356 0 0 1
0.287675 0.0057456 0.209157 0.706396 0.707816 0
0.239935 -0.129614 0.310843 0 0 -1
0.280115 0.102738 0.0992508 -0.258893 0.494577 0.82968
0.280482 0.16354 0.00450445 0 0 1
0.281536 0.150955 0.310843 0 0 -1
-0.0234098 -0.149391 0.310843 0 0 -1
0.0383406 -0.128898 0.324356 0 0 1
0.159009 0.0270937 0.310843 0 0 -1
-0.154291 0.0814703 0.310843 0 0 -1
0.100711 -0.100294 0.324356 0 0 1
0.27949 0.0746764 0.324356 0 0 1
-0.116463 0.218164 0.324356 0 0 1
-0.330077 -0.0191181 0.310843 0 0 -1
-0.093429 0.225548 0.324356 0 0 1
-0.078999 -0.209165 0.310843 0 0 -1
0.0804894 -0.193877 0.324356 0 0 1
-0.260061 0.060214 0.120237 0.965887 0.147679 0.212727
0.196717 0.0743197 0.310843 0 0 -1
0.0349164 -0.19044 0.324356 0 0 1
-0.321622 0.037912 0.324356 0 0 1
0.120616 0.0334746 0.172012 0.192494 -0.827062 0.528124
-0.0332469 -0.147742 0.310843 0 0 -1
-0.131333 0.147382 0.310843 0 0 -1
-0.117034 0.180177 0.310843 0 0 -1
-0.263372 0.0519869 0.220712 0.258341 0.966054 0
0.220951 -0.217733 0.321074 0.273661 -0.961826 0
-0.437983 -0.096627 0.319536 -0.507251 -0.280039 -0.81503
0.261678 -0.17584 0.324356 0 0 1
0.243079 0.167829 0.324356 0 0 1
-0.098254 -0.0897693 0.324356 0 0 1
0.167708 -0.213871 0.310843 0 0 -1
0.31884 0.0213072 0.310843 0 0 -1
0.28924 0.0492287 0.247561 0.707079 0.707134 0
-0.329628 -0.0870772 0.324356 0 0 1
0.27398 0.0709173 0.310843 0 0 -1
0.192287 -0.115438 0.324356 0 0 1
0.0079041 0.100607 0.324356 0 0 1
-0.255353 0.034676 0.288935 1 0 0
0.41324 0.0268534 0.324356 0 0 1
-0.133503 0.142895 0.310843 0 0 -1
0.223416 0.095876 0.324356 0 0 1
-0.016492 0.059012 0.324356 0 0 1
0.101113 -0.228243 0.324356 0 0 1
0.4075 0.0912156 0.324356 0 0 1
0.0798287 -0.187204 0.310843 0 0 -1
-0.0195718 0.143238 0.310843 0 0 -1
0.0434608 -0.0187287 0.324356 0 0 1
0.137495 0.0954941 0.310843 0 0 -1
-0.306304 0.0157956 0.324356 0 0 1
-0.352074 -0.129355 0.310843 0 0 -1
-0.0219623 -0.184032 0.310843 0 0 -1
0.282977 -0.11684 0.0377844 0 0.767671 -0.640844
0.000558293 0.0238582 0.324356 0 0 1
-0.154234 0.0614484 0.324356 0 0 1
-0.262241 -0.0531957 0.310836 0 0.00016017 1
0.110335 -0.181316 0.310843 0 0 -1
0.0970339 -0.104015 0.324356 0 0 1
0.285441 -0.00713734 0.249312 0.258646 -0.965972 0
0.426774 0.00792947 0.324356 0 0 1
-0.0936225 0.205771 0.324356 0 0 1
-0.157904 -0.231017 0.314716 -0.114992 -0.757823 -0.642247
0.417931 0.12332 0.320114 0.742417 0.669938 0
-0.141653 0.171533 0.324356 0 0 1
-0.0966755 -0.0456328 0.310843 0 0 -1
-0.112069 0.166263 0.324356 0 0 1
-0.225424 -0.207934 0.324356 0 0 1
-0.448718 0.0834073 0.321128 -0.896729 0.442579 0
-0.265824 0.150665 0.00257465 0.382915 -0.923784 0
0.0419385 0.0179255 0.324356 0 0 1
-0.262525 0.149476 0.0566107 0.98833 -0.11937 -0.0946311
0.280377 0.00727069 0.235763 -0.259283 0.965801 0
-0.348775 -0.135932 0.310843 0 0 -1
0.14746 0.0304736 0.16129 0.283547 0.560727 0.777937
-0.262729 0.051654 0.205447 0.707083 0.70713 0
0.213455 -0.0166111 0.324356 0 0 1
0.34479 0.005025 0.324356 0 0 1
-0.255648 0.154882 0.00146467 0.382915 -0.923784 0
-0.403138 0.0857597 0.324356 0 0 1
-0.123611 -0.208695 0.324356 0 0 1
-0.0391591 0.238731 0.310843 0 0 -1
0.188945 0.227722 0.324356 0 0 1
-0.254032 -0.0757797 0.324356 0 0 1
-0.273051 0.0801728 0.299406 -1 0 0
-0.366911 -0.0345417 0.310843 0 0 -1
0.0931085 0.00763811 0.324356 0 0 1
0.195183 0.170289 0.310843 0 0 -1
-0.282527 0.0912776 0.310843 0 0 -1
0.340102 -0.146285 0.324356 0 0 1
-0.0548402 -0.133608 0.324356 0 0 1
0.403395 -0.0276473 0.310843 0 0 -1
0.124538 0.235409 0.314151 0.11572 0.757985 -0.641925
0.443692 0.0844403 0.31696 0.512341 0.253293 -0.820579
-0.352081 0.0757454 0.324356 0 0 1
-0.263373 0.093392 0.310843 0 0 -1
0.18298 -0.131107 0.310843 0 0 -1
-0.251007 -0.0100726 0.310843 0 0 -1
-0.0448021 0.211067 0.324356 0 0 1
0.363981 -0.00821182 0.310843 0 0 -1
-0.290036 0.143909 0.324356 0 0 1
-0.259006 0.036354 0.12512 1 0 0
-0.0504619 0.0946839 0.324356 0 0 1
-0.204155 -0.0922527 0.310843 0 0 -1
-0.062803 -0.00147586 0.324356 0 0 1
-0.273051 -0.0436663 0.298489 -1 0 0
0.287158 -0.122543 0.0551125 1 0 0
-0.317255 -0.1324 0.324356 0 0 1
-0.36084 0.111174 0.324356 0 0 1
-0.0767565 0.235183 0.310843 0 0 -1
0.2834 0.081062 0.0927527 0 -0.460601 -0.887607
-0.261017 -0.127391 0.00450445 0 0 1
0.23796 -0.0715656 0.324356 0 0 1
0.320169 0.135608 0.310843 0 0 -1
0.105303 -0.148596 0.324356 0 0 1
-0.0318776 0.0498013 0.310843 0 0 -1
-0.268123 -0.00390761 0.109413 0 0.460843 -0.887482
-0.260179 -0.0387687 0.101086 0.999443 -0.0209013 -0.0260127
-0.4254 0.0357928 0.310843 0 0 -1
0.144525 0.0218615 0.324356 0 0 1
-0.256837 0.09463 0.298893 -0.000724701 0.160315 -0.987066
0.00598073 -0.0292473 0.324356 0 0 1
0.209797 0.0131169 0.310843 0 0 -1
-0.348876 0.065224 0.324356 0 0 1
-0.120689 -0.240932 0.322672 -0.150022 -0.988683 0
-0.400542 0.101028 0.324356 0 0 1
0.278769 0.146889 0.0714262 -0.696143 0.37268 0.613591
-0.281214 -0.15511 0.310843 0 0 -1
-0.0570915 -0.198657 0.324356 0 0 1
0.0396199 -0.133189 0.310843 0 0 -1
0.0811342 0.178973 0.310843 0 0 -1
0.206232 0.0573852 0.324356 0 0 1
-0.438275 -0.0715544 0.311103 -0.507251 -0.280039 -0.81503
-0.273139 0.103056 0.0913714 -0.991027 -0.0419906 -0.126894
0.358533 0.097416 0.324356 0 0 1
0.358639 0.16751 0.324356 0 0 1
0.297536 -0.0174008 0.310843 0 0 -1
0.0994295 0.0665796 0.324356 0 0 1
0.15398 -0.0347667 0.310843 0 0 -1
0.305216 0.0553876 0.310843 0 0 -1
-0.0170873 -0.123298 0.310843 0 0 -1
0.0674449 -0.214772 0.324356 0 0 1
0.29419 0.0906579 0.30743 1 0 0
-0.328732 -0.105949 0.310843 0 0 -1
0.24859 0.0604914 0.310843 0 0 -1
-0.213828 -0.0649616 0.324356 0 0 1
0.283819 0.170232 0.324356 0 0 1
0.424478 -0.0200025 0.324356 0 0 1
0.279195 0.0520022 0.298787 -0.258279 0.96607 0
0.0370755 -0.147413 0.324356 0 0 1
-0.0545285 -0.236105 0.310843 0 0 -1
-0.144231 -0.232668 0.314216 -0.115015 -0.757886 -0.642169
-0.27155 0.0231018 0.31083 0 0 1
0.109487 -0.0846196 0.310843 0 0 -1
-0.399243 -0.0618971 0.310843 0 0 -1
0.338215 -0.0893177 0.324356 0 0 1
0.237515 0.108037 0.310843 0 0 -1
-0.322478 -0.0706981 0.324356 0 0 1
-0.30799 0.0507784 0.324356 0 0 1
-0.0698888 -0.091639 0.324356 0 0 1
-0.255958 -0.0333002 0.324356 0 0 1
-0.195931 0.00249386 0.310843 0 0 -1
0.0991928 0.105981 0.324356 0 0 1
-0.18263 0.0829699 0.324356 0 0 1
0.362605 -0.0681674 0.310843 0 0 -1
-0.273711 -0.124796 0 0 0 -1
0.0995097 -0.108477 0.310843 0 0 -1
-0.269008 -0.158726 0.310843 0 0 -1
-0.125654 0.109669 0.310843 0 0 -1
-0.263327 -0.00157072 0.110627 0 0.460843 -0.887482
0.183772 0.0319963 0.324356 0 0 1
0.416629 -0.10226 0.311211 0.444947 -0.445993 -0.776603
0.0979153 0.130652 0.324356 0 0 1
0.315666 0.0944059 0.310843 0 0 -1
0.213409 0.0751255 0.324356 0 0 1
0.278619 0.117724 0.302653 0 0.160469 -0.987041
-0.00644438 0.234559 0.324356 0 0 1
0.370671 -0.0311733 0.324356 0 0 1
-0.0694687 -0.137257 0.310843 0 0 -1
-0.270892 0.209468 0.323928 -0.271039 0.962568 0
0.277604 -0.0915873 0.310843 0 0 -1
-0.119703 0.0880158 0.324356 0 0 1
-0.322738 0.129162 0.324356 0 0 1
0.276573 0.0317277 0.126734 -1 0 0
-0.10094 0.0125857 0.17626 0.282927 0.563388 -0.776239
-0.379743 -0.036808 0.324356 0 0 1
0.272067 -0.128948 0.324356 0 0 1
-0.274048 0.0477364 0.179649 -0.965811 0.259245 0
-0.321554 0.181703 0.313142 -0.291867 0.645809 -0.70551
0.223388 0.100182 0.324356 0 0 1
0.0960019 0.148554 0.310843 0 0 -1
-0.124438 -0.0272499 0.310843 0 0 -1
0.0467505 -0.148721 0.324356 0 0 1
-0.125705 0.104955 0.310843 0 0 -1
0.297551 -0.104872 0.310843 0 0 -1
-0.0179057 -0.15904 0.324356 0 0 1
0.155765 0.00245728 0.310843 0 0 -1
0.284426 0.00740652 0.29994 0.259408 0.965768 0
0.407156 0.0398678 0.324356 0 0 1
-0.125328 0.120944 0.310843 0 0 -1
0.0390877 -0.112244 0.324356 0 0 1
-0.171757 0.223405 0.310843 0 0 -1
-0.059951 0.0115327 0.190111 0.193362 0.825335 -0.530504
0.0611461 0.156878 0.310843 0 0 -1
0.0310607 0.223088 0.324356 0 0 1
0.218787 -0.214138 0.315162 0.205223 -0.721291 -0.661531
0.150582 -0.214979 0.324356 0 0 1
0.256208 0.13925 0.324356 0 0 1
-0.354498 0.0478763 0.324356 0 0 1
0.204997 -0.0198029 0.310843 0 0 -1
0.0533368 0.148982 0.324356 0 0 1
-0.128431 0.209704 0.324356 0 0 1
0.436897 -0.0617902 0.324356 0 0 1
-0.0631631 -0.0732986 0.324356 0 0 1
-0.209347 0.161968 0.324356 0 0 1
0.153227 -0.156575 0.324356 0 0 1
-0.0939093 0.243486 0.322764 -0.0453087 0.998973 0
-0.263681 0.0189224 0.127884 0 0.923937 0.382545
0.276492 -0.0659764 0.306859 -1 0 0
0.206287 0.0740635 0.310843 0 0 -1
-0.309917 -0.066807 0.310843 0 0 -1
0.274809 0.00863654 0.117718 -0.992059 0 -0.125774
-0.315772 0.19154 0.323358 -0.411858 0.911248 0
-0.438417 0.100736 0.323412 -0.743201 0.669069 0
0.227479 -0.12861 0.310843 0 0 -1
0.276326 -0.0530886 0.310843 0 0 -1
0.0628588 0.0170963 0.310843 0 0 -1
-0.351196 0.135472 0.324356 0 0 1
-0.273051 0.0456124 0.295904 -1 0 0
0.321505 0.11184 0.324356 0 0 1
0.120149 -0.182667 0.324356 0 0 1
0.088523 0.0265844 0.324356 0 0 1
-0.125444 0.223077 0.324356 0 0 1
0.397515 -0.128045 0.315068 0.444906 -0.44592 -0.776668
0.129043 0.230105 0.324356 0 0 1
-0.0246776 -0.0864252 0.324356 0 0 1
-0.290383 0.0682523 0.324356 0 0 1
-0.339238 -0.0537972 0.310843 0 0 -1
-0.249869 -0.100865 0.305445 -0.000565621 0.00294643 -0.999995
-0.155546 0.225601 0.310843 0 0 -1
0.315632 0.0209298 0.310843 0 0 -1
-0.272692 0.117249 0.0831828 -0.991027 -0.0419906 -0.126894
0.266272 0.0195972 0.310843 0 0 -1
0.421985 0.0119003 0.310843 0 0 -1
-0.409117 -0.0118222 0.310843 0 0 -1
0.448663 0.0192607 0.310843 0 0 -1
0.216897 0.0773101 0.324356 0 0 1
0.370396 0.143675 0.324356 0 0 1
0.19378 0.151534 0.324356 0 0 1
0.219559 -0.00358061 0.324356 0 0 1
-0.0719313 -0.151784 0.310843 0 0 -1
-0.418043 0.00692482 0.310843 0 0 -1
-0.136916 0.132427 0.324356 0 0 1
0.193693 0.108145 0.310843 0 0 -1
0.366796 -0.0751709 0.324356 0 0 1
-0.274479 -0.0139678 0.11503 -0.999443 -0.0208951 -0.0260049
0.263216 -0.0496111 0.324356 0 0 1
-0.211752 0.197953 0.324356 0 0 1
0.00297402 0.0309864 0.218313 -0.335769 0.196528 -0.921214
0.339857 -0.0302733 0.324356 0 0 1
-0.320386 0.15209 0.324356 0 0 1
-0.327906 0.141134 0.324356 0 0 1
-0.378969 0.139759 0.310843 0 0 -1
0.0779235 -0.0114238 0.310843 0 0 -1
-0.185335 -0.0569996 0.324356 0 0 1
-0.100045 -0.0631506 0.324356 0 0 1
0.0151371 -0.108347 0.324356 0 0 1
0.212069 -0.122826 0.310843 0 0 -1
-0.275645 -0.101269 0.324356 0 0 1
0.297273 -0.162198 0.310843 0 0 -1
-0.263554 -0.100452 0.324356 0 0 1
0.108066 0.0783491 0.324356 0 0 1
0.33585 0.0252155 0.324356 0 0 1
0.276492 0.0102928 0.30064 -1 0 0
0.135741 0.000152826 0.310843 0 0 -1
0.152085 0.162067 0.324356 0 0 1
-0.0782466 -0.239051 0.324356 0 0 1
-0.334442 -0.0526153 0.310843 0 0 -1
-0.239415 0.123066 0.324356 0 0 1
0.13241 0.226184 0.324356 0 0 1
0.214091 0.0504295 0.324356 0 0 1
-0.314473 -0.186284 0.317694 -0.289493 -0.652864 -0.699973
-0.222488 0.101713 0.324356 0 0 1
-0.261858 -0.0801926 0.303017 -0.000724682 -0.160469 -0.987041
-0.25456 -0.117896 0.324356 0 0 1
0.239491 -0.161354 0.324356 0 0 1
0.184341 0.149387 0.324356 0 0 1
0.0392769 -0.241415 0.315041 0.0496727 -0.776151 -0.628587
0.0367105 0.224832 0.324356 0 0 1
0.428174 -0.000617459 0.324356 0 0 1
0.0229157 0.228148 0.310843 0 0 -1
-0.263704 -0.00703063 0.135931 0.258584 -0.965989 0
0.19583 0.0407463 0.324356 0 0 1
0.143028 0.012028 0.261242 -0.282867 0.563656 0.776065
-0.376995 -0.129725 0.324356 0 0 1
0.130883 0.0302673 0.324356 0 0 1
0.22795 0.0785682 0.324356 0 0 1
-0.402947 0.0734468 0.324356 0 0 1
0.0222657 -0.108718 0.310843 0 0 -1
-0.223558 0.0425126 0.324356 0 0 1
0.164251 -0.0774027 0.324356 0 0 1
0.0816223 0.150551 0.310843 0 0 -1
-0.464219 -0.0142906 0.324356 0 0 1
0.272119 0.0215329 0.324356 0 0 1
0.0643246 0.0276262 0.310843 0 0 -1
0.195352 0.109931 0.310843 0 0 -1
0.285757 0.088362 0.107644 0.259017 0.494561 0.82965
0.284708 -0.0614903 0.310838 0 0.00016017 1
0.0785809 0.239855 0.314614 0.0368656 0.776707 -0.628782
-0.140557 -0.0148045 0.310843 0 0 -1
-0.136625 -0.105649 0.310843 0 0 -1
-0.411987 0.129299 0.319339 -0.45631 0.410795 -0.789322
-0.159324 0.149928 0.324356 0 0 1
0.397199 -0.126329 0.313901 0.444906 -0.44592 -0.776668
-0.267366 -0.00775571 0.248476 -0.258584 -0.965989 0
0.294408 -0.12337 0.310843 0 0 -1
-0.259159 0.0491025 0.284903 0 1 0
-0.312489 0.0506716 0.324356 0 0 1
-0.0276054 0.0911957 0.324356 0 0 1
-0.274354 0.00155537 0.188712 -0.965812 0.259242 0
-0.259999 0.0533259 0.310843 0 0 -1
0.109573 0.060267 0.310843 0 0 -1
0.117515 -0.138603 0.324356 0 0 1
0.0994945 0.175846 0.310843 0 0 -1
-0.352543 -0.00658581 0.310843 0 0 -1
-0.270645 0.0867435 0.297616 0 0.160469 -0.987041
-0.0358422 -0.0300326 0.310843 0 0 -1
0.268992 -0.131903 0.324356 0 0 1
-0.235713 0.0493663 0.324356 0 0 1
0.0929909 -0.19913 0.310843 0 0 -1
-0.0561478 0.192413 0.324356 0 0 1
-0.223258 -0.167123 0.324356 0 0 1
0.117729 0.231876 0.324356 0 0 1
0.124007 -0.105585 0.324356 0 0 1
-0.204566 -0.0595597 0.310843 0 0 -1
-0.314372 0.0811186 0.324356 0 0 1
-0.203277 -0.18139 0.310843 0 0 -1
-0.34801 -0.10735 0.324356 0 0 1
0.082877 0.0114582 0.240118 -0.19306 0.825936 0.529677
0.110148 -0.0947712 0.310843 0 0 -1
0.0768635 0.182762 0.324356 0 0 1
0.282594 -0.127767 0.00610276 -0.382865 -0.923804 0
0.285141 0.0522624 0.249873 0.258403 0.966037 0
-0.0417456 -0.215746 0.324356 0 0 1
-0.166669 0.129183 0.324356 0 0 1
-0.327693 0.0518505 0.310843 0 0 -1
-0.351716 0.0342177 0.324356 0 0 1
0.0708151 0.076861 0.324356 0 0 1
0.195062 -0.168372 0.324356 0 0 1
0.118599 0.0825683 0.324356 0 0 1
-0.284924 -0.0999491 0.324356 0 0 1
0.00038359 -0.0988048 0.324356 0 0 1
-0.190512 -0.152489 0.310843 0 0 -1
0.24885 0.204665 0.324356 0 0 1
-0.0698675 -0.2191 0.324356 0 0 1
-0.392175 0.014036 0.324356 0 0 1
-0.243105 0.0808767 0.310843 0 0 -1
0.0629707 0.0292797 0.194158 0.0672966 0.980501 0.184634
-0.286656 0.159805 0.310843 0 0 -1
0.168373 0.135832 0.310843 0 0 -1
0.246303 0.115829 0.324356 0 0 1
0.0701642 -0.23951 0.31513 0.0496791 -0.776097 -0.628654
-0.0638632 -0.0183624 0.310843 0 0 -1
0.383904 0.0464228 0.324356 0 0 1
-0.146481 0.0156416 0.324356 0 0 1
0.033379 0.0714704 0.310843 0 0 -1
0.275277 0.0431613 0.176639 -0.965733 -0.259537 0
-0.254551 0.173809 0 0 0 -1
0.0383147 -0.0224125 0.324356 0 0 1
-0.0355468 0.065567 0.310843 0 0 -1
0.43725 -0.0786018 0.313228 0.50607 -0.285136 -0.813997
-0.219503 0.0199095 0.324356 0 0 1
-0.43718 -0.00553201 0.324356 0 0 1
-0.308452 0.0615348 0.310843 0 0 -1
-0.0113559 -0.0172568 0.324356 0 0 1
0.113971 -0.0159781 0.324356 0 0 1
-0.408676 0.132725 0.319208 -0.45631 0.410795 -0.789322
0.174558 -0.195741 0.324356 0 0 1
0.28954 -0.00372991 0.181837 0.966059 -0.258322 0
-0.092971 0.100295 0.324356 0 0 1
0.384065 0.103842 0.310843 0 0 -1
0.00225234 -0.213774 0.310843 0 0 -1
0.11268 -0.167459 0.310843 0 0 -1
-0.0388081 0.0244471 0.324356 0 0 1
-0.153304 -0.138557 0.324356 0 0 1
0.412098 -0.0896066 0.324356 0 0 1
0.119468 0.150008 0.310843 0 0 -1
-0.273051 0.0886476 0.304563 -1 0 0
-0.436489 -0.0449553 0.310843 0 0 -1
0.388099 0.00101036 0.324356 0 0 1
0.413382 -0.118889 0.3189 0.444906 -0.44592 -0.776668
-0.159844 0.109966 0.310843 0 0 -1
-0.121071 -0.134833 0.310843 0 0 -1
0.175534 -0.0769539 0.324356 0 0 1
-0.334831 0.157412 0.310843 0 0 -1
0.207683 -0.215782 0.31351 0.205223 -0.721291 -0.661531
-0.323071 -0.0744316 0.324356 0 0 1
-0.0928168 0.0530036 0.310843 0 0 -1
0.106708 0.0922531 0.310843 0 0 -1
0.329101 0.135234 0.310843 0 0 -1
0.286686 0.00673351 0.20199 0.706396 0.707816 0
-0.000811018 -0.0211704 0.324356 0 0 1
-0.0389083 0.186735 0.324356 0 0 1
-0.053638 -0.237211 0.310843 0 0 -1
0.202206 0.0684486 0.310843 0 0 -1
-0.0522149 -0.149846 0.310843 0 0 -1
-0.122288 -0.0252501 0.310843 0 0 -1
-0.115893 -0.122864 0.310843 0 0 -1
0.0897843 -0.105678 0.310843 0 0 -1
-0.213658 -0.0511191 0.324356 0 0 1
0.205759 0.192008 0.310843 0 0 -1
-0.0343111 -0.16268 0.324356 0 0 1
-0.159611 -0.172378 0.310843 0 0 -1
0.235156 0.145041 0.310843 0 0 -1
0.301726 -0.100464 0.310843 0 0 -1
-0.0992626 0.162043 0.324356 0 0 1
-0.324224 -0.0742342 0.310843 0 0 -1
-0.213119 -0.0342855 0.324356 0 0 1
-0.0503643 -0.121303 0.310843 0 0 -1
0.196507 0.221821 0.311079 0.115666 0.757837 -0.64211
0.379016 -0.046427 0.324356 0 0 1
0.288638 0.0543562 0.107415 0.807019 -0.253464 -0.533363
0.246218 0.112865 0.310843 0 0 -1
-0.142238 -0.0803202 0.310843 0 0 -1
0.000514538 0.145447 0.310843 0 0 -1
-0.00515268 -0.133233 0.324356 0 0 1
-0.292555 -0.0858974 0.310843 0 0 -1
0.232071 -0.135611 0.310843 0 0 -1
0.294844 -0.00506955 0.310843 0 0 -1
0.316533 0.0736131 0.324356 0 0 1
-0.0488875 -0.155839 0.310843 0 0 -1
0.171536 -0.177006 0.310843 0 0 -1
0.281748 0.19468 0.310843 0 0 -1
-0.00556163 -0.224432 0.324356 0 0 1
0.275889 0.00400013 0.170589 -0.707014 0.7072 0
0.395215 -0.0789563 0.310843 0 0 -1
0.267658 -0.148952 0.310843 0 0 -1
-0.2638 0.0521013 0.278072 0.258341 0.966054 0
0.117842 -0.197578 0.324356 0 0 1
0.275492 -0.00268334 0.206447 -0.965752 -0.259467 0
0.345689 -0.112128 0.310843 0 0 -1
-0.300502 0.197221 0.318636 -0.29185 0.645728 -0.705591
0.203583 0.0293881 0.143493 -0.0675544 0.980349 -0.185342
0.159937 0.0329977 0.324356 0 0 1
-0.450317 0.0694142 0.316438 -0.512452 0.25292 -0.820625
0.202893 -0.0321009 0.324356 0 0 1
0.0766819 0.0806257 0.310843 0 0 -1
-0.218507 0.165083 0.324356 0 0 1
0.243493 0.0118433 0.298061 -0.193231 0.825598 0.530142
-0.255028 -0.199737 0.324356 0 0 1
0.133024 0.200481 0.324356 0 0 1
0.329841 -0.132456 0.310843 0 0 -1
0.133726 0.0295937 0.324356 0 0 1
-0.25948 0.108229 0.324356 0 0 1
0.246436 0.0603114 0.310843 0 0 -1
0.109488 0.0910186 0.324356 0 0 1
0.326389 -0.133646 0.324356 0 0 1
0.179484 -0.0774776 0.324356 0 0 1
-0.332242 -0.123612 0.324356 0 0 1
-0.149229 -0.110006 0.324356 0 0 1
-0.231877 0.130992 0.324356 0 0 1
0.342212 -0.120162 0.324356 0 0 1
-0.0810542 -0.153267 0.324356 0 0 1
-0.164303 -0.0649764 0.310843 0 0 -1
-0.273877 0.00333075 0.165171 -0.965812 0.259242 0
-0.14952 -0.0193562 0.324356 0 0 1
0.310561 -0.0571669 0.310843 0 0 -1
-0.253257 0.0713901 0.310843 0 0 -1
-0.26704 0.052887 0.143073 -0.258341 0.966054 0
0.113476 -0.0862453 0.310843 0 0 -1
-0.274329 -0.00164599 0.222675 -0.965812 -0.259242 0
-0.262354 0.159531 0.0591547 0.992478 -0.0363387 -0.116904
0.390428 0.0752537 0.324356 0 0 1
0.277597 -0.0853021 0.0795516 -0.965582 -0.148285 0.213688
-0.0320156 0.0178076 0.310843 0 0 -1
0.0566601 0.00643699 0.310843 0 0 -1
-0.0732013 0.132646 0.324356 0 0 1
0.123814 0.0156527 0.256606 0.0671882 -0.980564 -0.184336
-0.141725 -0.168078 0.310843 0 0 -1
0.0549932 0.0159269 0.310843 0 0 -1
-0.232586 -0.0637897 0.324356 0 0 1
0.429346 0.0563171 0.324356 0 0 1
-0.0693269 -0.175315 0.310843 0 0 -1
-0.137012 0.217834 0.310843 0 0 -1
0.0861466 0.035854 0.324356 0 0 1
-0.309878 -0.184875 0.31448 -0.289493 -0.652864 -0.699973
0.0379376 0.0144757 0.226853 0.282854 -0.563702 -0.776038
-0.209393 -0.166766 0.324356 0 0 1
-0.012098 -0.214593 0.324356 0 0 1
0.258626 0.122711 0.324356 0 0 1
-0.410505 0.0750753 0.310843 0 0 -1
-0.409326 -0.000443317 0.310843 0 0 -1
0.268093 0.133851 0.310843 0 0 -1
-0.181544 -0.110915 0.310843 0 0 -1
0.275652 0.00328103 0.277297 -0.965752 0.259467 0
0.42108 0.0441235 0.310843 0 0 -1
-0.0267612 0.224161 0.324356 0 0 1
-0.226854 -0.161802 0.310843 0 0 -1
0.335463 0.00429833 0.324356 0 0 1
-0.420352 0.0780186 0.310843 0 0 -1
0.0980664 0.202279 0.310843 0 0 -1
-0.169308 -0.181021 0.310843 0 0 -1
-0.191593 0.0194304 0.310843 0 0 -1
-0.207078 0.0185466 0.324356 0 0 1
0.0429563 -0.14682 0.324356 0 0 1
0.0707623 -0.0389141 0.324356 0 0 1
-0.271393 0.167381 0.0467344 -1 0 0
-0.309235 -0.173471 0.310843 0 0 -1
0.448135 0.0278149 0.324356 0 0 1
0.275474 0.0476606 0.252281 -0.965751 0.25947 0
-0.319749 0.0944099 0.324356 0 0 1
-0.202935 -0.0184256 0.310843 0 0 -1
-0.271944 -0.00571309 0.249245 -0.707558 -0.706655 0
-0.25432 0.0524815 0.310843 0 0 -1
-0.410133 0.0621509 0.324356 0 0 1
-0.0436697 0.154573 0.324356 0 0 1
0.142565 0.0822232 0.310843 0 0 -1
0.3502 -0.0343464 0.324356 0 0 1
0.084321 -0.0514086 0.310843 0 0 -1
-0.164647 -0.0987405 0.324356 0 0 1
0.203482 0.0448328 0.324356 0 0 1
0.267827 -0.204396 0.323778 0.273661 -0.961826 0
-0.00791887 0.148824 0.324356 0 0 1
0.0208494 0.105423 0.310843 0 0 -1
0.270226 -0.125744 0.00450445 0 0 1
-0.25774 0.0908582 0.310836 0 -0.00016017 1
0.0888761 -0.034536 0.310843 0 0 -1
0.275285 -0.0598263 0.324356 0 0 1
0.252651 -0.207673 0.318618 0.205223 -0.721291 -0.661531
-0.000800511 -0.0417583 0.310843 0 0 -1
-0.458679 -0.0380807 0.314906 -0.540485 -0.09647 -0.835805
0.339526 0.133684 0.324356 0 0 1
0.179584 0.135352 0.310843 0 0 -1
0.207375 0.0205958 0.310843 0 0 -1
0.284922 -0.155053 0.310843 0 0 -1
0.32504 0.154968 0.310843 0 0 -1
-0.0382529 0.156969 0.324356 0 0 1
-0.0389352 0.184573 0.310843 0 0 -1
-0.162703 0.0712894 0.310843 0 0 -1
-0.172805 -0.215081 0.310843 0 0 -1
0.290349 0.11873 0.324356 0 0 1
-0.137337 -0.0844542 0.324356 0 0 1
0.243709 0.0821471 0.324356 0 0 1
-0.349456 -0.0660206 0.324356 0 0 1
0.294541 0.0712876 0.324356 0 0 1
0.0539378 0.170742 0.324356 0 0 1
0.0546954 -0.15492 0.310843 0 0 -1
-0.155105 -0.183941 0.324356 0 0 1
-0.345717 -0.140194 0.324356 0 0 1
0.324433 0.01562 0.310843 0 0 -1
0.364963 0.145001 0.324356 0 0 1
-0.179929 -0.146791 0.324356 0 0 1
-0.314564 0.125991 0.310843 0 0 -1
-0.262583 0.16651 0.324356 0 0 1
0.384514 -0.0794145 0.324356 0 0 1
0.289999 -0.00201028 0.265255 0.966059 -0.258322 0
0.164995 0.136509 0.310843 0 0 -1
0.313304 -0.0122243 0.310843 0 0 -1
0.0453345 0.0656253 0.324356 0 0 1
0.062981 -0.115878 0.310843 0 0 -1
0.222275 0.0505242 0.310843 0 0 -1
-0.241139 -0.0378769 0.310843 0 0 -1
-0.195035 -0.0470577 0.324356 0 0 1
-0.459353 0.000461698 0.310993 -0.541235 0.0836736 -0.836698
-0.0494661 -0.123146 0.324356 0 0 1
0.330524 0.0922049 0.310843 0 0 -1
0.131854 0.0545015 0.324356 0 0 1
-0.123647 -0.140574 0.324356 0 0 1
0.279518 -0.00704371 0.149443 -0.258522 -0.966005 0
-0.0645066 0.0845458 0.310843 0 0 -1
-0.274339 0.0567795 0.11052 -0.991819 -0.0320888 -0.123553
-0.408542 -0.0555958 0.324356 0 0 1
-0.0380132 0.203817 0.324356 0 0 1
0.0332588 -0.182219 0.310843 0 0 -1
-0.0414448 0.075769 0.310843 0 0 -1
-0.270899 0.0553126 0.292506 0 0.160469 -0.987041
-0.309023 -0.118143 0.310843 0 0 -1
-0.110028 0.00277744 0.310843 0 0 -1
-0.269658 0.0392711 0.112612 0 0 -1
-0.227618 -0.125399 0.310843 0 0 -1
0.294759 0.160439 0.00450445 0 0 1
-0.270496 0.00520516 0.112612 0 0 -1
0.359289 0.0755829 0.310843 0 0 -1
-0.0234396 0.158705 0.310843 0 0 -1
0.015468 0.070457 0.324356 0 0 1
0.323393 -0.0112844 0.324356 0 0 1
0.276492 0.0347154 0.294658 -1 0 0
0.240634 0.1933 0.310843 0 0 -1
-0.445726 -0.0779689 0.317943 -0.507065 -0.280014 -0.815154
-0.0114866 0.228322 0.324356 0 0 1
-0.257105 0.0432733 0.284411 1 0 0
-0.0654747 -0.139897 0.310843 0 0 -1
0.0341669 0.0790801 0.310843 0 0 -1
-0.221039 -0.0471696 0.310843 0 0 -1
0.324841 -0.0621035 0.310843 0 0 -1
-0.22649 -0.0396784 0.310843 0 0 -1
-0.263623 0.0774152 0.114119 0.258955 0.494569 0.829665
0.283578 -0.112825 0.0668838 0.251058 -0.495736 0.831394
-0.264873 -0.14047 0.000517684 0.382853 -0.923809 0
-0.418132 -0.0457133 0.310843 0 0 -1
-0.337784 -0.0228885 0.310843 0 0 -1
0.227867 0.213129 0.324356 0 0 1
-0.339993 -0.0976384 0.310843 0 0 -1
-0.169276 -0.153823 0.310843 0 0 -1
0.0157591 -0.237562 0.324356 0 0 1
-0.0298434 -0.136909 0.310843 0 0 -1
0.425986 -0.0450271 0.310843 0 0 -1
0.103261 0.195027 0.324356 0 0 1
-0.176482 -0.212351 0.310843 0 0 -1
-0.0649714 -0.0564697 0.310843 0 0 -1
-0.278791 0.0965175 0.310843 0 0 -1
0.290038 0.0554003 0.1103 0.991774 -0.032848 -0.123717
0.319971 -0.0643258 0.324356 0 0 1
-0.254951 -0.113056 0.00450445 0 0 1
-0.168854 0.00958245 0.310843 0 0 -1
-0.312079 -0.183263 0.324356 0 0 1
0.346086 0.0443125 0.324356 0 0 1
0.0851277 0.201822 0.310843 0 0 -1
-0.300798 0.144478 0.310843 0 0 -1
-0.170501 -0.0400644 0.310843 0 0 -1
0.0602558 0.139618 0.324356 0 0 1
0.3309 -0.0535116 0.324356 0 0 1
-0.0955682 -0.226864 0.310843 0 0 -1
-0.269467 -0.00719321 0.217254 -0.258584 -0.965989 0
-0.263433 0.121917 0.0871243 0.696185 0.37308 0.613301
-0.0909366 0.0157129 0.177453 -0.0673104 -0.980493 0.184672
0.151463 0.14051 0.310843 0 0 -1
0.169746 -0.204495 0.310843 0 0 -1
0.158136 -0.132644 0.310843 0 0 -1
0.0352719 -0.167962 0.310843 0 0 -1
0.457386 0.0245637 0.324356 0 0 1
0.172908 -0.0156931 0.324356 0 0 1
-0.144466 0.188808 0.310843 0 0 -1
0.00881309 0.0489733 0.310843 0 0 -1
0.290717 0.126139 0.324356 0 0 1
-0.255497 -0.0198597 0.324356 0 0 1
0.138912 -0.126521 0.310843 0 0 -1
0.075512 -0.112686 0.324356 0 0 1
0.284538 -0.0119394 0.290994 0 -0.504943 -0.863152
0.284655 -0.00734765 0.18932 0.258646 -0.965972 0
-0.0959009 -0.103837 0.324356 0 0 1
0.39634 0.00276454 0.324356 0 0 1
0.309321 0.116505 0.324356 0 0 1
0.282362 0.0235132 0.31083 0 0 1
-0.387164 0.0570348 0.310843 0 0 -1
0.255017 -0.0353785 0.324356 0 0 1
0.0150411 0.0117337 0.217757 0.193125 0.825805 -0.529858
-0.164112 -0.132086 0.324356 0 0 1
0.239043 0.123021 0.324356 0 0 1
0.276826 0.195842 0.324356 0 0 1
0.347827 0.0839601 0.324356 0 0 1
-0.273051 -0.0683717 0.302101 -1 0 0
0.189652 -0.191073 0.310843 0 0 -1
-0.132439 -0.112899 0.324356 0 0 1
-0.40395 -0.11296 0.324356 0 0 1
0.11727 0.0120548 0.310843 0 0 -1
0.0280495 0.244658 0.317585 0.0368656 0.776707 -0.628782
-0.259016 3.62142e-05 0.183081 0.966057 0.258329 0
-0.00353203 -0.104506 0.324356 0 0 1
-0.266214 0.172469 0.0529714 0.259076 0.96571 -0.0168521
0.268198 0.0979656 0.324356 0 0 1
-0.270414 -0.100542 0.0726286 -0.697 -0.37228 0.612862
-0.408311 0.0257354 0.310843 0 0 -1
-0.0570311 -0.0541272 0.324356 0 0 1
-0.0632731 0.0568464 0.310843 0 0 -1
-0.252375 -0.119472 0.00450445 0 0 1
-0.0853964 -0.0764808 0.324356 0 0 1
0.275659 0.00330408 0.249578 -0.965752 0.259467 0
0.1802 0.147831 0.310843 0 0 -1
-0.146651 0.103617 0.324356 0 0 1
0.332898 0.180925 0.324356 0 0 1
0.337399 0.16321 0.310843 0 0 -1
-0.10314 0.104225 0.310843 0 0 -1
-0.0220458 0.174793 0.324356 0 0 1
0.233385 0.103659 0.324356 0 0 1
-0.291946 0.13597 0.324356 0 0 1
-0.276037 -0.0628285 0.324356 0 0 1
-0.128314 -0.20663 0.310843 0 0 -1
0.396054 0.0704573 0.324356 0 0 1
0.281002 0.0376057 0.200277 -0.259285 -0.965801 0
0.375681 -0.0958731 0.324356 0 0 1
-0.266286 -0.126593 0.0157656 0 0 1
-0.274657 -0.0103139 0.118907 -0.999443 -0.0208951 -0.0260049
0.0228863 -0.0852976 0.310843 0 0 -1
-0.177022 -0.118527 0.324356 0 0 1
-0.279489 -0.0139889 0.324356 0 0 1
0.181715 0.0340815 0.310843 0 0 -1
-0.2648 0.122401 0.303409 -0.000724701 0.160315 -0.987066
0.000344489 -0.13559 0.324356 0 0 1
0.278322 -0.114172 0.0443582 -0.987732 0.12148 -0.0981201
0.285564 0.0659688 0.100585 0 -0.460601 -0.887607
0.15194 0.0146702 0.264251 -0.282572 -0.564917 0.775256
-0.165723 0.093849 0.324356 0 0 1
-0.336215 0.033182 0.310843 0 0 -1
-0.084744 -0.225257 0.324356 0 0 1
-0.0311902 0.220486 0.324356 0 0 1
0.0155299 -0.204025 0.310843 0 0 -1
0.319113 -0.00580089 0.324356 0 0 1
0.282341 0.0138458 0.13185 0 0.382599 0.923914
0.371308 -0.101842 0.310843 0 0 -1
-0.123824 0.0142473 0.163506 -0.335882 -0.194875 0.921524
0.199592 -0.201451 0.324356 0 0 1
-0.0965976 0.239519 0.315008 -0.0352424 0.776478 -0.629158
-0.127697 0.0055871 0.324356 0 0 1
0.222331 -0.0428955 0.310843 0 0 -1
-0.18559 0.121082 0.324356 0 0 1
0.066111 0.225279 0.324356 0 0 1
-0.0645753 0.12116 0.310843 0 0 -1
0.074467 0.166677 0.324356 0 0 1
-0.312852 -0.0637295 0.324356 0 0 1
0.330036 0.03859 0.310843 0 0 -1
-0.28044 0.0274171 0.324356 0 0 1
-0.263249 0.18475 0.00222921 0.382853 0.923809 0
0.343074 -0.014037 0.310843 0 0 -1
-0.0830171 -0.226783 0.324356 0 0 1
-0.272193 -0.0873593 0.0742714 -0.991031 0.0419738 -0.126867
-0.1986 -0.214834 0.310843 0 0 -1
-0.265833 -0.124544 0.0598561 0.250952 -0.49575 0.831417
0.256847 -0.079349 0.310843 0 0 -1
0.128494 0.193908 0.324356 0 0 1
0.195131 0.0151162 0.283672 0.19336 -0.825334 -0.530504
0.285463 0.116122 0.0911881 0.259017 0.494561 0.82965
0.150059 -0.0380495 0.310843 0 0 -1
0.433317 0.0500707 0.310843 0 0 -1
-0.13775 -0.0311559 0.324356 0 0 1
0.0201054 0.0859058 0.324356 0 0 1
-0.0513184 -0.176855 0.324356 0 0 1
-0.0426743 -0.0821608 0.310843 0 0 -1
0.0363138 -0.186226 0.310843 0 0 -1
-0.0459704 0.0334964 0.234976 -0.19237 -0.827306 -0.527786
-0.446983 0.0335926 0.310843 0 0 -1
0.391264 -0.1406 0.320101 0.542754 -0.839892 0
-0.0032864 -0.0217798 0.310843 0 0 -1
0.282163 0.172307 0.0408928 -0.25897 0.965738 -0.0168526
-0.273051 0.0423698 0.300832 -1 0 0
0.0051505 0.0777326 0.310843 0 0 -1
-0.119211 0.122406 0.310843 0 0 -1
-0.19056 -0.103847 0.324356 0 0 1
-0.289982 -0.119814 0.324356 0 0 1
0.211361 -0.159134 0.310843 0 0 -1
0.276065 0.0492206 0.207914 -0.707696 0.706517 0
0.283511 -0.095844 0.310843 0 0 1
0.296674 0.182024 0.310843 0 0 -1
-0.180491 0.223579 0.324356 0 0 1
0.0415398 0.0650596 0.324356 0 0 1
-0.115016 0.233669 0.324356 0 0 1
-0.263869 0.0350352 0.285701 0 -1 0
-0.214078 0.207394 0.324356 0 0 1
0.29419 -0.0343916 0.297018 1 0 0
-0.425701 -0.0065238 0.324356 0 0 1
-0.369699 0.0311505 0.324356 0 0 1
0.261845 0.0111249 0.324356 0 0 1
-0.26815 -0.0483018 0.310835 0 0.00016017 1
-0.280291 -0.102613 0.310843 0 0 -1
0.071045 0.0552807 0.324356 0 0 1
0.0552077 0.0139833 0.228704 -0.335882 -0.194875 0.921524
-0.267864 -0.176592 0.310843 0 0 -1
0.110714 0.00126889 0.310843 0 0 -1
0.299865 -0.187656 0.316528 0.286979 -0.660439 -0.693876
0.286439 0.0381783 0.20251 0.25941 -0.965767 0
-0.0252473 0.0217938 0.324356 0 0 1
-0.214283 0.0163551 0.324356 0 0 1
0.409352 -0.00228804 0.324356 0 0 1
0.158864 0.0335494 0.310843 0 0 -1
0.117508 0.0488519 0.324356 0 0 1
0.0478409 0.111126 0.310843 0 0 -1
0.152581 0.180817 0.310843 0 0 -1
-0.052277 -0.121612 0.324356 0 0 1
-0.28271 0.199245 0.313129 -0.29185 0.645728 -0.705591
-0.260792 0.0991208 0.0888835 0.999459 0.0206112 -0.0256463
0.185923 -0.152122 0.324356 0 0 1
-0.169729 -0.222943 0.310843 0 0 -1
0.215982 0.0324081 0.324356 0 0 1
0.268708 0.128554 0.324356 0 0 1
-0.0110468 0.172772 0.310843 0 0 -1
-0.260515 -0.0778648 0.324356 0 0 1
-0.179687 -0.166545 0.324356 0 0 1
0.256111 0.167092 0.310843 0 0 -1
-0.255353 0.0291324 0.304542 1 0 0
0.22688 0.0516793 0.310843 0 0 -1
0.00719638 0.0734723 0.324356 0 0 1
0.328956 0.0859556 0.310843 0 0 -1
0.278066 0.00617678 0.194676 -0.707014 0.7072 0
-0.207793 -0.0427596 0.310843 0 0 -1
-0.260978 -0.00485957 0.144784 0.706945 -0.707269 0
-0.154979 -0.0305363 0.324356 0 0 1
-0.208974 0.102879 0.324356 0 0 1
-0.356351 -0.0849095 0.310843 0 0 -1
-0.271175 0.167643 0.0300483 -0.923804 -0.382865 0
0.179877 0.123784 0.324356 0 0 1
-0.217299 0.191319 0.324356 0 0 1
-0.0833977 0.237755 0.312091 -0.0352424 0.776478 -0.629158
-0.280982 0.205909 0.318984 -0.201549 0.715805 -0.668581
0.355274 -0.0305477 0.310843 0 0 -1
0.0326933 0.0134981 0.324356 0 0 1
0.278219 0.168002 0.0287167 -0.923804 -0.382865 0
-0.328633 0.0813036 0.310843 0 0 -1
0.0559742 -0.162523 0.310843 0 0 -1
0.252019 -0.0101926 0.310843 0 0 -1
-0.254549 0.207277 0.31248 -0.201549 0.715805 -0.668581
0.287391 0.0348301 0.285911 0 0 -1
0.0587853 -0.0549621 0.324356 0 0 1
0.192729 -0.147837 0.310843 0 0 -1
-0.287413 0.162283 0.324356 0 0 1
-0.223293 0.200889 0.324356 0 0 1
0.271504 -0.0783271 0.310843 0 0 -1
-0.41422 -0.0455972 0.324356 0 0 1
0.461224 -0.00309904 0.324356 0 0 1
-0.258469 0.0788045 0.310843 0 0 -1
-0.263621 -0.119835 0.0198883 0.923866 0.382717 0
-0.375154 -0.061493 0.324356 0 0 1
0.221014 -0.100569 0.310843 0 0 -1
-0.093785 0.0825074 0.324356 0 0 1
0.052136 -0.111153 0.324356 0 0 1
0.073081 -0.0397204 0.310843 0 0 -1
0.318902 0.122367 0.310843 0 0 -1
0.27521 0.135067 0.306457 0.0275601 -0.99962 0
0.133445 0.118183 0.324356 0 0 1
0.440354 -0.0362584 0.324356 0 0 1
-0.273182 0.201123 0.311508 -0.201549 0.715805 -0.668581
0.288034 0.0396568 0.184902 0.70654 -0.707673 0
-0.174657 -0.146581 0.324356 0 0 1
-0.021426 -0.181874 0.324356 0 0 1
0.133306 -0.171719 0.310843 0 0 -1
-0.0379905 -0.0850023 0.324356 0 0 1
-0.221085 0.143554 0.324356 0 0 1
0.280364 0.140436 0.305451 -0.000734189 -0.00459602 -0.999989
-0.00386991 0.129062 0.310843 0 0 -1
-0.323746 -0.0904174 0.324356 0 0 1
0.249357 0.107093 0.310843 0 0 -1
-0.250723 -0.159988 0.310843 0 0 -1
-0.344981 0.13018 0.324356 0 0 1
-0.404079 0.117558 0.310843 0 0 -1
0.283403 0.0917441 0.106363 0.259017 0.494561 0.82965
0.273346 0.136758 0.310843 0 0 -1
0.178364 0.0544863 0.324356 0 0 1
-0.455851 0.0596825 0.316895 -0.512481 0.252949 -0.820597
-0.163735 -0.146178 0.324356 0 0 1
-0.260866 -0.0637861 0.0901206 0.964491 -0.150177 0.217265
0.046434 0.0720098 0.310843 0 0 -1
-0.0605044 -0.109624 0.310843 0 0 -1
-0.113003 0.011648 0.310843 0 0 -1
0.44743 0.00537619 0.324356 0 0 1
-0.0165052 -0.0903895 0.310843 0 0 -1
-0.00886107 0.18232 0.310843 0 0 -1
0.285741 -0.139475 0 0 0 -1
-0.259326 0.0109516 0.31083 0 0 1
0.3015 0.171498 0.324356 0 0 1
-0.0614138 -0.0629934 0.324356 0 0 1
-0.138293 -0.235867 0.316928 -0.114992 -0.757823 -0.642247
0.265215 0.0738793 0.324356 0 0 1
0.379687 0.10182 0.324356 0 0 1
0.408276 -0.0353994 0.324356 0 0 1
-0.27166 -0.00599691 0.156133 -0.707558 -0.706655 0
-0.272893 0.162714 0.00450445 0 0 1
0.265089 -0.113008 0.324356 0 0 1
0.378707 -0.0237703 0.324356 0 0 1
-0.416571 -0.0664047 0.310843 0 0 -1
-0.150299 -0.0882071 0.310843 0 0 -1
0.0239714 0.180167 0.324356 0 0 1
0.329846 -0.000377268 0.310843 0 0 -1
0.273841 0.0815192 0.324356 0 0 1
0.148069 0.110496 0.324356 0 0 1
0.417825 -0.0656072 0.324356 0 0 1
-0.193231 -0.181892 0.324356 0 0 1
0.22608 0.135544 0.310843 0 0 -1
0.0586655 -0.177572 0.310843 0 0 -1
0.160642 -0.140763 0.324356 0 0 1
0.250866 -0.029207 0.310843 0 0 -1
-0.342601 -0.0109835 0.310843 0 0 -1
-0.436736 0.00155588 0.324356 0 0 1
-0.297479 -0.147722 0.324356 0 0 1
0.246694 -0.154947 0.310843 0 0 -1
-0.0936242 -0.0668651 0.324356 0 0 1
-0.0428485 -0.0855736 0.324356 0 0 1
0.304461 0.122384 0.310843 0 0 -1
0.449118 0.0324363 0.324356 0 0 1
0.192988 -0.0705791 0.324356 0 0 1
-0.333262 -0.0424684 0.324356 0 0 1
0.110756 0.0788742 0.310843 0 0 -1
-0.134963 0.161929 0.310843 0 0 -1
0.0591587 0.124897 0.310843 0 0 -1
-0.0682792 0.13022 0.324356 0 0 1
-0.316298 0.0642914 0.310843 0 0 -1
-0.269593 0.0787885 0.310834 0 -0.00016017 1
-0.0478531 0.0115914 0.192261 -0.19306 0.825936 0.529677
-0.290742 0.127614 0.310843 0 0 -1
-0.255353 0.00928784 0.291105 1 0 0
0.192107 0.00133055 0.324356 0 0 1
-0.262801 0.0891759 0.310836 0 -0.00016017 1
-0.0987857 -0.158746 0.310843 0 0 -1
