0.170593 0.0334571 0.156104 -0.19237 -0.827306 -0.527786
0.371498 0.161058 0.319622 0.379263 0.544781 -0.747913
0.127053 0.238873 0.318694 0.115666 0.757837 -0.64211
-0.456133 0.00536149 0.310843 0 0 -1
0.126895 -0.236886 0.323543 0.163617 -0.986524 0
-0.33095 0.18468 0.323691 -0.411858 0.911248 0
0.468784 -0.0068619 0.324356 0 0 1
-0.35082 -0.168266 0.318359 -0.372893 -0.560638 -0.739348
-0.0937217 0.0336133 0.250374 0.0672966 -0.980501 0.184634
0.130633 0.030378 0.171512 -0.282915 0.563442 -0.776204
-0.117951 -0.0957312 0.310843 0 0 -1
0.287409 0.0390326 0.223879 0.70654 -0.707673 0
-0.125845 0.0842873 0.310843 0 0 -1
-0.266027 0.0526967 0.173185 0.258341 0.966054 0
0.286057 -0.00697228 0.198958 0.258646 -0.965972 0
-0.000254592 0.1351 0.310843 0 0 -1
0.222936 0.14981 0.324356 0 0 1
-0.00840168 -0.153265 0.310843 0 0 -1
0.286202 0.0899065 0.106493 0.696185 0.37308 0.613301
-0.271002 -0.0545333 0.0999395 -0.707514 -0.367503 0.603627
-0.253832 0.099893 0.324356 0 0 1
0.147087 -0.0958756 0.324356 0 0 1
0.400501 -0.118668 0.311393 0.444947 -0.445993 -0.776603
0.274412 0.0309718 0.324356 0 0 1
-0.262567 0.00644329 0.191507 0.7064 0.707813 0
0.258614 -0.200561 0.312716 0.205214 -0.72117 -0.661666
-0.367243 0.0287111 0.324356 0 0 1
-0.2357 -0.136325 0.310843 0 0 -1
0.108376 0.0862037 0.324356 0 0 1
0.405226 0.0787726 0.310843 0 0 -1
-0.00630172 0.240966 0.311735 -0.0352242 0.776628 -0.628974
-0.272691 0.104142 0.0943646 -0.965642 0.148175 0.213495
0.00556068 -0.247389 0.324054 0.0638681 -0.997958 0
0.0438438 0.0113983 0.22759 0.0671892 0.980563 -0.184339
-0.191541 0.161111 0.324356 0 0 1
-0.149243 -0.021667 0.310843 0 0 -1
0.358252 -0.0357604 0.310843 0 0 -1
0.275715 -0.0325091 0.104874 -0.999443 -0.0209011 -0.0260125
-0.129042 -0.132007 0.324356 0 0 1
-0.249448 -0.213754 0.323911 -0.271827 -0.962346 0
-0.430231 0.107454 0.324356 0 0 1
-0.335746 -0.0707078 0.310843 0 0 -1
-0.0467421 0.0505601 0.324356 0 0 1
-0.428834 -0.0938774 0.324356 0 0 1
0.175632 -0.164375 0.324356 0 0 1
-0.0604187 0.173097 0.324356 0 0 1
0.106565 -0.0284982 0.324356 0 0 1
-0.198269 0.0312297 0.287051 0.335859 0.195248 0.921454
0.345038 -0.153692 0.310843 0 0 -1
0.0842775 0.0148232 0.2397 -0.282572 -0.564917 0.775256
-0.0266936 -0.0778076 0.324356 0 0 1
0.301049 0.116928 0.310843 0 0 -1
0.0813959 0.163668 0.310843 0 0 -1
0.0356188 0.0531498 0.310843 0 0 -1
-0.195315 -0.159842 0.310843 0 0 -1
-0.0624209 -0.0442288 0.310843 0 0 -1
0.0497081 -0.179203 0.310843 0 0 -1
-0.265381 0.052524 0.254156 0.258341 0.966054 0
-0.219005 0.214227 0.324356 0 0 1
0.287051 0.200521 0.316404 0.291648 0.646393 -0.705065
-0.0294364 0.0148288 0.198257 -0.282572 -0.564917 0.775256
0.200192 0.0668813 0.324356 0 0 1
-0.334606 0.103433 0.324356 0 0 1
0.353603 0.0411203 0.310843 0 0 -1
-0.194226 0.0837742 0.324356 0 0 1
0.147524 0.173225 0.310843 0 0 -1
0.0568031 -0.104599 0.310843 0 0 -1
-0.239551 0.0123172 0.124301 0 0.563602 0.826046
-0.0173912 0.205058 0.324356 0 0 1
-0.0619078 0.10933 0.324356 0 0 1
-0.294441 0.0403477 0.324356 0 0 1
0.212854 -0.0939052 0.310843 0 0 -1
-0.215915 -0.0608171 0.324356 0 0 1
-0.0729401 -0.188604 0.310843 0 0 -1
0.289797 0.0422779 0.149632 0.96604 -0.258392 0
-0.401636 -0.0158744 0.310843 0 0 -1
0.411669 -0.0602776 0.310843 0 0 -1
0.202802 0.227719 0.324356 0 0 1
-0.268757 -0.120577 0.061975 -0.250944 -0.495532 0.83155
0.226607 -0.0177949 0.324356 0 0 1
0.285849 -0.00702818 0.259102 0.258646 -0.965972 0
0.121087 -0.165951 0.310843 0 0 -1
-0.288182 -0.159365 0.310843 0 0 -1
0.277884 0.148212 0.0684613 -0.964558 0.150062 0.217047
0.403645 0.134772 0.31747 0.456031 0.411531 -0.7891
0.313132 -0.0212059 0.324356 0 0 1
-0.25513 0.139244 0.324356 0 0 1
-0.263857 -0.062596 0.300158 -0.000724682 -0.160469 -0.987041
0.421965 0.0386382 0.324356 0 0 1
-0.0547339 -0.116068 0.310843 0 0 -1
0.147347 0.0021688 0.324356 0 0 1
0.295628 0.0573063 0.324356 0 0 1
-0.163168 0.0274742 0.310843 0 0 -1
0.23725 -0.155436 0.324356 0 0 1
0.0668931 0.213655 0.310843 0 0 -1
-0.135045 0.176211 0.324356 0 0 1
-0.0862051 0.00759842 0.324356 0 0 1
0.146385 0.127196 0.310843 0 0 -1
0.314364 -0.183787 0.324356 0 0 1
-0.261587 -0.00546792 0.260215 0.706945 -0.707269 0
-0.334046 0.0890235 0.310843 0 0 -1
0.246504 0.0876848 0.310843 0 0 -1
0.0789499 -0.123472 0.324356 0 0 1
-0.264408 0.171677 0.0554162 0.701643 0.703702 0.111806
-0.327138 -0.00268887 0.324356 0 0 1
-0.268093 0.20452 0.313612 -0.201549 0.715805 -0.668581
0.0865337 0.0218875 0.324356 0 0 1
0.0569998 0.113523 0.324356 0 0 1
0.188445 -0.204448 0.324356 0 0 1
0.0681579 -0.241157 0.317004 0.0496727 -0.776151 -0.628587
-0.0636315 -0.139748 0.324356 0 0 1
-0.140715 -0.179959 0.310843 0 0 -1
0.334199 -0.0944079 0.310843 0 0 -1
-0.156989 -0.0633913 0.310843 0 0 -1
-0.182981 -0.219496 0.324356 0 0 1
0.0965585 -0.161298 0.324356 0 0 1
0.0156166 0.0471455 0.324356 0 0 1
-0.38182 0.15428 0.324356 0 0 1
0.357661 0.105986 0.324356 0 0 1
-0.212599 -0.0131824 0.324356 0 0 1
-0.297171 -0.103065 0.324356 0 0 1
-0.414624 0.0499339 0.310843 0 0 -1
0.227093 0.215112 0.324356 0 0 1
0.393671 -0.00551508 0.310843 0 0 -1
-0.0757193 0.212745 0.324356 0 0 1
-0.376102 -0.107907 0.324356 0 0 1
-0.240501 0.0518518 0.310843 0 0 -1
0.175456 -0.0397892 0.324356 0 0 1
-0.432542 0.014714 0.310843 0 0 -1
-0.0282516 0.00835642 0.324356 0 0 1
-0.0576198 -0.238672 0.324356 0 0 1
0.07377 -0.0168771 0.324356 0 0 1
0.0325034 -0.0599397 0.310843 0 0 -1
-0.175427 0.211037 0.324356 0 0 1
0.0966914 -0.0771447 0.310843 0 0 -1
0.45333 0.0695625 0.324356 0 0 1
-0.194491 -0.109513 0.310843 0 0 -1
0.24582 0.0337061 0.127109 0.0672966 -0.980501 0.184634
-0.159174 0.113772 0.310843 0 0 -1
-0.314789 0.154029 0.310843 0 0 -1
0.289179 -0.122912 0.324356 0 0 1
0.277871 -0.0849397 0.0806761 -0.697006 -0.372277 0.612856
-0.0632652 0.244876 0.321604 -0.0453087 0.998973 0
0.12403 0.0485396 0.310843 0 0 -1
-0.274771 0.0435695 0.124621 -1 0 0
-0.273051 0.0603625 0.293388 -1 0 0
0.259107 0.0347582 0.310843 0 0 -1
-0.121169 -0.0499502 0.310843 0 0 -1
-0.464391 -0.0437652 0.324356 0 0 1
0.280757 -0.0429348 0.296965 -0.000724682 -0.160469 -0.987041
-0.0157163 0.0916558 0.310843 0 0 -1
-0.244475 -0.167451 0.310843 0 0 -1
0.00522995 -0.189297 0.324356 0 0 1
-0.090989 0.0616539 0.310843 0 0 -1
0.0295957 0.212758 0.310843 0 0 -1
0.27912 -0.00693715 0.149187 -0.258522 -0.966005 0
0.254032 0.134622 0.310843 0 0 -1
0.45992 -0.0551104 0.324356 0 0 1
0.164829 0.0747692 0.310843 0 0 -1
-0.100675 -0.128459 0.324356 0 0 1
-0.395868 0.0988834 0.310843 0 0 -1
-0.2855 -0.0272628 0.310843 0 0 -1
0.0976938 0.132171 0.310843 0 0 -1
0.323474 0.163312 0.324356 0 0 1
-0.223338 0.0685986 0.310843 0 0 -1
0.0134405 -0.106482 0.324356 0 0 1
0.288955 0.0495135 0.271943 0.707079 0.707134 0
0.372023 -0.153033 0.322137 0.542754 -0.839892 0
0.312276 0.0186413 0.310843 0 0 -1
-0.146082 0.155861 0.310843 0 0 -1
0.197188 0.112312 0.310843 0 0 -1
0.193044 -0.120781 0.310843 0 0 -1
0.366644 -0.0702487 0.310843 0 0 -1
-0.152509 -0.12221 0.324356 0 0 1
0.038362 0.158853 0.324356 0 0 1
-0.0890379 0.0113003 0.178214 -0.0673101 0.980493 0.184671
-0.211868 0.115618 0.324356 0 0 1
0.395755 0.04411 0.324356 0 0 1
-0.042197 -0.0804058 0.310843 0 0 -1
0.253964 -0.0579319 0.310843 0 0 -1
-0.0335868 -0.20171 0.324356 0 0 1
-0.0183124 -0.0371851 0.324356 0 0 1
-0.10657 0.109497 0.310843 0 0 -1
0.144751 -0.192 0.310843 0 0 -1
0.322131 0.118696 0.324356 0 0 1
0.143518 -0.128502 0.324356 0 0 1
-0.259905 0.0484041 0.204339 0.966056 0.258332 0
-0.301775 0.118049 0.324356 0 0 1
-0.452086 0.0605471 0.314811 -0.512481 0.252949 -0.820597
-0.292347 -0.0402442 0.324356 0 0 1
-0.274326 -0.0125984 0.119244 -0.965642 -0.148174 0.213493
0.148849 0.213227 0.324356 0 0 1
-0.251087 -0.0635982 0.324356 0 0 1
0.157025 -0.0704245 0.310843 0 0 -1
-0.339767 0.0417381 0.324356 0 0 1
-0.192511 -0.0143753 0.324356 0 0 1
0.0439747 0.0261152 0.310843 0 0 -1
-0.0287951 0.187757 0.310843 0 0 -1
0.19327 0.180686 0.310843 0 0 -1
-0.285351 0.177565 0.310843 0 0 -1
0.253871 0.171313 0.310843 0 0 -1
0.166077 -0.0848223 0.310843 0 0 -1
-0.143704 0.0313623 0.267134 0.335859 0.195248 0.921454
0.217863 0.0332571 0.310843 0 0 -1
-0.221213 0.184643 0.324356 0 0 1
0.213769 -0.218453 0.31831 0.205223 -0.721291 -0.661531
0.255218 -0.0986525 0.310843 0 0 -1
0.0756568 0.029721 0.190889 -0.19237 0.827306 -0.527786
-0.388167 -0.0669878 0.324356 0 0 1
0.105468 -0.203816 0.310843 0 0 -1
0.328498 -0.0350952 0.310843 0 0 -1
-0.13526 0.0200029 0.324356 0 0 1
-0.0441683 0.0329029 0.231362 0.283436 -0.561207 0.777632
-0.135565 0.127556 0.310843 0 0 -1
-0.347668 0.137006 0.310843 0 0 -1
-0.192089 0.0155479 0.141863 0.193126 -0.825805 -0.529857
-0.363979 -0.039704 0.324356 0 0 1
-0.248011 -0.112124 0.324356 0 0 1
0.138436 0.0125274 0.263467 0.282927 0.563388 -0.776239
0.297654 -0.122291 0 0 0 -1
0.0781938 0.0583224 0.310843 0 0 -1
0.104088 0.191719 0.324356 0 0 1
-0.198112 -0.133083 0.310843 0 0 -1
-0.271521 -0.087208 0.0794691 -0.697 -0.37228 0.612862
-0.0343934 0.137834 0.310843 0 0 -1
0.438283 -0.0898699 0.31782 0.506154 -0.285228 -0.813912
-0.0700677 -0.0292677 0.310843 0 0 -1
-0.326265 -0.140377 0.324356 0 0 1
0.272828 -0.00812113 0.324356 0 0 1
-0.287107 0.104688 0.324356 0 0 1
-0.0987429 0.159893 0.310843 0 0 -1
-0.178741 0.187285 0.324356 0 0 1
-0.165474 0.0645276 0.324356 0 0 1
-0.364872 0.0705796 0.310843 0 0 -1
0.231123 0.0122872 0.297075 0.282866 0.563647 -0.776073
-0.433162 -0.0374494 0.324356 0 0 1
-0.106445 -0.211212 0.324356 0 0 1
-0.265371 -0.0415541 0.109192 0.258956 -0.494544 0.829679
0.329101 0.0728569 0.310843 0 0 -1
-0.18689 0.134171 0.324356 0 0 1
0.437047 0.100862 0.324356 0 0 1
-0.202871 0.0263471 0.324356 0 0 1
0.0340944 -0.153537 0.310843 0 0 -1
-0.170317 -0.0886597 0.310843 0 0 -1
0.114872 -0.116137 0.310843 0 0 -1
0.289514 0.145905 0.324356 0 0 1
0.382029 0.0967762 0.324356 0 0 1
-0.119358 0.0154775 0.310843 0 0 -1
0.190469 0.0284948 0.324356 0 0 1
-0.304297 -0.193004 0.323182 -0.405356 -0.914159 0
0.282912 0.0787938 0.296324 0 0.160469 -0.987041
-0.226656 -0.197993 0.324356 0 0 1
0.363187 -0.119957 0.324356 0 0 1
0.140784 -0.203775 0.324356 0 0 1
0.357238 0.138703 0.310843 0 0 -1
-0.252129 -0.035448 0.324356 0 0 1
0.0165997 -0.0747035 0.310843 0 0 -1
0.282926 -0.156017 0.310843 0 0 -1
0.163463 0.161944 0.310843 0 0 -1
0.0367758 0.0896337 0.310843 0 0 -1
-0.26377 0.134721 0.0651495 0.716641 -0.303394 -0.627995
-0.262306 -0.00618674 0.155126 0.706945 -0.707269 0
0.303559 -0.0722767 0.324356 0 0 1
0.290479 0.000215588 0.223874 0.966059 0.258322 0
-0.360114 -0.00541496 0.310843 0 0 -1
-0.278091 0.00489883 0.324356 0 0 1
-0.340806 -0.110914 0.310843 0 0 -1
0.11024 0.0278064 0.310843 0 0 -1
0.145367 -0.029771 0.310843 0 0 -1
0.0676688 -0.0657616 0.324356 0 0 1
0.0663818 -0.214932 0.310843 0 0 -1
0.289441 0.0492199 0.111079 0.893485 -0.185219 -0.40912
0.437401 -0.0424369 0.310843 0 0 -1
0.185844 -0.00473741 0.310843 0 0 -1
-0.0143814 -0.114164 0.324356 0 0 1
0.217327 -0.0560392 0.324356 0 0 1
-0.260093 -0.0190598 0.293086 0 -0.160315 -0.987066
-0.1316 0.0357001 0.310843 0 0 -1
0.127645 0.162039 0.310843 0 0 -1
0.34094 0.00693652 0.310843 0 0 -1
0.0917942 0.233588 0.310843 0 0 -1
-0.112078 -0.0775021 0.310843 0 0 -1
0.0323311 0.232156 0.324356 0 0 1
0.0776987 -0.153343 0.310843 0 0 -1
-0.0955679 -0.149223 0.324356 0 0 1
0.450603 0.029243 0.310843 0 0 -1
-0.255907 -0.188926 0.324356 0 0 1
0.260118 -0.132889 0.324356 0 0 1
-0.232207 0.150098 0.324356 0 0 1
0.381589 0.0285845 0.324356 0 0 1
-0.386278 -0.14652 0.32298 -0.55381 -0.832643 0
-0.141838 0.20706 0.310843 0 0 -1
0.12784 -0.0596508 0.324356 0 0 1
0.29419 -0.011628 0.296422 1 0 0
-0.167728 -0.166783 0.324356 0 0 1
-0.248475 -0.0872711 0.324356 0 0 1
-0.262106 0.0236864 0.291412 0 -0.0701869 -0.997534
-0.32176 -0.043696 0.324356 0 0 1
0.280674 0.0967822 0.324356 0 0 1
0.29419 -0.0349744 0.299448 1 0 0
0.290574 0.0167651 0.120707 0 0.382599 -0.923914
-0.0431053 -0.00567874 0.324356 0 0 1
0.232405 0.178495 0.310843 0 0 -1
0.177053 0.129796 0.324356 0 0 1
-0.380315 0.123889 0.310843 0 0 -1
-0.110409 -0.0123506 0.324356 0 0 1
0.274985 0.0458399 0.184399 -0.965751 0.25947 0
0.387053 -0.0371596 0.324356 0 0 1
0.0184254 -0.221544 0.310843 0 0 -1
0.29419 0.0312277 0.293756 1 0 0
-0.218699 0.098046 0.310843 0 0 -1
-0.162952 0.23458 0.323448 -0.149822 0.988713 0
-0.31406 0.0625318 0.324356 0 0 1
-0.0499858 -0.163976 0.324356 0 0 1
0.270217 0.111338 0.324356 0 0 1
0.15632 0.0303712 0.310843 0 0 -1
-0.0123042 0.05051 0.310843 0 0 -1
-0.283493 -0.0797304 0.310843 0 0 -1
-0.307899 -0.00723524 0.324356 0 0 1
0.429226 -0.0106992 0.324356 0 0 1
-0.24252 0.016705 0.324356 0 0 1
0.0332775 -0.216394 0.324356 0 0 1
0.311116 -0.142681 0.324356 0 0 1
-0.0363163 -0.141053 0.324356 0 0 1
0.040698 -0.0100724 0.310843 0 0 -1
-0.1539 -0.222632 0.310843 0 0 -1
0.0685047 0.0138856 0.324356 0 0 1
-0.0846776 0.238518 0.324356 0 0 1
0.00106657 0.0297938 0.21819 -0.19237 0.827306 -0.527786
0.198298 -0.161284 0.324356 0 0 1
0.338372 0.180257 0.324356 0 0 1
0.207905 0.0812171 0.324356 0 0 1
-0.406412 -0.114851 0.31152 -0.44798 -0.436736 -0.780112
-0.37679 -0.0231343 0.324356 0 0 1
-0.0866621 -0.105719 0.324356 0 0 1
-0.0324174 0.218384 0.310843 0 0 -1
-0.106217 0.210882 0.310843 0 0 -1
0.236135 -0.0324086 0.310843 0 0 -1
-0.343507 -0.127554 0.310843 0 0 -1
-0.434991 -0.0643834 0.310843 0 0 -1
0.355954 0.0632755 0.324356 0 0 1
0.00977388 0.168598 0.324356 0 0 1
0.0051628 -0.00348671 0.324356 0 0 1
-0.360001 -0.0808043 0.310843 0 0 -1
0.218816 0.0627769 0.324356 0 0 1
-0.0480679 0.0876012 0.310843 0 0 -1
-0.0862673 0.091709 0.324356 0 0 1
0.27836 0.0603733 0.324356 0 0 1
-0.0635152 0.0233862 0.310843 0 0 -1
-0.270932 -0.121705 0.0182122 -0.923762 0.382968 0
-0.219394 -0.100707 0.310843 0 0 -1
-0.196964 -0.0446098 0.310843 0 0 -1
0.21788 -0.13782 0.310843 0 0 -1
0.315931 0.0891988 0.324356 0 0 1
0.0175304 0.109237 0.324356 0 0 1
0.147202 0.0748296 0.324356 0 0 1
-0.258807 0.0305628 0.324356 0 0 1
0.443904 0.0522204 0.310843 0 0 -1
0.399324 -0.0865775 0.324356 0 0 1
-0.203478 -0.195418 0.310843 0 0 -1
-0.115138 -0.159443 0.310843 0 0 -1
-0.259402 -0.136536 0.310843 0 0 -1
0.163341 -0.108039 0.324356 0 0 1
0.125305 0.118159 0.310843 0 0 -1
0.277522 0.110968 0.0794624 -0.893969 -0.18502 -0.40815
0.281314 -0.181653 0.324356 0 0 1
0.321751 0.0420959 0.310843 0 0 -1
-0.248129 0.177294 0.310843 0 0 -1
0.0700812 0.189911 0.324356 0 0 1
-0.0629527 0.193865 0.310843 0 0 -1
-0.439686 -0.00390267 0.324356 0 0 1
-0.167749 -0.000864372 0.324356 0 0 1
-0.439675 0.0747091 0.324356 0 0 1
-0.253097 -0.133484 0.00433068 0.923794 -0.382889 0
0.119946 0.208008 0.310843 0 0 -1
-0.305879 0.0897367 0.310843 0 0 -1
-0.259522 0.063846 0.110008 0.999459 0.0206112 -0.0256463
0.340334 -0.131033 0.310843 0 0 -1
-0.274244 -0.00196303 0.219064 -0.965812 -0.259242 0
-0.392082 0.057482 0.324356 0 0 1
0.282045 -0.107939 0.00450445 0 0 1
0.0988605 -0.228977 0.310843 0 0 -1
0.0509843 0.138835 0.310843 0 0 -1
-0.154564 -0.0356681 0.324356 0 0 1
0.111094 -0.0953599 0.324356 0 0 1
-0.0782291 -0.218127 0.324356 0 0 1
0.163243 -0.224308 0.311985 0.125779 -0.758486 -0.639436
0.109473 -0.13856 0.324356 0 0 1
-0.396228 0.0192056 0.324356 0 0 1
0.29946 0.145684 0.305429 -8.01385e-05 -0.00295845 -0.999996
-0.263327 0.170444 0.0254171 0.923908 0.382615 0
0.273197 -0.0371473 0.324356 0 0 1
-0.30908 -0.0660679 0.310843 0 0 -1
-0.089132 0.134501 0.324356 0 0 1
-0.247715 0.120749 0.324356 0 0 1
0.229412 0.110488 0.324356 0 0 1
0.132935 0.0886882 0.310843 0 0 -1
-0.0226422 0.112939 0.324356 0 0 1
-0.284363 0.149674 0.324356 0 0 1
0.238888 -0.194952 0.310843 0 0 -1
-0.0896247 -0.0537704 0.324356 0 0 1
-0.0223556 -0.231707 0.310843 0 0 -1
0.345923 -0.0619076 0.324356 0 0 1
0.301286 -0.0968269 0.305456 -0.000565689 0.00294637 -0.999995
0.148803 -0.153568 0.310843 0 0 -1
0.077209 -0.0470886 0.310843 0 0 -1
-0.0376714 -0.0208977 0.310843 0 0 -1
0.323619 -0.110117 0.324356 0 0 1
0.176984 0.211202 0.310843 0 0 -1
-0.0517774 0.233513 0.310843 0 0 -1
0.21547 -0.185651 0.310843 0 0 -1
-0.0640271 -0.0889259 0.324356 0 0 1
-0.000738228 -0.0869404 0.310843 0 0 -1
0.122245 0.00362431 0.324356 0 0 1
-0.199453 0.201238 0.310843 0 0 -1
0.0137946 0.0194064 0.310843 0 0 -1
-0.265426 0.0796131 0.310834 0 -0.00016017 1
0.372292 -0.0134591 0.310843 0 0 -1
-0.152042 -0.151495 0.310843 0 0 -1
0.105365 0.0595592 0.310843 0 0 -1
-0.132572 -0.213681 0.310843 0 0 -1
-0.273133 -0.105051 0.310843 0 0 1
0.00293075 0.196475 0.324356 0 0 1
0.25606 0.187493 0.324356 0 0 1
-0.359395 0.0427487 0.310843 0 0 -1
-0.214364 -0.080753 0.310843 0 0 -1
-0.417292 0.077142 0.324356 0 0 1
-0.284774 -0.201393 0.324356 0 0 1
-0.313386 0.0229932 0.324356 0 0 1
0.242619 -0.0837136 0.324356 0 0 1
-0.157328 -0.0758245 0.324356 0 0 1
0.00540553 -0.0393267 0.310843 0 0 -1
-0.107522 0.0422288 0.324356 0 0 1
-0.163437 0.141466 0.324356 0 0 1
-0.18372 0.0116423 0.310843 0 0 -1
0.275787 -0.00224825 0.112138 -0.929647 0.147871 -0.337477
0.0554536 -0.123828 0.310843 0 0 -1
0.0918344 -0.00166573 0.310843 0 0 -1
-0.219271 0.0382694 0.310843 0 0 -1
0.187075 0.0792246 0.324356 0 0 1
-0.121689 0.150041 0.324356 0 0 1
0.239213 0.0656941 0.324356 0 0 1
0.0163179 -0.13911 0.324356 0 0 1
0.434674 0.000811338 0.310843 0 0 -1
0.033931 -0.18089 0.324356 0 0 1
-0.409188 -0.0486499 0.310843 0 0 -1
-0.293487 -0.133817 0.324356 0 0 1
0.215593 0.207568 0.310843 0 0 -1
-0.1463 -0.0952592 0.324356 0 0 1
0.280542 0.171798 0.0285743 -0.382865 0.923804 0
-0.293594 0.197812 0.31632 -0.29185 0.645728 -0.705591
0.276492 0.00891503 0.297322 -1 0 0
-0.216338 0.14689 0.310843 0 0 -1
0.0831067 0.102614 0.310843 0 0 -1
-0.363849 0.103764 0.310843 0 0 -1
0.19661 -0.0562364 0.310843 0 0 -1
-0.45448 0.0340178 0.324356 0 0 1
0.28472 -0.122306 0.0608856 0.251058 -0.495736 0.831394
-0.0492218 0.202776 0.324356 0 0 1
0.0359 0.120399 0.310843 0 0 -1
0.288978 -0.0557203 0.0927062 0.991026 0.0419858 -0.126903
-0.336959 0.162708 0.324356 0 0 1
-0.216874 -0.11228 0.324356 0 0 1
-0.321944 -0.0962505 0.324356 0 0 1
-0.160376 -0.197506 0.324356 0 0 1
-0.239332 0.203542 0.310843 0 0 -1
-0.307415 -0.173964 0.324356 0 0 1
0.282596 0.164241 0.324356 0 0 1
0.173749 -0.1422 0.310843 0 0 -1
-0.0704108 0.0699092 0.324356 0 0 1
0.287282 -0.0229005 0.324356 0 0 1
-0.091314 -0.243827 0.31906 -0.028552 -0.776839 -0.629051
0.230909 -0.103726 0.324356 0 0 1
-0.263887 0.0521244 0.143325 0.258341 0.966054 0
0.201125 0.149155 0.310843 0 0 -1
0.159362 0.030886 0.324356 0 0 1
0.405443 0.102121 0.310843 0 0 -1
-0.0926971 0.185693 0.324356 0 0 1
0.252292 -0.173428 0.310843 0 0 -1
0.293667 0.0259058 0.324356 0 0 1
-0.260302 0.0237078 0.113775 0.807752 0 -0.589523
-0.0325512 0.163612 0.324356 0 0 1
0.0564085 0.196022 0.310843 0 0 -1
0.215265 0.00347619 0.310843 0 0 -1
0.254315 0.00271492 0.324356 0 0 1
-0.150752 0.190796 0.310843 0 0 -1
-0.26414 0.183754 0.00450445 0 0 1
-0.187561 -0.0887188 0.324356 0 0 1
0.153944 0.10401 0.324356 0 0 1
-0.410048 0.132248 0.324344 -0.743201 0.669069 0
0.0296043 0.0329973 0.204541 0.283436 -0.561207 0.777632
-0.139563 0.104019 0.324356 0 0 1
-0.0200074 0.0680378 0.324356 0 0 1
-0.172628 -0.026863 0.324356 0 0 1
-0.109588 -0.190635 0.310843 0 0 -1
0.290502 0.0451762 0.20034 0.966058 0.258325 0
0.422951 0.0623347 0.324356 0 0 1
-0.0994619 -0.166947 0.310843 0 0 -1
0.17365 -0.0609317 0.324356 0 0 1
0.0796519 -0.0948743 0.324356 0 0 1
0.128158 -0.0866336 0.310843 0 0 -1
-0.141053 0.0550491 0.324356 0 0 1
0.199394 0.0332023 0.142871 0.192494 -0.827062 0.528124
0.381627 -0.0944052 0.324356 0 0 1
-0.408541 -0.0908235 0.310843 0 0 -1
0.276492 -0.0614623 0.30622 -1 0 0
-0.322757 0.123494 0.310843 0 0 -1
0.103534 0.151789 0.324356 0 0 1
-0.267184 0.0208541 0.141069 -0.255389 0 0.966838
0.125077 0.137452 0.324356 0 0 1
0.0697016 -0.192382 0.324356 0 0 1
0.28173 0.142966 0.305439 1.64156e-05 -0.0033348 -0.999994
0.256522 0.151349 0.324356 0 0 1
0.3557 0.0118906 0.324356 0 0 1
-0.181915 -0.129315 0.324356 0 0 1
0.0450052 -0.0814441 0.324356 0 0 1
-0.242735 -0.0159427 0.310843 0 0 -1
0.409121 0.0135376 0.324356 0 0 1
0.18644 -0.106519 0.324356 0 0 1
-0.0453423 -0.0522953 0.324356 0 0 1
0.0375328 -0.239654 0.312729 0.0496791 -0.776097 -0.628654
0.115644 -0.0183506 0.310843 0 0 -1
0.0397556 -0.0415366 0.324356 0 0 1
0.293075 -0.0520693 0.298447 0 -0.160315 -0.987066
-0.271816 0.0392066 0.230461 -0.707157 -0.707056 0
0.282538 0.0371932 0.252759 -0.259285 -0.965801 0
-0.00613517 0.106256 0.310843 0 0 -1
0.00372191 0.215953 0.310843 0 0 -1
-0.217916 -0.150149 0.324356 0 0 1
0.0115724 0.0755438 0.310843 0 0 -1
0.378407 0.0576764 0.310843 0 0 -1
-0.25783 0.187064 0.324356 0 0 1
0.147563 0.194053 0.310843 0 0 -1
-0.0605893 0.154321 0.310843 0 0 -1
-0.00829587 0.183824 0.310843 0 0 -1
-0.074302 -0.12762 0.310843 0 0 -1
-0.185046 0.103912 0.324356 0 0 1
0.0709037 0.24438 0.323014 0.0474106 0.998875 0
0.341892 0.121917 0.310843 0 0 -1
0.0676733 0.14951 0.324356 0 0 1
-0.142951 0.0102747 0.310843 0 0 -1
-0.0736277 -0.165883 0.310843 0 0 -1
-0.118815 0.1287 0.324356 0 0 1
-0.202016 -0.17869 0.324356 0 0 1
-0.103025 0.0764632 0.310843 0 0 -1
-0.186989 0.0552879 0.310843 0 0 -1
0.0787148 0.128327 0.324356 0 0 1
0.318482 -0.0502253 0.324356 0 0 1
0.302496 0.178941 0.310843 0 0 -1
0.18627 -0.188454 0.310843 0 0 -1
-0.358613 0.154981 0.310843 0 0 -1
0.19993 -0.0233895 0.324356 0 0 1
-0.269564 -0.151106 0.324356 0 0 1
-0.120187 0.188706 0.310843 0 0 -1
-0.27071 0.00685599 0.238828 -0.259345 0.965785 0
0.0584703 0.0642178 0.324356 0 0 1
-0.386579 0.0363725 0.310843 0 0 -1
0.296227 0.177275 0.00450445 0 0 1
-0.272403 0.113921 0.302035 0 0.160469 -0.987041
-0.458666 -0.0220479 0.313047 -0.540485 -0.09647 -0.835805
-0.376009 0.0821126 0.324356 0 0 1
0.291896 -0.166646 0.324356 0 0 1
0.431548 -0.0669482 0.324356 0 0 1
-0.19702 0.224922 0.324356 0 0 1
-0.0742937 0.100738 0.310843 0 0 -1
-0.0225651 -0.056491 0.310843 0 0 -1
-0.0133306 0.0167496 0.310843 0 0 -1
-0.126917 -0.0633834 0.324356 0 0 1
0.146543 0.236503 0.319408 0.115666 0.757837 -0.64211
-0.313576 -0.120535 0.310843 0 0 -1
-0.077004 0.0356647 0.324356 0 0 1
-0.321275 -0.023203 0.310843 0 0 -1
-0.0631169 -0.00162151 0.310843 0 0 -1
0.0206286 0.187762 0.310843 0 0 -1
-0.00092362 -0.0637345 0.324356 0 0 1
0.318569 0.139144 0.324356 0 0 1
0.331046 0.0231882 0.310843 0 0 -1
-0.26088 0.0581362 0.324356 0 0 1
0.102911 0.0298761 0.181198 -0.19237 0.827306 -0.527786
0.174448 0.197946 0.324356 0 0 1
-0.290883 0.0558863 0.310843 0 0 -1
0.181497 0.0493748 0.310843 0 0 -1
-0.271501 0.075587 0.0955838 0.0056015 -0.460978 -0.887394
-0.201384 0.0566328 0.324356 0 0 1
0.295399 -0.0961509 0.324356 0 0 1
-0.226014 -0.0416729 0.310843 0 0 -1
-0.113694 0.0617018 0.324356 0 0 1
0.216242 -0.163584 0.310843 0 0 -1
0.352379 -0.0823995 0.324356 0 0 1
0.360687 0.0824362 0.310843 0 0 -1
-0.272794 -0.0592086 0.324356 0 0 1
0.177157 0.176627 0.324356 0 0 1
0.0338136 -0.106087 0.310843 0 0 -1
-0.0136724 -0.18749 0.310843 0 0 -1
-0.234061 0.0790575 0.324356 0 0 1
0.101922 0.218357 0.324356 0 0 1
-0.171955 -0.0496414 0.324356 0 0 1
0.141306 -0.0146112 0.324356 0 0 1
0.000695363 -0.216919 0.324356 0 0 1
0.207929 0.125835 0.324356 0 0 1
-0.36591 -0.134022 0.310843 0 0 -1
0.389338 -0.132923 0.313184 0.444906 -0.44592 -0.776668
0.229585 0.0145321 0.324356 0 0 1
0.279375 0.0070016 0.185867 -0.259283 0.965801 0
0.10992 0.0112788 0.251038 0.0671879 0.980564 -0.184335
-0.0957948 0.0248349 0.310843 0 0 -1
0.019816 -0.163954 0.324356 0 0 1
0.289671 -0.00323816 0.171209 0.966059 -0.258322 0
0.262698 -0.0224533 0.310843 0 0 -1
0.29458 -0.189073 0.31569 0.286979 -0.660439 -0.693876
0.128598 -0.120135 0.324356 0 0 1
-0.303282 -0.155985 0.324356 0 0 1
0.287236 0.0512323 0.299737 0.707079 0.707134 0
0.171009 0.110068 0.310843 0 0 -1
0.0942069 0.0521279 0.324356 0 0 1
-0.052727 -0.197721 0.310843 0 0 -1
-0.253598 0.156838 0.000947258 0.923784 -0.382915 0
-0.161626 0.168453 0.324356 0 0 1
0.0542414 -0.0401774 0.310843 0 0 -1
-0.168697 0.0294104 0.279302 -0.0676245 0.980308 -0.185533
-0.214954 -0.222345 0.324356 0 0 1
-0.408853 -0.0322199 0.324356 0 0 1
-0.401385 0.00414175 0.310843 0 0 -1
0.159533 -0.0061278 0.310843 0 0 -1
0.0565408 -0.142798 0.324356 0 0 1
-0.2632 0.143293 0.305438 1.64155e-05 -0.0033348 -0.999994
0.309043 -0.124967 0.310843 0 0 -1
-0.00319089 -0.138704 0.324356 0 0 1
-0.0533814 -0.214173 0.324356 0 0 1
-0.148446 0.0958931 0.310843 0 0 -1
-0.198383 0.0987436 0.310843 0 0 -1
-0.329434 0.0315695 0.310843 0 0 -1
0.23854 0.172039 0.324356 0 0 1
0.0284796 0.165062 0.310843 0 0 -1
0.365911 -0.10331 0.310843 0 0 -1
0.129851 -0.183192 0.324356 0 0 1
-0.0290792 0.239804 0.324356 0 0 1
-0.412774 -0.072642 0.324356 0 0 1
0.406077 -0.0251374 0.324356 0 0 1
0.278502 -0.0100811 0.286461 0 -1 0
0.344457 -0.020275 0.324356 0 0 1
0.274771 0.0401298 0.135158 -1 0 0
-0.115199 0.01289 0.171153 0.335718 0.197263 -0.921076
-0.34301 0.0171421 0.324356 0 0 1
0.17808 0.230125 0.317561 0.115666 0.757837 -0.64211
0.338033 -0.17444 0.324356 0 0 1
0.236365 0.044841 0.324356 0 0 1
0.469091 0.0250523 0.321433 0.988245 0.152879 0
-0.371581 0.116502 0.324356 0 0 1
0.381166 0.128404 0.310843 0 0 -1
-0.0620653 0.0604313 0.310843 0 0 -1
0.149295 -0.0440939 0.324356 0 0 1
0.185467 0.0925921 0.310843 0 0 -1
0.245169 -0.00725345 0.310843 0 0 -1
-0.256538 -0.077167 0.302523 0 -0.160315 -0.987066
0.134466 0.18417 0.324356 0 0 1
-0.273176 0.00447831 0.300698 -0.707014 0.7072 0
-0.266259 -0.10142 0.0562567 0 0.767671 -0.640844
0.0623882 0.0845243 0.310843 0 0 -1
-0.0890168 -0.00829984 0.310843 0 0 -1
0.266728 0.0893629 0.310843 0 0 -1
-0.441168 -0.0534059 0.324356 0 0 1
-0.308277 0.177962 0.324356 0 0 1
-0.0116308 0.0318826 0.324356 0 0 1
0.334254 0.0576713 0.324356 0 0 1
0.167638 0.0562531 0.324356 0 0 1
0.26223 0.00473872 0.310843 0 0 -1
-0.271646 0.039036 0.276258 -0.707157 -0.707056 0
-0.225899 -0.177931 0.310843 0 0 -1
0.0757967 0.224441 0.324356 0 0 1
-0.275615 -0.0890634 0.324356 0 0 1
-0.310792 0.136406 0.324356 0 0 1
0.17238 0.00802173 0.324356 0 0 1
0.0570967 0.17349 0.310843 0 0 -1
0.05621 -0.0267407 0.324356 0 0 1
0.0746273 0.0323376 0.310843 0 0 -1
0.412182 0.0537437 0.310843 0 0 -1
-0.305191 -0.0415535 0.310843 0 0 -1
-0.128708 -0.192944 0.324356 0 0 1
-0.332008 0.0631572 0.310843 0 0 -1
0.383017 -0.0642618 0.324356 0 0 1
-0.270485 -0.0270362 0.324356 0 0 1
-0.270115 -0.120053 0.324356 0 0 1
-0.266412 -0.127228 0.0386486 0.259008 -0.965728 -0.0168443
-0.35076 -0.0847022 0.324356 0 0 1
-0.0322269 0.0392151 0.310843 0 0 -1
-0.184432 -0.189844 0.310843 0 0 -1
0.33014 0.0984353 0.310843 0 0 -1
0.27815 0.166858 0.0532965 -1 0 0
0.0411946 0.19022 0.324356 0 0 1
-0.0135263 0.224396 0.324356 0 0 1
0.128552 -0.0283069 0.324356 0 0 1
0.265909 -0.0834514 0.324356 0 0 1
0.276248 0.0650784 0.103075 -0.929649 -0.147874 -0.337471
0.431369 0.0746355 0.310843 0 0 -1
-0.0437677 0.134944 0.324356 0 0 1
0.188588 0.149099 0.324356 0 0 1
0.277516 0.126786 0.304126 0 0.160469 -0.987041
0.40431 0.029751 0.310843 0 0 -1
0.283667 -0.0197916 0.122322 0.259018 -0.494537 0.829665
0.399493 -0.072654 0.310843 0 0 -1
0.425206 0.0160732 0.310843 0 0 -1
0.283043 -0.0853089 0.303852 -0.000724682 -0.160469 -0.987041
-0.351902 0.0772858 0.324356 0 0 1
-0.26376 -0.0602172 0.0801735 0 0.460843 -0.887482
-0.42514 -0.0123302 0.310843 0 0 -1
0.0504624 -0.200483 0.324356 0 0 1
-0.0875503 0.164883 0.324356 0 0 1
0.275517 -0.124986 0.310843 0 0 -1
-0.416333 0.0166134 0.324356 0 0 1
0.269327 0.0677681 0.310843 0 0 -1
-0.269565 0.0378804 0.157473 -0.259347 -0.965784 0
0.0279849 0.0279036 0.324356 0 0 1
-0.107663 -0.0303754 0.310843 0 0 -1
-0.0106779 -0.0264096 0.310843 0 0 -1
-0.169273 -0.123074 0.310843 0 0 -1
0.143827 0.0584196 0.310843 0 0 -1
0.113402 0.119202 0.324356 0 0 1
-0.27308 0.0404708 0.187588 -0.707157 -0.707056 0
0.221997 0.0836273 0.310843 0 0 -1
-0.166004 0.0128336 0.152623 0.335718 0.197263 -0.921076
-0.164645 -0.230037 0.324356 0 0 1
0.277263 -0.111251 0.310843 0 0 -1
0.0985569 -0.0604387 0.324356 0 0 1
0.210925 0.170991 0.324356 0 0 1
0.0889325 -0.184575 0.310843 0 0 -1
0.137114 0.0133879 0.310843 0 0 -1
-0.313803 -0.143981 0.310843 0 0 -1
0.257416 -0.157888 0.324356 0 0 1
0.120941 0.189101 0.310843 0 0 -1
-0.0294721 -0.222566 0.324356 0 0 1
0.337232 0.156933 0.310843 0 0 -1
0.135023 -0.220494 0.310843 0 0 -1
0.169708 -0.204074 0.310843 0 0 -1
0.183489 -0.0144246 0.324356 0 0 1
0.277202 0.152483 0.00255375 -0.38289 -0.923794 0
-0.0650709 0.0143277 0.184937 -0.335882 -0.194875 0.921524
0.184688 -0.132386 0.324356 0 0 1
0.248581 -0.116084 0.310843 0 0 -1
0.160504 -0.186883 0.324356 0 0 1
0.0321473 -0.19892 0.310843 0 0 -1
-0.14002 0.234982 0.31613 -0.114811 0.757671 -0.642459
0.324253 0.00318173 0.324356 0 0 1
0.215473 0.11616 0.310843 0 0 -1
0.250228 -0.145209 0.310843 0 0 -1
-0.361911 0.137822 0.324356 0 0 1
0.382705 -0.0559701 0.310843 0 0 -1
-0.315455 -0.160815 0.310843 0 0 -1
-0.240087 0.0337694 0.301903 0 -0.980343 -0.1973
-0.259962 0.0063758 0.140429 0.964464 0.204319 0.167523
0.36965 0.120416 0.324356 0 0 1
-0.24541 -0.148224 0.324356 0 0 1
0.302924 0.078452 0.310843 0 0 -1
-0.0389759 -0.10894 0.324356 0 0 1
-0.415583 0.0343624 0.324356 0 0 1
0.131667 -0.141878 0.324356 0 0 1
-0.0682317 0.138664 0.310843 0 0 -1
0.280042 0.0152752 0.140457 -0.255328 0 0.966855
-0.0273313 -0.244849 0.324356 0 0 1
0.286522 -0.123213 0.0157656 0 0 1
0.382185 0.0129045 0.310843 0 0 -1
0.421747 -0.104044 0.324356 0 0 1
-0.182911 -0.0711373 0.310843 0 0 -1
-0.225158 -0.000337869 0.310843 0 0 -1
0.144447 0.151796 0.310843 0 0 -1
-0.392976 0.0739441 0.310843 0 0 -1
-0.0723609 -0.098853 0.310843 0 0 -1
0.275957 0.00406829 0.243905 -0.707014 0.7072 0
0.29419 0.0990528 0.301314 1 0 0
-0.338867 0.123629 0.324356 0 0 1
0.287015 0.0520689 0.131731 0.692372 0.692405 0.202972
-0.00128907 0.160843 0.310843 0 0 -1
0.0494158 -0.230032 0.324356 0 0 1
0.23896 -0.212609 0.322901 0.273661 -0.961826 0
0.048419 0.0396376 0.324356 0 0 1
0.0899757 -0.116692 0.310843 0 0 -1
-0.0413324 0.0110178 0.310843 0 0 -1
-0.24705 -0.0950491 0.310095 -0.0275809 0.99962 0
0.192697 -0.0736818 0.310843 0 0 -1
-0.255353 0.0738639 0.29671 1 0 0
0.422069 -0.0767941 0.310843 0 0 -1
-0.279705 0.0239293 0.324356 0 0 1
-0.207359 0.0105853 0.310843 0 0 -1
-0.266509 0.154694 0.0463948 0 -0.767735 -0.640768
-0.085487 0.220556 0.310843 0 0 -1
0.209635 -0.199522 0.324356 0 0 1
-0.255353 0.00684249 0.290644 1 0 0
-0.0692131 -0.0662184 0.310843 0 0 -1
0.125806 0.103046 0.324356 0 0 1
-0.266289 0.0442021 0.310843 0 0 -1
-0.43339 0.0514298 0.324356 0 0 1
-0.273051 0.089524 0.299929 -1 0 0
-0.103643 0.0940916 0.324356 0 0 1
0.0853393 -0.231229 0.324356 0 0 1
-0.24477 -0.192737 0.310843 0 0 -1
-0.280624 0.0820936 0.324356 0 0 1
-0.110689 -0.107033 0.324356 0 0 1
0.0612695 -0.0793133 0.310843 0 0 -1
-0.204402 0.12633 0.310843 0 0 -1
0.223652 0.0293625 0.135153 0.0672966 0.980501 0.184634
-0.336513 -0.0435746 0.310843 0 0 -1
0.0138389 0.139309 0.324356 0 0 1
-0.255999 -0.0473086 0.310835 0 0.00016017 1
-0.178368 0.0790748 0.310843 0 0 -1
0.27871 0.0302763 0.112612 0 0 -1
-0.0696039 -0.232635 0.310843 0 0 -1
0.279288 0.13085 0.0817725 -0.707517 0.367519 0.603614
0.201265 -0.0840345 0.324356 0 0 1
0.107926 -0.0435151 0.310843 0 0 -1
-0.393534 -0.126489 0.324356 0 0 1
0.247174 0.0229396 0.324356 0 0 1
0.309134 0.194212 0.321814 0.411222 0.911535 0
0.266506 -0.112563 0.324356 0 0 1
-0.287493 0.123181 0.310843 0 0 -1
0.197902 0.196654 0.324356 0 0 1
0.38993 -0.0967943 0.310843 0 0 -1
-0.0627167 0.217012 0.310843 0 0 -1
-0.179587 0.0311403 0.324356 0 0 1
-0.260461 -0.0225415 0.102033 0.929648 0.147901 -0.337462
0.196256 -0.146656 0.310843 0 0 -1
0.0169436 0.246941 0.320784 0.0474106 0.998875 0
-0.274771 0.0104098 0.121375 -1 0 0
-0.425827 0.0840359 0.310843 0 0 -1
-0.0775751 0.174999 0.310843 0 0 -1
-0.142256 0.0695389 0.310843 0 0 -1
-0.363254 -0.145122 0.324356 0 0 1
-0.00220006 -0.104399 0.310843 0 0 -1
-0.134196 -0.000872612 0.324356 0 0 1
0.192187 -0.223633 0.324356 0 0 1
-0.272782 0.00487249 0.170605 -0.707014 0.7072 0
-0.379287 -0.0398386 0.310843 0 0 -1
0.160767 0.0157364 0.26963 0.0671896 -0.980563 -0.18434
0.235293 0.155514 0.310843 0 0 -1
-0.374814 0.0193883 0.310843 0 0 -1
-0.0677208 -0.0150322 0.324356 0 0 1
-0.260232 -0.000661063 0.112543 0.807348 0.253527 -0.532834
-0.455705 -0.0641454 0.319402 -0.507065 -0.280014 -0.815154
-0.380046 -0.0879752 0.310843 0 0 -1
0.116957 0.143707 0.310843 0 0 -1
-0.0751278 0.153448 0.324356 0 0 1
-0.267372 0.0181817 0.31083 0 0 1
0.314639 0.0645591 0.324356 0 0 1
-0.235966 0.133492 0.310843 0 0 -1
0.315509 -0.15695 0.310843 0 0 -1
-0.120495 0.21736 0.310843 0 0 -1
0.239711 -0.0433567 0.324356 0 0 1
-0.374397 -0.0631588 0.310843 0 0 -1
0.300415 0.166757 0.324356 0 0 1
-0.265034 -0.203633 0.313595 -0.202683 -0.717555 -0.666359
-0.275111 -0.174453 0.310843 0 0 -1
0.201911 0.0471123 0.324356 0 0 1
0.0846836 0.0726531 0.324356 0 0 1
-0.256917 -0.168089 0.324356 0 0 1
0.231044 -0.0596102 0.310843 0 0 -1
-0.344503 -0.0170977 0.324356 0 0 1
0.0260657 0.0717509 0.324356 0 0 1
0.458644 -0.0237544 0.313252 0.540566 -0.097241 -0.835663
-0.284217 -0.13711 0.310843 0 0 -1
0.0421176 0.00344962 0.324356 0 0 1
0.148454 -0.23084 0.324356 0 0 1
-0.0546744 0.148194 0.324356 0 0 1
-0.219046 -0.132374 0.324356 0 0 1
-0.351716 -0.108891 0.324356 0 0 1
0.0147231 0.094853 0.310843 0 0 -1
-0.0475764 -0.0295588 0.324356 0 0 1
0.288751 -0.142733 0.324356 0 0 1
-0.173227 0.152056 0.310843 0 0 -1
0.416972 -0.0381109 0.310843 0 0 -1
-0.398994 0.115306 0.324356 0 0 1
0.206623 0.0139183 0.288499 0.335742 -0.196903 -0.921144
-0.285817 -0.012361 0.324356 0 0 1
0.23845 -0.129098 0.324356 0 0 1
-0.370168 0.0574818 0.324356 0 0 1
0.0151605 -0.0010999 0.310843 0 0 -1
0.373305 0.0761127 0.324356 0 0 1
-0.278525 -0.130197 0 0 0 -1
0.419032 0.120232 0.324356 0 0 1
-0.12848 -0.0129972 0.310843 0 0 -1
-0.122098 0.0336242 0.260775 0.0672966 -0.980501 0.184634
-0.207839 -0.0914951 0.324356 0 0 1
-0.0219197 0.139861 0.324356 0 0 1
0.135801 0.0223969 0.324356 0 0 1
0.437742 0.0247814 0.324356 0 0 1
-0.23256 0.113178 0.310843 0 0 -1
0.301138 -0.04362 0.324356 0 0 1
-0.163003 -0.141927 0.324356 0 0 1
0.129514 0.0676911 0.324356 0 0 1
-0.215591 0.169391 0.310843 0 0 -1
-0.178299 0.223588 0.310843 0 0 -1
0.316746 -0.0695986 0.310843 0 0 -1
-0.287585 -0.0480358 0.310843 0 0 -1
0.300743 0.0342701 0.310843 0 0 -1
-0.0384919 -0.151757 0.310843 0 0 -1
0.276492 0.0331699 0.298696 -1 0 0
0.109259 0.169434 0.310843 0 0 -1
0.321217 -0.0112451 0.310843 0 0 -1
0.28727 0.0104374 0.31083 0 0 1
-0.0871591 0.120366 0.310843 0 0 -1
0.276752 0.0467829 0.285911 0 0 -1
-0.333712 -0.155674 0.324356 0 0 1
0.279707 0.00709082 0.271146 -0.259283 0.965801 0
-0.0734516 0.0316519 0.241518 0.335746 -0.196894 0.921144
0.260078 -0.0648697 0.324356 0 0 1
0.412279 -0.000892505 0.310843 0 0 -1
0.183407 0.0182507 0.310843 0 0 -1
-0.0866539 -0.174269 0.324356 0 0 1
-0.26238 0.12486 0.0841184 0.706904 0.367601 0.604281
0.276492 -0.0217261 0.298669 -1 0 0
0.25722 0.0568188 0.324356 0 0 1
-0.0245101 -0.159347 0.324356 0 0 1
0.34391 -0.0412762 0.324356 0 0 1
0.00349117 0.0553875 0.310843 0 0 -1
-0.259849 0.0481968 0.230176 0.966056 0.258332 0
-0.129837 -0.144452 0.310843 0 0 -1
-0.167989 0.0481738 0.310843 0 0 -1
0.0510402 -0.167828 0.324356 0 0 1
0.302294 -0.00879912 0.310843 0 0 -1
0.236761 0.197604 0.324356 0 0 1
-0.272059 0.172214 0.324356 0 0 1
0.204788 -0.131178 0.324356 0 0 1
0.25792 0.0791234 0.324356 0 0 1
-0.361282 -0.123637 0.324356 0 0 1
0.275113 0.011797 0.324356 0 0 1
-0.313332 0.0471611 0.310843 0 0 -1
0.287158 -0.10113 0.0626278 1 0 0
-0.0437876 0.0222315 0.324356 0 0 1
0.234814 0.125291 0.310843 0 0 -1
-0.199068 -0.216593 0.310843 0 0 -1
0.289881 0.0425928 0.176323 0.96604 -0.258392 0
0.274444 -0.202049 0.324356 0 0 1
-0.392071 -0.0963406 0.324356 0 0 1
0.213336 -0.0245806 0.310843 0 0 -1
-0.0882923 -0.203258 0.310843 0 0 -1
0.155509 -0.122377 0.310843 0 0 -1
-0.0029562 0.0126822 0.324356 0 0 1
-0.313147 0.102111 0.324356 0 0 1
-0.300102 -0.0932174 0.310843 0 0 -1
-0.241725 -0.068441 0.310843 0 0 -1
0.248142 0.21116 0.324356 0 0 1
0.137517 0.117647 0.324356 0 0 1
-0.325059 -0.11909 0.324356 0 0 1
0.283788 -0.065469 0.0774464 0 0.460843 -0.887482
-0.264445 -0.0729939 0.0901624 0.258956 -0.494544 0.829679
-0.0435763 0.222117 0.324356 0 0 1
-0.107903 0.0121945 0.324356 0 0 1
0.163668 0.0414166 0.310843 0 0 -1
0.289576 0.0795051 0.324356 0 0 1
0.445514 -0.06336 0.313027 0.50607 -0.285136 -0.813997
0.12626 -0.202905 0.310843 0 0 -1
0.127264 -0.0428783 0.310843 0 0 -1
-0.105047 0.231677 0.310843 0 0 -1
-0.125141 0.111123 0.310843 0 0 -1
-0.118497 -0.170934 0.324356 0 0 1
-0.0745549 0.0438863 0.310843 0 0 -1
-0.220381 -0.121686 0.310843 0 0 -1
-0.0799554 0.0810782 0.310843 0 0 -1
-0.415792 0.103441 0.310843 0 0 -1
-0.259129 0.0422799 0.283771 0 0 -1
0.29419 0.00503859 0.286271 1 0 0
0.0510487 -0.0613852 0.324356 0 0 1
0.15829 -0.176069 0.310843 0 0 -1
-0.179076 0.111524 0.310843 0 0 -1
0.364586 -0.056517 0.324356 0 0 1
-0.242256 0.217532 0.323996 -0.271039 0.962568 0
-0.223333 0.0147009 0.324356 0 0 1
-0.368152 -0.0902452 0.324356 0 0 1
0.106743 0.00558348 0.310843 0 0 -1
-0.0937881 -0.0860081 0.310843 0 0 -1
0.368258 0.0446868 0.324356 0 0 1
0.137641 -0.103729 0.310843 0 0 -1
-0.23056 -0.215368 0.315746 -0.202683 -0.717555 -0.666359
-0.000479261 0.0344247 0.310843 0 0 -1
0.0889089 -0.139403 0.324356 0 0 1
-0.113784 0.168955 0.324356 0 0 1
0.279423 0.0520633 0.168995 -0.258279 0.96607 0
-0.199098 0.183452 0.324356 0 0 1
0.276886 0.050043 0.239691 -0.707696 0.706517 0
-0.270511 0.00690944 0.259516 -0.259345 0.965785 0
0.373333 -0.133099 0.310843 0 0 -1
0.13412 -0.00941607 0.310843 0 0 -1
-0.0443246 0.10678 0.310843 0 0 -1
-0.261028 0.0836831 0.107585 0.706904 0.367601 0.604281
-0.14747 -0.200721 0.310843 0 0 -1
0.352282 0.151304 0.324356 0 0 1
0.16144 0.0884318 0.324356 0 0 1
0.277231 -0.00534445 0.216709 -0.707558 -0.706655 0
0.0962263 0.0422085 0.310843 0 0 -1
0.0562999 0.0336776 0.196035 0.0672966 -0.980501 0.184634
-0.379847 0.0082746 0.324356 0 0 1
0.193564 -0.181888 0.324356 0 0 1
0.0321962 0.140408 0.310843 0 0 -1
-0.0252863 0.0310453 0.22404 0.335859 0.195248 0.921454
0.209144 0.105695 0.324356 0 0 1
-0.260525 0.103165 0.300282 -0.000724701 0.160315 -0.987066
-0.162078 0.207734 0.310843 0 0 -1
-0.262903 -0.115559 0.310843 0 0 -1
-0.216108 0.135724 0.324356 0 0 1
-0.113844 0.204773 0.324356 0 0 1
0.271222 0.155492 0.310843 0 0 -1
0.454947 -0.00401247 0.310843 0 0 -1
-0.00888985 0.0157444 0.207749 0.0671896 -0.980563 -0.18434
0.0935301 -0.207929 0.324356 0 0 1
-0.103534 -0.224155 0.310843 0 0 -1
0.307302 -0.025977 0.310843 0 0 -1
0.373133 0.11074 0.310843 0 0 -1
0.0116368 0.117462 0.310843 0 0 -1
-0.191084 -0.0671738 0.324356 0 0 1
-0.261237 -0.0264496 0.310843 0 0 -1
0.331313 -0.12979 0.324356 0 0 1
0.0640866 0.0455709 0.310843 0 0 -1
0.00671315 -0.140298 0.310843 0 0 -1
0.0748435 -0.233765 0.310843 0 0 -1
-0.444191 0.0460305 0.310843 0 0 -1
-0.0288888 0.0826185 0.310843 0 0 -1
-0.295027 -0.115859 0.310843 0 0 -1
-0.0283392 -0.0226775 0.324356 0 0 1
0.233174 0.0268912 0.310843 0 0 -1
-0.153033 0.217634 0.324356 0 0 1
0.164229 -0.0146766 0.324356 0 0 1
0.0665217 -0.169055 0.310843 0 0 -1
0.101562 0.0781617 0.310843 0 0 -1
-0.261846 0.0584243 0.310843 0 0 -1
0.142966 -0.0768066 0.324356 0 0 1
-0.110799 -0.142311 0.310843 0 0 -1
-0.273051 0.0349036 0.300726 -1 0 0
-0.360829 0.0105467 0.324356 0 0 1
-0.363682 0.12342 0.310843 0 0 -1
0.0994138 -0.121263 0.324356 0 0 1
0.0031849 -0.120514 0.324356 0 0 1
0.221665 -0.0376435 0.324356 0 0 1
-0.447114 -0.0807243 0.322428 -0.875392 -0.483414 0
-0.156058 0.0814491 0.324356 0 0 1
-0.294896 -0.183501 0.310843 0 0 -1
0.276959 0.0885285 0.0908685 -0.893969 -0.18502 -0.40815
-0.27167 0.153212 0.0633036 -0.991027 -0.0419906 -0.126894
0.0273582 -0.234872 0.324356 0 0 1
-0.195859 0.148131 0.310843 0 0 -1
0.249739 0.0155927 0.302698 0 -0.980581 -0.196112
0.162772 0.229877 0.324356 0 0 1
0.281215 0.104269 0.310838 0 -0.00016017 1
-0.264785 0.0463461 0.110768 0 -0.460601 -0.887607
0.29419 0.0657716 0.303371 1 0 0
0.349565 -0.101247 0.324356 0 0 1
-0.17901 0.173846 0.310843 0 0 -1
-0.0898956 0.202229 0.310843 0 0 -1
-0.235028 -0.111061 0.310843 0 0 -1
0.0237448 0.00828853 0.324356 0 0 1
-0.326358 0.17146 0.310843 0 0 -1
-0.393241 0.0852107 0.324356 0 0 1
0.281565 -0.0349258 0.310833 0 0.00016017 1
-0.126822 -0.0857921 0.324356 0 0 1
-0.21859 0.200922 0.310843 0 0 -1
0.136033 0.042806 0.324356 0 0 1
-0.397367 -0.0765699 0.310843 0 0 -1
-0.0467723 0.182671 0.310843 0 0 -1
0.334599 0.0863736 0.324356 0 0 1
-0.373572 0.143383 0.310843 0 0 -1
0.0171662 -0.0583876 0.324356 0 0 1
0.287979 0.0661025 0.118908 0.706901 0.367603 0.604284
-0.265946 0.115776 0.324356 0 0 1
-0.442194 -0.0259806 0.310843 0 0 -1
0.461469 0.0501456 0.317474 0.512363 0.253294 -0.820564
0.418973 -0.0529673 0.324356 0 0 1
-0.0164877 -0.0017267 0.310843 0 0 -1
0.121868 0.221964 0.324356 0 0 1
-0.296376 0.00909916 0.324356 0 0 1
-0.279418 0.0516165 0.324356 0 0 1
0.159228 0.178952 0.324356 0 0 1
-0.425892 -0.0839492 0.310843 0 0 -1
-0.230568 -0.0295109 0.324356 0 0 1
0.0811318 0.196686 0.310843 0 0 -1
0.161534 -0.210206 0.324356 0 0 1
0.422398 -0.085344 0.324356 0 0 1
-0.327992 0.143706 0.324356 0 0 1
0.415633 0.0864002 0.324356 0 0 1
-0.467081 0.0121763 0.324356 0 0 1
0.35835 0.000234187 0.310843 0 0 -1
0.283605 0.129874 0.324356 0 0 1
0.304231 -0.112805 0.324356 0 0 1
-0.379666 0.0526308 0.310843 0 0 -1
-0.00732197 -0.233942 0.324356 0 0 1
-0.341682 -0.14939 0.310843 0 0 -1
0.194388 -0.0379948 0.310843 0 0 -1
-0.0407214 -0.212646 0.310843 0 0 -1
0.305004 0.0534611 0.310843 0 0 -1
0.121211 -0.133653 0.310843 0 0 -1
0.272699 -0.0973128 0.305468 0.000126167 0.00457214 -0.99999
-0.365225 -0.0282235 0.310843 0 0 -1
-0.182609 -0.146423 0.310843 0 0 -1
-0.230607 0.0208193 0.310843 0 0 -1
-0.101468 0.243143 0.32278 -0.0453087 0.998973 0
0.133381 -0.163299 0.324356 0 0 1
0.413375 -0.120383 0.322721 0.706301 -0.707911 0
-0.429973 0.0667838 0.310843 0 0 -1
0.11551 -0.0618175 0.310843 0 0 -1
0.447537 -0.00871842 0.324356 0 0 1
0.197311 0.209757 0.310843 0 0 -1
-0.271004 -0.0886995 0.304407 -0.000724682 -0.160469 -0.987041
0.000931238 -0.021888 0.324356 0 0 1
-0.073621 -0.0447602 0.324356 0 0 1
0.254255 -0.0155283 0.324356 0 0 1
0.234296 0.0897911 0.324356 0 0 1
0.246167 0.190171 0.310843 0 0 -1
-0.0622784 -0.177295 0.324356 0 0 1
0.0847838 -0.0772921 0.324356 0 0 1
0.133733 0.224485 0.310843 0 0 -1
-0.235999 0.0921694 0.310843 0 0 -1
-0.255353 0.119822 0.307802 1 0 0
-0.043507 -0.243165 0.316072 -0.028552 -0.776839 -0.629051
-0.346846 -0.0655181 0.324356 0 0 1
-0.320646 -0.0809118 0.310843 0 0 -1
0.0557084 0.218554 0.324356 0 0 1
0.282695 0.0849773 0.310843 0 0 -1
0.4101 -0.0721074 0.324356 0 0 1
0.271661 0.178323 0.324356 0 0 1
0.263426 0.0300293 0.124506 0 0.560484 0.828165
-0.437705 0.0336855 0.324356 0 0 1
0.0623381 0.00343142 0.310843 0 0 -1
0.31002 -0.0470942 0.310843 0 0 -1
0.465919 0.00938785 0.316134 0.541233 0.0837272 -0.836694
0.336335 -0.0545053 0.310843 0 0 -1
-0.302045 -0.019839 0.310843 0 0 -1
0.134475 -0.0697569 0.310843 0 0 -1
-0.0664956 0.0915384 0.324356 0 0 1
-0.199466 -0.0269758 0.310843 0 0 -1
0.279493 -0.00703705 0.233194 -0.258522 -0.966005 0
0.235187 -0.0672888 0.324356 0 0 1
-0.357441 -0.11861 0.310843 0 0 -1
0.423495 0.102147 0.311926 0.456031 0.411531 -0.7891
-0.0269575 -0.108906 0.310843 0 0 -1
-0.0987756 0.0453428 0.310843 0 0 -1
0.0146947 -0.095682 0.310843 0 0 -1
-0.268096 -0.0417287 0.089774 0 0.460843 -0.887482
0.15404 0.0141735 0.310843 0 0 -1
0.0732073 -0.0398886 0.324356 0 0 1
-0.286607 -0.177732 0.324356 0 0 1
-0.137189 -0.224704 0.324356 0 0 1
-0.0736946 0.125179 0.324356 0 0 1
-0.083849 -0.14705 0.310843 0 0 -1
-0.264481 -0.00736606 0.133398 0.24878 -0.929365 0.272742
-0.0710101 -0.208657 0.310843 0 0 -1
0.233751 0.0538209 0.310843 0 0 -1
0.212449 0.0526363 0.310843 0 0 -1
-0.166391 0.0971663 0.310843 0 0 -1
-0.193342 0.0105436 0.324356 0 0 1
-0.0432164 -0.180625 0.324356 0 0 1
0.0669271 0.129531 0.310843 0 0 -1
0.0168418 -0.0362885 0.324356 0 0 1
0.0356284 0.10995 0.324356 0 0 1
0.287456 0.0294054 0.131092 0 -0.38268 0.923881
-0.300815 0.16465 0.310843 0 0 -1
0.0579052 -0.0151346 0.310843 0 0 -1
0.126018 0.199821 0.324356 0 0 1
-0.144756 -0.106851 0.310843 0 0 -1
0.311961 0.161521 0.310843 0 0 -1
-0.0137116 -0.0900452 0.324356 0 0 1
0.206391 0.151584 0.324356 0 0 1
0.299447 -0.149235 0.310843 0 0 -1
-0.180853 -0.0350377 0.310843 0 0 -1
0.0908442 0.17683 0.310843 0 0 -1
-0.224804 -0.0857496 0.324356 0 0 1
0.270713 0.048199 0.310843 0 0 -1
-0.0819418 -0.0890255 0.324356 0 0 1
0.333892 -0.115311 0.310843 0 0 -1
0.339209 0.0312881 0.324356 0 0 1
-0.260043 -0.00387669 0.307683 0.966057 -0.258329 0
-0.302866 0.15227 0.324356 0 0 1
0.232591 -0.168558 0.310843 0 0 -1
0.344564 0.0624008 0.310843 0 0 -1
0.0600538 -0.152244 0.310843 0 0 -1
-0.2226 -0.0186488 0.310843 0 0 -1
-0.190433 0.0379616 0.310843 0 0 -1
-0.383794 -0.11629 0.310843 0 0 -1
0.0979282 0.1686 0.324356 0 0 1
-0.0752838 0.182839 0.324356 0 0 1
-0.00373466 0.0473506 0.324356 0 0 1
0.220269 0.189729 0.310843 0 0 -1
-0.323659 -0.172106 0.324356 0 0 1
0.267931 -0.165322 0.310843 0 0 -1
0.401074 0.0682848 0.324356 0 0 1
-0.214903 -0.0436029 0.324356 0 0 1
-0.321158 0.0770045 0.310843 0 0 -1
-0.450097 -0.0250147 0.324356 0 0 1
-0.0560526 0.0348237 0.324356 0 0 1
0.0481295 -0.115309 0.324356 0 0 1
-0.145585 0.144642 0.324356 0 0 1
0.0331411 -0.141863 0.324356 0 0 1
-0.020102 -0.171161 0.310843 0 0 -1
0.0864051 0.155469 0.324356 0 0 1
0.24913 0.115142 0.310843 0 0 -1
-0.171874 -0.0112724 0.310843 0 0 -1
0.173354 0.0399904 0.324356 0 0 1
-0.0883969 -0.0648725 0.310843 0 0 -1
0.448533 -0.0415982 0.324356 0 0 1
0.195893 -0.00204277 0.324356 0 0 1
-0.104205 -0.0696068 0.324356 0 0 1
0.0940862 -0.0435103 0.324356 0 0 1
-0.355173 0.0968162 0.324356 0 0 1
0.178906 0.14074 0.310843 0 0 -1
-0.343979 0.0582835 0.324356 0 0 1
0.0401425 -0.0298544 0.310843 0 0 -1
-0.20434 -0.123925 0.324356 0 0 1
-0.145611 0.1204 0.324356 0 0 1
0.311166 0.102705 0.310843 0 0 -1
-0.41039 -0.12329 0.324356 0 0 1
-0.322465 0.0401218 0.324356 0 0 1
0.341872 -0.00403588 0.324356 0 0 1
0.278725 -0.0419702 0.0896486 0 0.460843 -0.887482
0.397114 -0.0463706 0.310843 0 0 -1
-0.264335 -0.00719965 0.281069 0.258584 -0.965989 0
-0.223094 0.0156404 0.128899 -0.0673104 -0.980493 0.184672
0.00273823 0.123845 0.324356 0 0 1
-0.189915 -0.203587 0.324356 0 0 1
-0.220561 0.0580114 0.324356 0 0 1
-0.346767 0.107001 0.310843 0 0 -1
0.184879 -0.0892038 0.310843 0 0 -1
0.0298403 -0.0144424 0.324356 0 0 1
0.186272 0.217038 0.324356 0 0 1
-0.420856 -0.110235 0.317231 -0.448093 -0.43679 -0.780017
0.161173 0.151332 0.324356 0 0 1
-0.305605 0.186538 0.310969 -0.291867 0.645809 -0.70551
0.0215833 0.230874 0.310843 0 0 -1
-0.229562 0.0315831 0.324356 0 0 1
0.0171573 -0.116612 0.310843 0 0 -1
-0.273679 -0.0416189 0.324356 0 0 1
0.215732 0.143334 0.310843 0 0 -1
-0.281463 -0.0643212 0.310843 0 0 -1
-0.0953575 0.224804 0.324356 0 0 1
-0.259006 0.0369329 0.122323 1 0 0
0.108608 -0.224479 0.324356 0 0 1
-0.2086 0.216856 0.310843 0 0 -1
0.21828 -0.148496 0.324356 0 0 1
-0.0978557 -0.0469675 0.310843 0 0 -1
-0.453169 -0.0407361 0.311649 -0.540485 -0.09647 -0.835805
-0.426579 -0.0493657 0.310843 0 0 -1
0.0238095 -0.17754 0.310843 0 0 -1
0.282536 0.0610601 0.293441 0 0.160469 -0.987041
-0.121738 -0.147587 0.324356 0 0 1
-0.140253 -0.0673822 0.310843 0 0 -1
0.374851 0.00518693 0.324356 0 0 1
-0.414463 -0.0647337 0.310843 0 0 -1
0.259692 0.0961896 0.324356 0 0 1
0.0975314 0.242468 0.324356 0 0 1
0.145889 -0.177105 0.324356 0 0 1
-0.130646 0.0568262 0.310843 0 0 -1
-0.285548 -0.00181806 0.310843 0 0 -1
-0.195213 0.0732742 0.310843 0 0 -1
-0.0571383 -0.0180337 0.310843 0 0 -1
0.194195 -0.173326 0.310843 0 0 -1
0.208971 0.011882 0.324356 0 0 1
-0.155652 0.222892 0.310843 0 0 -1
0.120585 0.0206191 0.324356 0 0 1
-0.13869 -0.0419591 0.324356 0 0 1
-0.274076 0.100558 0.310843 0 0 -1
-0.0567719 -0.0734828 0.324356 0 0 1
-0.0776002 -0.197916 0.324356 0 0 1
-0.29961 0.0715981 0.324356 0 0 1
-0.0209934 0.180905 0.324356 0 0 1
