-0.240136 -0.0277048 0.346192 0 0 -1
0.367509 0.0681596 0.358939 0 0 1
0.379152 0.182837 0.304801 0.260405 0.964972 0.0319238
0.0832899 0.225992 0.346192 0 0 -1
-0.132026 -0.044055 0.346192 0 0 -1
-0.232539 0.126798 0.358939 0 0 1
0.204933 -0.0760624 0.331579 0 0 -1
0.398257 -0.149187 0.346192 0 0 -1
-0.233113 -0.126574 0.346192 0 0 -1
0.407909 -0.0514769 0.35069 1 0 0
-0.354964 -0.134753 0.358939 0 0 1
-0.0478075 0.170858 0.358939 0 0 1
-0.127106 0.0447884 0.346192 0 0 -1
0.407909 0.0324319 0.353638 1 0 0
0.339472 0.173687 0.346192 0 0 -1
-0.14629 0.179359 0.346192 0 0 -1
0.12308 -0.126659 0.346192 0 0 -1
-0.0643842 -0.0840987 0.331579 0 0 -1
0.0772385 0.0764793 0.358939 0 0 1
0.250558 -0.163385 0.346192 0 0 -1
0.048604 -0.0769856 0.331579 0 0 -1
0.0254941 0.151228 0.358939 0 0 1
0.172199 -0.217371 0.346192 0 0 -1
0.385787 0.173051 0.0605678 0.706971 -0.706802 -0.0249515
-0.38813 0.0597496 0.358939 0 0 1
-0.387283 0.17451 0.0613793 -0.702509 -0.711247 -0.0246735
0.199971 0.0911015 0.343113 0 1 0
-0.372878 -0.117985 0.311184 0 0 -1
-0.371558 -0.0131104 0.358939 0 0 1
-0.318811 0.229449 0.356118 0 1 0
-0.372074 0.184443 0.199246 0.707233 0.706594 0.023376
0.386442 -0.169194 0.25185 0.7073 0.706524 -0.0234442
0.17309 0.021162 0.346192 0 0 -1
-0.0659618 -0.17846 0.351273 0 -1 0
0.125799 -0.0811901 0.331579 0 0 -1
0.308562 -0.219384 0.358939 0 0 1
-0.339656 -0.0713842 0.337107 0 1 0
-0.286272 0.229449 0.348999 0 1 0
0.265565 0.17378 0.358939 0 0 1
0.152759 0.180584 0.358939 0 0 1
0.378413 0.1672 0.172871 0.260578 -0.964923 -0.0319943
0.00495537 -0.112622 0.358939 0 0 1
0.0532531 -0.196019 0.358939 0 0 1
-0.385514 -0.174218 0.358939 0 0 1
0.299695 0.0739807 0.331579 0 0 -1
-0.17205 -0.120364 0.346192 0 0 -1
0.252475 0.0732809 0.358939 0 0 1
0.139405 0.103825 0.358939 0 0 1
0.387187 -0.104478 0.316529 0.999891 0.0147582 -0.000548326
-0.361617 0.179731 0.346192 0 0 -1
-0.374475 0.0985906 0.311184 0 0 -1
-0.376701 -0.0497114 0.311184 0 0 -1
-0.104932 -0.0401452 0.346192 0 0 -1
0.402396 0.0975213 0.346192 0 0 -1
-0.387254 -0.181094 0.16353 -0.96548 -0.260333 0.00860927
0.346615 0.229449 0.356232 0 1 0
0.230566 0.222199 0.346192 0 0 -1
-0.323108 0.132921 0.346192 0 0 -1
0.203659 -0.180963 0.358939 0 0 1
0.407909 0.161399 0.35024 1 0 0
0.342835 -0.153114 0.358939 0 0 1
-0.237903 0.191932 0.358939 0 0 1
0.377885 0.0340222 0.311184 0 0 -1
0.244411 -0.0376171 0.358939 0 0 1
-0.114986 -0.176213 0.346192 0 0 -1
0.0848436 0.023303 0.346192 0 0 -1
-0.407909 0.180572 0.351369 -1 0 0
-0.132888 0.0943143 0.358939 0 0 1
0.311056 -0.102203 0.346192 0 0 -1
-0.0256343 0.0736281 0.331579 0 0 -1
-0.295203 -0.0267931 0.358939 0 0 1
-0.0473826 0.106801 0.346192 0 0 -1
-0.184031 0.07179 0.358939 0 0 1
0.292132 -0.00302569 0.346192 0 0 -1
0.352912 -0.0258857 0.346192 0 0 -1
0.0865206 0.171654 0.346192 0 0 -1
-0.142395 0.141183 0.346192 0 0 -1
0.0635754 0.122481 0.358939 0 0 1
0.12517 -0.039565 0.358939 0 0 1
-0.206603 0.019713 0.358939 0 0 1
-0.276425 0.0402617 0.358939 0 0 1
-0.405109 -0.124242 0.346192 0 0 -1
-0.165587 0.224756 0.358939 0 0 1
0.210911 0.00672721 0.358939 0 0 1
-0.029511 -0.00774088 0.358939 0 0 1
-0.370545 -0.189328 0.059817 0.706895 -0.706893 0.0245387
0.380656 -0.16856 0.150127 0.260879 0.964841 -0.0319977
-0.291838 -0.127502 0.346192 0 0 -1
0.358795 -0.195037 0.346192 0 0 -1
0.388012 -0.182113 0.0477347 0.965527 -0.26016 0.00860354
-0.203921 -0.0769255 0.331579 0 0 -1
-0.249638 -0.0774817 0.358939 0 0 1
0.0416965 0.0442754 0.358939 0 0 1
0.00275327 0.110882 0.358939 0 0 1
-0.345367 0.0713842 0.332127 0 -1 0
-0.376697 -0.183745 0.276203 0.260405 -0.964972 0.0319238
0.0928432 -0.173846 0.346192 0 0 -1
0.139677 -0.190233 0.346192 0 0 -1
0.407909 -0.108099 0.351054 1 0 0
-0.196353 0.153474 0.358939 0 0 1
-0.0969694 0.0757765 0.331579 0 0 -1
0.326745 0.108945 0.346192 0 0 -1
-0.00112445 -0.146151 0.358939 0 0 1
-0.387673 0.137032 0.32699 -0.99989 -0.014821 0
-0.111241 0.180818 0.358939 0 0 1
0.378638 0.191082 0.346192 0 0 -1
-0.249771 0.0139735 0.346192 0 0 -1
-0.241905 0.0911015 0.331748 0 1 0
-0.0387988 0.0473478 0.358939 0 0 1
0.240969 0.122405 0.346192 0 0 -1
-0.224495 -0.178406 0.357464 0 -0.706869 0.707344
-0.323076 0.0713842 0.344849 0 -1 0
0.369072 0.086095 0.318775 -0.999891 -0.0147584 -0.000548332
-0.017828 -0.0806488 0.331579 0 0 -1
0.0760757 -0.0922758 0.358939 0 0 1
0.155143 -0.0896315 0.358939 0 0 1
0.0504014 -0.00933412 0.346192 0 0 -1
-0.362149 0.00964567 0.346192 0 0 -1
-0.124764 -0.0911015 0.332114 0 -1 0
-0.0572126 -0.0461035 0.358939 0 0 1
0.367906 0.165027 0.319995 -0.999891 -0.0147584 -0.000548332
0.287891 0.0495423 0.358939 0 0 1
-0.106385 0.000474455 0.358939 0 0 1
0.181254 0.199961 0.358939 0 0 1
0.385038 0.167624 0.25688 0.706819 -0.707006 -0.0234469
0.225808 -0.1205 0.358939 0 0 1
-0.364109 -0.0953069 0.358939 0 0 1
0.312591 0.20267 0.358939 0 0 1
-0.324566 -0.100214 0.358939 0 0 1
-0.0725797 -0.0824133 0.358939 0 0 1
-0.334072 -0.17846 0.348616 0 -1 0
-0.0481651 0.218834 0.346192 0 0 -1
0.286364 -0.184612 0.346192 0 0 -1
-0.376855 -0.0566007 0.346192 0 0 -1
0.281957 -0.136974 0.346192 0 0 -1
-0.218222 -0.141474 0.346192 0 0 -1
0.179165 0.0639538 0.358939 0 0 1
-0.201749 -0.0539982 0.346192 0 0 -1
0.0407712 0.213272 0.358939 0 0 1
0.155996 0.0902984 0.331579 0 0 -1
-0.271079 0.127117 0.358939 0 0 1
0.0228842 -0.0712955 0.358939 0 0 1
0.380363 -0.165845 0.229618 0.260578 0.964923 -0.0319943
0.101161 0.063021 0.358939 0 0 1
0.324587 -0.00677583 0.346192 0 0 -1
-0.0760687 -0.129598 0.346192 0 0 -1
0.333757 -0.0642625 0.358939 0 0 1
-0.383408 -0.190609 0.0741668 -0.256496 -0.965964 0.033532
0.367723 0.0484749 0.358939 0 0 1
0.124103 0.0881616 0.331579 0 0 -1
0.124874 0.205557 0.358939 0 0 1
-0.160661 -0.0231772 0.358939 0 0 1
0.0383851 -0.11424 0.358939 0 0 1
-0.332496 0.212734 0.358939 0 0 1
-0.310943 -0.0508513 0.358939 0 0 1
-0.407909 0.00483488 0.348624 -1 0 0
0.396697 -0.011308 0.346192 0 0 -1
0.15148 0.0483306 0.358939 0 0 1
-0.0825276 0.0862522 0.358939 0 0 1
-0.187284 0.0803884 0.331579 0 0 -1
-0.146832 0.0774469 0.331579 0 0 -1
0.277489 -0.0723964 0.358939 0 0 1
-0.147654 -0.152307 0.358939 0 0 1
-0.0190209 0.153809 0.346192 0 0 -1
0.248547 0.0785761 0.331579 0 0 -1
-0.37021 -0.00920531 0.316253 0.99989 0.014821 0
-0.167313 -0.0816093 0.358939 0 0 1
-0.407909 -0.107287 0.349863 -1 0 0
-0.265332 -0.139434 0.346192 0 0 -1
-0.353275 0.102674 0.358939 0 0 1
0.237315 0.166012 0.346192 0 0 -1
-0.105902 -0.063893 0.358939 0 0 1
0.371494 -0.0643124 0.331579 0 0 1
0.279132 0.0847082 0.331579 0 0 -1
-0.278907 0.0911015 0.342564 0 1 0
-0.38802 0.175908 0.234607 -0.965394 0.260654 0.0086134
0.407909 -0.194098 0.355801 1 0 0
0.162838 0.139784 0.346192 0 0 -1
0.351023 0.122281 0.358939 0 0 1
-0.354151 0.148834 0.346192 0 0 -1
-0.38854 0.185413 0.0393866 -0.966458 0.256669 0.00890993
0.0456363 0.0911015 0.336681 0 1 0
0.224568 0.0621811 0.346192 0 0 -1
0.0748568 -0.0823572 0.331579 0 0 -1
-0.250812 0.158053 0.346192 0 0 -1
-0.370079 0.17184 0.156046 0.707394 -0.706431 -0.0234411
-0.369287 -0.173553 0.128328 0.707394 0.706431 -0.0234411
0.188893 0.112329 0.346192 0 0 -1
-0.241353 0.229449 0.351623 0 1 0
0.0360807 -0.0534754 0.358939 0 0 1
-0.324947 0.174925 0.346192 0 0 -1
0.349084 0.0758323 0.331579 0 0 -1
0.0497153 0.166792 0.358939 0 0 1
0.320394 -0.125561 0.358939 0 0 1
0.0145091 -0.18177 0.349713 -0.287658 -0.957733 0
0.221513 -0.0871208 0.358939 0 0 1
0.229248 0.200868 0.358939 0 0 1
-0.387835 -0.14841 0.315219 -0.999891 0.0147641 -0.000548544
-0.0156646 0.0440356 0.358939 0 0 1
0.369336 -0.0684092 0.313246 -0.999891 0.0147584 -0.000548332
-0.0510787 -0.0824221 0.358939 0 0 1
-0.024166 0.116465 0.358939 0 0 1
0.156113 -0.0219138 0.346192 0 0 -1
-0.140326 0.208753 0.358939 0 0 1
-0.369028 0.177349 0.309791 0.965394 0.260654 0.0086134
0.381395 -0.187011 0.160333 0.260405 -0.964972 0.0319238
0.281435 0.195503 0.346192 0 0 -1
0.378677 0.0181413 0.358939 0 0 1
0.138385 -0.142371 0.358939 0 0 1
-0.0705563 0.150878 0.346192 0 0 -1
0.168963 0.166512 0.358939 0 0 1
0.0896494 0.109365 0.346192 0 0 -1
-0.206589 -0.0904819 0.358939 0 0 1
-0.192988 0.0392341 0.346192 0 0 -1
-0.115348 0.147203 0.346192 0 0 -1
0.204257 -0.212671 0.346192 0 0 -1
0.376767 -0.138739 0.331579 0 0 1
-0.340382 -0.0338835 0.346192 0 0 -1
0.077349 -0.0155071 0.346192 0 0 -1
0.151752 0.019271 0.346192 0 0 -1
0.310963 0.151613 0.358939 0 0 1
-0.0891483 0.0475585 0.358939 0 0 1
-0.184103 0.184746 0.358939 0 0 1
0.337554 -0.0843476 0.331579 0 0 -1
-0.385477 -0.170252 0.190877 -0.707394 0.706431 -0.0234411
-0.386702 0.0714878 0.323861 -0.99989 -0.014821 0
0.0140176 -0.0181677 0.358939 0 0 1
-0.368395 0.182193 0.0922948 0.96548 0.260333 0.00860927
-0.377974 -0.174912 0.0284551 0.254981 0.965692 -0.0492412
0.375816 0.0961921 0.346192 0 0 -1
-0.0781954 -0.0206495 0.346192 0 0 -1
0.269287 -0.210188 0.358939 0 0 1
0.225088 0.135613 0.346192 0 0 -1
-0.0767002 0.197028 0.358939 0 0 1
0.386583 0.0634334 0.323976 0.99989 -0.0148151 0
0.111796 0.187556 0.358939 0 0 1
-0.197584 -0.0213371 0.346192 0 0 -1
0.0751758 -0.137205 0.358939 0 0 1
0.38184 -0.0217202 0.358939 0 0 1
0.374929 0.164401 0.358939 0 0 1
0.373957 0.192407 0.0329049 -0.256692 0.965912 0.0335302
0.357948 0.151989 0.358939 0 0 1
-0.172654 -0.0804448 0.331579 0 0 -1
-0.405145 0.0876041 0.346192 0 0 -1
-0.379252 -0.16491 0.24877 -0.260578 0.964923 -0.0319943
-0.268123 -0.107805 0.346192 0 0 -1
0.386569 0.171078 0.198938 0.7073 -0.706524 -0.0234442
0.195023 -0.113288 0.346192 0 0 -1
0.384185 -0.179998 0.324987 0.706803 -0.706993 0.0242863
-0.211324 0.105091 0.346192 0 0 -1
0.387763 0.143341 0.320839 0.999891 -0.0147582 -0.000548326
0.0245015 0.185524 0.346192 0 0 -1
0.378169 -0.168893 0.078571 0.256496 0.965964 -0.0335322
0.139513 -0.229449 0.35067 0 -1 0
-0.237726 0.0290243 0.346192 0 0 -1
0.165697 -0.186803 0.346192 0 0 -1
0.077677 0.0770479 0.331579 0 0 -1
-0.038161 0.13542 0.358939 0 0 1
-0.101718 -0.147424 0.358939 0 0 1
-0.338154 0.0530666 0.358939 0 0 1
0.350546 -0.219465 0.346192 0 0 -1
0.293603 -0.077925 0.331579 0 0 -1
0.310605 0.0785933 0.358939 0 0 1
0.257843 -0.106067 0.358939 0 0 1
0.367951 -0.173186 0.280271 -0.965951 0.258583 -0.00854497
-0.243728 -0.0796909 0.331579 0 0 -1
-0.322984 -0.143097 0.346192 0 0 -1
0.311445 0.177415 0.358939 0 0 1
0.0619334 -0.0821718 0.358939 0 0 1
-0.407099 -0.028405 0.35822 -0.706873 0 0.707341
-0.274589 -0.0582564 0.346192 0 0 -1
0.233845 -0.202481 0.358939 0 0 1
-0.270042 -0.00340253 0.358939 0 0 1
-0.0469596 -0.112712 0.346192 0 0 -1
0.239758 -0.00511592 0.346192 0 0 -1
0.368858 0.174478 0.139074 -0.96548 -0.260334 -0.00863852
-0.105059 0.0815832 0.358939 0 0 1
0.381208 -0.0881273 0.346192 0 0 1
-0.379414 -0.099817 0.331579 0 0 1
-0.0230607 0.192368 0.358939 0 0 1
-0.388669 0.153869 0.346192 0 0 -1
0.370269 -0.00517006 0.326499 -0.99989 0.0148153 0
-0.0656971 0.0261794 0.346192 0 0 -1
0.351127 0.000694922 0.358939 0 0 1
0.206663 -0.14361 0.346192 0 0 -1
0.263993 0.106426 0.346192 0 0 -1
-0.369898 -0.147702 0.331579 0 0 1
0.329296 0.0696799 0.358939 0 0 1
-0.38861 -0.141914 0.358939 0 0 1
0.257206 0.0463108 0.346192 0 0 -1
0.0578283 -0.17673 0.346192 0 0 -1
0.134691 0.132758 0.358939 0 0 1
0.0299603 -0.0885428 0.331579 0 0 -1
0.355756 -0.0660416 0.358939 0 0 1
0.212033 -0.0259963 0.346192 0 0 -1
-0.351731 0.0911015 0.335131 0 1 0
-0.298809 0.0904816 0.331579 0 0 -1
0.116013 -0.0761044 0.358939 0 0 1
-0.203263 -0.107731 0.346192 0 0 -1
0.29979 -0.115656 0.358939 0 0 1
-0.044448 0.0753036 0.358939 0 0 1
0.0778487 -0.205132 0.346192 0 0 -1
0.206181 0.197264 0.346192 0 0 -1
0.368736 -0.108628 0.328603 -0.99989 0.0148153 0
-0.0858318 -0.108691 0.358939 0 0 1
0.00610386 0.037121 0.358939 0 0 1
-0.135375 0.00618392 0.358939 0 0 1
-0.223288 -0.0838205 0.358939 0 0 1
-0.352461 0.0745838 0.358939 0 0 1
0.134389 0.224489 0.346192 0 0 -1
-0.297989 0.117027 0.358939 0 0 1
0.366602 0.179628 0.0870367 -0.966985 -0.254681 -0.00883499
0.318949 0.226643 0.358939 0 0 1
0.312989 -0.190966 0.358939 0 0 1
0.177687 -0.07582 0.346192 0 0 1
-0.255258 -0.162581 0.346192 0 0 -1
0.276063 -0.0201214 0.358939 0 0 1
0.0643838 0.19851 0.358939 0 0 1
0.0385787 0.113113 0.346192 0 0 -1
-0.173152 0.141855 0.346192 0 0 -1
0.33321 -0.165076 0.346192 0 0 -1
0.126962 0.160466 0.346192 0 0 -1
-0.304131 0.193018 0.346192 0 0 -1
0.404708 0.127872 0.358939 0 0 1
-0.406262 0.0367722 0.346192 0 0 -1
0.106592 0.0355559 0.346192 0 0 -1
-0.104085 0.099659 0.358939 0 0 1
-0.121103 0.0869159 0.331579 0 0 -1
-0.380109 0.204021 0.346192 0 0 -1
0.371449 0.183573 0.206621 -0.707139 0.706688 0.0233791
-0.29373 0.0637661 0.346192 0 0 -1
-0.261301 0.0653431 0.358939 0 0 1
0.362482 0.204376 0.346192 0 0 -1
-0.213482 0.176163 0.346192 0 0 -1
0.105904 -0.20313 0.358939 0 0 1
0.211857 0.0363266 0.346192 0 0 -1
0.170994 -0.0852433 0.331579 0 0 -1
-0.339602 -0.00436207 0.358939 0 0 1
0.374633 -0.152635 0.358939 0 0 1
-0.146649 -0.115472 0.346192 0 0 -1
0.215826 0.098892 0.358939 0 0 1
0.161654 -0.11701 0.358939 0 0 1
0.373897 -0.176171 0.0327553 -0.706547 0.706783 -0.0353405
0.273803 0.0261006 0.358939 0 0 1
0.282054 0.149174 0.346192 0 0 -1
0.368641 0.115478 0.313998 -0.999891 -0.0147584 -0.000548332
0.06806 0.145148 0.346192 0 0 -1
-0.0174305 0.227906 0.358936 -0.000888854 0.580981 0.813916
-0.159076 0.0643486 0.358939 0 0 1
-0.14216 0.117813 0.358939 0 0 1
-0.00915283 -0.0806483 0.358939 0 0 1
-0.18052 0.0015797 0.358939 0 0 1
0.098111 -0.103887 0.346192 0 0 -1
-0.269023 0.20131 0.346192 0 0 -1
-0.0897547 -0.0727777 0.331579 0 0 -1
0.280758 -0.0500759 0.358939 0 0 1
0.150319 -0.0596602 0.358939 0 0 1
0.116576 -0.169721 0.358939 0 0 1
-0.22778 0.00282903 0.346192 0 0 -1
-0.212557 0.0704273 0.358939 0 0 1
0.206594 -0.056422 0.346192 0 0 -1
0.318818 -0.0356208 0.358939 0 0 1
0.313691 0.0182371 0.358939 0 0 1
0.261809 -0.186305 0.358939 0 0 1
-0.0684604 0.0570281 0.346192 0 0 -1
0.372728 -0.168508 0.176654 -0.706819 0.707006 -0.0234469
-0.382032 -0.0829139 0.311184 0 0 -1
-0.341355 0.179515 0.358939 0 0 1
0.00473864 0.174392 0.358939 0 0 1
0.063277 -0.05475 0.346192 0 0 -1
0.0938858 0.00224254 0.358939 0 0 1
-0.382816 0.0143447 0.331579 0 0 1
-0.325716 0.103865 0.346192 0 0 -1
-0.0756859 0.122229 0.346192 0 0 -1
0.0600206 0.0481797 0.346192 0 0 -1
-0.174274 -0.145758 0.358939 0 0 1
0.0161435 0.0819732 0.331579 0 0 -1
0.369241 -0.173066 0.358939 0 0 1
0.375651 0.183645 0.270709 -0.260452 0.964959 0.0319234
0.405657 0.0684944 0.358939 0 0 1
-0.0461789 -0.163008 0.358939 0 0 1
0.126916 -0.0109056 0.346192 0 0 -1
-0.230836 0.095325 0.358939 0 0 1
0.301055 -0.0621914 0.358939 0 0 1
0.165507 0.0951332 0.358939 0 0 1
-0.291549 0.00906214 0.346192 0 0 -1
-0.382144 -0.0874161 0.358939 0 0 1
-0.125777 -0.13623 0.346192 0 0 -1
-0.338039 -0.0757322 0.358939 0 0 1
-0.0286297 0.0212457 0.346192 0 0 -1
-0.3687 0.131539 0.312169 0.699703 -0.0103316 -0.71436
0.360539 -0.131145 0.346192 0 0 -1
0.00511072 0.133114 0.346192 0 0 -1
0.174829 -0.0051093 0.358939 0 0 1
0.382899 -0.100475 0.358939 0 0 1
-0.219923 0.144118 0.346192 0 0 -1
-0.402701 0.216594 0.358939 0 0 1
-0.0227732 -0.0632451 0.358939 0 0 1
0.33375 -0.0944801 0.358939 0 0 1
0.225669 -0.104341 0.358939 0 0 1
0.377252 -0.191781 0.0761519 -0.256692 -0.965912 0.0335192
-0.121017 -0.0210901 0.346192 0 0 -1
0.247255 0.184768 0.346192 0 0 -1
-0.163938 0.0875117 0.346192 0 0 1
-0.385015 0.0906204 0.331579 0 0 1
-0.00856485 0.0836038 0.358939 0 0 1
-0.382331 -0.0293959 0.331579 0 0 1
-0.406902 -0.163368 0.346715 -0.707107 0 -0.707107
0.250668 -0.128576 0.346192 0 0 -1
-0.369269 -0.16787 0.300161 0.707394 0.706431 -0.0234411
0.0973866 -0.0609205 0.358939 0 0 1
0.407909 -0.0760863 0.348773 1 0 0
0.340053 0.193764 0.358939 0 0 1
-0.0448317 -0.079414 0.331579 0 0 -1
-0.314345 -0.00331446 0.358939 0 0 1
0.276858 -0.0962563 0.346192 0 0 -1
-0.361323 -0.163833 0.358939 0 0 1
-0.197949 -0.159347 0.358939 0 0 1
0.0284509 -0.144439 0.358939 0 0 1
-0.387597 0.170384 0.330832 -0.679378 -0.0100701 0.733719
-0.295773 -0.148061 0.358939 0 0 1
-0.20881 0.095756 0.358939 0 0 1
0.257009 0.226702 0.346192 0 0 -1
0.183329 0.0713842 0.338267 0 -1 0
-0.320868 -0.0840864 0.331579 0 0 -1
-0.259863 -0.0358821 0.358939 0 0 1
-0.385997 0.183171 0.174715 -0.706912 0.706915 0.0233778
-0.316655 0.149947 0.358939 0 0 1
0.113093 0.116126 0.358939 0 0 1
0.385168 -0.172242 0.121551 0.7073 0.706524 -0.0234442
0.267696 0.000122198 0.346192 0 0 -1
0.0217896 0.229449 0.347868 0 1 0
0.372649 0.227984 0.358875 0 0.7071 0.707114
0.303665 0.132466 0.358939 0 0 1
0.0407485 0.0855113 0.358939 0 0 1
0.186786 -0.192171 0.346192 0 0 -1
0.369776 -0.0385035 0.324854 -0.99989 0.0148153 0
0.255461 0.141024 0.358939 0 0 1
0.22961 -0.0713842 0.341541 0 1 0
0.291996 0.100543 0.358939 0 0 1
-0.0925554 0.0168009 0.358939 0 0 1
-0.0570257 -0.14038 0.358939 0 0 1
0.136598 -0.0905543 0.346192 0 0 1
-0.273066 -0.0832303 0.358939 0 0 1
0.337474 0.0517608 0.358939 0 0 1
-0.375525 0.183103 0.286065 0.260405 0.964972 0.0319238
-0.217256 0.0824497 0.331579 0 0 -1
-0.295169 -0.0962735 0.358939 0 0 1
-0.381123 0.110094 0.331579 0 0 1
-0.0199844 -0.127127 0.358939 0 0 1
-0.357798 -0.0518862 0.358939 0 0 1
0.0839971 -0.224787 0.357905 -0.22932 -0.755395 0.613832
0.370813 0.116273 0.358939 0 0 1
0.201848 0.0409289 0.358939 0 0 1
-0.0129097 -0.169155 0.346192 0 0 -1
-0.139134 -0.0713842 0.338011 0 1 0
-0.265627 0.166783 0.358939 0 0 1
-0.387313 -0.176218 0.304438 -0.965394 -0.260654 0.0086134
0.218978 -0.165282 0.346192 0 0 -1
0.248123 -0.0754544 0.358939 0 0 1
0.166125 -0.0681211 0.358939 0 0 1
0.386681 0.171999 0.331579 0 0 1
-0.380335 -0.110739 0.358939 0 0 1
-0.388315 0.187083 0.0157271 -0.966458 0.256669 0.00890993
-0.373615 0.0235504 0.358939 0 0 1
0.0619186 0.0245884 0.358939 0 0 1
-0.0738803 0.229449 0.35473 0 1 0
-0.368065 0.135194 0.346192 0 0 -1
-0.0767461 -0.0491088 0.346192 0 0 -1
-0.354828 -0.114219 0.346192 0 0 -1
-0.0633297 0.0911015 0.343902 0 1 0
-0.384965 0.18708 0.0877721 -0.707233 0.706594 0.023376
-0.362922 0.216006 0.358939 0 0 1
-0.3036 0.0268403 0.358939 0 0 1
0.334813 0.149623 0.346192 0 0 -1
0.289085 -0.163246 0.358939 0 0 1
-0.0912591 -0.14804 0.346192 0 0 -1
-0.368162 0.173412 0.249465 0.965905 -0.258756 -0.00855067
-0.05678 -0.00250749 0.346192 0 0 -1
-0.0766232 0.178594 0.346192 0 0 -1
0.0147387 -0.133833 0.346192 0 0 -1
-0.164156 0.108771 0.358939 0 0 1
0.349733 0.0902424 0.346192 0 0 1
-0.122752 0.0685971 0.346192 0 0 -1
0.313865 0.0403245 0.346192 0 0 -1
0.182624 -0.0949726 0.358939 0 0 1
-0.312991 -0.161117 0.358939 0 0 1
0.0822477 0.132306 0.346192 0 0 -1
-0.00667925 -0.0108909 0.346192 0 0 -1
0.232004 -0.144616 0.346192 0 0 -1
0.387296 -0.12667 0.358939 0 0 1
-0.158859 -0.00507626 0.346192 0 0 -1
-0.149698 -0.0578391 0.358939 0 0 1
-0.34252 0.229449 0.350173 0 1 0
0.0531388 -0.0391259 0.346192 0 0 -1
0.191103 0.0257832 0.346192 0 0 -1
0.385872 0.0154727 0.329572 0.99989 -0.0148151 0
-0.407909 0.13554 0.34793 -1 0 0
0.0824675 -0.156155 0.358939 0 0 1
-0.280215 0.089448 0.358939 0 0 1
0.383176 0.188873 0.0876864 0.707139 0.706688 0.0233791
0.407909 0.193493 0.352541 1 0 0
0.0615638 -0.108734 0.346192 0 0 -1
0.0367756 0.023239 0.346192 0 0 -1
-0.371506 0.154479 0.331579 0 0 1
0.358075 0.18347 0.358939 0 0 1
0.331377 -0.211566 0.358939 0 0 1
0.149925 -0.211016 0.358939 0 0 1
-0.113465 0.0231386 0.346192 0 0 -1
-0.163055 0.166038 0.358939 0 0 1
0.382417 0.164475 0.287656 0.260578 -0.964923 -0.0319943
0.384808 -0.0556237 0.358939 0 0 1
0.288016 0.174692 0.346192 0 0 -1
0.236663 0.092786 0.346192 0 0 -1
0.281468 0.0802624 0.358939 0 0 1
-0.217999 -0.0244791 0.358939 0 0 1
0.00191092 -0.0372387 0.358939 0 0 1
-0.403844 -0.045045 0.346192 0 0 -1
-0.193252 0.219088 0.346192 0 0 -1
0.0316089 0.0651564 0.346192 0 0 -1
-0.148305 -0.175607 0.346192 0 0 -1
0.259191 -0.148785 0.358939 0 0 1
0.307113 -0.169948 0.346192 0 0 -1
0.201725 0.138079 0.358939 0 0 1
0.387129 0.100308 0.323969 0.99989 -0.0148151 0
-0.0296281 -0.0377144 0.358939 0 0 1
0.353333 0.0205802 0.346192 0 0 -1
0.0127266 0.202551 0.358939 0 0 1
-0.0445038 0.190725 0.346192 0 0 -1
-0.133829 0.176292 0.358939 0 0 1
-0.385535 0.166728 0.29887 -0.706912 -0.706912 -0.0234438
-0.367642 0.185264 0.0647691 0.966499 0.256515 0.00890458
-0.369309 0.0699661 0.323899 0.99989 -0.014821 0
-0.302865 0.165906 0.358939 0 0 1
0.195539 -0.0796475 0.358939 0 0 1
0.2749 0.138396 0.358939 0 0 1
-0.0965087 -0.0911015 0.335835 0 -1 0
-0.215723 0.040932 0.346192 0 0 -1
-0.254214 0.0713842 0.34124 0 -1 0
-0.385608 -0.180649 0.00455587 0 -0.0365514 -0.999332
0.0445339 -0.101523 0.346192 0 0 -1
-0.374684 -0.192643 0.0316802 0.256496 -0.965964 0.0335211
0.338954 0.128147 0.346192 0 0 -1
-0.388065 -0.17879 0.142376 -0.965394 -0.260654 0.0086134
0.387883 0.176826 0.011689 0.702509 -0.711247 -0.0246735
0.0923118 -0.129435 0.346192 0 0 -1
0.0188491 -0.0364436 0.346192 0 0 -1
-0.119638 0.225712 0.346192 0 0 -1
0.366635 0.136872 0.346192 0 0 -1
0.127536 0.056138 0.346192 0 0 -1
-0.262869 0.110531 0.358939 0 0 1
0.368012 0.180343 0.0569195 -0.96548 -0.260334 -0.00863852
-0.076127 0.211158 0.346192 0 0 -1
0.384663 0.185414 0.147274 0.707139 0.706688 0.0233791
0.373737 -0.213445 0.358939 0 0 1
0.386245 -0.189184 0.346192 0 0 -1
-0.016303 -0.101877 0.346192 0 0 -1
-0.25363 -0.0464245 0.346192 0 0 -1
-0.267509 -0.0836774 0.331579 0 0 -1
-0.348489 -0.152477 0.346192 0 0 -1
-0.371266 -0.183934 0.190186 0.707233 -0.706594 0.023376
0.368326 -0.174718 0.31065 -0.965441 -0.26048 0.00860767
0.158187 0.0742565 0.346192 0 0 1
-0.217386 0.229449 0.354786 0 1 0
-0.369538 0.0545226 0.327169 0.99989 -0.014821 0
-0.378113 -0.170233 0.0789557 -0.260578 0.964923 -0.0319943
-0.246139 -0.0648544 0.346192 0 0 -1
0.209627 0.229449 0.357195 0 1 0
-0.384049 -0.0193961 0.346192 0 0 -1
-0.185668 0.0181263 0.346192 0 0 -1
-0.222044 -0.102475 0.358939 0 0 1
0.322201 -0.0713842 0.335699 0 1 0
-0.172476 0.036181 0.358939 0 0 1
0.188551 -0.133817 0.358939 0 0 1
0.0980166 -0.0713842 0.33696 0 1 0
0.211144 0.117992 0.346192 0 0 -1
-0.315436 -0.0268647 0.346192 0 0 -1
-0.192525 -0.12782 0.358939 0 0 1
-0.384576 -0.186535 0.116003 -0.707233 -0.706594 0.023376
-0.195354 -0.0394921 0.358939 0 0 1
0.387784 0.211311 0.346192 0 0 -1
-0.304174 0.0548778 0.358939 0 0 1
0.40447 0.00803238 0.358939 0 0 1
0.0984812 0.0869718 0.346192 0 0 -1
0.371827 -0.171474 0.0591826 -0.706971 0.706802 -0.0249515
-0.199472 -0.0049613 0.346192 0 0 -1
-0.00466946 0.0881895 0.331579 0 0 -1
-0.376943 0.1011 0.358939 0 0 1
-0.0047682 0.0680391 0.358939 0 0 1
-0.343884 -0.0941277 0.346192 0 0 -1
0.222856 0.154502 0.358939 0 0 1
0.109853 0.00956044 0.346192 0 0 -1
0.390741 0.0772739 0.337975 1 0 0
-0.0204124 0.134069 0.346192 0 0 -1
-0.0336628 -0.0826551 0.346192 0 0 -1
-0.226975 0.167741 0.358939 0 0 1
-0.193337 -0.0911015 0.338844 0 -1 0
0.369467 -0.137443 0.311309 -0.781127 0.0102163 -0.624288
0.0188478 -0.168839 0.358939 0 0 1
-0.373864 -0.183975 0.246146 0.260405 -0.964972 0.0319238
-0.156975 0.205728 0.346192 0 0 -1
-0.0425586 -0.0230067 0.346192 0 0 -1
0.139869 -0.170957 0.358939 0 0 1
0.368529 -0.181671 0.123007 -0.965527 -0.26016 0.00860353
-0.0748176 -0.149926 0.358939 0 0 1
0.162762 0.119666 0.358939 0 0 1
0.0533387 0.0646156 0.358939 0 0 1
-0.112301 0.120527 0.346192 0 0 -1
0.327712 -0.0271256 0.346192 0 0 -1
-0.305503 -0.105153 0.346192 0 0 -1
-0.305212 -0.0626606 0.346192 0 0 -1
-0.286358 -0.0105284 0.346192 0 0 -1
0.0988126 0.151135 0.358939 0 0 1
-0.367668 -0.0739779 0.346192 0 0 -1
0.22636 0.0505804 0.358939 0 0 1
0.0523008 0.0713842 0.335369 0 -1 0
-0.230647 -0.155913 0.358939 0 0 1
0.108835 -0.139872 0.358939 0 0 1
-0.38523 -0.011905 0.331078 -0.811801 0.00986235 0.583851
0.369592 0.0508786 0.326871 -0.99989 -0.0148153 0
-0.292492 0.0387227 0.346192 0 0 -1
0.2373 -0.186433 0.358939 0 0 1
0.120727 -0.0639943 0.346192 0 0 -1
0.261874 -0.0541966 0.346192 0 0 -1
0.099365 0.2001 0.346192 0 0 -1
0.165349 -0.171239 0.358939 0 0 1
-0.0437167 0.152591 0.346192 0 0 -1
0.152259 -0.0713842 0.342152 0 1 0
-0.386646 -0.0677281 0.328044 -0.99989 0.014821 0
-0.126207 -0.091049 0.358939 0 0 1
0.267074 -0.0362125 0.346192 0 0 -1
-0.36767 0.177103 0.0428919 0.967067 -0.25437 -0.00882422
-0.368292 0.0713842 0.344848 0 -1 0
-0.0215521 0.212641 0.346192 0 0 -1
0.172426 0.184985 0.346192 0 0 -1
0.265876 0.212743 0.358939 0 0 1
0.00783042 -0.00120973 0.346192 0 0 -1
0.386096 -0.179266 0.289846 0.706819 -0.707008 0.0233809
0.336991 -0.0213099 0.358939 0 0 1
-0.353918 -0.176254 0.346192 0 0 -1
-0.340905 0.140051 0.358939 0 0 1
-0.0949824 0.191745 0.346192 0 0 -1
-0.0498704 0.207604 0.358939 0 0 1
-0.286329 0.19824 0.358939 0 0 1
0.330546 -0.142721 0.346192 0 0 -1
0.309456 0.100943 0.346192 0 0 -1
0.0799924 -0.183258 0.358939 0 0 1
0.181036 0.0911015 0.335129 0 1 0
-0.0938491 -0.0344493 0.358939 0 0 1
0.200183 0.177876 0.358939 0 0 1
0.0299546 0.00244352 0.358939 0 0 1
0.194679 9.34526e-05 0.346192 0 0 -1
-0.375632 0.0486161 0.346192 0 0 -1
0.0365991 0.135288 0.346192 0 0 -1
0.163093 -0.0388699 0.358939 0 0 1
0.0139988 -0.0953441 0.358939 0 0 1
-0.238013 -0.0928082 0.346192 0 0 -1
0.338401 -0.116523 0.346192 0 0 -1
0.280459 -0.22581 0.346192 0 0 -1
0.154934 0.212779 0.358939 0 0 1
0.17793 0.141317 0.358939 0 0 1
-0.37371 -0.126317 0.331579 0 0 1
0.248007 0.0983193 0.358939 0 0 1
0.260622 0.0229761 0.346192 0 0 -1
-0.0130129 0.00567206 0.346192 0 0 -1
0.160005 0.196971 0.346192 0 0 -1
0.388655 0.0461632 0.346192 0 0 -1
-0.279836 -0.120681 0.358939 0 0 1
-0.25112 0.126988 0.346192 0 0 -1
0.389338 -0.183061 0.0207647 0.965877 -0.258852 0.00883036
-0.20718 0.125508 0.358939 0 0 1
0.291671 -0.203697 0.358939 0 0 1
0.393927 -0.0347713 0.358939 0 0 1
-0.251888 -0.0205664 0.358939 0 0 1
-0.407909 0.110947 0.351581 -1 0 0
-0.253424 0.0838842 0.358939 0 0 1
0.405983 -0.169207 0.358939 0 0 1
-0.266211 0.0349884 0.346192 0 0 -1
-0.150701 -0.0904716 0.346192 0 0 -1
-0.341563 0.0314588 0.346192 0 0 -1
-0.0345824 -0.106756 0.358939 0 0 1
-0.331429 0.194943 0.346192 0 0 -1
-0.201122 -0.17846 0.351083 0 -1 0
-0.0888261 -0.168232 0.358939 0 0 1
-0.0605237 -0.115928 0.358939 0 0 1
0.0618827 0.229449 0.35079 0 1 0
0.161786 0.0289713 0.358939 0 0 1
0.22054 -0.201346 0.346192 0 0 -1
0.368912 0.171495 0.222969 -0.96548 -0.260334 -0.00863852
0.315296 -0.0826433 0.358939 0 0 1
-0.0697511 0.0741088 0.331579 0 0 -1
-0.331331 0.0886158 0.358939 0 0 1
-0.255931 0.211671 0.358939 0 0 1
0.0816016 0.0477664 0.358939 0 0 1
0.169109 0.0499911 0.346192 0 0 -1
-0.0674312 0.105718 0.358939 0 0 1
0.385052 0.173267 0.0336405 0.706971 -0.706802 -0.0249515
0.226864 -0.0151325 0.358939 0 0 1
-0.0730815 -0.10053 0.346192 0 0 -1
-0.0206025 0.182155 0.346192 0 0 -1
-0.381047 0.0464167 0.311184 0 0 -1
0.301175 -0.0178959 0.358939 0 0 1
-0.367904 -0.178388 0.152427 0.965394 -0.260654 0.0086134
0.0381282 -0.0788146 0.346192 0 0 1
0.386842 -0.080944 0.323343 0.99989 0.0148151 0
-0.0490309 0.0616394 0.346192 0 0 -1
-0.387642 0.180112 0.149769 -0.965394 0.260654 0.0086134
-0.143823 0.0911015 0.337764 0 1 0
-0.386958 0.00780816 0.358939 0 0 1
-0.208851 -0.0676204 0.358939 0 0 1
0.198397 0.0722679 0.358939 0 0 1
0.219188 -0.229449 0.3567 0 -1 0
-0.265089 -0.0319512 0.346192 0 0 -1
-0.126273 0.108826 0.346192 0 0 -1
-0.284913 0.134949 0.346192 0 0 -1
0.331858 0.0879366 0.331579 0 0 -1
0.0322808 0.164469 0.346192 0 0 -1
-0.313921 -0.17846 0.347983 0 -1 0
0.0043188 -0.0911015 0.342216 0 -1 0
-0.309106 0.208288 0.358939 0 0 1
0.359534 -0.149263 0.346192 0 0 -1
0.0679201 0.104992 0.346192 0 0 -1
-0.380139 -0.170342 0.051915 -0.256496 0.965964 -0.0335322
-0.0473951 0.0248501 0.358939 0 0 1
0.359185 -0.0911015 0.332774 0 -1 0
0.0234236 0.0420066 0.346192 0 0 -1
0.306564 -0.142821 0.346192 0 0 -1
-0.381842 0.152287 0.311184 0 0 -1
0.291898 0.205663 0.358939 0 0 1
0.386562 -0.06205 0.319683 0.99989 0.0148151 0
0.115116 0.22757 0.358939 0 0 1
0.00546566 -0.0745306 0.331579 0 0 -1
0.385671 0.00186149 0.315481 0.99989 -0.0148151 0
0.338563 0.0956683 0.358939 0 0 1
-0.385548 0.0733666 0.346192 0 0 -1
0.252183 0.152622 0.346192 0 0 -1
0.385722 0.040117 0.330872 0.811495 -0.00986328 0.584276
0.276699 0.0628499 0.346192 0 0 -1
0.119016 0.18433 0.346192 0 0 -1
0.18937 -0.215024 0.358939 0 0 1
-0.189923 0.167331 0.346192 0 0 -1
-0.113613 -0.0807284 0.346192 0 0 1
0.0182973 0.128851 0.358939 0 0 1
-0.314286 -0.0736705 0.358939 0 0 1
-0.226857 -0.0562789 0.346192 0 0 -1
-0.0226285 0.0937656 0.346192 0 0 -1
-0.0623843 -0.0680688 0.346192 0 0 -1
-0.282167 -0.0334305 0.346192 0 0 -1
0.250671 -0.188205 0.346192 0 0 -1
-0.155156 -0.0402748 0.346192 0 0 -1
-0.098623 -0.0930763 0.358939 0 0 1
0.296409 -0.0277172 0.346192 0 0 -1
-0.327781 -0.0531846 0.346192 0 0 -1
-0.16954 0.055681 0.346192 0 0 -1
0.14057 -0.0290866 0.358939 0 0 1
0.249943 -0.209516 0.346192 0 0 -1
-0.365707 0.114455 0.346192 0 0 -1
0.294501 -0.0863687 0.346192 0 0 -1
-0.0906091 0.11005 0.346192 0 0 -1
-0.0432969 -0.136241 0.346192 0 0 -1
-0.24815 0.0521268 0.346192 0 0 -1
-0.0907955 -0.000157963 0.346192 0 0 -1
-0.0494279 -0.0629454 0.346192 0 0 -1
-0.102394 0.21027 0.346192 0 0 -1
-0.000166184 0.154269 0.358939 0 0 1
-0.390387 -0.0609781 0.358939 0 0 1
0.376159 -0.189204 0.0188243 -0.255075 -0.965761 0.0473443
-0.17447 -0.0299161 0.346192 0 0 -1
0.12564 -0.111711 0.358939 0 0 1
-0.176604 0.205071 0.358939 0 0 1
0.200222 -0.0167733 0.358939 0 0 1
0.396849 -0.205176 0.346192 0 0 -1
0.241509 -0.102045 0.346192 0 0 -1
-0.403614 0.155796 0.358939 0 0 1
0.231617 0.0754123 0.358939 0 0 1
0.323723 0.190477 0.346192 0 0 -1
0.368185 0.145852 0.328585 -0.99989 -0.0148153 0
0.348572 -0.0484119 0.346192 0 0 -1
-0.11517 0.0566163 0.358939 0 0 1
-0.157687 -0.142457 0.346192 0 0 -1
0.07597 -0.112416 0.358939 0 0 1
-0.137977 0.0206421 0.346192 0 0 -1
0.333166 0.0832271 0.346192 0 0 -1
-0.256548 -0.125906 0.358939 0 0 1
0.385149 0.0918349 0.358939 0 0 1
-0.221841 -0.0911015 0.332694 0 -1 0
-0.121868 -0.00220172 0.346192 0 0 -1
0.370452 0.00316984 0.346192 0 0 -1
0.227452 0.177807 0.358939 0 0 1
0.292704 0.16491 0.358939 0 0 1
-0.117561 0.196353 0.346192 0 0 -1
0.0336366 -0.0288404 0.358939 0 0 1
0.327024 0.0713842 0.333511 0 -1 0
-0.10979 0.0373219 0.358939 0 0 1
-0.279752 -0.15518 0.346192 0 0 -1
0.137541 0.0713842 0.336702 0 -1 0
0.117468 -0.0970795 0.346192 0 0 -1
-0.379973 0.0148082 0.311184 0 0 -1
0.308971 0.0607703 0.358939 0 0 1
0.387546 -0.128545 0.32199 0.999891 0.0147582 -0.000548326
-0.144709 -0.0788583 0.358939 0 0 1
-0.368166 0.177113 0.220287 0.965394 0.260654 0.0086134
0.407909 -0.13017 0.352506 1 0 0
-0.387347 0.11542 0.313287 -0.999891 -0.0147641 -0.000548544
-0.406436 0.0646266 0.346249 -0.707107 0 -0.707107
-0.0595417 -0.157548 0.346192 0 0 -1
-0.151922 0.0847318 0.358939 0 0 1
0.291143 -0.0973195 0.358939 0 0 1
-0.0188032 -0.0268594 0.346192 0 0 -1
-0.0184495 0.0627711 0.346192 0 0 -1
-0.144304 0.229449 0.355068 0 1 0
-0.0663424 0.165341 0.358939 0 0 1
0.186197 0.0903521 0.358939 0 0 1
0.387549 -0.186311 0.0860506 0.706895 -0.706893 0.0245387
0.138961 0.000572415 0.358939 0 0 1
-0.195715 -0.138699 0.346192 0 0 -1
0.329938 0.0105339 0.358939 0 0 1
0.369213 0.17992 0.249492 -0.706819 0.707008 0.0233809
0.373971 0.0659884 0.311184 0 0 -1
-0.22688 0.211834 0.346192 0 0 -1
0.388666 -0.169299 0.346192 0 0 -1
-0.198495 0.0547632 0.358939 0 0 1
0.131899 -0.197905 0.358939 0 0 1
-0.343797 0.016535 0.358939 0 0 1
0.232983 0.0755673 0.331579 0 0 -1
0.35263 0.0793507 0.358939 0 0 1
-0.269825 0.00496539 0.346192 0 0 -1
-0.0923017 0.0334091 0.346192 0 0 -1
0.003034 0.228474 0.358385 0 0.7071 0.707114
-0.348891 0.20875 0.346192 0 0 -1
0.0536369 -0.127282 0.358939 0 0 1
-0.0225646 0.166372 0.358939 0 0 1
0.324184 -0.229449 0.348847 0 -1 0
-0.273741 0.0713842 0.342519 0 -1 0
0.355047 0.0413058 0.346192 0 0 -1
-0.0613903 0.129077 0.358939 0 0 1
-0.286459 -0.0911015 0.34612 0 -1 0
0.139429 0.199338 0.346192 0 0 -1
-0.0262352 -0.0901745 0.358939 0 0 1
0.00302535 -0.0591367 0.358939 0 0 1
0.367871 0.078285 0.331579 0 0 -1
0.106243 0.0713842 0.338165 0 -1 0
-0.22985 0.0713842 0.341312 0 -1 0
0.25114 0.00591763 0.358939 0 0 1
0.27163 -0.117596 0.346192 0 0 -1
0.0119581 0.0713842 0.344993 0 -1 0
-0.100294 0.163182 0.346192 0 0 -1
-0.129432 -0.155929 0.346192 0 0 -1
0.127972 -0.214467 0.358939 0 0 1
0.227849 0.116503 0.358939 0 0 1
-0.284306 -0.0621567 0.358939 0 0 1
-0.102156 0.0539057 0.346192 0 0 -1
-0.35943 -0.0895306 0.331579 0 0 -1
-0.369316 0.174064 0.112079 0.707394 -0.706431 -0.0234411
0.386858 0.0822366 0.315028 0.999891 -0.0147582 -0.000548326
-0.204809 0.183088 0.358939 0 0 1
0.0116925 0.153165 0.346192 0 0 -1
0.0641949 -0.214673 0.357868 -0.461775 -0.535005 0.707484
-0.00115269 -0.176864 0.358939 0 0 1
-0.373445 -0.0374884 0.346192 0 0 -1
0.0347526 -0.0888969 0.358939 0 0 1
-0.383589 0.182544 0.26649 -0.707233 0.706594 0.023376
0.153988 0.150895 0.358939 0 0 1
-0.16709 0.0847987 0.331579 0 0 -1
0.313239 -0.117826 0.346192 0 0 -1
-0.184838 -0.0713842 0.345134 0 1 0
-0.354684 -0.0728554 0.358939 0 0 1
-0.0918809 0.0655982 0.358939 0 0 1
0.370349 -0.181348 0.240686 -0.706819 -0.707008 0.0233809
0.191638 -0.0911015 0.333146 0 -1 0
-0.00509461 0.197614 0.358939 0 0 1
-0.0633771 0.193976 0.346192 0 0 -1
0.131731 0.117952 0.346192 0 0 -1
-0.384087 -0.167617 0.228412 -0.706912 0.706912 -0.0234438
0.309368 0.00773969 0.346192 0 0 -1
-0.368754 0.189116 0.0143251 0.706894 0.706894 0.0245389
0.272574 -0.0841492 0.331579 0 0 -1
0.369551 -0.0958554 0.311851 -0.699964 0.0103315 -0.714103
-0.318683 -0.118334 0.358939 0 0 1
-0.292953 0.100517 0.346192 0 0 -1
0.368985 0.189304 0.0155319 -0.706894 0.706894 0.0245389
-0.0380058 -0.127986 0.358939 0 0 1
-0.203787 0.192053 0.346192 0 0 -1
0.00748531 0.0901009 0.346192 0 0 -1
-0.171084 0.0899506 0.358939 0 0 1
0.0456302 0.187634 0.346192 0 0 -1
-0.237956 0.17024 0.346192 0 0 -1
0.0221215 -0.0713842 0.336493 0 1 0
-0.355173 0.0496893 0.346192 0 0 -1
0.202324 0.0740584 0.331579 0 0 -1
0.382914 0.190231 0.0506102 0.260702 0.964891 0.0319271
-0.241927 -0.000191173 0.358939 0 0 1
0.0660686 0.165954 0.346192 0 0 -1
0.320266 0.165748 0.346192 0 0 -1
-0.209544 0.161135 0.346192 0 0 -1
0.36041 0.111005 0.346192 0 0 -1
0.38881 -0.181438 0 0 0 -1
0.170175 -0.199204 0.358939 0 0 1
0.243063 0.221142 0.358939 0 0 1
0.264874 0.0792913 0.346192 0 0 -1
0.17997 0.213496 0.346192 0 0 -1
-0.0838877 0.143376 0.358939 0 0 1
-0.329006 -0.0830143 0.346192 0 0 -1
-0.288019 0.0709733 0.358939 0 0 1
0.389233 -0.0638603 0.346192 0 0 -1
0.0891204 -0.0324424 0.346192 0 0 -1
0.0753443 0.00649514 0.346192 0 0 -1
-0.0753119 0.0323901 0.358939 0 0 1
0.368473 -0.180712 0.145755 -0.965527 -0.26016 0.00860353
-0.152401 0.159045 0.346192 0 0 -1
0.0306592 0.103074 0.358939 0 0 1
0.160958 -0.151604 0.358939 0 0 1
-0.120182 -0.0713842 0.33289 0 1 0
0.382472 -0.187582 0.134288 0.260405 -0.964972 0.0319238
-0.150744 0.191145 0.358939 0 0 1
-0.181551 -0.048312 0.346192 0 0 -1
0.0835772 0.201295 0.358939 0 0 1
-0.385559 0.196519 0.358939 0 0 1
-0.175704 -0.0938371 0.346192 0 0 -1
0.14347 -0.107968 0.358939 0 0 1
0.0921616 -0.0911015 0.331829 0 -1 0
-0.370239 0.170673 0.186395 0.707394 -0.706431 -0.0234411
-0.369485 -0.0581187 0.328072 0.99989 0.014821 0
0.308555 -0.203083 0.346192 0 0 -1
0.224405 -0.0394495 0.358939 0 0 1
-0.372089 0.186449 0.139097 0.707233 0.706594 0.023376
0.382688 -0.167546 0.197268 0.260879 0.964841 -0.0319977
-0.0373451 0.224943 0.358939 0 0 1
-0.386523 0.181303 0.215288 -0.706912 0.706915 0.0233778
0.387449 0.175983 0.12935 0.96548 -0.260334 -0.00863852
0.292713 -0.14351 0.358939 0 0 1
-0.372731 0.172071 0.0269185 0.26445 -0.963799 -0.034024
-0.11223 -0.02976 0.358939 0 0 1
-0.382738 0.0348679 0.331579 0 0 1
-0.379897 0.168923 0.0909487 -0.256496 -0.965964 -0.0335322
0.286243 0.0138439 0.346192 0 0 -1
-0.2609 0.0911015 0.334977 0 1 0
0.377485 -0.17143 0.008131 -0.264493 0.963787 -0.0340236
-0.30052 -0.167227 0.346192 0 0 -1
-0.16159 -0.16107 0.346192 0 0 -1
0.134045 -0.0677456 0.358939 0 0 1
-0.0462328 -0.17846 0.348537 0 -1 0
-0.13173 -0.11884 0.358939 0 0 1
-0.0599264 -0.0977277 0.358939 0 0 1
-0.361267 -0.0753871 0.331579 0 0 -1
-0.265484 -0.0657267 0.358939 0 0 1
-0.37821 0.192796 0.050963 -0.256496 0.965964 0.0335211
0.0445862 0.229449 0.350185 0 1 0
-0.263846 -0.0136394 0.346192 0 0 -1
-0.356574 -0.0248092 0.358939 0 0 1
0.384222 -0.1819 0.266865 0.706819 -0.707008 0.0233809
0.178124 0.0392412 0.358939 0 0 1
0.143858 -0.0385732 0.346192 0 0 -1
0.370638 0.134916 0.311184 0 0 -1
0.202846 0.0559561 0.346192 0 0 -1
-0.335277 -0.111648 0.346192 0 0 -1
-0.369011 -0.169736 0.264909 0.965433 0.260507 -0.00864427
-0.407909 -0.14037 0.356038 -1 0 0
-0.249169 -0.113235 0.346192 0 0 -1
0.16211 0.0769877 0.358939 0 0 1
-0.372455 -0.172536 0.0159008 0.26445 0.963799 -0.034024
0.257912 0.121607 0.358939 0 0 1
-0.249084 -0.148967 0.358939 0 0 1
0.386845 0.182367 0.171037 0.965527 0.26016 0.00860353
0.37558 -0.0393879 0.358939 0 0 1
0.336233 0.206144 0.346192 0 0 -1
-0.387077 -0.159405 0.346192 0 0 -1
0.329443 -0.196812 0.346192 0 0 -1
0.24338 -0.0524849 0.346192 0 0 -1
0.284739 0.0350339 0.346192 0 0 -1
0.175942 0.128011 0.346192 0 0 -1
-0.127449 0.138871 0.358939 0 0 1
0.00646158 0.18898 0.346192 0 0 -1
0.385818 0.139225 0.346192 0 0 -1
-0.381842 0.172359 0.00776557 -0.26445 -0.963799 -0.034024
0.191927 -0.0288523 0.346192 0 0 -1
-0.348495 -0.0586386 0.346192 0 0 -1
0.242648 0.207046 0.346192 0 0 -1
-0.390708 -0.0106762 0.358939 0 0 1
-0.374566 -0.168096 0.170363 0.260879 0.964841 -0.0319977
-0.289312 0.210504 0.346192 0 0 -1
0.261033 -0.229449 0.347906 0 -1 0
0.401457 0.171365 0.358939 0 0 1
0.35352 0.161016 0.346192 0 0 -1
-0.387483 -0.0849376 0.331579 0 0 -1
-0.126708 0.16375 0.346192 0 0 -1
0.164336 0.000927139 0.346192 0 0 -1
-0.291257 -0.0498331 0.346192 0 0 -1
0.105647 0.169851 0.346192 0 0 -1
-0.0785418 -0.0389877 0.358939 0 0 1
0.10296 -0.158289 0.346192 0 0 -1
-0.387064 -0.182909 0.0399228 0.00285188 -0.0392069 -0.999227
0.043662 -0.0780542 0.358939 0 0 1
0.372122 0.170993 0.119985 -0.706819 -0.707006 -0.0234469
-0.0126309 0.0251803 0.358939 0 0 1
0.0900189 0.0911015 0.333443 0 1 0
-0.144352 0.0529722 0.346192 0 0 -1
-0.268093 0.224376 0.346192 0 0 -1
-0.379828 0.185397 0.346192 0 0 -1
-0.336652 -0.139311 0.358939 0 0 1
-0.367225 0.0907911 0.346192 0 0 1
0.00345441 -0.0231903 0.346192 0 0 -1
-0.388186 -0.171848 0.324503 -0.999891 0.0147641 -0.000548544
-0.351698 0.163578 0.358939 0 0 1
0.389339 -0.181481 0.0668994 0.965877 -0.258852 0.00883036
0.388172 -0.172925 0.307822 0.965441 -0.26048 0.00860767
0.0630489 0.180416 0.358939 0 0 1
-0.388423 -0.124294 0.346192 0 0 -1
0.118159 0.0986629 0.346192 0 0 -1
-0.381605 0.191232 0.0700264 -0.25665 0.965923 0.0335306
0.0688204 -0.159115 0.346192 0 0 -1
0.371988 -0.114725 0.346192 0 0 -1
0.133816 0.0416656 0.358939 0 0 1
0.112843 0.213265 0.346192 0 0 -1
0.176042 -0.0537464 0.346192 0 0 -1
0.347483 -0.134893 0.358939 0 0 1
-0.369338 -0.174329 0.0485587 0.702509 0.711247 -0.0246735
0.33856 -0.177802 0.358939 0 0 1
-0.198548 0.0839256 0.346192 0 0 1
-0.100447 -0.120022 0.346192 0 0 -1
0.236127 0.0408484 0.346192 0 0 -1
-0.0925366 -0.0613326 0.346192 0 0 -1
0.393756 0.00940766 0.346192 0 0 -1
-0.385232 -0.167132 0.277565 -0.706912 0.706912 -0.0234438
0.178026 -0.105612 0.346192 0 0 -1
0.393104 -0.216089 0.358939 0 0 1
0.0535323 0.133491 0.346192 0 0 -1
0.363824 0.0911015 0.341576 0 1 0
0.23917 0.140328 0.358939 0 0 1
0.0929358 0.183693 0.358939 0 0 1
0.014921 -0.107245 0.346192 0 0 -1
0.229621 -0.217799 0.346192 0 0 -1
0.380695 -0.160934 0.331579 0 0 1
0.173803 -0.0236466 0.358939 0 0 1
0.120121 -0.147388 0.346192 0 0 -1
0.267979 -0.0882869 0.358939 0 0 1
0.0119253 -0.0681502 0.346192 0 0 -1
-0.0616169 0.183297 0.358939 0 0 1
0.31957 0.214249 0.346192 0 0 -1
0.191741 0.224759 0.358939 0 0 1
-0.331034 0.0466402 0.346192 0 0 -1
0.374592 0.171287 0.00200453 -0.259148 -0.965715 0.0153901
-0.246071 -0.172423 0.358939 0 0 1
-0.305404 0.221366 0.346192 0 0 -1
0.0200119 0.110321 0.346192 0 0 -1
0.387484 0.124714 0.313436 0.999891 -0.0147582 -0.000548326
0.0329606 0.202358 0.346192 0 0 -1
0.107734 -0.00372126 0.358939 0 0 1
0.261434 0.191796 0.358939 0 0 1
0.0827786 -0.082469 0.346192 0 0 -1
0.384462 0.170913 0.0835713 0.706971 -0.706802 -0.0249515
-0.386879 -0.189235 0.0211421 -0.706894 -0.706894 0.0245389
0.375916 -0.170204 0.0957979 -0.260926 0.964828 -0.0319973
0.247606 0.0555702 0.358939 0 0 1
0.37314 0.175388 0.0364932 -0.706954 -0.706694 -0.028274
0.324318 -0.0911015 0.343467 0 -1 0
0.270095 0.094703 0.358939 0 0 1
-0.0896691 0.114387 0.358939 0 0 1
-0.386385 -0.0501328 0.327022 -0.99989 0.014821 0
0.0243322 0.0911015 0.341479 0 1 0
-0.13722 0.154365 0.358939 0 0 1
0.177882 -0.124955 0.346192 0 0 -1
0.383024 0.169029 0.155288 0.260879 -0.964841 -0.0319977
0.204564 -0.124984 0.358939 0 0 1
0.0398768 -0.158699 0.358939 0 0 1
-0.238853 0.0452711 0.358939 0 0 1
-0.0649451 0.0813415 0.358939 0 0 1
-0.00585366 0.137701 0.358939 0 0 1
0.297718 -0.18146 0.358939 0 0 1
-0.368141 -0.149274 0.313512 0.999891 0.0147641 -0.000548544
0.297653 0.0334093 0.358939 0 0 1
0.378536 0.186797 0.190152 0.260702 0.964891 0.0319271
0.224817 0.188656 0.346192 0 0 -1
0.0837535 0.154471 0.358939 0 0 1
-0.367982 0.17474 0.271539 0.965394 0.260654 0.0086134
-0.315041 0.0551658 0.346192 0 0 -1
-0.132191 0.189161 0.346192 0 0 -1
-0.356474 -0.00757401 0.346192 0 0 -1
0.369025 0.108122 0.330564 -0.679639 -0.0100701 0.733477
0.363558 -0.139034 0.358939 0 0 1
0.399189 0.151429 0.358939 0 0 1
-0.369 0.17371 0.075941 0.706971 -0.706802 -0.0249515
0.378552 -0.190926 0.0402004 0.00924613 -0.0350642 -0.999342
0.296581 -0.107059 0.346192 0 0 -1
-0.322951 0.00318518 0.346192 0 0 -1
-0.128703 -0.0117246 0.358939 0 0 1
0.0205643 -0.154447 0.346192 0 0 -1
0.147184 0.0618209 0.346192 0 0 -1
0.321079 0.130293 0.346192 0 0 -1
0.398634 -0.0876679 0.358939 0 0 1
0.0937437 -0.215244 0.346192 0 0 -1
0.347571 -0.0829856 0.358939 0 0 1
0.0687651 -0.00619293 0.358939 0 0 1
0.33677 0.161328 0.358939 0 0 1
0.369872 -0.168641 0.258744 -0.7073 0.706524 -0.0234442
-0.313739 0.0911015 0.345442 0 1 0
0.0462036 -0.0610386 0.346192 0 0 -1
0.107667 -0.182002 0.346192 0 0 -1
0.401794 0.0484476 0.358939 0 0 1
0.373989 -0.166841 0.21293 -0.260926 0.964828 -0.0319973
0.368576 -0.119859 0.314355 -0.999891 0.0147584 -0.000548332
-0.132944 0.0584346 0.358939 0 0 1
-0.343381 0.127803 0.346192 0 0 -1
-0.202233 0.0713842 0.335318 0 -1 0
-0.368976 -0.169214 0.284617 0.965905 0.258756 -0.00855067
-0.32838 0.154196 0.346192 0 0 -1
-0.170858 0.124547 0.358939 0 0 1
-0.138234 -0.135777 0.358939 0 0 1
0.30658 0.189689 0.346192 0 0 -1
-0.33681 0.0911015 0.341833 0 1 0
0.209748 -0.0684081 0.358939 0 0 1
0.370132 0.0144176 0.321375 -0.99989 -0.0148153 0
0.404378 0.109745 0.358939 0 0 1
0.355878 0.0722889 0.346192 0 0 -1
-0.265158 0.179101 0.346192 0 0 -1
0.0658847 0.0873825 0.346192 0 0 1
0.374589 0.187917 0.132917 -0.260452 0.964959 0.0319234
-0.170244 0.0160034 0.358939 0 0 1
-0.38594 0.165844 0.358939 0 0 1
0.375364 0.188886 0.10996 -0.260749 0.964878 0.0319267
-0.215201 -0.0125633 0.346192 0 0 -1
0.305063 0.229449 0.348396 0 1 0
-0.254242 0.0373515 0.358939 0 0 1
-0.387343 -0.114893 0.32079 -0.999891 0.0147641 -0.000548544
-0.0489538 -0.0955583 0.346192 0 0 -1
-0.371908 -0.185113 0.174013 0.707233 -0.706594 0.023376
0.369785 -0.186801 0.0587502 -0.707139 -0.706688 0.0233791
-0.343825 -0.165432 0.358939 0 0 1
0.16143 -0.0549079 0.346192 0 0 -1
-0.276369 -0.0228572 0.358939 0 0 1
0.150028 -0.146511 0.346192 0 0 -1
0.151446 -0.194177 0.358939 0 0 1
-0.0609789 -0.0239728 0.346192 0 0 -1
0.115712 0.0532404 0.358939 0 0 1
0.244745 -0.0200889 0.358939 0 0 1
0.293975 0.147285 0.358939 0 0 1
0.354765 -0.208214 0.358939 0 0 1
0.186923 -0.174666 0.346192 0 0 -1
0.0750141 0.209665 0.346192 0 0 -1
0.366989 -0.182436 0.0761099 -0.965834 -0.259012 0.00883582
-0.368382 0.17433 0.326977 0.965385 0.260651 0.00968398
0.0213722 -0.0835404 0.346192 0 0 -1
0.332459 0.0221452 0.346192 0 0 -1
-0.385431 0.0244745 0.346192 0 0 -1
-0.182459 -0.154329 0.346192 0 0 -1
-0.386545 -0.0721815 0.346192 0 0 -1
-0.012297 -0.0687452 0.346192 0 0 -1
-0.0067378 0.117916 0.346192 0 0 -1
-0.121991 -0.0741912 0.358939 0 0 1
-0.110801 0.0899445 0.346192 0 0 1
0.325506 0.142105 0.358939 0 0 1
-0.31271 0.0755791 0.331579 0 0 -1
0.0112789 0.0676642 0.358939 0 0 1
-0.407909 0.197663 0.354201 -1 0 0
-0.293903 0.0838227 0.346192 0 0 1
0.265127 -0.179477 0.346192 0 0 -1
-0.0244727 -0.163613 0.358939 0 0 1
-0.368339 -0.178008 0.0906843 0.965433 0.260507 -0.00864427
-0.238713 0.211438 0.358939 0 0 1
0.318623 -0.168882 0.358939 0 0 1
-0.385667 -0.00165547 0.315887 -0.99989 0.014821 0
0.21546 0.0195277 0.346192 0 0 -1
-0.369919 -0.0660762 0.358939 0 0 1
0.387381 0.198596 0.358939 0 0 1
-0.287611 0.157995 0.358939 0 0 1
-0.386317 -0.175197 0.0671832 -0.707394 0.706431 -0.0234411
0.276622 -0.193562 0.358939 0 0 1
-0.402482 0.0259384 0.358939 0 0 1
0.153896 -0.0848505 0.331579 0 0 -1
-0.382734 -0.0657932 0.311184 0 0 -1
0.387035 -0.0939796 0.330059 0.99989 0.0148151 0
0.257605 -0.0933102 0.346192 0 0 -1
0.191083 0.146909 0.346192 0 0 -1
-0.0821282 0.10239 0.346192 0 0 -1
-0.0873869 0.182346 0.358939 0 0 1
0.280517 0.113169 0.346192 0 0 -1
0.0297476 -0.172166 0.346192 0 0 -1
-0.160688 -0.105712 0.346192 0 0 -1
-0.237982 -0.146455 0.346192 0 0 -1
-0.248578 0.188046 0.346192 0 0 -1
-0.182742 0.223316 0.358939 0 0 1
0.372167 0.172564 0.0186847 -0.706971 -0.706802 -0.0249515
-0.153304 0.13814 0.358939 0 0 1
0.360484 0.216894 0.358939 0 0 1
-0.154043 -0.0722085 0.346192 0 0 1
0.0959059 -0.0481218 0.346192 0 0 -1
0.309745 0.112192 0.358939 0 0 1
-0.255286 0.137434 0.358939 0 0 1
0.243033 -0.154047 0.358939 0 0 1
0.0993918 -0.0927307 0.358939 0 0 1
-0.133174 -0.17846 0.353352 0 -1 0
0.144154 0.164737 0.358939 0 0 1
-0.231207 0.143725 0.358939 0 0 1
-0.367189 -0.122983 0.358939 0 0 1
0.264585 0.0547395 0.358939 0 0 1
-0.311538 -0.0713842 0.332387 0 1 0
-0.186423 -0.105766 0.346192 0 0 -1
-0.303062 -0.0878684 0.346192 0 0 1
0.262062 -0.0653848 0.358939 0 0 1
0.296836 -0.229449 0.348555 0 -1 0
-0.139484 -0.0288514 0.346192 0 0 -1
0.04691 -0.174095 0.358939 0 0 1
-0.305113 -0.137486 0.346192 0 0 -1
0.292751 0.0894657 0.346192 0 0 1
0.203095 0.110409 0.358939 0 0 1
0.289794 -0.0714348 0.346192 0 0 -1
-0.369692 0.0825611 0.308964 0.657553 0.210724 -0.723339
-0.378084 -0.004008 0.346192 0 0 -1
-0.282908 0.186954 0.346192 0 0 -1
0.0588512 0.0794523 0.358939 0 0 1
0.165734 -0.0926609 0.346192 0 0 -1
-0.0824377 0.162756 0.346192 0 0 -1
0.0500472 -0.0202714 0.358939 0 0 1
0.338594 -0.229397 0.357457 0 -0.672646 0.739964
0.363476 -0.229449 0.35002 0 -1 0
0.385155 -0.0806852 0.308634 0 0 -1
0.156908 0.1241 0.346192 0 0 -1
0.0168875 0.0267889 0.346192 0 0 -1
0.325539 0.119756 0.358939 0 0 1
-0.0291866 0.081329 0.346192 0 0 1
-0.05051 0.014431 0.346192 0 0 -1
0.407286 0.0802076 0.347098 0.707334 0 -0.706879
-0.31354 0.178786 0.358939 0 0 1
0.06589 -0.0442381 0.358939 0 0 1
-0.387789 0.174115 0.314542 -0.965384 0.260651 0.00968401
0.210988 0.177647 0.346192 0 0 -1
0.135928 -0.0713842 0.341247 0 1 0
0.214976 -0.0874667 0.346192 0 0 -1
0.321907 0.0993127 0.358939 0 0 1
0.118318 0.0236785 0.346192 0 0 -1
-0.10466 0.196476 0.358939 0 0 1
-0.392539 0.0507411 0.346192 0 0 -1
0.304025 0.143422 0.346192 0 0 -1
-0.374069 0.188257 0.0291128 0.707346 0.706019 0.034611
0.388612 -0.114795 0.346192 0 0 -1
-0.0774026 0.0430319 0.346192 0 0 -1
0.230399 0.00108195 0.358939 0 0 1
0.12252 -0.0231881 0.358939 0 0 1
0.196648 -0.0967802 0.346192 0 0 -1
-0.0751834 -0.163043 0.346192 0 0 -1
-0.368584 0.118892 0.325238 0.99989 -0.014821 0
-0.384764 -0.181522 0.261895 -0.706912 -0.706915 0.0233778
-0.0573086 -0.129791 0.346192 0 0 -1
0.365106 -0.0598331 0.346192 0 0 -1
0.377349 -0.0142163 0.311184 0 0 -1
-0.37699 -0.153718 0.358939 0 0 1
0.159042 0.160182 0.346192 0 0 -1
0.219269 -0.181831 0.346192 0 0 -1
0.222719 -0.052838 0.346192 0 0 -1
-0.375464 -0.188151 0.132972 0.260702 -0.964891 0.0319272
-0.367797 -0.175416 0.230262 0.965394 -0.260654 0.0086134
0.109959 -0.105402 0.358939 0 0 1
-0.176871 0.101334 0.346192 0 0 -1
0.1086 -0.1188 0.346192 0 0 -1
-0.208215 0.0605748 0.346192 0 0 -1
