0.0477753 -0.247823 0.561176 0 0 -1
-0.241596 -0.236919 0.498554 0 0 1
-0.354057 0.0230424 0.561176 0 0 -1
0.338897 0.198536 0.585416 0 0 1
-0.209328 -0.230814 0.508832 0.707105 -0.707109 0
0.138036 -0.285157 0.585416 0 0 1
0.117352 -0.106827 0.504614 0 0 -1
0.349949 -0.15822 0.561176 0 0 -1
0.250631 -0.271784 0.019796 0.369093 -0.929392 0
-0.270459 -0.253361 0.294524 -0.929347 -0.369208 0
0.149644 0.22664 0.561176 0 0 -1
0.0218872 -0.0396797 0.585416 0 0 1
-0.0694473 -0.236697 0.561176 0 0 -1
0.15101 0.281887 0.585416 0 0 1
-0.0749953 -0.0698236 0.585416 0 0 1
0.264086 0.236227 0.0218168 0 0 -1
0.243516 -0.21466 0.0121204 0 0 -1
0.282758 -0.149368 0.585416 0 0 1
-0.000836134 0.0181943 0.504614 0 0 -1
0.262295 -0.261738 0.475279 0.748077 -0.663612 0
-0.226282 0.204703 0.585416 0 0 1
-0.283188 -0.00340774 0.561176 0 0 -1
0.219571 0.248055 0.585416 0 0 1
-0.254629 -0.26926 0.424918 -0.475719 -0.879597 0
0.251802 0.231098 0.0218168 0 0 -1
-0.269898 -0.0668673 0.585416 0 0 1
-0.0728082 -0.170864 0.585416 0 0 1
0.22822 -0.213639 0.382968 -0.475058 0.879954 0
-0.242953 -0.211241 0.0820995 -0.0871196 0.996198 0
0.236583 0.211431 0.403153 -0.0287589 -0.999586 0
-0.231438 0.252917 0.509637 0.707099 0.707114 0
0.232891 0.225843 0.0218168 0 0 1
0.181047 -0.195543 0.585416 0 0 1
-0.111415 0.266684 0.585416 0 0 1
0.285994 -0.181705 0.585416 0 0 1
0.280755 -0.225337 0.585416 0 0 1
0.214958 -0.224828 0.341319 -0.818697 0.574226 0
-0.102148 -0.0552618 0.585416 0 0 1
-0.324739 -0.238905 0.570455 -0.76605 -0.642781 0
-0.0697486 0.218042 0.585416 0 0 1
-0.38195 0.0795629 0.585416 0 0 1
0.269583 0.247566 0.0975558 0.966164 0.257929 0
-0.0986089 0.0592397 0.585416 0 0 1
0.0400104 -0.331027 0.561176 0 0 -1
-0.102834 0.102975 0.504614 0 0 -1
0.0685317 -0.264731 0.561176 0 0 -1
0.248004 0.250746 0.0218168 0 0 1
-0.119752 0.0391923 0.561176 0 0 -1
-0.272445 -0.246786 0.439174 -0.989483 -0.144647 0
-0.251883 0.270162 0.0438726 -0.259269 0.965805 0
0.218386 -0.218572 0.0121204 0 0 1
0.155952 -0.369378 0.561176 0 0 -1
0.200004 0.00178737 0.585416 0 0 1
0.270212 -0.240182 0.359745 0.999571 -0.0292895 0
0.144843 -0.155292 0.585416 0 0 1
0.0963556 -0.00920982 0.561176 0 0 -1
0.219098 -0.263029 0.414683 -0.706397 -0.707816 0
-0.230072 0.268705 0.45636 0.422715 0.906263 0
-0.101036 0.0866546 0.561176 0 0 -1
0.180263 0.009574 0.585416 0 0 1
-0.224651 -0.265446 0.30851 0.620872 -0.783912 0
-0.215441 0.111251 0.561176 0 0 -1
0.210237 -0.245746 0.392293 -0.996118 -0.0880239 0
0.270052 0.245821 0.561176 0 0 -1
0.262116 0.261936 0.433096 0.748578 0.663047 0
-0.146065 -0.167552 0.509068 0.707105 -0.707109 0
0.212006 -0.230551 0.421553 -0.929366 0.36916 0
-0.219083 -0.159865 0.561176 0 0 -1
-0.0508873 -0.305969 0.561176 0 0 -1
-0.257911 -0.215395 0.0341047 -0.525463 0.850816 0
-0.226098 -0.147504 0.585416 0 0 1
-0.241497 0.152734 0.561176 0 0 -1
-0.122574 0.0735396 0.585416 0 0 1
0.11864 -0.197538 0.585416 0 0 1
0.376276 0.135677 0.582655 0.939687 0.342036 0
0.167234 -0.191467 0.530781 -0.707114 -0.7071 0
0.326188 -0.185809 0.585416 0 0 1
0.208102 0.298755 0.585416 0 0 1
-0.145008 0.0958977 0.585416 0 0 1
0.269511 -0.235229 0.459606 0.979174 0.203023 0
-0.112985 -0.0971701 0.536935 0 0 1
0.0244343 -0.152242 0.585416 0 0 1
0.13129 -0.0862517 0.561176 0 0 -1
-0.204689 0.127743 0.561176 0 0 -1
-0.212718 0.240864 0.249501 0.999571 -0.0292917 0
-0.212716 -0.231013 0.504614 0 0 1
0.260285 0.157544 0.585416 0 0 1
0.0351776 0.232459 0.561176 0 0 -1
-0.266089 -0.242306 0.0121204 0 0 1
-0.22067 -0.221052 0.27373 0.747722 0.664012 0
0.270248 -0.238925 0.240214 0.999571 -0.0292895 0
0.37589 -0.0158437 0.585416 0 0 1
0.211225 0.232516 0.0350885 -0.929327 -0.369258 0
0.260669 0.181656 0.561176 0 0 -1
-0.244457 -0.218385 0 0 0 -1
0.252625 0.161798 0.561176 0 0 -1
-0.193647 0.169474 0.561176 0 0 -1
-0.267876 0.258814 0 0 0 -1
-0.239303 -0.0340514 0.561176 0 0 -1
0.10216 -0.333724 0.561176 0 0 -1
-0.241437 -0.211222 0.0579885 0.144867 0.989451 0
-0.401754 0.050656 0.575842 -0.973056 0.23057 0
-0.273003 0.242956 0.0892324 -0.98951 0.144464 0
0.302155 -0.179984 0.561176 0 0 -1
0.265578 -0.225183 0.295699 0.784003 0.620756 0
0.235765 -0.266931 0.561176 0 0 -1
0.186503 -0.170327 0.504614 0 0 -1
-0.0419429 -0.25862 0.585416 0 0 1
-0.225545 -0.229766 0.0218168 0 0 1
0.216942 -0.263713 0.00898303 -0.705974 -0.708238 0
-0.268037 -0.135546 0.585416 0 0 1
-0.227 -0.215768 0.297015 0.573664 0.819091 0
-0.239545 -0.271494 0.255933 0.202038 -0.979378 0
0.0429868 0.219192 0.561176 0 0 -1
0.230365 0.26993 0.282705 -0.314862 0.949137 0
-0.0732032 0.342483 0.561176 0 0 -1
-0.264186 0.262696 0.0434842 -0.664425 0.747355 0
-0.24197 0.219283 0.504614 0 0 1
-0.22446 -0.333793 0.585416 0 0 1
-0.0126939 0.200244 0.585416 0 0 1
0.0516766 0.260283 0.561176 0 0 -1
0.0465847 -0.203345 0.561176 0 0 -1
-0.188793 0.118717 0.585416 0 0 1
-0.0950758 0.113296 0.561176 0 0 -1
0.153541 -0.260694 0.585416 0 0 1
0.211327 0.23226 0.176581 -0.929327 -0.369258 0
0.0537387 -0.274821 0.561176 0 0 -1
-0.124645 -0.100421 0.53481 -0.707108 0.707105 0
-0.0284951 -0.0401955 0.504614 0 0 -1
0.13646 -0.181036 0.585416 0 0 1
0.136813 -0.161045 0.521855 -0.707114 -0.7071 0
-0.191839 0.232152 0.561176 0 0 -1
-0.0642565 0.106343 0.585416 0 0 1
0.257522 0.265961 0.260513 0.572632 0.819812 0
0.23208 0.270499 0.209049 -0.314862 0.949137 0
-0.0998607 0.286767 0.561176 0 0 -1
-0.295815 -0.0852403 0.561176 0 0 -1
-0.230694 0.253074 0.504614 0 0 -1
0.0592435 0.0834688 0.521023 -0.707108 0.707105 0
-0.378967 -0.00670066 0.585416 0 0 1
0.216267 -0.260187 0.392493 -0.851742 -0.523961 0
-0.219312 0.222574 0.185143 0.747157 -0.664648 0
-0.190861 0.262069 0.585416 0 0 1
0.0713745 0.0065446 0.561176 0 0 -1
0.103576 0.0820883 0.535506 0.707105 -0.707109 0
0.0894886 -0.195576 0.561176 0 0 -1
-0.104125 -0.0799008 0.517676 -0.707108 0.707105 0
0.163705 -0.181554 0.536935 0 0 1
-0.241556 -0.245482 0.0218168 0 0 -1
-0.040277 0.284789 0.585416 0 0 1
0.248741 0.255076 0.504614 0 0 -1
0.176601 0.200827 0.504636 -0.707108 0.707105 0
-0.332617 0.203927 0.561176 0 0 -1
-0.0863478 0.348715 0.561176 0 0 -1
0.111519 0.239036 0.585416 0 0 1
-0.294834 0.194721 0.585416 0 0 1
0.270208 0.240309 0.393001 0.999571 0.0292854 0
-0.0643845 0.204684 0.561176 0 0 -1
-0.226936 -0.267245 0.109532 0.422596 -0.906318 0
-0.128177 -0.0352396 0.561176 0 0 -1
0.210191 -0.23774 0.268631 -0.989507 0.144484 0
-0.234681 -0.258462 0.0121204 0 0 -1
0.289833 -0.0217622 0.585416 0 0 1
-0.0338176 0.260891 0.585416 0 0 1
0.25459 -0.268011 0.177459 0.572823 -0.819679 0
0.399325 0.0103769 0.585416 0 0 1
-0.0573725 -0.0894425 0.585416 0 0 1
0.00412673 -0.219895 0.561176 0 0 -1
0.269987 -0.237523 0.18058 0.979174 0.203023 0
-0.2623 -0.218374 0.356379 -0.706395 0.707818 0
0.163934 -0.153017 0.504614 0 0 -1
0.21153 0.250983 0.176212 -0.949208 0.314649 0
0.245734 0.224364 0.585416 0 0 1
0.224191 -0.265124 0 0 0 -1
-0.231646 -0.213489 0.203281 0.369504 0.929229 0
0.264312 -0.259464 0.126836 0.748077 -0.663612 0
0.000777446 0.0515674 0.585416 0 0 1
-0.189142 -0.242793 0.561176 0 0 -1
0.237664 -0.118189 0.585416 0 0 1
0.323289 0.15246 0.585416 0 0 1
0.240318 -0.211324 0.204631 -0.0287589 0.999586 0
0.249851 0.212794 0.219942 0.422715 -0.906263 0
0.247595 0.212264 0.0252699 0.201902 -0.979406 0
-0.268173 -0.271446 0.561176 0 0 -1
-0.138926 -0.0956541 0.585416 0 0 1
-0.308145 -0.144205 0.561176 0 0 -1
-0.00389878 0.38808 0.561176 0 0 -1
0.199826 0.332401 0.561176 0 0 -1
-0.212819 -0.245018 0.143616 0.979174 -0.203024 0
-0.26223 0.220104 0.0218168 0 0 -1
-0.238741 -0.211616 0.0383494 0.144867 0.989451 0
0.111565 -0.140647 0.585416 0 0 1
-0.272988 0.243058 0.43605 -0.98951 0.144464 0
0.225436 0.304595 0.585416 0 0 1
-0.0166843 -0.274564 0.585416 0 0 1
-0.185479 0.065631 0.561176 0 0 -1
-0.249299 0.241945 0.504614 0 0 -1
-0.261184 0.217416 0.308662 -0.525671 -0.850688 0
0.0709279 -0.372571 0.585416 0 0 1
0.230399 0.212869 0.216063 -0.258211 -0.966089 0
0.242126 -0.271557 0.451614 0.14487 -0.989451 0
0.21104 -0.232984 0.285503 -0.929366 0.36916 0
0.365417 -0.164799 0.585416 0 0 1
-0.0613518 0.206586 0.585416 0 0 1
-0.235272 -0.260954 0.561176 0 0 -1
0.182894 0.32085 0.561176 0 0 -1
0.0917132 -0.115944 0.508403 -0.707114 -0.7071 0
-0.121006 -0.142493 0.5186 0.707105 -0.707109 0
0.00932996 0.0983868 0.585416 0 0 1
0.25601 0.221047 0.561176 0 0 -1
0.104146 -0.259364 0.585416 0 0 1
0.294277 0.021727 0.561176 0 0 -1
-0.248771 0.0815119 0.585416 0 0 1
-0.194436 0.043762 0.585416 0 0 1
-0.0088551 -0.0186337 0.561176 0 0 -1
0.180585 -0.159098 0.508685 0.707099 0.707114 0
0.143736 -0.162009 0.561176 0 0 -1
-0.272295 0.247806 0.35023 -0.98951 0.144464 0
-0.169353 -0.073712 0.561176 0 0 -1
0.256531 0.266653 0.0231602 0.572632 0.819812 0
0.0327848 -0.069014 0.585416 0 0 1
-0.193799 0.326009 0.561176 0 0 -1
0.118296 0.306151 0.561176 0 0 -1
-0.0789441 -0.308834 0.561176 0 0 -1
-0.21629 0.313182 0.585416 0 0 1
0.209327 0.184393 0.585416 0 0 1
0.221517 -0.264126 0.504614 0 0 1
-0.284669 0.163347 0.585416 0 0 1
0.0427136 -0.0284348 0.504614 0 0 -1
-0.182573 0.277236 0.585416 0 0 1
0.0060412 -0.390297 0.585416 0 0 1
-0.23453 -0.212342 0.0403426 0.369504 0.929229 0
-0.375174 -0.0210159 0.585416 0 0 1
-0.217401 0.257825 0.204843 0.784115 0.620616 0
0.10941 -0.116009 0.585416 0 0 1
-0.111643 -0.323797 0.585416 0 0 1
0.0711171 0.0953425 0.527364 -0.707108 0.707105 0
-0.347456 -0.205004 0.572541 -0.893622 -0.44882 0
-0.15604 0.330222 0.561176 0 0 -1
0.265847 -0.257036 0.415641 0.879604 -0.475706 0
0.199422 -0.115988 0.585416 0 0 1
-0.0222336 0.40296 0.585416 0 0 1
0.268123 -0.230405 0.12466 0.906591 0.422011 0
-0.178678 -0.164523 0.585416 0 0 1
-0.244369 -0.211365 0.370276 -0.0871196 0.996198 0
0.00647717 -0.344806 0.561176 0 0 -1
0.141884 0.130919 0.585416 0 0 1
-0.332541 -0.204936 0.585416 0 0 1
0.232595 -0.212285 0.38298 -0.259271 0.965805 0
0.160689 -0.286724 0.585416 0 0 1
-0.187781 -0.170104 0.504614 0 0 -1
0.237414 0.273235 0 0 0 -1
0.1661 0.0689738 0.561176 0 0 -1
0.243612 0.211443 0.161618 0.201902 -0.979406 0
-0.0393051 -0.266601 0.561176 0 0 -1
0.158284 0.180041 0.504614 0 0 -1
0.074197 -0.160643 0.561176 0 0 -1
0.226918 0.214336 0.238536 -0.475719 -0.879597 0
-0.21451 -0.238317 0.506717 0.707479 0.706734 0
-0.057252 -0.0916732 0.561176 0 0 -1
0.362853 -0.0185758 0.561176 0 0 -1
0.399881 0.0236191 0.577667 0.993231 0.116152 0
-0.219575 -0.222285 0.253221 0.747722 0.664012 0
-0.229557 0.242666 0.0121204 0 0 1
0.183977 -0.0332943 0.585416 0 0 1
0.295626 -0.195519 0.561176 0 0 -1
0.377205 0.082331 0.561176 0 0 -1
-0.272466 -0.24664 0.0840824 -0.989483 -0.144647 0
-0.271374 0.231957 0.487742 -0.948627 -0.316397 0
-0.125298 0.140717 0.561176 0 0 -1
-0.226567 -0.243882 0.0121204 0 0 -1
-0.178206 -0.235428 0.585416 0 0 1
-0.249329 -0.226569 0.0121204 0 0 -1
-0.243301 0.271532 0.108409 -0.0287589 0.999586 0
-0.184574 -0.200116 0.585416 0 0 1
0.207861 -0.182784 0.561176 0 0 -1
-0.0705974 -0.0801843 0.561176 0 0 -1
-0.255927 0.202919 0.585416 0 0 1
-0.285544 0.168913 0.585416 0 0 1
-0.112989 0.251368 0.561176 0 0 -1
-0.0128757 -0.395484 0.561176 0 0 -1
0.0280329 -0.19948 0.561176 0 0 -1
-0.138596 -0.305289 0.561176 0 0 -1
0.216138 -0.240371 0.531212 -0.707114 -0.7071 0
-0.0533533 -0.0527556 0.536935 0 0 1
0.257666 -0.21699 0.196579 0.62087 0.783913 0
-0.108541 0.0894782 0.504614 0 0 -1
0.0398298 -0.0995771 0.561176 0 0 -1
0.32682 -0.17896 0.561176 0 0 -1
0.229185 -0.207697 0.507683 0.707099 0.707114 0
-0.254236 -0.269473 0.241513 -0.475719 -0.879597 0
0.0917533 -0.198327 0.585416 0 0 1
0.049005 0.247188 0.585416 0 0 1
0.182754 0.269296 0.585416 0 0 1
-0.2269 -0.219154 0.585416 0 0 1
0.153513 -0.177746 0.521985 -0.707114 -0.7071 0
0.215128 -0.224586 0.453719 -0.818697 0.574226 0
-0.27305 -0.241781 0.192546 -0.9963 0.0859395 0
0.229519 0.219361 0 0 0 -1
-0.338185 0.0218531 0.561176 0 0 -1
0.0501154 0.0442122 0.504614 0 0 -1
0.00616992 -0.345828 0.561176 0 0 -1
-0.268959 0.22651 0.46686 -0.851884 -0.523731 0
-0.300337 -0.0287328 0.585416 0 0 1
0.000115968 0.282149 0.585416 0 0 1
-0.237317 0.270244 0.498554 0 0 -1
0.1289 0.204112 0.585416 0 0 1
-0.104031 0.0798036 0.518642 -0.707114 -0.7071 0
-0.250768 -0.245961 0.504614 0 0 1
-0.0117607 -0.187518 0.585416 0 0 1
0.246645 -0.270895 0.0607354 0.14487 -0.989451 0
0.283107 -0.0414279 0.561176 0 0 -1
0.271835 0.236564 0.504608 0.979526 -0.201316 0
0.0950976 0.0924716 0.504614 0 0 -1
0.278979 -0.0289724 0.585416 0 0 1
-0.117797 -0.120993 0.504614 0 0 -1
0.258141 0.264938 0.561176 0 0 -1
0.16423 -0.188462 0.510049 -0.707114 -0.7071 0
0.0432939 -0.388752 0.585416 0 0 1
-0.265462 0.221528 0.115711 -0.706253 -0.70796 0
-0.171018 0.0157869 0.585416 0 0 1
-0.0404761 0.00725077 0.561176 0 0 -1
0.187176 0.150153 0.561176 0 0 -1
-0.131544 -0.153031 0.524997 0.707105 -0.707109 0
0.017816 -0.262263 0.561176 0 0 -1
0.372957 0.0982423 0.585416 0 0 1
-0.0435909 0.40003 0.585034 -0.173661 0.984806 0
0.164219 0.0444662 0.561176 0 0 -1
0.338961 -0.146989 0.561176 0 0 -1
-0.056789 -0.340486 0.561176 0 0 -1
0.101572 0.326496 0.585416 0 0 1
0.115606 -0.0579377 0.585416 0 0 1
-0.211112 0.293775 0.561176 0 0 -1
0.264587 0.223931 0.139898 0.784114 -0.620617 0
-0.0309687 -0.0337691 0.504614 0 0 -1
0.0971291 -0.37257 0.585416 0 0 1
0.24655 0.231222 0.0218168 0 0 1
0.213283 0.259168 0.0140434 -0.850728 0.525607 0
0.163335 -0.101541 0.561176 0 0 -1
0.113442 0.274936 0.585416 0 0 1
-0.171817 0.287372 0.561176 0 0 -1
0.269575 0.00464597 0.585416 0 0 1
-0.0394931 -0.25846 0.585416 0 0 1
0.185383 -0.197473 0.561176 0 0 -1
0.173445 -0.0235769 0.585416 0 0 1
-0.026303 -0.00207807 0.511342 -0.707108 0.707105 0
0.222073 0.2648 0.0121204 0 0 1
-0.387155 -0.0571332 0.585416 0 0 1
0.144653 0.23529 0.561176 0 0 -1
0.197692 -0.0817492 0.585416 0 0 1
-0.325295 -0.193793 0.585416 0 0 1
-0.114277 0.0160204 0.585416 0 0 1
0.180811 0.168159 0.541224 0.923592 -0.383377 0
-0.156575 -0.178832 0.585416 0 0 1
0.327794 -0.0208742 0.585416 0 0 1
0.300784 -0.128845 0.561176 0 0 -1
0.064205 0.0427172 0.507132 0.707105 -0.707109 0
0.0329102 0.365826 0.585416 0 0 1
-0.320829 -0.167464 0.561176 0 0 -1
0.332726 0.101282 0.585416 0 0 1
0.0553025 -0.00174882 0.561176 0 0 -1
0.219027 -0.0774438 0.585416 0 0 1
0.260572 0.219289 0.421751 0.620694 -0.784053 0
0.0474395 -0.0498645 0.536935 0 0 1
0.00306754 -0.017362 0.561176 0 0 -1
-0.258191 -0.215568 0.431044 -0.525463 0.850816 0
-0.216095 0.227569 0.47507 0.879636 -0.475648 0
-0.250042 0.0905214 0.561176 0 0 -1
0.101748 -0.358508 0.561176 0 0 -1
-0.126565 -0.248265 0.561176 0 0 -1
0.158276 -0.172266 0.544902 -0.923984 -0.382431 0
-0.177347 -0.179648 0.504614 0 0 -1
-0.273073 -0.252212 0.499784 -0.929099 -0.369831 0
0.0698759 -0.0816048 0.536935 0 0 1
0.193932 0.218158 0.525909 -0.707108 0.707105 0
0.247566 -0.137386 0.585416 0 0 1
-0.27149 -0.278635 0.585416 0 0 1
0.2183 0.220521 0.321001 -0.663791 -0.747918 0
-0.272331 0.234828 0.192723 -0.948627 -0.316397 0
-0.289364 0.163734 0.561176 0 0 -1
0.227019 0.213184 0.0121204 0 0 -1
-0.245214 -0.270594 0.0218168 0 0 1
0.0254186 0.113995 0.561176 0 0 -1
-0.248897 -0.211761 0.210734 -0.0871196 0.996198 0
-0.269762 -0.255115 0.0824145 -0.929347 -0.369208 0
0.261696 -0.262414 0.315915 0.748077 -0.663612 0
-0.152659 -0.107788 0.585416 0 0 1
0.152889 0.107964 0.561176 0 0 -1
0.23013 -0.253302 0 0 0 -1
-0.0788453 -0.328927 0.585416 0 0 1
0.296599 0.135429 0.585416 0 0 1
-0.309443 -0.0493872 0.561176 0 0 -1
-0.0967287 -0.118216 0.513808 0.707105 -0.707109 0
0.236939 0.225877 0.0121204 0 0 -1
0.264922 -0.258747 0.469976 0.879604 -0.475706 0
0.0746562 -0.0155025 0.585416 0 0 1
-0.0515618 -0.0273369 0.523725 -0.707108 0.707105 0
0.237075 -0.138267 0.585416 0 0 1
-0.0555342 -0.39404 0.561176 0 0 -1
-0.216747 0.226363 0.079456 0.879636 -0.475648 0
-0.247848 -0.271247 0.377436 -0.258476 -0.966018 0
0.335975 0.143178 0.561176 0 0 -1
-0.228786 -0.268723 0 0 0 -1
0.249265 -0.27073 0.585416 0 0 1
0.0667938 -0.248825 0.585416 0 0 1
-0.0164579 0.229487 0.585416 0 0 1
0.247233 0.120462 0.585416 0 0 1
0.312687 -0.211809 0.585416 0 0 1
-0.205642 0.101114 0.585416 0 0 1
0.0385976 0.19431 0.561176 0 0 -1
-0.272567 0.236174 0.109413 -0.996291 -0.0860491 0
-0.18215 0.20363 0.535118 0.707099 0.707114 0
0.0750713 -0.173105 0.561176 0 0 -1
-0.137527 0.169461 0.585416 0 0 1
-0.0734735 -0.299599 0.585416 0 0 1
-0.333949 -0.0278681 0.561176 0 0 -1
0.287736 -0.194656 0.585416 0 0 1
0.367643 0.0973766 0.585416 0 0 1
0.140681 0.047496 0.561176 0 0 -1
-0.116635 0.286247 0.561176 0 0 -1
0.227937 0.269124 0.416776 -0.314862 0.949137 0
0.110984 -0.135216 0.514646 -0.707114 -0.7071 0
0.030861 -0.262844 0.585416 0 0 1
-0.225233 -0.246719 0.510184 0.707105 -0.707109 0
-0.120287 -0.367651 0.561176 0 0 -1
-0.241748 -0.271579 0.222127 -0.0287589 -0.999586 0
0.0083431 -0.138454 0.585416 0 0 1
-0.215411 -0.196073 0.504614 0 0 -1
-0.254716 -0.269213 0.083164 -0.475719 -0.879597 0
0.279427 0.151505 0.561176 0 0 -1
0.164057 -0.161766 0.538215 -0.382273 0.92405 0
-0.0348885 0.116397 0.561176 0 0 -1
-0.213979 -0.250611 0.405573 0.979174 -0.203024 0
0.00321055 0.332723 0.561176 0 0 -1
-0.233342 0.270214 0.116184 0.2019 0.979406 0
-0.0419098 0.285265 0.561176 0 0 -1
-0.184819 -0.161358 0.585416 0 0 1
-0.269706 0.227725 0.458382 -0.851884 -0.523731 0
0.283432 -0.10595 0.585416 0 0 1
-0.00391114 0.0150914 0.504614 0 0 -1
-0.0919259 -0.154283 0.561176 0 0 -1
-0.177681 0.167257 0.536935 0 0 1
-0.273639 -0.297577 0.574521 -0.597185 -0.802103 0
-0.0143845 -0.0301512 0.536935 0 0 1
0.192123 -0.0183525 0.561176 0 0 -1
0.0255307 -0.048853 0.504614 0 0 -1
0.210576 -0.248106 0.206252 -0.949236 -0.314564 0
-0.247547 -0.268647 0 0 0 -1
-0.050022 -0.106116 0.561176 0 0 -1
0.131303 -0.248432 0.585416 0 0 1
-0.288023 -0.232353 0.561176 0 0 -1
-0.216586 -0.256411 0.0274382 0.90659 -0.422013 0
0.223781 -0.216035 0.48467 -0.475058 0.879954 0
-0.108509 0.104226 0.561176 0 0 -1
-0.192196 0.276492 0.585416 0 0 1
-0.171718 -0.138589 0.585416 0 0 1
0.160027 -0.0292826 0.585416 0 0 1
0.165678 -0.151348 0.504614 0 0 -1
0.210302 -0.246483 0.374665 -0.996118 -0.0880239 0
-0.197212 -0.352548 0.566702 -0.396084 -0.918214 0
-0.221797 0.232937 0.0121204 0 0 1
-0.402644 -0.00351503 0.575256 -1 0 0
-0.108843 0.121017 0.504614 0 0 -1
0.331379 0.0318489 0.561176 0 0 -1
0.145461 0.156402 0.536935 0 0 1
0.0954615 0.274803 0.585416 0 0 1
-0.204251 0.201505 0.504614 0 0 -1
0.0515181 0.131432 0.561176 0 0 -1
-0.0130012 -0.121733 0.585416 0 0 1
0.266323 0.244846 0.0121204 0 0 1
-0.130901 0.36539 0.585416 0 0 1
-0.270367 -0.22894 0.282274 -0.948627 0.316397 0
0.0537247 -0.0973796 0.585416 0 0 1
0.270184 -0.238475 0.103582 0.979174 0.203023 0
-0.259462 -0.210424 0.561176 0 0 -1
0.186335 -0.245512 0.561176 0 0 -1
-0.249955 -0.212102 0.368348 -0.314692 0.949194 0
0.211219 0.23253 0.288776 -0.929327 -0.369258 0
-0.33335 -0.0503307 0.585416 0 0 1
-0.233472 0.27024 0.330763 0.2019 0.979406 0
0.169834 -0.272683 0.561176 0 0 -1
0.214665 -0.223449 0.0218168 0 0 1
0.333656 0.220867 0.58252 0.835538 0.549432 0
0.217343 0.263177 0.0218168 0 0 1
0.257345 -0.266086 0.145737 0.572823 -0.819679 0
-0.141918 -0.261732 0.585416 0 0 1
-0.165317 0.125996 0.561176 0 0 -1
0.226096 -0.214785 0.468181 -0.475058 0.879954 0
0.221963 0.217269 0.420273 -0.663791 -0.747918 0
0.129605 0.0259626 0.585416 0 0 1
0.107938 0.276637 0.561176 0 0 -1
-0.0302807 -0.31318 0.585416 0 0 1
-0.0069439 0.21754 0.585416 0 0 1
-0.113013 0.200249 0.585416 0 0 1
-0.0208568 0.159048 0.561176 0 0 -1
0.249917 -0.212825 0.15986 0.422715 0.906263 0
-0.225689 0.216686 0.490511 0.573568 -0.819158 0
-0.228265 0.249742 0.505876 -0.707096 -0.707118 0
0.228376 0.213547 0.325618 -0.475719 -0.879597 0
-0.0376193 -0.0588759 0.585416 0 0 1
0.249649 -0.153703 0.561176 0 0 -1
0.21229 -0.229837 0.228374 -0.929366 0.36916 0
0.258217 -0.217426 0.166239 0.62087 0.783913 0
-0.340958 -0.13765 0.561176 0 0 -1
0.0683102 -0.268149 0.561176 0 0 -1
-0.0679688 -0.0651405 0.504614 0 0 -1
0.213183 -0.255174 0.295135 -0.851742 -0.523961 0
-0.0825421 0.0410848 0.561176 0 0 -1
-0.24451 0.265988 0.524348 0.707099 0.707114 0
0.000221087 -0.13738 0.585416 0 0 1
0.302215 -0.257048 0.561176 0 0 -1
-0.215643 0.335961 0.561176 0 0 -1
-0.213352 -0.235093 0.257517 0.966174 0.257892 0
0.0135095 -0.247698 0.585416 0 0 1
0.213613 -0.255873 0.445127 -0.851742 -0.523961 0
-0.266401 -0.222466 0.420919 -0.706395 0.707818 0
0.178795 -0.163304 0.555593 0.923576 0.383415 0
-0.24089 0.271601 0.228415 -0.0287589 0.999586 0
-0.226032 0.180493 0.585416 0 0 1
0.123812 0.265429 0.585416 0 0 1
-0.240358 -0.271619 0.275507 -0.0287589 -0.999586 0
-0.0608155 0.0822975 0.512833 0.707099 0.707114 0
-0.100832 0.108259 0.504614 0 0 -1
0.0461088 0.0246211 0.521548 0.707105 -0.707109 0
0.0027838 0.189513 0.561176 0 0 -1
-0.0251012 -0.0465884 0.512565 0.707105 -0.707109 0
-0.216138 0.227488 0.209292 0.879636 -0.475648 0
0.034237 0.0530277 0.585416 0 0 1
-0.120584 -0.190784 0.585416 0 0 1
0.0863356 0.215019 0.561176 0 0 -1
0.213246 0.255276 0.492478 -0.85182 0.523835 0
-0.110138 0.213321 0.561176 0 0 -1
0.0534506 -0.0528809 0.504614 0 0 -1
-0.150944 0.0576712 0.561176 0 0 -1
-0.335995 -0.14074 0.585416 0 0 1
-0.0913059 -0.162429 0.561176 0 0 -1
-0.037917 0.14464 0.585416 0 0 1
-0.0255974 0.327338 0.561176 0 0 -1
-0.0337017 -0.0094768 0.513283 -0.707108 0.707105 0
0.0394618 0.313271 0.585416 0 0 1
0.076966 0.323627 0.561176 0 0 -1
-0.0403448 0.337692 0.585416 0 0 1
-0.264928 0.262037 0.0805494 -0.664425 0.747355 0
-0.220292 0.261476 0.0601799 0.784115 0.620616 0
0.31286 -0.252493 0.578457 0.835506 -0.549481 0
-0.0182925 -0.0950072 0.585416 0 0 1
-0.198318 -0.0905627 0.561176 0 0 -1
0.113313 0.109962 0.536935 0 0 1
-0.343912 -0.146607 0.585416 0 0 1
0.27602 0.20122 0.561176 0 0 -1
0.265761 0.299669 0.580501 0.686298 0.727321 0
0.0974321 0.154042 0.561176 0 0 -1
-0.0726878 0.150559 0.561176 0 0 -1
0.0660389 0.248426 0.561176 0 0 -1
-0.114477 0.145386 0.561176 0 0 -1
0.046817 0.397395 0.585416 0 0 1
-0.298731 0.143753 0.585416 0 0 1
0.398242 0.0376347 0.581938 0.993231 0.116152 0
-0.288611 0.20086 0.585416 0 0 1
-0.159898 -0.172553 0.561176 0 0 -1
0.19206 -0.255184 0.561176 0 0 -1
0.146491 0.165475 0.504614 0 0 -1
0.235863 0.251277 0.0121204 0 0 1
0.215748 -0.245464 0.585416 0 0 1
0.211444 -0.231966 0.479692 -0.929366 0.36916 0
0.285968 -0.229959 0.585416 0 0 1
0.0522914 -0.065417 0.504614 0 0 -1
0.0772001 -0.107829 0.561176 0 0 -1
-0.390907 0.0173962 0.561176 0 0 -1
-0.315884 -0.0210863 0.585416 0 0 1
-0.248877 -0.224653 0.506582 -0.707108 0.707105 0
0.172134 -0.177104 0.536935 0 0 -1
0.120979 -0.222911 0.585416 0 0 1
-0.166659 -0.180989 0.54156 0.3831 -0.923707 0
-0.122491 0.330831 0.561176 0 0 -1
0.136772 0.289879 0.585416 0 0 1
0.371569 -0.0936825 0.585416 0 0 1
0.199973 0.157616 0.561176 0 0 -1
0.0296022 0.351853 0.561176 0 0 -1
-0.18862 -0.327096 0.561176 0 0 -1
0.158119 -0.264895 0.585416 0 0 1
-0.183099 0.22247 0.585416 0 0 1
-0.226273 0.26673 0.41577 0.620697 0.784051 0
-0.222498 -0.263742 0.135535 0.620872 -0.783912 0
-0.226641 -0.24169 0.536935 0 0 1
0.0103691 -0.00073278 0.504614 0 0 -1
-0.177952 -0.153728 0.510036 -0.707108 0.707105 0
0.163969 -0.264435 0.585416 0 0 1
0.25927 -0.297928 0.585416 0 0 1
-0.117023 -0.0206739 0.561176 0 0 -1
-0.0156037 -0.291194 0.561176 0 0 -1
-0.140739 0.162219 0.518963 0.707099 0.707114 0
0.0785487 -0.372896 0.561176 0 0 -1
-0.256189 -0.25941 0.533525 -0.707231 -0.706983 0
-0.249902 -0.247911 0.0218168 0 0 -1
0.347212 0.0804324 0.585416 0 0 1
0.0695387 0.126684 0.585416 0 0 1
-0.171111 -0.146887 0.52838 -0.707108 0.707105 0
0.0816226 -0.0533033 0.585416 0 0 1
-0.108368 0.136624 0.561176 0 0 -1
-0.242091 0.211189 0.561176 0 0 -1
-0.324614 -0.0753082 0.585416 0 0 1
0.209803 -0.240837 0.138034 -0.996118 -0.0880239 0
-0.264983 0.261232 0.0121204 0 0 1
-0.323942 0.206473 0.561176 0 0 -1
0.31688 0.107186 0.561176 0 0 -1
0.038353 0.174375 0.561176 0 0 -1
0.0958527 -0.121379 0.561176 0 0 -1
0.150505 0.0618392 0.585416 0 0 1
0.123159 -0.248347 0.561176 0 0 -1
0.0377391 -0.0693689 0.585416 0 0 1
-0.222494 0.0132052 0.585416 0 0 1
0.223707 0.255782 0.585416 0 0 1
0.055459 0.0483433 0.536935 0 0 1
0.254198 -0.214822 0.198506 0.422715 0.906263 0
-0.140413 0.0985334 0.561176 0 0 -1
0.269011 0.232812 0.0480532 0.97918 -0.202994 0
0.243803 -0.271311 0.125587 0.14487 -0.989451 0
0.261092 -0.219703 0.207102 0.62087 0.783913 0
0.311127 0.255127 0.580872 0.835538 0.549432 0
0.154054 -0.173185 0.504614 0 0 -1
-0.264963 0.22103 0.139186 -0.706253 -0.70796 0
-0.22185 -0.21693 0.00148489 0.574231 0.818693 0
0.18944 0.127434 0.561176 0 0 -1
-0.206442 0.224609 0.504614 0 0 -1
0.234759 -0.211705 0.430937 -0.259271 0.965805 0
0.0985289 -0.231894 0.561176 0 0 -1
-0.244012 0.271071 0.504614 0 0 -1
-0.289574 0.157813 0.561176 0 0 -1
0.255645 0.00974369 0.585416 0 0 1
0.121362 -0.29417 0.561176 0 0 -1
0.0502587 -0.0725492 0.536935 0 0 1
0.0958281 0.125731 0.561176 0 0 -1
-0.270351 -0.228891 0.193042 -0.948627 0.316397 0
-0.0624216 -0.0212739 0.585416 0 0 1
0.0157873 -0.391273 0.585416 0 0 1
0.159653 -0.0652188 0.561176 0 0 -1
0.12962 0.149256 0.585416 0 0 1
-0.119259 -0.194072 0.585416 0 0 1
-0.164875 0.20229 0.561176 0 0 -1
-0.0104498 0.241403 0.561176 0 0 -1
0.263561 -0.0204347 0.561176 0 0 -1
-0.089707 0.114192 0.585416 0 0 1
0.268146 -0.102069 0.561176 0 0 -1
-0.220589 -0.221143 0.388914 0.747722 0.664012 0
0.0297808 -0.00829688 0.525928 0.707099 0.707114 0
0.0759415 0.386058 0.585416 0 0 1
-0.191923 0.269557 0.561176 0 0 -1
0.118606 -0.0976435 0.585416 0 0 1
0.232302 0.237444 0.0218168 0 0 -1
0.114499 -0.0978535 0.585416 0 0 1
0.243032 -0.211323 0.457617 0.201902 0.979406 0
-0.355775 0.0516332 0.561176 0 0 -1
-0.226899 -0.215838 0.464946 0.573664 0.819091 0
0.26399 -0.16902 0.585416 0 0 1
0.223603 0.266641 0.425441 -0.525463 0.850817 0
0.285684 0.18161 0.585416 0 0 1
0.253826 -0.268357 0.376264 0.369552 -0.92921 0
0.188888 0.216176 0.561176 0 0 -1
0.131382 0.109619 0.561176 0 0 -1
0.130704 0.201572 0.585416 0 0 1
-0.387212 -0.0961139 0.561176 0 0 -1
0.15039 -0.0656006 0.585416 0 0 1
0.288493 -0.15952 0.561176 0 0 -1
-0.102741 -0.161819 0.585416 0 0 1
0.242555 0.211259 0.337009 -0.0287589 -0.999586 0
-0.251177 0.212505 0.219241 -0.314692 -0.949194 0
-0.23071 -0.213861 0.151677 0.369504 0.929229 0
0.154158 0.000450684 0.585416 0 0 1
0.0261253 -0.246352 0.561176 0 0 -1
-0.040805 0.150717 0.561176 0 0 -1
-0.262466 -0.264229 0.0860636 -0.663791 -0.747918 0
-0.234028 -0.212542 0.31628 0.369504 0.929229 0
-0.233915 -0.212587 0.163185 0.369504 0.929229 0
-0.186948 0.326752 0.585416 0 0 1
-0.320048 0.244495 0.568119 -0.766045 0.642786 0
0.28895 0.0150931 0.585416 0 0 1
-0.227651 -0.215312 0.0651576 0.573664 0.819091 0
0.0083159 0.281724 0.561176 0 0 -1
0.113592 -0.0491964 0.561176 0 0 -1
0.341564 -0.189209 0.561176 0 0 -1
-0.379262 -0.141677 0.579414 -0.893622 -0.44882 0
-0.103901 0.257057 0.585416 0 0 1
-0.00675299 0.190158 0.585416 0 0 1
0.0738932 -0.0610489 0.585416 0 0 1
-0.401233 0.0399574 0.561176 0 0 -1
0.225858 -0.187138 0.585416 0 0 1
0.156452 0.190779 0.561176 0 0 -1
-0.0507674 0.0295053 0.504614 0 0 -1
-0.098901 -0.0660966 0.585416 0 0 1
0.171404 -0.1913 0.504614 0 0 -1
0.118836 -0.377925 0.561176 0 0 -1
0.250316 0.25863 0.536935 0 0 1
-0.28424 0.21196 0.585416 0 0 1
0.0881127 -0.291045 0.585416 0 0 1
-0.0349613 -0.0759002 0.561176 0 0 -1
-0.215932 0.255005 0.143788 0.906539 0.422122 0
-0.205659 0.181434 0.514558 -0.707114 -0.7071 0
0.350453 0.0496522 0.561176 0 0 -1
-0.154124 0.00155247 0.561176 0 0 -1
-0.135813 -0.27045 0.561176 0 0 -1
-0.0589796 -0.178311 0.585416 0 0 1
-0.0649416 -0.108758 0.585416 0 0 1
0.247415 -0.270783 0.492268 0.14487 -0.989451 0
0.268737 -0.231725 0.160582 0.906591 0.422011 0
0.322102 0.154053 0.585416 0 0 1
0.00828269 -0.0325121 0.511769 -0.707114 -0.7071 0
-0.228351 -0.267905 0.192129 0.422596 -0.906318 0
-0.113129 0.0783701 0.561176 0 0 -1
0.0975767 0.363356 0.585416 0 0 1
-0.0739183 -0.249194 0.585416 0 0 1
-0.099367 0.185406 0.561176 0 0 -1
-0.378001 0.0707239 0.585416 0 0 1
-0.151297 -0.220799 0.561176 0 0 -1
-0.0754609 -0.142554 0.585416 0 0 1
-0.0461525 0.223156 0.585416 0 0 1
0.233557 -0.260399 0.504614 0 0 -1
-0.248022 -0.21808 0.506678 -0.707107 0.707107 0
0.211813 0.0335915 0.561176 0 0 -1
0.122802 -0.147034 0.534509 -0.707114 -0.7071 0
0.0848988 -0.129694 0.561176 0 0 -1
-0.0657781 0.0510226 0.585416 0 0 1
-0.222014 0.263358 0.0612063 0.620697 0.784051 0
-0.0177808 -0.0306907 0.536935 0 0 1
0.075552 0.0297106 0.561176 0 0 -1
-0.282203 -0.255226 0.561176 0 0 -1
-0.250129 0.212157 0.18662 -0.314692 -0.949194 0
0.0180265 0.203823 0.561176 0 0 -1
0.0109806 -0.241229 0.561176 0 0 -1
0.241606 0.131558 0.585416 0 0 1
0.0214584 0.340609 0.585416 0 0 1
-0.116403 0.108309 0.536935 0 0 1
-0.281846 -0.105563 0.561176 0 0 -1
0.0907538 0.0692659 0.517359 0.707105 -0.707109 0
0.101679 -0.121517 0.536935 0 0 1
-0.243817 0.235944 0.585416 0 0 1
-0.0753852 0.0968669 0.509507 0.707099 0.707114 0
-0.212654 0.243047 0.353504 0.999571 -0.0292917 0
0.143244 -0.157094 0.504614 0 0 -1
0.23454 -0.235503 0.0121204 0 0 -1
0.230548 -0.212835 0.119784 -0.259271 0.965805 0
0.318478 -0.0798542 0.561176 0 0 -1
0.223077 -0.263553 0.0121204 0 0 1
0.222348 -0.21693 0.159994 -0.664426 0.747354 0
-0.234249 0.270401 0.0983031 0.2019 0.979406 0
-0.0134614 0.234117 0.585416 0 0 1
0.26257 0.289467 0.561176 0 0 -1
0.149786 -0.150285 0.536935 0 0 1
-0.131908 0.124682 0.504614 0 0 -1
-0.015824 -0.280739 0.561176 0 0 -1
0.00734967 0.254964 0.585416 0 0 1
-0.246717 -0.271436 0.219174 -0.0287589 -0.999586 0
0.246863 -0.272888 0.503933 0.145472 -0.989362 0
-0.144573 -0.0135771 0.585416 0 0 1
0.376163 -0.135992 0.574681 0.939698 -0.342007 0
0.246887 -0.04036 0.585416 0 0 1
-0.00902283 0.367232 0.585416 0 0 1
0.14552 0.226751 0.561176 0 0 -1
-0.0879872 0.190543 0.561176 0 0 -1
-0.160803 0.162054 0.561176 0 0 -1
-0.234378 0.212401 0.101899 0.36975 -0.929131 0
0.211469 -0.231905 0.376686 -0.929366 0.36916 0
-0.0397852 0.278569 0.561176 0 0 -1
0.183984 -0.0513683 0.561176 0 0 -1
0.0906098 0.254031 0.585416 0 0 1
-0.123642 0.175843 0.561176 0 0 -1
0.086748 -0.285373 0.585416 0 0 1
-0.264364 -0.251232 0.522759 -0.707231 -0.706983 0
-0.273023 -0.241466 0.483858 -0.9963 0.0859395 0
-0.217261 -0.225419 0.1699 0.879314 0.476242 0
-0.246572 -0.27144 0.454795 -0.0287589 -0.999586 0
0.21281 0.258403 0.0090564 -0.850728 0.525607 0
-0.263002 0.134756 0.585416 0 0 1
-0.22654 0.138021 0.585416 0 0 1
0.0192536 -0.0168427 0.585416 0 0 1
-0.23725 0.211833 0.200855 0.144865 -0.989451 0
0.205032 -0.022918 0.561176 0 0 -1
-0.232885 -0.233034 0.498554 0 0 1
-0.263355 -0.252241 0.529595 -0.707231 -0.706983 0
0.361764 0.0343053 0.561176 0 0 -1
-0.235281 -0.0523496 0.561176 0 0 -1
0.242435 0.0956974 0.585416 0 0 1
-0.32342 0.240477 0.569098 -0.766045 0.642786 0
0.256632 -0.266584 0.330805 0.572823 -0.819679 0
-0.233501 0.270246 0.19052 0.2019 0.979406 0
0.354155 -0.189702 0.581787 0.835506 -0.549481 0
0.0787297 0.0620925 0.585416 0 0 1
-0.269996 -0.228196 0.413911 -0.851806 0.523858 0
-0.106541 -0.172991 0.585416 0 0 1
0.256874 0.235385 0.517193 0.707105 -0.707109 0
0.0609654 -0.308689 0.585416 0 0 1
0.0769793 0.0363461 0.561176 0 0 -1
-0.226543 -0.200842 0.561176 0 0 -1
0.0540211 -0.346281 0.585416 0 0 1
0.264779 -0.258938 0.0548161 0.748077 -0.663612 0
0.201336 -0.135092 0.561176 0 0 -1
0.282429 -0.177098 0.585416 0 0 1
-0.229517 -0.268448 0.485729 0.422596 -0.906318 0
-0.336065 0.0128332 0.585416 0 0 1
-0.236537 0.209912 0.00866596 0.14547 -0.989363 0
-0.212825 0.23723 0.377647 0.999571 -0.0292917 0
-0.263427 0.149401 0.561176 0 0 -1
-0.0549941 -0.0812377 0.585416 0 0 1
9.31192e-05 0.0833383 0.561176 0 0 -1
-0.132838 -0.318986 0.585416 0 0 1
0.191523 0.210894 0.585416 0 0 1
0.26824 -0.200227 0.585416 0 0 1
-0.0409328 -0.319322 0.561176 0 0 -1
0.213458 0.237684 0.50575 0.707096 -0.707118 0
0.26495 -0.113145 0.585416 0 0 1
0.0584446 0.157412 0.585416 0 0 1
-0.21946 0.222407 0.42502 0.747157 -0.664648 0
0.124944 -0.300749 0.561176 0 0 -1
-0.0303932 -0.370103 0.561176 0 0 -1
0.181822 -0.200557 0.504614 0 0 -1
0.21176 -0.251679 0.424442 -0.949236 -0.314564 0
0.122542 0.279506 0.585416 0 0 1
5.86733e-05 0.225544 0.585416 0 0 1
0.266365 -0.256077 0.0594098 0.879604 -0.475706 0
-0.137627 -0.172731 0.585416 0 0 1
-0.161634 0.137408 0.535677 -0.707114 -0.7071 0
-0.104392 0.13649 0.585416 0 0 1
0.25915 -0.2156 0.0209679 0.619877 0.784699 0
-0.266998 0.248496 0.536935 0 0 1
0.156735 -0.3183 0.561176 0 0 -1
0.332124 0.179076 0.561176 0 0 -1
0.213804 -0.226474 0.203385 -0.818697 0.574226 0
-0.233928 -0.270335 0.132599 0.202038 -0.979378 0
-0.214348 -0.256366 0.00326141 0.906244 -0.422756 0
-0.240042 -0.214078 0.0218168 0 0 1
0.199346 -0.067595 0.585416 0 0 1
-0.298832 0.0608655 0.561176 0 0 -1
-0.173329 0.199102 0.585416 0 0 1
-0.0640009 0.165868 0.585416 0 0 1
-0.311215 -0.18054 0.561176 0 0 -1
-0.252735 0.254282 0.0121204 0 0 -1
-0.0355941 -0.380225 0.561176 0 0 -1
-0.264119 0.262756 0.387324 -0.664425 0.747355 0
-0.0297821 -0.0978841 0.585416 0 0 1
-0.202548 -0.329272 0.561176 0 0 -1
-0.268003 -0.221235 0.00698999 -0.707373 0.706841 0
-0.118242 -0.155293 0.585416 0 0 1
0.219267 -0.263198 0.259039 -0.706397 -0.707816 0
-0.0531154 -0.176546 0.585416 0 0 1
0.243456 0.214192 0.561176 0 0 -1
-0.374085 -0.12839 0.585416 0 0 1
-0.245732 0.273871 0.585416 0 0 1
-0.244577 -0.117112 0.561176 0 0 -1
-0.213162 -0.235804 0.379688 0.966174 0.257892 0
-0.0469788 -0.00408592 0.561176 0 0 -1
0.187466 0.3295 0.561176 0 0 -1
0.261284 0.262876 0.170923 0.748578 0.663047 0
0.0860437 -0.216225 0.585416 0 0 1
-0.120776 0.0334788 0.561176 0 0 -1
0.203249 -0.11538 0.585416 0 0 1
0.237744 0.211398 0.468595 -0.0287589 -0.999586 0
-0.156703 -0.130443 0.561176 0 0 -1
0.154426 -0.327065 0.561176 0 0 -1
-0.021235 -0.0115682 0.536935 0 0 1
-0.253693 -0.135294 0.585416 0 0 1
0.210551 0.248029 0.442926 -0.949208 0.314649 0
-0.0728215 0.264438 0.585416 0 0 1
0.16103 0.139541 0.525697 0.707105 -0.707109 0
-0.304904 0.113749 0.585416 0 0 1
0.160046 0.0696008 0.585416 0 0 1
0.131084 0.0979784 0.561176 0 0 -1
0.243244 -0.134611 0.585416 0 0 1
0.18249 0.0152175 0.561176 0 0 -1
0.189251 -0.212367 0.536935 0 0 1
-0.135062 0.110835 0.504883 -0.707114 -0.7071 0
-0.22168 0.219912 0.284807 0.747157 -0.664648 0
0.0721065 -0.339723 0.585416 0 0 1
-0.190385 0.0632715 0.561176 0 0 -1
0.286646 0.100205 0.561176 0 0 -1
-0.0465107 0.0298326 0.561176 0 0 -1
-0.161932 -0.205377 0.585416 0 0 1
-0.124934 -0.108615 0.536935 0 0 1
-0.181072 -0.35951 0.563642 -0.396084 -0.918214 0
0.164027 0.0350329 0.561176 0 0 -1
-0.0537336 0.322698 0.585416 0 0 1
0.225805 -0.31273 0.561176 0 0 -1
-0.271356 0.251104 0.42784 -0.929347 0.369208 0
0.0857359 -0.355859 0.561176 0 0 -1
-0.215873 -0.227982 0.308243 0.879314 0.476242 0
-0.294505 0.191792 0.561176 0 0 -1
-0.0922229 0.0744354 0.504614 0 0 -1
0.302871 -0.0651159 0.561176 0 0 -1
-0.184651 0.300635 0.561176 0 0 -1
0.210386 -0.247435 0.193607 -0.996118 -0.0880239 0
-0.0917719 -0.156056 0.561176 0 0 -1
-0.271489 0.250768 0.188187 -0.929347 0.369208 0
0.37435 -0.0139742 0.585416 0 0 1
0.219975 0.265179 0.0121204 0 0 1
-0.213805 0.233393 0.397205 0.966155 -0.257962 0
-0.218104 0.20817 0.585416 0 0 1
-0.248158 0.209748 0.0121204 0 0 -1
0.233883 0.211938 0.36727 -0.258211 -0.966089 0
-0.361962 0.124947 0.585416 0 0 1
0.0366527 0.264284 0.561176 0 0 -1
-0.387545 -0.0888669 0.585416 0 0 1
0.22283 0.266165 0.465924 -0.525463 0.850817 0
-0.0577404 -0.0619976 0.536935 0 0 1
-0.307593 0.203051 0.561176 0 0 -1
0.26041 0.219161 0.108072 0.620694 -0.784053 0
0.249798 -0.269959 0.220596 0.369552 -0.92921 0
0.218956 -0.219946 0.460336 -0.664426 0.747354 0
0.264506 0.125604 0.561176 0 0 -1
0.317708 0.215686 0.561176 0 0 -1
-0.0113847 0.0128403 0.527478 -0.707108 0.707105 0
-0.246225 -0.251718 0.0218168 0 0 -1
-0.00128702 0.0278247 0.561176 0 0 -1
-0.143767 0.0351998 0.561176 0 0 -1
-0.215245 0.225481 0 0 0 -1
-0.227827 -0.218108 0.0121204 0 0 -1
-0.184672 -0.17084 0.556631 -0.923576 0.383415 0
-0.262442 0.218515 0.0393972 -0.706253 -0.70796 0
-0.118951 -0.0963296 0.536935 0 0 1
-0.227117 0.325047 0.585416 0 0 1
0.121059 0.348678 0.561176 0 0 -1
-0.242365 0.211188 0.108788 -0.0871175 -0.996198 0
-0.220288 0.219169 0.585416 0 0 1
-0.271416 0.232085 0.436232 -0.948627 -0.316397 0
-0.215413 0.228829 0.19411 0.879636 -0.475648 0
-0.0296498 0.316912 0.561176 0 0 -1
-0.213312 -0.247396 0.154045 0.979174 -0.203024 0
-0.011014 0.34744 0.585416 0 0 1
-0.16502 -0.0465482 0.585416 0 0 1
-0.36024 -0.141625 0.585416 0 0 1
0.0351378 -0.0593677 0.530679 -0.707114 -0.7071 0
-0.266245 -0.021824 0.585416 0 0 1
-0.201307 0.35078 0.574802 -0.396093 0.918211 0
0.312205 -0.253489 0.574456 0.835506 -0.549481 0
-0.211804 -0.260115 0.585416 0 0 1
-0.338601 -0.113641 0.585416 0 0 1
-0.202557 -0.128145 0.561176 0 0 -1
-0.0558784 -0.128037 0.561176 0 0 -1
-0.02289 0.388888 0.585416 0 0 1
0.179622 -0.158135 0.532085 0.707099 0.707114 0
-0.284444 0.286926 0.564946 -0.766045 0.642786 0
0.259521 0.254769 0.585416 0 0 1
-0.0870588 0.0501296 0.561176 0 0 -1
-0.263176 0.213036 0.585416 0 0 1
0.23294 0.210114 0.0185489 -0.258791 -0.965933 0
-0.139595 0.137261 0.561176 0 0 -1
-0.271835 0.23334 0.195175 -0.948627 -0.316397 0
-0.245787 -0.211489 0.224301 -0.0871196 0.996198 0
0.0919044 -0.260068 0.585416 0 0 1
0.165196 -0.161295 0.559439 -0.382273 0.92405 0
0.2338 0.244331 0.585416 0 0 1
-0.156999 -0.152204 0.536935 0 0 1
0.00559142 0.015892 0.529081 0.707099 0.707114 0
0.151609 -0.100313 0.585416 0 0 1
-0.256779 -0.226837 0.504658 -0.707107 0.707107 0
-0.16642 -0.0889754 0.561176 0 0 -1
0.226731 -0.220345 0.504614 0 0 1
-0.366532 0.093507 0.561176 0 0 -1
-0.212697 -0.241602 0.0607702 0.999571 0.0292917 0
0.220958 -0.098713 0.585416 0 0 1
-0.165926 -0.0293414 0.585416 0 0 1
0.265699 -0.299727 0.581948 0.686298 -0.727321 0
-0.163433 -0.147985 0.504614 0 0 -1
-0.172393 0.2472 0.561176 0 0 -1
0.0700477 0.226136 0.561176 0 0 -1
-0.121346 0.0921519 0.561176 0 0 -1
0.00686725 0.114062 0.561176 0 0 -1
-0.0335391 -0.0477625 0.561176 0 0 -1
-0.236172 0.270797 0.0905731 0.2019 0.979406 0
-0.218452 0.22354 0.102179 0.747157 -0.664648 0
-0.0942888 0.293146 0.561176 0 0 -1
-0.197011 -0.218497 0.509984 0.707105 -0.707109 0
0.132883 -0.0439151 0.561176 0 0 -1
-0.162202 0.178092 0.504614 0 0 -1
-0.240687 0.168739 0.561176 0 0 -1
0.213524 -0.0886932 0.561176 0 0 -1
0.23857 -0.271519 0.399863 -0.0871094 -0.996199 0
0.240743 -0.211311 0.448631 -0.0287589 0.999586 0
0.211852 0.230939 0.173541 -0.929327 -0.369258 0
0.0280406 0.241582 0.561176 0 0 -1
0.347264 0.0961816 0.585416 0 0 1
-0.15737 -0.0235718 0.585416 0 0 1
-0.402644 -0.0414649 0.577212 -1 0 0
0.0780681 -0.185285 0.585416 0 0 1
-0.242095 -0.0391046 0.561176 0 0 -1
-0.227702 0.218549 0.0218168 0 0 -1
0.0135965 -0.384667 0.585416 0 0 1
0.251012 -0.108269 0.561176 0 0 -1
-0.00390051 0.313569 0.561176 0 0 -1
0.0344419 0.0508855 0.561176 0 0 -1
-0.286506 0.00981405 0.561176 0 0 -1
-0.10153 0.294541 0.585416 0 0 1
0.0177296 0.241654 0.561176 0 0 -1
-0.207177 -0.0167375 0.585416 0 0 1
0.128553 -0.181081 0.561176 0 0 -1
0.0927805 0.319688 0.585416 0 0 1
-0.198983 -0.231552 0.561176 0 0 -1
-0.096948 0.238916 0.585416 0 0 1
-0.224126 -0.285655 0.561176 0 0 -1
-0.0218337 0.154456 0.561176 0 0 -1
0.251298 -0.228939 0.498554 0 0 -1
0.0142362 0.358721 0.561176 0 0 -1
-0.213415 -0.247891 0.176107 0.979174 -0.203024 0
-0.0377637 0.0944378 0.561176 0 0 -1
0.26212 -0.27097 0.561176 0 0 -1
-0.273156 0.15587 0.585416 0 0 1
0.234431 0.245389 0.536935 0 0 1
0.252438 -0.268909 0.191829 0.369552 -0.92921 0
0.215442 -0.224139 0.297775 -0.818697 0.574226 0
-0.114523 0.0908978 0.504614 0 0 -1
0.322264 -0.223893 0.561176 0 0 -1
0.301346 -0.168265 0.561176 0 0 -1
0.25692 0.284288 0.561176 0 0 -1
0.123891 -0.381377 0.561783 0.286837 -0.957979 0
-0.166675 -0.24495 0.585416 0 0 1
0.21435 0.245438 0.585416 0 0 1
-0.0587601 0.311863 0.585416 0 0 1
0.0174262 -0.262044 0.561176 0 0 -1
-0.275869 -0.0275633 0.561176 0 0 -1
-0.0823499 -0.164941 0.585416 0 0 1
0.270075 -0.244828 0.171725 0.999571 -0.0292895 0
-0.0233162 -0.0140166 0.561176 0 0 -1
-0.13044 0.367897 0.585416 0 0 1
0.218138 -0.220673 0.121823 -0.664426 0.747354 0
-0.212914 0.23673 0.0731799 0.966155 -0.257962 0
-0.289168 0.0168064 0.561176 0 0 -1
0.0938875 -0.243228 0.585416 0 0 1
0.27522 0.0298091 0.585416 0 0 1
-0.187449 0.205214 0.504614 0 0 -1
0.277008 -0.247093 0.561176 0 0 -1
-0.20569 0.18194 0.504614 0 0 -1
0.248565 -0.0628093 0.585416 0 0 1
0.209807 -0.240884 0.394767 -0.996118 -0.0880239 0
0.269374 -0.24038 0.504614 0 0 1
-0.066473 0.0598071 0.561176 0 0 -1
0.320274 -0.236605 0.561176 0 0 -1
0.230887 -0.270103 0.493852 -0.314733 -0.94918 0
-0.21697 -0.257236 0.361087 0.90659 -0.422013 0
0.024432 0.00294444 0.519613 0.707105 -0.707109 0
-0.283667 -0.287853 0.561956 -0.76605 -0.642781 0
-0.21645 0.244331 0.0121204 0 0 -1
-0.253671 0.213332 0.280749 -0.314692 -0.949194 0
0.212206 0.230049 0.128803 -0.929327 -0.369258 0
0.202336 -0.0506691 0.561176 0 0 -1
-0.277125 0.11527 0.561176 0 0 -1
-0.148762 0.114559 0.585416 0 0 1
-0.0871355 0.0867656 0.536935 0 0 1
0.00419275 -0.015623 0.561176 0 0 -1
-0.201854 0.194414 0.536935 0 0 1
-0.354246 0.153533 0.585416 0 0 1
-0.189655 -0.247989 0.585416 0 0 1
0.0522166 -0.309378 0.561176 0 0 -1
0.185033 -0.301355 0.561176 0 0 -1
0.0361394 0.0703554 0.561176 0 0 -1
0.170485 0.292942 0.585416 0 0 1
-0.136441 0.345332 0.561176 0 0 -1
-0.0598211 -0.142186 0.585416 0 0 1
-0.188788 -0.210274 0.518169 0.707105 -0.707109 0
0.216018 -0.223317 0.409664 -0.818697 0.574226 0
-0.401492 0.0505963 0.585416 0 0 1
-0.246466 -0.211549 0.415525 -0.0871196 0.996198 0
-0.145975 0.227583 0.561176 0 0 -1
-0.106795 -0.099652 0.536935 0 0 1
0.335986 0.191168 0.561176 0 0 -1
0.0101036 -0.345926 0.561176 0 0 -1
0.266897 -0.255094 0.0726571 0.879604 -0.475706 0
0.0800718 0.102778 0.561176 0 0 -1
0.174851 -0.0178445 0.561176 0 0 -1
-0.183848 0.293829 0.561176 0 0 -1
-0.0720969 -0.18076 0.585416 0 0 1
-0.214678 0.252311 0.467294 0.906539 0.422122 0
-0.09184 0.0698624 0.585416 0 0 1
-0.004535 -0.117168 0.561176 0 0 -1
0.234166 0.237247 0 0 0 -1
0.23421 0.270163 0.585416 0 0 1
-0.242115 0.271566 0.484366 -0.0287589 0.999586 0
0.242381 0.228381 0.585416 0 0 1
0.255104 -0.12856 0.561176 0 0 -1
-0.237067 0.270981 0.147528 0.2019 0.979406 0
0.25938 -0.218347 0.0518315 0.62087 0.783913 0
-0.281114 -0.144877 0.585416 0 0 1
0.239775 0.271625 0.471805 -0.0871094 0.996199 0
0.0219569 -0.198912 0.585416 0 0 1
0.141864 0.0925091 0.585416 0 0 1
-0.210686 0.241927 0.00668871 0.999574 -0.0291917 0
-0.0988953 0.0951349 0.561176 0 0 -1
-0.320294 -0.091954 0.585416 0 0 1
-0.294858 0.128766 0.585416 0 0 1
-0.0864563 0.338207 0.561176 0 0 -1
-0.25147 0.270272 0.111686 -0.259269 0.965805 0
-0.214369 0.231283 0.169269 0.966155 -0.257962 0
0.0134904 0.372628 0.585416 0 0 1
0.23173 -0.0104655 0.585416 0 0 1
0.0703903 0.160921 0.585416 0 0 1
0.100458 0.124684 0.5339 -0.707108 0.707105 0
-0.24818 -0.211699 0.323057 -0.0871196 0.996198 0
-0.246949 -0.264993 0.561176 0 0 -1
-0.215169 0.228044 0.0121204 0 0 1
0.152553 0.131064 0.52155 0.707105 -0.707109 0
0.353512 0.190192 0.585416 0 0 1
-0.232244 0.253722 0.506438 -0.707096 -0.707118 0
-0.0401435 0.0159151 0.508478 -0.707114 -0.7071 0
-0.299864 0.171596 0.585416 0 0 1
0.0190915 0.394787 0.585416 0 0 1
-0.215699 0.237178 0.512706 0.707099 0.707114 0
0.10701 -0.236584 0.585416 0 0 1
0.160383 0.138916 0.536935 0 0 1
-0.216122 0.255413 0.376929 0.906539 0.422122 0
-0.109749 0.282633 0.585416 0 0 1
-0.137429 -0.113204 0.534782 -0.707108 0.707105 0
-0.215809 0.228183 0.561176 0 0 -1
-0.216095 0.255356 0.0491904 0.906539 0.422122 0
-0.134571 -0.365939 0.561176 0 0 -1
0.0561581 0.0771065 0.585416 0 0 1
0.238131 -0.242566 0.498554 0 0 1
0.123151 -0.33571 0.561176 0 0 -1
0.0339173 -0.114122 0.561176 0 0 -1
0.260086 -0.26417 0.424972 0.572823 -0.819679 0
0.213389 0.22707 0.239394 -0.929327 -0.369258 0
-0.0350902 0.110208 0.561176 0 0 -1
0.336659 -0.178244 0.561176 0 0 -1
0.189221 -0.259073 0.585416 0 0 1
0.319771 -0.0348474 0.585416 0 0 1
-0.171405 -0.147181 0.517206 -0.707108 0.707105 0
0.251078 0.269449 0.0881356 0.369797 0.929112 0
-0.121913 -0.358389 0.561176 0 0 -1
-0.2385 -0.222888 0 0 0 -1
0.0270324 0.309825 0.561176 0 0 -1
-0.148734 0.373459 0.579442 -0.396093 0.918211 0
-0.0338594 -0.278323 0.585416 0 0 1
0.284148 -0.260883 0.561176 0 0 -1
0.291851 -0.138001 0.561176 0 0 -1
-0.173278 -0.316706 0.585416 0 0 1
0.257435 -0.2148 0.0218168 0 0 1
-0.266885 0.259523 0.0840451 -0.818744 0.574159 0
0.213917 -0.226313 0.470929 -0.818697 0.574226 0
0.256033 -0.256823 0.53191 0.707029 -0.707184 0
-0.104492 0.0172118 0.561176 0 0 -1
0.0418795 0.134454 0.561176 0 0 -1
0.231221 -0.212654 0.304378 -0.259271 0.965805 0
0.365171 -0.0271048 0.585416 0 0 1
0.0159666 -0.367968 0.585416 0 0 1
0.104092 -0.240744 0.585416 0 0 1
-0.262827 -0.263909 0.33412 -0.663791 -0.747918 0
0.251167 -0.145203 0.585416 0 0 1
-0.230034 0.268688 0.472304 0.422715 0.906263 0
-0.163196 0.177523 0.552328 0.92345 0.383719 0
-0.214702 0.184669 0.561176 0 0 -1
-0.294528 -0.0229161 0.585416 0 0 1
0.385629 -0.109984 0.579551 0.939698 -0.342007 0
0.200058 -0.15354 0.585416 0 0 1
-0.235673 0.270694 0.132805 0.2019 0.979406 0
-0.38642 0.115369 0.5808 -0.973056 0.23057 0
-0.174912 0.177706 0.536935 0 0 -1
0.386147 -0.0926733 0.585416 0 0 1
0.268995 0.249768 0.293041 0.966164 0.257929 0
0.096813 0.0154087 0.585416 0 0 1
-0.0922591 -0.0165738 0.561176 0 0 -1
-0.0791863 -0.210757 0.561176 0 0 -1
-0.392297 0.0814017 0.585416 0 0 1
-0.0226752 -0.33713 0.561176 0 0 -1
-0.27623 -0.196988 0.585416 0 0 1
0.238838 0.264333 0.561176 0 0 -1
-0.26008 -0.266312 0.0336495 -0.475719 -0.879597 0
-0.0806971 -0.0751476 0.585416 0 0 1
0.00913456 -0.033364 0.51308 -0.707114 -0.7071 0
-0.357718 0.0789883 0.585416 0 0 1
-0.245908 0.273463 0.00210252 -0.0289084 0.999582 0
-0.2588 0.267003 0.461119 -0.47484 0.880072 0
-0.0619088 -0.182875 0.561176 0 0 -1
-0.256437 0.214483 0.382401 -0.525671 -0.850688 0
-0.0380213 0.400086 0.585416 0 0 1
0.2159 0.22348 0.410357 -0.819165 -0.573558 0
-0.0857037 0.135777 0.561176 0 0 -1
-0.259426 0.21633 0.149903 -0.525671 -0.850688 0
-0.19042 -0.173824 0.536935 0 0 1
-0.271557 0.252963 0.504614 0 0 1
0.22444 -0.0161371 0.561176 0 0 -1
-0.2486 -0.271046 0.420465 -0.258476 -0.966018 0
0.270081 -0.244629 0.0548333 0.999571 -0.0292895 0
-0.236545 0.0571402 0.561176 0 0 -1
0.256707 -0.263713 0.0121204 0 0 1
-0.0606356 0.281728 0.561176 0 0 -1
0.361397 0.0618579 0.585416 0 0 1
0.249667 -0.25014 0.536935 0 0 1
0.120065 -0.351328 0.561176 0 0 -1
-0.231895 0.253373 0.508422 0.707099 0.707114 0
-0.0403438 0.373423 0.561176 0 0 -1
-0.223623 -0.237761 0.504614 0 0 -1
0.201682 0.138994 0.561176 0 0 -1
0.252926 -0.243556 0.0218168 0 0 1
0.165221 -0.181412 0.561176 0 0 -1
0.262301 -0.221045 0.222876 0.784003 0.620756 0
0.143672 0.109961 0.561176 0 0 -1
0.267702 0.2295 0.0718891 0.90654 -0.42212 0
-0.202442 -0.192208 0.536935 0 0 1
0.220043 -0.263973 0.290886 -0.706397 -0.707816 0
-0.177915 -0.0703483 0.561176 0 0 -1
0.217485 -0.261419 0.201006 -0.706397 -0.707816 0
0.0998099 -0.317255 0.561176 0 0 -1
-0.038477 0.217948 0.585416 0 0 1
-0.095434 -0.116921 0.506156 0.707105 -0.707109 0
-0.136183 -0.157669 0.52733 0.707105 -0.707109 0
-0.173555 -0.228598 0.585416 0 0 1
-0.271264 0.231628 0.131816 -0.948627 -0.316397 0
0.142098 -0.354576 0.561176 0 0 -1
0.210789 -0.248746 0.0847451 -0.949236 -0.314564 0
-0.227772 0.224555 0.585416 0 0 1
-0.102561 0.00514712 0.585416 0 0 1
-0.139095 0.213617 0.585416 0 0 1
0.243425 -0.271367 0.0336827 0.14487 -0.989451 0
0.271332 0.234118 0.0116935 0.979526 -0.201316 0
-0.223101 0.218498 0.47489 0.573568 -0.819158 0
-0.223236 0.116004 0.561176 0 0 -1
-0.122656 0.377514 0.561176 0 0 -1
-0.357751 -0.0626441 0.561176 0 0 -1
0.286449 -0.23628 0.585416 0 0 1
0.236542 0.266212 0.0121204 0 0 -1
-0.0420198 -0.0565468 0.561176 0 0 -1
-0.237672 -0.02136 0.561176 0 0 -1
-0.213671 -0.00418725 0.561176 0 0 -1
0.267045 -0.228089 0.102468 0.906591 0.422011 0
-0.206548 0.164252 0.561176 0 0 -1
0.169335 0.265355 0.585416 0 0 1
