0.125552 0.242481 0.585416 0 0 1
-0.143578 0.119351 0.510389 -0.707114 -0.7071 0
-0.279881 0.0759545 0.585416 0 0 1
0.161778 0.357505 0.585416 0 0 1
0.069027 -0.331821 0.585416 0 0 1
0.218981 0.0755077 0.561176 0 0 -1
-0.230499 -0.237647 0.561176 0 0 -1
-0.343921 0.0414339 0.561176 0 0 -1
0.236667 0.0126646 0.585416 0 0 1
-0.137926 -0.240552 0.585416 0 0 1
0.292121 -0.0528058 0.585416 0 0 1
-0.272833 0.244125 0.268146 -0.98951 0.144464 0
-0.199238 0.250967 0.561176 0 0 -1
0.188175 -0.171511 0.561176 0 0 -1
0.18032 -0.158833 0.506276 0.707099 0.707114 0
-0.321816 -0.153024 0.585416 0 0 1
0.211207 0.250007 0.168925 -0.949208 0.314649 0
0.0609194 0.0581135 0.585416 0 0 1
-0.00415677 -0.26054 0.561176 0 0 -1
0.231558 -0.270326 0.279693 -0.314733 -0.94918 0
0.357586 -0.00875038 0.585416 0 0 1
0.101825 -0.0708108 0.585416 0 0 1
0.0203642 -0.0271465 0.585416 0 0 1
-0.313558 0.248754 0.561176 0 0 -1
-0.251541 -0.212627 0.150225 -0.314692 0.949194 0
0.0998809 -0.118697 0.561176 0 0 -1
0.283983 0.0498371 0.585416 0 0 1
0.00932625 0.40134 0.562918 0.0581356 0.998309 0
-0.0184382 0.0269777 0.504614 0 0 -1
-0.212775 -0.238926 0.480672 0.999571 0.0292917 0
-0.272971 0.243181 0.0899586 -0.98951 0.144464 0
0.230535 -0.212838 0.326391 -0.259271 0.965805 0
0.135089 0.16887 0.585416 0 0 1
0.373929 -0.0776935 0.561176 0 0 -1
0.187638 0.211864 0.516841 -0.707108 0.707105 0
0.203437 -0.237855 0.585416 0 0 1
0.00720736 0.338569 0.585416 0 0 1
-0.274628 0.273533 0.585416 0 0 1
0.095527 -0.146179 0.585416 0 0 1
0.203454 -0.106392 0.561176 0 0 -1
-0.05601 -0.133111 0.561176 0 0 -1
0.217704 0.221049 0.0449066 -0.663791 -0.747918 0
-0.232527 -0.297533 0.585416 0 0 1
-0.2184 0.259086 0.224753 0.784115 0.620616 0
-0.230512 -0.21394 0.480067 0.369504 0.929229 0
-0.27001 -0.254492 0.0986665 -0.929347 -0.369208 0
0.232125 0.212407 0.43008 -0.258211 -0.966089 0
0.243728 0.265603 0.585416 0 0 1
0.220766 -0.264694 0.108671 -0.706397 -0.707816 0
-0.155055 0.311588 0.561176 0 0 -1
0.250022 -0.212874 0.0317209 0.422715 0.906263 0
-0.158857 -0.323101 0.561176 0 0 -1
-0.213251 0.235469 0.179073 0.966155 -0.257962 0
0.0228247 -0.364981 0.585416 0 0 1
0.103273 0.0817848 0.531728 0.707105 -0.707109 0
-0.00245611 0.232514 0.585416 0 0 1
-0.293656 0.193966 0.585416 0 0 1
-0.354008 -0.0866917 0.561176 0 0 -1
-0.255648 -0.211872 0.00775466 -0.314071 0.9494 0
0.355425 0.0669973 0.561176 0 0 -1
-0.248174 -0.27116 0.184135 -0.258476 -0.966018 0
-0.219227 0.319946 0.561176 0 0 -1
-0.32399 0.122847 0.561176 0 0 -1
-0.0915945 -0.113081 0.514784 0.707105 -0.707109 0
-0.301465 0.0227254 0.585416 0 0 1
0.257532 -0.216884 0.0718523 0.62087 0.783913 0
0.312739 0.00954526 0.585416 0 0 1
-0.0102282 -0.120704 0.585416 0 0 1
-0.11489 -0.387457 0.58281 -0.173661 -0.984806 0
0.141459 0.0300425 0.561176 0 0 -1
-0.122844 0.179533 0.585416 0 0 1
-0.338549 0.212017 0.585416 0 0 1
0.138614 -0.210254 0.561176 0 0 -1
-0.0546631 0.328514 0.585416 0 0 1
-0.278928 -0.0636441 0.585416 0 0 1
0.0424215 0.0666468 0.531514 -0.707108 0.707105 0
-0.0761055 0.0505606 0.561176 0 0 -1
0.251197 -0.269403 0.474292 0.369552 -0.92921 0
0.0489272 0.305796 0.585416 0 0 1
0.189725 0.315116 0.585416 0 0 1
-0.0617554 -0.328978 0.585416 0 0 1
0.258679 0.217791 0.244741 0.620694 -0.784053 0
-0.137184 -0.112959 0.505933 -0.707108 0.707105 0
0.138663 -0.275685 0.561176 0 0 -1
0.260084 0.238595 0.523292 0.707105 -0.707109 0
0.140428 -0.0476569 0.561176 0 0 -1
0.058326 -0.365821 0.561176 0 0 -1
-0.21769 -0.258191 0.27198 0.784006 -0.620754 0
0.317425 -0.139545 0.561176 0 0 -1
-0.25525 -0.213857 0.264528 -0.314692 0.949194 0
-0.274711 0.237683 0.00657227 -0.996298 -0.0859657 0
0.363139 -0.12964 0.585416 0 0 1
-0.31701 -0.191817 0.561176 0 0 -1
0.340055 -0.165765 0.561176 0 0 -1
-0.257354 -0.267786 0.328252 -0.475719 -0.879597 0
-0.0310017 0.253093 0.561176 0 0 -1
0.0391788 0.265668 0.585416 0 0 1
-0.165967 -0.120453 0.585416 0 0 1
0.214467 -0.166438 0.585416 0 0 1
0.232052 -0.212431 0.417593 -0.259271 0.965805 0
0.294459 -0.0240842 0.561176 0 0 -1
-0.167614 -0.1891 0.512342 0.707105 -0.707109 0
-0.367442 0.0818817 0.585416 0 0 1
0.258299 -0.217491 0.343671 0.62087 0.783913 0
-0.0263221 -0.322165 0.561176 0 0 -1
-0.241755 0.102199 0.585416 0 0 1
0.266854 -0.22768 0.446459 0.906591 0.422011 0
-0.0444245 0.108517 0.585416 0 0 1
0.200997 -0.137317 0.561176 0 0 -1
0.0247417 -0.184192 0.561176 0 0 -1
-0.110398 0.0264419 0.561176 0 0 -1
0.257068 0.262051 0.561176 0 0 -1
-0.0751653 0.0509376 0.505727 -0.707114 -0.7071 0
-0.22329 0.264368 0.317829 0.620697 0.784051 0
-0.21548 -0.124069 0.561176 0 0 -1
0.114294 0.318543 0.561176 0 0 -1
-0.0728326 -0.000951391 0.585416 0 0 1
0.210256 -0.245966 0.402904 -0.996118 -0.0880239 0
0.116645 -0.253795 0.561176 0 0 -1
-0.184447 -0.170298 0.560215 -0.923576 0.383415 0
-0.00272884 0.304691 0.561176 0 0 -1
0.00634307 -0.385776 0.561176 0 0 -1
0.269441 -0.234887 0.193813 0.979174 0.203023 0
0.194176 -0.00740637 0.561176 0 0 -1
-0.26922 0.136147 0.585416 0 0 1
0.0164694 -0.00244223 0.561176 0 0 -1
-0.176832 -0.079888 0.561176 0 0 -1
0.0135455 -0.0760286 0.561176 0 0 -1
-0.155504 -0.155641 0.585416 0 0 1
-0.228535 -0.305995 0.561176 0 0 -1
0.221446 -0.311289 0.561176 0 0 -1
0.144806 -0.140482 0.561176 0 0 -1
0.0606902 -0.0641445 0.561176 0 0 -1
-0.0276573 -0.21629 0.585416 0 0 1
-0.108713 -0.0298285 0.561176 0 0 -1
0.077875 0.165804 0.561176 0 0 -1
0.152258 -0.348915 0.585416 0 0 1
0.0867473 -0.392499 0.573345 0.286837 -0.957979 0
0.121198 0.107028 0.504614 0 0 -1
0.116555 0.292712 0.561176 0 0 -1
-0.213056 0.236201 0.0837106 0.966155 -0.257962 0
-0.243009 0.0322214 0.585416 0 0 1
-0.0947288 -0.115975 0.561176 0 0 -1
0.247474 -0.242893 0.561176 0 0 -1
0.0853161 0.0307695 0.561176 0 0 -1
0.0668239 -0.296747 0.561176 0 0 -1
0.270101 0.243949 0.285373 0.999571 0.0292854 0
0.230523 0.212835 0.123338 -0.258211 -0.966089 0
0.139929 -0.365812 0.561176 0 0 -1
0.179885 0.336685 0.561176 0 0 -1
0.267046 0.228091 0.414188 0.90654 -0.42212 0
-0.048661 0.164951 0.585416 0 0 1
-0.0511984 0.305138 0.561176 0 0 -1
-0.212715 0.240959 0.436477 0.999571 -0.0292917 0
-0.374763 -0.106057 0.585416 0 0 1
-0.216991 -0.225918 0.252023 0.879314 0.476242 0
0.230558 -0.269994 0.336284 -0.314733 -0.94918 0
0.197582 -0.273791 0.585416 0 0 1
-0.288243 -0.249373 0.585416 0 0 1
-0.270496 -0.229326 0.190623 -0.948627 0.316397 0
0.136734 -0.320671 0.561176 0 0 -1
-0.0571321 -0.0436882 0.561176 0 0 -1
0.312804 0.252577 0.577792 0.835538 0.549432 0
0.0258633 -0.050093 0.524377 -0.707114 -0.7071 0
-0.0118362 -0.384879 0.585416 0 0 1
-0.264731 0.0622531 0.561176 0 0 -1
0.269058 0.249531 0.347924 0.966164 0.257929 0
0.174457 -0.238261 0.561176 0 0 -1
0.0735572 -0.215882 0.585416 0 0 1
0.268009 -0.253039 0.388122 0.879604 -0.475706 0
0.393315 -0.0627465 0.585416 0 0 1
0.251126 0.042213 0.561176 0 0 -1
0.127402 0.194953 0.585416 0 0 1
-0.245525 -0.229024 0.504614 0 0 -1
0.061627 0.227695 0.561176 0 0 -1
-0.020388 -0.0418754 0.528356 0.707105 -0.707109 0
0.0834702 -0.0231764 0.561176 0 0 -1
0.212964 -0.0313756 0.561176 0 0 -1
-0.30756 -0.0356774 0.585416 0 0 1
-0.207638 0.280633 0.585416 0 0 1
0.235809 0.271278 0.104408 -0.0871094 0.996199 0
0.0654908 -0.0440061 0.513568 0.707099 0.707114 0
0.198616 0.190106 0.504614 0 0 -1
-0.256649 -0.199505 0.561176 0 0 -1
0.215797 0.259424 0.323656 -0.85182 0.523835 0
-0.135646 -0.195265 0.585416 0 0 1
-0.107632 0.381691 0.585416 0 0 1
-0.149156 -0.222681 0.561176 0 0 -1
0.254878 -0.309938 0.566028 0.686298 -0.727321 0
0.270229 -0.239598 0.161008 0.999571 -0.0292895 0
-0.0945612 -0.0778211 0.504614 0 0 -1
0.103432 0.105907 0.585416 0 0 1
-0.126298 0.0246213 0.585416 0 0 1
-0.22874 -0.268086 0.12525 0.422596 -0.906318 0
0.324415 0.166072 0.585416 0 0 1
-0.0252453 -0.0191571 0.504614 0 0 -1
0.0185981 0.0781373 0.561176 0 0 -1
-0.0955347 -0.25989 0.585416 0 0 1
-0.226357 -0.0299946 0.585416 0 0 1
0.349009 -0.020515 0.561176 0 0 -1
-0.154512 0.0215828 0.561176 0 0 -1
-0.270696 0.252765 0.366524 -0.929347 0.369208 0
-0.248238 0.211702 0.414949 -0.0871175 -0.996198 0
-0.145476 0.272745 0.585416 0 0 1
-0.207373 -0.246118 0.585416 0 0 1
0.209056 -0.24529 0 0 0 -1
-0.223856 0.0428322 0.561176 0 0 -1
-0.247148 0.211606 0.27524 -0.0871175 -0.996198 0
-0.266511 -0.113556 0.561176 0 0 -1
-0.141371 0.0825666 0.585416 0 0 1
0.293469 0.195889 0.585416 0 0 1
-0.275102 0.189023 0.561176 0 0 -1
0.230242 0.247328 0.498554 0 0 -1
0.0943185 0.0614366 0.561176 0 0 -1
0.222669 0.224538 0.536935 0 0 1
-0.0352024 -0.40128 0.561176 0 0 -1
-0.242225 0.271563 0.100104 -0.0287589 0.999586 0
-0.162118 0.240736 0.561176 0 0 -1
-0.262348 0.218422 0.0635903 -0.706253 -0.70796 0
0.28836 -0.254638 0.585416 0 0 1
-0.254006 -0.0105168 0.561176 0 0 -1
0.0569226 0.122161 0.585416 0 0 1
-0.0289619 0.0395897 0.585416 0 0 1
-0.0504482 0.0247314 0.585416 0 0 1
-0.052281 -0.34775 0.561176 0 0 -1
-0.239511 -0.211504 0.177596 0.144867 0.989451 0
-0.213144 -0.228822 0.00305305 0.880454 0.474131 0
-0.235129 0.256607 0.520625 0.707099 0.707114 0
-0.00762951 -0.204883 0.561176 0 0 -1
-0.0732985 0.363165 0.561176 0 0 -1
0.243183 0.211354 0.0815759 0.201902 -0.979406 0
0.262725 0.261249 0.187119 0.748578 0.663047 0
0.235087 0.241803 0.0218168 0 0 -1
-0.222378 -0.176042 0.585416 0 0 1
-0.291231 0.102811 0.585416 0 0 1
0.0874092 -0.355001 0.585416 0 0 1
0.171234 0.16797 0.585416 0 0 1
-0.356022 0.186131 0.561176 0 0 -1
0.374779 0.109141 0.561176 0 0 -1
0.384461 0.0350887 0.561176 0 0 -1
-0.230236 0.237461 0.504614 0 0 -1
-0.221165 0.26258 0.448217 0.784115 0.620616 0
-0.160684 -0.00297166 0.585416 0 0 1
0.189962 0.168473 0.519024 0.707105 -0.707109 0
0.192354 0.263147 0.561176 0 0 -1
0.29078 0.120803 0.585416 0 0 1
0.0933929 0.347377 0.561176 0 0 -1
-0.269165 -0.256272 0.287684 -0.819118 -0.573626 0
-0.266347 0.26029 0.163881 -0.818744 0.574159 0
0.221506 -0.217679 0.0896118 -0.664426 0.747354 0
-0.270065 0.25848 0.500174 -0.819502 0.573076 0
-0.0120414 0.0662135 0.561176 0 0 -1
0.0640084 -0.195136 0.561176 0 0 -1
-0.272784 -0.238692 0.455013 -0.9963 0.0859395 0
0.210787 -0.248743 0.435381 -0.949236 -0.314564 0
-0.188588 0.104091 0.561176 0 0 -1
0.362934 -0.0360652 0.585416 0 0 1
-0.188924 0.218219 0.585416 0 0 1
0.0612928 0.0517953 0.504614 0 0 -1
-0.338092 -0.153656 0.561176 0 0 -1
0.0530394 0.264134 0.561176 0 0 -1
-0.152136 -0.130553 0.536935 0 0 1
0.323232 -0.0892627 0.561176 0 0 -1
-0.222287 -0.219231 0.390523 0.747722 0.664012 0
-0.143763 -0.316768 0.585416 0 0 1
0.238625 0.271524 0.184199 -0.0871094 0.996199 0
0.146779 0.203976 0.561176 0 0 -1
0.242182 0.271549 0.228737 0.14487 0.989451 0
-0.217849 0.193624 0.512537 -0.707114 -0.7071 0
-0.085586 -0.145653 0.585416 0 0 1
0.210507 -0.247896 0.193581 -0.949236 -0.314564 0
-0.114598 0.233066 0.561176 0 0 -1
0.0408214 -0.140087 0.561176 0 0 -1
0.211534 0.250996 0.0303369 -0.949208 0.314649 0
-0.175524 0.160423 0.554018 -0.382768 -0.923844 0
-0.0235667 0.214064 0.561176 0 0 -1
0.186312 0.106496 0.561176 0 0 -1
0.212934 0.228216 0.245753 -0.929327 -0.369258 0
-0.216324 -0.207733 0.536935 0 0 1
0.160248 -0.196121 0.561176 0 0 -1
0.26549 -0.225072 0.30732 0.784003 0.620756 0
-0.393413 0.0408735 0.585416 0 0 1
0.172342 0.29936 0.561176 0 0 -1
0.150261 0.108547 0.561176 0 0 -1
-0.206826 0.181914 0.585416 0 0 1
-0.0983864 0.270312 0.585416 0 0 1
-0.339724 -0.03801 0.585416 0 0 1
0.310221 -0.17867 0.585416 0 0 1
-0.157692 0.369595 0.570206 -0.396093 0.918211 0
0.239771 -0.250128 0.504614 0 0 -1
-0.23047 -0.268893 0.477536 0.422596 -0.906318 0
-0.0752757 -0.394443 0.569115 -0.173661 -0.984806 0
-0.16255 0.204255 0.561176 0 0 -1
-0.240638 -0.211339 0.329819 0.144867 0.989451 0
0.0799389 -0.175977 0.585416 0 0 1
-0.00201505 -0.161898 0.561176 0 0 -1
-0.255138 -0.269913 0.561176 0 0 -1
-0.197779 0.0222032 0.561176 0 0 -1
0.139973 0.137383 0.536935 0 0 1
-0.0402593 -0.186844 0.561176 0 0 -1
-0.272308 0.247716 0.200238 -0.98951 0.144464 0
0.246492 0.0988752 0.585416 0 0 1
-0.24978 0.29766 0.561176 0 0 -1
0.075758 0.0889273 0.585416 0 0 1
0.290139 0.115941 0.561176 0 0 -1
0.330126 0.186935 0.561176 0 0 -1
0.202359 0.10783 0.585416 0 0 1
0.361073 0.0317549 0.585416 0 0 1
0.261183 0.219773 0.206592 0.620694 -0.784053 0
0.0512511 -0.155789 0.585416 0 0 1
-0.213437 -0.248001 0.0320701 0.979174 -0.203024 0
0.270249 0.238787 0.170655 0.97918 -0.202994 0
0.212843 0.0367483 0.561176 0 0 -1
-0.271961 -0.233717 0.127869 -0.948627 0.316397 0
0.255016 -0.212989 0.00350853 0.422091 0.906554 0
-0.250028 0.270659 0.0251501 -0.259269 0.965805 0
-0.175454 -0.033873 0.561176 0 0 -1
0.105402 -0.109899 0.585416 0 0 1
0.0720069 -0.253846 0.561176 0 0 -1
-0.223389 0.0778453 0.585416 0 0 1
0.0155585 0.370678 0.561176 0 0 -1
0.220529 0.179217 0.561176 0 0 -1
-0.37554 -0.069218 0.585416 0 0 1
0.19401 -0.109448 0.585416 0 0 1
0.0581969 0.33836 0.561176 0 0 -1
-0.116 0.329507 0.585416 0 0 1
-0.279917 -0.21882 0.585416 0 0 1
-0.077886 0.182434 0.561176 0 0 -1
0.219422 0.219524 0.374211 -0.663791 -0.747918 0
-0.323315 -0.0984452 0.561176 0 0 -1
-0.348934 -0.0534443 0.561176 0 0 -1
0.273813 -0.0977794 0.585416 0 0 1
-0.0848266 0.0834687 0.561176 0 0 -1
0.218768 0.2627 0.477104 -0.706397 0.707816 0
0.00507548 -0.310254 0.561176 0 0 -1
-0.19357 0.0479579 0.585416 0 0 1
-0.147808 -0.197032 0.561176 0 0 -1
-0.248519 -0.271068 0.399923 -0.258476 -0.966018 0
-0.269184 -0.226877 0.429943 -0.851806 0.523858 0
0.0535934 0.0658594 0.561176 0 0 -1
0.268109 0.191647 0.585416 0 0 1
0.116506 -0.316313 0.585416 0 0 1
0.0342995 -0.0479592 0.561176 0 0 -1
0.279304 -0.156921 0.585416 0 0 1
0.150111 0.153967 0.561176 0 0 -1
0.393386 0.079162 0.561546 0.993231 0.116152 0
-0.0472637 -0.0744797 0.585416 0 0 1
-0.263583 -0.262505 0 0 0 -1
0.300725 -0.0284389 0.585416 0 0 1
-0.0342331 0.00460561 0.561176 0 0 -1
-0.0372305 0.013002 0.519351 -0.707114 -0.7071 0
-0.291731 -0.192246 0.561176 0 0 -1
0.123045 0.380999 0.561176 0 0 -1
0.0711105 0.272316 0.585416 0 0 1
-0.309851 0.0387299 0.561176 0 0 -1
0.129309 -0.0137259 0.585416 0 0 1
-0.189318 -0.308576 0.561176 0 0 -1
0.0090636 0.274605 0.561176 0 0 -1
-0.240185 0.188576 0.561176 0 0 -1
-0.133077 -0.0910591 0.585416 0 0 1
0.0100219 -0.027318 0.536935 0 0 1
-0.260989 0.265539 0.450171 -0.664425 0.747355 0
0.262596 0.261395 0.0358043 0.748578 0.663047 0
-0.232385 -0.269785 0.349003 0.422596 -0.906318 0
-0.127695 -0.321177 0.561176 0 0 -1
0.17643 0.0204612 0.561176 0 0 -1
-0.0503736 0.152418 0.561176 0 0 -1
-0.0781555 -0.220851 0.561176 0 0 -1
-0.366802 -0.14352 0.585416 0 0 1
0.221733 0.217473 0.180976 -0.663791 -0.747918 0
-0.296277 0.0796331 0.561176 0 0 -1
-0.326252 0.178032 0.585416 0 0 1
0.304129 -0.212866 0.561176 0 0 -1
0.0518457 -0.356879 0.585416 0 0 1
0.317931 -0.00269039 0.561176 0 0 -1
0.258148 0.228901 0.561176 0 0 -1
0.213132 -0.237366 0.512105 -0.707114 -0.7071 0
-0.316827 -0.248334 0.576239 -0.76605 -0.642781 0
0.267163 0.2546 0.0974679 0.879347 0.476181 0
-0.215417 -0.253901 0.306191 0.90659 -0.422013 0
0.0819411 0.339228 0.585416 0 0 1
0.348887 -0.185619 0.585416 0 0 1
0.203431 -0.181944 0.523545 0.707099 0.707114 0
0.243749 -0.250253 0.585416 0 0 1
0.402388 0.000243537 0.561176 0 0 -1
-0.164292 0.140066 0.528875 -0.707114 -0.7071 0
-0.240179 0.239789 0.0218168 0 0 -1
0.00759037 -0.333941 0.585416 0 0 1
-0.0415547 0.0630371 0.507366 0.707099 0.707114 0
0.380454 -0.124202 0.562052 0.939698 -0.342007 0
0.350065 -0.0919376 0.585416 0 0 1
-0.17786 -0.156484 0.536935 0 0 1
0.00524614 0.0986047 0.585416 0 0 1
-0.0859802 0.305644 0.561176 0 0 -1
-0.183276 -0.261361 0.561176 0 0 -1
0.0174525 -0.262 0.585416 0 0 1
0.0910911 -0.112007 0.536935 0 0 1
0.162654 0.258227 0.585416 0 0 1
-0.110987 0.128471 0.504614 0 0 -1
0.260933 -0.263105 0.0218168 0 0 -1
0.0665982 -0.127432 0.561176 0 0 -1
0.0945794 0.249625 0.585416 0 0 1
-0.219988 0.261092 0.0569836 0.784115 0.620616 0
-0.231792 0.125551 0.561176 0 0 -1
0.367345 0.0694309 0.585416 0 0 1
-0.380699 0.102825 0.561176 0 0 -1
0.311916 -0.229441 0.585416 0 0 1
0.00344093 0.180767 0.561176 0 0 -1
0.225173 -0.0678003 0.561176 0 0 -1
-0.30728 -0.158867 0.561176 0 0 -1
0.229372 -0.21798 0.561176 0 0 -1
-0.212803 -0.237975 0.0953721 0.999571 0.0292917 0
0.218688 -0.220185 0.270897 -0.664426 0.747354 0
-0.358455 0.153038 0.561176 0 0 -1
0.218766 -0.262698 0.0302987 -0.706397 -0.707816 0
-0.125671 -0.131571 0.561176 0 0 -1
0.00843748 0.00449836 0.585416 0 0 1
-0.187505 0.206287 0.504614 0 0 -1
0.107618 0.234467 0.561176 0 0 -1
-0.0407506 -0.0655086 0.561176 0 0 -1
0.158468 0.325155 0.585416 0 0 1
-0.253638 0.211206 0.00343252 -0.31431 -0.94932 0
-0.208921 0.279934 0.561176 0 0 -1
-0.0839063 0.248047 0.561176 0 0 -1
0.200381 -0.225043 0.561176 0 0 -1
-0.136958 -0.158445 0.508991 0.707105 -0.707109 0
-0.294079 0.165005 0.561176 0 0 -1
0.130483 -0.0906739 0.561176 0 0 -1
0.00471194 0.0370838 0.585416 0 0 1
-0.11841 0.214518 0.585416 0 0 1
0.0562455 -0.287702 0.585416 0 0 1
0.10981 -0.0350634 0.561176 0 0 -1
0.223569 0.217528 0.504614 0 0 -1
-0.209778 0.311844 0.585416 0 0 1
0.255784 0.267175 0.30414 0.572632 0.819812 0
0.267426 0.228907 0.487854 0.90654 -0.42212 0
0.222509 -0.265966 0.248006 -0.525567 -0.850752 0
0.248311 0.305393 0.561176 0 0 -1
0.216712 0.188651 0.585416 0 0 1
0.019864 0.149935 0.561176 0 0 -1
0.295254 -0.136557 0.585416 0 0 1
-0.0406693 -0.354435 0.585416 0 0 1
-0.262843 0.218915 0.114694 -0.706253 -0.70796 0
0.13819 0.162416 0.52591 -0.707108 0.707105 0
-0.100271 0.00118595 0.585416 0 0 1
-0.0929316 0.0971406 0.504614 0 0 -1
0.351056 -0.0576171 0.561176 0 0 -1
-0.209888 -0.275969 0.585416 0 0 1
0.269091 0.249408 0.130517 0.966164 0.257929 0
0.210874 0.2334 0.445013 -0.929327 -0.369258 0
-0.0756793 0.29154 0.585416 0 0 1
0.237809 0.211396 0.0295671 -0.0287589 -0.999586 0
0.0712402 -0.0834667 0.585416 0 0 1
0.012032 -0.396119 0.585416 0 0 1
0.385054 -0.0252793 0.585416 0 0 1
0.0385058 -0.125457 0.585416 0 0 1
0.0867443 -0.0680775 0.504614 0 0 -1
0.105866 -0.17196 0.585416 0 0 1
-0.225986 0.216478 0.216714 0.573568 -0.819158 0
-0.252894 -0.226414 0.585416 0 0 1
-0.219429 -0.260387 0.187748 0.784006 -0.620754 0
0.261337 -0.262818 0.191687 0.748077 -0.663612 0
-0.239318 -0.228871 0.0218168 0 0 -1
0.25898 0.264943 0.442208 0.572632 0.819812 0
0.147525 -0.0216728 0.561176 0 0 -1
-0.376845 0.000886098 0.561176 0 0 -1
-0.241342 -0.262828 0.523974 0.707105 -0.707109 0
0.269258 -0.151121 0.561176 0 0 -1
0.0713252 -0.0955558 0.523049 -0.707114 -0.7071 0
-0.12477 0.129127 0.561176 0 0 -1
-0.190274 -0.171569 0.585416 0 0 1
0.113988 -0.28344 0.585416 0 0 1
-0.186222 -0.207708 0.533053 0.707105 -0.707109 0
0.125223 0.0177768 0.585416 0 0 1
-0.102756 -0.259241 0.561176 0 0 -1
-0.270367 0.228939 0.386086 -0.948627 -0.316397 0
0.24011 -0.274689 0.561176 0 0 -1
-0.189555 0.311277 0.561176 0 0 -1
-0.199715 0.190393 0.536935 0 0 1
0.0137651 0.342508 0.561176 0 0 -1
0.170181 -0.121156 0.561176 0 0 -1
0.0378167 0.226057 0.585416 0 0 1
-0.31863 -0.00860115 0.585416 0 0 1
0.255137 -0.21526 0.143981 0.422715 0.906263 0
-0.189673 0.155896 0.585416 0 0 1
0.257952 -0.265661 0.265738 0.572823 -0.819679 0
0.224963 0.267482 0.145676 -0.525463 0.850817 0
0.214264 0.225816 0.100951 -0.819165 -0.573558 0
-0.243762 -0.136411 0.561176 0 0 -1
0.114294 -0.0928079 0.522106 0.707099 0.707114 0
0.0621523 0.200065 0.561176 0 0 -1
-0.0373305 0.384515 0.561176 0 0 -1
0.270083 0.244569 0.381382 0.999571 0.0292854 0
-0.256863 -0.214748 0.0617102 -0.525463 0.850816 0
0.125955 0.127149 0.585416 0 0 1
0.0256352 0.394884 0.585416 0 0 1
-0.256032 0.268496 0.302734 -0.47484 0.880072 0
-0.138346 0.33726 0.561176 0 0 -1
-0.251532 0.100222 0.561176 0 0 -1
0.175294 -0.167517 0.536935 0 0 -1
0.210513 0.234739 0.517517 -0.707108 0.707105 0
-0.232825 -0.136617 0.585416 0 0 1
-0.239508 -0.271487 0.256245 0.202038 -0.979378 0
-0.235632 -0.212072 0.444759 0.144867 0.989451 0
-0.272833 -0.244133 0.349038 -0.989483 -0.144647 0
-0.288923 -0.0132577 0.561176 0 0 -1
-0.055211 -0.224797 0.585416 0 0 1
-0.277778 -0.0878216 0.585416 0 0 1
0.191659 0.0684258 0.561176 0 0 -1
0.222519 -0.183018 0.561176 0 0 -1
0.224812 -0.213194 0.00906672 -0.474544 0.880232 0
0.202789 0.145205 0.585416 0 0 1
0.119709 -0.143941 0.528604 -0.707114 -0.7071 0
0.00726594 0.305737 0.585416 0 0 1
-0.0352072 -0.0236519 0.585416 0 0 1
0.115822 0.0942728 0.561176 0 0 -1
0.07775 -0.326311 0.561176 0 0 -1
0.157852 -0.075836 0.585416 0 0 1
0.269303 -0.248614 0.469432 0.966164 -0.257929 0
-0.255678 -0.268693 0.217209 -0.475719 -0.879597 0
-0.264728 0.047982 0.585416 0 0 1
0.215947 0.223413 0.145128 -0.819165 -0.573558 0
-0.313104 -0.0455367 0.561176 0 0 -1
-0.239759 0.271537 0.132513 0.2019 0.979406 0
-0.293637 0.15633 0.585416 0 0 1
0.259356 0.0440618 0.585416 0 0 1
0.0977917 0.00178408 0.561176 0 0 -1
0.23943 -0.216404 0.585416 0 0 1
0.220631 -0.0922652 0.585416 0 0 1
-0.156589 0.148896 0.504614 0 0 -1
0.269744 -0.24696 0.42047 0.966164 -0.257929 0
-0.166925 -0.335913 0.585416 0 0 1
0.266271 -0.00442786 0.561176 0 0 -1
0.00571759 0.121325 0.561176 0 0 -1
-0.271097 -0.231128 0.494233 -0.948627 0.316397 0
-0.207038 0.173604 0.561176 0 0 -1
0.084034 0.393311 0.581944 0.286847 0.957976 0
-0.0396109 0.203416 0.585416 0 0 1
0.0417791 0.0202914 0.527222 0.707105 -0.707109 0
-0.0621035 0.0194714 0.561176 0 0 -1
0.0890178 -0.149493 0.561176 0 0 -1
-0.202999 -0.178775 0.53416 -0.707108 0.707105 0
-0.0990129 0.0762668 0.536935 0 0 1
0.253717 0.237541 0 0 0 -1
0.0879532 -0.0382149 0.585416 0 0 1
-0.21586 0.228004 0.149719 0.879636 -0.475648 0
0.0100276 0.199062 0.585416 0 0 1
0.137085 0.0571279 0.561176 0 0 -1
0.187783 -0.337032 0.561176 0 0 -1
-0.253235 -0.269806 0.0780122 -0.258476 -0.966018 0
-0.232135 0.213293 0.341331 0.36975 -0.929131 0
0.296926 0.149352 0.585416 0 0 1
-0.0208007 0.360845 0.585416 0 0 1
0.238133 0.1493 0.561176 0 0 -1
-0.0134871 0.401098 0.585416 0 0 1
0.355185 0.115378 0.585416 0 0 1
-0.383846 -0.0449588 0.585416 0 0 1
-0.249963 -0.0850215 0.561176 0 0 -1
0.061285 0.0184415 0.561176 0 0 -1
-0.21282 0.237382 0.278521 0.999571 -0.0292917 0
-0.0130162 -0.264725 0.585416 0 0 1
-0.228685 -0.212507 0.000920036 0.368979 0.929438 0
-0.269027 0.227831 0.498554 0 0 -1
-0.214598 -0.252142 0.453119 0.90659 -0.422013 0
-0.232405 0.213186 0.186829 0.36975 -0.929131 0
-0.0407756 -0.0622628 0.530625 0.707105 -0.707109 0
-0.267895 0.224779 0.290003 -0.851884 -0.523731 0
0.156726 0.362746 0.561176 0 0 -1
-0.0561164 -0.0318915 0.520609 -0.707108 0.707105 0
0.0880674 -0.0867902 0.561176 0 0 -1
0.0279948 -0.00651085 0.522177 0.707099 0.707114 0
0.271207 0.24923 0.00727223 0.966095 0.258186 0
-0.270869 -0.225776 0.00738312 -0.850802 0.525487 0
0.10699 -0.190456 0.561176 0 0 -1
-0.083604 -0.0888018 0.536935 0 0 1
0.268799 -0.231857 0.261746 0.906591 0.422011 0
-0.0337618 -0.259581 0.561176 0 0 -1
-0.266722 0.302725 0.582648 -0.597185 0.802103 0
0.189672 -0.275434 0.561176 0 0 -1
-0.11658 0.0704031 0.585416 0 0 1
0.189909 -0.158188 0.585416 0 0 1
0.243104 -0.245064 0.0121204 0 0 -1
-0.00877495 0.0281076 0.536935 0 0 1
0.263398 -0.22243 0.404982 0.784003 0.620756 0
-0.210653 -0.313012 0.585416 0 0 1
-0.139114 -0.174854 0.561176 0 0 -1
0.335843 -0.030704 0.585416 0 0 1
0.35468 0.13559 0.561176 0 0 -1
-0.00212607 -0.00145307 0.504614 0 0 -1
-0.181546 0.349007 0.585416 0 0 1
0.23603 0.132907 0.585416 0 0 1
-0.237801 0.245946 0 0 0 -1
-0.238115 -0.251298 0.0218168 0 0 1
0.110005 -0.385144 0.561176 0 0 -1
-0.18391 0.121403 0.585416 0 0 1
0.223853 -0.266796 0.307142 -0.525567 -0.850752 0
-0.147781 -0.112119 0.561176 0 0 -1
-0.0980538 -0.330331 0.585416 0 0 1
-0.219123 0.26241 0.498554 0 0 -1
-0.110751 0.098498 0.561176 0 0 -1
-0.0998028 0.164635 0.585416 0 0 1
0.220501 -0.218573 0.486132 -0.664426 0.747354 0
0.243526 -0.121571 0.561176 0 0 -1
-0.200039 -0.193049 0.561176 0 0 -1
0.231318 -0.212628 0.355609 -0.259271 0.965805 0
0.218127 0.276239 0.585416 0 0 1
0.26706 -0.0443209 0.585416 0 0 1
0.0173565 -0.0878782 0.585416 0 0 1
0.0273645 0.119707 0.585416 0 0 1
-0.371676 0.0650601 0.561176 0 0 -1
0.0211402 0.0619136 0.585416 0 0 1
-0.318732 0.153756 0.561176 0 0 -1
-0.244611 0.211384 0.383324 -0.0871175 -0.996198 0
-0.377534 -0.0479805 0.561176 0 0 -1
-0.249076 -0.186357 0.585416 0 0 1
-0.266928 0.185818 0.585416 0 0 1
0.148837 0.0525505 0.585416 0 0 1
0.228667 0.269366 0.0570977 -0.314862 0.949137 0
-0.186817 -0.112211 0.561176 0 0 -1
0.150843 -0.205074 0.585416 0 0 1
0.337055 0.0739609 0.585416 0 0 1
0.222895 -0.266205 0.171673 -0.525567 -0.850752 0
0.0820836 0.106309 0.525255 -0.707108 0.707105 0
-0.020473 -0.142097 0.561176 0 0 -1
-0.267954 0.257998 0.399454 -0.818744 0.574159 0
-0.148645 -0.170132 0.536105 0.707105 -0.707109 0
-0.207508 -0.0459075 0.561176 0 0 -1
-0.318801 0.094836 0.561176 0 0 -1
-0.220742 0.24222 0.528511 0.707099 0.707114 0
-0.256875 0.258719 0.513543 -0.707107 0.707107 0
-0.153964 0.161924 0.536935 0 0 1
-0.109513 -0.0806159 0.561176 0 0 -1
0.252525 -0.268875 0.369026 0.369552 -0.92921 0
-0.38865 -0.100994 0.561176 0 0 -1
-0.211086 0.249308 0.585416 0 0 1
-0.238135 0.211703 0.0697171 0.144865 -0.989451 0
-0.239592 0.215456 0.0218168 0 0 -1
-0.22885 0.268136 0.171574 0.422715 0.906263 0
0.241772 -0.0228277 0.585416 0 0 1
0.0919234 -0.28213 0.561176 0 0 -1
-0.334858 -0.219746 0.561176 0 0 -1
0.233049 -0.212163 0.249234 -0.259271 0.965805 0
0.159599 0.176133 0.536935 0 0 1
0.111938 0.339036 0.585416 0 0 1
-0.216474 -0.25617 0.421688 0.90659 -0.422013 0
-0.369773 -0.16057 0.571187 -0.893622 -0.44882 0
-0.0111963 -0.189385 0.585416 0 0 1
0.220507 0.218561 0.0736232 -0.663791 -0.747918 0
-0.217764 -0.22449 0.190623 0.879314 0.476242 0
0.292017 -0.27293 0.561176 0 0 -1
0.0118499 -0.0529318 0.585416 0 0 1
0.274312 0.1899 0.561176 0 0 -1
-0.250064 0.242871 0.585416 0 0 1
0.230861 0.272208 0.504281 -0.31431 0.94932 0
0.0226916 0.0469168 0.525731 -0.707108 0.707105 0
-0.00870363 -0.0163039 0.561176 0 0 -1
-0.0728031 -0.302615 0.585416 0 0 1
0.132562 -0.156794 0.509177 -0.707114 -0.7071 0
-0.272667 0.245261 0.243339 -0.98951 0.144464 0
-0.130493 0.00694454 0.561176 0 0 -1
0.220119 -0.218912 0.216442 -0.664426 0.747354 0
-0.0301037 0.267941 0.585416 0 0 1
-0.145659 0.16327 0.585416 0 0 1
-0.00880002 -0.0349105 0.585416 0 0 1
-0.255585 0.268737 0.376032 -0.47484 0.880072 0
-0.244649 -0.220425 0.528246 -0.707108 0.707105 0
0.188447 0.21836 0.561176 0 0 -1
0.113959 -0.0632581 0.561176 0 0 -1
0.0942498 0.386861 0.561176 0 0 -1
-0.0363815 -0.243225 0.585416 0 0 1
-0.327625 0.0337053 0.585416 0 0 1
-0.0198605 0.331848 0.585416 0 0 1
0.267857 -0.253319 0.445805 0.879604 -0.475706 0
-0.25016 0.270624 0.248698 -0.259269 0.965805 0
0.266995 0.227982 0.0821063 0.90654 -0.42212 0
-0.0928658 0.383748 0.561176 0 0 -1
0.270708 0.258792 0.585416 0 0 1
-0.226316 -0.269169 0.00760899 0.423075 -0.906095 0
0.213595 0.255843 0.427921 -0.85182 0.523835 0
-0.228403 -0.267929 0.162073 0.422596 -0.906318 0
0.212378 -0.253544 0.132835 -0.949236 -0.314564 0
0.301644 0.0585607 0.561176 0 0 -1
0.0433297 -0.0652183 0.536935 0 0 1
-0.256518 -0.214535 0.120446 -0.525463 0.850816 0
-0.272639 -0.23701 0.402366 -0.9963 0.0859395 0
0.0154825 -0.279499 0.561176 0 0 -1
0.13059 -0.379372 0.583091 0.286837 -0.957979 0
0.249683 0.270004 0.46826 0.369797 0.929112 0
0.0988564 0.0781971 0.585416 0 0 1
0.162424 -0.329735 0.561176 0 0 -1
-0.152526 0.150474 0.561176 0 0 -1
0.229988 -0.24431 0.536935 0 0 1
0.197438 0.0803877 0.585416 0 0 1
0.298998 0.0913437 0.585416 0 0 1
-0.234814 0.22419 0.561176 0 0 -1
0.239611 -0.167235 0.585416 0 0 1
-0.107273 -0.344316 0.561176 0 0 -1
-0.317636 -0.0769141 0.585416 0 0 1
-0.258242 -0.267398 0.0218168 0 0 1
-0.236162 -0.211994 0.413743 0.144867 0.989451 0
-0.161262 0.0798128 0.561176 0 0 -1
0.0440122 -0.0313042 0.504614 0 0 -1
-0.035336 0.128355 0.561176 0 0 -1
0.240067 0.211331 0.321369 -0.0287589 -0.999586 0
-0.0395959 -0.275989 0.585416 0 0 1
0.0868005 0.0668283 0.504614 0 0 -1
-0.269084 -0.226714 0.283353 -0.851806 0.523858 0
-0.266674 0.259824 0.0440193 -0.818744 0.574159 0
0.156116 -0.165431 0.561176 0 0 -1
-0.0325782 0.283494 0.561176 0 0 -1
0.146473 -0.143975 0.585416 0 0 1
0.183047 0.187402 0.536935 0 0 1
-0.0147385 -0.282672 0.561176 0 0 -1
0.188769 -0.00501097 0.585416 0 0 1
-0.238768 0.271332 0.207641 0.2019 0.979406 0
-0.259808 -0.216567 0.0344111 -0.525463 0.850816 0
0.172644 -0.0322193 0.561176 0 0 -1
-0.200332 0.0654043 0.561176 0 0 -1
-0.23259 -0.0545645 0.585416 0 0 1
-0.23042 -0.213977 0.0647229 0.369504 0.929229 0
-0.223652 -0.0940813 0.561176 0 0 -1
0.022733 -0.108008 0.561176 0 0 -1
0.139006 0.117517 0.519158 0.707105 -0.707109 0
-0.271959 0.233711 0.343727 -0.948627 -0.316397 0
0.237074 0.211417 0.355948 -0.0287589 -0.999586 0
0.288566 0.0177136 0.585416 0 0 1
-0.292493 -0.141316 0.585416 0 0 1
0.356521 0.0962435 0.561176 0 0 -1
-0.167068 -0.221574 0.585416 0 0 1
0.027193 -0.358037 0.561176 0 0 -1
-0.072533 -0.0975593 0.585416 0 0 1
0.268262 -0.230703 0.2254 0.906591 0.422011 0
0.00978675 0.257035 0.585416 0 0 1
-0.256403 -0.214464 0.308439 -0.525463 0.850816 0
-0.192352 -0.337249 0.585416 0 0 1
0.030744 0.0301546 0.585416 0 0 1
-0.151818 0.0483667 0.561176 0 0 -1
0.103277 0.174744 0.561176 0 0 -1
0.245888 -0.271006 0.112589 0.14487 -0.989451 0
0.26212 0.261932 0.4128 0.748578 0.663047 0
-0.0592909 0.084638 0.561176 0 0 -1
0.293987 0.253779 0.561176 0 0 -1
0.0981668 0.27962 0.585416 0 0 1
0.169458 0.0502174 0.561176 0 0 -1
0.233161 0.266148 0.0218168 0 0 1
0.374475 -0.0305017 0.561176 0 0 -1
-0.0594356 0.340263 0.561176 0 0 -1
0.0378773 0.354106 0.561176 0 0 -1
-0.212199 -0.217981 0.561176 0 0 -1
0.169146 0.130755 0.561176 0 0 -1
0.184413 -0.0732891 0.585416 0 0 1
-0.2245 0.265326 0.393909 0.620697 0.784051 0
-0.120151 -0.0439971 0.585416 0 0 1
-0.14914 0.26256 0.561176 0 0 -1
0.127711 -0.0795684 0.585416 0 0 1
-0.200319 -0.145967 0.561176 0 0 -1
-0.227301 -0.215557 0.110194 0.573664 0.819091 0
-0.182831 -0.0322214 0.585416 0 0 1
0.143372 0.297924 0.561176 0 0 -1
-0.317578 0.0640714 0.561176 0 0 -1
0.264298 0.223566 0.345583 0.784114 -0.620617 0
0.061705 -0.042916 0.536935 0 0 1
-0.229471 0.00412463 0.585416 0 0 1
0.297352 -0.087421 0.561176 0 0 -1
-0.146488 -0.0641314 0.561176 0 0 -1
0.165122 -0.0282348 0.585416 0 0 1
-0.217319 -0.257723 0.498099 0.784006 -0.620754 0
0.00471137 -0.237369 0.561176 0 0 -1
-0.0869669 0.0124377 0.561176 0 0 -1
0.330037 -0.120081 0.585416 0 0 1
0.26938 -0.125393 0.585416 0 0 1
0.0385597 0.114483 0.561176 0 0 -1
0.19741 -0.195687 0.561176 0 0 -1
-0.0799227 -0.0320971 0.561176 0 0 -1
-0.170486 -0.0887391 0.585416 0 0 1
-0.0773768 0.0248963 0.585416 0 0 1
0.0610782 -0.243647 0.585416 0 0 1
0.215545 0.319108 0.585416 0 0 1
0.136738 0.234536 0.561176 0 0 -1
0.0699302 0.0231303 0.585416 0 0 1
-0.0138939 -0.0103351 0.520334 -0.707114 -0.7071 0
0.223684 -0.266692 0.380127 -0.525567 -0.850752 0
-0.0224798 0.133817 0.585416 0 0 1
-0.295868 0.258315 0.585416 0 0 1
-0.0201846 0.161984 0.585416 0 0 1
-0.06988 -0.195103 0.561176 0 0 -1
-0.231456 0.190529 0.585416 0 0 1
0.383344 0.116258 0.582482 0.939687 0.342036 0
0.22209 0.0338945 0.585416 0 0 1
0.21875 -0.220129 0.396674 -0.664426 0.747354 0
-0.350258 0.046363 0.585416 0 0 1
0.3141 -0.189181 0.561176 0 0 -1
0.12466 -0.127173 0.561176 0 0 -1
-0.153226 -0.0406524 0.585416 0 0 1
-0.15401 -0.292707 0.585416 0 0 1
-0.327852 0.227215 0.561176 0 0 -1
-0.100466 -0.291412 0.585416 0 0 1
0.236174 0.27131 0.423141 -0.0871094 0.996199 0
-0.348537 0.0655362 0.561176 0 0 -1
0.238317 -0.27256 0.504614 0 0 1
-0.237717 -0.211766 0.24597 0.144867 0.989451 0
-0.123779 0.104084 0.504614 0 0 -1
-0.167238 0.334333 0.561176 0 0 -1
-0.0417909 -0.195452 0.585416 0 0 1
0.208199 0.237492 0.011149 -0.989475 -0.144705 0
-0.0590419 -0.17139 0.585416 0 0 1
-0.0352934 -0.135277 0.585416 0 0 1
0.171774 0.0233089 0.585416 0 0 1
-0.269836 0.258524 0.561176 0 0 -1
-0.0682732 -0.267567 0.561176 0 0 -1
-0.0202097 0.00653116 0.536935 0 0 1
-0.21266 0.242861 0.0406727 0.999571 -0.0292917 0
-0.0742182 0.160808 0.585416 0 0 1
0.198144 0.305255 0.561176 0 0 -1
-0.0956113 -0.193682 0.585416 0 0 1
0.324856 0.0258107 0.561176 0 0 -1
0.311281 -0.113939 0.561176 0 0 -1
-0.0757231 0.251999 0.585416 0 0 1
-0.364902 -0.110145 0.561176 0 0 -1
0.208764 -0.13817 0.585416 0 0 1
-0.216682 -0.22649 0.310723 0.879314 0.476242 0
-0.261127 0.265416 0.348007 -0.664425 0.747355 0
0.210572 0.230915 0.561176 0 0 -1
0.336629 0.0498987 0.561176 0 0 -1
0.270029 0.237722 0.0318865 0.97918 -0.202994 0
-0.131093 -0.107032 0.536935 0 0 1
-0.260813 0.217187 0.447338 -0.525671 -0.850688 0
-0.17049 0.00725942 0.561176 0 0 -1
-0.0208697 -0.104663 0.561176 0 0 -1
0.261391 -0.233239 0.0218168 0 0 1
-0.118272 -0.279138 0.561176 0 0 -1
0.0366795 -0.220414 0.585416 0 0 1
-0.0334267 -0.328515 0.585416 0 0 1
-0.0435728 0.0356488 0.561176 0 0 -1
-0.141112 -0.117217 0.585416 0 0 1
-0.362976 0.0317349 0.561176 0 0 -1
-0.343198 -0.16603 0.585416 0 0 1
0.128878 0.168632 0.561176 0 0 -1
-0.0536006 -0.0509639 0.504614 0 0 -1
0.147367 -0.25224 0.561176 0 0 -1
-0.261491 0.265093 0.477868 -0.664425 0.747355 0
-0.0915274 0.351921 0.585416 0 0 1
0.0280537 0.324831 0.585416 0 0 1
0.173623 -0.197856 0.508647 -0.707114 -0.7071 0
0.0266501 0.35887 0.585416 0 0 1
0.215685 -0.223792 0.432622 -0.818697 0.574226 0
-0.247782 -0.316827 0.581277 -0.597185 -0.802103 0
-0.0518731 0.373741 0.585416 0 0 1
-0.382084 0.00341959 0.585416 0 0 1
0.37553 0.0118546 0.561176 0 0 -1
0.309858 0.0690252 0.585416 0 0 1
0.201572 0.345254 0.585416 0 0 1
-0.0942972 0.218834 0.561176 0 0 -1
0.0308065 -0.342592 0.585416 0 0 1
0.25643 -0.147405 0.585416 0 0 1
-0.267704 -0.247891 0.511432 -0.707231 -0.706983 0
-0.212814 -0.237604 0.284823 0.999571 0.0292917 0
0.259528 0.294097 0.585416 0 0 1
0.264606 -0.26355 0.585416 0 0 1
-0.259463 0.235239 0.517242 -0.707114 -0.7071 0
-0.0746308 0.196801 0.585416 0 0 1
0.263236 0.222224 0.447776 0.784114 -0.620617 0
0.261534 0.262594 0.327442 0.748578 0.663047 0
0.144272 0.00399745 0.561176 0 0 -1
-0.27155 0.0215247 0.585416 0 0 1
-0.215759 -0.254634 0.368815 0.90659 -0.422013 0
-0.0299156 0.0666215 0.585416 0 0 1
-0.257602 0.215203 0.200166 -0.525671 -0.850688 0
0.048794 0.0435188 0.536935 0 0 1
-0.0990736 0.299113 0.585416 0 0 1
-0.212631 0.243824 0.394961 0.999571 -0.0292917 0
0.234586 -0.326728 0.585416 0 0 1
0.345411 0.143264 0.585416 0 0 1
-0.0650228 -0.326682 0.561176 0 0 -1
0.0464312 0.14661 0.585416 0 0 1
-0.229923 -0.005902 0.561176 0 0 -1
-0.0193074 -0.0773906 0.561176 0 0 -1
-0.214188 0.25126 0.10301 0.906539 0.422122 0
0.304483 0.21914 0.585416 0 0 1
-0.011009 -0.317999 0.585416 0 0 1
0.081815 0.138902 0.561176 0 0 -1
-0.113546 -0.158473 0.561176 0 0 -1
-0.165525 0.0734249 0.585416 0 0 1
-0.296049 -0.00289111 0.585416 0 0 1
-0.0990862 0.0638164 0.561176 0 0 -1
-0.0373921 0.325235 0.561176 0 0 -1
0.361787 -0.0604064 0.585416 0 0 1
-0.224782 -0.22983 0.504614 0 0 -1
-0.0772716 -0.232015 0.585416 0 0 1
-0.109432 -0.126146 0.504614 0 0 -1
0.218111 -0.262044 0.458921 -0.706397 -0.707816 0
-0.152847 0.300659 0.585416 0 0 1
0.257071 0.13238 0.561176 0 0 -1
-0.329215 -0.130718 0.561176 0 0 -1
0.259364 0.00409672 0.585416 0 0 1
-0.229834 -0.236941 0.585416 0 0 1
-0.149892 0.343972 0.585416 0 0 1
0.102203 0.209491 0.585416 0 0 1
0.22277 -0.266127 0.223764 -0.525567 -0.850752 0
0.276211 -0.205876 0.585416 0 0 1
-0.261276 0.250937 0.0218168 0 0 -1
-0.227149 0.215663 0.117548 0.573568 -0.819158 0
0.249723 0.239003 0.585416 0 0 1
0.0284982 -0.304091 0.561176 0 0 -1
-0.176035 -0.284831 0.561176 0 0 -1
0.0538129 -0.311785 0.585416 0 0 1
0.35973 0.0410564 0.561176 0 0 -1
0.242001 0.271575 0.0782031 0.14487 0.989451 0
0.245396 -0.21181 0.305778 0.201902 0.979406 0
-0.323345 0.110717 0.585416 0 0 1
-0.355871 -0.0868491 0.585416 0 0 1
0.0678363 -0.00473493 0.561176 0 0 -1
0.247995 0.213044 0 0 0 -1
0.249688 -0.270003 0.227265 0.369552 -0.92921 0
-0.0551487 0.0309206 0.534712 -0.707114 -0.7071 0
0.289808 0.209288 0.561176 0 0 -1
0.251719 -0.269195 0.295332 0.369552 -0.92921 0
0.153772 -0.143329 0.504614 0 0 -1
-0.0910716 0.154592 0.561176 0 0 -1
0.254733 -0.215071 0.46294 0.422715 0.906263 0
0.241224 -0.211298 0.439757 -0.0287589 0.999586 0
0.376598 -0.0852347 0.585416 0 0 1
-0.25338 -0.240273 0.0121204 0 0 1
0.238416 -0.271506 0.0572113 -0.0871094 -0.996199 0
0.239931 0.237017 0.536935 0 0 1
0.230631 0.0545781 0.561176 0 0 -1
-0.222929 0.244937 0.561176 0 0 -1
-0.226923 -0.207183 0.504614 0 0 -1
-0.254029 -0.213452 0.197569 -0.314692 0.949194 0
0.0429111 -0.168673 0.561176 0 0 -1
-0.0794225 -0.0593605 0.504614 0 0 -1
0.116474 0.153941 0.585416 0 0 1
-0.139775 0.0587528 0.585416 0 0 1
-0.258428 -0.267205 0.358118 -0.475719 -0.879597 0
0.0442448 0.06847 0.504708 -0.707108 0.707105 0
-0.264443 0.220511 0.26148 -0.706253 -0.70796 0
-0.347145 0.128398 0.561176 0 0 -1
-0.0542312 0.247951 0.561176 0 0 -1
-0.134455 0.00256918 0.585416 0 0 1
0.167434 -0.146602 0.561176 0 0 -1
-0.27569 -0.087713 0.561176 0 0 -1
0.13952 -0.0352605 0.585416 0 0 1
-0.0219075 0.00231746 0.507239 -0.707108 0.707105 0
0.328917 -0.00740884 0.585416 0 0 1
-0.214605 0.110374 0.585416 0 0 1
-0.231331 0.280465 0.585416 0 0 1
-0.00636829 -0.353086 0.585416 0 0 1
0.362105 -0.164597 0.585416 0 0 1
0.253018 0.204646 0.561176 0 0 -1
0.21888 -0.262811 0.417098 -0.706397 -0.707816 0
0.0131581 -0.124168 0.585416 0 0 1
-0.096596 0.225545 0.585416 0 0 1
-0.0639867 0.0952897 0.585416 0 0 1
-0.293999 0.132852 0.561176 0 0 -1
0.0948519 -0.3326 0.585416 0 0 1
0.0916884 -0.370294 0.561176 0 0 -1
-0.103467 -0.0255981 0.585416 0 0 1
-0.186233 -0.235734 0.585416 0 0 1
0.250107 0.212913 0.136387 0.422715 -0.906263 0
0.174908 -0.342574 0.585416 0 0 1
0.0217808 0.287247 0.585416 0 0 1
-0.2192 0.222699 0.362165 0.747157 -0.664648 0
0.0816699 0.329466 0.561176 0 0 -1
-0.0757969 -0.34885 0.585416 0 0 1
0.235678 0.271266 0.319932 -0.0871094 0.996199 0
-0.220025 -0.26114 0.248327 0.784006 -0.620754 0
-0.247764 -0.256054 0.504614 0 0 1
-0.170482 0.200137 0.585416 0 0 1
0.349766 0.174247 0.561176 0 0 -1
0.069391 -0.0418368 0.561176 0 0 -1
0.0486701 0.171814 0.585416 0 0 1
0.0430685 0.0260219 0.504614 0 0 -1
0.136116 0.331901 0.585416 0 0 1
0.220453 0.258074 0.0121204 0 0 1
-0.158254 0.100268 0.585416 0 0 1
0.213108 -0.227777 0.330517 -0.929366 0.36916 0
0.292989 -0.0473438 0.561176 0 0 -1
0.052203 0.166511 0.561176 0 0 -1
0.110974 0.361071 0.561176 0 0 -1
-0.22784 0.267665 0.0242493 0.422715 0.906263 0
0.115569 -0.213647 0.561176 0 0 -1
-0.390722 0.0972149 0.58144 -0.973056 0.23057 0
-0.0548535 -0.0361384 0.585416 0 0 1
-0.101517 0.263243 0.561176 0 0 -1
0.214127 0.00535969 0.561176 0 0 -1
0.365931 0.0926378 0.585416 0 0 1
-0.09151 -0.0672853 0.533062 -0.707108 0.707105 0
-0.316297 -0.227004 0.585416 0 0 1
-0.101787 -0.108584 0.536935 0 0 1
0.123587 -0.147771 0.585416 0 0 1
-0.108499 -0.303694 0.561176 0 0 -1
-0.23641 -0.210722 0.561176 0 0 -1
0.210113 0.244344 0.350047 -0.996128 0.0879118 0
0.24281 -0.263293 0.0218168 0 0 -1
-0.217259 0.199724 0.561176 0 0 -1
0.261966 -0.224767 0.561176 0 0 -1
0.247585 -0.084266 0.561176 0 0 -1
0.347859 -0.0827332 0.561176 0 0 -1
-0.0221804 0.220604 0.585416 0 0 1
-0.239271 0.271436 0.459365 0.2019 0.979406 0
0.150392 0.195566 0.585416 0 0 1
-0.173845 0.287852 0.585416 0 0 1
-0.253765 -0.0634418 0.585416 0 0 1
-0.0594784 -0.241696 0.561176 0 0 -1
0.145501 -0.299454 0.561176 0 0 -1
0.146438 -0.309509 0.585416 0 0 1
0.154696 0.285569 0.585416 0 0 1
-0.130602 0.151969 0.536935 0 0 1
0.232153 0.321619 0.561176 0 0 -1
-0.333774 -0.176121 0.561176 0 0 -1
-0.139851 0.20655 0.585416 0 0 1
0.18859 -0.296266 0.585416 0 0 1
0.264008 0.24921 0.504614 0 0 1
-0.170034 -0.138897 0.561176 0 0 -1
-0.218798 -0.22316 0.166478 0.747722 0.664012 0
-0.156137 0.0194003 0.585416 0 0 1
-0.266896 -0.223157 0.16895 -0.851806 0.523858 0
-0.0911039 -0.391651 0.585315 -0.173661 -0.984806 0
0.0771408 -0.375347 0.585416 0 0 1
-0.161985 -0.168209 0.559162 0.923577 0.383414 0
0.139346 0.133886 0.561176 0 0 -1
-0.38297 -0.0236606 0.561176 0 0 -1
-0.115586 -0.315806 0.585416 0 0 1
-0.186813 0.162587 0.536365 -0.707114 -0.7071 0
0.217394 0.221345 0.399316 -0.819165 -0.573558 0
0.199512 -0.223745 0.505038 -0.707114 -0.7071 0
0.196268 -0.307752 0.561176 0 0 -1
0.223999 0.101542 0.585416 0 0 1
0.233407 -0.225235 0.0218168 0 0 1
0.257063 -0.266283 0.340783 0.572823 -0.819679 0
0.0811526 0.0798528 0.561176 0 0 -1
-0.115455 0.38474 0.561176 0 0 -1
-0.232101 -0.186849 0.561176 0 0 -1
0.115501 -0.139733 0.50683 -0.707114 -0.7071 0
-0.340222 0.166312 0.561176 0 0 -1
0.225956 0.268095 0.202526 -0.525463 0.850817 0
-0.305198 -0.260388 0.561176 0 0 -1
-0.264424 -0.0677832 0.561176 0 0 -1
-0.162806 0.181787 0.561176 0 0 -1
-0.0659064 0.347957 0.585416 0 0 1
0.235492 0.235911 0.561176 0 0 -1
0.0463019 0.299891 0.561176 0 0 -1
-0.107306 0.00420259 0.561176 0 0 -1
0.23121 0.212652 0.475896 -0.258211 -0.966089 0
-0.242343 -0.271562 0.421473 -0.0287589 -0.999586 0
-0.0694084 -0.0714547 0.536935 0 0 1
0.26909 0.0665613 0.585416 0 0 1
-0.131353 -0.217235 0.585416 0 0 1
0.215049 -0.224698 0.36513 -0.818697 0.574226 0
-0.147925 -0.366673 0.585416 0 0 1
0.262437 -0.0776104 0.585416 0 0 1
0.220503 0.223266 0.0218168 0 0 1
0.270211 0.240196 0.192945 0.999571 0.0292854 0
0.186967 -0.041424 0.585416 0 0 1
0.0708913 0.319841 0.585416 0 0 1
0.290741 -0.145087 0.561176 0 0 -1
-0.115605 -0.183795 0.585416 0 0 1
-0.0579394 -0.305215 0.561176 0 0 -1
-0.119333 0.0951061 0.531831 -0.707114 -0.7071 0
0.344285 -0.190088 0.561176 0 0 -1
-0.140256 0.248483 0.585416 0 0 1
0.241298 0.271678 0.250972 0.14487 0.989451 0
0.246845 0.232261 0.504614 0 0 1
-0.244849 0.273494 0.501225 -0.0289084 0.999582 0
0.162699 -0.368633 0.580301 0.499911 -0.866077 0
-0.221484 0.220132 0.096479 0.747157 -0.664648 0
-0.0737736 -0.0244163 0.585416 0 0 1
0.254508 0.214966 0.401457 0.422715 -0.906263 0
-0.250643 0.208689 0.561176 0 0 -1
0.174669 0.0825999 0.561176 0 0 -1
0.197787 -0.0849879 0.561176 0 0 -1
0.181482 0.35779 0.567674 0.499903 0.866081 0
-0.227707 0.215273 0.422403 0.573568 -0.819158 0
-0.272809 0.238978 0.116472 -0.996291 -0.0860491 0
-0.220687 -0.261976 0.0398853 0.784006 -0.620754 0
0.258639 -0.262005 0 0 0 -1
-0.378755 0.0629212 0.585416 0 0 1
-0.213905 0.23302 0.458169 0.966155 -0.257962 0
0.178392 0.188846 0.585416 0 0 1
0.0702528 0.365077 0.585416 0 0 1
0.224904 -0.261701 0.585416 0 0 1
0.0122532 -0.0478423 0.561176 0 0 -1
-0.209929 -0.0152921 0.585416 0 0 1
0.201587 0.225813 0.535339 -0.707108 0.707105 0
-0.076067 -0.097554 0.513031 0.707105 -0.707109 0
-0.282021 -0.271402 0.585416 0 0 1
-0.156325 -0.252608 0.585416 0 0 1
-0.125376 -0.381901 0.561176 0 0 -1
0.00656743 -0.33419 0.561176 0 0 -1
0.262661 -0.221498 0.177768 0.784003 0.620756 0
-0.300681 0.135521 0.585416 0 0 1
0.239455 0.211348 0.253186 -0.0287589 -0.999586 0
0.232678 0.204421 0.585416 0 0 1
-0.303965 -0.108826 0.561176 0 0 -1
0.274015 0.106634 0.585416 0 0 1
-0.235423 0.270643 0.0772732 0.2019 0.979406 0
0.256936 0.266371 0.282292 0.572632 0.819812 0
-0.186399 -0.197249 0.504614 0 0 -1
0.222144 0.217109 0.310238 -0.663791 -0.747918 0
0.254364 0.208659 0.585416 0 0 1
0.315484 0.105699 0.585416 0 0 1
0.0651632 -0.0660374 0.536935 0 0 1
0.172335 -0.00720531 0.561176 0 0 -1
0.0310701 0.400073 0.561363 0.0581356 0.998309 0
-0.250813 -0.229685 0.561176 0 0 -1
0.181712 -0.21376 0.561176 0 0 -1
-0.129156 -0.231362 0.561176 0 0 -1
-0.0751453 -0.143549 0.561176 0 0 -1
0.34297 0.204533 0.561176 0 0 -1
-0.0997292 -0.227579 0.561176 0 0 -1
0.102431 0.126657 0.510926 -0.707108 0.707105 0
0.125657 0.194668 0.561176 0 0 -1
0.0250936 0.182162 0.561176 0 0 -1
0.217919 -0.196432 0.516449 0.707099 0.707114 0
-0.280455 0.290434 0.561176 0 0 -1
0.287136 0.168358 0.561176 0 0 -1
0.0810429 -0.0898895 0.504614 0 0 -1
-0.300429 -0.20328 0.585416 0 0 1
0.221882 -0.217345 0.294439 -0.664426 0.747354 0
0.113364 -0.284378 0.561176 0 0 -1
-0.20893 -0.261594 0.561176 0 0 -1
0.18977 0.168243 0.561176 0 0 -1
-0.151198 -0.126973 0.514313 -0.707108 0.707105 0
-0.250037 -0.00964873 0.585416 0 0 1
-0.330208 0.0139293 0.561176 0 0 -1
0.217592 0.297708 0.585416 0 0 1
0.056465 -0.32458 0.561176 0 0 -1
0.0256051 -0.395261 0.561176 0 0 -1
0.126254 0.264759 0.561176 0 0 -1
0.313485 0.120857 0.561176 0 0 -1
-0.0159941 0.101625 0.585416 0 0 1
0.235897 0.258595 0.561176 0 0 -1
0.259855 -0.218723 0.368426 0.62087 0.783913 0
-0.342829 0.077817 0.585416 0 0 1
-0.220972 0.336787 0.574296 -0.597185 0.802103 0
-0.177538 0.153335 0.504614 0 0 -1
-0.151741 -0.173227 0.513606 0.707105 -0.707109 0
-0.232148 -0.258986 0.561176 0 0 -1
0.115762 0.317987 0.585416 0 0 1
-0.122159 -0.0979345 0.508352 -0.707108 0.707105 0
0.260696 0.26354 0.376376 0.748578 0.663047 0
0.199433 -0.323213 0.585416 0 0 1
0.222653 0.266055 0.261553 -0.525463 0.850817 0
-0.199126 0.06858 0.585416 0 0 1
0.0939049 -0.209478 0.585416 0 0 1
-0.256163 0.133497 0.561176 0 0 -1
-0.261074 -0.217349 0.330411 -0.525463 0.850816 0
-0.245631 0.254537 0.498554 0 0 -1
-0.123573 0.115141 0.585416 0 0 1
-0.0547913 -0.000898317 0.561176 0 0 -1
-0.0177444 0.366025 0.561176 0 0 -1
0.216594 -0.222497 0.240118 -0.818697 0.574226 0
0.0440445 0.0455919 0.561176 0 0 -1
0.228954 -0.2472 0.0218168 0 0 -1
-0.0790828 0.204013 0.561176 0 0 -1
-0.254388 -0.269391 0.29891 -0.475719 -0.879597 0
0.0748701 0.110811 0.585416 0 0 1
-0.316416 0.193932 0.585416 0 0 1
-0.0747661 0.323669 0.561176 0 0 -1
0.230736 0.212779 0.230653 -0.258211 -0.966089 0
0.101935 0.0804474 0.510592 0.707105 -0.707109 0
-0.26186 -0.217935 0.486112 -0.706395 0.707818 0
0.148613 0.176341 0.561176 0 0 -1
-0.253066 -0.213133 0.286146 -0.314692 0.949194 0
-0.123486 -0.142695 0.504614 0 0 -1
0.13903 -0.141582 0.536935 0 0 1
0.182248 -0.255662 0.585416 0 0 1
-0.216491 0.0529833 0.585416 0 0 1
-0.237319 0.211822 0.362419 0.144865 -0.989451 0
-0.213881 0.239284 0.504614 0 0 1
-0.111074 0.361233 0.561176 0 0 -1
-0.269283 -0.256104 0.119682 -0.819118 -0.573626 0
0.115567 0.176836 0.585416 0 0 1
-0.23599 -0.241479 0.504614 0 0 -1
-0.0374749 -0.117644 0.561176 0 0 -1
-0.218942 0.207487 0.585416 0 0 1
0.211021 0.233029 0.225324 -0.929327 -0.369258 0
-0.0236762 0.0448544 0.561176 0 0 -1
0.104557 -0.0862827 0.504614 0 0 -1
-0.156348 -0.0847235 0.561176 0 0 -1
-0.233849 -0.212613 0.208178 0.369504 0.929229 0
-0.214635 -0.230285 0.461584 0.966174 0.257892 0
0.223824 -0.013369 0.561176 0 0 -1
0.326448 -0.192021 0.585416 0 0 1
-0.0387079 -0.383004 0.585416 0 0 1
-0.0813283 -0.0530438 0.561176 0 0 -1
-0.0644098 0.116269 0.585416 0 0 1
-0.286636 -0.0372621 0.585416 0 0 1
-0.221381 0.148224 0.561176 0 0 -1
-0.139117 0.202441 0.561176 0 0 -1
-0.220756 -0.217935 0.0195454 0.746674 0.665191 0
-0.38743 0.0336976 0.561176 0 0 -1
0.0584593 -0.220826 0.561176 0 0 -1
0.254084 -0.268255 0.172806 0.369552 -0.92921 0
-0.123011 0.0455961 0.585416 0 0 1
-0.249045 -0.270927 0.486967 -0.258476 -0.966018 0
-0.0716984 0.0474705 0.526067 -0.707114 -0.7071 0
-0.0820481 -0.0993452 0.561176 0 0 -1
0.121153 0.218322 0.585416 0 0 1
0.232167 0.270527 0.380028 -0.314862 0.949137 0
-0.181527 0.0367631 0.561176 0 0 -1
0.0699533 0.293163 0.585416 0 0 1
0.209959 0.242599 0.301541 -0.996128 0.0879118 0
0.02704 -0.280525 0.585416 0 0 1
-0.179508 -0.191449 0.561176 0 0 -1
0.0813924 -0.0666083 0.561176 0 0 -1
-0.23634 0.270832 0.350218 0.2019 0.979406 0
-0.322024 0.23344 0.585416 0 0 1
0.263969 0.0236218 0.585416 0 0 1
-0.0388226 -0.0375267 0.536935 0 0 1
0.123554 0.381478 0.581953 0.286847 0.957976 0
-0.179973 -0.14547 0.585416 0 0 1
0.194399 -0.244948 0.561176 0 0 -1
-0.00392532 -0.226809 0.585416 0 0 1
0.212286 -0.253266 0.0846653 -0.949236 -0.314564 0
-0.25934 0.0728941 0.585416 0 0 1
-0.195655 -0.171431 0.516179 -0.707108 0.707105 0
0.242463 0.211262 0.106422 -0.0287589 -0.999586 0
-0.398419 -0.0625168 0.585416 0 0 1
-0.243872 0.0483092 0.561176 0 0 -1
-0.165823 -0.141598 0.525933 -0.707108 0.707105 0
0.325355 0.23349 0.577246 0.835538 0.549432 0
0.255987 -0.21566 0.425854 0.62087 0.783913 0
0.296459 0.242332 0.585416 0 0 1
0.0013666 -0.00847134 0.536935 0 0 1
-0.213519 0.248395 0.152565 0.979185 0.202968 0
0.0329454 0.0631971 0.561176 0 0 -1
0.401983 -0.00565428 0.581022 0.99323 -0.116161 0
-0.177241 0.226605 0.561176 0 0 -1
