0.358127 -0.0768373 0.421403 0 0 -1
0.0958605 0.276352 0.414807 0 0 -1
-0.0831201 -0.419191 0.431891 0 0 1
0.0180802 0.16368 0.384168 -0.382831 0.00400481 -0.92381
-0.177031 -0.367263 0.431891 0 0 1
-0.0505018 -0.420905 0.421403 0 0 -1
-0.148081 0.0192413 0.425294 0 0 1
0.197078 0.00635574 0.425294 0 0 1
0.162338 0.0123028 0.386127 -0.00665547 -0.382772 -0.923819
0.00808436 0.143837 0.415131 0 0 1
0.282557 0.189161 0.431891 0 0 1
0.000642367 -0.116421 0.383695 0.378504 -0.0865956 -0.92154
-0.0447702 0.120965 0.425294 0 0 1
-0.268484 0.0242414 0.425294 0 0 1
-0.0210705 -0.0726554 0.404645 0 0 -1
-0.41421 -0.140081 0.421403 0 0 -1
-0.25487 0.25421 0.421403 0 0 -1
-0.252787 -0.163843 0.425294 0 0 1
0.105791 -0.259002 0.414807 0 0 -1
0.0451518 -0.347135 0.431891 0 0 1
0.0126644 0.0792998 0.40034 0.9041 -0.198633 0.378349
0.280297 0.017362 0.380598 -0.180711 0.38044 -0.906978
0.0939355 0.113549 0.414807 0 0 -1
0.125099 -0.321384 0.421403 0 0 -1
-0.000335281 -0.366431 0.169549 0.399302 0.903893 -0.153416
0.252529 -0.101557 0.425294 0 0 1
-0.0446956 -0.22453 0.414807 0 0 -1
0.202068 0.174526 0.425294 0 0 1
-0.011519 -0.268753 0.396953 -0.914978 -0.137695 0.379284
0.0616266 -0.334971 0.431891 0 0 1
0.445975 0.0590471 0.428588 0.997393 0.0721562 0
0.214519 -0.194639 0.425294 0 0 1
0.393813 -0.148709 0.421403 0 0 -1
-0.395231 0.0817763 0.421403 0 0 -1
0.261583 0.106796 0.425294 0 0 1
-0.039019 -0.369834 0.431891 0 0 1
0.0191492 0.404412 0.0222193 -0.998631 0.0523054 0
0.431593 0.00630494 0.421403 0 0 -1
-0.407012 -0.0323415 0.431891 0 0 1
0.165292 0.0440739 0.425294 0 0 1
-0.337612 0.16529 0.421403 0 0 -1
0.341931 -0.209538 0.421403 0 0 -1
0.368581 -0.175167 0.431891 0 0 1
-0.0601799 0.033419 0.414807 0 0 -1
0.0234289 0.229331 0.384653 0.382795 -0.00746168 -0.923803
-0.156298 0.036607 0.404645 0 0 -1
-0.292977 0.0106372 0.3969 -0.186042 0.379133 0.906447
0.30644 0.127733 0.431274 -0.468452 -0.231346 0.852662
0.192633 -0.36105 0.421403 0 0 -1
0.114727 -0.25779 0.425294 0 0 1
-0.234027 -0.278962 0.431891 0 0 1
0.22079 0.205817 0.425294 0 0 1
0.388358 -0.169902 0.431891 0 0 1
-0.156436 0.238335 0.425294 0 0 1
0.450025 -0.01629 0.430426 0.993878 -0.110485 0
-0.0126481 -0.379564 0.18646 -0.398221 -0.904368 0.15342
-0.0182226 0.267023 0.425294 0 0 1
-0.13714 -0.0188486 0.413145 -0.0192171 -0.999815 0
-0.253427 -0.292976 0.431891 0 0 1
0.212806 -0.025562 0.404675 -0.0191745 -0.999816 0
-0.181834 0.111389 0.425294 0 0 1
0.0965095 0.347774 0.421403 0 0 -1
-0.0446042 -0.318912 0.415955 -0.11056 -0.524645 -0.844112
0.00277693 0.250631 0.414807 0 0 -1
0.15372 -0.319486 0.421403 0 0 -1
0.420454 0.016486 0.216468 0.928954 0.366442 0.0525845
-0.369487 -0.0909584 0.431891 0 0 1
0.0177823 -0.00282909 0.415131 0 0 1
0.13536 0.123515 0.414807 0 0 -1
-0.317373 0.11524 0.431891 0 0 1
0.172587 0.0410551 0.404645 0 0 -1
0.195612 0.0585424 0.425294 0 0 1
0.218419 -0.0882852 0.425294 0 0 1
-0.121308 0.339305 0.421403 0 0 -1
-0.0342425 0.0194056 0.40292 0.221151 -0.32462 0.919627
-0.314678 -0.308359 0.421403 0 0 -1
-0.183211 0.184782 0.414807 0 0 -1
-0.128656 0.11286 0.425294 0 0 1
0.358716 0.204651 0.431891 0 0 1
0.00553186 -0.283112 0.382263 0.918123 0.133901 -0.372988
-0.346614 0.0438749 0.421403 0 0 -1
-0.343504 -0.0371483 0.431891 0 0 1
0.0245549 0.0158612 0.425294 0 0 1
0.317452 0.202528 0.431891 0 0 1
-0.0311771 -0.133445 0.404645 0 0 -1
-0.00229783 -0.352987 0.315306 0.368206 -0.894556 0.253365
0.36885 0.256468 0.421793 0.788128 0.615511 0
-0.412893 -0.0378009 0.431891 0 0 1
-0.137605 -0.0351551 0.414807 0 0 -1
-0.0578726 0.00215142 0.415131 0 0 1
0.101253 0.154218 0.414807 0 0 -1
0.0565897 0.0916481 0.425294 0 0 1
-0.00422302 0.0569285 0.385056 -0.370379 0.0827962 -0.925183
0.105469 0.101908 0.425294 0 0 1
-0.0351897 -0.16001 0.40518 -0.999816 0.019177 0
0.0452895 -0.222033 0.414807 0 0 -1
0.16721 0.298046 0.421403 0 0 -1
0.215258 0.0423118 0.404645 0 0 -1
0.272947 0.0140288 0.401718 0.18332 -0.38086 0.906278
-0.295498 0.267967 0.421403 0 0 -1
0.0213427 -0.0393365 0.415131 0 0 1
-0.100526 -0.0758119 0.425294 0 0 1
-0.325641 0.190665 0.431891 0 0 1
-0.162979 0.0430115 0.414807 0 0 -1
-0.00637536 -0.280888 0.395227 -0.364343 -0.344965 0.865016
0.20233 0.229982 0.414807 0 0 -1
0.333198 0.209019 0.421403 0 0 -1
-0.352837 0.103308 0.431891 0 0 1
-0.151686 0.155414 0.425294 0 0 1
-0.0463507 -0.146554 0.414807 0 0 -1
-0.0227903 0.227025 0.414807 0 0 -1
0.0798313 0.0981721 0.425294 0 0 1
-0.0122066 0.0700751 0.414807 0 0 -1
-0.14651 0.269496 0.414807 0 0 -1
0.414062 -0.0617459 0.431891 0 0 1
-0.306554 -0.0873862 0.425294 0 0 1
0.0100609 0.18817 0.39531 -0.923781 0.00968863 0.3828
-0.286748 0.149421 0.426369 0.457845 -0.248446 0.853611
0.00671816 -0.0195898 0.414807 0 0 -1
-0.0830258 -0.286201 0.425294 0 0 1
0.0956005 0.0477497 0.404645 0 0 -1
0.161416 0.0275318 0.398001 0.0161701 0.923649 0.382899
0.022411 0.371244 0.25192 0.392959 0.906668 0.153412
-0.00491023 -0.388447 0.04979 0.399219 0.894096 -0.203018
0.0311581 0.207164 0.404645 0 0 -1
0.388105 -0.223684 0.421403 0 0 -1
-0.145598 0.256438 0.414807 0 0 -1
0.0322922 0.379379 0.143923 0.927641 0.368005 0.0636764
0.0618294 0.438589 0.431891 0 0 1
0.42248 0.104175 0.431891 0 0 1
0.39801 -0.0800342 0.421403 0 0 -1
0.0134745 0.137158 0.385117 -0.379135 0.0839503 -0.921525
0.207437 -0.365731 0.431891 0 0 1
0.397135 0.127526 0.431891 0 0 1
-0.231602 -0.00607416 0.404645 0 0 -1
-0.20507 0.28594 0.421403 0 0 -1
0.228173 0.0108676 0.425294 0 0 1
-0.377778 0.00827938 0.431891 0 0 1
0.273874 -0.232623 0.421403 0 0 -1
0.388896 -0.0600692 0.431891 0 0 1
0.28173 -0.155886 0.425558 -0.458045 0.248598 0.85346
0.28338 -0.18767 0.431891 0 0 1
-0.437214 0.105333 0.422129 -0.955596 0.294679 0
-0.0216144 0.433077 0.421403 0 0 -1
0.0276186 -0.352455 0.431891 0 0 1
-0.021611 -0.136673 0.404645 0 0 -1
-0.395347 0.147072 0.421403 0 0 -1
0.0296479 0.254991 0.397718 0.926145 -0.0106714 0.377017
-0.20782 -0.00787397 0.414807 0 0 -1
0.13439 0.0175228 0.403988 0.0227265 -0.383 0.923469
0.0140366 0.424818 0.421403 0 0 -1
0.220906 0.0229814 0.414807 0 0 -1
-0.0131992 -0.139271 0.425294 0 0 1
-0.303026 -0.23433 0.431891 0 0 1
-0.320391 -0.0141279 0.425745 0.518442 0.088586 0.850512
0.23064 0.125863 0.414807 0 0 -1
0.180187 0.188082 0.425294 0 0 1
-0.105349 0.0542416 0.414807 0 0 -1
0.323745 -0.0235323 0.416199 0.524792 -0.110587 -0.844016
0.0582446 0.371412 0.431891 0 0 1
0.176658 0.0977524 0.425294 0 0 1
0.134593 0.326091 0.421403 0 0 -1
-0.0946266 -0.169409 0.414807 0 0 -1
-0.020515 0.372422 0.421403 0 0 -1
0.0596386 0.147992 0.425294 0 0 1
0.0439029 0.409054 0.421403 0 0 -1
0.161334 -0.084514 0.425294 0 0 1
0.127919 0.0284314 0.415131 0 0 1
-0.0965099 -0.210591 0.414807 0 0 -1
0.111287 -0.00817475 0.425294 0 0 1
0.0678706 0.219683 0.425294 0 0 1
-0.0240489 0.0222044 0.425294 0 0 1
-0.0157495 0.426722 0.421403 0 0 -1
0.0752244 -0.030401 0.425294 0 0 1
0.279111 -0.0706527 0.414807 0 0 -1
0.230805 -0.0352754 0.414807 0 0 -1
-0.128852 0.327927 0.431891 0 0 1
-0.384178 -0.148272 0.421403 0 0 -1
-0.043985 0.0414114 0.425294 0 0 1
-0.065851 -0.309603 0.425294 0 0 1
-0.280689 -0.251234 0.431891 0 0 1
0.126497 0.355708 0.421403 0 0 -1
0.404486 0.0752847 0.421403 0 0 -1
-0.174699 0.179436 0.425294 0 0 1
-0.221204 0.326739 0.431891 0 0 1
0.122289 0.390423 0.421403 0 0 -1
-0.300744 0.0990806 0.414807 0 0 -1
-0.03142 0.335459 0.421403 0 0 -1
0.0175091 0.240517 0.384647 -0.389535 0.000596712 -0.921011
-0.0426724 0.00148009 0.415131 0 0 1
0.0105851 0.0633339 0.396994 0.901015 -0.197279 0.386333
0.0494914 -0.388654 0.431891 0 0 1
-0.37624 -0.0719919 0.431891 0 0 1
-0.107214 -0.22268 0.414807 0 0 -1
0.170644 0.0146239 0.402831 -0.00665359 -0.382664 0.923864
0.273992 -0.166909 0.425294 0 0 1
0.0325436 -0.0134283 0.414807 0 0 -1
0.196099 -0.289572 0.431891 0 0 1
-0.38771 0.161244 0.421403 0 0 -1
0.241891 0.328012 0.431891 0 0 1
0.100945 0.195706 0.425294 0 0 1
0.410248 0.132769 0.421403 0 0 -1
0.303031 0.229514 0.421403 0 0 -1
-0.326845 0.294663 0.421403 0 0 -1
0.108363 0.325401 0.431891 0 0 1
-0.380219 0.0347233 0.431891 0 0 1
0.113941 -0.279074 0.414807 0 0 -1
-0.00534967 0.23457 0.425294 0 0 1
-0.0985142 -0.284828 0.425294 0 0 1
0.235767 -0.0164468 0.425294 0 0 1
-0.408893 0.0164996 0.135226 0.391389 0.919969 -0.0217457
-0.420304 0.0173981 0.14795 -0.372917 0.927608 0.0218102
-0.443268 -0.0411816 0.421403 0 0 -1
-0.188638 -0.00816153 0.414807 0 0 -1
0.31123 -0.0188529 0.425294 0 0 1
0.317449 0.0462793 0.415606 0.528749 0.0903858 -0.843952
-0.298097 -0.274516 0.421403 0 0 -1
0.239856 -0.319691 0.431891 0 0 1
0.0173893 0.399636 0.431891 0 0 1
-0.335614 -0.244156 0.421403 0 0 -1
0.342588 -0.0933206 0.431891 0 0 1
0.0622107 0.0172671 0.425294 0 0 1
0.248147 0.327486 0.431891 0 0 1
0.076993 -0.205992 0.425294 0 0 1
-0.383812 0.0782738 0.421403 0 0 -1
0.312196 0.313188 0.421403 0 0 -1
0.0677238 0.0506474 0.413478 0.0192171 0.999815 0
-0.0465005 -0.256579 0.425294 0 0 1
0.224688 -0.106635 0.414807 0 0 -1
0.293712 0.198478 0.421403 0 0 -1
0.0142709 0.122933 0.383494 -0.379135 0.0839503 -0.921525
-0.379292 -0.154362 0.421403 0 0 -1
0.268531 -0.141154 0.414807 0 0 -1
0.371128 -0.234463 0.421403 0 0 -1
-0.18774 0.0294992 0.414807 0 0 -1
0.171717 -0.0659266 0.414807 0 0 -1
-0.0126384 -0.381744 0.431891 0 0 1
0.261942 0.292082 0.421403 0 0 -1
0.100084 0.120309 0.425294 0 0 1
-0.204677 0.107026 0.425294 0 0 1
-0.181291 -0.366514 0.421403 0 0 -1
-0.177702 -0.276785 0.417618 -0.253498 -0.467076 -0.8471
0.0894435 0.0443094 0.425294 0 0 1
0.00401255 -0.369893 0.215466 0.917245 -0.393229 0.0634986
0.123108 0.406801 0.431891 0 0 1
0.206757 0.380453 0.431891 0 0 1
-0.112446 -0.276182 0.425294 0 0 1
0.0136145 0.252049 0.414807 0 0 -1
-0.000873207 -0.365333 0.421403 0 0 -1
0.0277092 -0.335765 0.431891 0 0 1
-0.338858 -0.0955604 0.431891 0 0 1
-0.298001 0.187822 0.421403 0 0 -1
-0.12103 0.05427 0.410069 0.0192171 0.999815 0
0.045875 0.2931 0.425294 0 0 1
-0.198815 0.259643 0.428674 0.321535 -0.411777 0.852675
-0.0668465 0.0503017 0.415131 0 0 1
-0.429464 0.0119594 0.0758656 -0.91708 0.392472 0.0702167
0.0064114 -0.115208 0.414807 0 0 -1
-0.295327 0.0802436 0.425294 0 0 1
0.203272 -0.147776 0.414807 0 0 -1
0.277144 -0.0947579 0.414807 0 0 -1
0.32409 0.283422 0.431891 0 0 1
0.430084 0.0181257 0.0555056 0.927557 0.367027 0.07021
0.103681 0.309397 0.417779 0.110579 0.524735 -0.844053
0.202859 0.336189 0.421403 0 0 -1
0.280466 0.184733 0.421403 0 0 -1
0.249103 0.339079 0.421403 0 0 -1
-0.0119712 -0.24784 0.398367 -0.92609 0.0172476 0.376908
-0.0119161 0.132909 0.425294 0 0 1
0.0261748 -0.413154 0.431891 0 0 1
0.278239 0.00989705 0.425294 0 0 1
0.171677 -0.210643 0.414807 0 0 -1
0.127567 -0.309205 0.421403 0 0 -1
0.227849 -0.127937 0.414807 0 0 -1
0.399914 0.00379899 0.305048 -0.392498 -0.918373 -0.0503664
0.0843949 0.342952 0.421403 0 0 -1
0.0986554 -0.152806 0.425294 0 0 1
0.259763 0.0173841 0.415131 0 0 1
0.135044 0.126083 0.425294 0 0 1
0.276547 -0.345856 0.421403 0 0 -1
0.210809 0.18592 0.414807 0 0 -1
0.195374 0.0824523 0.425294 0 0 1
-0.324151 0.258977 0.421403 0 0 -1
-0.151141 0.39193 0.431891 0 0 1
0.262577 0.102228 0.414807 0 0 -1
-0.287768 -0.159022 0.41787 -0.476344 -0.235319 -0.847184
0.0140472 -0.239864 0.425294 0 0 1
0.226883 0.0962299 0.414807 0 0 -1
-0.0160264 -0.293971 0.414807 0 0 -1
-0.00849027 -0.156707 0.415131 0 0 1
-0.144622 -0.320537 0.431891 0 0 1
0.249322 -0.0553143 0.425294 0 0 1
-0.101892 -0.16202 0.425294 0 0 1
-0.295791 0.263007 0.431891 0 0 1
-0.160825 0.290512 0.420212 -0.26077 0.527935 -0.80826
0.133452 0.307835 0.421403 0 0 -1
0.175186 0.278233 0.429302 -0.248897 -0.458718 0.853011
-0.0176004 0.245576 0.415131 0 0 1
-0.0336433 -0.327531 0.418987 -0.062365 -0.295942 -0.953168
0.284507 0.00272786 0.425294 0 0 1
0.139725 0.0468637 0.414807 0 0 -1
0.00807993 0.10501 0.404645 0 0 -1
0.00514759 -0.34637 0.307927 0.917131 -0.384425 0.105299
-0.399151 0.00752821 0.25506 0.911925 -0.3915 -0.122965
-0.00442307 0.280966 0.415131 0 0 1
-0.109985 -0.14791 0.425294 0 0 1
-0.313679 0.262843 0.431891 0 0 1
-0.348021 -0.164939 0.421403 0 0 -1
0.0921282 -0.021786 0.425294 0 0 1
0.0873786 0.10488 0.425294 0 0 1
0.231644 0.328596 0.431891 0 0 1
0.027823 0.0840257 0.415131 0 0 1
0.195272 -0.320079 0.431891 0 0 1
0.156688 0.0285128 0.414807 0 0 -1
0.310359 -0.132919 0.431891 0 0 1
0.0698302 0.0538633 0.414807 0 0 -1
0.0893552 -0.075445 0.425294 0 0 1
0.017559 0.0998616 0.425294 0 0 1
-0.421711 -0.000215397 0.0178775 0.372501 -0.927573 -0.0291576
-0.181869 0.0918783 0.414807 0 0 -1
0.0874223 0.118393 0.425294 0 0 1
-0.0043009 -0.0553782 0.404645 0 0 -1
0.305148 0.32941 0.422206 0.645291 0.763937 0
0.126417 -0.396065 0.421403 0 0 -1
0.186258 0.200261 0.425294 0 0 1
-0.288711 -0.139759 0.414807 0 0 -1
-0.160674 -0.193331 0.414807 0 0 -1
0.0328965 -0.441547 0.431891 0 0 1
-0.412269 -0.019701 0.431891 0 0 1
0.0704232 -0.130968 0.414807 0 0 -1
-0.231099 0.0949204 0.414807 0 0 -1
-0.41205 0.00116589 0.0973558 0.372501 -0.927573 -0.0291576
-0.228518 0.312845 0.431891 0 0 1
0.119496 -0.343907 0.421403 0 0 -1
0.0154989 0.141652 0.415131 0 0 1
-0.26897 0.204669 0.421403 0 0 -1
-0.0587576 -0.10706 0.425294 0 0 1
-0.268465 0.263057 0.431891 0 0 1
0.208058 0.0207588 0.384668 0.00665546 0.382767 -0.923821
-0.137234 -0.287155 0.425294 0 0 1
0.436521 -0.0340638 0.421403 0 0 -1
0.00323711 0.262373 0.415131 0 0 1
0.308685 -0.0145508 0.425294 0 0 1
-0.00817314 -0.403525 0.431891 0 0 1
0.198796 0.200597 0.414807 0 0 -1
0.234105 -0.344725 0.431891 0 0 1
0.0760892 0.289437 0.414807 0 0 -1
0.0244189 0.403423 0.421403 0 0 -1
-0.208101 0.249647 0.415664 -0.327314 0.419136 -0.846871
-0.211949 0.103177 0.425294 0 0 1
0.0047501 -0.206237 0.425294 0 0 1
0.0118837 0.242901 0.389577 -0.926017 0.00870367 -0.377381
0.000726296 -0.241174 0.425294 0 0 1
-0.213709 -0.361581 0.431891 0 0 1
-0.012821 -0.33069 0.328656 -0.916161 0.350755 -0.19396
0.112488 -0.0896887 0.425294 0 0 1
0.014868 0.440589 0.421403 0 0 -1
-0.054027 -0.32174 0.418523 -0.062365 -0.295942 -0.953168
0.176028 -0.393165 0.431891 0 0 1
0.00664123 -0.0512221 0.39949 -0.903096 0.20506 0.377317
-0.376125 0.215536 0.421403 0 0 -1
-0.432491 0.0944964 0.431891 0 0 1
-0.375426 0.0184283 0.431891 0 0 1
0.118749 0.0363199 0.425294 0 0 1
0.326942 0.0752523 0.431891 0 0 1
-0.0135664 -0.405132 0.0535581 -0.929878 -0.358058 0.0843858
-0.0867758 -0.15898 0.425294 0 0 1
0.403741 0.0139796 0.171691 -0.915208 0.399534 -0.0526034
0.0949874 -0.00427084 0.425294 0 0 1
-0.0711901 -0.343716 0.431891 0 0 1
-0.349072 0.131425 0.421403 0 0 -1
0.2275 0.0580074 0.425294 0 0 1
0.00242657 -0.129258 0.403227 0.381097 -0.0141543 0.924427
-0.143881 -0.423207 0.421403 0 0 -1
-0.0107241 -0.0917856 0.425294 0 0 1
-0.409554 0.00205561 0.311286 -0.920364 -0.372163 0.120101
0.000953831 -0.337647 0.344275 0.365425 -0.805646 0.46626
-0.0871514 -0.157081 0.414807 0 0 -1
0.210745 -0.0538861 0.425294 0 0 1
0.00839587 -0.241865 0.414807 0 0 -1
0.0499647 0.0195137 0.425294 0 0 1
-0.173157 0.328787 0.421403 0 0 -1
0.123817 -0.233683 0.414807 0 0 -1
0.33869 0.0573641 0.421403 0 0 -1
0.434046 -0.0575586 0.431891 0 0 1
0.162387 0.358215 0.421403 0 0 -1
0.00335161 0.328405 0.417155 -0.0903716 0.528668 -0.844004
-0.277556 0.0167096 0.38764 0.0880577 0.920882 -0.379767
0.00178537 0.328758 0.417544 -0.0903716 0.528668 -0.844004
0.0166795 -0.165923 0.414807 0 0 -1
-0.0563894 -0.350163 0.421403 0 0 -1
0.198109 0.0183958 0.404319 0.00664557 0.382198 0.924057
-0.33498 0.109559 0.431891 0 0 1
0.0537049 -0.304177 0.425294 0 0 1
0.0464984 0.284412 0.404645 0 0 -1
0.214491 0.280209 0.431891 0 0 1
0.268296 0.0486973 0.414807 0 0 -1
0.132046 -0.124649 0.425294 0 0 1
0.113563 -0.408334 0.421403 0 0 -1
-0.2218 0.132433 0.414807 0 0 -1
-0.225429 -0.210437 0.425294 0 0 1
0.10585 -0.0916719 0.425294 0 0 1
0.146283 -0.0383244 0.414807 0 0 -1
0.206529 -0.130173 0.425294 0 0 1
0.122157 -0.195385 0.425294 0 0 1
-0.0111356 -0.292489 0.414807 0 0 -1
0.270853 -0.046236 0.425294 0 0 1
0.306039 -0.249191 0.421403 0 0 -1
-0.00471345 -0.168862 0.425294 0 0 1
-0.040147 -0.318667 0.426923 0.10843 0.514568 0.850566
-0.0409785 -0.328934 0.419903 -0.062365 -0.295942 -0.953168
0.0660324 0.000195097 0.40008 0.520976 -0.768067 0.372366
-0.202795 -0.338593 0.431891 0 0 1
-0.103582 -0.432714 0.431891 0 0 1
-0.00438985 -0.099674 0.404645 0 0 -1
-0.439654 -0.0446879 0.431891 0 0 1
0.0423429 -0.0414724 0.414807 0 0 -1
0.31717 0.0323612 0.42568 -0.518644 -0.0886161 0.850385
-0.309765 -0.089848 0.427154 0.518442 0.088586 0.850512
-0.185012 -0.0456652 0.425294 0 0 1
-0.0207059 -0.0961958 0.425294 0 0 1
0.0562765 0.0508674 0.414734 0.0192171 0.999815 0
0.0125933 0.261743 0.414807 0 0 -1
-0.11368 0.19422 0.414807 0 0 -1
-0.185722 0.00507262 0.404645 0 0 -1
0.350357 0.176 0.431891 0 0 1
0.214577 0.383256 0.431891 0 0 1
-0.0780231 0.293873 0.414807 0 0 -1
0.147778 -0.0169161 0.415131 0 0 1
0.0948244 0.106612 0.414807 0 0 -1
-0.0719799 -0.417011 0.421403 0 0 -1
0.420751 -0.137966 0.431891 0 0 1
-0.0147573 -0.17392 0.414807 0 0 -1
0.00215705 0.122078 0.414807 0 0 -1
-0.203783 -0.263813 0.42124 -0.379984 -0.449884 -0.808218
0.187087 0.327698 0.431891 0 0 1
0.0743575 0.230532 0.425294 0 0 1
-0.116325 0.30024 0.414807 0 0 -1
-0.142614 -0.0316109 0.425294 0 0 1
-0.0264825 -0.0418771 0.425294 0 0 1
-0.165288 0.233023 0.414807 0 0 -1
-0.162666 0.00531756 0.425294 0 0 1
0.317402 0.0615051 0.428716 -0.277991 -0.0475111 0.959408
0.0314803 0.354416 0.26874 0.9198 -0.377989 -0.105318
0.20262 0.095901 0.425294 0 0 1
0.0293122 0.163371 0.425294 0 0 1
0.275133 0.204593 0.431891 0 0 1
-0.196445 0.118293 0.414807 0 0 -1
0.0359498 0.361127 0.431891 0 0 1
-0.0262503 -0.0410011 0.414807 0 0 -1
-0.222707 0.255301 0.421403 0 0 -1
-0.413366 0.0190019 0.198368 -0.372928 0.927604 0.0218101
0.00819581 0.127803 0.386427 -0.370379 0.0827962 -0.925183
-0.00736367 -0.0243591 0.404645 0 0 -1
0.420939 0.0140741 0.0301668 -0.999825 0.0186837 0
0.154922 -0.223874 0.414807 0 0 -1
-0.0731862 0.00364715 0.414807 0 0 -1
0.192057 0.229421 0.425294 0 0 1
-0.11363 -0.33594 0.421403 0 0 -1
0.398563 0.173987 0.421403 0 0 -1
-0.0598601 0.0685298 0.414807 0 0 -1
-0.267018 0.32994 0.421403 0 0 -1
-0.0849163 -0.247823 0.414807 0 0 -1
-0.218917 0.251268 0.421051 -0.36258 0.46438 -0.808014
0.275146 -0.154305 0.414807 0 0 -1
-0.00349861 -0.312498 0.352137 0.39311 0.795826 -0.46057
-0.419441 0.00453136 0.431891 0 0 1
-0.0760526 -0.219524 0.414807 0 0 -1
0.148946 0.345523 0.421403 0 0 -1
-0.30516 -0.109129 0.414807 0 0 -1
0.0205962 -0.0686244 0.391194 0.898578 -0.208209 -0.386273
-0.32619 -0.0818225 0.421403 0 0 -1
-0.223901 -0.182905 0.425294 0 0 1
0.268231 0.299034 0.421403 0 0 -1
-0.030356 0.0916175 0.404675 -0.999816 0.0191761 0
0.239792 0.300855 0.421403 0 0 -1
0.145443 0.144792 0.414807 0 0 -1
-0.222208 -0.00847663 0.404645 0 0 -1
0.436607 0.0710546 0.431891 0 0 1
-0.219626 -0.00953939 0.404645 0 0 -1
-0.0861061 0.0490626 0.404645 0 0 -1
0.0840953 0.317232 0.419091 0.0623581 0.295909 -0.953178
0.150532 0.0560046 0.425294 0 0 1
0.296753 0.0204438 0.425294 0 0 1
0.0164684 0.399075 0.0113453 -0.39264 -0.896967 -0.203185
0.31488 0.206473 0.431891 0 0 1
0.055617 -0.0818753 0.414807 0 0 -1
-0.186163 -0.287751 0.421403 0 0 -1
0.275901 -0.299187 0.421403 0 0 -1
-0.309449 0.0852635 0.427098 0.514576 -0.108428 0.850561
0.278262 -0.100901 0.425294 0 0 1
0.43088 0.0128402 0.0725817 0.927773 0.366468 0.0702736
-0.362225 0.00339629 0.421403 0 0 -1
0.131362 0.130098 0.414807 0 0 -1
0.132219 -0.342676 0.421403 0 0 -1
0.137338 0.14397 0.425294 0 0 1
0.0404895 -0.173112 0.414807 0 0 -1
0.365931 0.0874268 0.431891 0 0 1
-0.330594 -0.0707077 0.431891 0 0 1
0.218348 -0.376641 0.421403 0 0 -1
0.236517 0.0316871 0.414807 0 0 -1
0.417768 -0.111409 0.431891 0 0 1
-0.0443134 0.288187 0.425294 0 0 1
-0.0825718 0.0683368 0.425294 0 0 1
-0.00581802 0.0692556 0.415131 0 0 1
-0.0307413 -0.303577 0.414807 0 0 -1
-0.298009 0.336407 0.430247 -0.615504 0.788133 0
-0.0261689 -0.106825 0.404645 0 0 -1
0.207498 0.0135387 0.404645 0 0 -1
0.123806 0.422063 0.431891 0 0 1
0.175168 -0.132913 0.414807 0 0 -1
-0.309552 -0.116295 0.429877 0.468467 0.231391 0.852641
0.371004 0.25371 0.427459 0.788128 0.615511 0
0.121681 -0.23521 0.414807 0 0 -1
0.346301 -0.0312466 0.421403 0 0 -1
-0.255045 0.2454 0.431891 0 0 1
-0.00910598 0.134991 0.425294 0 0 1
0.0210018 0.322998 0.373201 -0.364187 0.804941 0.468443
-0.0650246 -0.380162 0.421403 0 0 -1
0.241466 -0.301639 0.421403 0 0 -1
-0.293466 0.20251 0.421403 0 0 -1
0.113944 -0.213084 0.425294 0 0 1
0.0764481 0.33242 0.421403 0 0 -1
0.244462 -0.21014 0.425835 -0.397967 0.336108 0.853612
-0.273314 0.17498 0.426603 0.458114 -0.248634 0.853412
-0.249269 -0.0849216 0.425294 0 0 1
0.0255584 0.302796 0.414807 0 0 -1
-0.0545555 0.366431 0.431891 0 0 1
-0.0321166 -0.135097 0.414807 0 0 -1
0.131115 -0.342899 0.431891 0 0 1
-0.129184 0.0192567 0.414807 0 0 -1
-0.413732 0.00331648 0.283177 -0.920364 -0.372163 0.120101
0.302664 -0.276692 0.431891 0 0 1
-0.277981 -0.178962 0.418472 -0.464573 -0.362788 -0.80781
-0.225199 0.16111 0.414807 0 0 -1
-0.0299596 0.112288 0.413438 -0.999816 0.0191761 0
-0.0186207 -0.0944494 0.414807 0 0 -1
-0.275365 -0.0581131 0.414807 0 0 -1
-0.0496709 0.0197701 0.415131 0 0 1
0.0372826 -0.353549 0.421403 0 0 -1
0.0122946 0.298913 0.425294 0 0 1
-0.289459 0.303664 0.431891 0 0 1
-0.144955 0.123825 0.425294 0 0 1
0.169232 0.286933 0.431891 0 0 1
0.299101 -0.25177 0.421403 0 0 -1
-0.371914 0.0477884 0.421403 0 0 -1
0.175791 0.415071 0.42599 0.477027 0.878889 0
0.124074 -0.0918066 0.425294 0 0 1
0.320274 -0.0228249 0.425687 -0.514438 0.108394 0.850649
0.110071 0.294032 0.414807 0 0 -1
-0.141368 0.404802 0.421403 0 0 -1
-0.159082 -0.214343 0.425294 0 0 1
-0.382188 -0.129221 0.431891 0 0 1
0.00256498 -0.133715 0.403101 0.381097 -0.0141543 0.924427
0.0208396 0.402364 0.0120532 0.453684 -0.891162 0
0.236989 0.0463027 0.415131 0 0 1
0.0177462 0.0553776 0.425294 0 0 1
-0.355573 -0.00937255 0.421403 0 0 -1
-0.0441472 0.192562 0.425294 0 0 1
0.11578 -0.135002 0.414807 0 0 -1
-0.201548 -0.193468 0.425294 0 0 1
-0.0900568 0.200486 0.425294 0 0 1
-0.302412 -0.296586 0.431891 0 0 1
0.0123184 0.289133 0.415131 0 0 1
-0.105748 -0.310881 0.429533 0.0581678 0.276036 0.959386
0.151293 0.108508 0.414807 0 0 -1
-0.29292 -0.2221 0.421403 0 0 -1
-0.244425 -0.315167 0.421403 0 0 -1
-0.320589 0.0765781 0.430557 0.276022 -0.0581616 0.95939
0.360258 0.00599559 0.379587 0.0649313 -0.920018 0.38646
0.388845 0.0501904 0.421403 0 0 -1
-0.00827517 -0.146388 0.414807 0 0 -1
0.0358636 -0.407249 0.421403 0 0 -1
-0.405573 0.010628 0.146161 0.926302 0.373098 -0.0525563
-0.125006 -0.20636 0.414807 0 0 -1
-0.137963 -0.366791 0.421403 0 0 -1
0.217117 0.0370142 0.425294 0 0 1
-0.325193 -0.0726345 0.421006 -0.568782 -0.151755 -0.808367
0.28278 0.159957 0.427023 -0.467022 -0.230671 0.853629
-0.000104383 0.0609578 0.415131 0 0 1
-0.331459 0.278787 0.431891 0 0 1
0.19597 -0.143615 0.414807 0 0 -1
0.0399919 -0.0213832 0.414807 0 0 -1
0.113464 -0.00236935 0.425294 0 0 1
-0.0612832 0.323396 0.430441 0.0475067 -0.27798 0.959411
-0.329227 0.0966757 0.431891 0 0 1
-0.165488 0.394522 0.431891 0 0 1
0.351543 -0.087039 0.431891 0 0 1
-0.0563453 -0.386911 0.421403 0 0 -1
0.192519 0.327362 0.421403 0 0 -1
-0.195702 0.283917 0.421403 0 0 -1
0.0219104 -0.0452827 0.402248 0.370232 -0.0847033 0.925069
0.032917 -0.182104 0.404645 0 0 -1
-0.00326888 0.224088 0.425294 0 0 1
0.339276 0.116223 0.431891 0 0 1
0.283468 0.224136 0.431891 0 0 1
0.254049 -0.000389338 0.415131 0 0 1
-0.190511 0.0406718 0.414807 0 0 -1
-0.0251374 0.31822 0.414807 0 0 -1
0.0216192 0.31793 0.34179 0.363429 -0.808963 -0.462058
-0.3072 0.0451912 0.425294 0 0 1
0.044526 -0.116813 0.425294 0 0 1
-0.37769 -0.195446 0.421403 0 0 -1
0.371031 -0.0648295 0.421403 0 0 -1
0.0287933 -0.236698 0.425294 0 0 1
0.415852 0.0193347 0.265217 0.922983 0.365614 0.120118
0.0736813 -0.130844 0.425294 0 0 1
-0.0533969 0.00136654 0.388753 0.0578773 -0.919247 -0.389404
-0.236458 -0.349951 0.421403 0 0 -1
0.109331 -0.188149 0.414807 0 0 -1
-0.00622711 -0.101356 0.425294 0 0 1
-0.00486915 0.263664 0.414807 0 0 -1
-0.177786 0.245623 0.425294 0 0 1
0.136414 0.273874 0.414807 0 0 -1
0.0472732 0.422789 0.421403 0 0 -1
-0.156603 0.260418 0.414807 0 0 -1
0.107452 0.0384445 0.414807 0 0 -1
-0.172451 0.383626 0.431891 0 0 1
0.00482722 -0.374076 0.172827 0.930308 0.361231 -0.0635585
-0.039871 0.389344 0.431891 0 0 1
-0.157025 -0.325043 0.421403 0 0 -1
0.107707 -0.42287 0.431891 0 0 1
0.141305 0.161977 0.414807 0 0 -1
-0.40814 0.109705 0.421403 0 0 -1
-0.0711626 0.371424 0.431891 0 0 1
-0.0253301 0.249473 0.415131 0 0 1
0.00205835 -0.439487 0.431891 0 0 1
0.207292 -0.269099 0.431891 0 0 1
-0.11894 -0.0687252 0.425294 0 0 1
-0.000648177 0.0715752 0.414807 0 0 -1
-0.0967067 -0.421418 0.421403 0 0 -1
-0.0170122 0.412957 0.431891 0 0 1
-0.0917787 -0.201704 0.425294 0 0 1
-0.206109 0.0545439 0.415131 0 0 1
0.327991 0.122205 0.431891 0 0 1
-0.3582 -0.187456 0.431891 0 0 1
-0.383973 0.157684 0.431891 0 0 1
-0.0832126 0.336159 0.431891 0 0 1
0.186651 -0.19299 0.414807 0 0 -1
0.00229888 -0.117665 0.425294 0 0 1
0.27657 -0.0858938 0.425294 0 0 1
0.0196302 -0.286069 0.414807 0 0 -1
0.439765 -0.0970556 0.422804 0.955596 -0.29468 0
0.000378242 -0.265398 0.425294 0 0 1
-0.136323 -0.180272 0.425294 0 0 1
-0.0100164 0.0805733 0.404645 0 0 -1
0.174488 0.294519 0.421403 0 0 -1
0.099833 0.31945 0.421403 0 0 -1
-0.399522 0.203434 0.431891 0 0 1
0.0213899 -0.0205807 0.425294 0 0 1
0.142227 -0.0469525 0.425294 0 0 1
-0.294158 0.0136115 0.379342 0.191619 0.369653 -0.909197
-0.148917 0.046122 0.425294 0 0 1
0.179601 -0.301861 0.431891 0 0 1
0.208636 -0.278755 0.421403 0 0 -1
-0.292295 0.099939 0.425294 0 0 1
-0.123067 0.410275 0.431891 0 0 1
0.37247 -0.114733 0.431891 0 0 1
-0.0142809 0.275917 0.414807 0 0 -1
0.00579424 0.237315 0.425294 0 0 1
0.0116963 0.314112 0.364716 -0.922289 -0.331924 -0.198013
0.185809 -0.0264154 0.425294 0 0 1
-0.334403 0.261991 0.431891 0 0 1
-0.292863 0.294623 0.421403 0 0 -1
0.075093 0.401082 0.421403 0 0 -1
-0.366432 0.106616 0.421403 0 0 -1
-0.227534 0.0104444 0.415131 0 0 1
-0.00141257 0.249154 0.415131 0 0 1
-0.206282 0.0287146 0.415131 0 0 1
-0.132106 -0.329543 0.431891 0 0 1
-0.330925 -0.198696 0.421403 0 0 -1
-0.115756 0.0646561 0.414807 0 0 -1
0.15372 0.418656 0.421403 0 0 -1
0.404548 0.137659 0.421403 0 0 -1
0.0846837 -0.186448 0.414807 0 0 -1
-0.217417 -0.298491 0.421403 0 0 -1
-0.320183 -0.284475 0.431891 0 0 1
-0.107792 -0.0967018 0.414807 0 0 -1
0.248587 -0.0963792 0.425294 0 0 1
0.14466 -0.24827 0.414807 0 0 -1
0.130778 -0.203431 0.414807 0 0 -1
-0.305584 -0.216366 0.421403 0 0 -1
0.0919561 0.166153 0.425294 0 0 1
-0.209105 -0.0367212 0.425294 0 0 1
0.168852 0.0534372 0.414807 0 0 -1
0.0938549 0.0494164 0.414807 0 0 -1
-0.279424 0.0366748 0.425294 0 0 1
-0.362992 -0.215172 0.421403 0 0 -1
0.362818 -0.00730579 0.421403 0 0 -1
-0.00634529 -0.0633861 0.425294 0 0 1
0.409449 0.154027 0.431891 0 0 1
0.00177816 -0.394351 0.0388193 0.929856 0.358113 -0.0843955
0.255189 0.346656 0.421403 0 0 -1
-0.044514 0.422539 0.431891 0 0 1
-0.105539 -0.0149275 0.404645 0 0 -1
0.138126 0.0855828 0.414807 0 0 -1
-0.426358 0.00396252 0.105126 -0.925144 -0.373052 0.0702904
-0.0294312 0.414213 0.421403 0 0 -1
0.0901586 -0.300772 0.425294 0 0 1
0.195905 -0.364968 0.431891 0 0 1
0.222324 0.0871488 0.425294 0 0 1
-0.407225 0.00970269 0.111734 0.925144 0.373058 -0.0702531
-0.150436 0.0399125 0.404645 0 0 -1
0.348433 -0.139569 0.421403 0 0 -1
-0.171787 -0.294246 0.431891 0 0 1
0.00431858 -0.179858 0.415131 0 0 1
-0.147436 -0.413799 0.431891 0 0 1
-0.00767137 -0.289335 0.391313 -0.364343 -0.344965 0.865016
-0.419849 0.00411108 0.217022 -0.926328 -0.373034 0.0525622
-0.23099 -0.0806323 0.425294 0 0 1
0.150911 0.117808 0.414807 0 0 -1
-0.312193 -0.00018248 0.389413 -0.0891691 -0.920832 0.379628
-0.179185 0.275393 0.428878 0.321417 -0.411586 0.852812
0.0374128 -0.202676 0.405078 0.999815 -0.0192175 0
-0.323367 0.0512526 0.429821 0.276022 -0.0581616 0.95939
-0.393669 0.0252482 0.431891 0 0 1
0.185758 -0.105078 0.414807 0 0 -1
0.0134563 0.303754 0.369875 -0.913368 -0.142233 -0.381482
-0.178613 0.0516377 0.425294 0 0 1
0.0294703 -0.179954 0.414807 0 0 -1
0.315888 0.152866 0.421403 0 0 -1
0.210837 0.0178289 0.404645 0 0 -1
0.256107 0.111513 0.425294 0 0 1
-0.137955 -0.385454 0.431891 0 0 1
-0.0998567 -0.176201 0.414807 0 0 -1
-0.117485 -0.115086 0.425294 0 0 1
-0.107552 -0.377649 0.421403 0 0 -1
0.07624 0.137957 0.414807 0 0 -1
-0.109335 0.186988 0.425294 0 0 1
0.124132 0.0534095 0.425294 0 0 1
0.0335031 -0.124907 0.425294 0 0 1
-0.416237 0.0250186 0.431891 0 0 1
0.116529 -0.310532 0.41899 0.260847 -0.527982 -0.808204
0.170382 -0.412926 0.421403 0 0 -1
-0.271688 -0.0330885 0.414807 0 0 -1
0.112258 0.412038 0.431891 0 0 1
-0.186316 0.0365406 0.414807 0 0 -1
0.0218085 -0.441492 0.431891 0 0 1
-0.208038 -0.174893 0.414807 0 0 -1
0.0601174 -0.38467 0.431891 0 0 1
-0.431047 0.00509991 0.049433 -0.924964 -0.373507 0.0702385
0.00773448 0.210751 0.404645 0 0 -1
-0.0988542 -0.213537 0.425294 0 0 1
-0.158932 0.360018 0.431891 0 0 1
0.189237 -0.401015 0.431891 0 0 1
0.273142 -0.0682877 0.414807 0 0 -1
-0.314093 -0.0236263 0.414807 0 0 -1
-0.190404 0.00205799 0.414807 0 0 -1
0.000163808 -0.0457962 0.404645 0 0 -1
0.429478 0.0209913 0.0269411 0.398474 0.916715 0.0291807
0.3943 -0.166514 0.431891 0 0 1
0.350804 0.101226 0.421403 0 0 -1
0.215165 0.214504 0.425294 0 0 1
-0.2672 -0.191044 0.417754 -0.418652 -0.326928 -0.84726
0.308621 0.185161 0.431891 0 0 1
0.241672 -0.137634 0.425294 0 0 1
0.114799 -0.176394 0.414807 0 0 -1
0.0182069 0.169686 0.425294 0 0 1
0.0571462 0.329143 0.431891 0 0 1
-0.0288237 0.159276 0.425294 0 0 1
0.0405638 -0.0387425 0.410742 0.999815 -0.0192175 0
-0.0839024 -0.000207708 0.414807 0 0 -1
-0.0714693 -0.132434 0.425294 0 0 1
0.361532 0.257614 0.421403 0 0 -1
0.118249 0.180285 0.414807 0 0 -1
-0.191402 0.000291055 0.415131 0 0 1
-0.179055 0.0571206 0.414807 0 0 -1
-0.379937 -0.11561 0.421403 0 0 -1
0.406201 0.170481 0.421403 0 0 -1
-0.274407 0.334024 0.421403 0 0 -1
0.194461 -0.14473 0.414807 0 0 -1
-0.0245303 -0.0372285 0.425294 0 0 1
0.174225 -0.0885752 0.425294 0 0 1
-0.258128 -0.332145 0.421403 0 0 -1
0.31179 -0.0733761 0.415296 0.524813 -0.11059 -0.844003
0.272218 0.335077 0.431891 0 0 1
0.0368885 -0.229954 0.41099 0.999815 -0.0192175 0
-0.0121999 -0.403586 0.00310426 0 0 1
0.427662 0.00412653 0.431891 0 0 1
0.014734 0.197831 0.414807 0 0 -1
-0.382208 -0.000391971 0.351568 -0.332744 -0.910583 0.245195
-0.209262 0.239904 0.425294 0 0 1
0.31892 0.161289 0.431891 0 0 1
0.223811 0.265788 0.431891 0 0 1
0.0779312 0.00611227 0.415131 0 0 1
-0.174316 -0.0540524 0.414807 0 0 -1
0.22192 0.0127785 0.402436 -0.00665369 -0.382665 0.923863
-0.386814 -0.026257 0.431891 0 0 1
-0.280076 -0.0229614 0.414807 0 0 -1
0.390023 -0.055532 0.421403 0 0 -1
0.0901392 -0.122421 0.414807 0 0 -1
-0.26712 0.212617 0.421403 0 0 -1
-0.0270062 -0.0946978 0.425294 0 0 1
0.136003 -0.0476154 0.414807 0 0 -1
-0.402365 0.199201 0.426345 -0.878889 0.477027 0
-0.00361251 -0.0647224 0.415131 0 0 1
-0.393508 -0.0130172 0.431891 0 0 1
0.269513 0.10067 0.425294 0 0 1
-0.247903 0.00383398 0.403149 -0.00737146 -0.38397 0.923316
-0.184217 0.277683 0.43188 0.321417 -0.411586 0.852812
0.275351 0.211241 0.431891 0 0 1
-0.260047 -0.3107 0.431891 0 0 1
-0.0158942 -0.00872204 0.404645 0 0 -1
-0.128521 0.314478 0.431891 0 0 1
0.040868 0.0213048 0.404645 0 0 -1
-0.0511246 0.435579 0.431891 0 0 1
0.264955 -0.22549 0.431891 0 0 1
-0.169182 0.0293414 0.404645 0 0 -1
-0.300951 -0.318449 0.431891 0 0 1
-0.28587 0.276134 0.421403 0 0 -1
-0.409615 0.0191848 0.254723 -0.372928 0.927604 0.0218101
-0.187707 -0.373279 0.431891 0 0 1
0.000540964 0.321676 0.414807 0 0 -1
-0.0271862 -0.109667 0.425294 0 0 1
-0.0343057 -0.294779 0.425294 0 0 1
0.129874 0.00676026 0.414807 0 0 -1
0.383236 0.169395 0.431891 0 0 1
0.0533642 -0.419868 0.421403 0 0 -1
0.236996 0.325674 0.421403 0 0 -1
-0.137652 -0.25016 0.414807 0 0 -1
-0.0741129 0.149317 0.425294 0 0 1
-0.256061 0.00583284 0.403915 -0.00737146 -0.38397 0.923316
0.0879331 -0.125387 0.414807 0 0 -1
-0.0100064 0.449045 0.421403 0 0 -1
0.397806 -0.0404878 0.421403 0 0 -1
-0.00604926 0.375622 0.421403 0 0 -1
0.21054 0.326269 0.431891 0 0 1
0.0177323 0.394601 0.421403 0 0 -1
-0.0196582 -0.0496633 0.404645 0 0 -1
-0.235331 -0.29151 0.431891 0 0 1
0.0340895 -0.207111 0.404645 0 0 -1
-0.221149 -0.131991 0.425294 0 0 1
-0.311266 0.276181 0.421403 0 0 -1
0.00459708 0.038235 0.393156 0.520146 -0.765066 -0.379634
-0.207721 -0.256883 0.419234 -0.380092 -0.450042 -0.808079
0.0195299 0.293562 0.370685 -0.360867 -0.340131 -0.868381
0.331219 -0.303008 0.423278 0.763942 -0.645285 0
0.268036 -0.0231181 0.425294 0 0 1
0.355141 0.179234 0.431891 0 0 1
0.013895 0.185541 0.385997 -0.382831 0.00400481 -0.92381
0.0857699 -0.396838 0.421403 0 0 -1
0.2589 -0.209773 0.431891 0 0 1
0.429226 -0.123969 0.431891 0 0 1
0.0434847 0.221312 0.415131 0 0 1
-0.0237039 0.215087 0.425294 0 0 1
-0.0592918 0.134279 0.425294 0 0 1
0.070859 0.0254997 0.415131 0 0 1
0.0313872 0.37293 0.1645 0.919491 -0.387919 -0.0636828
-0.390349 0.0617865 0.431891 0 0 1
-0.121738 0.0105582 0.402297 0.00401095 0.382726 0.923853
-0.163546 0.0855147 0.425294 0 0 1
0.000305224 -0.213793 0.415131 0 0 1
-0.0178162 0.0290329 0.385587 0.217772 -0.319659 -0.922168
-0.310738 0.111358 0.430235 0.499002 -0.153916 0.852823
-0.284463 -0.156567 0.427028 0.46711 0.230706 0.85357
0.277072 -0.00805218 0.414807 0 0 -1
-0.350166 -0.267871 0.431891 0 0 1
0.0625889 0.0313491 0.415131 0 0 1
0.371381 -0.231813 0.421403 0 0 -1
0.0186283 0.214437 0.415131 0 0 1
0.262912 0.0704009 0.425294 0 0 1
-0.126068 -0.293606 0.425294 0 0 1
0.0203726 -0.448773 0.421801 0.0721771 -0.997392 0
-0.00996762 0.2558 0.414807 0 0 -1
0.134948 0.36604 0.421403 0 0 -1
-0.435742 0.0320183 0.421403 0 0 -1
0.130951 -0.393885 0.431891 0 0 1
0.260454 0.0166877 0.404645 0 0 -1
-0.272535 0.0435991 0.411072 -0.999814 0.0192738 0
0.026273 0.164398 0.404645 0 0 -1
0.0264084 -0.342766 0.431891 0 0 1
-0.017063 0.392545 0.431891 0 0 1
-0.230806 -0.153773 0.414807 0 0 -1
-0.161813 0.242848 0.414807 0 0 -1
0.00154006 -0.303064 0.368765 0.363436 0.33755 -0.868317
0.346027 0.049103 0.421403 0 0 -1
-0.177656 0.0184573 0.415131 0 0 1
0.283624 0.327906 0.431891 0 0 1
-0.0880492 -0.000247718 0.414807 0 0 -1
0.0240718 0.138387 0.415131 0 0 1
0.0178897 -0.429843 0.431891 0 0 1
0.00191706 -0.318248 0.377027 0.358174 -0.807551 0.468586
-0.123643 -0.22199 0.425294 0 0 1
-0.384588 0.00475153 0.431891 0 0 1
-0.281809 -0.233298 0.421403 0 0 -1
0.0544582 0.176389 0.414807 0 0 -1
0.0298141 0.382116 0.0931975 0.919319 -0.384349 -0.0844273
-0.237494 -0.193869 0.425294 0 0 1
-0.149738 -0.0473123 0.425294 0 0 1
-0.422324 -0.0131884 0.431891 0 0 1
-0.129041 -0.246868 0.414807 0 0 -1
0.0935185 0.0467203 0.415131 0 0 1
0.26241 -0.122229 0.425294 0 0 1
0.0924362 0.325873 0.421403 0 0 -1
-0.0701793 -0.00269143 0.404645 0 0 -1
-0.316494 -0.0594413 0.416418 -0.528078 -0.0902388 -0.844388
-0.247591 -0.331749 0.421403 0 0 -1
0.0398175 -0.0775683 0.412407 0.999815 -0.0192175 0
-0.135049 0.244957 0.414807 0 0 -1
-0.00374294 0.2785 0.414807 0 0 -1
-0.146451 -0.0276286 0.414807 0 0 -1
0.328125 0.0736102 0.421403 0 0 -1
0.409607 0.00792364 0.103393 -0.9273 -0.367661 -0.0702879
0.151264 0.421044 0.421403 0 0 -1
-0.331232 0.220075 0.421403 0 0 -1
-0.00570247 -0.362325 0.286019 -0.397244 -0.881964 0.253646
0.345097 0.23334 0.431891 0 0 1
0.0898123 0.369716 0.421403 0 0 -1
0.429281 -0.0831146 0.431891 0 0 1
0.115852 -0.0238688 0.425294 0 0 1
0.189004 -0.373612 0.421403 0 0 -1
0.354628 0.136066 0.431891 0 0 1
-0.148562 -0.312374 0.431891 0 0 1
0.169187 -0.334155 0.431891 0 0 1
-0.377069 0.0772797 0.421403 0 0 -1
-0.199958 -0.245119 0.425294 0 0 1
0.407235 -0.0579378 0.421403 0 0 -1
0.205405 -0.0176774 0.415131 0 0 1
-0.105682 -0.0486136 0.414807 0 0 -1
-0.446814 -0.0474324 0.430821 -0.997392 -0.0721776 0
0.280121 0.275054 0.421403 0 0 -1
-0.0700246 0.149544 0.414807 0 0 -1
-0.0291624 -0.10079 0.425294 0 0 1
-0.158917 0.332512 0.431891 0 0 1
-0.0422372 -0.413284 0.421403 0 0 -1
-0.232922 -0.103139 0.425294 0 0 1
0.170352 -0.34486 0.431891 0 0 1
0.105724 -0.190619 0.425294 0 0 1
0.291444 0.279385 0.421403 0 0 -1
0.145522 -0.0602931 0.425294 0 0 1
0.336597 0.0410224 0.431891 0 0 1
-0.184836 0.079948 0.414807 0 0 -1
-0.0804416 -0.0108705 0.414807 0 0 -1
0.13813 0.135986 0.425294 0 0 1
-0.00440882 0.200135 0.415131 0 0 1
-0.31439 -0.203015 0.431891 0 0 1
0.0232696 0.366345 0.159387 0.373672 -0.914777 -0.153466
0.227309 -0.121403 0.414807 0 0 -1
0.0159023 0.00928272 0.425294 0 0 1
0.117972 -0.0991673 0.414807 0 0 -1
-0.0364153 -0.377758 0.421403 0 0 -1
-0.000330967 -0.118458 0.404381 -0.380628 0.0137764 0.924625
0.0305187 -0.255612 0.425294 0 0 1
0.041549 0.0866479 0.404645 0 0 -1
-0.219056 -0.0601968 0.425294 0 0 1
-0.329607 0.0117305 0.429598 0.518688 -0.0576573 0.853017
0.365199 0.19605 0.421403 0 0 -1
0.259633 -0.0710856 0.414807 0 0 -1
-0.170328 -0.0971999 0.425294 0 0 1
-0.111862 0.263544 0.414807 0 0 -1
-0.0972232 -0.373884 0.421403 0 0 -1
0.334226 0.0342422 0.431891 0 0 1
-0.0350843 -0.212835 0.404645 0 0 -1
0.038134 0.377579 0.421403 0 0 -1
0.164584 -0.271491 0.425294 0 0 1
0.27032 -0.0595038 0.414807 0 0 -1
-0.242547 -0.261041 0.421403 0 0 -1
0.0395833 0.102391 0.404645 0 0 -1
-0.16547 0.418669 0.426313 -0.442824 0.896608 0
-0.216206 -0.0558896 0.425294 0 0 1
-0.0837294 -0.230639 0.425294 0 0 1
0.343835 -0.066625 0.431891 0 0 1
-0.41597 0.0156798 0.0284518 0.924523 0.374581 -0.0703314
-0.101203 -0.367395 0.431891 0 0 1
0.162698 0.332813 0.421403 0 0 -1
0.225051 -0.276155 0.421403 0 0 -1
0.0441395 0.14758 0.406157 0.999815 -0.0192175 0
0.198639 -0.0747182 0.414807 0 0 -1
-0.23171 -0.293031 0.431891 0 0 1
0.116577 -0.0930227 0.425294 0 0 1
0.000193274 -0.195039 0.384541 0.38321 -0.00666136 -0.923637
-0.272529 0.0438927 0.414678 -0.999814 0.0192738 0
0.04317 -0.314056 0.425294 0 0 1
0.0816691 -0.274187 0.414807 0 0 -1
0.0434958 0.0242279 0.414807 0 0 -1
0.173382 -0.360215 0.431891 0 0 1
-0.0166101 0.018043 0.415131 0 0 1
-0.276308 0.118038 0.414807 0 0 -1
0.151962 0.378745 0.421403 0 0 -1
-0.316373 -0.00886413 0.425294 0 0 1
-0.00204791 -0.0736506 0.415131 0 0 1
0.0878637 0.310075 0.416128 0.110614 0.52497 -0.843902
0.389976 -0.0773363 0.431891 0 0 1
0.124466 -0.0819528 0.425294 0 0 1
-0.000898454 0.0526582 0.415131 0 0 1
0.242516 -0.00988043 0.425294 0 0 1
0.363793 0.138736 0.421403 0 0 -1
-0.334395 0.0367692 0.431891 0 0 1
0.315371 -0.165839 0.421403 0 0 -1
0.262841 -0.293985 0.431891 0 0 1
-0.0230238 -0.285563 0.414807 0 0 -1
-0.420325 0.0392264 0.431891 0 0 1
0.244248 0.275718 0.431891 0 0 1
-0.246487 0.163636 0.425294 0 0 1
0.0399384 0.311705 0.414807 0 0 -1
-0.378425 -0.193614 0.421403 0 0 -1
0.110725 -0.308858 0.417122 0.0902414 -0.528092 -0.844379
0.0624084 0.366802 0.421403 0 0 -1
0.104006 -0.334025 0.421403 0 0 -1
0.430957 -0.0679133 0.421403 0 0 -1
0.00811059 -0.071083 0.404645 0 0 -1
0.20627 0.072504 0.414807 0 0 -1
-0.231568 0.304456 0.421403 0 0 -1
-0.0696521 0.0562978 0.425294 0 0 1
0.261512 -0.155868 0.425294 0 0 1
0.418715 0.0207643 0.203269 0.397803 0.917213 0.0217713
-0.105224 -0.268862 0.425294 0 0 1
-0.0544068 0.132157 0.425294 0 0 1
-0.0898954 -0.436537 0.431891 0 0 1
0.212641 -0.113542 0.425294 0 0 1
0.0238169 0.263807 0.425294 0 0 1
0.101809 -0.255056 0.414807 0 0 -1
-0.0416036 0.195639 0.414807 0 0 -1
0.21813 -0.365376 0.421403 0 0 -1
0.0475203 0.244663 0.425294 0 0 1
-0.00270467 -0.346851 0.33124 0.365425 -0.805646 0.46626
-0.0346044 -0.112473 0.425294 0 0 1
0.292619 -0.00197745 0.414807 0 0 -1
-0.104405 0.405197 0.431891 0 0 1
0.202032 -0.239406 0.414807 0 0 -1
0.333788 0.220022 0.431891 0 0 1
0.387075 -0.138707 0.431891 0 0 1
0.0649526 -0.216525 0.414807 0 0 -1
-0.374895 -0.172216 0.421403 0 0 -1
-0.334022 -0.0222657 0.421403 0 0 -1
0.33735 -0.0749248 0.421403 0 0 -1
0.215457 0.153587 0.425294 0 0 1
-0.218575 -0.00166276 0.425294 0 0 1
0.427715 0.0192377 0.080989 0.927557 0.367027 0.07021
0.0134961 -0.0144036 0.396026 -0.899917 0.203636 0.385594
0.10396 -0.027188 0.414807 0 0 -1
-0.0457188 -0.392515 0.421403 0 0 -1
-0.0336724 0.0168655 0.38606 0.217772 -0.319659 -0.922168
0.264757 0.209208 0.421403 0 0 -1
-0.151464 0.0205779 0.414807 0 0 -1
0.307593 0.0573284 0.425294 0 0 1
-0.0137104 0.10495 0.414807 0 0 -1
0.394604 0.0359166 0.421403 0 0 -1
0.383946 0.00407194 0.431891 0 0 1
0.0944107 0.122758 0.425294 0 0 1
0.228974 -0.284064 0.421403 0 0 -1
0.450858 -0.00879337 0.430706 0.993878 -0.110485 0
-0.267902 0.164073 0.425294 0 0 1
0.363705 -0.17708 0.421403 0 0 -1
-0.394228 -0.171773 0.431891 0 0 1
-0.400987 0.0176525 0.285591 0.385455 0.921358 -0.05023
-0.00557837 -0.123106 0.415131 0 0 1
-0.411657 -0.000577003 0.254226 -0.392488 -0.919498 0.0218095
0.445814 -0.0241738 0.431891 0 0 1
-0.21902 0.13124 0.414807 0 0 -1
-0.00953192 0.200242 0.415131 0 0 1
-0.218029 0.304171 0.431891 0 0 1
-0.0707176 -0.286352 0.414807 0 0 -1
-0.236488 -0.00256036 0.425294 0 0 1
-0.138437 -0.0598532 0.425294 0 0 1
0.14321 -0.0670559 0.425294 0 0 1
0.37633 0.176895 0.421403 0 0 -1
0.215946 -0.124421 0.414807 0 0 -1
-0.0386701 -0.236118 0.425294 0 0 1
-0.0555659 -0.416995 0.431891 0 0 1
0.233627 -0.265857 0.431891 0 0 1
0.237295 0.215102 0.414807 0 0 -1
0.416472 0.00543762 0.0290934 -0.39894 -0.916514 -0.0291281
-0.160958 0.0155834 0.39235 0.00956974 0.923746 -0.382885
-0.109965 0.0379402 0.404645 0 0 -1
0.0624978 0.42903 0.431891 0 0 1
0.22657 -0.135854 0.425294 0 0 1
-0.335449 -0.023704 0.421403 0 0 -1
0.381587 0.0935937 0.421403 0 0 -1
0.356526 0.161839 0.421403 0 0 -1
-0.0239167 0.150707 0.404645 0 0 -1
0.365102 -0.063464 0.421403 0 0 -1
0.0364129 0.31605 0.425294 0 0 1
-0.206823 -0.00245306 0.415131 0 0 1
0.0670014 -0.429037 0.421403 0 0 -1
-0.0610656 0.164234 0.425294 0 0 1
0.0620526 0.247509 0.414807 0 0 -1
-0.410561 -0.0449474 0.421403 0 0 -1
0.319521 0.270948 0.421403 0 0 -1
0.0144206 0.129607 0.415131 0 0 1
-0.156736 -0.174162 0.425294 0 0 1
0.0465624 -0.345312 0.431891 0 0 1
0.155255 -0.284525 0.415001 0.235153 -0.476077 -0.847381
0.0146272 0.314951 0.379628 -0.354688 0.354382 0.865223
0.202636 -0.0309803 0.414807 0 0 -1
-0.335457 -0.0292868 0.431891 0 0 1
0.335042 0.285123 0.421403 0 0 -1
0.27732 0.0232669 0.397288 0.0956839 0.920129 0.379746
-0.427108 0.0182165 0.0269895 -0.372513 0.927569 0.0291576
0.00790784 0.244006 0.404645 0 0 -1
-0.333361 0.284458 0.421403 0 0 -1
-0.282037 -0.230482 0.431891 0 0 1
0.218897 0.100029 0.414807 0 0 -1
0.0105696 -0.447378 0.431891 0 0 1
0.179736 0.298198 0.421403 0 0 -1
0.34795 -0.0285058 0.431891 0 0 1
0.301725 -0.000128576 0.425294 0 0 1
0.110528 0.227044 0.425294 0 0 1
0.443078 0.0474771 0.421403 0 0 -1
0.00613082 -0.363408 0.431891 0 0 1
0.267586 0.24921 0.431891 0 0 1
0.137589 0.251223 0.425294 0 0 1
0.296726 -0.110514 0.425294 0 0 1
0.0721165 -0.348785 0.421403 0 0 -1
0.0689572 0.0910721 0.425294 0 0 1
0.0203 -0.0692384 0.404645 0 0 -1
0.411243 0.0779003 0.431891 0 0 1
0.153274 0.235265 0.425294 0 0 1
0.0235899 0.289904 0.414807 0 0 -1
0.231155 -0.329266 0.431891 0 0 1
0.0202811 -0.0561855 0.386062 0.369939 -0.0854058 -0.925122
0.208545 -0.226614 0.414807 0 0 -1
-0.389968 0.0820607 0.431891 0 0 1
0.306015 0.175824 0.421403 0 0 -1
0.00454985 -0.388631 0.0978852 0.916966 -0.389956 0.0843094
0.0690989 -0.411801 0.431891 0 0 1
-0.0635378 0.361378 0.421403 0 0 -1
-0.3349 -0.136199 0.421403 0 0 -1
-0.416448 -5.24111e-05 0.190128 -0.392488 -0.919498 0.0218095
-0.0730213 -0.277492 0.414807 0 0 -1
-0.0413643 0.436439 0.431891 0 0 1
-0.0887155 -0.290053 0.414807 0 0 -1
-0.41456 0.0175773 0.0882954 0.390942 0.919952 -0.0292026
0.0575601 -0.215042 0.425294 0 0 1
-0.252842 -0.015501 0.425294 0 0 1
0.192688 0.278019 0.421403 0 0 -1
-0.288794 0.141989 0.425303 0.457845 -0.248446 0.853611
-0.125216 -0.382096 0.431891 0 0 1
-0.34043 -0.219268 0.421403 0 0 -1
0.286086 0.336434 0.431891 0 0 1
0.152171 -0.165464 0.414807 0 0 -1
0.349683 0.144633 0.421403 0 0 -1
0.40973 -0.139211 0.431891 0 0 1
0.190963 0.312818 0.421403 0 0 -1
0.360092 0.02292 0.421403 0 0 -1
0.0269529 0.184815 0.401557 0.382728 -0.00400373 0.923852
-0.0997483 -0.40785 0.421403 0 0 -1
0.224967 -0.238417 0.416621 0.32686 -0.418592 -0.847315
-0.440035 -0.0918497 0.424594 -0.966171 -0.257903 0
-0.14422 0.273423 0.425294 0 0 1
0.0130309 0.195195 0.386397 -0.382831 0.00400481 -0.92381
0.00327194 -0.37272 0.157787 0.930113 0.361712 -0.0636697
-0.0338428 0.0354295 0.391653 -0.527412 0.763664 -0.372362
-0.251679 0.321957 0.421403 0 0 -1
-0.236404 -0.0887696 0.414807 0 0 -1
0.332225 0.0288796 0.431891 0 0 1
-0.0154361 -0.365491 0.229937 -0.930245 -0.361388 0.0635844
-0.068112 -0.00492215 0.425294 0 0 1
-0.0947287 0.15998 0.425294 0 0 1
0.0127056 0.273903 0.414807 0 0 -1
0.304674 -0.325715 0.421403 0 0 -1
-0.339563 -0.211964 0.421403 0 0 -1
0.114877 -0.0170972 0.415131 0 0 1
0.357227 0.270698 0.421403 0 0 -1
0.14035 0.00269872 0.415131 0 0 1
0.431886 -0.0423043 0.421403 0 0 -1
-0.328917 0.239447 0.431891 0 0 1
-0.00895798 -0.193072 0.404645 0 0 -1
-0.208967 -0.0481514 0.414807 0 0 -1
0.0576832 -0.364915 0.431891 0 0 1
0.39172 -0.127922 0.431891 0 0 1
-0.0262332 0.301735 0.414807 0 0 -1
0.440973 0.0590345 0.421403 0 0 -1
-0.113613 -0.227651 0.414807 0 0 -1
0.145186 0.195924 0.414807 0 0 -1
-0.09725 0.00589675 0.40402 0.0249133 -0.375168 0.926622
0.296865 0.00465746 0.386972 0.0632185 -0.922476 0.380844
-0.0936812 -0.080087 0.414807 0 0 -1
0.400008 -0.200335 0.431891 0 0 1
0.0014003 0.24975 0.414807 0 0 -1
0.384748 0.0233056 0.345518 0.334367 0.911234 0.240522
-0.00494246 -0.200721 0.414807 0 0 -1
-0.0869061 0.00270252 0.404645 0 0 -1
-0.292456 0.142488 0.415722 -0.467044 0.25348 -0.847123
0.00247468 0.199203 0.415131 0 0 1
0.416911 0.023059 0.107783 -0.365978 0.930168 -0.0291291
-0.224003 -0.0156285 0.414807 0 0 -1
0.0133554 0.264336 0.404645 0 0 -1
0.103961 0.254797 0.425294 0 0 1
-0.0352177 -0.00786742 0.415131 0 0 1
-0.142687 0.287605 0.425294 0 0 1
0.345443 0.00272406 0.421403 0 0 -1
-0.137084 0.154904 0.414807 0 0 -1
0.0203026 -0.0247388 0.404134 -0.370977 0.0842351 0.924814
0.0802332 -0.0544781 0.425294 0 0 1
0.0118306 0.355642 0.431891 0 0 1
-0.0280708 -0.38045 0.421403 0 0 -1
0.00171681 0.136887 0.404645 0 0 -1
0.360833 -0.0351699 0.421403 0 0 -1
0.239087 0.268549 0.431891 0 0 1
-0.0281642 0.127827 0.415131 0 0 1
0.224966 -0.0953939 0.414807 0 0 -1
-0.304256 -0.308263 0.431891 0 0 1
0.427889 0.0127661 0.112205 0.914269 -0.398969 0.0702486
0.229838 0.347207 0.421403 0 0 -1
-0.107346 0.341194 0.421403 0 0 -1
-0.014796 -0.365963 0.236614 -0.930245 -0.361388 0.0635844
-0.292772 -0.225321 0.431891 0 0 1
-0.156485 0.119855 0.425294 0 0 1
-0.0628748 -0.0451826 0.425294 0 0 1
0.114243 -0.346054 0.421403 0 0 -1
-0.0126611 -0.334356 0.431891 0 0 1
-0.0553657 -0.0205306 0.425294 0 0 1
-0.205559 -0.239031 0.414807 0 0 -1
-0.141033 0.0943315 0.425294 0 0 1
0.323757 0.0724067 0.420224 0.298256 0.0509615 -0.953125
-0.0369001 0.300137 0.414807 0 0 -1
-0.15521 0.299943 0.431891 0 0 1
-0.212552 -0.184709 0.414807 0 0 -1
0.174597 -0.109982 0.414807 0 0 -1
0.030795 0.378491 0.170859 0.927522 0.368299 0.0637075
-0.204854 0.320161 0.431891 0 0 1
-0.180201 -0.0012001 0.425294 0 0 1
0.184773 0.117431 0.414807 0 0 -1
-0.245606 -0.0452051 0.425294 0 0 1
0.0128348 0.402789 0.0200073 -0.927237 -0.364815 -0.0845041
-0.373773 0.191022 0.431891 0 0 1
0.252994 -0.141104 0.425294 0 0 1
0.00547635 -0.211565 0.399659 0.923254 -0.0149427 0.383898
0.0311559 0.327885 0.429902 -0.0581665 -0.276032 0.959387
-0.327773 0.124441 0.431891 0 0 1
-0.0194528 0.226139 0.425294 0 0 1
0.0939112 0.0210841 0.404645 0 0 -1
0.380584 0.0894444 0.431891 0 0 1
-0.121959 -0.416264 0.431891 0 0 1
0.0134069 -0.196675 0.415131 0 0 1
0.0951785 0.337338 0.421403 0 0 -1
-0.0171098 0.210656 0.404645 0 0 -1
0.0832381 0.331846 0.431891 0 0 1
-0.219531 -0.322192 0.431891 0 0 1
-0.157371 0.314315 0.431891 0 0 1
-0.0147435 -0.13355 0.414807 0 0 -1
0.217506 0.0198166 0.403591 0.00669912 0.382658 0.923866
0.16058 -0.161521 0.425294 0 0 1
0.0373666 0.283494 0.425294 0 0 1
