-0.18589 -0.173518 -2.77556e-17 0 0 -1
0.182695 0.182974 0.0338661 0.70743 0.706784 0
-0.32385 0.0188652 0.744716 0 0 1
0.318573 -0.0379194 0.698834 0 0 -1
-0.016709 0.140658 0.698834 0 0 -1
0.0154231 -0.136212 0.744716 0 0 1
0.014866 0.00639207 0.121582 0.861441 0.497396 -0.102549
-0.00510814 -0.0608651 0.560185 0 -0.994727 -0.102555
-0.240354 -0.229009 0.736783 -0.743204 -0.669064 0
-0.196234 0.242606 0.744716 0 0 1
0.209304 -0.258134 0.735617 0.587717 -0.809066 0
0.201026 0.187254 0.698834 0 0 -1
-0.143831 -0.0345582 0.698834 0 0 -1
0.174133 0.00806302 0.744716 0 0 1
0.124674 -0.0124687 0.698834 0 0 -1
-0.06752 0.0443544 0.744716 0 0 1
0.0281425 0.331858 0.70802 0 1 0
-0.00442873 0.0586617 0.53501 0 0.994727 -0.102556
-0.0220004 -0.0431824 0.436782 -0.340406 -0.934671 -0.102543
-0.122191 -0.270605 0.744716 0 0 1
-0.226517 0.128515 0.698834 0 0 -1
0.201576 -0.113727 0.698834 0 0 -1
0.0667467 -0.0647046 0.0183531 0 0 -1
-0.154481 -0.0494123 0.744716 0 0 1
0.27922 0.121717 0.744716 0 0 1
0.0395957 -0.322488 0.744716 0 0 1
0.0231941 0.0195039 0.0687994 0.577076 -0.473179 0.665647
-0.00583114 0.030226 0.261459 -0.340126 0.934771 -0.102554
-0.0347962 0.0644067 0.669077 -0.340126 0.934771 -0.102554
-0.266848 -0.096858 0.698834 0 0 -1
0.246309 -0.117194 0.744716 0 0 1
-0.0600902 0.198117 0.744716 0 0 1
-0.0853886 0.0785041 0.0320513 -0.707515 -0.706679 0.00514785
-0.0851635 -0.0798463 0.057079 -0.675335 0.610879 0.413218
-0.0145479 -0.0772981 0.698852 0 0 1
-0.0991261 0.261399 0.698834 0 0 -1
0.177866 0.280971 0.727499 0.587717 0.809066 0
0.15686 -0.0839823 0.744716 0 0 1
-0.177637 0.0955235 0.744716 0 0 1
-0.133601 -0.187091 0.698834 0 0 -1
0.130449 -0.219767 0.698834 0 0 -1
0.268476 0.0912368 0.698834 0 0 -1
0.0991732 0.0940142 0.0551408 0.675335 -0.61088 0.413216
0.132896 0.157398 0.698834 0 0 -1
-0.118045 -0.175204 0.744716 0 0 1
0.116937 -0.212245 0.744716 0 0 1
0.0617452 0.0162931 0.583447 0.979655 0.172509 -0.102553
-0.111038 0.313822 0.74188 -0.406693 0.913565 0
0.0466624 -0.0196223 0.744716 0 0 1
-0.00127553 -0.0332494 0.292329 0 -0.994727 -0.102555
-0.0505703 0.0209933 0.494779 -0.861443 0.497393 -0.102549
0.0399358 0.0103361 0.365088 0.979655 0.172509 -0.102553
0.0839159 0.321434 0.740104 0.207932 0.978143 0
-0.290313 0.149284 0.744716 0 0 1
-0.273316 -0.0211895 0.698834 0 0 -1
0.162598 0.16542 0.744716 0 0 1
-0.0677156 0.00689603 0.627406 -0.979599 0.172823 -0.102555
0.262975 0.00607499 0.744716 0 0 1
-0.276722 -0.10794 0.744716 0 0 1
-0.0162418 0.0700327 0.658821 -0.340126 0.934771 -0.102554
-0.0817944 -0.0931763 0.744716 0 0 1
0.270102 -0.195884 0.706007 0.866032 -0.499989 0
0.0798175 0.232759 0.698834 0 0 -1
-0.06241 -0.322675 0.698834 0 0 -1
-0.114184 0.0931964 0.698834 0 0 -1
-0.00637755 -0.233912 0.744716 0 0 1
0.0522522 0.0908872 0.744716 0 0 1
0.05415 -0.00467681 0.492017 0.979655 -0.172508 -0.102548
-0.234525 0.233313 0.698834 0 0 -1
-0.263023 0.0383349 0.698834 0 0 -1
0.0757537 -0.131717 0.698834 0 0 -1
0.037771 -0.0590488 0.642783 0.639295 -0.762093 -0.102544
-0.012286 0.287959 0.744716 0 0 1
-0.174065 -0.282065 0.698834 0 0 -1
-0.0275271 -0.0113566 0.698834 0 0 -1
0.0732561 0.108696 0.698834 0 0 -1
-0.0395226 0.0201532 0.397901 -0.861443 0.497393 -0.102549
0.0789783 -0.296103 0.698834 0 0 -1
0.224971 0.00314022 0.698834 0 0 -1
-0.00954927 0.241345 0.698834 0 0 -1
-0.0236074 -0.0061602 0.205502 -0.979419 -0.17383 -0.102574
-0.195716 -0.149747 0.698834 0 0 -1
-0.215671 0.0137014 0.744716 0 0 1
-0.133683 0.173532 0.698834 0 0 -1
-0.00412888 0.0343316 0.299022 0 0.994727 -0.102556
-0.202334 0.0414533 0.698834 0 0 -1
-0.0859196 -0.102375 0.698834 0 0 -1
0.186429 0.063981 0.698834 0 0 -1
0.243796 0.216315 0.744716 0 0 1
0.0465562 0.0205613 0.68417 0 0 -1
0.122774 -0.129624 0.0397281 -0.70609 -0.708011 0.012525
0.0542233 -0.283538 0.698834 0 0 -1
0.149101 -0.0806616 0.698834 0 0 -1
0.252406 -0.0822555 0.698834 0 0 -1
0.0397082 0.0363365 0.0664482 0.577076 -0.473179 0.665647
-0.078836 -0.269129 0.698834 0 0 -1
-0.0320076 -0.0249778 0.0244832 -0.707096 0.707099 0.00514778
0.256163 0.186235 0.698834 0 0 -1
-0.139149 0.132421 0.0447778 -0.707515 -0.706679 0.00514785
-0.0503113 -0.0363297 0.568934 -0.861441 -0.497396 -0.102551
-0.276584 0.116223 0.698834 0 0 -1
0.16283 0.0849287 0.744716 0 0 1
0.130521 -0.293805 0.744716 0 0 1
-0.186524 -0.130937 0.744716 0 0 1
0.176687 -0.17586 0.744716 0 0 1
-0.124139 0.238306 0.744716 0 0 1
-0.00219661 -0.0963949 0.744716 0 0 1
0.328456 0.0497493 0.733476 0.994523 0.104523 0
0.302435 -0.120185 0.698834 0 0 -1
-0.00173042 -0.138612 0.698834 0 0 -1
-0.23205 -0.0444386 0.698834 0 0 -1
-0.0436356 -0.146856 0.698834 0 0 -1
-0.0183586 -0.035382 0.353592 -0.340406 -0.934671 -0.102543
0.198851 -0.0606949 0.744716 0 0 1
0.14293 0.208233 0.744716 0 0 1
-0.276793 0.0733162 0.744716 0 0 1
-0.08155 0.11945 0.744716 0 0 1
-0.133472 -0.135206 0.0524636 0.162927 -0.309171 0.936946
-0.0197563 0.123214 0.744716 0 0 1
-0.0534504 0.0459572 0.642082 -0.639432 0.761978 -0.10255
-0.327467 -0.0591656 0.71711 -0.994523 -0.104523 0
-0.164708 0.276794 0.698834 0 0 -1
0.101208 -0.031349 0.744716 0 0 1
0.192805 -0.188356 0.698834 0 0 -1
-0.113985 -0.21119 0.744716 0 0 1
0.30295 -0.0715578 0.744716 0 0 1
-0.122508 0.156741 0.744716 0 0 1
-0.0294623 -0.3025 0.744716 0 0 1
-0.0386555 0.328038 0.698834 0 0 -1
0.109638 0.314448 0.710122 0.406746 0.913541 0
-0.21886 0.149887 0.744716 0 0 1
-0.114261 0.0522466 0.744716 0 0 1
-0.257698 0.209743 0.736413 -0.743204 0.669064 0
-0.0331276 0.0387213 0.0183531 0 0 -1
-0.282751 -0.17396 0.716647 -0.866032 -0.499989 0
-0.0236767 -0.0364815 0.744716 0 0 1
0.0488818 -0.180981 0.744716 0 0 1
0.0264876 -0.0487799 0.501757 0.340498 -0.934637 -0.102546
0.117185 0.256326 0.744716 0 0 1
0.0293065 0.0388432 0.436873 0.639293 0.762095 -0.102545
0.199272 0.26278 0.698834 0 0 -1
0.15647 -0.287792 0.698834 0 0 -1
0.0551282 -0.0429389 0.698852 0 0 1
0.0970922 -0.12695 0.744716 0 0 1
-0.0616248 0.192042 0.698834 0 0 -1
-0.0934544 0.0208941 0.698834 0 0 -1
0.0215595 -0.00619584 0.183231 0.979655 -0.172508 -0.102548
-0.042112 -0.0559732 0.64878 -0.639434 -0.761976 -0.102548
0.0920907 0.0365307 0.744716 0 0 1
0.0545611 -0.232635 0.698834 0 0 -1
-0.124005 -0.308049 0.720901 -0.406693 -0.913565 0
0.23173 -0.230126 0.744716 0 0 1
0.223238 0.15404 0.744716 0 0 1
0.286263 0.0231207 0.698834 0 0 -1
0.310475 0.118369 0.719965 0.95106 0.309007 0
0.0722237 -0.260817 0.744716 0 0 1
0.00810445 0.201115 0.698834 0 0 -1
0.0452461 0.0542272 0.650577 0.639293 0.762095 -0.102545
0.106616 0.145725 0.744716 0 0 1
-0.275658 0.18373 0.698834 0 0 -1
0.230928 0.0692116 0.744716 0 0 1
-0.168971 -0.0815471 0.698834 0 0 -1
-0.0953997 -0.0932387 0.0183531 0 0 -1
0.0418446 -0.0216716 0.42426 0.86144 -0.497399 -0.102549
0.0039474 -0.331804 0.698834 0 0 -1
-0.277521 -0.0420579 0.744716 0 0 1
0.0464555 0.268164 0.744716 0 0 1
0.132432 0.136435 0.0183531 0 0 -1
0.00529537 0.0542769 0.744716 0 0 1
-0.321141 0.0855337 0.723853 -0.951026 0.30911 0
-0.171553 0.236715 0.698834 0 0 -1
0.208036 0.0333139 0.744716 0 0 1
-0.0420831 -0.160525 0.744716 0 0 1
-0.194804 -0.21501 0.698834 0 0 -1
-0.0753201 -0.0410942 0.68417 0 0 -1
0.00298999 0.0502705 0.453621 0 0.994727 -0.102556
0.147794 0.22448 0.698834 0 0 -1
0.0101265 0.178227 0.744716 0 0 1
-0.068977 0.255644 0.744716 0 0 1
0.00555915 0.0652061 0.598487 0 0.994727 -0.102556
0.0297711 -0.0229384 0.0493078 0.707515 0.706679 0.00514784
0.0203301 0.0641488 0.698834 0 0 -1
-0.145524 0.038327 0.698834 0 0 -1
-0.171937 -0.19413 0.744716 0 0 1
0.156056 0.0353151 0.698834 0 0 -1
-0.223919 -0.0743407 0.744716 0 0 1
0.079314 0.165508 0.698834 0 0 -1
-0.0822549 -0.209532 0.698834 0 0 -1
-0.176145 -0.258119 0.744716 0 0 1
-0.13922 0.0231295 0.744716 0 0 1
0.0576191 -0.00625408 0.527811 0.979655 -0.172508 -0.102548
0.0715646 -0.00251337 0.654742 0.979655 -0.172508 -0.102548
-0.0854288 -0.0395111 0.744716 0 0 1
0.21529 -0.24887 0.698834 0 0 -1
-0.0348792 0.021075 0.363365 -0.861443 0.497393 -0.102549
0.0233453 -0.025935 0.306751 0.639295 -0.762093 -0.102544
-0.0557773 0.025044 0.558167 -0.861443 0.497393 -0.102549
-0.040304 -0.0386921 0.509101 -0.639434 -0.761976 -0.102548
0.0522941 0.291676 0.698834 0 0 -1
-0.0469871 0.0968128 0.698834 0 0 -1
0.21545 0.124002 0.698834 0 0 -1
0.0390315 -0.050971 0.590608 0.639295 -0.762093 -0.102544
0.156926 -0.15877 0.698834 0 0 -1
0.0218495 0.149655 0.698834 0 0 -1
0.100513 0.0167302 0.698834 0 0 -1
-0.166096 0.0965896 0.698834 0 0 -1
0.0151531 0.0183789 0.196551 0.639293 0.762095 -0.102545
0.01936 -0.0203806 0.240625 0.639295 -0.762093 -0.102544
-0.238539 -0.156858 0.744716 0 0 1
-0.221323 0.102555 0.744716 0 0 1
-0.0661914 -0.248027 0.744716 0 0 1
0.201503 -0.0501084 0.698834 0 0 -1
-0.0659901 0.325243 0.69912 -0.207957 0.978138 0
0.331495 -0.0208386 0.742632 0.994523 -0.104523 0
-0.0698942 0.113046 0.698834 0 0 -1
-0.0313417 0.00862621 0.282882 -0.979599 0.172823 -0.102555
0.25867 -0.0491901 0.744716 0 0 1
0.320447 0.087678 0.717249 0.95106 0.309007 0
-0.16945 0.18945 0.744716 0 0 1
-0.0274986 0.032889 0.698852 0 0 1
0.155305 -0.230319 0.744716 0 0 1
0.255746 -0.143232 0.698834 0 0 -1
0.0501908 -0.150554 0.698834 0 0 -1
0.255549 -0.175475 0.744716 0 0 1
0.0217776 -0.0692844 0.673002 0.340498 -0.934637 -0.102546
0.0160146 0.0116595 0.0183531 0 0 -1
-0.183332 0.182337 0.0447067 -0.707107 0.707107 0
-0.0159245 -0.281202 0.698834 0 0 -1
-0.111015 0.118076 0.0205391 0.707081 0.707113 0.00527373
-0.0280807 0.0225551 0.0656729 -0.675354 -0.610858 0.413218
-0.0528117 -0.0378958 0.597533 -0.861441 -0.497396 -0.102551
0.00757577 -0.00635903 0.685106 0 0 1
-0.242985 -0.196753 0.698834 0 0 -1
0.0246648 0.331858 0.742863 0 1 0
0.292277 0.046033 0.698834 0 0 -1
-0.0614573 -0.0935048 0.698834 0 0 -1
0.0340517 0.0445718 0.50903 0.639293 0.762095 -0.102545
-0.316417 0.0176544 0.698834 0 0 -1
-0.0514705 -0.010161 0.478398 -0.9796 -0.172823 -0.102548
0.268879 -0.0304261 0.698834 0 0 -1
-0.0144359 0.0113127 0.744716 0 0 1
-0.0231482 0.231233 0.744716 0 0 1
-0.0657848 -0.120307 0.744716 0 0 1
0.0964681 -0.0645727 0.698834 0 0 -1
-0.286926 0.138002 0.698834 0 0 -1
0.0926232 -0.187779 0.698834 0 0 -1
0.110001 0.0637181 0.744716 0 0 1
0.197637 -0.14092 0.744716 0 0 1
-0.115736 0.311731 0.699623 -0.406693 0.913565 0
-0.188304 0.168062 0.698834 0 0 -1
0.226611 -0.184357 0.698834 0 0 -1
0.131425 0.099243 0.698834 0 0 -1
-0.147316 -0.23824 0.698834 0 0 -1
-0.0109073 -0.17827 0.744716 0 0 1
-0.312336 -0.112624 0.716441 -0.951026 -0.30911 0
0.0530723 -0.0764821 0.744716 0 0 1
-0.0412338 0.0757918 0.744716 0 0 1
0.286959 0.166686 0.728391 0.866032 0.499989 0
0.331723 0.0186685 0.699475 0.994523 0.104523 0
-0.0536926 0.268658 0.698834 0 0 -1
-0.219292 -0.108943 0.698834 0 0 -1
0.0497951 0.0275059 0.744716 0 0 1
0.137607 0.0172958 0.744716 0 0 1
-0.077213 -0.322857 0.738986 -0.207957 -0.978138 0
-0.137185 -0.109066 0.744716 0 0 1
0.224406 0.0621954 0.698834 0 0 -1
-0.141215 0.0983215 0.744716 0 0 1
-0.265313 -0.149123 0.698834 0 0 -1
0.0215962 -0.283747 0.744716 0 0 1
-0.136687 -0.123343 0.698834 0 0 -1
-0.0185298 0.000915622 0.147481 -0.979423 0.173831 -0.10253
0.305433 -0.131019 0.744716 0 0 1
-0.17504 -0.00733002 0.698834 0 0 -1
-0.00666967 -0.0108186 0.0922185 -0.640453 -0.761125 -0.102516
0.123389 -0.162748 0.744716 0 0 1
0.200485 -0.00354323 0.744716 0 0 1
-0.0703062 0.0652401 0.698834 0 0 -1
-0.15874 0.28345 0.744716 0 0 1
0.215005 -0.163334 0.744716 0 0 1
-0.168592 0.0478293 0.744716 0 0 1
0.0190616 -0.0368073 0.367977 0.340498 -0.934637 -0.102546
-0.312908 0.110865 0.726496 -0.951026 0.30911 0
0.0860474 -0.320981 0.743837 0.207932 -0.978143 0
0.00371766 0.0451214 0.403677 0 0.994727 -0.102556
-0.288577 0.0688559 0.698834 0 0 -1
-0.0240808 0.0153674 0.244972 -0.861443 0.497393 -0.102549
0.0494571 0.144832 0.744716 0 0 1
0.0758623 -0.0785875 0.0608413 -0.476174 -0.579358 0.661516
0.0793375 0.0568098 0.698834 0 0 -1
-0.0650024 -0.0304864 0.663999 -0.861441 -0.497396 -0.102551
-0.0451478 -0.0147817 0.42579 -0.979419 -0.17383 -0.102574
-0.224489 -0.246631 0.71072 -0.743204 -0.669064 0
0.189751 0.227911 0.744716 0 0 1
-0.324154 -0.0160542 0.744716 0 0 1
-0.0542187 0.307163 0.744716 0 0 1
0.280407 0.0647206 0.744716 0 0 1
-0.221517 0.183452 0.698834 0 0 -1
-0.101609 -0.00679056 0.744716 0 0 1
0.102288 0.168864 0.698834 0 0 -1
0.187806 0.128819 0.744716 0 0 1
-0.272602 0.0214248 0.744716 0 0 1
-0.177475 0.141506 0.744716 0 0 1
0.0747062 -0.0299711 0.698852 0 0 1
-0.00176548 0.296701 0.698834 0 0 -1
0.132096 0.304449 0.718283 0.406746 0.913541 0
0.0301672 -0.109708 0.698834 0 0 -1
0.17644 -0.0114875 0.698834 0 0 -1
0.0596587 -0.319879 0.698834 0 0 -1
-0.0120093 0.162695 0.744716 0 0 1
-0.0551293 -0.203872 0.744716 0 0 1
-0.0566774 0.0499471 0.0578806 -0.707515 -0.706679 0.00514785
0.160866 -0.15411 0.0384938 0.707515 0.706679 0.00514784
-0.10553 -0.0726149 0.744716 0 0 1
-0.15204 -0.168556 0.698834 0 0 -1
-0.0637754 -0.0571078 0.0183531 0 0 -1
0.127285 -0.125734 0.698834 0 0 -1
0.0710499 0.0641822 0.0478688 0.707096 -0.707099 0.00514776
-0.0453238 -0.0511524 0.0614862 0.671161 -0.706307 0.225107
-0.00383119 -0.167 0.698834 0 0 -1
0.154435 0.150611 0.0482195 0.577844 -0.474186 0.664263
-0.180161 -0.17343 0.0382377 -0.708065 0.706031 0.0128169
0.228714 0.241948 0.711771 0.743204 0.669065 0
-0.0441834 0.0473127 0.594371 -0.639432 0.761978 -0.10255
-0.242072 0.083789 0.698834 0 0 -1
-0.211457 0.192626 0.744716 0 0 1
0.190628 0.14869 0.698834 0 0 -1
-0.0908893 -0.161035 0.698834 0 0 -1
0.119164 -0.267398 0.698834 0 0 -1
-0.105237 0.208333 0.698834 0 0 -1
-0.240771 0.00289088 0.698834 0 0 -1
0.158666 -0.0375042 0.744716 0 0 1
0.105954 0.27109 0.698834 0 0 -1
0.115927 -0.311648 0.715328 0.406746 -0.913541 0
0.0527238 0.0269063 0.539098 0.861441 0.497396 -0.102549
-0.00844117 -0.0436179 0.39575 -0.339554 -0.934978 -0.102565
-0.0728317 0.144598 0.744716 0 0 1
0.082608 0.278949 0.744716 0 0 1
-0.0462822 0.0204861 0.456297 -0.861443 0.497393 -0.102549
-0.00881218 -0.0519285 0.68417 0 0 -1
-0.116948 -0.240437 0.698834 0 0 -1
0.0449752 -0.0348091 0.51428 0.86144 -0.497399 -0.102549
0.259607 0.161907 0.744716 0 0 1
0.0751781 -0.225683 0.744716 0 0 1
-0.16273 0.253941 0.744716 0 0 1
-0.0827661 -0.289035 0.744716 0 0 1
0.286926 -0.166743 0.728066 0.866032 -0.499989 0
0.265609 0.141639 0.698834 0 0 -1
-0.172812 -0.00932617 0.744716 0 0 1
0.00946741 0.101391 0.698834 0 0 -1
-0.308176 -0.00656655 0.698834 0 0 -1
-0.0509977 -0.24213 0.698834 0 0 -1
0.179708 -0.093218 0.744716 0 0 1
0.0367244 -0.00181321 0.320734 0.979772 -0.171833 -0.102565
0.0264335 0.0104516 0.238442 0.861441 0.497396 -0.102549
0.0586091 0.0345399 0.625561 0.861441 0.497396 -0.102549
-0.0593921 -0.00545958 0.744716 0 0 1
-0.0558369 0.00626284 0.68417 0 0 -1
-0.0877744 0.153126 0.698834 0 0 -1
-0.246884 -0.112833 0.744716 0 0 1
-0.208996 -0.0323707 0.744716 0 0 1
-0.00190737 -0.0113857 0.0555895 -0.383068 -0.92372 0
-0.00692272 0.0390244 0.345275 -0.340126 0.934771 -0.102554
0.309164 -0.0791929 0.698834 0 0 -1
0.162865 0.17064 0.000702707 -0.923998 -0.382398 0
0.0356323 -0.0367028 0.463377 0.639295 -0.762093 -0.102544
0.0513588 0.200041 0.698834 0 0 -1
0.29482 0.102289 0.698834 0 0 -1
-0.154739 -0.294368 0.741001 -0.406693 -0.913565 0
0.0964845 -0.0954852 0.0586363 0.302259 0.155584 0.940443
-0.276726 0.184398 0.723783 -0.866032 0.499989 0
0.166759 -0.22974 0.698834 0 0 -1
-0.25579 0.132873 0.744716 0 0 1
-0.0224693 -0.105382 0.698834 0 0 -1
-0.230126 0.24037 0.727966 -0.743204 0.669064 0
0.167343 -0.288615 0.743709 0.587717 -0.809066 0
-0.107752 0.19809 0.744716 0 0 1
-0.0188101 0.331858 0.74147 0 1 0
-0.0594538 0.00408941 0.543761 -0.979599 0.172823 -0.102555
-0.137157 0.128615 0.698834 0 0 -1
-0.000590131 -0.0608048 0.744716 0 0 1
-0.120763 -0.277757 0.698834 0 0 -1
0.0412273 0.243432 0.698834 0 0 -1
0.107607 -0.103967 0.698834 0 0 -1
0.0635252 -0.147738 0.744716 0 0 1
-0.0347424 -0.0141661 0.330654 -0.861441 -0.497396 -0.102551
-0.141948 0.262105 0.698834 0 0 -1
-0.154189 -0.148877 0.744716 0 0 1
-0.217578 -0.193813 0.744716 0 0 1
0.0825084 -0.0852601 0.744716 0 0 1
-0.229691 0.0617403 0.744716 0 0 1
-0.0283318 0.0565068 0.57563 -0.340126 0.934771 -0.102554
0.106579 0.10528 0.744716 0 0 1
-0.0456511 -0.0285409 0.698852 0 0 1
-0.00867716 -0.0200403 0.181614 -0.340406 -0.934671 -0.102543
-0.320832 0.0411044 0.744716 0 0 1
0.030111 -0.0596857 0.613187 0.340498 -0.934637 -0.102546
-4.00879e-05 0.0381594 0.68417 0 0 -1
0.0715941 0.32174 0.698834 0 0 -1
-0.0203978 0.050229 0.492095 -0.340126 0.934771 -0.102554
-0.202028 -0.224357 0.744716 0 0 1
-0.17123 0.197141 0.698834 0 0 -1
-0.125574 -0.0887119 0.698834 0 0 -1
0.097367 0.10444 0.0184409 -0.707053 0.707049 0.012525
-0.10785 0.106998 0.0568864 -0.302264 -0.155576 0.940443
-0.316386 -0.0883493 0.744716 0 0 1
-0.296362 -0.0670719 0.698834 0 0 -1
0.193069 0.226273 0.698834 0 0 -1
-0.19886 0.265718 0.716756 -0.587779 0.809022 0
-0.303641 -0.044755 0.698834 0 0 -1
0.0427255 0.049773 0.60176 0.639293 0.762095 -0.102545
0.0125574 -0.050033 0.466924 0.340498 -0.934637 -0.102546
-0.129055 0.278604 0.744716 0 0 1
0.141685 0.268542 0.698834 0 0 -1
0.033209 -0.220013 0.744716 0 0 1
0.142248 -0.123448 0.744716 0 0 1
0.112336 0.203956 0.698834 0 0 -1
-0.026253 -0.270673 0.744716 0 0 1
-0.0978842 -0.0454444 0.698834 0 0 -1
0.235473 0.113384 0.744716 0 0 1
0.0248596 0.220968 0.744716 0 0 1
0.013441 0.10215 0.744716 0 0 1
-0.264777 -0.201879 0.733199 -0.743204 -0.669064 0
0.0702145 0.0131101 0.744716 0 0 1
-0.0242199 -0.0619391 0.615117 -0.340406 -0.934671 -0.102543
-0.0967717 -0.237186 0.744716 0 0 1
0.220054 -0.0180107 0.698834 0 0 -1
0.0499947 0.00576379 0.453486 0.979655 0.172509 -0.102553
-0.11734 -0.00836642 0.698834 0 0 -1
0.307416 0.112971 0.744716 0 0 1
-0.0328256 -0.0440604 0.698852 0 0 1
0.0486091 -0.0188621 0.685106 0 0 1
-0.186842 -0.0435274 0.698834 0 0 -1
-0.0953515 -0.143592 0.744716 0 0 1
-0.05904 -0.0316139 0.619384 -0.861441 -0.497396 -0.102551
0.301375 0.0214641 0.744716 0 0 1
-0.15136 -0.14431 0.0216999 -0.707096 0.707099 0.00514778
-0.246681 0.151672 0.698834 0 0 -1
-0.301858 -0.140866 0.732983 -0.866032 -0.499989 0
0.260865 0.0227554 0.698834 0 0 -1
0.125035 0.307593 0.743291 0.406746 0.913541 0
0.126955 -0.165139 0.698834 0 0 -1
-0.0139752 -0.027044 0.26304 -0.340406 -0.934671 -0.102543
0.011099 0.247993 0.744716 0 0 1
0.327604 -0.057864 0.724062 0.994523 -0.104523 0
-0.0282241 -0.0438687 0.472242 -0.639434 -0.761976 -0.102548
0.153618 0.276676 0.744716 0 0 1
0.0949262 -0.0913331 0.0183531 0 0 -1
0.219949 -0.0942769 0.744716 0 0 1
-0.0252184 -0.0513943 0.522315 -0.340406 -0.934671 -0.102543
0.0222968 0.268235 0.698834 0 0 -1
-0.0283589 0.06213 0.626975 -0.340126 0.934771 -0.102554
-0.0373165 -0.33134 0.729631 -0.207957 -0.978138 0
-0.234418 -0.14719 0.698834 0 0 -1
0.104185 0.213174 0.744716 0 0 1
-0.0524805 -0.0619089 0.744716 0 0 1
0.187221 -0.155368 0.698834 0 0 -1
-0.0493627 -0.0555175 0.698834 0 0 -1
0.0249605 -0.244302 0.698834 0 0 -1
-0.246445 -0.0155937 0.744716 0 0 1
0.0604028 -0.0134416 0.566495 0.979655 -0.172508 -0.102548
-0.0651596 0.00222558 0.595122 -0.979599 0.172823 -0.102555
0.162731 0.177911 0.698834 0 0 -1
-0.000968468 -0.0697324 0.646192 0 -0.994727 -0.102555
-0.163999 -0.090633 0.744716 0 0 1
0.0225606 -0.0546911 0.542594 0.340498 -0.934637 -0.102546
0.0302541 -0.174525 0.698834 0 0 -1
-0.0490796 -0.187048 0.698834 0 0 -1
0.124988 -0.260187 0.744716 0 0 1
-0.163795 0.160455 0.0183531 0 0 -1
-0.207352 -0.07678 0.698834 0 0 -1
0.0719355 -0.266813 0.698834 0 0 -1
0.167677 0.0440745 0.744716 0 0 1
0.181866 -0.256481 0.698834 0 0 -1
-0.101368 -0.317722 0.704614 -0.207957 -0.978138 0
0.0813904 0.248925 0.744716 0 0 1
-0.106373 0.0570374 0.698834 0 0 -1
0.244919 -0.0301827 0.744716 0 0 1
0.0170314 0.0712655 0.671713 0.340218 0.934738 -0.102552
0.0222784 0.0653061 0.634801 0.340218 0.934738 -0.102552
0.0128312 -0.0029859 0.744716 0 0 1
0.0647295 -0.0210226 0.620582 0.979655 -0.172508 -0.102548
0.115307 -0.0669364 0.744716 0 0 1
0.284132 -0.0276297 0.744716 0 0 1
0.327357 0.0602085 0.706601 0.994523 0.104523 0
0.179323 0.115101 0.698834 0 0 -1
-0.0236488 0.180283 0.698834 0 0 -1
0.0662741 0.00584513 0.698834 0 0 -1
0.0441678 0.0386224 0.698852 0 0 1
0.205708 0.068675 0.744716 0 0 1
0.169026 0.28625 0.698834 0 0 -1
0.191973 -0.212322 0.744716 0 0 1
0.0153852 -0.0351059 0.340264 0.340498 -0.934637 -0.102546
-0.15705 -0.243851 0.744716 0 0 1
-0.0299439 0.022205 0.327388 -0.861443 0.497393 -0.102549
-0.0440701 0.244298 0.698834 0 0 -1
-0.211759 -0.0014809 0.698834 0 0 -1
0.0924092 -0.228763 0.698834 0 0 -1
-0.0805617 0.0781246 0.0607345 -0.577938 -0.474278 0.664114
-0.071406 0.00765161 0.66393 -0.979599 0.172823 -0.102555
0.184334 -0.181343 0.0422251 0.707107 -0.707107 0
0.0543024 0.0659318 0.744716 0 0 1
-0.112556 -0.10577 0.0460028 -0.708065 0.706031 0.0128169
0.044389 0.0132749 0.412572 0.979655 0.172509 -0.102553
0.222889 0.166259 0.698834 0 0 -1
0.165531 -0.167328 -2.77556e-17 0 0 -1
0.192677 0.0254028 0.698834 0 0 -1
0.0638859 -0.0912101 0.698834 0 0 -1
0.0192681 -0.0428648 0.685106 0 0 1
0.135581 0.159129 0.744716 0 0 1
0.246312 -0.222399 0.70615 0.743204 -0.669065 0
0.0536046 -0.060442 0.0501248 -0.707099 -0.707095 0.00527388
-0.247016 0.169619 0.744716 0 0 1
-0.0939075 0.319308 0.712799 -0.207957 0.978138 0
0.0891271 0.129122 0.698834 0 0 -1
-0.322172 0.0600197 0.698834 0 0 -1
0.287088 -0.058468 0.698834 0 0 -1
0.166232 -0.114975 0.698834 0 0 -1
-0.00106058 0.331858 0.70941 0 1 0
-0.329772 -0.0372302 0.703468 -0.994523 -0.104523 0
0.187831 0.166086 0.744716 0 0 1
0.0729928 -0.046398 0.744716 0 0 1
0.0382139 0.036136 0.472286 0.639293 0.762095 -0.102545
-0.0417693 -0.0752637 0.68417 0 0 -1
-0.199124 0.233605 0.698834 0 0 -1
0.0202362 0.058565 0.566582 0.340218 0.934738 -0.102552
-0.109719 -0.0966643 0.744716 0 0 1
-0.0399781 -0.0893684 0.744716 0 0 1
-0.000290255 0.025953 0.217755 0 0.994727 -0.102556
0.135564 -0.0415297 0.744716 0 0 1
0.0368123 0.044782 0.685106 0 0 1
-0.0744916 0.226428 0.744716 0 0 1
-0.0215925 -0.129141 0.744716 0 0 1
-0.0883975 0.0828334 0.744716 0 0 1
0.239324 0.218302 0.698834 0 0 -1
-0.0124826 0.0635928 0.698834 0 0 -1
-0.203322 0.0980825 0.698834 0 0 -1
0.25987 -0.207243 0.744716 0 0 1
0.0951577 0.183559 0.744716 0 0 1
-0.0803364 -0.0112557 0.698852 0 0 1
0.283674 -0.1044 0.698834 0 0 -1
0.0482963 0.0707264 0.698852 0 0 1
0.230679 0.239326 0.744716 0 0 1
-0.0962623 0.280435 0.744716 0 0 1
0.0756239 0.0826933 0.0186373 -0.707053 0.707049 0.012525
0.0241504 0.138905 0.744716 0 0 1
-0.0383403 0.120998 0.698834 0 0 -1
-0.0620078 0.227986 0.698834 0 0 -1
0.0217172 -0.0695799 0.698834 0 0 -1
0.0254747 -0.0184103 0.0193446 0.707047 0.70705 0.0128171
0.0823293 0.120914 0.744716 0 0 1
-0.206456 0.120296 0.744716 0 0 1
0.0358162 -0.253669 0.744716 0 0 1
-0.0875846 -0.18363 0.744716 0 0 1
0.0825515 -0.171631 0.744716 0 0 1
-0.140206 -0.0170174 0.744716 0 0 1
0.164816 0.240985 0.744716 0 0 1
-0.0186036 0.191642 0.744716 0 0 1
0.00844779 -0.0158533 0.141748 0.340291 -0.934712 -0.102541
0.314114 -0.106409 0.744716 0 0 1
-0.0969104 -0.13057 0.698834 0 0 -1
0.00897587 0.0169609 0.150014 0.340218 0.934738 -0.102552
-0.0571587 0.0408759 0.68417 0 0 -1
0.168234 -0.0447896 0.698834 0 0 -1
0.0911668 -0.319892 0.713448 0.207932 -0.978143 0
-0.104038 0.0293311 0.744716 0 0 1
0.0688656 0.0249961 0.666106 0.979655 0.172509 -0.102553
-0.207214 -0.102246 0.744716 0 0 1
-0.10763 0.171051 0.698834 0 0 -1
-0.111005 0.103062 0.744716 0 0 1
0.185071 -0.246768 0.744716 0 0 1
0.0311197 -0.00256834 0.268458 0.979655 -0.172508 -0.102548
-0.173328 0.0193714 0.698834 0 0 -1
-0.00676596 -0.0644674 0.595124 0 -0.994727 -0.102555
0.28946 -0.150838 0.698834 0 0 -1
-0.11286 0.230135 0.698834 0 0 -1
-0.00303055 -0.0247583 0.20997 0 -0.994727 -0.102555
0.256003 0.0849978 0.744716 0 0 1
0.0118411 0.0147318 0.698852 0 0 1
-0.180009 -0.0733134 0.744716 0 0 1
0.136267 0.0218399 0.698834 0 0 -1
-0.161438 0.151977 0.698834 0 0 -1
0.119107 -0.120875 0.0183531 0 0 -1
-0.0427003 0.0358795 0.0477419 -0.707515 -0.706679 0.00514785
0.239552 -0.0548031 0.698834 0 0 -1
0.290659 0.160277 0.706415 0.866032 0.499989 0
0.0676324 -0.117157 0.744716 0 0 1
0.142113 0.110976 0.744716 0 0 1
-0.0192293 0.00919602 0.174288 -0.861581 0.497153 -0.102556
0.0856502 -0.00914758 0.684353 0.978185 -0.207735 0
0.0262491 -0.0196019 0.698834 0 0 -1
-0.308971 0.0955863 0.698834 0 0 -1
-0.168229 -0.190126 0.698834 0 0 -1
-0.273147 0.103663 0.744716 0 0 1
0.0549424 0.230366 0.744716 0 0 1
0.122338 -0.0421121 0.698834 0 0 -1
0.044719 -0.0571416 0.671925 0.639295 -0.762093 -0.102544
0.33284 -0.00803694 0.702752 0.994523 -0.104523 0
-0.0273594 -0.0112852 0.744716 0 0 1
0.0299723 -0.328249 0.698834 0 0 -1
0.262747 -0.0827347 0.744716 0 0 1
-0.186774 -0.122072 0.698834 0 0 -1
-0.104801 -0.205749 0.698834 0 0 -1
0.250382 0.0734355 0.698834 0 0 -1
-0.0319538 0.289931 0.698834 0 0 -1
0.105374 -0.18211 0.744716 0 0 1
0.0424628 -0.0110833 0.391145 0.979655 -0.172508 -0.102548
0.021405 -0.293126 0.698834 0 0 -1
-0.00758834 0.0144719 0.0450565 0.707081 0.707113 0.00527373
-0.144547 0.137581 0.0243476 -0.707047 -0.70705 0.0128171
-0.203796 -0.165182 0.744716 0 0 1
-0.0301174 -0.0233562 0.0604286 -0.708065 0.706031 0.0128169
0.259709 0.194195 0.744716 0 0 1
-0.231465 0.0496088 0.698834 0 0 -1
0.119377 0.246292 0.698834 0 0 -1
0.0532823 -0.296258 0.744716 0 0 1
-0.20276 -0.258887 0.744716 0 0 1
0.0221785 0.0369328 0.378256 0.638233 0.762978 -0.102579
-0.179012 -0.244758 0.698834 0 0 -1
0.151289 -0.203121 0.698834 0 0 -1
-0.0302301 -0.210705 0.744716 0 0 1
0.226489 -0.213267 0.698834 0 0 -1
-0.0822695 0.0875968 0.698834 0 0 -1
-0.288045 -0.12485 0.698834 0 0 -1
-0.0471903 0.151264 0.698834 0 0 -1
-0.0803644 0.172281 0.744716 0 0 1
0.307097 0.0671914 0.744716 0 0 1
0.0785194 0.163321 0.744716 0 0 1
-0.288988 0.0190187 0.698834 0 0 -1
0.153175 0.0740822 0.698834 0 0 -1
0.206156 -0.0833046 0.698834 0 0 -1
-0.0405066 -0.00778528 0.36966 -0.9796 -0.172823 -0.102548
0.192058 0.0983008 0.744716 0 0 1
0.209957 0.095721 0.698834 0 0 -1
0.0235279 -0.272562 0.698834 0 0 -1
-0.0239237 0.212925 0.698834 0 0 -1
-0.262227 -0.133881 0.744716 0 0 1
0.0306864 0.0377013 0.0220294 -0.706702 0.707492 0.00527388
-0.100161 0.126164 0.698834 0 0 -1
0.228952 -0.197175 0.744716 0 0 1
0.228419 0.0113761 0.744716 0 0 1
-0.324751 -0.0553328 0.744716 0 0 1
-0.0105327 0.00362929 0.698852 0 0 1
-0.0297062 -0.331858 0.700354 0 -1 0
0.140874 -0.189624 0.744716 0 0 1
-0.0396714 0.149322 0.744716 0 0 1
-0.0362414 -0.043138 0.0382695 0.706702 -0.707491 0.00527373
-0.0237092 -0.0679635 0.668334 -0.340406 -0.934671 -0.102543
0.172689 0.242779 0.698834 0 0 -1
0.0954987 0.0869521 0.698834 0 0 -1
-0.322078 -0.0826524 0.699944 -0.951026 -0.30911 0
-0.00992926 0.09214 0.744716 0 0 1
-0.00911284 -0.00263504 0.0183531 0 0 -1
-0.240112 -0.0494623 0.744716 0 0 1
-0.178185 0.0593581 0.698834 0 0 -1
0.0231705 -0.00966432 0.209154 0.861483 -0.497323 -0.102551
-0.0246987 0.0444213 0.453416 -0.339526 0.934991 -0.102538
-0.236699 -0.0766283 0.698834 0 0 -1
0.0837417 -0.195709 0.744716 0 0 1
0.279265 -0.00548139 0.698834 0 0 -1
-0.2615 0.205519 0.706282 -0.743204 0.669064 0
0.224652 -0.134193 0.698834 0 0 -1
0.203962 0.206148 0.744716 0 0 1
-0.0303103 0.0511204 0.698852 0 0 1
-0.144 0.0901301 0.698834 0 0 -1
-0.201958 -0.260753 0.698834 0 0 -1
-0.0450293 0.277 0.744716 0 0 1
-0.296267 -0.100489 0.698834 0 0 -1
0.33179 0.0180342 0.733162 0.994523 0.104523 0
-0.0747333 0.323385 0.743396 -0.207957 0.978138 0
0.00927324 -0.0474306 0.4323 0.340498 -0.934637 -0.102546
0.0131434 0.032226 0.744716 0 0 1
-0.112254 -0.119214 0.025239 0.707038 -0.70707 0.0121965
0.0623447 -0.059958 0.695325 0.808927 -0.587909 0
-0.0729859 0.293683 0.698834 0 0 -1
0.274155 -0.130052 0.744716 0 0 1
-0.0288969 -0.00892885 0.260701 -0.979419 -0.17383 -0.102574
-0.0540439 -0.021774 0.529689 -0.861441 -0.497396 -0.102551
-0.152351 -0.106046 0.698834 0 0 -1
-0.157722 0.154019 0.047787 -0.577854 -0.474173 0.664262
-0.146746 -0.217509 0.744716 0 0 1
-0.00349557 -0.0552623 0.505841 0 -0.994727 -0.102555
0.0457125 -0.0414988 0.561864 0.639295 -0.762093 -0.102544
0.0274661 0.303284 0.744716 0 0 1
-0.14467 0.212328 0.698834 0 0 -1
-0.00734797 -0.323843 0.744716 0 0 1
-0.135832 -0.0588497 0.698834 0 0 -1
0.0622846 0.302455 0.744716 0 0 1
0.205419 0.260956 0.729253 0.587717 0.809066 0
0.262659 -0.170411 0.698834 0 0 -1
0.154753 -0.153341 0.744716 0 0 1
0.0333268 -0.210283 0.698834 0 0 -1
-0.0166106 -0.0334435 0.33012 -0.340406 -0.934671 -0.102543
0.231515 -0.0892076 0.698834 0 0 -1
0.171226 -0.0614579 0.744716 0 0 1
0.176923 -0.118657 0.744716 0 0 1
-0.158055 0.216003 0.744716 0 0 1
0.052074 0.143244 0.698834 0 0 -1
0.0203439 0.0133992 0.0372605 0.707096 -0.707099 0.00514776
-0.101683 0.249996 0.744716 0 0 1
-0.0501086 0.32862 0.724604 -0.207957 0.978138 0
-0.0245568 0.049412 0.744716 0 0 1
0.0745176 0.0138724 0.68417 0 0 -1
0.00550557 0.21066 0.744716 0 0 1
-0.0341116 0.25634 0.744716 0 0 1
0.139129 0.0647644 0.744716 0 0 1
0.066398 -0.0292728 0.667384 0.86144 -0.497399 -0.102549
-0.0889798 -0.240087 0.698834 0 0 -1
0.235164 0.173983 0.744716 0 0 1
0.147628 -0.265599 0.698834 0 0 -1
-0.135665 0.302859 0.735594 -0.406693 0.913565 0
0.0342823 0.31133 0.698834 0 0 -1
-0.139079 0.29254 0.698834 0 0 -1
0.0734734 -0.162376 0.698834 0 0 -1
-0.0238496 -0.243411 0.698834 0 0 -1
-0.107472 -0.308744 0.744716 0 0 1
0.0141715 -0.167338 0.744716 0 0 1
-0.214414 -0.190719 0.698834 0 0 -1
0.209069 -0.033227 0.744716 0 0 1
-0.187234 -0.274164 0.72459 -0.587779 -0.809022 0
-0.20606 -0.13898 0.744716 0 0 1
-0.00320448 0.0121748 0.0882061 -0.339526 0.934991 -0.102538
-0.0932834 -0.0724782 0.698834 0 0 -1
0.0117908 -0.19892 0.744716 0 0 1
-0.294294 -0.0705777 0.744716 0 0 1
-0.151417 0.156403 0.744716 0 0 1
0.0940283 -0.00171252 0.744716 0 0 1
-0.178957 0.280178 0.733242 -0.587779 0.809022 0
-0.245323 -0.223489 0.705772 -0.743204 -0.669064 0
0.0266451 -0.0511897 0.744716 0 0 1
0.322013 -0.0828564 0.73997 0.95106 -0.309007 0
0.315233 -0.103723 0.718179 0.95106 -0.309007 0
-0.150947 -0.154988 0.0479832 0.472171 -0.576263 0.667065
-0.0650945 0.0209897 0.698852 0 0 1
-0.254441 -0.0764918 0.744716 0 0 1
-0.0704418 -0.156736 0.744716 0 0 1
-0.140572 0.135364 0.744716 0 0 1
-0.117923 -0.15233 0.698834 0 0 -1
0.0321406 -0.00248932 0.685106 0 0 1
-0.187533 0.20837 0.744716 0 0 1
0.235137 -0.0640203 0.744716 0 0 1
0.133767 -0.293811 0.698834 0 0 -1
0.127606 -0.093966 0.744716 0 0 1
-0.0560713 0.100431 0.744716 0 0 1
-0.0362845 -0.30364 0.698834 0 0 -1
-0.266792 -0.199641 0.711044 -0.743204 -0.669064 0
-0.0842261 -0.210964 0.744716 0 0 1
-0.207283 0.043897 0.744716 0 0 1
0.249744 -0.0057735 0.698834 0 0 -1
0.198839 -0.192578 0.744716 0 0 1
-0.0047852 -0.0272914 0.68417 0 0 -1
-0.0781381 0.0166592 0.744716 0 0 1
0.18799 -0.273617 0.728641 0.587717 -0.809066 0
0.140528 0.126182 0.698834 0 0 -1
0.258846 -0.11615 0.698834 0 0 -1
-0.0747202 -0.0816027 0.0344067 0.706702 -0.707491 0.00527373
0.148668 0.155657 0.0232144 -0.707053 0.707049 0.012525
-0.310551 0.0672325 0.744716 0 0 1
0.0522204 -0.0433466 0.616552 0.86144 -0.497399 -0.102549
-0.0262143 0.0383781 0.415941 -0.639432 0.761978 -0.10255
-0.181766 0.165527 0.744716 0 0 1
-0.165122 -0.138622 0.698834 0 0 -1
0.0090157 -0.0900619 0.698834 0 0 -1
-0.0258375 0.0125856 0.685106 0 0 1
0.221898 -0.136871 0.744716 0 0 1
0.113012 0.114738 0.698834 0 0 -1
0.160876 -0.202035 0.744716 0 0 1
0.065837 -0.190468 0.698834 0 0 -1
0.0598496 0.32655 0.730216 0.207932 0.978143 0
-0.213188 0.206065 0.698834 0 0 -1
0.0417241 0.0991 0.698834 0 0 -1
-0.293871 0.12156 0.744716 0 0 1
0.132699 -0.139701 0.0281732 -0.707099 -0.707095 0.00527388
-0.0319957 -0.0517023 0.553966 -0.639434 -0.761976 -0.102548
0.281278 0.0359815 0.744716 0 0 1
0.22228 0.031509 0.698834 0 0 -1
-0.250817 0.0851239 0.744716 0 0 1
-0.0784757 -0.0025886 0.68417 0 0 -1
-0.275137 -0.0129005 0.744716 0 0 1
0.032472 0.188621 0.698834 0 0 -1
-0.0260066 0.0190911 0.0374577 -0.707515 -0.706679 0.00514785
0.00192897 0.0537994 0.487848 0 0.994727 -0.102556
0.141886 -0.30009 0.72149 0.406746 -0.913541 0
0.0596241 -0.0362902 0.644518 0.86144 -0.497399 -0.102549
-0.288187 0.164545 0.711893 -0.866032 0.499989 0
0.00071138 -0.255292 0.744716 0 0 1
-0.0458103 0.00835819 0.420633 -0.979599 0.172823 -0.102555
0.00701182 -0.0132511 0.113263 0.340291 -0.934712 -0.102541
-0.0607676 -0.0106608 0.568051 -0.9796 -0.172823 -0.102548
-0.114783 0.131017 0.744716 0 0 1
0.0416051 -0.0749128 0.685456 0.500003 -0.866024 0
0.286162 -0.104164 0.744716 0 0 1
0.238167 0.14119 0.698834 0 0 -1
0.189018 0.254407 0.744716 0 0 1
0.123647 0.295801 0.698834 0 0 -1
0.303477 0.00281592 0.698834 0 0 -1
-0.13382 0.208602 0.744716 0 0 1
0.257213 0.21029 0.715505 0.743204 0.669065 0
-0.0616439 0.0241625 0.603172 -0.861443 0.497393 -0.102549
0.302272 0.140162 0.740569 0.866032 0.499989 0
0.178606 0.194455 0.744716 0 0 1
-0.0268931 0.0517815 0.527788 -0.340126 0.934771 -0.102554
-0.0579477 -0.303765 0.744716 0 0 1
-0.0409682 -0.0285418 0.452678 -0.861441 -0.497396 -0.102551
0.162524 -0.262673 0.744716 0 0 1
-0.222292 0.222111 0.744716 0 0 1
-0.143365 0.182404 0.744716 0 0 1
0.152998 -0.000467511 0.698834 0 0 -1
-0.235281 0.0349166 0.744716 0 0 1
0.28662 0.0947321 0.744716 0 0 1
-0.0476139 0.0181321 0.744716 0 0 1
-0.272803 -0.179833 0.744716 0 0 1
0.0864024 0.069957 0.744716 0 0 1
0.0674593 0.00669345 0.621884 0.979655 0.172509 -0.102553
0.0403088 -0.12354 0.744716 0 0 1
0.159039 0.147328 0.698834 0 0 -1
-0.219811 -0.213433 0.698834 0 0 -1
-0.000697969 0.170886 0.698834 0 0 -1
-0.000758222 -0.258942 0.698834 0 0 -1
0.255293 0.135421 0.744716 0 0 1
0.124488 -0.192735 0.698834 0 0 -1
-0.0383794 -0.236627 0.744716 0 0 1
-0.0516751 0.0549061 0.68417 0 0 -1
0.135104 0.190966 0.698834 0 0 -1
0.068283 0.0828359 0.698834 0 0 -1
-0.204419 0.0725736 0.744716 0 0 1
-0.127739 0.0165198 0.698834 0 0 -1
-0.190732 0.0258062 0.744716 0 0 1
0.0204367 0.281612 0.744716 0 0 1
-0.00964941 0.0134833 0.127677 -0.639432 0.761978 -0.10255
0.220009 0.0935081 0.744716 0 0 1
-0.127858 -0.134845 0.0235954 0.707038 -0.70707 0.0121965
0.0438127 0.16771 0.744716 0 0 1
-0.052161 -0.276112 0.698834 0 0 -1
-0.30332 -0.00257642 0.744716 0 0 1
0.0803423 0.0341412 0.69838 0.978185 0.207735 0
0.0714637 0.272973 0.698834 0 0 -1
-0.0150791 -0.00116764 0.11561 -0.9796 -0.172823 -0.102548
-0.08294 0.190595 0.698834 0 0 -1
0.0132804 0.0554169 0.514812 0.340218 0.934738 -0.102552
0.110427 -0.148885 0.698834 0 0 -1
0.0866128 0.196987 0.698834 0 0 -1
0.172945 0.207657 0.698834 0 0 -1
-0.15318 -0.178744 0.744716 0 0 1
0.14104 -0.00658743 0.744716 0 0 1
-0.145048 0.0645509 0.698834 0 0 -1
-0.0539987 -0.0111346 0.50419 -0.9796 -0.172823 -0.102548
0.0514676 -0.0285454 0.538436 0.86144 -0.497399 -0.102549
-0.000466149 0.309158 0.744716 0 0 1
-0.0135259 -0.151138 0.744716 0 0 1
-0.333527 -0.00150265 0.70751 -0.994523 -0.104523 0
-0.032023 -0.0684088 0.698852 0 0 1
0.326406 -0.06926 0.708078 0.994523 -0.104523 0
0.0257191 0.0834464 0.685866 0.104443 0.994531 0
0.145668 -0.151578 0.0183531 0 0 -1
0.0315322 0.0521899 0.744716 0 0 1
0.130338 -0.242726 0.698834 0 0 -1
0.115703 0.108968 0.0487209 0.706182 -0.670776 0.226641
-0.205235 0.261086 0.698878 -0.587779 0.809022 0
0.168575 0.0870121 0.698834 0 0 -1
-0.259145 -0.120019 0.698834 0 0 -1
-0.156 0.071679 0.744716 0 0 1
-0.190309 -0.175897 0.698834 0 0 -1
-0.0218068 0.0987377 0.698834 0 0 -1
0.11942 -0.234795 0.744716 0 0 1
0.155263 0.294134 0.722427 0.406746 0.913541 0
0.0175095 -0.0406401 0.397757 0.340498 -0.934637 -0.102546
-0.0223942 -0.0148139 0.23007 -0.861581 -0.497154 -0.102544
0.090001 0.291309 0.698834 0 0 -1
-0.0345171 -0.0541864 0.588146 -0.639434 -0.761976 -0.102548
-0.0556491 0.0486721 0.0241855 -0.707515 -0.706679 0.00514785
0.0334007 0.219827 0.698834 0 0 -1
0.0089292 -0.0673189 0.622782 0 -0.994727 -0.102555
-0.302799 -0.111023 0.744716 0 0 1
0.191698 -0.220511 0.698834 0 0 -1
-0.243455 -0.206853 0.744716 0 0 1
0.300859 -0.14261 0.7213 0.866032 -0.499989 0
0.0453357 0.0189666 0.438526 0.861441 0.497396 -0.102549
-0.097448 0.154921 0.744716 0 0 1
-0.185789 -0.0447253 0.744716 0 0 1
-0.185047 0.141859 0.698834 0 0 -1
-0.0672224 -0.0200298 0.6455 -0.9796 -0.172823 -0.102548
-0.0155407 -0.0223993 0.0464626 0.706702 -0.707491 0.00527373
0.248867 0.106492 0.698834 0 0 -1
-0.307325 0.128041 0.700343 -0.951026 0.30911 0
0.290282 0.0761705 0.698834 0 0 -1
0.121571 0.182295 0.744716 0 0 1
0.0637211 0.0428011 0.68417 0 0 -1
0.161808 0.139135 0.744716 0 0 1
-0.128746 -0.298762 0.744716 0 0 1
-0.0091641 -0.331858 0.718786 0 -1 0
0.109553 -0.102673 0.0299615 0.707515 0.706679 0.00514784
-0.120757 -0.0518037 0.744716 0 0 1
-0.285891 -0.160691 0.698834 0 0 -1
-0.270955 -0.063469 0.698834 0 0 -1
0.0469209 0.0286419 0.49877 0.861441 0.497396 -0.102549
-0.1208 -0.149313 0.744716 0 0 1
-0.0247002 0.0353231 0.3838 -0.639432 0.761978 -0.10255
0.184673 -0.0362729 0.744716 0 0 1
0.208165 -0.234809 0.744716 0 0 1
0.199479 -0.00136923 0.698834 0 0 -1
-0.23551 0.204896 0.698834 0 0 -1
0.0341036 -0.0188611 0.345602 0.86144 -0.497399 -0.102549
-0.157233 0.293257 0.716057 -0.406693 0.913565 0
0.0742879 -0.0674542 0.0419355 0.707515 0.706679 0.00514784
-0.00689402 0.265753 0.698834 0 0 -1
-0.247075 0.221543 0.71827 -0.743204 0.669064 0
0.0209337 0.0389798 0.698834 0 0 -1
-0.167831 -0.171175 0.0183531 0 0 -1
0.0082208 -0.00447964 0.0711003 0.577032 0.473227 0.66565
0.0303257 -0.0380135 0.440035 0.639295 -0.762093 -0.102544
-0.211685 0.160398 0.698834 0 0 -1
-0.0170987 0.0168075 0.198823 -0.639256 0.762126 -0.102544
0.0210045 0.0286165 0.68417 0 0 -1
-0.164583 0.0186129 0.744716 0 0 1
-0.120249 0.0375211 0.698834 0 0 -1
0.0527872 -0.0457675 0.0218145 0.707047 0.70705 0.0128171
-0.0461195 0.0376057 0.537966 -0.861443 0.497393 -0.102549
-0.00333358 -0.0414298 0.371674 0 -0.994727 -0.102555
-0.0438462 0.0724037 0.698852 0 0 1
0.10673 -0.307314 0.744716 0 0 1
-0.174637 -0.225226 0.744716 0 0 1
0.212508 -0.159052 0.698834 0 0 -1
0.0493414 -0.0468236 0.744716 0 0 1
0.278285 0.120897 0.698834 0 0 -1
-0.299254 -0.145376 0.709502 -0.866032 -0.499989 0
-0.0493573 -0.126319 0.698834 0 0 -1
-0.22078 0.069766 0.698834 0 0 -1
0.0312586 -0.0882703 0.744716 0 0 1
0.0438366 0.113696 0.744716 0 0 1
-0.279376 0.0491445 0.744716 0 0 1
-0.0538279 -0.0395474 0.68417 0 0 -1
0.229897 0.190305 0.698834 0 0 -1
-0.0388901 0.0405977 0.511471 -0.639432 0.761978 -0.10255
0.0463206 -0.0189324 0.448574 0.86144 -0.497399 -0.102549
0.163756 0.170506 0.0376376 -0.706702 0.707492 0.00527388
0.325804 0.0711879 0.733473 0.95106 0.309007 0
0.231719 0.0420702 0.744716 0 0 1
-0.299548 0.0460792 0.698834 0 0 -1
-0.195957 -0.0210861 0.698834 0 0 -1
0.0120439 0.0468612 0.432727 0.340218 0.934738 -0.102552
0.210673 0.175721 0.744716 0 0 1
-0.0923944 0.099399 0.0283053 0.707081 0.707113 0.00527373
-0.331171 -0.0239175 0.722591 -0.994523 -0.104523 0
-0.144195 -0.269091 0.698834 0 0 -1
-0.269031 -0.181823 0.698834 0 0 -1
-0.300056 0.143987 0.71979 -0.866032 0.499989 0
-0.0154513 0.0515662 0.685106 0 0 1
0.00530068 -0.00644496 0.0286632 -0.707096 0.707117 1.78061e-06
-0.0342587 0.00713468 0.308231 -0.979599 0.172823 -0.102555
-0.114908 0.14758 0.698834 0 0 -1
-0.10729 -0.179915 0.698834 0 0 -1
-0.331325 0.0224527 0.72185 -0.994523 0.104523 0
-0.0724107 0.0480006 0.686734 -0.91355 0.406727 0
-0.12038 -0.0332024 0.698834 0 0 -1
-0.0301189 -0.0142948 0.292441 -0.861441 -0.497396 -0.102551
-0.127952 0.198272 0.698834 0 0 -1
0.0647824 -0.00549359 0.594964 0.979655 -0.172508 -0.102548
0.279958 -0.176664 0.744716 0 0 1
-0.263017 0.102076 0.698834 0 0 -1
0.0993933 -0.0328603 0.698834 0 0 -1
0.282871 -0.0534367 0.744716 0 0 1
0.0609455 -0.00723893 0.68417 0 0 -1
-0.268876 0.157648 0.698834 0 0 -1
0.0452941 -0.329644 0.722395 0.207932 -0.978143 0
0.121051 0.125302 0.744716 0 0 1
-0.115272 -0.112275 0.698834 0 0 -1
-0.281903 0.171403 0.744716 0 0 1
0.103652 -0.2954 0.698834 0 0 -1
0.0269902 -0.0185627 0.2844 0.86144 -0.497399 -0.102549
-0.0720617 0.0650467 0.0216362 -0.707047 -0.70705 0.0128171
0.0357558 -0.0425243 0.057699 -0.70609 -0.708011 0.012525
0.183057 0.165656 0.00973282 0.924034 -0.382309 0
0.269348 0.0550005 0.698834 0 0 -1
0.115281 0.0342717 0.698834 0 0 -1
-0.185975 0.261969 0.744716 0 0 1
5.16197e-05 -0.18945 0.698834 0 0 -1
-0.138657 0.235446 0.698834 0 0 -1
0.000322029 -0.03312 0.744716 0 0 1
0.0585241 -0.202165 0.744716 0 0 1
0.00768181 -0.0501522 0.698834 0 0 -1
-0.224355 -0.244613 0.744716 0 0 1
0.0345955 0.0291411 0.397743 0.639293 0.762095 -0.102545
-0.0286195 0.305251 0.744716 0 0 1
0.302166 -0.0202329 0.698834 0 0 -1
-0.251245 0.0098572 0.744716 0 0 1
-0.0946991 -0.282909 0.698834 0 0 -1
0.0163379 -0.0221194 0.0661378 -0.671031 -0.70624 0.225702
0.0122279 -0.0160272 0.163807 0.639295 -0.762093 -0.102544
-0.0701734 0.250895 0.698834 0 0 -1
-0.120729 0.0808484 0.744716 0 0 1
-0.166273 -0.113968 0.744716 0 0 1
0.0770022 -0.239375 0.698834 0 0 -1
-0.241929 -0.0223284 0.698834 0 0 -1
0.0807951 -0.0877298 0.0370881 -0.707099 -0.707095 0.00527388
-0.00918545 0.0408321 0.369257 -0.340126 0.934771 -0.102554
-0.108235 -0.123649 0.744716 0 0 1
-0.0358886 -0.00396261 0.68417 0 0 -1
-0.137731 0.0501469 0.744716 0 0 1
0.150455 -0.0285996 0.698834 0 0 -1
-0.0530357 -0.327039 0.744716 0 0 1
-0.0114113 -0.0148474 0.151753 -0.640453 -0.761125 -0.102516
0.08764 -0.0867956 0.698834 0 0 -1
0.00488326 -0.115717 0.698834 0 0 -1
-0.0544283 -0.0612768 0.042004 0.706702 -0.707491 0.00527373
-0.000721834 -0.0729913 0.677801 0 -0.994727 -0.102555
-0.131108 -0.221368 0.698834 0 0 -1
0.0027987 0.331858 0.732747 0 1 0
-0.00255382 -0.0279036 0.240477 0 -0.994727 -0.102555
-0.0668318 -0.0707104 0.698834 0 0 -1
0.00386634 0.0704021 0.698834 0 0 -1
0.175207 -0.203521 0.698834 0 0 -1
-0.0349599 0.0398033 0.481062 -0.639432 0.761978 -0.10255
0.00398572 -0.232929 0.698834 0 0 -1
-0.0620938 -0.167223 0.698834 0 0 -1
0.185697 -0.0664794 0.698834 0 0 -1
0.189787 0.0896709 0.698834 0 0 -1
0.0494893 0.0426068 0.045821 0.707096 -0.707099 0.00514776
0.209624 0.209972 0.698834 0 0 -1
-0.179412 0.11494 0.698834 0 0 -1
-0.32268 -0.0808005 0.723671 -0.951026 -0.30911 0
0.266232 0.16449 0.698834 0 0 -1
-0.289759 -0.156307 0.744716 0 0 1
0.0521964 -0.110722 0.698834 0 0 -1
0.273927 0.189258 0.727362 0.866032 0.499989 0
0.0448106 -0.0287015 0.483273 0.86144 -0.497399 -0.102549
0.120485 -0.115655 0.0522925 0.674722 0.609883 0.415684
0.000982952 0.134012 0.744716 0 0 1
0.0352772 0.011242 0.698834 0 0 -1
-0.258438 0.0591369 0.744716 0 0 1
0.235675 -0.162803 0.698834 0 0 -1
-0.052087 0.0436236 0.698834 0 0 -1
-0.0578517 -0.219961 0.698834 0 0 -1
0.0086859 -0.0575166 0.527706 0 -0.994727 -0.102555
0.104201 -0.25766 0.744716 0 0 1
-0.0486851 0.0150919 0.698852 0 0 1
-0.00230722 0.0733194 0.67718 0 0.994727 -0.102556
-0.152465 -0.266676 0.744716 0 0 1
0.175493 0.185882 0.00956229 0.383111 0.923702 0
-0.180646 0.256927 0.698834 0 0 -1
0.0384159 -0.0158507 0.367225 0.861483 -0.497323 -0.102551
0.099095 -0.155679 0.744716 0 0 1
-0.0652783 -0.0114287 0.612434 -0.9796 -0.172823 -0.102548
0.0190807 -0.0614797 0.592912 0.340498 -0.934637 -0.102546
0.120876 -0.119099 0.744716 0 0 1
0.0484456 -0.00137647 0.431971 0.979772 -0.171833 -0.102565
0.307142 0.0900695 0.744716 0 0 1
-0.00339297 0.0368011 0.322975 0 0.994727 -0.102556
-0.162281 0.112374 0.744716 0 0 1
-0.0993677 -0.270686 0.744716 0 0 1
-0.212696 -0.164991 0.698834 0 0 -1
0.100349 -0.0100886 0.698834 0 0 -1
0.0283514 0.0849798 0.744716 0 0 1
0.195658 -0.02379 0.698834 0 0 -1
-0.0521892 0.231062 0.744716 0 0 1
-0.217228 -0.0271513 0.698834 0 0 -1
-0.0255316 -0.0717785 0.744716 0 0 1
-0.0490134 -0.270535 0.744716 0 0 1
-0.228185 0.127016 0.744716 0 0 1
-0.0447248 -0.111723 0.744716 0 0 1
0.329583 0.0390302 0.714563 0.994523 0.104523 0
0.0612072 0.034694 0.648134 0.861441 0.497396 -0.102549
0.0548477 -0.0346564 0.596471 0.86144 -0.497399 -0.102549
0.175653 0.0652972 0.744716 0 0 1
0.305936 0.12508 0.698834 0 0 -1
0.0264493 0.0439707 0.457176 0.638233 0.762978 -0.102579
0.152458 -0.132923 0.698834 0 0 -1
0.217183 0.132244 0.744716 0 0 1
-0.150283 -0.0726494 0.744716 0 0 1
0.0535554 -0.273554 0.744716 0 0 1
0.169523 0.115549 0.744716 0 0 1
-0.144572 -0.298893 0.720518 -0.406693 -0.913565 0
-0.123719 -0.304997 0.698834 0 0 -1
-0.266382 0.0160465 0.698834 0 0 -1
0.125724 0.219981 0.698834 0 0 -1
0.0763562 -0.300668 0.744716 0 0 1
-0.0554309 -0.0406432 0.744716 0 0 1
0.141494 -0.148252 0.0420368 -0.70609 -0.708011 0.012525
-0.0843583 0.216707 0.698834 0 0 -1
0.222928 -0.248237 0.720004 0.587717 -0.809066 0
0.0591572 0.0155163 0.557418 0.979655 0.172509 -0.102553
-0.058562 -0.0367163 0.640116 -0.861441 -0.497396 -0.102551
-0.127746 -0.0761671 0.744716 0 0 1
0.0284435 -0.0363212 0.415723 0.639295 -0.762093 -0.102544
0.205704 -0.120216 0.744716 0 0 1
-0.0266526 -0.188015 0.698834 0 0 -1
0.0856391 -0.209171 0.698834 0 0 -1
-0.00655949 0.0693443 0.638625 0 0.994727 -0.102556
0.200537 -0.0831203 0.744716 0 0 1
-0.00155336 0.268496 0.744716 0 0 1
-0.055935 0.0117375 0.523039 -0.979599 0.172823 -0.102555
-0.222135 0.171993 0.744716 0 0 1
0.137683 0.136895 0.744716 0 0 1
-0.00665904 0.120718 0.698834 0 0 -1
0.170733 0.215322 0.744716 0 0 1
0.108157 0.235074 0.744716 0 0 1
0.118841 0.136213 0.698834 0 0 -1
0.108947 0.0147167 0.744716 0 0 1
0.0647806 0.180461 0.698834 0 0 -1
0.0348362 -0.0533629 0.698852 0 0 1
-0.00275396 -0.277168 0.744716 0 0 1
-0.00459729 0.0155285 0.685106 0 0 1
0.0632731 0.0221227 0.60785 0.979655 0.172509 -0.102553
0.0496132 0.0623982 0.68417 0 0 -1
0.243044 -0.139388 0.744716 0 0 1
0.0861796 -0.109329 0.698834 0 0 -1
0.0588194 0.230089 0.698834 0 0 -1
-0.182891 0.0808901 0.698834 0 0 -1
0.243976 0.0356644 0.698834 0 0 -1
-0.176593 -0.281895 0.742265 -0.587779 -0.809022 0
-0.165725 -0.0321173 0.698834 0 0 -1
0.104119 0.283681 0.744716 0 0 1
0.256937 0.108536 0.744716 0 0 1
-0.0894522 -0.0962344 0.045655 0.706702 -0.707491 0.00527373
0.0145126 -0.154927 0.698834 0 0 -1
0.10441 -0.125689 0.698834 0 0 -1
-0.0492445 0.0394891 0.573352 -0.861443 0.497393 -0.102549
0.245396 -0.223417 0.72891 0.743204 -0.669065 0
-0.327856 0.0554623 0.719528 -0.994523 0.104523 0
0.167789 0.0157337 0.698834 0 0 -1
0.10316 0.308336 0.744716 0 0 1
0.17902 -0.13503 0.698834 0 0 -1
-0.165761 0.172627 0.0325568 0.706119 0.707988 0.0121965
-0.266545 -0.0582129 0.744716 0 0 1
0.00814259 0.0765199 0.744716 0 0 1
0.0997798 -0.105233 0.744716 0 0 1
-0.199018 0.0660284 0.698834 0 0 -1
0.0850528 0.091782 0.744716 0 0 1
-0.294038 -0.0924144 0.744716 0 0 1
-0.199501 0.0198184 0.698834 0 0 -1
0.0616238 0.0277062 0.698834 0 0 -1
0.208487 0.243577 0.698834 0 0 -1
-0.0277354 -0.034146 0.396951 -0.639434 -0.761976 -0.102548
0.244775 -0.0949766 0.744716 0 0 1
0.0992288 -0.2268 0.744716 0 0 1
0.0447998 0.264865 0.698834 0 0 -1
0.0327412 -0.0879356 0.698834 0 0 -1
0.126056 0.119077 0.0325711 0.707096 -0.707099 0.00514776
0.153034 -0.106395 0.744716 0 0 1
-0.00409214 -0.0492328 0.447358 0 -0.994727 -0.102555
-0.135652 -0.133562 0.744716 0 0 1
0.00890017 0.31582 0.698834 0 0 -1
0.247637 0.0213246 0.744716 0 0 1
-0.0118591 0.00104432 0.0720998 -0.924019 0.382346 0
-0.0457642 0.0455267 0.744716 0 0 1
-0.224874 0.0967922 0.698834 0 0 -1
-0.00861978 -0.205552 0.744716 0 0 1
-0.200224 -0.23933 0.698834 0 0 -1
0.00592231 0.226432 0.698834 0 0 -1
0.0908625 0.0838919 0.0337406 0.707096 -0.707099 0.00514776
-0.0665603 -0.223146 0.744716 0 0 1
-0.192544 0.211829 0.698834 0 0 -1
0.222262 -0.0165004 0.744716 0 0 1
-0.212619 -0.00749244 0.744716 0 0 1
0.0110856 -0.331858 0.71938 0 -1 0
-0.283324 -0.130544 0.744716 0 0 1
-0.0823729 -0.32176 0.713489 -0.207957 -0.978138 0
-0.296523 0.0364411 0.744716 0 0 1
0.0330008 0.0661634 0.678187 0.340218 0.934738 -0.102552
0.126303 0.078547 0.698834 0 0 -1
-0.0430354 -0.0305642 0.479851 -0.861441 -0.497396 -0.102551
0.0202394 0.0219591 0.254868 0.639293 0.762095 -0.102545
-0.0079744 0.0565189 0.514225 0 0.994727 -0.102556
-0.0985319 -0.0038193 0.698834 0 0 -1
0.0991346 0.0481208 0.698834 0 0 -1
-0.119495 0.284311 0.698834 0 0 -1
