-0.281387 -0.369364 0.36257 -0.370664 -0.448674 0.813203
-0.00204159 -0.174728 0.361916 0 0 1
0.117212 0.359556 0.361916 0 0 1
-0.318181 0.278142 0.34928 0 0 -1
0.0543725 0.0179889 0.361916 0 0 1
0.32346 -0.25181 0.361916 0 0 1
0.351192 0.273701 0.361916 0 0 1
-0.270817 -0.18697 0.361916 0 0 1
0.00615328 0.105138 0.0829431 0 1 0
0.200729 -0.0998855 0.34928 0 0 -1
0.171319 -0.333442 0.361916 0 0 1
-0.287436 -0.304247 0.34928 0 0 -1
0.402337 0.0300881 0.34928 0 0 -1
-0.191024 0.39437 0.34928 0 0 -1
-0.100422 -0.320399 0.361916 0 0 1
0.202932 0.339373 0.34928 0 0 -1
-0.392798 -0.146067 0.361916 0 0 1
0.0223638 -0.419511 0.34928 0 0 -1
-0.0326876 -0.0809053 0.361916 0 0 1
-0.438416 0.0886145 0.34928 0 0 -1
0.112858 -0.0967586 0.324392 0.923336 0.383992 -0.00119672
0.223899 0.00449935 0.361916 0 0 1
0.0686375 0.254749 0.361916 0 0 1
0.344109 -0.00233637 0.34928 0 0 -1
0.0965382 0.261967 0.34928 0 0 -1
0.27462 0.345333 0.361916 0 0 1
0.00956629 0.228273 0.361916 0 0 1
0.0391928 0.40845 0.34928 0 0 -1
0.279965 0.275843 0.361916 0 0 1
-0.113803 0.0687353 0.361916 0 0 1
0.0510153 -0.170569 0.361916 0 0 1
-0.111185 0.0924226 0.169175 -0.923813 -0.382843 0
0.392241 0.0928212 0.361916 0 0 1
-0.329257 -0.118438 0.34928 0 0 -1
0.112625 0.190263 0.34928 0 0 -1
-0.310181 0.203521 0.361916 0 0 1
0.0925876 -0.0858805 0.153212 -0.382846 0.923812 0
0.140424 -0.242679 0.34928 0 0 -1
0.256009 -0.205461 0.34928 0 0 -1
-0.094817 0.195701 0.361916 0 0 1
0.125212 -0.12412 0.101461 0.146548 -0.146759 0.978256
0.0261518 0.127867 0.34928 0 0 -1
-0.117041 0.118624 0.32495 0.605251 0.700905 -0.377364
-0.149698 0.109703 0.361916 0 0 1
0.0692691 -0.321105 0.361916 0 0 1
-0.188611 0.183521 0.0576997 -0.607381 -0.667925 -0.430075
-0.0999902 0.272625 0.34928 0 0 -1
-0.0371471 -0.0257537 0.345235 0 0 -1
-0.406381 -0.0481373 0.361916 0 0 1
0.0926893 0.0356706 0.0990721 0 0 1
0.415124 -0.209402 0.359635 0.764187 -0.392098 0.51213
0.143506 0.0199345 0.361916 0 0 1
-0.23346 0.03816 0.361916 0 0 1
0.0337977 -0.112504 0.361916 0 0 1
0.074807 -0.24277 0.34928 0 0 -1
-0.324835 0.151453 0.34928 0 0 -1
0.300926 0.00699414 0.361916 0 0 1
-0.0955665 -0.052983 0.0995365 0.273079 0.0742806 0.959119
-0.417797 0.0782489 0.34928 0 0 -1
0.112229 -0.135598 0.361916 0 0 1
0.110367 0.106685 0.118579 0.923817 0.382834 0
-0.00426643 0.120923 0.361916 0 0 1
0.0839268 0.0998309 0.29884 -0.923814 0.382842 0
-0.196977 0.158358 0.34928 0 0 -1
0.0783954 -0.410157 0.34928 0 0 -1
-0.175621 -0.10516 0.34928 0 0 -1
0.271058 0.187451 0.34928 0 0 -1
-0.172029 -0.166492 0.34928 0 0 -1
-0.39122 0.116201 0.361916 0 0 1
-0.257855 -0.031562 0.34928 0 0 -1
0.166171 0.207399 0.34928 0 0 -1
-0.0437987 0.437184 0.34928 0 0 -1
-0.0717589 0.104843 0.091703 0.120645 0.992694 -0.00169075
-0.0958421 -0.411268 0.361916 0 0 1
0.455935 0.00109455 0.34928 0 0 -1
-0.316501 -0.0130328 0.34928 0 0 -1
-0.0299839 0.280745 0.361916 0 0 1
0.225438 0.356049 0.34928 0 0 -1
0.408691 -0.154706 0.34928 0 0 -1
0.175043 -0.428943 0.363221 0.203291 -0.545499 0.813083
-0.226939 0.0764865 0.34928 0 0 -1
0.111057 0.105521 0.361916 0 0 1
-0.0958985 0.370847 0.34928 0 0 -1
-0.0122433 -0.344451 0.34928 0 0 -1
0.104686 -0.0700892 0.0974764 0.999788 0.00703076 0.0193685
0.252662 -0.338839 0.34928 0 0 -1
-0.287153 0.367747 0.354799 -0.636881 0.770962 0
0.429019 -0.0271918 0.34928 0 0 -1
-0.128639 -0.062719 0.338057 0.579335 0.725894 -0.370739
-0.0383094 0.157952 0.340044 0.725892 -0.57933 -0.370752
0.0775141 0.105359 0.0800679 -0.00782406 0.999968 -0.00170314
-0.106052 0.326324 0.361916 0 0 1
-0.0113407 -0.262053 0.34928 0 0 -1
-0.392764 0.20267 0.34928 0 0 -1
-0.384153 -0.203153 0.361916 0 0 1
0.229729 -0.287517 0.361916 0 0 1
0.24862 0.248056 0.361916 0 0 1
-0.113184 -0.0972468 0.306084 -0.923813 0.382843 0
-0.0974418 -0.147649 0.34928 0 0 -1
0.233466 0.0654268 0.34928 0 0 -1
-0.204584 -0.332103 0.34928 0 0 -1
-0.0264282 -0.428141 0.34928 0 0 -1
0.267058 -0.26083 0.0469916 0.78231 0.603688 0.153464
0.218892 -0.406404 0.34928 0 0 -1
0.105909 0.41461 0.361916 0 0 1
-0.263538 0.257791 0.054263 -0.783354 -0.610073 0.11903
0.353034 -0.0520305 0.361916 0 0 1
0.170962 0.0874753 0.361916 0 0 1
-0.29238 -0.326782 0.34928 0 0 -1
0.193002 -0.200709 0.0626739 -0.686375 -0.71768 0.117581
-0.187979 0.281984 0.361916 0 0 1
-0.246819 0.232607 0.34928 0 0 -1
-0.158349 -0.258886 0.34928 0 0 -1
-0.107212 -0.115352 0.0693277 0.416414 -0.43355 -0.799146
0.13884 -0.182714 0.34928 0 0 -1
-0.331264 0.0635967 0.34928 0 0 -1
0.113862 -0.057418 0.361916 0 0 1
-0.220695 0.346518 0.361916 0 0 1
0.335371 0.171044 0.361916 0 0 1
-0.159993 0.0357793 0.341788 0.577054 -0.725395 -0.375247
-0.43408 -0.0820141 0.34928 0 0 -1
0.179947 -0.0043903 0.34928 0 0 -1
0.157663 -0.279067 0.34928 0 0 -1
0.308855 0.288261 0.34928 0 0 -1
-0.11195 0.41561 0.34928 0 0 -1
-0.0919959 0.0358263 0.0791223 1 0 0
0.188535 0.136929 0.34928 0 0 -1
-0.0615053 -0.193103 0.361916 0 0 1
0.0595542 0.306576 0.34928 0 0 -1
-0.269 -0.0782264 0.361916 0 0 1
-0.463653 0.048714 0.361223 -0.846191 0.14251 0.51347
0.189683 0.395193 0.34928 0 0 -1
0.0688815 0.0675004 0.361916 0 0 1
0.0752252 -0.277184 0.34928 0 0 -1
-0.0672087 0.12781 0.330562 0.725892 -0.57933 -0.370752
-0.394468 0.00974804 0.34928 0 0 -1
0.0879118 -0.109315 0.196391 -0.382846 -0.923812 0
-0.223687 -0.188893 0.361916 0 0 1
-0.112093 -0.0946134 0.263628 -0.923813 0.382843 0
-0.324205 -0.210426 0.34928 0 0 -1
0.438112 0.105579 0.34928 0 0 -1
-0.319973 -0.27148 0.361916 0 0 1
-0.280433 0.162744 0.361916 0 0 1
0.245425 0.111111 0.361916 0 0 1
0.173795 0.169511 0.361916 0 0 1
-0.276081 0.100332 0.34928 0 0 -1
-0.0607745 0.0604044 0.331309 -0.579288 -0.725877 -0.370847
0.103003 -0.0852409 0.272611 0.382843 0.923813 0
0.0930087 0.152108 0.361916 0 0 1
0.190297 -0.14198 0.361916 0 0 1
-0.0579993 -0.108478 0.361916 0 0 1
0.199734 0.255646 0.34928 0 0 -1
0.112144 0.217116 0.361916 0 0 1
-0.0161666 0.232107 0.34928 0 0 -1
0.076526 -0.0249825 0.361916 0 0 1
0.256389 -0.0277191 0.34928 0 0 -1
-0.246712 -0.295264 0.361916 0 0 1
0.418437 0.199536 0.362056 0.51952 0.266614 0.811798
0.245209 0.239089 0.0600859 0.717674 -0.686353 0.117745
-0.173188 -0.402158 0.34928 0 0 -1
0.0838223 -0.0975543 0.120368 -0.92381 0.382851 0
-0.123596 0.221814 0.34928 0 0 -1
-0.340905 -0.0706469 0.34928 0 0 -1
0.0198005 0.0128426 0.348122 0.333844 -0.942628 0
-0.235038 0.170316 0.34928 0 0 -1
0.294032 0.115862 0.34928 0 0 -1
0.448932 -0.105662 0.352458 -0.963164 0.268914 0
-0.082117 -0.0300231 0.34928 0 0 -1
0.355228 0.233526 0.361916 0 0 1
-0.174673 -0.0398088 0.34928 0 0 -1
-0.402768 0.152186 0.361916 0 0 1
-0.174679 -0.175952 0.0862743 -0.146635 -0.146683 0.978255
-0.105211 -0.25491 0.34928 0 0 -1
-0.0296445 -0.464186 0.357587 -0.0494504 -0.998777 0
0.318958 0.0541878 0.361916 0 0 1
0.128927 0.301021 0.361916 0 0 1
-0.432598 -0.00429561 0.34928 0 0 -1
-0.28647 -0.157935 0.361916 0 0 1
0.29882 -0.29471 0.34928 0 0 -1
-0.140949 -0.137823 0.361916 0 0 1
-0.238135 -0.376063 0.361916 0 0 1
0.234111 -0.123475 0.34928 0 0 -1
0.230123 0.208233 0.361916 0 0 1
0.03379 0.195824 0.361916 0 0 1
0.0993301 0.00358269 0.34928 0 0 -1
0.156412 -0.157904 0.361916 0 0 1
-0.0838898 0.0973912 0.139289 0.923807 -0.382858 0
-0.00706815 -0.315835 0.34928 0 0 -1
-0.0553245 -0.387937 0.361916 0 0 1
-0.0930401 0.0435714 0.34928 0 0 -1
0.295119 -0.224354 0.361916 0 0 1
-0.378963 0.24152 0.361916 0 0 1
-0.0873636 -0.108487 0.314735 0.923969 -0.382468 0
0.158807 -0.0534608 0.345236 0.785275 -0.619148 0
0.138205 0.397403 0.361916 0 0 1
-0.350403 0.0113347 0.361916 0 0 1
0.0393629 0.0730066 0.34928 0 0 -1
0.374959 0.196322 0.361916 0 0 1
0.0603932 -0.441072 0.361916 0 0 1
-0.00480224 0.186243 0.34928 0 0 -1
0.346329 -0.161821 0.34928 0 0 -1
0.415869 -0.0604379 0.34928 0 0 -1
0.288634 -0.148611 0.34928 0 0 -1
-0.0309336 0.247874 0.361916 0 0 1
-0.109991 0.107591 0.0697168 -0.923817 0.382834 0
-0.00100303 0.414107 0.34928 0 0 -1
-0.224772 -0.0150068 0.34928 0 0 -1
0.3545 -0.23454 0.34928 0 0 -1
-0.0458408 0.352711 0.34928 0 0 -1
0.205119 -0.209229 0.34928 0 0 -1
-0.156516 0.179407 0.34928 0 0 -1
-0.194394 0.235265 0.34928 0 0 -1
0.00418229 0.262485 0.34928 0 0 -1
0.34047 -0.107805 0.34928 0 0 -1
-0.109182 0.111718 0.361916 0 0 1
-0.231291 0.304375 0.361916 0 0 1
0.130771 -0.328921 0.361916 0 0 1
0.0570513 0.154759 0.361916 0 0 1
-0.00445598 -0.0919955 0.0689975 0 1 0
0.0145575 -0.0841234 0.34928 0 0 -1
-0.410412 -0.118337 0.34928 0 0 -1
0.28998 -0.0695034 0.34928 0 0 -1
-0.203217 -0.242699 0.34928 0 0 -1
0.0922338 0.111106 0.20457 -0.382846 0.923812 0
0.282654 0.319233 0.361916 0 0 1
-0.147011 0.403219 0.361916 0 0 1
-0.0514902 -0.0544893 0.361916 0 0 1
-0.284781 0.0369401 0.34928 0 0 -1
-0.436485 -0.158562 0.361269 -0.798841 -0.313714 0.513261
0.424921 0.0702215 0.34928 0 0 -1
-0.151246 -0.341141 0.34928 0 0 -1
-0.0920412 -0.111027 0.202823 0.382849 -0.923811 0
-0.0186587 -0.209773 0.34928 0 0 -1
-0.143638 0.135851 0.0853367 -0.718453 -0.69359 0.0525171
0.0264494 0.333869 0.361916 0 0 1
-0.358565 0.135963 0.34928 0 0 -1
0.0853418 0.107065 0.361916 0 0 1
-0.128069 0.141992 0.361916 0 0 1
-0.00871967 0.391256 0.361916 0 0 1
-0.107978 -0.056262 0.361916 0 0 1
-0.113419 -0.0993184 0.111472 -0.923817 -0.382834 0
0.304648 -0.332348 0.361916 0 0 1
-0.057545 0.0387366 0.361916 0 0 1
0.137345 -0.143311 0.0654466 -0.667915 -0.607432 -0.43002
-0.0970197 -0.0840436 0.158582 0.382849 0.923811 0
-0.370546 -0.0551746 0.361916 0 0 1
-0.37109 -0.27558 0.354994 -0.770536 -0.637396 0
0.219365 -0.354115 0.361916 0 0 1
-0.1851 -0.192862 0.345235 0 0 -1
0.367901 0.0103497 0.361916 0 0 1
0.0561092 0.425192 0.34928 0 0 -1
-0.328714 0.305559 0.34928 0 0 -1
0.162658 -0.375484 0.34928 0 0 -1
-0.161317 0.353532 0.34928 0 0 -1
-0.183427 0.425586 0.350346 -0.203168 0.545226 -0.813297
0.35362 0.0935789 0.361916 0 0 1
0.0871569 0.089508 0.241102 -0.92381 -0.382851 0
0.238215 -0.0860258 0.34928 0 0 -1
-0.0728089 -0.267129 0.361916 0 0 1
0.0925671 -0.166156 0.34928 0 0 -1
-0.101793 -0.447817 0.34928 0 0 -1
0.0137055 -0.374363 0.361916 0 0 1
0.0876713 -0.0882668 0.302858 -0.92381 0.382851 0
0.157446 0.0551198 0.34928 0 0 -1
0.0542114 -0.0349868 0.361916 0 0 1
0.199176 -0.284378 0.361916 0 0 1
-0.06157 0.219987 0.34928 0 0 -1
-0.18709 0.122477 0.361916 0 0 1
0.170493 -0.408573 0.361916 0 0 1
0.0207696 -0.150941 0.34928 0 0 -1
0.0919949 -0.0532972 0.067593 -0.999737 0.00725795 0.0217548
-0.352503 -0.258431 0.361916 0 0 1
0.121686 -0.41869 0.361916 0 0 1
0.217983 0.145529 0.34928 0 0 -1
0.273204 -0.00950662 0.34928 0 0 -1
0.186086 0.191246 0.0801265 -0.491948 0.664341 0.562706
0.240689 -0.249448 0.34928 0 0 -1
-0.0296107 0.316997 0.34928 0 0 -1
-0.238307 -0.219249 0.34928 0 0 -1
-0.139372 0.323235 0.34928 0 0 -1
0.405525 0.133178 0.34928 0 0 -1
0.136942 -0.0811931 0.348662 0.785275 -0.619148 0
-0.296982 0.235205 0.34928 0 0 -1
-0.237234 -0.111694 0.34928 0 0 -1
-0.0941557 0.0852306 0.257178 0.382849 -0.923811 0
0.113263 0.0974367 0.15237 0.923813 -0.382843 0
0.221901 -0.185462 0.34928 0 0 -1
0.11303 0.0968762 0.291688 0.923813 -0.382843 0
-0.312261 0.316341 0.34928 0 0 -1
0.023689 -0.343038 0.34928 0 0 -1
0.138558 -0.444143 0.361396 0.213323 -0.831056 0.513654
0.164782 0.32704 0.361916 0 0 1
0.30932 0.253236 0.34928 0 0 -1
0.0245783 0.0469675 0.361916 0 0 1
0.392195 -0.00594048 0.34928 0 0 -1
-0.111698 0.175415 0.34928 0 0 -1
-0.120548 -0.33801 0.34928 0 0 -1
0.182697 0.262105 0.361916 0 0 1
0.271894 0.07712 0.34928 0 0 -1
0.148335 0.273384 0.361916 0 0 1
-0.139579 0.0778481 0.345617 -0.785275 0.619148 0
-0.321081 -0.157831 0.361916 0 0 1
-0.110618 0.10608 0.134733 -0.923817 0.382834 0
0.394638 -0.127909 0.34928 0 0 -1
0.240274 0.158632 0.34928 0 0 -1
0.308505 -0.0969385 0.361916 0 0 1
0.130381 -0.22129 0.361916 0 0 1
0.327778 -0.216198 0.34928 0 0 -1
0.218239 -0.0446044 0.361916 0 0 1
0.113965 0.448422 0.350618 0.144978 0.564492 -0.812607
0.0625327 -0.104608 0.0808406 -0.00721554 -0.999025 0.0435544
-0.283178 -0.0456089 0.34928 0 0 -1
-0.0168213 0.456395 0.361916 0 0 1
-0.113078 0.100141 0.226849 -0.923817 0.382834 0
0.0958899 -0.383764 0.34928 0 0 -1
-0.425383 0.176141 0.352427 0.930801 -0.365527 0
0.13106 0.133894 0.0991189 0.146659 0.146659 0.978255
-0.227845 -0.0451821 0.361916 0 0 1
-0.152186 -0.416267 0.361916 0 0 1
0.383422 -0.0688037 0.34928 0 0 -1
0.174189 -0.302954 0.361916 0 0 1
-0.197211 0.264497 0.34928 0 0 -1
-0.400308 0.0573337 0.361916 0 0 1
-0.086747 -0.0716218 0.361916 0 0 1
0.343693 0.0418368 0.34928 0 0 -1
0.114795 -0.105141 0.0688543 0.707386 0.706828 0
-0.136986 -0.30855 0.34928 0 0 -1
-0.283098 -0.26709 0.361916 0 0 1
-0.0834939 0.0992392 0.339454 0.923428 0.383769 -0.0011961
0.381593 0.26016 0.360663 0.844323 0.535835 0
-0.191373 -0.30867 0.361916 0 0 1
0.0845251 -0.101275 0.224626 -0.923814 -0.382842 0
-0.0915163 0.110809 0.293493 0.382849 0.923811 0
0.265168 -0.154522 0.34928 0 0 -1
0.385893 0.0451117 0.361916 0 0 1
-0.138382 -0.0965071 0.34928 0 0 -1
-0.194575 0.0364586 0.34928 0 0 -1
-0.122484 -0.414902 0.361916 0 0 1
-0.315835 -0.304637 0.361916 0 0 1
0.383255 -0.215922 0.34928 0 0 -1
-0.195457 -0.0632284 0.361916 0 0 1
0.148472 -0.0179281 0.361916 0 0 1
0.301515 0.353588 0.351622 0.370646 0.448652 -0.813224
0.0413296 -0.329048 0.34928 0 0 -1
-0.105495 -0.379776 0.34928 0 0 -1
0.0841281 0.100317 0.113671 -0.923814 0.382842 0
0.18464 0.423544 0.363793 -0.349176 -0.937057 0
0.204512 0.0894343 0.361916 0 0 1
0.303139 0.19139 0.361916 0 0 1
0.372245 0.136179 0.34928 0 0 -1
0.0439444 -0.241548 0.34928 0 0 -1
0.0829713 0.435641 0.361916 0 0 1
0.278456 -0.188053 0.361916 0 0 1
0.224377 0.27274 0.361916 0 0 1
0.0976415 0.00477919 0.0662164 0 0 -1
-0.287365 0.327795 0.361916 0 0 1
-0.217731 0.407049 0.354149 -0.481783 0.876291 0
-0.3985 -0.236719 0.351527 -0.490302 -0.316426 -0.812083
-0.246375 -0.140382 0.34928 0 0 -1
-0.32891 0.0919085 0.34928 0 0 -1
-0.0663962 -0.408853 0.34928 0 0 -1
-0.0304671 -0.000678794 0.361916 0 0 1
0.423437 0.00673388 0.361916 0 0 1
-0.0932267 -0.00186771 0.0990721 0 0 1
-0.305341 -0.089418 0.34928 0 0 -1
-0.0724182 0.288291 0.361916 0 0 1
-0.0737508 -0.105296 0.0673678 0.00718673 -0.999787 0.0193685
0.103546 -0.10488 0.34928 0 0 -1
0.142609 -0.144265 0.331568 -0.605247 -0.700899 -0.377382
-0.0299385 -0.103972 0.34928 0 0 -1
0.146204 0.105845 0.34928 0 0 -1
-0.231295 0.27934 0.34928 0 0 -1
-0.307122 -0.194574 0.361916 0 0 1
0.0915051 -0.335607 0.361916 0 0 1
-0.0192319 0.366882 0.361916 0 0 1
-0.169104 -0.211928 0.361916 0 0 1
0.223695 0.0413545 0.34928 0 0 -1
-0.147994 -0.0168773 0.361916 0 0 1
0.018005 -0.0519082 0.361916 0 0 1
0.0848461 0.226154 0.34928 0 0 -1
0.266457 0.297728 0.34928 0 0 -1
-0.0364984 0.0967877 0.0990721 0 0 1
-0.462469 0.00056583 0.357028 -0.998023 0.0628423 0
0.177378 0.0280684 0.361916 0 0 1
0.102436 -0.25976 0.34928 0 0 -1
0.0569901 -0.0885396 0.34928 0 0 -1
0.0705584 0.145419 0.34928 0 0 -1
0.0790551 0.0718562 0.33727 0.577006 -0.725377 -0.375356
-0.215333 0.104007 0.34928 0 0 -1
-0.175213 -0.373681 0.34928 0 0 -1
-0.041779 -0.340199 0.361916 0 0 1
-0.366242 0.0415437 0.34928 0 0 -1
0.161326 -0.217678 0.361916 0 0 1
-0.387846 -0.175678 0.34928 0 0 -1
0.19606 0.308914 0.361916 0 0 1
-0.0438244 -0.271965 0.34928 0 0 -1
0.193745 0.218806 0.361916 0 0 1
0.30562 0.151239 0.361916 0 0 1
-0.204444 0.364698 0.34928 0 0 -1
-0.10594 -0.110675 0.162471 -0.38284 -0.923815 0
-0.28913 -0.220028 0.34928 0 0 -1
0.281883 -0.329291 0.34928 0 0 -1
0.131524 0.0672733 0.361916 0 0 1
0.248415 -0.389146 0.34928 0 0 -1
0.0793502 -0.0701981 0.341156 0.579287 0.725877 -0.370849
-0.121042 0.292961 0.34928 0 0 -1
-0.20508 -0.102525 0.34928 0 0 -1
0.36302 -0.2868 0.350936 0.455645 -0.363156 -0.812715
-0.144554 0.253511 0.361916 0 0 1
-0.367655 0.116136 0.361916 0 0 1
0.0885217 0.374896 0.34928 0 0 -1
-0.092039 0.0689731 0.0715357 0.991476 -0.128863 0.0192337
-0.0690163 0.40927 0.361916 0 0 1
-0.054482 -0.361067 0.361916 0 0 1
-0.00280816 -0.446343 0.34928 0 0 -1
0.0640158 -0.195728 0.361916 0 0 1
0.105138 0.0335275 0.0728284 1 0 0
-0.120053 0.0725384 0.332147 0.577054 -0.725395 -0.375247
-0.280554 0.210708 0.34928 0 0 -1
-0.0737589 -0.321776 0.34928 0 0 -1
0.0556399 -0.147115 0.344442 0.576946 -0.725365 -0.375471
-0.17304 0.167203 0.361916 0 0 1
-0.0521873 -0.143551 0.335354 0.725394 0.577053 -0.375252
0.170353 -0.0760072 0.361916 0 0 1
0.209185 0.290441 0.34928 0 0 -1
-0.0632154 0.17822 0.361916 0 0 1
-0.452487 -0.0648513 0.34928 0 0 -1
-0.336223 0.179294 0.361916 0 0 1
-0.357463 -0.202588 0.361916 0 0 1
-0.306572 0.0597411 0.34928 0 0 -1
-0.110108 0.0898234 0.205699 -0.923813 -0.382843 0
-0.369324 -0.145466 0.34928 0 0 -1
-0.233888 -0.237117 0.067762 0.492225 -0.664489 0.562289
-0.0411996 0.0702714 0.361916 0 0 1
0.0338333 -0.391991 0.361916 0 0 1
0.343189 -0.184009 0.361916 0 0 1
0.0474003 0.227076 0.34928 0 0 -1
-0.099964 -0.113152 0.234558 -0.38284 -0.923815 0
0.0531325 -0.290066 0.361916 0 0 1
0.182261 0.360774 0.34928 0 0 -1
0.00683867 0.1502 0.361916 0 0 1
-0.201189 -0.17419 0.361916 0 0 1
0.158589 0.393028 0.34928 0 0 -1
-0.2608 0.300344 0.34928 0 0 -1
-0.248766 0.0644387 0.361916 0 0 1
0.00949905 -0.399768 0.361916 0 0 1
-0.061662 -0.293009 0.361916 0 0 1
0.299563 -0.258348 0.34928 0 0 -1
-0.0830074 -0.185955 0.361916 0 0 1
0.230518 -0.313831 0.361916 0 0 1
-0.166577 -0.08361 0.361916 0 0 1
-0.112064 0.244508 0.361916 0 0 1
0.326086 -0.0306658 0.361916 0 0 1
0.163355 -0.26085 0.361916 0 0 1
-0.0109236 -0.0583526 0.34928 0 0 -1
-0.0154231 0.087111 0.34928 0 0 -1
0.359687 0.163736 0.34928 0 0 -1
-0.0892822 -0.131765 0.361916 0 0 1
0.242984 -0.223103 0.34928 0 0 -1
0.0300301 0.461465 0.360602 0.125323 0.992116 0
0.00176797 -0.283029 0.34928 0 0 -1
-0.132534 -0.248178 0.361916 0 0 1
-0.0871799 0.0805061 0.34928 0 0 -1
-0.141582 -0.278387 0.361916 0 0 1
-0.199795 0.194546 0.0774303 -0.664394 -0.49202 0.56258
0.2042 0.374835 0.361916 0 0 1
0.196694 0.00832718 0.34928 0 0 -1
0.243456 -0.239635 0.0653029 0.664531 0.492325 0.562152
-0.220686 -0.136548 0.361916 0 0 1
-0.171281 -0.130723 0.34928 0 0 -1
0.266573 0.104499 0.34928 0 0 -1
-0.174936 0.00354441 0.361916 0 0 1
0.198469 -0.0176173 0.34928 0 0 -1
-0.419863 0.0999418 0.34928 0 0 -1
0.403724 -0.0392158 0.34928 0 0 -1
0.163736 -0.166963 0.0599154 -0.0765954 0.0765956 -0.994116
0.212203 0.41445 0.36139 0.386214 0.766472 0.513185
0.126637 0.322197 0.361916 0 0 1
0.0452708 -0.458377 0.35997 -0.0495986 0.998769 0
-0.394884 -0.0746104 0.34928 0 0 -1
0.255352 0.373368 0.361916 0 0 1
0.0466604 -0.103775 0.0662164 0 0 -1
0.25017 0.013223 0.34928 0 0 -1
0.0526081 -0.215044 0.361916 0 0 1
-0.173212 0.335473 0.34928 0 0 -1
0.076821 -0.147309 0.361916 0 0 1
0.113273 0.0978832 0.32955 0.92441 -0.381397 0.00118871
-0.0972974 -0.0836041 0.328472 0.381026 0.924564 0.00118945
0.0273436 0.0919955 0.0909133 0 -1 0
-0.331714 -0.0364432 0.361916 0 0 1
0.00311275 -0.111877 0.361916 0 0 1
0.431533 0.0446085 0.34928 0 0 -1
0.131083 -0.102761 0.361916 0 0 1
-0.0989286 0.438479 0.361916 0 0 1
-0.186454 -0.251453 0.34928 0 0 -1
0.0562441 0.0966492 0.361916 0 0 1
-0.105138 0.0182122 0.0942128 -1 0 0
-0.0057944 0.293628 0.34928 0 0 -1
0.422356 0.174104 0.361916 0 0 1
-0.360793 0.191883 0.34928 0 0 -1
0.241617 -0.177046 0.34928 0 0 -1
-0.418077 -0.149525 0.34928 0 0 -1
-0.287553 -0.0187468 0.361916 0 0 1
-0.129965 -0.135735 0.0661948 0.66801 -0.607596 -0.42964
0.101815 0.0690826 0.361916 0 0 1
0.0306898 0.246748 0.34928 0 0 -1
0.1961 -0.177447 0.361916 0 0 1
-0.148147 0.0565898 0.361916 0 0 1
0.120587 0.154129 0.34928 0 0 -1
-0.270202 0.132457 0.361916 0 0 1
0.278471 0.212508 0.34928 0 0 -1
0.450094 0.024009 0.361916 0 0 1
-0.0616468 -0.169517 0.34928 0 0 -1
0.234001 0.317699 0.361916 0 0 1
-0.361033 -0.181293 0.34928 0 0 -1
-0.401963 0.180207 0.34928 0 0 -1
0.254919 0.20599 0.34928 0 0 -1
0.325367 -0.291845 0.361916 0 0 1
-0.427399 -0.0469725 0.34928 0 0 -1
-0.383132 -0.0157918 0.361916 0 0 1
0.42875 -0.177689 0.361615 0.799316 -0.313901 0.512406
0.0401794 0.309558 0.34928 0 0 -1
0.101441 -0.11254 0.306122 0.382843 -0.923813 0
0.167474 0.128716 0.361916 0 0 1
-0.295196 0.0975701 0.361916 0 0 1
-0.0681897 -0.217231 0.34928 0 0 -1
0.0505465 0.0978305 0.066338 1 0 0
-0.446951 0.11276 0.354871 0.963159 -0.268934 0
-0.0860281 -0.0922317 0.258365 0.923807 0.382858 0
-0.320611 0.24267 0.361916 0 0 1
-0.107037 0.389597 0.361916 0 0 1
-0.30475 0.012991 0.34928 0 0 -1
0.0766276 0.0212007 0.34928 0 0 -1
0.138316 -0.299109 0.361916 0 0 1
0.0792186 0.348378 0.361916 0 0 1
-0.247492 0.359084 0.34928 0 0 -1
-0.224549 -0.311597 0.361916 0 0 1
0.318985 0.0275636 0.34928 0 0 -1
-0.164535 -0.157258 0.0644961 -0.607172 0.667803 -0.430559
0.158926 -0.184032 0.361916 0 0 1
-0.0850908 0.10264 0.11266 0.923811 0.382849 0
-0.235679 -0.266519 0.361916 0 0 1
0.0278552 0.428351 0.361916 0 0 1
-0.377885 0.151604 0.34928 0 0 -1
0.0514254 0.383207 0.34928 0 0 -1
-0.126576 0.0475334 0.34928 0 0 -1
-0.23838 0.0981885 0.361916 0 0 1
0.163586 0.162068 0.336243 0.700899 -0.605247 -0.37738
0.445181 0.127666 0.362792 0.561367 0.156775 0.812582
0.146809 -0.350048 0.34928 0 0 -1
0.362785 -0.082196 0.361916 0 0 1
-0.343843 0.29023 0.34928 0 0 -1
-0.234751 -0.16812 0.34928 0 0 -1
0.0509951 -0.0122889 0.361916 0 0 1
-0.108309 0.0176663 0.34928 0 0 -1
0.192082 -0.405942 0.361916 0 0 1
-0.142736 -0.182418 0.361916 0 0 1
0.0511407 0.0458831 0.344553 0.577006 -0.725377 -0.375356
0.118977 -0.167621 0.361916 0 0 1
0.318522 0.230409 0.34928 0 0 -1
0.303368 -0.123433 0.34928 0 0 -1
-0.228967 0.204294 0.34928 0 0 -1
-0.109436 0.140245 0.34928 0 0 -1
-0.0561199 -0.0173773 0.361916 0 0 1
-0.338902 0.118694 0.361916 0 0 1
0.139817 0.175573 0.34928 0 0 -1
-0.265887 -0.275981 0.361916 0 0 1
0.110471 -0.106433 0.229155 0.923817 -0.382834 0
0.176898 -0.109364 0.361916 0 0 1
0.0300879 0.100413 0.0662164 0 0 -1
-0.259884 -0.159319 0.361916 0 0 1
-0.00735423 0.0488563 0.34928 0 0 -1
-0.0806592 0.344142 0.361916 0 0 1
0.110958 -0.105258 0.187388 0.923817 -0.382834 0
0.219963 -0.265252 0.34928 0 0 -1
-0.0915929 0.110841 0.185587 0.382849 0.923811 0
0.235469 0.182098 0.361916 0 0 1
0.375188 0.109465 0.361916 0 0 1
0.094549 -0.309757 0.34928 0 0 -1
-0.312643 -0.128714 0.361916 0 0 1
0.0701582 0.278008 0.34928 0 0 -1
-0.0734375 0.0918282 0.0667717 0.00709362 -0.999787 0.0193771
-0.172378 -0.327951 0.361916 0 0 1
-0.132439 0.122859 0.34928 0 0 -1
-0.12559 0.197806 0.361916 0 0 1
0.280988 -0.0419461 0.34928 0 0 -1
-0.0807804 -0.0982306 0.345235 0 0 -1
-0.11523 -0.299606 0.361916 0 0 1
-0.247253 -0.0718639 0.34928 0 0 -1
-0.0703961 -0.239394 0.361916 0 0 1
0.316469 0.113932 0.361916 0 0 1
0.259484 0.265644 0.0490811 -0.609956 0.783401 0.119315
-0.189699 -0.398874 0.361916 0 0 1
0.0350378 0.273066 0.34928 0 0 -1
-0.343098 0.250581 0.34928 0 0 -1
-0.0325248 -0.0556055 0.34928 0 0 -1
-0.169723 0.407651 0.361916 0 0 1
0.251305 0.34813 0.34928 0 0 -1
-0.178717 0.307515 0.34928 0 0 -1
0.121914 -0.120139 0.326047 0.700067 0.603201 -0.38217
-0.349823 0.0558691 0.361916 0 0 1
0.310865 -0.0553962 0.361916 0 0 1
0.0276564 -0.19674 0.34928 0 0 -1
0.132372 0.130564 0.361916 0 0 1
0.105138 0.00899472 0.0954373 1 0 0
-0.123317 -0.0387741 0.34928 0 0 -1
-0.357803 -0.107638 0.34928 0 0 -1
0.273915 -0.132734 0.361916 0 0 1
0.180692 0.108158 0.34928 0 0 -1
-0.166252 0.13306 0.34928 0 0 -1
-0.324034 -0.332954 0.361694 -0.613064 -0.600324 0.513578
0.382124 -0.154417 0.361916 0 0 1
0.0831051 0.1699 0.361916 0 0 1
-0.37056 0.214078 0.361916 0 0 1
-0.436817 0.0637802 0.361916 0 0 1
-0.219403 0.0107389 0.361916 0 0 1
0.355267 -0.263758 0.361916 0 0 1
-0.0761115 -0.0917565 0.0967104 0.0079125 0.999967 -0.00172403
0.334708 0.106125 0.34928 0 0 -1
-0.0514756 0.310484 0.361916 0 0 1
0.0132529 -0.00872472 0.361916 0 0 1
-0.171865 0.263774 0.361916 0 0 1
-0.105138 -0.0360941 0.0769962 -1 0 0
0.133572 -0.27142 0.34928 0 0 -1
0.105655 0.0863399 0.0815456 0.382843 -0.923813 0
0.186177 -0.179302 0.0772481 0.718453 0.69359 0.0525171
0.127734 -0.00381485 0.34928 0 0 -1
-0.0131991 0.150095 0.34928 0 0 -1
0.00738049 -0.244151 0.361916 0 0 1
0.118031 0.27786 0.34928 0 0 -1
0.308454 0.318941 0.34928 0 0 -1
0.45569 0.0905318 0.362268 0.573964 0.0966678 0.813155
0.274704 0.0561043 0.361916 0 0 1
0.118903 -0.194163 0.34928 0 0 -1
-0.0408438 0.460099 0.36109 -0.125326 0.992116 0
-0.0575545 -0.0778073 0.361916 0 0 1
-0.230825 -0.24587 0.34928 0 0 -1
0.102923 -0.418 0.361916 0 0 1
-0.332921 -0.238443 0.34928 0 0 -1
0.18628 0.178359 0.345235 0 0 -1
0.0855682 0.0924345 0.329924 -0.923495 -0.383609 -0.00119553
-0.167832 0.1747 0.0827191 0.69359 0.718453 0.0525167
0.358941 0.296289 0.357518 0.781985 0.623298 0
-0.264059 0.0425194 0.361916 0 0 1
-0.00177235 0.0919955 0.097153 0 -1 0
-0.151087 0.155147 0.361916 0 0 1
0.09286 0.301648 0.34928 0 0 -1
0.178492 -0.245737 0.34928 0 0 -1
0.040723 0.156491 0.339648 0.579227 0.725865 -0.370965
0.0678848 -0.343974 0.34928 0 0 -1
-0.173094 0.188559 0.361916 0 0 1
0.117554 0.107904 0.0933717 0.707107 -0.707107 0
-0.165871 0.375598 0.361916 0 0 1
0.30555 -0.350817 0.352102 0.546537 -0.66156 -0.513455
0.0113498 -0.352162 0.361916 0 0 1
0.257364 -0.280255 0.361916 0 0 1
0.124619 -0.0670464 0.335743 -0.57705 0.725389 -0.375265
-0.302278 0.137367 0.34928 0 0 -1
-0.0372279 0.406186 0.34928 0 0 -1
0.18667 -0.199414 0.361916 0 0 1
0.109742 -0.108191 0.160878 0.923817 -0.382834 0
-0.132038 0.397357 0.34928 0 0 -1
0.0150116 -0.261925 0.361916 0 0 1
0.0127251 0.0898228 0.34928 0 0 -1
0.455176 -0.0824055 0.350126 0.573669 -0.0966181 -0.813369
-0.391033 0.0746195 0.34928 0 0 -1
-0.236483 0.330289 0.34928 0 0 -1
0.132662 0.368365 0.34928 0 0 -1
-0.00199581 -0.225569 0.361916 0 0 1
0.204962 -0.0695916 0.361916 0 0 1
0.0814608 -0.208208 0.34928 0 0 -1
0.310901 0.0802709 0.361916 0 0 1
0.348185 0.252511 0.34928 0 0 -1
-0.078452 0.115954 0.361916 0 0 1
-0.174394 0.01734 0.345235 0 0 -1
-0.137167 -0.0734067 0.361916 0 0 1
0.084256 -0.0965079 0.0916709 -0.92381 0.382851 0
-0.367587 -0.121637 0.361916 0 0 1
0.331581 0.259651 0.361916 0 0 1
0.410768 -0.0144758 0.361916 0 0 1
-0.239257 0.0220248 0.34928 0 0 -1
-0.0728467 0.432675 0.361916 0 0 1
-0.381675 0.258912 0.34928 0 0 -1
0.101021 0.116341 0.345235 0 0 -1
-0.104495 -0.0568253 0.0667221 0 0 1
0.239521 -0.366943 0.361916 0 0 1
-0.00319454 -0.0384836 0.361916 0 0 1
-0.0897608 0.223909 0.361916 0 0 1
0.147706 0.0828709 0.34928 0 0 -1
0.101022 -0.112713 0.107281 0.382843 -0.923813 0
0.113684 0.0984521 0.2362 0.923813 -0.382843 0
-0.142323 -0.160339 0.3492 0.655859 -0.754883 0
-0.424903 -0.130677 0.361916 0 0 1
-0.0374508 -0.177146 0.361916 0 0 1
0.0472437 0.447887 0.361916 0 0 1
0.198988 -0.303656 0.34928 0 0 -1
-0.219479 -0.212925 0.0656584 -0.718453 0.69359 0.0525167
0.355609 -0.207967 0.34928 0 0 -1
-0.0869238 -0.383544 0.361916 0 0 1
0.0986239 0.113339 0.319949 0.381538 0.924353 0.00119105
0.409579 0.160378 0.361916 0 0 1
0.15002 0.312224 0.34928 0 0 -1
-0.192619 0.0911971 0.361916 0 0 1
0.146834 0.220535 0.361916 0 0 1
-0.299797 -0.278642 0.34928 0 0 -1
0.0571303 0.331193 0.361916 0 0 1
0.264302 0.25708 0.34928 0 0 -1
-0.177644 -0.423165 0.361916 0 0 1
0.173953 0.380534 0.361916 0 0 1
-0.150541 -0.0467793 0.34928 0 0 -1
0.0417152 -0.439498 0.34928 0 0 -1
0.106019 0.110643 0.172988 0.382843 0.923813 0
0.142909 0.417519 0.34928 0 0 -1
-0.270236 0.23234 0.361916 0 0 1
-0.229902 -0.34262 0.34928 0 0 -1
0.270316 -0.353277 0.361916 0 0 1
-0.262697 -0.219783 0.34928 0 0 -1
-0.0355533 -0.369268 0.34928 0 0 -1
0.0957697 -0.130775 0.347705 0.177569 -0.984108 0
0.4022 0.234485 0.358684 0.840224 0.542239 0
-0.242966 0.21088 0.361916 0 0 1
0.124049 0.0398077 0.34928 0 0 -1
-0.04147 0.0326801 0.345235 0 0 -1
-0.166776 0.100733 0.34928 0 0 -1
0.147808 0.15967 0.361916 0 0 1
-0.345719 -0.280383 0.361916 0 0 1
-0.0993956 0.300125 0.361916 0 0 1
-0.0654964 0.147552 0.34928 0 0 -1
0.461109 -0.0245421 0.355383 -0.998385 0.0568021 0
0.0162657 -0.124834 0.34928 0 0 -1
-0.258691 -0.10724 0.361916 0 0 1
0.165398 -0.029125 0.34928 0 0 -1
0.137085 -0.0422031 0.361916 0 0 1
-0.233029 -0.398638 0.349753 -0.481783 -0.876291 0
-0.0496521 0.265817 0.361916 0 0 1
0.441609 -0.0425272 0.361916 0 0 1
-0.192732 -0.0363534 0.361916 0 0 1
-0.211528 0.386148 0.361916 0 0 1
0.220688 -0.331657 0.34928 0 0 -1
-0.262873 0.379803 0.354751 0.548375 -0.836232 0
0.0497628 -0.0919955 0.0981454 0 1 0
-0.100517 -0.172321 0.34928 0 0 -1
0.254911 0.0463698 0.34928 0 0 -1
0.27712 0.369219 0.352282 0.587791 0.809013 0
0.217549 -0.211211 0.0694851 0.718453 0.69359 0.0525171
0.24874 0.13792 0.361916 0 0 1
0.0681705 0.127513 0.361916 0 0 1
-0.177967 -0.181343 0.0577111 0.0765873 0.0766049 -0.994116
-0.200732 0.211087 0.345384 0.655859 0.754883 0
0.0963989 -0.235513 0.361916 0 0 1
-0.116758 0.094462 0.345235 0 0 -1
0.413351 0.109249 0.361916 0 0 1
0.284457 0.162087 0.34928 0 0 -1
-0.0259976 0.104853 0.361916 0 0 1
0.172027 0.409587 0.34928 0 0 -1
-0.298044 -0.175347 0.34928 0 0 -1
-0.173762 -0.288242 0.361916 0 0 1
-0.124783 0.267002 0.34928 0 0 -1
0.0892645 -0.113234 0.361916 0 0 1
0.113957 0.0784167 0.34928 0 0 -1
-0.380763 0.185681 0.34928 0 0 -1
-0.117004 -0.39846 0.34928 0 0 -1
0.0927196 -0.111308 0.138898 -0.382846 -0.923812 0
-0.387873 -0.111861 0.34928 0 0 -1
0.0917615 -0.078793 0.0812676 -0.999967 0.00795763 -0.0017293
-0.202806 0.205708 0.0539188 0.0765944 -0.0766746 -0.99411
0.0533147 0.273287 0.361916 0 0 1
-0.197312 0.0645613 0.361916 0 0 1
-0.113432 -0.218048 0.34928 0 0 -1
0.138504 -0.135491 0.361916 0 0 1
-0.300573 -0.0267287 0.34928 0 0 -1
0.261283 -0.0868406 0.34928 0 0 -1
-0.404612 0.093069 0.361916 0 0 1
0.124161 0.235479 0.34928 0 0 -1
0.116473 -0.388877 0.361916 0 0 1
-0.207533 0.293084 0.361916 0 0 1
-0.01442 -0.0144238 0.347847 0.916926 0.399057 0
-0.420548 0.124764 0.34928 0 0 -1
0.0845951 -0.101444 0.255666 -0.923814 -0.382842 0
-0.161652 -0.241142 0.361916 0 0 1
0.0771696 0.00709395 0.361916 0 0 1
-0.17454 0.0337255 0.361916 0 0 1
-0.334751 -0.00976875 0.361916 0 0 1
0.0967841 -0.0326843 0.34928 0 0 -1
0.0922563 -0.0499848 0.0990721 0 0 1
-0.302366 -0.355179 0.356075 -0.636881 -0.770962 0
0.0602091 0.169037 0.34928 0 0 -1
0.399378 0.187814 0.361916 0 0 1
-0.112922 -0.100519 0.137067 -0.923817 -0.382834 0
0.365408 -0.111459 0.34928 0 0 -1
-0.261627 -0.380475 0.349734 -0.587791 -0.809013 0
-0.396462 0.234108 0.351342 0.840175 -0.542315 0
0.216051 -0.228807 0.361916 0 0 1
-0.278168 0.303928 0.361916 0 0 1
0.0410668 -0.0452886 0.344865 -0.725384 -0.577006 -0.375342
0.0107564 -0.324571 0.361916 0 0 1
-0.260195 -0.267692 0.0296199 0.994634 0 0.103455
-0.275278 -0.337747 0.361916 0 0 1
0.348914 0.0676131 0.34928 0 0 -1
-0.305907 0.164348 0.361916 0 0 1
0.0624784 -0.38994 0.34928 0 0 -1
-0.0695169 -0.132557 0.34928 0 0 -1
-0.0974885 0.113284 0.0913078 0.382849 0.923811 0
0.326532 0.142058 0.34928 0 0 -1
0.302442 -0.0401242 0.361916 0 0 1
-0.0915714 -0.115536 0.338906 -0.579228 -0.725866 -0.370963
-0.376544 -0.260748 0.34928 0 0 -1
-0.180068 0.178973 0.339715 -0.70006 -0.603195 -0.382194
0.388263 0.0606519 0.34928 0 0 -1
-0.0850176 0.0627583 0.361916 0 0 1
0.0846042 0.0956676 0.137527 -0.92381 -0.382851 0
-0.174393 -0.183835 0.361916 0 0 1
-0.191107 -0.133408 0.361916 0 0 1
-0.354649 -0.0841097 0.361916 0 0 1
0.0438694 0.113746 0.361916 0 0 1
-0.259647 0.268355 0.0242979 0.994634 0 0.103455
-0.191294 -0.224182 0.361916 0 0 1
-0.105138 -0.0251826 0.0970536 -1 0 0
0.340067 0.22093 0.34928 0 0 -1
0.110712 0.394103 0.34928 0 0 -1
0.0689694 -0.171277 0.34928 0 0 -1
0.0522526 -0.419365 0.361916 0 0 1
-0.418657 0.049158 0.34928 0 0 -1
0.0624148 0.405617 0.361916 0 0 1
-0.182759 0.211352 0.361916 0 0 1
-0.296096 -0.00191792 0.361916 0 0 1
0.211843 0.239089 0.361916 0 0 1
0.331296 -0.0867357 0.361916 0 0 1
-0.25148 -0.318368 0.361916 0 0 1
-0.248239 -0.360535 0.34928 0 0 -1
-0.120581 -0.141347 0.345235 0 0 -1
-0.322519 -0.0706727 0.361916 0 0 1
-0.245274 -0.013415 0.361916 0 0 1
0.0494195 -0.130149 0.361916 0 0 1
0.104995 -0.0860666 0.247859 0.382843 0.923813 0
-0.298843 -0.0663273 0.361916 0 0 1
-0.249802 -0.19208 0.361916 0 0 1
-0.415476 -0.0170556 0.361916 0 0 1
0.113872 0.251853 0.361916 0 0 1
-0.0915793 0.0862983 0.188993 0.382849 -0.923811 0
-0.458402 -0.0865014 0.359163 -0.986113 -0.166075 0
0.0367408 0.142602 0.361916 0 0 1
0.144042 -0.138348 0.0941201 0.664423 0.492126 0.562453
-0.0881944 0.409321 0.34928 0 0 -1
-0.0753899 -0.0591871 0.34928 0 0 -1
-0.0159263 0.432328 0.361916 0 0 1
0.0130139 0.407572 0.361916 0 0 1
-0.180185 -0.35314 0.361916 0 0 1
-0.159961 -0.393206 0.361916 0 0 1
-0.0851006 0.0944698 0.23472 0.923807 -0.382858 0
0.296574 0.0294417 0.34928 0 0 -1
0.0358565 0.171399 0.361916 0 0 1
-0.00701637 0.351617 0.34928 0 0 -1
-0.0836661 -0.0979311 0.22587 0.923807 0.382858 0
-0.255512 0.0860589 0.34928 0 0 -1
-0.131399 0.417278 0.361916 0 0 1
-0.29933 0.195119 0.34928 0 0 -1
-0.105292 -0.0753288 0.100267 -0.992695 0.120639 -0.00169075
0.153637 -0.430264 0.34928 0 0 -1
0.244985 0.275251 0.34928 0 0 -1
0.271065 -0.271614 0.0256185 0.702918 -0.703714 0.103407
0.0949558 -0.084899 0.177318 -0.382846 0.923812 0
0.197189 -0.22215 0.361916 0 0 1
-0.0949728 -0.0848919 0.132776 0.382849 0.923811 0
-0.402399 0.137085 0.34928 0 0 -1
0.07685 -0.453949 0.35292 -0.148749 0.988875 0
0.434832 -0.123735 0.34928 0 0 -1
0.00986953 0.198221 0.361916 0 0 1
-0.0964133 -0.00336052 0.34928 0 0 -1
-0.0190187 -0.300489 0.361916 0 0 1
-0.244293 0.182388 0.361916 0 0 1
-0.374338 0.0211944 0.361916 0 0 1
0.090733 -0.0517613 0.34928 0 0 -1
-0.299305 0.351223 0.34928 0 0 -1
-0.0893285 -0.109902 0.0883078 0.382849 -0.923811 0
-0.111853 0.448356 0.350194 -0.144905 0.564509 -0.812608
0.168387 -0.141591 0.34928 0 0 -1
0.0920811 0.204236 0.361916 0 0 1
0.00803217 -0.0919955 0.0961116 0 1 0
0.340819 0.198433 0.34928 0 0 -1
-0.0226098 0.266234 0.34928 0 0 -1
-0.307678 0.256807 0.34928 0 0 -1
0.0972998 0.113206 0.0986083 -0.382846 0.923812 0
0.0534263 0.130976 0.345235 0 0 -1
-0.160558 0.429639 0.34928 0 0 -1
-0.0927579 0.0858098 0.277155 0.382849 -0.923811 0
0.142805 0.150258 0.0866069 -0.693587 0.718456 0.0525169
-0.105138 0.0479199 0.0946807 -1 0 0
0.216637 -0.141192 0.361916 0 0 1
0.199377 -0.354755 0.34928 0 0 -1
-0.00304791 -0.366246 0.34928 0 0 -1
0.229653 -0.0661109 0.361916 0 0 1
0.250768 -0.00953263 0.361916 0 0 1
-0.112845 -0.356361 0.361916 0 0 1
-0.12383 -0.444563 0.364027 -0.144882 -0.56412 0.812883
0.37572 0.243013 0.34928 0 0 -1
-0.281271 -0.100662 0.361916 0 0 1
-0.0516523 -0.457739 0.350207 0.148752 0.988874 0
0.307944 -0.203734 0.34928 0 0 -1
0.132766 0.344564 0.361916 0 0 1
0.205506 0.0337808 0.361916 0 0 1
0.227089 0.379645 0.361916 0 0 1
0.160301 0.184764 0.34928 0 0 -1
-0.0255058 0.134758 0.361916 0 0 1
-0.0885473 0.0831259 0.330218 -0.579288 -0.725877 -0.370847
0.246753 -0.300619 0.34928 0 0 -1
0.0311818 0.0326198 0.344528 -0.725883 0.579284 -0.370842
-0.0542733 0.338468 0.361916 0 0 1
0.164438 -0.355677 0.361916 0 0 1
-0.154872 0.0210025 0.361916 0 0 1
-0.100621 -0.084254 0.291453 -0.38284 0.923815 0
0.130361 0.202675 0.361916 0 0 1
0.330797 0.305622 0.361916 0 0 1
-0.120344 -0.268998 0.361916 0 0 1
-0.0314159 -0.105138 0.0699451 0 -1 0
0.199821 0.0661825 0.361916 0 0 1
-0.0957825 0.112422 0.31798 0.381392 0.924413 0.00119059
0.221749 -0.0924715 0.361916 0 0 1
-0.298643 0.290509 0.34928 0 0 -1
0.346585 0.0192816 0.361916 0 0 1
-0.0728319 -0.0111354 0.34928 0 0 -1
0.0866137 0.413551 0.34928 0 0 -1
-0.196708 0.0143139 0.361916 0 0 1
0.0956284 0.0846203 0.092506 -0.382846 -0.923812 0
0.0183776 -0.0919955 0.0755046 0 1 0
-0.107864 0.349308 0.361916 0 0 1
-0.0196153 -0.240535 0.34928 0 0 -1
0.327123 -0.163456 0.361916 0 0 1
-0.433811 0.161943 0.351185 -0.542655 0.213107 -0.812472
-0.0478448 0.194279 0.34928 0 0 -1
0.392578 -0.179429 0.361916 0 0 1
-0.409817 -0.182409 0.34928 0 0 -1
-0.056339 0.240426 0.361916 0 0 1
-0.123412 -0.114876 0.085609 -0.722292 0.689592 0.0525108
-0.0496211 -0.126776 0.34928 0 0 -1
0.0955389 -0.0691889 0.361916 0 0 1
-0.211642 -0.0749491 0.34928 0 0 -1
0.158938 0.00870457 0.34928 0 0 -1
0.00927893 0.0332449 0.34928 0 0 -1
0.120184 0.432484 0.361916 0 0 1
0.375656 -0.129514 0.361916 0 0 1
0.385709 -0.0959264 0.361916 0 0 1
-0.10213 0.084879 0.133922 -0.38284 -0.923815 0
0.112648 0.101179 0.207076 0.923817 0.382834 0
0.0132335 -0.179485 0.345317 -0.917098 -0.398662 0
-0.250408 0.146679 0.34928 0 0 -1
-0.0713925 -0.369727 0.34928 0 0 -1
-0.207558 0.22163 0.361916 0 0 1
-0.0607827 0.0162202 0.34928 0 0 -1
0.280564 -0.289716 0.361916 0 0 1
0.434087 -0.0654823 0.361916 0 0 1
-0.0896122 0.170959 0.34928 0 0 -1
0.425793 -0.0932846 0.34928 0 0 -1
-0.0556573 0.0922877 0.0819079 0.00794708 -0.999728 0.0219123
-0.0922328 0.111106 0.155199 0.382849 0.923811 0
-0.405513 -0.0867905 0.361916 0 0 1
0.372471 -0.23888 0.361916 0 0 1
-0.188599 -0.290194 0.34928 0 0 -1
-0.140139 -0.144026 0.334985 0.603202 -0.700072 -0.382161
0.157663 -0.149439 0.0729251 0.718453 0.69359 0.0525171
-0.105138 0.0169011 0.0717501 -1 0 0
-0.208556 -0.301522 0.34928 0 0 -1
-0.455203 0.0751286 0.355726 0.986111 -0.166089 0
0.0973637 0.280516 0.361916 0 0 1
0.252266 -0.318676 0.361916 0 0 1
0.457922 0.0456944 0.34928 0 0 -1
-0.406003 -0.221308 0.350905 -0.904814 -0.425807 0
0.0913358 0.0247667 0.361916 0 0 1
0.29858 -0.155545 0.361916 0 0 1
0.361709 0.0276785 0.34928 0 0 -1
0.00181296 0.465564 0.35677 0.0494492 0.998777 0
-0.121077 -0.0856812 0.340301 -0.725361 -0.576941 -0.375488
0.366826 -0.013804 0.361916 0 0 1
0.15353 -0.320043 0.361916 0 0 1
0.070901 -0.103102 0.103116 -0.464785 -0.471183 0.749641
-0.143462 -0.151851 0.0735042 0.693587 -0.718456 0.0525169
-0.0952755 -0.199535 0.34928 0 0 -1
0.119383 0.0239741 0.361916 0 0 1
-0.0171345 -0.105138 0.0955481 0 -1 0
0.0983809 0.0834796 0.116189 -0.382846 -0.923812 0
-0.148715 0.338869 0.361916 0 0 1
0.181806 0.326735 0.34928 0 0 -1
-0.374999 -0.0758221 0.34928 0 0 -1
0.0908538 0.0937749 0.0667221 0 0 1
-0.0394508 -0.403369 0.361916 0 0 1
-0.158947 -0.283727 0.34928 0 0 -1
-0.0776972 0.0297241 0.361916 0 0 1
-0.0122213 -0.416832 0.361916 0 0 1
0.0917423 -0.0834739 0.105267 -1 0 0
0.180141 -0.285859 0.34928 0 0 -1
0.175929 -0.387793 0.361916 0 0 1
0.15135 -0.200581 0.34928 0 0 -1
0.186289 0.19613 0.34928 0 0 -1
0.0752438 -0.0938987 0.345235 0 0 -1
-0.158714 -0.00245841 0.34928 0 0 -1
-0.434971 -0.103927 0.361916 0 0 1
0.407289 0.0768248 0.361916 0 0 1
-0.292484 -0.141014 0.34928 0 0 -1
-0.103866 -0.0373518 0.361916 0 0 1
0.130323 0.0950149 0.361916 0 0 1
0.177908 0.0664381 0.361916 0 0 1
0.362949 -0.147548 0.34928 0 0 -1
0.0364839 -0.37432 0.34928 0 0 -1
0.122847 -0.312906 0.34928 0 0 -1
-0.127755 0.382562 0.361916 0 0 1
-0.305928 -0.107245 0.361916 0 0 1
-0.0508218 -0.221192 0.361916 0 0 1
0.413044 -0.121244 0.361916 0 0 1
-0.111166 0.0923767 0.247807 -0.923813 -0.382843 0
-0.0023762 -0.0895547 0.361916 0 0 1
0.193651 -0.267483 0.34928 0 0 -1
0.0993824 0.113393 0.242992 0.382843 0.923813 0
-0.135369 0.154298 0.345558 0.655859 0.754883 0
0.0785945 0.335487 0.34928 0 0 -1
-0.00905675 -0.190284 0.34928 0 0 -1
0.194838 0.416243 0.34928 0 0 -1
-0.464381 0.0270685 0.362003 -0.58105 0.0330462 0.813196
0.00759603 0.384651 0.34928 0 0 -1
-0.128643 0.120252 0.0844705 -0.718453 -0.69359 0.0525171
0.138501 -0.368834 0.34928 0 0 -1
-0.338101 0.196774 0.34928 0 0 -1
-0.216978 -0.222918 0.34928 0 0 -1
0.0933759 0.453786 0.350929 0.0868172 0.57667 -0.812351
0.355205 -0.0345978 0.34928 0 0 -1
0.103269 0.0852039 0.30705 0.382467 -0.923969 0
-0.189943 -0.0874278 0.34928 0 0 -1
-0.0844178 -0.0961174 0.182768 0.923807 0.382858 0
-0.0230084 -0.283443 0.34928 0 0 -1
-0.111983 -0.102785 0.20331 -0.923817 -0.382834 0
0.384904 0.148256 0.361916 0 0 1
0.13001 -0.256735 0.361916 0 0 1
-0.0942841 -0.269169 0.361916 0 0 1
0.238087 0.0952713 0.34928 0 0 -1
0.172469 0.235745 0.34928 0 0 -1
-0.178777 0.243008 0.361916 0 0 1
0.323492 -0.328277 0.362335 -0.714498 0.699638 0
0.152028 0.0351592 0.345235 0 0 -1
0.127841 -0.149235 0.34928 0 0 -1
0.0848869 -0.102526 0.318704 -0.923431 -0.383762 -0.00119608
-0.363528 0.256477 0.361916 0 0 1
0.0872121 0.132806 0.345235 0 0 -1
0.109208 0.0878124 0.254305 0.382843 -0.923813 0
-0.016052 0.0338395 0.361916 0 0 1
-0.235584 0.241793 0.0604773 0.686375 0.71768 0.117581
-0.111117 -0.158256 0.361916 0 0 1
-0.287518 0.118451 0.34928 0 0 -1
0.387305 0.0194057 0.361916 0 0 1
0.294618 -0.311429 0.361916 0 0 1
-0.226504 0.150834 0.34928 0 0 -1
0.215684 0.217638 0.34928 0 0 -1
-0.15575 0.317914 0.361916 0 0 1
0.314752 0.165838 0.34928 0 0 -1
-0.135846 0.301689 0.361916 0 0 1
0.0856378 -0.256112 0.361916 0 0 1
0.0994956 0.113346 0.133762 0.382843 0.923813 0
-0.341371 -0.191142 0.34928 0 0 -1
-0.301615 0.0761453 0.361916 0 0 1
-0.104783 0.0859785 0.0728225 -0.38284 -0.923815 0
-0.0444286 -0.322876 0.34928 0 0 -1
0.211684 -0.166797 0.34928 0 0 -1
0.0425987 0.358645 0.361916 0 0 1
0.321983 -0.113345 0.361916 0 0 1
-0.385145 -0.0398255 0.361916 0 0 1
-0.0859173 0.104634 0.27033 0.923811 0.382849 0
0.327746 -0.198472 0.361916 0 0 1
-0.0197537 -0.163165 0.361916 0 0 1
0.144778 -0.423946 0.361916 0 0 1
0.189227 0.0822247 0.34928 0 0 -1
0.0352935 -0.256135 0.361916 0 0 1
0.235863 -0.0504513 0.34928 0 0 -1
-0.0600431 0.0761252 0.345235 0 0 -1
-0.379993 0.130705 0.34928 0 0 -1
0.334795 0.277124 0.34928 0 0 -1
0.183273 -0.371589 0.34928 0 0 -1
-0.0986982 -0.0673716 0.345235 0 0 -1
-0.298746 0.218345 0.361916 0 0 1
-0.335845 0.0431588 0.34928 0 0 -1
-0.0605233 -0.339651 0.34928 0 0 -1
0.14478 0.150869 0.0645624 -0.66801 0.607596 -0.42964
-0.311281 -0.220911 0.361916 0 0 1
0.0355019 -0.0959502 0.34928 0 0 -1
0.274265 0.333585 0.34928 0 0 -1
0.0273571 0.221394 0.34928 0 0 -1
0.172319 0.347535 0.361916 0 0 1
-0.168772 0.0602361 0.361916 0 0 1
-0.0458941 0.140915 0.34928 0 0 -1
0.272625 -0.0562876 0.361916 0 0 1
0.26249 0.232585 0.361916 0 0 1
-0.171648 0.146476 0.361916 0 0 1
0.0755836 0.0478489 0.361916 0 0 1
-0.25136 0.313651 0.361916 0 0 1
-0.0826574 0.389345 0.34928 0 0 -1
0.296279 0.226038 0.34928 0 0 -1
0.240901 -0.102207 0.361916 0 0 1
0.419075 -0.188176 0.34928 0 0 -1
-0.15812 -0.225638 0.34928 0 0 -1
-0.0395053 0.0539796 0.34928 0 0 -1
0.0106734 0.0932727 0.0662164 0 0 -1
0.150661 -0.0891573 0.361916 0 0 1
0.28401 0.0881073 0.361916 0 0 1
0.0787892 -0.431943 0.361916 0 0 1
0.256831 0.170983 0.34928 0 0 -1
-0.0334809 0.379516 0.34928 0 0 -1
-0.0204803 0.0671034 0.34928 0 0 -1
-0.0860957 -0.105065 0.162503 0.923811 -0.382849 0
-0.0775875 0.0921808 0.361916 0 0 1
-0.218141 0.124038 0.361916 0 0 1
-0.129899 0.00827553 0.361916 0 0 1
0.000187699 0.214996 0.34928 0 0 -1
0.107221 0.174934 0.361916 0 0 1
-0.205828 0.0818221 0.34928 0 0 -1
-0.0653737 0.114221 0.345235 0 0 -1
-0.25949 0.114939 0.361916 0 0 1
0.292298 0.29226 0.361916 0 0 1
0.405247 -0.2256 0.351784 0.519253 -0.266478 -0.812013
-0.111451 -0.133628 0.361916 0 0 1
-0.186559 0.344594 0.361916 0 0 1
0.333307 -0.2698 0.361916 0 0 1
-0.124005 0.16497 0.361916 0 0 1
0.28503 -0.272807 0.34928 0 0 -1
0.187311 -0.126132 0.34928 0 0 -1
-0.423056 0.0235246 0.34928 0 0 -1
0.0352559 -0.161956 0.361916 0 0 1
-0.0236242 -0.0370793 0.361916 0 0 1
-0.307919 0.335834 0.361916 0 0 1
-0.157744 -0.145544 0.345235 0 0 -1
0.190819 0.242328 0.361916 0 0 1
0.0467138 -0.189457 0.34928 0 0 -1
0.145359 0.289122 0.34928 0 0 -1
0.31282 -0.0770027 0.361916 0 0 1
-0.201428 0.416013 0.358796 -0.481783 0.876291 0
0.432982 -0.158973 0.349852 0.542612 -0.213085 -0.812507
0.143685 0.256916 0.34928 0 0 -1
0.0130057 -0.307659 0.34928 0 0 -1
0.200658 0.271729 0.361916 0 0 1
0.299848 0.266106 0.361916 0 0 1
-0.10218 -0.112234 0.261298 -0.38284 -0.923815 0
0.275801 0.00622999 0.361916 0 0 1
-0.176635 -0.0199741 0.345235 0 0 -1
-0.152999 -0.0719666 0.34928 0 0 -1
0.236123 -0.335461 0.361916 0 0 1
0.429392 0.021466 0.34928 0 0 -1
-0.0196469 0.174409 0.345235 0 0 -1
-0.036362 -0.157417 0.344623 0.725394 0.577053 -0.375252
0.326457 -0.318073 0.34928 0 0 -1
-0.0227088 0.345197 0.361916 0 0 1
0.0687704 -0.22815 0.361916 0 0 1
0.299155 0.211217 0.361916 0 0 1
-0.0678758 0.0734732 0.361916 0 0 1
0.0587825 -0.0663514 0.343007 -0.725384 -0.577006 -0.375342
0.0188076 0.268331 0.361916 0 0 1
-0.0155202 0.215929 0.361916 0 0 1
0.186679 -0.0878625 0.361916 0 0 1
0.273306 -0.16855 0.361916 0 0 1
-0.254849 0.279562 0.361916 0 0 1
0.346788 0.145211 0.34928 0 0 -1
0.10433 0.141212 0.34928 0 0 -1
-0.147937 0.155441 0.0834334 0.69359 0.718453 0.0525167
-0.14729 0.0507577 0.337313 -0.72586 0.579219 -0.370989
0.0648531 -0.00494769 0.34928 0 0 -1
0.140341 0.329821 0.34928 0 0 -1
-0.124428 -0.172711 0.34928 0 0 -1
0.322737 -0.18364 0.34928 0 0 -1
-0.0386032 -0.387742 0.34928 0 0 -1
-0.146156 0.137502 0.343049 -0.70006 -0.603195 -0.382194
-0.0642664 0.260241 0.34928 0 0 -1
0.235884 -0.192472 0.361916 0 0 1
-0.0540728 -0.101225 0.0667221 0 0 1
0.439795 -0.0857871 0.361916 0 0 1
-0.105138 -0.00286802 0.0817243 -1 0 0
-0.330111 -0.259639 0.34928 0 0 -1
-0.108522 -0.0875279 0.0846669 -0.38284 0.923815 0
-0.144002 0.189842 0.361916 0 0 1
-0.14353 -0.354667 0.361916 0 0 1
-0.127901 0.348734 0.361916 0 0 1
0.112062 -0.0246336 0.361916 0 0 1
0.260782 0.268515 0 0 0 -1
-0.126956 -0.32041 0.361916 0 0 1
0.0675999 0.0989989 0.345235 0 0 -1
0.275187 -0.211188 0.34928 0 0 -1
-0.310328 0.100989 0.34928 0 0 -1
0.0320189 -0.359471 0.361916 0 0 1
-0.01113 -0.460072 0.363925 0.0495987 0.998769 0
-0.100378 0.118353 0.345235 0 0 -1
-0.402207 -0.161783 0.34928 0 0 -1
0.164603 0.148464 0.361916 0 0 1
-0.427837 -0.181298 0.36083 -0.799294 -0.313957 0.512407
-0.27874 -0.0608378 0.361916 0 0 1
0.163667 -0.240925 0.361916 0 0 1
0.122618 -0.131195 0.0712051 -0.667915 -0.607432 -0.43002
0.220184 -0.380955 0.361916 0 0 1
0.202759 0.206994 0.0761101 -0.491934 0.664352 0.562705
0.101213 -0.112634 0.253981 0.382843 -0.923813 0
0.0664496 -0.0480705 0.347969 0.619133 0.785286 0
-0.185778 0.375471 0.361916 0 0 1
0.0912906 0.0864179 0.221891 -0.382846 -0.923812 0
-0.110238 -0.118018 0.34928 0 0 -1
0.0334857 -0.00285877 0.361916 0 0 1
0.176659 -0.217197 0.34928 0 0 -1
0.0848328 -0.102017 0.178169 -0.923814 -0.382842 0
-0.367916 -0.0139426 0.34928 0 0 -1
0.110455 -0.0906626 0.116819 0.923813 0.382843 0
0.0482107 0.105138 0.0852302 0 1 0
-0.285807 0.261983 0.361916 0 0 1
-0.124463 -0.430088 0.34928 0 0 -1
-0.202913 -0.201617 0.345235 0 0 -1
0.220938 -0.0151256 0.361916 0 0 1
0.364743 -0.0621337 0.34928 0 0 -1
-0.0535839 0.204505 0.361916 0 0 1
-0.290922 -0.249333 0.361916 0 0 1
0.176368 -0.169893 0.34928 0 0 -1
-0.35798 0.237547 0.34928 0 0 -1
0.0876321 0.087438 0.361916 0 0 1
-0.444114 -0.026113 0.34928 0 0 -1
-0.0351495 0.0881147 0.34928 0 0 -1
-0.1326 -0.0213528 0.34928 0 0 -1
0.325935 -0.23125 0.361916 0 0 1
-0.279376 -0.291413 0.361916 0 0 1
0.314479 -0.281359 0.34928 0 0 -1
0.409891 0.0431658 0.361916 0 0 1
-0.0659459 0.455589 0.359798 0.148752 -0.988874 0
0.027897 0.024314 0.361916 0 0 1
-0.209991 -0.156632 0.361916 0 0 1
0.108172 -0.150106 0.34928 0 0 -1
-0.0303605 0.218268 0.34928 0 0 -1
0.223769 0.25312 0.361916 0 0 1
-0.208275 0.214638 0.0704791 0.69359 0.718453 0.0525167
-0.324837 -0.137403 0.34928 0 0 -1
0.136023 -0.202529 0.361916 0 0 1
0.271613 0.127699 0.361916 0 0 1
-0.179601 0.186343 0.0788622 0.69359 0.718453 0.0525167
0.126998 -0.346949 0.34928 0 0 -1
0.420649 0.138471 0.361916 0 0 1
-0.104392 0.065779 0.0863696 -0.991482 -0.128815 0.0192251
0.00601307 0.327681 0.34928 0 0 -1
0.0975862 0.432704 0.34928 0 0 -1
0.173494 0.181166 0.0690977 -0.693587 0.718456 0.0525169
0.108688 0.296428 0.361916 0 0 1
-0.340105 -0.0558024 0.361916 0 0 1
0.0986378 -0.0834319 0.22963 0.382843 0.923813 0
-0.258801 0.176287 0.34928 0 0 -1
0.128138 -0.385316 0.34928 0 0 -1
-0.323119 -0.183489 0.361916 0 0 1
0.215358 0.0165709 0.34928 0 0 -1
0.409363 0.0112336 0.34928 0 0 -1
-0.0614454 0.42328 0.34928 0 0 -1
-0.149636 -0.31616 0.361916 0 0 1
0.0919959 -0.00148761 0.0836638 -1 0 0
-0.0562391 -0.249018 0.34928 0 0 -1
0.165226 -0.0910355 0.34928 0 0 -1
0.283935 0.17676 0.361916 0 0 1
-0.220076 0.238342 0.34928 0 0 -1
-0.330505 0.226045 0.361916 0 0 1
-0.0205535 -0.0919955 0.081773 0 1 0
-0.103025 -0.339564 0.361916 0 0 1
-0.0177925 0.102646 0.0990721 0 0 1
0.184923 -0.160541 0.361916 0 0 1
0.235325 0.337288 0.34928 0 0 -1
