0.0646173 -0.0258839 0.34928 0 0 -1
0.0859606 0.0915007 0.326451 -0.923495 -0.383609 -0.00119553
-0.0434748 0.19494 0.34928 0 0 -1
0.142874 -0.136602 0.0659706 0.607594 0.668016 -0.429633
-0.263285 -0.265649 0.361916 0 0 1
0.239964 -0.394826 0.349785 -0.548375 0.836232 0
-0.130867 0.178973 0.361916 0 0 1
-0.410339 0.121094 0.34928 0 0 -1
-0.0464764 0.446656 0.34928 0 0 -1
0.0230875 0.244716 0.34928 0 0 -1
-0.0917532 -0.0840187 0.361916 0 0 1
0.115792 -0.233673 0.361916 0 0 1
0.0515563 -0.0753608 0.361916 0 0 1
-0.236458 0.0812967 0.361916 0 0 1
0.145927 -0.110264 0.34928 0 0 -1
0.101006 0.444847 0.34928 0 0 -1
-0.186705 0.180863 0.361916 0 0 1
0.147632 -0.0737869 0.361916 0 0 1
0.0865245 0.0910341 0.237056 -0.92381 -0.382851 0
0.134223 0.380045 0.361916 0 0 1
0.270773 0.271075 0.0312719 0.704007 0.702622 0.103424
-0.0969927 0.120759 0.345235 0 0 -1
0.354686 0.196808 0.34928 0 0 -1
-0.219825 -0.0314218 0.34928 0 0 -1
-0.362963 -0.0927413 0.34928 0 0 -1
-0.116675 0.254899 0.34928 0 0 -1
0.135239 -0.0657407 0.337128 0.725868 -0.579225 -0.370965
-0.158996 -0.244723 0.361916 0 0 1
0.428546 -0.168088 0.356019 -0.930801 0.365527 0
0.410206 -0.0561256 0.34928 0 0 -1
-0.187763 0.148147 0.34928 0 0 -1
0.333634 -0.268388 0.361916 0 0 1
-0.263985 -0.258619 0.0106234 0 0.98777 -0.155919
-0.370748 0.216495 0.361916 0 0 1
0.262948 -0.258281 0.0559271 0.763949 0.39987 0.506445
-0.0957607 -0.0845654 0.241505 0.382849 0.923811 0
0.247859 -0.208976 0.361916 0 0 1
-0.0471262 0.401673 0.34928 0 0 -1
-0.092199 0.0689107 0.0793655 0.991476 -0.128863 0.0192337
0.0496919 0.105138 0.0698105 0 1 0
-0.155663 -0.304647 0.34928 0 0 -1
0.308911 0.167615 0.34928 0 0 -1
0.0193023 -0.189881 0.361916 0 0 1
-0.0457709 0.182678 0.34928 0 0 -1
0.0306122 -0.461031 0.350659 0.0289051 -0.582063 -0.81263
-0.24833 0.241198 0.0524677 -0.607394 -0.667913 -0.430075
0.383429 0.0499598 0.361916 0 0 1
-0.160084 -0.22931 0.361916 0 0 1
0.129834 0.347664 0.361916 0 0 1
-0.200693 -0.415939 0.353285 0.450032 0.893012 0
-0.100431 0.112958 0.106657 -0.38284 0.923815 0
0.357962 0.296986 0.359943 0.671267 0.535048 0.512956
-0.107921 0.0871301 0.31844 -0.382494 -0.923958 0
0.464762 0.04873 0.356749 0.986116 0.166055 0
0.0959111 -0.0102622 0.361916 0 0 1
-0.393551 -0.0739402 0.34928 0 0 -1
0.204134 0.0158393 0.34928 0 0 -1
-0.0901278 -0.184973 0.361916 0 0 1
-0.0919959 -0.0241069 0.0965381 1 0 0
-0.270749 -0.374638 0.35114 0.548375 0.836232 0
-0.310527 0.252758 0.34928 0 0 -1
-0.313713 -0.0978537 0.361916 0 0 1
-0.127916 0.423249 0.361916 0 0 1
0.0942666 0.0851846 0.2566 -0.382846 -0.923812 0
0.0353655 0.0339633 0.343338 0.577006 -0.725377 -0.375356
0.0877785 0.219692 0.361916 0 0 1
0.2185 0.000327282 0.34928 0 0 -1
0.0523568 0.373977 0.34928 0 0 -1
-0.222474 0.289806 0.361916 0 0 1
0.213209 -0.356629 0.361916 0 0 1
0.124709 -0.017511 0.361916 0 0 1
0.128251 -0.306325 0.361916 0 0 1
-0.186362 0.0658081 0.361916 0 0 1
0.106088 -0.449324 0.359477 0.248642 -0.968595 0
0.281186 0.266649 0.361916 0 0 1
-0.123364 0.119017 0.103129 -0.777688 -0.259329 0.572669
0.251684 -0.168465 0.34928 0 0 -1
0.30101 0.169236 0.361916 0 0 1
-0.274323 0.0870436 0.361916 0 0 1
0.264151 -0.276839 0.361916 0 0 1
0.137998 0.245838 0.361916 0 0 1
-0.0688732 0.152575 0.34928 0 0 -1
0.0724812 -0.128596 0.334542 0.576946 -0.725365 -0.375471
0.307914 -0.0504314 0.34928 0 0 -1
0.215231 0.334006 0.361916 0 0 1
-0.174702 -0.132133 0.34928 0 0 -1
0.199612 0.27598 0.34928 0 0 -1
-0.091422 -0.0618408 0.34928 0 0 -1
0.148245 0.270815 0.34928 0 0 -1
0.369478 0.0559719 0.361916 0 0 1
-0.368408 0.284412 0.355116 -0.781995 0.623285 0
0.245517 -0.356666 0.34928 0 0 -1
-0.15046 -0.144888 0.0638279 -0.607469 0.66793 -0.429943
0.199856 0.134519 0.34928 0 0 -1
0.223282 0.122149 0.34928 0 0 -1
0.110839 -0.380453 0.34928 0 0 -1
-0.378916 -0.0976956 0.361916 0 0 1
-0.119434 -0.128225 0.338719 0.603202 -0.700072 -0.382161
0.016034 0.182919 0.347883 -0.398969 0.916964 0
-0.125868 -0.0107285 0.361916 0 0 1
0.112641 0.0959376 0.266289 0.923813 -0.382843 0
0.0864117 -0.0724649 0.34928 0 0 -1
0.0599163 0.255435 0.361916 0 0 1
-0.208543 -0.413649 0.363381 -0.261716 -0.51933 0.813512
-0.320339 0.00632287 0.34928 0 0 -1
-0.200423 0.219204 0.34928 0 0 -1
0.0569638 0.325629 0.361916 0 0 1
0.144488 -0.130694 0.34928 0 0 -1
-0.179191 0.122587 0.361916 0 0 1
-0.345558 0.107701 0.34928 0 0 -1
-0.084307 -0.100749 0.292213 0.923811 -0.382849 0
0.00211948 -0.174183 0.361916 0 0 1
-0.00511852 0.25578 0.361916 0 0 1
0.238526 0.0211277 0.34928 0 0 -1
-0.364259 -0.0539206 0.34928 0 0 -1
0.224164 -0.231033 0.0594909 -0.686375 -0.71768 0.117581
-0.0403003 -0.395877 0.34928 0 0 -1
-0.115681 0.223646 0.361916 0 0 1
0.0494346 -0.352671 0.34928 0 0 -1
-0.0919522 0.274758 0.34928 0 0 -1
0.180421 -0.0644003 0.34928 0 0 -1
-0.048474 -0.100648 0.34928 0 0 -1
-0.0715568 -0.0919595 0.0728603 0.00709361 0.999787 0.0193771
0.319547 0.333138 0.359019 0.684523 0.728992 0
-0.106489 -0.0509746 0.34928 0 0 -1
-0.0374075 -0.0788825 0.361916 0 0 1
-0.152769 -0.0646818 0.34928 0 0 -1
-0.10929 -0.109284 0.157883 -0.923817 -0.382834 0
0.147293 -0.139348 0.0815225 0.718453 0.69359 0.0525171
0.133718 -0.110203 0.345703 0.859537 0.511074 0
-0.226949 0.176592 0.361916 0 0 1
0.0810303 0.279311 0.34928 0 0 -1
-0.11091 -0.0917601 0.153228 -0.923813 0.382843 0
-0.146579 -0.258704 0.361916 0 0 1
0.0508872 0.0621796 0.345235 0 0 -1
0.172142 0.222541 0.361916 0 0 1
-0.0842267 0.0965783 0.0858637 0.923807 -0.382858 0
-0.292644 0.337398 0.361916 0 0 1
-0.0190838 0.440042 0.361916 0 0 1
0.141756 -0.423333 0.361916 0 0 1
-0.169574 0.0299367 0.345235 0 0 -1
0.151265 -0.0637524 0.361916 0 0 1
0.313062 0.154267 0.361916 0 0 1
-0.356389 0.0373465 0.361916 0 0 1
0.231149 -0.228371 0.049987 -0.0766158 0.0766503 -0.99411
0.303385 0.300278 0.361916 0 0 1
-0.114122 0.111732 0.0673694 -0.0858979 0.085987 -0.992586
-0.0957118 -0.0161617 0.361916 0 0 1
-0.382549 0.232187 0.361916 0 0 1
-0.2891 -0.0955611 0.361916 0 0 1
0.348304 -0.261696 0.34928 0 0 -1
-0.177304 -0.22097 0.34928 0 0 -1
-0.0907665 -0.101094 0.361916 0 0 1
0.00890965 -0.408337 0.361916 0 0 1
0.168683 0.0982711 0.34928 0 0 -1
-0.337801 0.287385 0.361916 0 0 1
0.151007 -0.145169 0.361916 0 0 1
-0.111049 0.448051 0.353633 -0.248642 0.968596 0
0.131935 -0.0498647 0.345235 0 0 -1
0.128999 -0.129691 0.361916 0 0 1
-0.0277034 -0.198773 0.361916 0 0 1
0.416839 0.106198 0.34928 0 0 -1
0.339845 0.0794956 0.361916 0 0 1
-0.0527145 0.134622 0.345235 0 0 -1
-0.0493517 0.44978 0.34928 0 0 -1
-0.0701482 -0.360797 0.34928 0 0 -1
0.102346 -0.155033 0.34928 0 0 -1
0.233427 0.254789 0.361916 0 0 1
0.0417931 -0.204259 0.361916 0 0 1
0.0836994 -0.0992823 0.161419 -0.923814 -0.382842 0
0.0927104 0.229794 0.34928 0 0 -1
0.292226 -0.341074 0.361916 0 0 1
0.176046 -0.160936 0.34928 0 0 -1
0.0398463 0.0269253 0.361916 0 0 1
-0.361621 -0.153612 0.34928 0 0 -1
0.379143 0.0137211 0.361916 0 0 1
0.0700704 0.0731493 0.361916 0 0 1
0.403063 0.175583 0.361916 0 0 1
0.118225 -0.253189 0.34928 0 0 -1
-0.314688 0.193872 0.34928 0 0 -1
0.249726 -0.292207 0.34928 0 0 -1
-0.0961897 -0.339691 0.361916 0 0 1
-0.343744 0.158852 0.34928 0 0 -1
0.176975 0.124603 0.34928 0 0 -1
0.0244758 0.0238489 0.345235 0 0 -1
-0.0661537 -0.455558 0.350161 0.148752 0.988874 0
-0.289954 0.289609 0.361916 0 0 1
0.314432 -0.138514 0.34928 0 0 -1
0.0353004 -0.105138 0.0814756 0 -1 0
0.451177 -0.0454344 0.361916 0 0 1
-0.238767 0.293982 0.34928 0 0 -1
-0.148083 -0.232143 0.361916 0 0 1
0.0302815 0.29765 0.34928 0 0 -1
-0.376444 -0.145867 0.361916 0 0 1
-0.0232139 0.445776 0.361916 0 0 1
-0.13431 -0.237092 0.34928 0 0 -1
-0.192034 0.236714 0.361916 0 0 1
-0.172433 0.177843 0.0597258 0.667915 0.607432 -0.43002
-0.196099 0.0421813 0.34928 0 0 -1
-0.119454 0.445893 0.354523 -0.248642 0.968596 0
0.150552 0.0343094 0.361916 0 0 1
0.0239763 0.0803163 0.361916 0 0 1
0.158464 -0.321162 0.361916 0 0 1
-0.00282162 0.27676 0.34928 0 0 -1
0.10025 0.113034 0.213084 0.382843 0.923813 0
-0.366704 0.211428 0.361916 0 0 1
0.150053 -0.275699 0.34928 0 0 -1
0.386193 0.10549 0.34928 0 0 -1
0.147624 0.207978 0.361916 0 0 1
-0.124208 0.205064 0.361916 0 0 1
-0.114263 -0.393572 0.34928 0 0 -1
-0.257201 -0.255901 0.0609168 -0.3031 -0.302534 0.903661
0.110465 -0.119936 0.0774614 -0.615707 -0.787975 0
-0.100912 0.449298 0.361916 0 0 1
-0.0568679 -0.10305 0.34928 0 0 -1
-0.170937 -0.317512 0.34928 0 0 -1
0.163614 0.0579519 0.34928 0 0 -1
0.269165 0.297073 0.361916 0 0 1
-0.189022 -0.00387665 0.34928 0 0 -1
-0.196454 0.191107 0.0569947 -0.607394 -0.667913 -0.430075
-0.241076 -0.086467 0.361916 0 0 1
-0.086647 0.106395 0.0881676 0.923811 0.382849 0
0.0877066 -0.111191 0.361916 0 0 1
-0.173616 0.306698 0.361916 0 0 1
-0.048701 -0.345976 0.361916 0 0 1
0.316934 0.032004 0.34928 0 0 -1
0.138063 0.072025 0.361916 0 0 1
-0.441214 -0.00992557 0.34928 0 0 -1
-0.394985 0.131804 0.361916 0 0 1
-0.164625 -0.431002 0.355245 0.349176 0.937057 0
-0.183981 0.125252 0.34928 0 0 -1
-0.197619 0.164602 0.34928 0 0 -1
0.262081 0.272766 0 0 0 -1
0.269986 -0.0883573 0.34928 0 0 -1
0.0695953 0.391779 0.361916 0 0 1
-0.102964 -0.152238 0.34928 0 0 -1
-0.305164 0.00436252 0.361916 0 0 1
0.0130744 -0.0919955 0.0832088 0 1 0
-0.344342 0.149036 0.34928 0 0 -1
0.100193 0.0913982 0.361916 0 0 1
-0.00472102 -0.239174 0.361916 0 0 1
-0.284405 0.325031 0.361916 0 0 1
-0.144276 -0.43318 0.34928 0 0 -1
-0.285652 -0.0129399 0.34928 0 0 -1
0.00692854 0.246681 0.361916 0 0 1
0.262281 0.101309 0.34928 0 0 -1
-0.297494 -0.331149 0.34928 0 0 -1
0.213924 0.34829 0.34928 0 0 -1
-0.105138 0.0389867 0.0833631 -1 0 0
0.168662 0.136786 0.361916 0 0 1
-0.01419 0.143252 0.34928 0 0 -1
-0.204743 -0.314802 0.361916 0 0 1
-0.289614 0.226018 0.34928 0 0 -1
-0.0961635 -0.220617 0.34928 0 0 -1
-0.265546 0.256474 0.361916 0 0 1
0.262946 -0.266331 0 0 0 -1
-0.0887282 -0.0874798 0.296363 0.382849 0.923811 0
0.217527 0.147594 0.34928 0 0 -1
0.13474 0.215936 0.34928 0 0 -1
-0.0806891 -0.156309 0.34928 0 0 -1
-0.152581 -0.344042 0.361916 0 0 1
-0.0186652 -0.293431 0.361916 0 0 1
0.155642 0.143129 0.34928 0 0 -1
0.149506 -0.437262 0.356474 0.368114 -0.929781 0
-0.444267 0.122373 0.351193 0.963159 -0.268934 0
-0.131198 0.377058 0.34928 0 0 -1
-0.218572 0.216547 0.346409 -0.916984 0.398923 0
-0.0562009 0.151032 0.361916 0 0 1
-0.217418 0.218645 0.34928 0 0 -1
-0.186092 0.316524 0.34928 0 0 -1
-0.335981 -0.295856 0.34928 0 0 -1
-0.0352967 0.0489459 0.345235 0 0 -1
-0.103335 0.050547 0.0719287 0 1 0
0.162255 -0.195667 0.361916 0 0 1
-0.331249 0.207092 0.361916 0 0 1
0.00121121 -0.239152 0.34928 0 0 -1
-0.0663738 0.0828647 0.34928 0 0 -1
-0.367925 0.0315848 0.361916 0 0 1
0.145831 -0.145375 0.330028 0.700067 0.603201 -0.38217
-0.244226 0.398067 0.358116 -0.548372 0.836235 0
-0.209501 -0.291392 0.34928 0 0 -1
-0.165375 0.399564 0.361916 0 0 1
0.0153711 0.285661 0.361916 0 0 1
-0.00875032 -0.46159 0.355912 0 -1 0
-0.194055 -0.350042 0.34928 0 0 -1
0.290803 -0.181069 0.361916 0 0 1
-0.0173897 0.46159 0.358445 0 1 0
0.0462231 -0.302706 0.34928 0 0 -1
0.054299 0.226464 0.34928 0 0 -1
0.291676 -0.35747 0.354682 -0.636873 0.770969 0
0.111388 -0.0929124 0.132734 0.923813 0.382843 0
0.0198097 0.134564 0.34928 0 0 -1
0.196456 -0.178055 0.361916 0 0 1
0.0488572 0.286719 0.34928 0 0 -1
-0.120997 -0.413577 0.34928 0 0 -1
-0.227342 0.233381 0.0658672 0.69359 0.718453 0.0525167
0.0709654 0.103518 0.34928 0 0 -1
-0.209331 -0.224948 0.34928 0 0 -1
0.0460976 -0.19078 0.361916 0 0 1
-0.198999 0.38838 0.34928 0 0 -1
-0.424453 -0.0263285 0.361916 0 0 1
-0.0780088 0.233076 0.34928 0 0 -1
0.00809087 -0.463447 0.351591 0.0288751 -0.582567 -0.81227
0.281811 0.247587 0.34928 0 0 -1
-0.212438 -0.0616829 0.34928 0 0 -1
0.370044 -0.136566 0.34928 0 0 -1
0.109285 0.0807535 0.33299 -0.579332 -0.725888 -0.370757
0.10948 0.386408 0.34928 0 0 -1
-0.323414 0.0812149 0.361916 0 0 1
0.171466 0.164707 0.34928 0 0 -1
-0.120511 0.339279 0.361916 0 0 1
0.30681 0.294305 0.361916 0 0 1
-0.0650553 -0.0878314 0.34928 0 0 -1
0.15993 0.140184 0.34928 0 0 -1
-0.120362 -0.110937 0.075836 -0.722292 0.689592 0.0525108
0.21746 -0.21363 0.0521786 -0.0766158 0.0766503 -0.99411
-0.304373 -0.234151 0.361916 0 0 1
-0.173305 -0.232405 0.34928 0 0 -1
0.278947 0.21567 0.34928 0 0 -1
-0.250737 0.336956 0.361916 0 0 1
0.0997309 -0.164929 0.361916 0 0 1
-0.126153 0.133053 0.361916 0 0 1
0.132668 0.131544 0.327775 0.700899 -0.605247 -0.37738
-0.033838 0.156107 0.361916 0 0 1
0.201715 -0.190113 0.34928 0 0 -1
-0.186057 -0.373216 0.361916 0 0 1
-0.33934 0.265353 0.34928 0 0 -1
0.188889 -0.208268 0.361916 0 0 1
0.0944931 0.282222 0.34928 0 0 -1
0.139268 -0.344579 0.361916 0 0 1
0.153042 -0.0169244 0.34928 0 0 -1
-0.0232297 0.0352786 0.34928 0 0 -1
0.0918027 -0.107685 0.0667221 0 0 1
-0.0704854 -0.0319848 0.361916 0 0 1
0.106171 -0.250333 0.34928 0 0 -1
0.0887776 0.152476 0.34928 0 0 -1
-0.242734 0.0479776 0.34928 0 0 -1
0.0921691 0.0618178 0.0726463 -0.999019 -0.00704252 0.0437279
-0.00660892 -0.229575 0.361916 0 0 1
-0.134561 0.446402 0.354323 -0.21335 0.831162 -0.513469
-0.174524 0.193823 0.361916 0 0 1
-0.449238 0.10457 0.355522 0.963159 -0.268934 0
0.412967 0.0262512 0.34928 0 0 -1
0.311812 0.336216 0.34928 0 0 -1
-0.370566 -0.276878 0.362991 -0.45607 -0.363532 0.812308
-0.045436 -0.431832 0.34928 0 0 -1
0.0128217 -0.160666 0.361916 0 0 1
-0.155525 0.412942 0.361916 0 0 1
0.251962 -0.252079 0.0465549 -0.0765944 0.0766746 -0.99411
-0.0863657 -0.0761295 0.34025 -0.577007 0.725377 -0.375354
0.144925 -0.205713 0.361916 0 0 1
-0.214173 0.278735 0.34928 0 0 -1
-0.104706 0.362306 0.34928 0 0 -1
0.184304 0.114961 0.34928 0 0 -1
-0.297215 -0.0716279 0.361916 0 0 1
-0.404424 0.0356197 0.361916 0 0 1
0.360324 -0.156294 0.361916 0 0 1
0.109535 -0.0887879 0.307123 0.923876 0.382691 0
-0.46204 0.00817669 0.36071 0.998385 -0.0568021 0
0.0090335 -0.432093 0.361916 0 0 1
-0.045143 0.00340458 0.361916 0 0 1
-0.454034 -0.0664784 0.34928 0 0 -1
-0.0835621 0.0998878 0.342175 0.725892 -0.57933 -0.370752
0.309903 0.203158 0.361916 0 0 1
-0.191092 0.216296 0.34928 0 0 -1
0.1504 -0.0216256 0.361916 0 0 1
0.257978 -0.216187 0.361916 0 0 1
0.377258 -0.242746 0.361916 0 0 1
-0.32986 -0.297753 0.34928 0 0 -1
-0.0655416 0.424748 0.34928 0 0 -1
-0.256441 -0.390057 0.359078 -0.548372 -0.836235 0
-0.157415 0.318394 0.34928 0 0 -1
-0.0887981 -0.120293 0.361916 0 0 1
-0.09609 -0.0986921 0.34928 0 0 -1
0.262908 0.226578 0.34928 0 0 -1
-0.0772721 0.0337232 0.361916 0 0 1
-0.163221 -0.0760307 0.34928 0 0 -1
-0.300203 0.0930242 0.361916 0 0 1
0.103924 -0.228698 0.34928 0 0 -1
0.283048 -0.325228 0.34928 0 0 -1
-0.352589 -0.117804 0.34928 0 0 -1
0.172804 -0.185576 0.34928 0 0 -1
0.00242109 0.286019 0.34928 0 0 -1
-0.28106 -0.349276 0.361916 0 0 1
-0.137451 0.236889 0.361916 0 0 1
0.46699 0.0100094 0.355964 0.998385 0.0568042 0
-0.165245 0.127668 0.34928 0 0 -1
-0.3144 0.117236 0.361916 0 0 1
0.187062 -0.369073 0.34928 0 0 -1
0.228209 0.224693 0.34928 0 0 -1
0.0726038 -0.427981 0.34928 0 0 -1
0.408001 0.204276 0.361916 0 0 1
0.354424 -0.215084 0.34928 0 0 -1
-0.0320924 0.38934 0.34928 0 0 -1
0.125234 -0.133366 0.0855821 -0.69359 -0.718453 0.0525167
0.0914844 0.129676 0.345235 0 0 -1
-0.256273 -0.384365 0.358831 -0.587791 -0.809013 0
0.114091 -0.0392287 0.34928 0 0 -1
0.286492 0.118792 0.361916 0 0 1
0.266024 0.328674 0.361916 0 0 1
-0.0345009 -0.381834 0.34928 0 0 -1
-0.038099 -0.105138 0.0926829 0 -1 0
-0.374415 -0.0413607 0.34928 0 0 -1
-0.111307 -0.104417 0.30883 -0.923817 -0.382834 0
-0.431968 -0.0266171 0.34928 0 0 -1
-0.00949494 0.385451 0.361916 0 0 1
-0.017727 -0.269517 0.34928 0 0 -1
0.146666 -0.138587 0.080051 0.718453 0.69359 0.0525171
0.00551086 -0.275557 0.34928 0 0 -1
-0.145869 0.293646 0.361916 0 0 1
-0.179817 0.425262 0.361913 -0.368114 0.929781 0
-0.249213 0.388761 0.349716 0.548375 -0.836232 0
-0.0843524 -0.100858 0.277409 0.923811 -0.382849 0
0.212569 0.409128 0.361916 0 0 1
0.247137 0.0312653 0.361916 0 0 1
0.237588 0.323489 0.34928 0 0 -1
0.0322203 0.0937431 0.0990721 0 0 1
-0.0806553 0.00364718 0.34928 0 0 -1
0.0443242 0.381564 0.34928 0 0 -1
0.112354 -0.10189 0.25622 0.923817 -0.382834 0
0.448369 -0.112938 0.35365 0.98227 -0.187474 0
-0.403262 0.0563736 0.361916 0 0 1
0.29091 -0.10775 0.34928 0 0 -1
-0.00626136 -0.440641 0.361916 0 0 1
-0.189774 -0.282484 0.361916 0 0 1
-0.397361 -0.0768006 0.34928 0 0 -1
-0.285188 0.105998 0.361916 0 0 1
-0.0239592 -0.0919955 0.0867366 0 1 0
-0.103428 0.0854171 0.150226 -0.38284 -0.923815 0
0.40634 -0.214212 0.34928 0 0 -1
0.056552 -0.320687 0.361916 0 0 1
0.335063 -0.318569 0.356382 0.684523 -0.728992 0
-0.0917423 -0.0849811 0.0670805 0.999977 0.0067734 -0.000752518
0.0600792 -0.173706 0.361916 0 0 1
-0.462872 -0.0555342 0.360616 -0.84619 -0.142516 0.51347
-0.108394 -0.278478 0.361916 0 0 1
-0.0454306 -0.418234 0.361916 0 0 1
-0.0415418 0.211717 0.34928 0 0 -1
0.46093 -0.0714843 0.35553 0.986116 -0.166055 0
-0.273188 0.284234 0.361916 0 0 1
0.109638 -0.0886896 0.147363 0.923813 0.382843 0
0.0142388 0.321296 0.34928 0 0 -1
-0.178082 0.185607 0.361916 0 0 1
-0.109401 -0.109015 0.137793 -0.923817 -0.382834 0
-0.0704195 -0.406666 0.361916 0 0 1
-0.254606 0.358904 0.361916 0 0 1
-0.233767 0.0471551 0.34928 0 0 -1
-0.121758 -0.0889668 0.34928 0 0 -1
0.420483 -0.131593 0.34928 0 0 -1
0.105332 -0.0767846 0.0679164 0.999966 0.00804756 -0.0017293
0.132461 -0.0158328 0.361916 0 0 1
0.314502 -0.167982 0.34928 0 0 -1
0.226115 -0.40799 0.353154 0.386253 -0.766551 -0.513038
0.216919 -0.0204303 0.34928 0 0 -1
-0.141915 0.133969 0.068708 -0.607632 -0.668031 -0.429555
-0.20909 0.258429 0.34928 0 0 -1
0.45357 -0.0793944 0.361916 0 0 1
0.340529 -0.100888 0.34928 0 0 -1
0.103317 0.233355 0.361916 0 0 1
0.18083 0.403203 0.34928 0 0 -1
-0.438452 -0.0679544 0.361916 0 0 1
-0.212287 0.118912 0.34928 0 0 -1
0.29425 0.16751 0.361916 0 0 1
0.230741 0.345526 0.361916 0 0 1
-0.0588812 -0.456652 0.354094 0.148752 0.988874 0
0.459408 0.0492659 0.361686 0.99803 0.0627396 0
-0.0852426 -0.0498904 0.361916 0 0 1
-0.217942 -0.329026 0.34928 0 0 -1
-0.193872 -0.0926448 0.34928 0 0 -1
0.00305639 0.158981 0.34928 0 0 -1
-0.263586 0.0551402 0.34928 0 0 -1
0.276955 -0.0344857 0.361916 0 0 1
-0.147264 0.337829 0.34928 0 0 -1
-0.00331763 0.226458 0.34928 0 0 -1
-0.0925712 0.056357 0.0950976 0.999737 -0.00727434 0.0217581
0.147556 0.139069 0.34928 0 0 -1
0.32521 0.327005 0.349522 0.416141 0.407486 -0.812885
-0.166005 -0.111933 0.361916 0 0 1
-0.331327 -0.234782 0.361916 0 0 1
0.16245 0.254108 0.34928 0 0 -1
-0.110877 0.105453 0.274516 -0.923817 0.382834 0
0.230895 0.225853 0.0516833 0.607166 -0.667809 -0.430558
-0.202439 0.0636254 0.361916 0 0 1
0.242827 -0.264152 0.361916 0 0 1
-0.0453474 0.0919955 0.0794678 0 -1 0
-0.0508948 -0.452436 0.34928 0 0 -1
-0.410323 -0.0935945 0.361916 0 0 1
-0.280407 -0.275804 0.34928 0 0 -1
-0.105284 -0.43789 0.361916 0 0 1
0.403518 0.0401036 0.361916 0 0 1
-0.0584292 -0.104724 0.0806093 -0.102791 -0.994468 0.0216083
0.0645742 -0.0190914 0.34928 0 0 -1
-0.000296969 0.35514 0.34928 0 0 -1
0.246836 -0.214102 0.361916 0 0 1
0.182716 0.299379 0.34928 0 0 -1
0.314592 -0.00722318 0.34928 0 0 -1
0.0186626 0.179002 0.34928 0 0 -1
-0.0286889 -0.042253 0.34928 0 0 -1
0.193796 0.255266 0.361916 0 0 1
0.109576 -0.0470356 0.34928 0 0 -1
0.0783818 -0.166568 0.361916 0 0 1
-0.266921 0.255133 0.34928 0 0 -1
-0.112671 -0.084335 0.34928 0 0 -1
0.0285872 -0.293094 0.361916 0 0 1
-0.289978 0.0965132 0.361916 0 0 1
0.027116 0.131691 0.361916 0 0 1
-0.1951 -0.0244471 0.361916 0 0 1
0.0891198 -0.452103 0.352821 -0.148749 0.988875 0
0.38859 0.148688 0.361916 0 0 1
-0.355508 0.188459 0.34928 0 0 -1
-0.0176831 0.104603 0.34928 0 0 -1
-0.147257 -0.337823 0.361916 0 0 1
0.22351 -0.0476807 0.34928 0 0 -1
-0.232214 -0.293524 0.34928 0 0 -1
-0.0975866 -0.446914 0.34928 0 0 -1
0.113373 -0.103718 0.0804385 0.707386 0.706828 0
-0.422638 -0.183132 0.349376 0.930801 0.365527 0
-0.0499046 -0.458168 0.349397 -0.0866526 -0.576048 -0.81281
0.145461 0.172319 0.361916 0 0 1
-0.412851 0.0346691 0.34928 0 0 -1
0.193637 -0.308964 0.34928 0 0 -1
0.329579 -0.0303674 0.34928 0 0 -1
0.135543 -0.17589 0.361916 0 0 1
0.292501 -0.340911 0.361916 0 0 1
-0.308054 0.0762372 0.361916 0 0 1
-0.116841 0.236624 0.34928 0 0 -1
0.34233 -0.141815 0.361916 0 0 1
-0.0112292 -0.172777 0.361916 0 0 1
0.210418 0.370097 0.34928 0 0 -1
0.371859 0.0243734 0.34928 0 0 -1
0.128406 -0.137257 0.0742517 -0.69359 -0.718453 0.0525167
0.34848 -0.271416 0.361916 0 0 1
-0.162838 -0.15672 0.343431 -0.700892 0.605241 -0.377404
0.402968 -0.223349 0.349588 0.518909 -0.26625 -0.812308
-0.272927 -0.37896 0.353933 -0.470627 -0.717678 -0.513272
-0.232935 -0.393664 0.34928 0 0 -1
-0.00906978 0.201605 0.361916 0 0 1
0.0836619 -0.0979414 0.113738 -0.92381 0.382851 0
0.242189 0.163521 0.34928 0 0 -1
-0.272982 0.146024 0.361916 0 0 1
-0.0747434 0.296155 0.34928 0 0 -1
-0.460211 -0.0403131 0.35064 0.998385 0.0568021 0
-0.0307388 0.406879 0.361916 0 0 1
-0.140106 0.23672 0.361916 0 0 1
-0.143167 0.0720218 0.34928 0 0 -1
0.176884 -0.184111 0.06166 -0.667788 -0.607133 -0.430637
0.339559 0.278515 0.34928 0 0 -1
-0.148552 0.120962 0.361916 0 0 1
-0.0808944 0.102503 0.110252 0.242938 0.708976 0.662068
0.387098 -0.0370091 0.361916 0 0 1
-0.289052 0.222853 0.361916 0 0 1
0.0945814 -0.115947 0.361916 0 0 1
0.0257315 -0.448028 0.34928 0 0 -1
-0.278726 -0.0207111 0.361916 0 0 1
0.147056 -0.303941 0.34928 0 0 -1
-0.431027 0.0922457 0.361916 0 0 1
0.117188 0.271551 0.34928 0 0 -1
-0.210036 -0.0804 0.34928 0 0 -1
0.0723071 0.146172 0.361916 0 0 1
-0.0639267 -0.129503 0.334263 0.725394 0.577053 -0.375252
0.0663051 -0.433551 0.361916 0 0 1
0.0448372 0.41104 0.34928 0 0 -1
0.442713 -0.04959 0.34928 0 0 -1
-0.278332 -0.132212 0.34928 0 0 -1
0.260495 0.196821 0.34928 0 0 -1
-0.271157 0.273388 0.0129026 -0.703402 0.703258 0.103215
-0.230061 0.0466635 0.361916 0 0 1
0.333894 0.18134 0.361916 0 0 1
0.370101 -0.128115 0.361916 0 0 1
-0.299143 -0.357748 0.354214 -0.546579 -0.66165 -0.513293
0.0505465 0.102864 0.0738468 1 0 0
0.38933 0.125719 0.34928 0 0 -1
-0.0619733 0.151181 0.345235 0 0 -1
-0.35018 -0.146325 0.361916 0 0 1
0.358661 -0.267144 0.361916 0 0 1
-0.0949439 -0.353972 0.34928 0 0 -1
0.150416 -0.043621 0.341357 -0.57705 0.725389 -0.375265
0.191628 0.10133 0.34928 0 0 -1
-0.428032 -0.174499 0.350732 -0.904814 -0.425807 0
-0.215402 0.225941 0.34928 0 0 -1
-0.12788 0.277586 0.361916 0 0 1
0.0840695 -0.100175 0.0731689 -0.923814 -0.382842 0
-0.246326 0.152813 0.361916 0 0 1
-0.123637 0.119487 0.0666375 0.0701032 -0.0701173 -0.995072
0.0689374 0.0816522 0.345235 0 0 -1
0.126504 0.121455 0.0663855 0.607469 -0.66793 -0.429943
0.306243 -0.0936507 0.34928 0 0 -1
0.0821643 -0.0663023 0.34928 0 0 -1
0.054921 0.0817201 0.34928 0 0 -1
0.110851 -0.402811 0.361916 0 0 1
-0.105138 0.0316617 0.0680495 -1 0 0
-0.164999 0.281905 0.361916 0 0 1
-0.449317 0.0409646 0.361916 0 0 1
0.205041 -0.372601 0.34928 0 0 -1
-0.0148228 0.0939854 0.0662164 0 0 -1
0.0317342 -0.441168 0.361916 0 0 1
0.213183 0.114364 0.361916 0 0 1
-0.11854 -0.153189 0.361916 0 0 1
-0.0282882 -0.422899 0.34928 0 0 -1
-0.0479058 0.316375 0.361916 0 0 1
0.0371924 -0.336393 0.361916 0 0 1
0.254215 0.0147189 0.361916 0 0 1
-0.0495078 0.067265 0.345235 0 0 -1
-0.105815 0.386714 0.34928 0 0 -1
0.156479 -0.154834 0.334603 0.700067 0.603201 -0.38217
0.0722837 -0.345989 0.34928 0 0 -1
-0.0853308 -0.0939142 0.0788035 0.923807 0.382858 0
-0.19748 -0.16105 0.34928 0 0 -1
-0.179827 -0.161872 0.361916 0 0 1
0.123727 -0.429397 0.361916 0 0 1
0.324137 0.317484 0.34928 0 0 -1
0.407629 -0.147919 0.361916 0 0 1
0.283093 -0.325473 0.34928 0 0 -1
0.215319 0.0851857 0.34928 0 0 -1
-0.259993 -0.346384 0.361916 0 0 1
0.441773 -0.134103 0.359555 0.95108 -0.308945 0
0.0446867 -0.21447 0.34928 0 0 -1
-0.412232 0.0177238 0.361916 0 0 1
0.0990117 0.0978203 0.0667221 0 0 1
0.161581 -0.163429 0.336731 -0.605247 -0.700899 -0.377382
0.0542149 -0.000416294 0.361916 0 0 1
0.428769 0.0144421 0.361916 0 0 1
0.336592 0.186273 0.34928 0 0 -1
0.357496 0.275281 0.361916 0 0 1
0.00199584 -0.464181 0.361694 0.0425317 -0.858094 0.511728
-0.0522422 -0.391401 0.34928 0 0 -1
-0.290234 -0.12926 0.34928 0 0 -1
-0.46181 0.0122169 0.361152 0.998385 -0.0568021 0
-0.0799949 0.114987 0.325565 0.725892 -0.57933 -0.370752
-0.184433 0.28905 0.34928 0 0 -1
-0.0911531 0.37855 0.34928 0 0 -1
0.177519 -0.35845 0.361916 0 0 1
-0.0726828 0.253353 0.34928 0 0 -1
0.0895575 0.0867887 0.32445 -0.381023 -0.924565 0.00118951
-0.276177 -0.171037 0.34928 0 0 -1
0.0638831 0.133725 0.361916 0 0 1
-0.381002 0.123522 0.34928 0 0 -1
0.119526 -0.104113 0.361916 0 0 1
0.340327 0.190383 0.34928 0 0 -1
0.377785 -0.0176085 0.34928 0 0 -1
0.248889 -0.334923 0.34928 0 0 -1
0.428751 0.145012 0.361916 0 0 1
0.131255 -0.240819 0.34928 0 0 -1
0.293819 -0.202116 0.361916 0 0 1
-0.454607 -0.0130506 0.361916 0 0 1
0.268237 -0.311134 0.34928 0 0 -1
0.10334 -0.437931 0.34928 0 0 -1
0.222491 0.145698 0.361916 0 0 1
0.25451 -0.106026 0.34928 0 0 -1
-0.0363296 0.12385 0.361916 0 0 1
-0.357025 0.0535994 0.34928 0 0 -1
0.0338239 -0.216579 0.361916 0 0 1
0.0877412 0.0880981 0.185639 -0.92381 -0.382851 0
-0.396907 -0.0125753 0.361916 0 0 1
0.253048 0.0453267 0.361916 0 0 1
0.36863 -0.0797116 0.34928 0 0 -1
-0.226652 -0.190995 0.361916 0 0 1
-0.139157 0.335847 0.34928 0 0 -1
0.0937651 -0.00993256 0.0990721 0 0 1
0.085912 -0.226193 0.34928 0 0 -1
0.0243362 0.036347 0.347964 -0.785316 0.619095 0
0.302345 0.127244 0.361916 0 0 1
-0.0492343 -0.436787 0.34928 0 0 -1
-0.0728306 -0.0039649 0.361916 0 0 1
0.252356 0.225203 0.34928 0 0 -1
-0.250168 0.000343032 0.361916 0 0 1
-0.0760462 -0.352846 0.34928 0 0 -1
-0.152128 -0.243181 0.34928 0 0 -1
-0.167531 0.38784 0.361916 0 0 1
0.20121 -0.361485 0.34928 0 0 -1
0.333033 0.219773 0.34928 0 0 -1
-0.202568 0.198869 0.361916 0 0 1
0.0645472 0.139923 0.34928 0 0 -1
0.138157 0.0515642 0.345025 -0.579332 -0.725888 -0.370757
0.142066 -0.208419 0.361916 0 0 1
-0.113528 -0.098077 0.197903 -0.923813 0.382843 0
-0.122661 0.119412 0.328565 -0.70006 -0.603195 -0.382194
0.269141 0.340501 0.361916 0 0 1
0.20666 -0.379569 0.361916 0 0 1
0.0139531 0.336448 0.34928 0 0 -1
0.437717 0.00263436 0.361916 0 0 1
-0.0367719 0.0361454 0.361916 0 0 1
0.0651245 -0.0558693 0.345235 0 0 -1
0.148808 -0.172563 0.34928 0 0 -1
-0.113083 -0.10013 0.18806 -0.923817 -0.382834 0
0.101403 -0.0259377 0.0990721 0 0 1
0.255221 0.249478 0.0596256 0.717674 -0.686353 0.117745
0.0145219 -0.37792 0.34928 0 0 -1
0.0819166 0.0975323 0.111392 -0.186484 0 0.982458
-0.0650305 -0.305413 0.361916 0 0 1
-0.105698 -0.0863577 0.28898 -0.38284 0.923815 0
-0.105138 0.00591147 0.0667802 -1 0 0
-0.240408 0.301449 0.361916 0 0 1
0.274971 -0.211233 0.34928 0 0 -1
-0.349742 -0.302315 0.363299 -0.455879 -0.363342 0.8125
-0.241457 -0.235425 0.0621483 -0.718453 0.69359 0.0525167
-0.164422 -0.0652155 0.361916 0 0 1
-0.0980936 -0.24356 0.361916 0 0 1
-0.194689 -0.0948612 0.361916 0 0 1
-0.399578 0.229014 0.362464 0.889718 -0.456511 0
0.306866 -0.246797 0.34928 0 0 -1
-0.133407 0.13387 0.0648021 0.0765877 -0.0766033 -0.994116
0.116191 -0.0259219 0.361916 0 0 1
-0.104094 0.11144 0.116566 -0.38284 0.923815 0
0.0223836 -0.134807 0.34928 0 0 -1
-0.0314877 -0.271391 0.34928 0 0 -1
-0.151153 0.159853 0.0677512 0.686375 0.71768 0.117581
-0.355168 0.165796 0.361916 0 0 1
0.0597979 -0.447342 0.361916 0 0 1
0.186145 -0.261631 0.34928 0 0 -1
0.0819198 0.0917504 0.0845031 -0.00679702 -0.999977 -0.00075408
-0.444674 -0.0371587 0.361916 0 0 1
0.16845 0.28962 0.361916 0 0 1
0.0476549 -0.092676 0.0662164 0 0 -1
0.128396 0.232209 0.34928 0 0 -1
-0.344736 -0.134632 0.34928 0 0 -1
-0.0898675 -0.404604 0.34928 0 0 -1
-0.208178 -0.103175 0.34928 0 0 -1
0.259629 0.119343 0.361916 0 0 1
-0.23306 0.231322 0.0692184 -0.146661 0.14671 0.978247
-0.0180296 0.352548 0.361916 0 0 1
0.265799 0.000831518 0.361916 0 0 1
0.0885036 0.102856 0.361916 0 0 1
-0.282 0.197056 0.361916 0 0 1
0.0224881 -0.068993 0.34928 0 0 -1
-0.0602539 -0.145387 0.34928 0 0 -1
0.0598282 0.177778 0.34928 0 0 -1
0.0429448 0.0809076 0.361916 0 0 1
0.394843 0.206269 0.34928 0 0 -1
-0.091874 -0.0861762 0.118738 0.382849 0.923811 0
-0.384144 0.253191 0.363319 0.840175 -0.542315 0
-0.00505022 -0.259438 0.34928 0 0 -1
-0.0401678 0.45863 0.361986 0.0495987 -0.998769 0
-0.183702 -0.0178325 0.345998 -0.916888 0.399144 0
0.116852 0.204182 0.34928 0 0 -1
0.0270449 -0.180049 0.34928 0 0 -1
-0.0535052 -0.0522172 0.361916 0 0 1
0.270258 0.361399 0.361916 0 0 1
0.0413442 -0.0125592 0.361916 0 0 1
-0.11999 -0.427255 0.361916 0 0 1
0.289769 -0.342529 0.361916 0 0 1
-0.205999 -0.286006 0.34928 0 0 -1
-0.0505464 0.100788 0.0763965 -1 0 0
0.0104478 0.205177 0.34928 0 0 -1
0.0621886 0.439693 0.361916 0 0 1
-0.0742067 0.0867669 0.344582 0.725384 0.577005 -0.375344
-0.0288981 0.137016 0.361916 0 0 1
0.144711 0.219135 0.361916 0 0 1
-0.191122 0.414947 0.34928 0 0 -1
0.115493 -0.450247 0.352624 0.213347 -0.83114 -0.513507
0.361293 0.108522 0.361916 0 0 1
0.00997228 0.298588 0.361916 0 0 1
0.0163578 -0.238021 0.34928 0 0 -1
-0.459067 0.0546013 0.357389 -0.998023 0.0628423 0
-0.161134 -0.0516448 0.361916 0 0 1
-0.110568 0.415629 0.361916 0 0 1
-0.0229053 0.110318 0.361916 0 0 1
0.0135276 0.246053 0.34928 0 0 -1
-0.111628 -0.103641 0.264722 -0.923817 -0.382834 0
0.0995066 0.00174513 0.0662164 0 0 -1
-0.114247 0.13057 0.345235 0 0 -1
-0.464001 0.026594 0.351428 -0.580643 0.0330231 -0.813488
0.261747 0.0590953 0.361916 0 0 1
-0.393287 0.0868269 0.361916 0 0 1
0.0839632 0.0999189 0.0815277 -0.923814 0.382842 0
-0.310941 0.298913 0.34928 0 0 -1
0.141424 0.320324 0.34928 0 0 -1
-0.0325324 0.447709 0.361916 0 0 1
-0.0619966 -0.239205 0.34928 0 0 -1
-0.29037 -0.0503626 0.361916 0 0 1
0.245197 0.320253 0.34928 0 0 -1
0.14388 0.136476 0.0902187 0.718453 -0.69359 0.0525167
-0.0152204 -0.0677473 0.361916 0 0 1
-0.456754 -0.071653 0.363762 -0.574105 -0.0966952 0.813052
-0.424749 0.185402 0.351286 -0.542655 0.213107 -0.812472
-0.209903 -0.201118 0.361916 0 0 1
0.396269 -0.0487877 0.34928 0 0 -1
0.329832 0.17093 0.361916 0 0 1
-0.147752 0.184738 0.34928 0 0 -1
0.0834648 -0.110503 0.34928 0 0 -1
0.142495 0.154106 0.345235 0 0 -1
0.417535 0.192391 0.34928 0 0 -1
-0.143003 0.134145 0.0714934 -0.718453 -0.69359 0.0525171
-0.0216202 -0.277156 0.34928 0 0 -1
-0.0980115 0.00811912 0.361916 0 0 1
-0.235954 -0.229861 0.0639493 -0.718453 0.69359 0.0525167
0.15029 -0.0642636 0.346583 0.785275 -0.619148 0
0.378915 -0.236168 0.34928 0 0 -1
0.24816 -0.284483 0.361916 0 0 1
-0.091935 -0.436984 0.34928 0 0 -1
-0.191567 -0.358753 0.34928 0 0 -1
-0.290699 0.0725487 0.34928 0 0 -1
0.0389063 -0.240765 0.34928 0 0 -1
-0.0150639 -0.442521 0.34928 0 0 -1
-0.223432 0.241771 0.34928 0 0 -1
-0.14592 -0.119712 0.34928 0 0 -1
0.179913 -0.140948 0.34928 0 0 -1
0.0233996 -0.2083 0.34928 0 0 -1
-0.376309 -0.202873 0.34928 0 0 -1
0.0924506 0.0692719 0.0948153 -0.991437 -0.129161 0.0192328
-0.113644 -0.303447 0.361916 0 0 1
-0.041178 0.147047 0.345235 0 0 -1
0.330862 0.117286 0.361916 0 0 1
-0.29317 -0.154139 0.361916 0 0 1
0.461547 -0.0168327 0.363216 -0.998385 0.0568021 0
-0.0600537 -0.130278 0.361916 0 0 1
-0.184733 0.215237 0.361916 0 0 1
0.246249 0.310903 0.34928 0 0 -1
0.378413 0.0929926 0.34928 0 0 -1
0.0524207 -0.105095 0.0693018 -0.00706841 -0.999739 0.0217362
-0.0922233 0.445335 0.361916 0 0 1
-0.10225 -0.103378 0.0667221 0 0 1
-0.22183 -0.265584 0.361916 0 0 1
-0.0478175 0.169993 0.34928 0 0 -1
-0.0757819 -0.223321 0.34928 0 0 -1
-0.175441 0.181892 0.060771 0.667808 0.60718 -0.430541
0.240873 -0.0648071 0.361916 0 0 1
-0.0918991 0.0727767 0.0701766 0.999786 -0.00721816 0.0193773
0.430159 -0.0660042 0.361916 0 0 1
0.22109 -0.352897 0.34928 0 0 -1
0.0831002 0.0899047 0.361916 0 0 1
-0.0516629 -0.214862 0.361916 0 0 1
-0.214892 0.348017 0.361916 0 0 1
0.267284 -0.248703 0.34928 0 0 -1
0.00144628 0.0192991 0.361916 0 0 1
-0.385592 0.14463 0.34928 0 0 -1
0.0856829 -0.0930647 0.108861 -0.92381 0.382851 0
-0.122745 -0.377385 0.361916 0 0 1
0.113645 -0.0987744 0.237103 0.923817 -0.382834 0
-0.0531598 -0.106545 0.361916 0 0 1
-0.0835457 -0.0982216 0.246518 0.923807 0.382858 0
0.212145 0.0952073 0.34928 0 0 -1
0.267827 0.263376 0.361916 0 0 1
-0.00716348 -0.163722 0.34928 0 0 -1
-0.294866 0.200214 0.361916 0 0 1
0.0114185 0.32976 0.361916 0 0 1
0.118394 0.125595 0.0698901 -0.674199 0.600853 -0.429455
0.407636 0.213309 0.361126 -0.889718 -0.456511 0
-0.105363 0.231556 0.34928 0 0 -1
-0.142822 0.444289 0.35483 -0.248628 0.968599 0
-0.135671 0.376762 0.361916 0 0 1
0.348182 -0.00953936 0.361916 0 0 1
0.146542 -0.128933 0.361916 0 0 1
-0.461374 -0.0198733 0.360906 0.998385 0.0568021 0
-0.229151 -0.041764 0.361916 0 0 1
0.109276 0.135546 0.361916 0 0 1
0.0223358 -0.300235 0.34928 0 0 -1
-0.227845 -0.331162 0.361916 0 0 1
-0.181747 -0.0488546 0.361916 0 0 1
-0.263681 -0.250853 0.34928 0 0 -1
0.0537458 0.121814 0.361916 0 0 1
-0.0872297 0.452388 0.358644 0.148752 -0.988874 0
0.45131 -0.0449005 0.361916 0 0 1
0.0821277 -0.0816118 0.361916 0 0 1
0.104327 -0.217363 0.361916 0 0 1
-0.221119 0.146301 0.361916 0 0 1
-0.144334 0.250382 0.34928 0 0 -1
0.249946 -0.156747 0.361916 0 0 1
0.100816 -0.0842244 0.337328 0.381171 0.924504 0.0011899
0.12749 -0.0752219 0.34928 0 0 -1
0.329942 -0.0944236 0.361916 0 0 1
-0.215625 0.264047 0.34928 0 0 -1
-0.104692 0.104856 0.0667221 0 0 1
-0.228118 0.0783086 0.34928 0 0 -1
0.343609 -0.191233 0.361916 0 0 1
0.157781 0.401578 0.361916 0 0 1
-0.0352359 0.437163 0.34928 0 0 -1
-0.116769 0.0791982 0.34928 0 0 -1
-0.0497093 -0.35636 0.361916 0 0 1
-0.154892 -0.217857 0.361916 0 0 1
-0.467503 -0.000977203 0.356447 -0.998387 -0.0567834 0
0.0138591 0.151647 0.34928 0 0 -1
0.0375823 -0.197897 0.361916 0 0 1
0.176389 0.250002 0.361916 0 0 1
0.437314 -0.0417345 0.34928 0 0 -1
-0.174792 0.191109 0.361916 0 0 1
-0.21847 -0.405704 0.361916 0 0 1
-0.0908395 -0.299186 0.34928 0 0 -1
0.141238 0.258561 0.34928 0 0 -1
-0.0466923 -0.302465 0.361916 0 0 1
0.38469 -0.255281 0.360006 0.844323 -0.535835 0
-0.13365 0.364388 0.361916 0 0 1
-0.0772662 -0.0665943 0.344689 -0.577007 0.725377 -0.375354
0.0335657 0.345626 0.34928 0 0 -1
0.121717 0.155486 0.361916 0 0 1
0.0378647 -0.140759 0.361916 0 0 1
0.0450878 -0.417038 0.361916 0 0 1
-0.0910633 0.00108068 0.361916 0 0 1
0.331259 -0.158691 0.361916 0 0 1
-0.104986 0.402957 0.34928 0 0 -1
-0.112749 -0.0961975 0.264098 -0.923813 0.382843 0
0.462311 0.00341359 0.352296 -0.998385 -0.0568021 0
-0.0387803 0.35276 0.34928 0 0 -1
-0.0485864 0.212056 0.361916 0 0 1
0.305841 0.215313 0.34928 0 0 -1
-0.335797 0.218019 0.361916 0 0 1
-0.144685 0.101561 0.361916 0 0 1
-0.137003 -0.131826 0.34928 0 0 -1
-0.112224 0.102204 0.164717 -0.923817 0.382834 0
0.116112 0.124492 0.0870338 -0.689787 0.722106 0.0525111
-0.0948568 -0.112193 0.236887 0.382849 -0.923811 0
-0.292712 0.0465784 0.34928 0 0 -1
-0.00988426 0.465146 0.359421 -0.0424652 0.857692 0.512408
-0.319168 0.154149 0.34928 0 0 -1
0.0658656 -0.00104986 0.361916 0 0 1
-0.293649 0.275502 0.361916 0 0 1
0.253347 -0.0281343 0.34928 0 0 -1
-0.319236 0.171158 0.34928 0 0 -1
0.234398 -0.0324716 0.34928 0 0 -1
0.310127 0.25641 0.361916 0 0 1
0.133876 0.0582958 0.34928 0 0 -1
-0.0565837 0.135676 0.339074 0.725892 -0.57933 -0.370752
0.0867101 0.220069 0.361916 0 0 1
0.261034 0.361507 0.361916 0 0 1
0.0575098 -0.111266 0.361916 0 0 1
-0.362864 0.146194 0.34928 0 0 -1
-0.371417 -0.151634 0.361916 0 0 1
-0.0732912 -0.355535 0.361916 0 0 1
0.119449 0.165714 0.34928 0 0 -1
-0.376434 -0.0651063 0.361916 0 0 1
0.154007 0.150325 0.0928239 0.664358 -0.492049 0.562598
0.333224 -0.0230939 0.34928 0 0 -1
-0.135493 0.141981 0.361916 0 0 1
0.250184 -0.326585 0.361916 0 0 1
0.459036 0.019086 0.34928 0 0 -1
-0.324314 0.0671327 0.361916 0 0 1
-0.0610632 0.308755 0.34928 0 0 -1
0.121302 0.313127 0.34928 0 0 -1
-0.110758 0.105776 0.361916 0 0 1
0.449502 -0.112933 0.351073 0.561078 -0.156694 -0.812797
0.0965448 -0.0945476 0.0667221 0 0 1
0.0782229 -0.0961463 0.361916 0 0 1
-0.0660601 0.377671 0.34928 0 0 -1
-0.023734 0.101759 0.0990721 0 0 1
-0.100089 0.0840332 0.183904 -0.38284 -0.923815 0
-0.267725 0.30269 0.361916 0 0 1
-0.129686 -0.0357451 0.361916 0 0 1
0.245158 0.117294 0.34928 0 0 -1
0.0277532 -0.46159 0.353025 0 -1 0
0.0290864 -0.0684288 0.34928 0 0 -1
-0.174672 0.0970016 0.34928 0 0 -1
-0.0738545 -0.39865 0.361916 0 0 1
-0.0979855 -0.301052 0.34928 0 0 -1
0.457659 -0.0108415 0.361916 0 0 1
-0.0118158 0.103519 0.0990721 0 0 1
0.166051 0.158699 0.345235 0 0 -1
0.060046 0.0285875 0.34928 0 0 -1
-0.0883473 -0.109496 0.11505 0.382849 -0.923811 0
-0.181718 -0.203085 0.34928 0 0 -1
-0.327099 0.140008 0.34928 0 0 -1
0.363307 0.280427 0.361916 0 0 1
-0.374271 -0.233776 0.361916 0 0 1
0.383289 0.240262 0.361916 0 0 1
0.0339105 -0.024595 0.34928 0 0 -1
0.0844028 0.340298 0.34928 0 0 -1
0.307465 -0.231373 0.34928 0 0 -1
-0.410826 0.0133127 0.34928 0 0 -1
-0.163897 -0.00595358 0.361916 0 0 1
0.0678525 -0.384912 0.361916 0 0 1
0.348398 0.189506 0.34928 0 0 -1
-0.266446 -0.104997 0.361916 0 0 1
0.0685647 0.0589471 0.345235 0 0 -1
-0.0566729 -0.104967 0.0765639 0.0070683 -0.999739 0.0217362
0.250338 0.388023 0.351789 -0.548375 -0.836232 0
-0.387741 0.166171 0.361916 0 0 1
-0.357413 0.29013 0.362025 0.781975 -0.62331 0
-0.359946 0.27737 0.34928 0 0 -1
0.393087 -0.0293949 0.361916 0 0 1
0.273517 -0.0628849 0.361916 0 0 1
-0.12153 0.127532 0.067722 0.667915 0.607432 -0.43002
0.317718 -0.26868 0.361916 0 0 1
-0.102514 0.082619 0.339633 0.577054 -0.725395 -0.375247
-0.323673 -0.0937412 0.361916 0 0 1
0.0883562 -0.114466 0.34928 0 0 -1
-0.0924764 0.0601972 0.0793331 0.999026 -0.00704833 0.0435671
0.349275 0.240819 0.34928 0 0 -1
-0.293804 0.330139 0.361916 0 0 1
-0.13701 0.144769 0.0851138 0.69359 0.718453 0.0525167
0.266867 -0.258481 0.0131543 0 0.994634 0.103455
0.193226 0.323557 0.34928 0 0 -1
-0.314346 -0.174934 0.361916 0 0 1
0.411305 -0.173077 0.34928 0 0 -1
-0.254261 -0.1379 0.361916 0 0 1
0.095803 0.0645328 0.0667221 0 0 1
0.0951405 0.0535097 0.34928 0 0 -1
-0.157498 -0.434069 0.34928 0 0 -1
0.0349075 -0.32433 0.361916 0 0 1
-0.148371 -0.251793 0.34928 0 0 -1
-0.297665 0.118164 0.361916 0 0 1
0.0969871 -0.0472823 0.361916 0 0 1
-0.0126313 -0.194384 0.361916 0 0 1
0.311965 -0.275307 0.34928 0 0 -1
-0.00742439 -0.0919955 0.098213 0 1 0
0.410877 0.077406 0.361916 0 0 1
-0.105138 -0.00806769 0.0787482 -1 0 0
0.0853739 -0.103323 0.268544 -0.923814 -0.382842 0
-0.13312 -0.0469868 0.34928 0 0 -1
-0.418734 0.150581 0.361916 0 0 1
-0.169937 0.176957 0.0796368 0.69359 0.718453 0.0525167
0.435735 0.143895 0.361916 0 0 1
-0.158432 -0.126115 0.361916 0 0 1
-0.0490001 0.133714 0.345235 0 0 -1
0.136523 0.306275 0.361916 0 0 1
0.110314 0.0903216 0.139494 0.923813 -0.382843 0
0.464224 0.00562936 0.362987 0.58105 0.0330582 0.813196
0.342518 0.178112 0.361916 0 0 1
0.045831 0.459469 0.353388 0.125323 0.992116 0
0.213458 -0.219215 0.0710296 -0.492582 -0.664679 0.561751
-0.0861052 0.09102 0.328125 0.725384 0.577005 -0.375344
-0.204711 -0.279896 0.34928 0 0 -1
0.310798 -0.147912 0.361916 0 0 1
-0.33732 -0.243314 0.34928 0 0 -1
-0.00892304 -0.0422621 0.361916 0 0 1
-0.233033 0.352315 0.361916 0 0 1
0.396073 0.152661 0.361916 0 0 1
-0.264097 0.122967 0.361916 0 0 1
-0.00929628 -0.165772 0.34928 0 0 -1
0.148256 -0.232391 0.34928 0 0 -1
-0.108792 0.288892 0.361916 0 0 1
0.283151 -0.115565 0.34928 0 0 -1
0.140791 -0.119823 0.346986 0.75488 0.655863 0
-0.169496 0.187738 0.361916 0 0 1
0.0323954 -0.102388 0.0662164 0 0 -1
0.290939 0.0835805 0.361916 0 0 1
0.0882416 0.184422 0.34928 0 0 -1
-0.139519 0.290721 0.34928 0 0 -1
-0.0107236 -0.264833 0.361916 0 0 1
0.0311644 0.364084 0.361916 0 0 1
-0.300839 -0.171954 0.361916 0 0 1
-0.0342769 0.373885 0.34928 0 0 -1
0.089449 -0.2632 0.361916 0 0 1
0.155758 -0.418599 0.34928 0 0 -1
0.263006 -0.230496 0.34928 0 0 -1
-0.297559 -0.225562 0.361916 0 0 1
-0.197074 -0.313897 0.361916 0 0 1
0.346374 0.118128 0.34928 0 0 -1
-0.171334 0.168177 0.0879414 -0.146633 0.146682 0.978255
0.0924495 -0.0590359 0.0795942 -0.994455 -0.102917 0.0216228
-0.154773 -0.350379 0.34928 0 0 -1
0.0326861 -0.329303 0.361916 0 0 1
-0.203211 -0.276063 0.361916 0 0 1
0.0840273 -0.0605467 0.361916 0 0 1
0.0137996 -0.34906 0.34928 0 0 -1
0.0707505 -0.0554392 0.345235 0 0 -1
-0.260756 0.0266647 0.361916 0 0 1
-0.231341 -0.389835 0.34928 0 0 -1
0.0828811 0.248906 0.361916 0 0 1
0.170591 -0.163177 0.0775084 0.718453 0.69359 0.0525171
-0.161729 -0.306449 0.34928 0 0 -1
-0.223933 0.202181 0.34928 0 0 -1
0.105138 -0.0474699 0.0785285 1 0 0
0.148728 0.0512358 0.34079 0.725368 0.576947 -0.375463
-0.258057 0.263632 0 0 0 -1
0.391088 0.18414 0.34928 0 0 -1
-0.100838 0.318875 0.34928 0 0 -1
-0.0729049 -0.354618 0.34928 0 0 -1
0.0343625 0.463953 0.355643 0.0494492 0.998777 0
-0.189562 -0.047973 0.361916 0 0 1
-0.136671 0.329917 0.361916 0 0 1
-0.142636 -0.0480975 0.361916 0 0 1
-0.419737 0.0802504 0.34928 0 0 -1
0.121077 -0.307841 0.34928 0 0 -1
0.328507 0.0130944 0.361916 0 0 1
0.0927489 0.0854593 0.312071 -0.382318 -0.924031 0
0.0829427 -0.0917427 0.0859711 0 1 0
0.219695 0.235273 0.361916 0 0 1
0.0738106 0.400057 0.34928 0 0 -1
-0.113649 0.264239 0.361916 0 0 1
-0.291844 0.358521 0.360726 -0.587791 0.809013 0
-0.17111 -0.106558 0.361916 0 0 1
-0.0945209 0.0293723 0.0662164 0 0 -1
-0.179064 0.387785 0.34928 0 0 -1
-0.300509 0.288366 0.34928 0 0 -1
0.180982 -0.193871 0.361916 0 0 1
0.0316871 -0.0266518 0.361916 0 0 1
-0.299797 -0.198467 0.34928 0 0 -1
-0.193068 -0.227833 0.361916 0 0 1
-0.365977 0.168864 0.361916 0 0 1
0.344301 -0.281467 0.361916 0 0 1
-0.0544142 -0.419003 0.34928 0 0 -1
-0.0812129 0.122824 0.336809 -0.576947 0.725365 -0.375469
0.223542 -0.357562 0.34928 0 0 -1
-0.386201 0.0060498 0.361916 0 0 1
-0.326559 0.220344 0.361916 0 0 1
0.177654 -0.0980047 0.361916 0 0 1
-0.0727446 0.182847 0.34928 0 0 -1
-0.0094389 -0.286085 0.34928 0 0 -1
0.2055 0.279645 0.34928 0 0 -1
0.378148 0.0471034 0.34928 0 0 -1
0.0953777 -0.411581 0.361916 0 0 1
-0.0597475 0.00115122 0.34928 0 0 -1
-0.0227804 0.162607 0.361916 0 0 1
-0.277902 -0.0436154 0.361916 0 0 1
-0.212684 -0.143693 0.34928 0 0 -1
0.0146715 0.103491 0.34928 0 0 -1
0.112684 -0.444111 0.361916 0 0 1
0.165039 -0.0486153 0.34928 0 0 -1
0.173501 0.0650641 0.361916 0 0 1
-0.125787 0.444268 0.360976 -0.248642 0.968596 0
0.0602682 0.0924768 0.0793561 -0.00712799 -0.999025 0.0435607
0.0594655 0.326106 0.34928 0 0 -1
0.212851 0.217634 0.345235 0 0 -1
0.273936 -0.139309 0.34928 0 0 -1
0.327194 -0.110369 0.361916 0 0 1
0.107338 -0.0870373 0.156051 0.382843 0.923813 0
-0.116723 0.2441 0.361916 0 0 1
0.255837 -0.268164 0.361916 0 0 1
-0.207962 -0.0949015 0.361916 0 0 1
-0.263042 0.260752 0.0274319 0.704013 -0.702628 0.103341
-0.250328 -0.339667 0.361916 0 0 1
-0.0970623 0.0773085 0.361916 0 0 1
0.0756612 -0.409899 0.361916 0 0 1
-0.163231 0.0469035 0.34928 0 0 -1
-0.23552 -0.339521 0.361916 0 0 1
-0.391022 -0.245304 0.355313 -0.844331 -0.535822 0
0.388797 -0.0883448 0.34928 0 0 -1
0.121933 0.0870893 0.34928 0 0 -1
-0.0979627 -0.0836528 0.160948 0.382849 0.923811 0
-0.244562 -0.214933 0.361916 0 0 1
0.0241969 0.156097 0.34928 0 0 -1
-0.14795 0.437216 0.352031 0.349176 -0.937057 0
-0.0941041 -0.0272933 0.0662164 0 0 -1
0.223683 0.07701 0.34928 0 0 -1
-0.328991 0.269034 0.34928 0 0 -1
0.0741168 -0.144358 0.361916 0 0 1
-0.18861 0.118318 0.34928 0 0 -1
0.0871488 -0.292718 0.34928 0 0 -1
0.378314 -0.0712279 0.361916 0 0 1
-0.0446309 -0.0980896 0.361916 0 0 1
0.0837395 0.394483 0.361916 0 0 1
0.104132 -0.166705 0.361916 0 0 1
-0.267868 -0.0303102 0.361916 0 0 1
0.391384 0.0921678 0.34928 0 0 -1
0.111015 0.105121 0.302476 0.923817 0.382834 0
-0.12017 0.121194 0.103986 -0.338148 0.33823 0.878212
0.177118 -0.0884237 0.361916 0 0 1
0.0948556 -0.0164196 0.361916 0 0 1
-0.233042 0.0634608 0.34928 0 0 -1
-0.335717 0.102157 0.34928 0 0 -1
-0.121181 -0.10821 0.34928 0 0 -1
-0.402622 0.173474 0.361916 0 0 1
-0.115679 0.372505 0.361916 0 0 1
-0.0665191 -0.24578 0.34928 0 0 -1
0.0490406 -0.278177 0.361916 0 0 1
0.047269 0.173036 0.34928 0 0 -1
0.0127607 0.102853 0.0662164 0 0 -1
-0.068217 0.339418 0.34928 0 0 -1
-0.297416 -0.300727 0.361916 0 0 1
0.152692 0.385747 0.34928 0 0 -1
0.288354 0.159776 0.34928 0 0 -1
0.121042 -0.358813 0.34928 0 0 -1
-0.0785958 0.389526 0.34928 0 0 -1
0.28695 -0.264204 0.34928 0 0 -1
0.212495 0.0374446 0.34928 0 0 -1
0.165718 0.168594 0.339616 -0.603197 0.700066 -0.38218
0.204394 -0.194585 0.345235 0 0 -1
-0.326934 0.160752 0.34928 0 0 -1
0.0607183 -0.0165874 0.361916 0 0 1
0.157191 -0.0676983 0.34928 0 0 -1
-0.368589 0.270462 0.34928 0 0 -1
0.16699 0.323579 0.34928 0 0 -1
0.303264 -0.0490148 0.361916 0 0 1
0.314288 0.0244843 0.361916 0 0 1
0.373139 0.184734 0.361916 0 0 1
0.112981 -0.100376 0.266892 0.923817 -0.382834 0
0.0851756 -0.128771 0.361916 0 0 1
-0.23184 -0.00926279 0.34928 0 0 -1
0.0831303 -0.0980592 0.111623 -0.186484 0 0.982458
-0.312761 -0.300762 0.361916 0 0 1
0.0956879 -0.0845956 0.258641 -0.382846 0.923812 0
-0.43747 0.152409 0.362595 -0.542889 0.213199 0.812292
-0.156933 0.115522 0.361916 0 0 1
0.211249 -0.232593 0.361916 0 0 1
-0.273942 0.263174 0.34928 0 0 -1
0.0874404 0.088824 0.28806 -0.92381 -0.382851 0
0.176241 0.370197 0.361916 0 0 1
0.134587 -0.224625 0.361916 0 0 1
-0.271376 -0.304055 0.34928 0 0 -1
0.194785 0.321672 0.361916 0 0 1
0.0257124 -0.129603 0.361916 0 0 1
-0.268645 0.0286156 0.34928 0 0 -1
-0.0919959 0.0395311 0.091273 1 0 0
0.0807688 -0.0018095 0.361916 0 0 1
0.341504 -0.160309 0.361916 0 0 1
-0.162249 0.323554 0.34928 0 0 -1
0.143626 0.169108 0.361916 0 0 1
0.156443 -0.345253 0.361916 0 0 1
0.108536 -0.0395208 0.361916 0 0 1
-0.286698 0.189598 0.361916 0 0 1
0.266522 -0.249619 0.361916 0 0 1
0.0976139 -0.050547 0.0861184 0 -1 0
0.286755 0.0961018 0.361916 0 0 1
0.163593 0.420076 0.34928 0 0 -1
-0.0810005 0.41361 0.361916 0 0 1
0.0534139 0.137973 0.341561 -0.725394 -0.577054 -0.37525
0.138456 0.255662 0.34928 0 0 -1
-0.381455 -0.0399481 0.361916 0 0 1
-0.297447 -0.0206516 0.34928 0 0 -1
0.370885 -0.0586738 0.34928 0 0 -1
0.335346 -0.102447 0.361916 0 0 1
0.222892 0.164053 0.361916 0 0 1
0.46491 0.0349932 0.360487 0.856666 0.048741 0.513563
0.0428505 0.0919955 0.0746773 0 -1 0
0.0874135 -0.00216675 0.34928 0 0 -1
0.308498 0.254655 0.34928 0 0 -1
-0.35974 -0.1349 0.361916 0 0 1
-0.131899 -0.203254 0.34928 0 0 -1
0.0425345 -0.333488 0.361916 0 0 1
-0.32963 0.20499 0.34928 0 0 -1
-0.0324801 0.0212869 0.345661 -0.619107 -0.785306 0
-0.111361 -0.0928468 0.14826 -0.923813 0.382843 0
0.285142 -0.349831 0.34928 0 0 -1
0.00958634 -0.388599 0.34928 0 0 -1
0.231067 0.269103 0.34928 0 0 -1
0.00287436 0.179292 0.361916 0 0 1
0.446196 0.113766 0.34928 0 0 -1
-0.00954025 0.136234 0.361916 0 0 1
-0.241438 0.0422682 0.34928 0 0 -1
-0.010179 0.426476 0.34928 0 0 -1
-0.344224 -0.190154 0.361916 0 0 1
-0.126265 -0.163529 0.34928 0 0 -1
-0.180957 -0.18905 0.0623027 0.667922 -0.60739 -0.430066
-0.0843852 0.0961958 0.16505 0.923807 -0.382858 0
0.0739864 0.0467997 0.34928 0 0 -1
0.410997 -0.167697 0.34928 0 0 -1
0.220629 -0.368737 0.34928 0 0 -1
-0.236144 -0.118359 0.361916 0 0 1
0.0952999 0.0892469 0.34928 0 0 -1
0.209489 -0.282193 0.361916 0 0 1
0.196725 -0.118757 0.34928 0 0 -1
0.136997 -0.289717 0.361916 0 0 1
-0.257989 0.360673 0.34928 0 0 -1
0.0862455 0.0917071 0.299468 -0.92381 -0.382851 0
-0.115152 -0.446998 0.353881 -0.248642 -0.968596 0
-0.200797 -0.202706 0.345235 0 0 -1
-0.223234 -0.292035 0.361916 0 0 1
-0.105611 -0.0502177 0.34928 0 0 -1
-0.0410195 0.0483387 0.361916 0 0 1
0.143506 -0.235443 0.361916 0 0 1
0.104305 0.262129 0.361916 0 0 1
-0.337799 0.313667 0.354861 0.714498 -0.699638 0
0.0307159 -0.181503 0.34928 0 0 -1
-0.188444 -0.13075 0.361916 0 0 1
0.035832 0.0415709 0.361916 0 0 1
0.326615 -0.326501 0.358571 0.684523 -0.728992 0
0.0947883 0.188437 0.34928 0 0 -1
-0.207894 0.124999 0.361916 0 0 1
0.108453 -0.0874995 0.0789817 0.382843 0.923813 0
0.0720801 0.244367 0.34928 0 0 -1
-0.0845082 0.209423 0.34928 0 0 -1
0.254781 0.199245 0.361916 0 0 1
0.107903 0.0872715 0.0741665 0.382843 -0.923813 0
0.0909806 -0.331003 0.34928 0 0 -1
-0.172702 -0.182137 0.34928 0 0 -1
-0.261671 0.376667 0.361916 0 0 1
0.221018 0.0288349 0.34928 0 0 -1
-0.0774749 0.283731 0.361916 0 0 1
