-0.199986 -0.285878 0.548697 0 0 1
-0.0879467 0.0987369 0.12263 0.693587 0.718455 0.0525275
0.00893334 0.397605 0.52988 0 0 -1
0.354269 0.139129 0.548697 0 0 1
-0.129194 -0.0881594 0.548697 0 0 1
-0.107894 -0.398128 0.533511 0.248656 0.968592 0
-0.222302 -0.236758 0.52988 0 0 -1
-0.24434 -0.212902 0.548697 0 0 1
-0.252917 -0.0956086 0.548697 0 0 1
-0.406071 0.0753391 0.53168 0.986097 -0.166172 0
-0.0685918 0.0755911 0.13903 0.492492 0.66464 0.561877
0.0142665 -0.0986247 0.548697 0 0 1
0.218272 0.254535 0.548697 0 0 1
-0.412458 -0.0239911 0.53631 -0.998023 -0.0628461 0
0.0370978 0.0486996 0.135598 -0.69359 0.718454 0.0525014
0.329694 -0.0988606 0.548697 0 0 1
-0.155716 0.372335 0.548697 0 0 1
-0.054797 -0.368157 0.52988 0 0 -1
-0.238068 0.259934 0.548697 0 0 1
-0.0012027 -0.35761 0.548697 0 0 1
-0.307125 -0.217368 0.548697 0 0 1
0.0709799 0.329171 0.52988 0 0 -1
0.154812 -0.164975 0.52988 0 0 -1
-0.0215873 0.0023938 0.137948 -0.923833 0.382795 0
-0.400626 -0.0988508 0.552177 0.963131 0.269032 0
0.411243 0.0860959 0.545975 0.846168 0.142541 0.5135
-0.030273 0.351783 0.52988 0 0 -1
0.00934256 0.0237111 0.123831 -0.707108 0.707106 0
-0.25693 -0.194246 0.52988 0 0 -1
-0.101774 0.113744 0.0956028 0.66782 0.607132 -0.43059
0.292766 -0.157345 0.548697 0 0 1
0.218202 -0.0794144 0.52988 0 0 -1
-0.083051 0.408931 0.549079 -0.0866679 0.57623 0.812679
-0.0458067 0.0141512 0.548697 0 0 1
-0.197061 0.290655 0.52988 0 0 -1
0.0451359 0.337351 0.52988 0 0 -1
-0.0661483 0.0890064 0.523859 0 0 -1
0.112803 0.296509 0.52988 0 0 -1
-0.149854 -0.392211 0.536403 -0.299731 -0.80407 -0.513451
-0.356425 0.207102 0.534306 0.840242 -0.542211 0
-0.0734425 -0.0992361 0.526576 0.655845 -0.754896 0
-0.209113 -0.281779 0.52988 0 0 -1
-0.357631 0.0992295 0.52988 0 0 -1
0.177295 0.231346 0.548697 0 0 1
0.0823962 -0.402319 0.52988 0 0 -1
0.100155 -0.254238 0.548697 0 0 1
0.230299 0.150743 0.548697 0 0 1
0.178555 0.0830478 0.548697 0 0 1
-0.0604444 -0.0343521 0.523859 0 0 -1
-0.233207 -0.123379 0.52988 0 0 -1
-0.102186 -0.214702 0.52988 0 0 -1
-0.290609 0.2266 0.52988 0 0 -1
-0.0782484 -0.390259 0.548697 0 0 1
-0.0741059 0.0709356 0.548697 0 0 1
0.140277 -0.218795 0.548697 0 0 1
0.0869082 0.309274 0.52988 0 0 -1
-0.00176002 0.335723 0.548697 0 0 1
-0.0218004 -0.41651 0.533744 -0.0424573 -0.85762 -0.512528
0.412746 -0.0194167 0.545574 0.998023 -0.0628461 0
-0.134271 0.143478 0.1163 0.492297 0.664522 0.562187
0.37191 0.188398 0.533559 0.518897 0.266229 -0.812323
-0.0838992 0.287241 0.52988 0 0 -1
-0.222487 -0.115106 0.548697 0 0 1
-0.374344 0.116337 0.52988 0 0 -1
-0.0812744 0.0704778 0.520128 -0.700909 -0.605256 -0.377348
-0.156836 0.165792 0.109682 0.492717 0.664793 0.561498
-0.0155782 0.0161242 0.126117 -0.382834 0.923817 0
0.0338513 -0.204055 0.548697 0 0 1
-0.18497 0.369778 0.540009 -0.481755 0.876306 0
0.129936 0.21963 0.52988 0 0 -1
-0.0198164 -0.00666772 0.386376 -0.923833 -0.382795 0
0.109591 -0.201809 0.548697 0 0 1
0.219032 -0.260436 0.548697 0 0 1
0.140247 -0.139961 0.518219 0.700906 0.605248 -0.377368
0.136616 0.34864 0.52988 0 0 -1
-0.122388 0.110636 0.52988 0 0 -1
0.0599797 0.000773795 0.52988 0 0 -1
0.147348 0.0222436 0.548697 0 0 1
-0.290648 0.111052 0.52988 0 0 -1
-0.0762912 -0.07781 0.139631 -0.146675 -0.146643 0.978255
-0.108424 0.108938 0.510633 0.603205 0.700067 -0.382164
0.125904 0.134994 0.0881436 -0.667808 0.6071 -0.430654
0.182538 -0.225989 0.52988 0 0 -1
0.254435 0.281226 0.548697 0 0 1
0.211674 -0.349805 0.52988 0 0 -1
-0.285817 -0.00819903 0.548697 0 0 1
0.174666 -0.180208 0.548697 0 0 1
0.0905077 -0.138182 0.52988 0 0 -1
-0.420819 0.0119001 0.53753 -0.998392 0.0566882 0
0.0940725 0.0917852 0.090222 -0.0765907 -0.0765999 -0.994116
-0.00186749 -0.0218059 0.188106 -0.382834 -0.923817 0
-0.343595 -0.216706 0.52988 0 0 -1
-0.107251 -0.398293 0.547963 0.248656 0.968592 0
0.0853597 -0.0791309 0.52988 0 0 -1
-0.343445 0.181259 0.52988 0 0 -1
-0.259701 -0.251716 0.00332183 -0.78692 0 0.617056
-0.249354 0.232716 0.548697 0 0 1
-0.0974088 -0.262862 0.548697 0 0 1
0.249224 0.0173676 0.52988 0 0 -1
0.134691 0.234987 0.52988 0 0 -1
-0.155383 0.309746 0.548697 0 0 1
0.147485 0.253424 0.548697 0 0 1
-0.0811721 0.0782863 0.507414 -0.700909 -0.605256 -0.377348
-0.11469 0.198863 0.548697 0 0 1
-0.400679 0.0897739 0.548697 0 0 1
0.344388 -0.0130597 0.548697 0 0 1
0.340279 0.182219 0.548697 0 0 1
0.0758478 -0.405247 0.533187 -0.148769 0.988872 0
0.309822 0.0632069 0.52988 0 0 -1
-0.0496714 -0.0377235 0.130559 -0.718453 0.693589 0.0525279
-0.382081 -0.0228617 0.52988 0 0 -1
0.274141 -0.0679909 0.548697 0 0 1
0.0559336 -0.0476178 0.509725 0.700906 0.605248 -0.377368
-0.193036 0.213084 0.548697 0 0 1
0.365431 -0.132474 0.548697 0 0 1
-0.367349 0.157168 0.52988 0 0 -1
0.051376 0.0505519 0.548697 0 0 1
0.18043 0.31741 0.548697 0 0 1
0.0291564 -0.291239 0.52988 0 0 -1
-0.0398167 0.0346826 0.500537 -0.700909 -0.605256 -0.377348
0.0176655 -0.0118596 0.337839 0.923807 -0.382859 0
0.158675 0.0870699 0.52988 0 0 -1
0.386859 0.102467 0.548697 0 0 1
0.187474 0.0443597 0.548697 0 0 1
0.355545 -0.177632 0.52988 0 0 -1
-0.250382 0.338166 0.545389 -0.546733 0.661878 0.512836
0.33885 0.160709 0.548697 0 0 1
-0.0174886 0.12043 0.548697 0 0 1
-0.0155837 0.19497 0.52988 0 0 -1
-0.138842 0.2191 0.52988 0 0 -1
-0.380183 -0.159073 0.537821 0.930804 0.365519 0
0.177333 -0.114229 0.548697 0 0 1
0.0751898 -0.29281 0.548697 0 0 1
-0.0890165 -0.0767986 0.108371 -0.718453 0.693589 0.0525279
0.228302 -0.0766049 0.548697 0 0 1
-0.0369177 -0.246227 0.548697 0 0 1
-0.122595 0.209154 0.548697 0 0 1
-0.176321 -0.119315 0.548697 0 0 1
0.279761 -0.211963 0.52988 0 0 -1
0.279453 -0.0738719 0.548697 0 0 1
0.110632 -0.0624357 0.548697 0 0 1
-0.160026 0.231901 0.52988 0 0 -1
-0.287699 0.134894 0.548697 0 0 1
0.013888 -0.0282566 0.110656 -0.707107 -0.707106 0
-0.0362093 -0.0476867 0.137724 0.693587 -0.718455 0.0525277
0.0240303 -0.0287978 0.161206 0.435507 -0.435513 0.787821
0.111175 -0.237523 0.548697 0 0 1
-0.126575 -0.131105 0.522706 0.605253 -0.7009 -0.377368
-0.0128199 -0.060427 0.52988 0 0 -1
0.36451 0.183327 0.52988 0 0 -1
-0.00172662 -0.374229 0.52988 0 0 -1
-0.222687 0.213265 0.0865318 -0.717662 -0.686308 0.118082
0.0857557 0.355693 0.548697 0 0 1
-0.191866 0.366123 0.547681 0.450038 -0.893009 0
-0.21537 -0.1629 0.52988 0 0 -1
0.208292 -0.151326 0.548697 0 0 1
0.0656701 -0.2192 0.548697 0 0 1
0.28732 -0.197451 0.52988 0 0 -1
0.295104 0.134803 0.52988 0 0 -1
-0.184117 0.00902555 0.52988 0 0 -1
0.000660887 0.0223065 0.35747 0.382861 0.923806 0
0.0197937 -0.411301 0.532698 -0.0495427 0.998772 0
-0.0283952 -0.0569254 0.523859 0 0 -1
0.099542 0.129998 0.52988 0 0 -1
-0.100755 0.264294 0.52988 0 0 -1
0.0899145 -0.101217 0.114682 -0.69359 -0.718454 0.0525015
0.0875469 -0.373234 0.52988 0 0 -1
0.0275069 0.383624 0.548697 0 0 1
0.0117025 0.32858 0.52988 0 0 -1
0.102652 -0.251029 0.548697 0 0 1
0.113765 0.116333 0.52988 0 0 -1
0.338003 0.000280704 0.52988 0 0 -1
0.327991 0.219548 0.548697 0 0 1
-0.115366 -0.126264 0.108176 0.693587 -0.718455 0.0525277
-0.149524 -0.152437 0.52988 0 0 -1
-0.225307 -0.0019866 0.52988 0 0 -1
0.176351 0.233037 0.548697 0 0 1
-0.11833 -0.19748 0.548697 0 0 1
0.194934 -0.294469 0.52988 0 0 -1
0.406154 -0.0757297 0.536377 0.982297 -0.187329 0
-0.211929 0.147272 0.548697 0 0 1
0.419234 -0.0398214 0.53871 0.998392 -0.0566882 0
0.275469 -0.223987 0.52988 0 0 -1
-0.355709 0.187472 0.548697 0 0 1
0.0481747 -0.25323 0.52988 0 0 -1
-0.327648 0.216901 0.548697 0 0 1
0.157129 -0.331972 0.52988 0 0 -1
0.0533707 -0.408629 0.539348 -0.148769 0.988872 0
0.171931 0.256989 0.548697 0 0 1
-0.326082 0.251937 0.529958 0.782046 -0.623221 0
-0.00280276 -0.141226 0.52988 0 0 -1
0.325671 0.194339 0.52988 0 0 -1
-0.0883544 0.138279 0.548697 0 0 1
0.0894093 0.399083 0.52988 0 0 -1
0.133648 0.122819 0.1056 0.718456 -0.693586 0.0525279
-0.0651739 0.413243 0.535442 -0.127774 0.849534 -0.511826
0.189206 0.243905 0.548697 0 0 1
-0.0235519 -0.141041 0.548697 0 0 1
0.233784 0.320229 0.52988 0 0 -1
0.0846159 -0.0934385 0.0935812 -0.668041 -0.607649 -0.429515
0.0487989 0.176349 0.548697 0 0 1
0.120622 0.130791 0.115641 -0.69359 0.718454 0.0525014
0.315491 -0.137211 0.548697 0 0 1
0.100395 -0.267928 0.52988 0 0 -1
-0.0712502 0.208216 0.548697 0 0 1
0.159423 -0.389218 0.54504 0.299671 -0.803929 0.513708
-0.197989 -0.362622 0.536095 -0.481755 -0.876306 0
0.324909 0.252745 0.548697 0 0 1
0.198095 0.206053 0.548697 0 0 1
-0.265936 -0.0348709 0.548697 0 0 1
-0.206682 -0.315533 0.52988 0 0 -1
0.0442145 -0.107974 0.548697 0 0 1
-0.0467908 0.335473 0.52988 0 0 -1
-0.317966 -0.0837454 0.548697 0 0 1
-0.312694 -0.110572 0.548697 0 0 1
-0.0592036 0.0281492 0.52988 0 0 -1
0.210297 0.0568938 0.548697 0 0 1
0.268798 0.137125 0.52988 0 0 -1
-0.104756 0.398933 0.550449 0.248656 -0.968592 0
-0.323462 0.216499 0.548697 0 0 1
0.00693087 0.0197079 0.358045 0.382861 0.923806 0
0.303866 -0.0994648 0.52988 0 0 -1
0.239538 0.294157 0.52988 0 0 -1
0.2917 -0.257858 0.548697 0 0 1
-0.169277 -0.00130718 0.548697 0 0 1
0.106512 -0.0956483 0.117979 0.718456 0.693586 0.0525277
0.0732168 -0.329122 0.52988 0 0 -1
0.391984 -0.130589 0.531039 0.951073 -0.308965 0
-0.00671536 -0.0255197 0.548697 0 0 1
0.146855 0.00828613 0.52988 0 0 -1
-0.0431891 0.0244564 0.548697 0 0 1
-0.231339 0.0886455 0.52988 0 0 -1
0.413943 -0.000463316 0.538636 -0.998391 0.0566996 0
0.0982792 -0.400596 0.545954 -0.248656 0.968592 0
-0.0423055 0.0321551 0.146465 -0.664625 -0.492506 0.561882
0.168011 0.231821 0.548697 0 0 1
0.0594795 0.407256 0.52988 0 0 -1
-0.295576 0.289196 0.530245 -0.684531 0.728984 0
-0.00482234 0.202119 0.548697 0 0 1
-0.046825 -0.410658 0.551719 -0.0866837 -0.576335 0.812603
0.105634 0.0745104 0.52988 0 0 -1
-0.00545171 0.0203206 0.345249 -0.382834 0.923817 0
0.124244 0.0116871 0.548697 0 0 1
0.263865 -0.0526187 0.52988 0 0 -1
0.2075 0.35318 0.52988 0 0 -1
-0.329391 0.0378724 0.548697 0 0 1
-0.0749786 -0.138888 0.52988 0 0 -1
0.341787 -0.194309 0.548697 0 0 1
0.0123061 0.204563 0.548697 0 0 1
-0.307107 -0.124011 0.548697 0 0 1
-0.12332 -0.359423 0.52988 0 0 -1
-0.368253 0.181337 0.548697 0 0 1
-0.101166 -0.111415 0.123766 0.693587 -0.718455 0.0525277
0.027351 0.1072 0.52988 0 0 -1
0.392677 -0.135317 0.550348 0.542229 -0.213019 0.81278
-0.393154 -0.126989 0.534589 -0.951073 -0.308965 0
0.0452129 -0.134892 0.548697 0 0 1
0.166086 0.150326 0.52988 0 0 -1
0.119662 -0.0213726 0.548697 0 0 1
0.185913 0.369123 0.531342 -0.450029 -0.893014 0
-0.221705 -0.215771 0.52988 0 0 -1
-0.163488 -0.162258 0.548697 0 0 1
0.245105 0.17777 0.52988 0 0 -1
-0.0479659 0.269809 0.548697 0 0 1
0.346261 -0.0794385 0.52988 0 0 -1
-0.0917595 0.114036 0.548697 0 0 1
0.0286398 0.225878 0.52988 0 0 -1
-0.329368 0.20722 0.548697 0 0 1
0.0356123 0.388086 0.548697 0 0 1
0.107586 0.400339 0.531359 0.14479 0.564002 -0.812981
-0.0933304 0.0885761 0.513493 -0.700909 -0.605256 -0.377348
0.000704926 0.401814 0.52988 0 0 -1
-0.0838791 0.0920428 0.132969 0.492304 0.664516 0.562188
-0.0541006 0.241235 0.548697 0 0 1
0.227763 0.353189 0.545879 0.4707 0.717819 0.513008
0.254682 -0.246599 0.0649575 0.946227 0.208084 0.247702
-0.351015 0.217942 0.545052 -0.844339 0.53581 0
0.260777 -0.165258 0.52988 0 0 -1
0.385356 -0.00301297 0.548697 0 0 1
0.136638 -0.389766 0.537374 -0.34927 0.937022 0
0.0642329 -0.256361 0.548697 0 0 1
0.106734 -0.346885 0.548697 0 0 1
0.287764 -0.158564 0.52988 0 0 -1
-0.389839 -0.137194 0.544048 -0.951073 -0.308965 0
0.0733099 -0.318257 0.548697 0 0 1
0.0182438 0.0435764 0.548697 0 0 1
0.0870132 0.00769955 0.52988 0 0 -1
0.0896 0.379037 0.548697 0 0 1
-0.0052168 0.0524423 0.52988 0 0 -1
-0.157569 0.166334 0.548697 0 0 1
-0.238572 -0.248469 0.548697 0 0 1
0.00272796 0.0214498 0.412714 0.382861 0.923806 0
0.111642 0.203873 0.548697 0 0 1
-0.262126 -0.250973 0.0198023 -0.99466 0 0.10321
0.386315 0.163951 0.542335 0.93078 0.365581 0
-0.118438 0.19961 0.548697 0 0 1
-0.0599374 -0.10484 0.548697 0 0 1
-0.296442 0.210266 0.52988 0 0 -1
0.13645 0.310194 0.548697 0 0 1
-0.411416 -0.0405473 0.534956 -0.998023 -0.0628461 0
-0.0893138 -0.402898 0.535981 0.248656 0.968592 0
-0.106673 0.122815 0.523859 0 0 -1
0.131769 -0.156625 0.52988 0 0 -1
0.373132 -0.0775961 0.548697 0 0 1
-0.0275806 0.237348 0.548697 0 0 1
0.103396 0.115606 0.0987532 -0.686298 0.717661 0.118141
0.384095 0.0273323 0.548697 0 0 1
0.0729821 -0.274694 0.52988 0 0 -1
0.305532 -0.219074 0.548697 0 0 1
-0.2227 0.348879 0.539174 -0.58778 0.809021 0
-0.292528 -0.0405958 0.52988 0 0 -1
0.15668 0.390309 0.539677 0.349281 0.937018 0
-0.232977 -0.175924 0.52988 0 0 -1
0.0763378 -0.30593 0.52988 0 0 -1
-0.141163 -0.158071 0.52985 0.655845 -0.754896 0
0.242356 -0.322683 0.548697 0 0 1
-0.0671946 0.39642 0.52988 0 0 -1
0.0558376 0.409381 0.543269 0.125234 0.992127 0
0.192182 0.11193 0.548697 0 0 1
-0.0278228 0.128679 0.548697 0 0 1
-0.146414 0.123512 0.52988 0 0 -1
-0.406591 0.0135664 0.548697 0 0 1
0.294674 0.294499 0.549496 0.416246 0.407536 0.812806
0.243088 -0.259968 0.548697 0 0 1
-0.200563 -0.114547 0.548697 0 0 1
-0.157132 -0.232609 0.548697 0 0 1
0.017894 0.241045 0.548697 0 0 1
0.245364 -0.166116 0.548697 0 0 1
-0.396806 0.0582863 0.52988 0 0 -1
-0.152814 0.0141845 0.52988 0 0 -1
0.268544 0.0628041 0.52988 0 0 -1
-0.0978451 0.337583 0.548697 0 0 1
-0.259289 0.322296 0.538863 -0.58778 0.809021 0
0.00657178 -0.390155 0.548697 0 0 1
-0.238813 -0.248808 0.0261564 0.994636 0 0.103439
0.174499 0.0866098 0.548697 0 0 1
0.268625 -0.142728 0.52988 0 0 -1
0.205378 -0.352077 0.52988 0 0 -1
0.0671166 0.296603 0.548697 0 0 1
-0.0459895 -0.225323 0.548697 0 0 1
-0.02161 -0.0350169 0.119558 0.689602 -0.722282 0.0525215
0.25074 -0.0297102 0.52988 0 0 -1
0.160327 -0.0808694 0.52988 0 0 -1
-0.0161268 -0.0155723 0.476502 -0.923833 -0.382795 0
0.349675 0.220056 0.535784 0.844339 0.53581 0
0.0853857 -0.0574102 0.548697 0 0 1
-0.102589 -0.400221 0.530387 -0.144796 -0.564025 -0.812964
-0.142857 -0.130838 0.0926279 -0.717662 0.686308 0.118082
0.0358688 0.410504 0.54908 -0.0495427 -0.998772 0
-0.177892 0.253286 0.52988 0 0 -1
-0.171528 0.163739 0.0809823 -0.607421 -0.667968 -0.429953
0.377336 0.0242941 0.52988 0 0 -1
-0.0725168 0.0593624 0.104709 -0.717662 -0.686308 0.118082
-0.397544 -0.113475 0.539658 -0.951073 -0.308965 0
0.2124 -0.0173903 0.52988 0 0 -1
0.0727222 -0.188625 0.548697 0 0 1
-0.162911 -0.172076 0.107573 0.492271 -0.664543 0.562185
0.30956 -0.0962403 0.52988 0 0 -1
-0.256974 0.214315 0.548697 0 0 1
-0.0346139 0.365473 0.548697 0 0 1
-0.0907267 0.144806 0.548697 0 0 1
-0.167558 -0.352147 0.548697 0 0 1
0.0133905 0.0277591 0.126729 -0.707108 0.707106 0
0.257336 -0.00323536 0.548697 0 0 1
0.0189951 -0.00865118 0.174034 0.923807 -0.382859 0
-0.412722 0.0219577 0.532107 0.998391 -0.0566996 0
0.21261 -0.168083 0.548697 0 0 1
-0.0947638 0.0683994 0.523859 0 0 -1
0.192475 -0.101785 0.548697 0 0 1
0.270073 0.313143 0.538944 0.684521 0.728993 0
-0.0384701 -0.142664 0.548697 0 0 1
-0.235364 -0.339678 0.542415 -0.58778 -0.809021 0
0.299548 0.29433 0.538026 0.714414 0.699723 0
-0.134013 -0.18658 0.52988 0 0 -1
-0.108882 0.17929 0.52988 0 0 -1
-0.236347 -0.100535 0.548697 0 0 1
0.142867 -0.387791 0.533958 0.368181 -0.929754 0
-0.0923949 0.0837529 0.132443 -0.664625 -0.492506 0.561882
0.0772239 0.334831 0.52988 0 0 -1
-0.191524 0.0488166 0.52988 0 0 -1
-0.177596 0.266208 0.548697 0 0 1
-0.381133 0.15934 0.551755 -0.542625 0.213084 0.812498
-0.30958 0.273938 0.536863 -0.770495 0.637447 0
-0.152631 -0.0527586 0.52988 0 0 -1
-0.275656 -0.147412 0.548697 0 0 1
0.18452 -0.204508 0.548697 0 0 1
0.283311 -0.233543 0.548697 0 0 1
0.000576885 -0.407206 0.52988 0 0 -1
0.41154 -0.0866384 0.545335 0.846187 -0.142431 0.513498
0.100554 0.0930495 0.0905279 0.607611 -0.668026 -0.429594
-0.284714 -0.0303026 0.548697 0 0 1
-0.153356 -0.227499 0.52988 0 0 -1
-0.0194576 -0.00753359 0.403032 -0.923833 -0.382795 0
-0.373012 0.175024 0.54978 0.889705 -0.456535 0
0.215874 -0.195581 0.548697 0 0 1
0.0778245 -0.181874 0.52988 0 0 -1
-0.173698 0.110262 0.548697 0 0 1
0.378969 0.162165 0.532968 -0.930804 -0.365519 0
0.307674 0.167311 0.548697 0 0 1
0.323672 0.266445 0.545494 0.671224 0.535024 0.513038
0.343864 0.197918 0.52988 0 0 -1
-0.00839524 0.0245223 0.548697 0 0 1
0.126004 0.310648 0.52988 0 0 -1
0.292401 -0.186355 0.548697 0 0 1
0.283032 -0.30048 0.543109 -0.714547 0.699587 0
0.218949 -0.143477 0.548697 0 0 1
-0.0889257 0.303533 0.548697 0 0 1
0.21508 -0.226467 0.52988 0 0 -1
-0.14189 -0.175323 0.52988 0 0 -1
0.236124 -0.0835402 0.548697 0 0 1
-0.0467432 0.0326553 0.516654 -0.700909 -0.605256 -0.377348
-0.237822 -0.187963 0.548697 0 0 1
-0.297784 0.231267 0.548697 0 0 1
-0.0762464 -0.0689959 0.512981 -0.700077 0.60321 -0.382138
0.00273793 0.165502 0.548697 0 0 1
0.327052 -0.208429 0.52988 0 0 -1
-0.0432655 0.380271 0.52988 0 0 -1
-0.197437 0.20293 0.52988 0 0 -1
0.311867 0.0124557 0.548697 0 0 1
0.0890692 -0.384369 0.548697 0 0 1
0.057824 -0.28348 0.52988 0 0 -1
0.000355746 0.0224329 0.236347 0.382861 0.923806 0
-0.327158 0.151738 0.52988 0 0 -1
0.127151 0.135282 0.119752 -0.492245 0.664509 0.562248
0.363251 0.194047 0.542789 -0.889705 -0.456535 0
0.0516023 0.205632 0.548697 0 0 1
-0.348917 -0.218736 0.539364 0.840242 0.542211 0
0.0502927 -0.124017 0.52988 0 0 -1
0.189989 -0.0956865 0.548697 0 0 1
0.0660945 0.0566074 0.139759 0.664526 -0.492316 0.562166
0.236186 0.0327858 0.548697 0 0 1
-0.0482614 0.162022 0.548697 0 0 1
0.088786 0.0276128 0.548697 0 0 1
-0.186041 -0.106542 0.548697 0 0 1
-0.214 0.136751 0.52988 0 0 -1
0.127737 -0.196302 0.52988 0 0 -1
-0.046447 0.345764 0.52988 0 0 -1
-0.194683 0.364703 0.543988 0.450038 -0.893009 0
0.183588 -0.0571139 0.52988 0 0 -1
-0.120408 0.169782 0.52988 0 0 -1
-0.371841 -0.052358 0.548697 0 0 1
-0.0629129 0.0161023 0.548697 0 0 1
0.0975628 0.213707 0.548697 0 0 1
0.333371 -0.0858313 0.548697 0 0 1
0.395993 -0.11825 0.547247 0.951073 -0.308965 0
0.0272387 0.0398223 0.127375 -0.68957 0.722314 0.0524956
0.123158 -0.142427 0.527263 -0.655839 -0.754901 0
0.134123 -0.317873 0.548697 0 0 1
-0.169666 0.369065 0.548697 0 0 1
0.256938 0.0174306 0.52988 0 0 -1
-0.0290001 0.0146321 0.124604 -0.70711 -0.707103 0
-0.190941 -0.0128905 0.52988 0 0 -1
-0.0539811 -0.141851 0.548697 0 0 1
-0.2104 0.22045 0.548697 0 0 1
-0.40031 0.0289297 0.548697 0 0 1
0.204361 0.206929 0.548697 0 0 1
0.179724 0.193598 0.548697 0 0 1
0.323404 0.213333 0.52988 0 0 -1
-0.227513 -0.345044 0.532437 0.5483 0.836281 0
-0.0768921 -0.277614 0.548697 0 0 1
-0.0566584 -0.0425713 0.518808 -0.700077 0.60321 -0.382138
-0.0164272 0.0148473 0.341213 -0.923833 0.382795 0
-0.256382 -0.261108 0.548697 0 0 1
0.273739 -0.265673 0.52988 0 0 -1
0.118598 0.363697 0.52988 0 0 -1
0.194234 -0.0540494 0.548697 0 0 1
-0.0296047 0.0783114 0.548697 0 0 1
0.179077 -0.191779 0.52988 0 0 -1
0.0262871 -0.0366481 0.52988 0 0 -1
0.084788 -0.147466 0.548697 0 0 1
-0.275115 -0.0797346 0.548697 0 0 1
0.0956584 -0.11228 0.523859 0 0 -1
0.0132098 0.178046 0.52988 0 0 -1
-0.0683771 0.234181 0.548697 0 0 1
0.225928 -0.215748 0.0812693 0.71766 0.68629 0.118194
-0.0788095 -0.0687805 0.52988 0 0 -1
0.350627 -0.0617241 0.52988 0 0 -1
0.226893 0.0656191 0.52988 0 0 -1
0.368319 -0.0317594 0.52988 0 0 -1
0.0740172 -0.0819682 0.515536 -0.603205 -0.700067 -0.382165
0.232757 0.320833 0.548697 0 0 1
-0.151571 0.384199 0.531317 0.34927 -0.937022 0
-0.288786 0.157773 0.548697 0 0 1
0.250312 0.329651 0.552012 0.370664 0.448785 0.813142
-0.0806339 0.0929978 0.104567 0.693587 0.718455 0.0525275
-0.345357 -0.203229 0.52988 0 0 -1
0.195141 -0.247339 0.52988 0 0 -1
0.223492 -0.205748 0.52988 0 0 -1
-0.381647 -0.155343 0.547786 0.930804 0.365519 0
-0.317423 -0.0789602 0.52988 0 0 -1
0.283236 0.0869286 0.548697 0 0 1
0.0912121 0.0970858 0.516238 -0.605253 0.7009 -0.377369
0.227462 0.236739 0.083252 -0.658813 0.743001 0.117963
0.315869 0.0198569 0.52988 0 0 -1
-0.0218306 0.339824 0.52988 0 0 -1
-0.0579782 0.192344 0.52988 0 0 -1
-0.377147 -0.157579 0.548697 0 0 1
-0.0493247 -0.0341872 0.518607 -0.700077 0.60321 -0.382138
-0.034925 0.0386632 0.49791 0.603205 0.700067 -0.382164
0.025239 0.237527 0.52988 0 0 -1
-0.0641026 -0.413532 0.546688 -0.12777 -0.849114 0.512523
0.149386 0.159397 0.104192 -0.69359 0.718454 0.0525014
-0.0386849 -0.274899 0.548697 0 0 1
0.181184 -0.21274 0.548697 0 0 1
-0.0917518 0.172457 0.548697 0 0 1
-0.419751 0.0195216 0.536351 -0.855952 0.0486005 -0.514767
-0.0888895 -0.133693 0.52988 0 0 -1
0.0934888 0.218889 0.548697 0 0 1
-0.156657 0.175428 0.548697 0 0 1
-0.30859 -0.127673 0.52988 0 0 -1
0.297327 0.287988 0.551403 0.416234 0.40752 0.81282
0.226885 0.123942 0.52988 0 0 -1
-0.231376 -0.22142 0.081112 -0.717662 0.686308 0.118082
-0.123298 -0.193103 0.52988 0 0 -1
-0.240037 -0.254734 0.548697 0 0 1
0.265794 -0.237536 0.548697 0 0 1
-0.304606 -0.284259 0.532795 -0.416575 -0.407845 -0.812482
0.0913424 -0.331253 0.52988 0 0 -1
-0.331177 -0.245544 0.536959 0.782046 0.623221 0
0.108953 0.107041 0.130352 0.146674 0.146642 0.978255
-0.198099 -0.208388 0.548697 0 0 1
0.264968 0.247617 0.548697 0 0 1
-0.382564 0.163927 0.549597 -0.542625 0.213084 0.812498
0.217897 -0.254247 0.52988 0 0 -1
0.044865 -0.0650772 0.548697 0 0 1
-0.288919 0.0805371 0.548697 0 0 1
-0.126119 0.137203 0.100539 0.693587 0.718455 0.0525275
-0.36406 -0.0435615 0.52988 0 0 -1
0.369767 -0.0592137 0.548697 0 0 1
0.181591 -0.032585 0.52988 0 0 -1
-0.16977 0.231046 0.52988 0 0 -1
-0.29821 0.283985 0.548697 0 0 1
0.297141 -0.0153232 0.548697 0 0 1
0.150785 0.173617 0.548697 0 0 1
0.0727043 -0.0705328 0.52988 0 0 -1
0.17536 -0.168045 0.108185 0.664549 0.492287 0.562164
-0.102325 -0.0961699 0.517863 -0.700077 0.60321 -0.382138
-0.0138043 0.0281729 0.148644 0.707109 0.707105 0
0.285249 -0.294939 0.52988 0 0 -1
-0.410173 0.0546562 0.536174 -0.982297 0.187329 0
0.2581 0.239828 0.548697 0 0 1
0.204806 0.151942 0.548697 0 0 1
-0.350599 0.197059 0.548697 0 0 1
-0.129968 -0.10887 0.52988 0 0 -1
-0.0816834 -0.000742191 0.548697 0 0 1
0.37519 -0.153854 0.548697 0 0 1
-0.217665 0.217543 0.52988 0 0 -1
-0.0261368 -0.341555 0.548697 0 0 1
0.172011 0.37194 0.548697 0 0 1
-0.348026 0.00496816 0.548697 0 0 1
-0.0131954 -0.00210523 0.52988 0 0 -1
-0.0507458 0.0459994 0.502685 -0.700909 -0.605256 -0.377348
0.0338209 0.0973296 0.52988 0 0 -1
-0.19306 0.262387 0.548697 0 0 1
0.0450085 0.077352 0.52988 0 0 -1
0.350074 -0.219427 0.546912 0.844339 -0.53581 0
-0.323514 -0.0293809 0.548697 0 0 1
-0.00137359 0.0220106 0.297023 -0.382834 0.923817 0
-0.290071 -0.0209133 0.548697 0 0 1
-0.352289 0.13939 0.52988 0 0 -1
-0.171227 -0.176997 0.523859 0 0 -1
-0.262237 0.156679 0.52988 0 0 -1
-0.254505 0.0471907 0.52988 0 0 -1
-0.159266 -0.050807 0.52988 0 0 -1
-0.0827929 -0.405017 0.548697 0 0 1
-0.0455323 -0.0578808 0.52988 0 0 -1
0.20624 -0.20693 0.0727019 -0.076623 0.0766499 -0.99411
0.277463 0.210703 0.52988 0 0 -1
0.0453635 -0.129956 0.548697 0 0 1
-0.144037 0.147813 0.0820544 0.0766356 -0.0766356 -0.99411
-0.0729542 0.403532 0.548697 0 0 1
-0.339693 -0.218216 0.52988 0 0 -1
0.412495 0.0234145 0.534368 0.998023 0.0628461 0
-0.333018 -0.198552 0.548697 0 0 1
-0.0991601 -0.111027 0.548697 0 0 1
0.0272847 -0.0129153 0.110209 0.70711 0.707103 0
-0.0818548 -0.0935166 0.113593 0.693587 -0.718455 0.0525277
-0.137625 -0.146314 0.52988 0 0 -1
-0.235295 0.225099 0.0757416 -0.607421 -0.667968 -0.429953
0.37809 -0.0161628 0.548697 0 0 1
0.205392 0.367721 0.54187 0.450042 0.893007 0
0.0551398 -0.0984779 0.52988 0 0 -1
0.305354 -0.277681 0.549696 -0.714547 0.699587 0
0.404708 -0.0833129 0.545214 0.982297 -0.187329 0
0.30029 -0.149494 0.52988 0 0 -1
0.0684417 0.154884 0.548697 0 0 1
-0.178669 -0.179486 0.0769429 0.076636 0.076636 -0.99411
0.101933 0.347246 0.548697 0 0 1
-0.126116 0.109933 0.523859 0 0 -1
0.0995405 0.30616 0.548697 0 0 1
-0.263277 0.0588699 0.548697 0 0 1
-0.131916 -0.0115606 0.548697 0 0 1
-0.205569 -0.214437 0.0932308 0.693587 -0.718455 0.0525277
-0.0112154 -0.217836 0.548697 0 0 1
-0.0737944 -0.0712264 0.0933683 0.0765973 0.0765932 -0.994116
-0.195368 -0.309866 0.548697 0 0 1
-0.327445 -0.0952369 0.52988 0 0 -1
0.418895 -0.0212045 0.54726 0.855923 -0.0487225 0.514803
0.369795 0.0382591 0.52988 0 0 -1
0.320583 0.135444 0.52988 0 0 -1
0.413069 -0.0419274 0.551401 0.581288 -0.0330119 0.813028
0.0132649 0.230468 0.548697 0 0 1
0.0925467 0.0940185 0.548697 0 0 1
-0.141603 -0.148496 0.52988 0 0 -1
-0.0280898 -0.131427 0.52988 0 0 -1
-0.340074 0.188455 0.548697 0 0 1
-0.341481 -0.18552 0.548697 0 0 1
-0.0739785 -0.280246 0.548697 0 0 1
0.326899 0.168687 0.52988 0 0 -1
0.230652 -0.145834 0.548697 0 0 1
0.0369349 0.263441 0.548697 0 0 1
-0.0479516 0.116766 0.548697 0 0 1
-0.0357403 0.0487779 0.106414 0.668025 0.607615 -0.42959
-0.192926 0.0234713 0.52988 0 0 -1
-0.233335 -0.0478121 0.548697 0 0 1
-0.339756 0.218226 0.548697 0 0 1
-0.337568 0.0897889 0.52988 0 0 -1
-0.171 -0.18138 0.0836144 0.667778 -0.607177 -0.430591
-0.298781 0.0296875 0.52988 0 0 -1
0.0594681 -0.407711 0.542859 -0.148769 0.988872 0
-0.255758 0.315657 0.548697 0 0 1
0.0228282 0.280944 0.548697 0 0 1
0.346475 0.143674 0.52988 0 0 -1
0.165002 0.00461312 0.548697 0 0 1
0.153211 -0.0808481 0.52988 0 0 -1
-0.260255 0.255728 0.0282922 -0.703329 0.703329 0.103233
0.206895 -0.335214 0.548697 0 0 1
-0.124521 -0.123492 0.085433 0.0765954 0.0765954 -0.994116
-0.336104 -0.0144553 0.548697 0 0 1
0.00639949 -0.139132 0.548697 0 0 1
-0.19103 0.116405 0.548697 0 0 1
-0.316572 -0.261559 0.52988 0 0 -1
0.35392 0.213014 0.52988 0 0 -1
-0.183827 0.328701 0.548697 0 0 1
-0.39485 0.0279832 0.548697 0 0 1
0.30315 -0.249567 0.548697 0 0 1
0.184454 0.304683 0.52988 0 0 -1
0.203155 -0.332024 0.548697 0 0 1
0.0105809 0.319361 0.52988 0 0 -1
-0.0966067 -0.150269 0.548697 0 0 1
-0.192225 -0.16654 0.52988 0 0 -1
-0.200795 -0.0261232 0.548697 0 0 1
-0.165084 -0.0638763 0.52988 0 0 -1
0.0680855 0.249912 0.548697 0 0 1
-0.01293 -0.336553 0.52988 0 0 -1
0.136025 -0.134619 0.52988 0 0 -1
-0.181983 0.112527 0.52988 0 0 -1
-0.189221 0.023004 0.548697 0 0 1
0.0127362 -0.183554 0.52988 0 0 -1
0.182377 0.0220967 0.548697 0 0 1
0.304709 0.211374 0.548697 0 0 1
0.242253 0.272786 0.548697 0 0 1
-0.0740542 0.0850373 0.126569 0.693587 0.718455 0.0525275
0.312713 0.0650792 0.548697 0 0 1
-0.204464 0.275252 0.52988 0 0 -1
-0.194093 -0.219858 0.52988 0 0 -1
0.316083 -0.213739 0.548697 0 0 1
0.129162 -0.118079 0.104371 0.718456 0.693586 0.0525277
0.088496 0.225849 0.548697 0 0 1
0.118641 0.166124 0.548697 0 0 1
-0.0995626 0.400991 0.538359 -0.248711 0.968578 0
0.0576021 -0.236529 0.52988 0 0 -1
0.346291 -0.113904 0.52988 0 0 -1
0.412134 -0.00908174 0.548697 0 0 1
0.277512 0.0305523 0.52988 0 0 -1
-0.0204553 0.411268 0.549949 0.0495426 -0.998772 0
0.0947162 0.0894932 0.134727 0.66464 -0.492488 0.56188
-0.305472 -0.0400139 0.52988 0 0 -1
0.0294119 0.0183867 0.507067 0.700074 -0.603201 -0.382158
-0.102303 -0.120075 0.548697 0 0 1
-0.142466 0.0158097 0.548697 0 0 1
0.276782 0.00829315 0.548697 0 0 1
0.0230679 -0.411139 0.530535 -0.0495427 0.998772 0
-0.0161908 0.0154177 0.30086 -0.923833 0.382795 0
0.13871 -0.165324 0.548697 0 0 1
0.0261744 -0.259921 0.548697 0 0 1
-0.0453565 -0.373391 0.52988 0 0 -1
0.165353 0.0122604 0.52988 0 0 -1
0.175163 0.299669 0.548697 0 0 1
0.022835 -0.098888 0.548697 0 0 1
-0.0806615 -0.315953 0.52988 0 0 -1
0.0324545 -0.364539 0.52988 0 0 -1
0.156876 -0.0148483 0.52988 0 0 -1
0.201013 -0.32303 0.52988 0 0 -1
-0.23616 -0.109135 0.548697 0 0 1
-0.0972314 0.00856202 0.52988 0 0 -1
-0.356912 -0.206347 0.540732 0.840242 0.542211 0
0.0439092 0.016087 0.52988 0 0 -1
-0.0171617 0.0130746 0.397799 -0.923833 0.382795 0
-0.0595028 0.285753 0.548697 0 0 1
-0.125978 -0.131662 0.123004 0.492289 -0.664529 0.562187
-0.195012 0.116365 0.548697 0 0 1
0.177481 -0.19028 0.548697 0 0 1
-0.0527776 -0.00490455 0.548697 0 0 1
-0.00129389 0.215313 0.52988 0 0 -1
-0.137104 -0.126552 0.107607 -0.718453 0.693589 0.0525279
-0.371446 -0.194478 0.544819 -0.889753 -0.456443 0
7.96426e-05 0.0225474 0.171144 0.382861 0.923806 0
-0.0202797 -0.00554953 0.19526 -0.923833 -0.382795 0
0.239539 0.229992 0.0730816 0.544698 -0.726025 -0.419753
-0.195033 -0.338467 0.548697 0 0 1
0.051092 0.0035891 0.52988 0 0 -1
0.0558964 -0.409374 0.548319 0.125234 -0.992127 0
0.167335 0.175169 0.0805398 -0.667996 0.607448 -0.429871
0.391523 0.132009 0.548607 0.951073 0.308965 0
-0.278025 0.305676 0.533183 -0.684531 0.728984 0
0.187616 -0.135979 0.52988 0 0 -1
0.25486 -0.325083 0.536924 -0.636809 0.771022 0
-0.274275 -0.258484 0.52988 0 0 -1
-0.228114 -0.219793 0.0738386 -0.607452 0.667938 -0.429954
-0.0668616 0.264058 0.548697 0 0 1
-0.164454 0.154883 0.107617 -0.718453 -0.693589 0.0525279
0.0393226 -0.276037 0.548697 0 0 1
0.11115 0.390939 0.548697 0 0 1
-0.235669 -0.153965 0.548697 0 0 1
0.215813 -0.0242172 0.548697 0 0 1
0.204202 -0.342377 0.548697 0 0 1
-0.402066 0.0971686 0.540868 -0.982297 0.187329 0
-0.369483 -0.0558327 0.548697 0 0 1
-0.0248314 -0.0067805 0.548697 0 0 1
-0.227978 0.0898848 0.52988 0 0 -1
-0.013888 -0.0446857 0.523859 0 0 -1
-0.0533397 0.365544 0.548697 0 0 1
0.302177 -0.215249 0.548697 0 0 1
0.32451 -0.110528 0.548697 0 0 1
-0.0776051 0.0902876 0.523859 0 0 -1
0.0901108 0.297151 0.548697 0 0 1
0.118614 0.199484 0.548697 0 0 1
0.0289463 -0.0619477 0.548697 0 0 1
-0.170795 -0.187395 0.548697 0 0 1
0.0613711 0.155492 0.52988 0 0 -1
-0.0169997 0.0134654 0.335554 -0.923833 0.382795 0
0.0918389 -0.220439 0.52988 0 0 -1
0.0370515 -0.350631 0.52988 0 0 -1
-0.382588 0.154156 0.530197 -0.542192 0.212914 -0.812832
-0.110966 -0.112232 0.548697 0 0 1
0.0426961 0.135555 0.52988 0 0 -1
-0.280395 -0.201759 0.548697 0 0 1
0.00826017 0.38276 0.52988 0 0 -1
0.0647323 -0.122118 0.52988 0 0 -1
0.115913 -0.402246 0.547468 0.21365 -0.831794 0.512321
0.232257 0.245813 0.52988 0 0 -1
0.0412876 -0.410235 0.551843 -0.0495427 0.998772 0
-0.152282 0.163278 0.0931617 0.686291 0.717659 0.118194
-0.0236487 -0.380044 0.52988 0 0 -1
-0.134738 0.17781 0.52988 0 0 -1
0.13326 -0.128264 0.548697 0 0 1
-0.114998 -0.310272 0.52988 0 0 -1
0.261333 -0.256018 0.0174688 0.698461 -0.698461 -0.1559
-0.0155443 -0.0247119 0.503177 0.605253 -0.7009 -0.377368
0.343197 0.0802743 0.52988 0 0 -1
-0.244084 0.32875 0.52988 0 0 -1
0.111942 0.0473376 0.52988 0 0 -1
-0.190061 -0.320014 0.52988 0 0 -1
-0.359587 -0.061814 0.548697 0 0 1
0.151182 -0.000914622 0.548697 0 0 1
0.0124125 0.0267811 0.12308 -0.707108 0.707106 0
0.253284 -0.146477 0.52988 0 0 -1
-0.0809272 -0.411062 0.535753 -0.127831 -0.849524 -0.511828
-0.310878 0.20142 0.52988 0 0 -1
-0.229597 -0.339528 0.52988 0 0 -1
-0.182968 -0.192524 0.0945222 0.693587 -0.718455 0.0525277
0.381489 0.172536 0.535596 0.764271 0.39207 -0.512026
-0.128647 -0.11772 0.106657 -0.718453 0.693589 0.0525279
0.391814 0.0582462 0.52988 0 0 -1
0.00737802 0.238331 0.548697 0 0 1
-0.242772 -0.123512 0.548697 0 0 1
0.192605 0.325603 0.52988 0 0 -1
-0.100622 0.287145 0.52988 0 0 -1
0.372078 0.0285588 0.52988 0 0 -1
-0.290447 0.0529437 0.52988 0 0 -1
0.103416 -0.0922754 0.0957671 0.607562 0.66807 -0.429592
-0.0213187 -0.00304217 0.362165 -0.923833 -0.382795 0
-0.252788 0.273959 0.548697 0 0 1
-0.0554061 0.288791 0.52988 0 0 -1
0.245038 -0.23953 0.548697 0 0 1
-0.398246 0.0620412 0.52988 0 0 -1
7.66208e-05 0.0225486 0.241036 0.382861 0.923806 0
-0.0932573 -0.348591 0.548697 0 0 1
-0.0705376 -0.0597455 0.135945 -0.718453 0.693589 0.0525279
-0.18881 -0.376078 0.544893 -0.450033 -0.893012 0
0.0451494 -0.109033 0.52988 0 0 -1
0.193082 0.258913 0.52988 0 0 -1
-0.2242 -0.230115 0.0926369 0.492747 -0.664768 0.561501
-0.173369 0.0973798 0.548697 0 0 1
-0.0564921 -0.258026 0.548697 0 0 1
-0.151597 0.32817 0.52988 0 0 -1
0.242437 -0.0132598 0.548697 0 0 1
0.244388 0.337125 0.550578 0.318893 0.486288 0.81353
-0.185459 0.272215 0.52988 0 0 -1
0.0450984 0.0767815 0.548697 0 0 1
0.0795286 0.315902 0.52988 0 0 -1
0.0120241 -0.18087 0.52988 0 0 -1
-0.0256307 -0.0380027 0.144291 0.615704 -0.787978 0
0.0321726 0.296734 0.52988 0 0 -1
-0.393501 0.0107807 0.52988 0 0 -1
0.0458837 -0.159705 0.548697 0 0 1
0.398479 0.128576 0.534771 0.827286 0.231007 -0.512087
-0.293267 0.246391 0.548697 0 0 1
0.149662 -0.0915724 0.52988 0 0 -1
-0.128316 -0.392868 0.552408 0.34927 0.937022 0
-0.00605888 0.372359 0.52988 0 0 -1
0.295517 0.0994176 0.52988 0 0 -1
-0.0333731 0.412217 0.547125 -0.125238 0.992127 0
-0.183153 0.288404 0.548697 0 0 1
0.0770364 0.0283397 0.52988 0 0 -1
0.0170676 -0.132446 0.52988 0 0 -1
-0.155753 0.138496 0.525531 -0.754896 -0.655844 0
0.191062 -0.359103 0.548697 0 0 1
0.0581466 0.138572 0.52988 0 0 -1
0.296887 0.286958 0.552145 0.416234 0.40752 0.81282
-0.0107064 0.345918 0.548697 0 0 1
-0.316932 0.15874 0.52988 0 0 -1
-0.00699328 0.413149 0.544543 0 1 0
-0.142783 0.123567 0.524863 -0.754896 -0.655844 0
0.0742738 -0.257035 0.52988 0 0 -1
0.299869 -0.16903 0.52988 0 0 -1
0.184031 0.279188 0.52988 0 0 -1
0.138942 0.366776 0.548697 0 0 1
0.149652 -0.289436 0.52988 0 0 -1
0.162386 -0.0770495 0.548697 0 0 1
-0.00422667 0.192869 0.548697 0 0 1
-0.304857 0.191498 0.548697 0 0 1
-0.0608539 -0.0489576 0.125949 -0.718453 0.693589 0.0525279
0.329537 -0.128479 0.52988 0 0 -1
-0.212332 0.0421914 0.548697 0 0 1
-0.142721 0.300074 0.548697 0 0 1
0.203169 0.173876 0.52988 0 0 -1
-0.393227 0.125339 0.533385 0.963131 -0.269032 0
0.067491 0.0589056 0.52988 0 0 -1
-0.064802 -0.0532351 0.128429 -0.718453 0.693589 0.0525279
0.211819 0.185132 0.548697 0 0 1
0.151984 -0.261657 0.52988 0 0 -1
0.0518344 -0.0399169 0.129956 0.718456 0.693586 0.0525277
-0.126428 0.121814 0.521656 -0.700909 -0.605256 -0.377348
0.206455 -0.190633 0.548697 0 0 1
-0.275844 0.293973 0.548697 0 0 1
0.0838453 0.305572 0.548697 0 0 1
-0.0367506 -0.308423 0.52988 0 0 -1
-0.273805 0.309638 0.541783 -0.684531 0.728984 0
0.292116 0.112151 0.548697 0 0 1
0.0157069 -0.0418105 0.523859 0 0 -1
0.267185 -0.314903 0.544974 -0.636809 0.771022 0
0.295696 0.0461247 0.52988 0 0 -1
0.360478 -0.000875831 0.548697 0 0 1
-0.300792 0.141894 0.548697 0 0 1
-0.0093888 0.413657 0.531199 -0.0288434 0.582624 -0.81223
-0.0295857 -0.0138294 0.51458 -0.700077 0.60321 -0.382138
-0.087649 -0.311361 0.52988 0 0 -1
0.286372 0.123118 0.548697 0 0 1
-0.366192 0.135236 0.52988 0 0 -1
-0.208311 -0.121654 0.52988 0 0 -1
-0.145222 -0.178981 0.548697 0 0 1
-0.345329 -0.142584 0.548697 0 0 1
-0.0466007 0.0468955 0.494562 0.603205 0.700067 -0.382164
-0.182344 0.18937 0.548697 0 0 1
0.0607525 0.14381 0.548697 0 0 1
-0.0188012 0.00913655 0.483575 -0.923292 0.384097 -0.0011972
0.163054 -0.0834083 0.548697 0 0 1
0.360693 0.095655 0.52988 0 0 -1
0.108337 0.357218 0.52988 0 0 -1
0.0142064 0.322447 0.548697 0 0 1
-0.0226719 0.0209921 0.49065 -0.700909 -0.605256 -0.377348
-0.0923475 -0.12596 0.548697 0 0 1
0.286013 -0.297435 0.543591 -0.714547 0.699587 0
-0.0623027 0.350941 0.52988 0 0 -1
0.364523 0.116248 0.52988 0 0 -1
0.139294 -0.243755 0.548697 0 0 1
-0.229188 -0.27166 0.548697 0 0 1
-0.0107816 0.0671238 0.548697 0 0 1
0.344909 0.0363165 0.52988 0 0 -1
0.125098 -0.0610343 0.52988 0 0 -1
-0.126114 -0.17098 0.548697 0 0 1
-0.153813 0.0408561 0.52988 0 0 -1
0.0532039 0.00497244 0.52988 0 0 -1
0.0730926 -0.0840721 0.0982516 -0.667807 -0.6071 -0.430655
0.0412845 0.00908854 0.52988 0 0 -1
-0.411472 -0.0396611 0.543569 -0.998023 -0.0628461 0
0.036015 0.0454412 0.548697 0 0 1
0.0816252 0.255633 0.52988 0 0 -1
0.0289415 -0.269136 0.52988 0 0 -1
-0.0737561 0.279576 0.548697 0 0 1
0.0308158 0.0139698 0.51661 0.700074 -0.603201 -0.382158
0.00964005 -0.292144 0.548697 0 0 1
-0.0675846 0.176501 0.548697 0 0 1
0.191294 0.0965905 0.548697 0 0 1
-0.0769742 -0.0478192 0.528482 -0.754896 0.655844 0
0.0836069 -0.0948316 0.118733 -0.69359 -0.718454 0.0525015
-0.169868 -0.229269 0.548697 0 0 1
-0.234601 0.0759271 0.548697 0 0 1
0.198915 0.32242 0.52988 0 0 -1
-0.301152 -0.0598417 0.52988 0 0 -1
-0.157253 -0.246728 0.52988 0 0 -1
0.184623 -0.212191 0.52988 0 0 -1
0.0081713 0.0225399 0.128455 -0.707108 0.707106 0
0.00557446 0.0202701 0.169169 0.382861 0.923806 0
0.1549 0.308021 0.52988 0 0 -1
0.172846 -0.0940211 0.548697 0 0 1
0.0728177 0.162928 0.52988 0 0 -1
-0.334817 -0.0356971 0.548697 0 0 1
-0.0284434 -0.203785 0.52988 0 0 -1
0.0488689 -0.25387 0.548697 0 0 1
-0.404641 -0.112359 0.537818 -0.963133 -0.269027 0
0.159166 -0.374032 0.548697 0 0 1
0.12987 -0.313482 0.52988 0 0 -1
-0.114837 -0.181855 0.52988 0 0 -1
0.284494 0.136318 0.548697 0 0 1
0.0497926 0.149204 0.548697 0 0 1
0.114015 0.328304 0.548697 0 0 1
0.378632 -0.0622549 0.548697 0 0 1
-0.257725 0.201303 0.52988 0 0 -1
-0.0281392 0.29428 0.548697 0 0 1
-0.398015 -0.000795849 0.52988 0 0 -1
0.252836 -0.118077 0.52988 0 0 -1
-0.283341 0.17099 0.52988 0 0 -1
0.302593 -0.109289 0.52988 0 0 -1
0.159416 0.381275 0.530482 -0.34927 -0.937022 0
0.239943 0.113976 0.548697 0 0 1
-0.198522 -0.14613 0.52988 0 0 -1
-0.220566 0.184695 0.548697 0 0 1
0.00910209 -0.191555 0.548697 0 0 1
-0.0604387 -0.0223015 0.52988 0 0 -1
0.106922 -0.123834 0.548697 0 0 1
0.0656592 0.246315 0.548697 0 0 1
-0.117632 0.0946179 0.528177 -0.754896 -0.655844 0
-0.0524727 -0.0341291 0.548697 0 0 1
-0.154528 -0.329822 0.548697 0 0 1
-0.0968123 -0.123496 0.548697 0 0 1
-0.0154173 -0.0297859 0.119582 0.707109 -0.707105 0
-0.173225 -0.244053 0.52988 0 0 -1
-0.189773 -0.124812 0.52988 0 0 -1
0.391036 0.111137 0.52988 0 0 -1
0.241138 0.0421376 0.52988 0 0 -1
-0.0336144 0.248056 0.52988 0 0 -1
-0.145633 0.147924 0.523319 0.603205 0.700067 -0.382164
0.0401094 -0.411367 0.538528 0.125234 -0.992127 0
-0.319739 -0.192706 0.52988 0 0 -1
-0.300881 -0.251604 0.52988 0 0 -1
-0.0116829 0.112282 0.548697 0 0 1
-0.0392653 -0.0524775 0.11255 0.693587 -0.718455 0.0525277
0.155954 -0.28506 0.548697 0 0 1
-0.284387 0.0253002 0.548697 0 0 1
0.175193 0.157454 0.52988 0 0 -1
0.0536666 -0.11763 0.52988 0 0 -1
0.0798628 -0.0627862 0.548697 0 0 1
0.0668249 0.378225 0.52988 0 0 -1
0.145865 -0.00649431 0.548697 0 0 1
-0.0542823 -0.0417398 0.120527 -0.718453 0.693589 0.0525279
0.298414 -0.0210667 0.52988 0 0 -1
-0.0406977 0.200576 0.548697 0 0 1
-0.209578 0.0298862 0.52988 0 0 -1
0.0202767 -0.0287041 0.502787 -0.603205 -0.700067 -0.382165
0.144538 -0.178195 0.548697 0 0 1
0.200405 0.117957 0.52988 0 0 -1
0.19822 -0.362921 0.550774 -0.450029 0.893014 0
0.0126334 0.0645242 0.548697 0 0 1
0.0796872 0.260471 0.52988 0 0 -1
0.0600151 -0.104636 0.548697 0 0 1
0.241571 0.33517 0.54544 0.587798 0.809007 0
0.384283 -0.148635 0.54396 -0.930804 0.365519 0
0.148471 0.160077 0.0904577 -0.686298 0.717661 0.118141
-0.0151054 -0.0163201 0.159733 -0.382834 -0.923817 0
0.104582 -0.325741 0.52988 0 0 -1
0.063398 -0.049023 0.52988 0 0 -1
-0.111258 -0.0236591 0.548697 0 0 1
0.0805263 -0.410218 0.534253 0.127777 -0.849555 -0.511791
0.215259 -0.318212 0.548697 0 0 1
0.00570532 -0.3832 0.52988 0 0 -1
-0.0192889 -0.00794088 0.159291 -0.923833 -0.382795 0
0.135288 0.164331 0.548697 0 0 1
-0.0212306 0.366622 0.52988 0 0 -1
0.056156 -0.397978 0.52988 0 0 -1
0.125948 -0.385352 0.52988 0 0 -1
0.222085 -0.252194 0.548697 0 0 1
0.273129 0.0761383 0.52988 0 0 -1
0.353079 0.13696 0.52988 0 0 -1
-0.0997754 0.151839 0.548697 0 0 1
-0.0171467 -0.0228196 0.548697 0 0 1
0.310704 -0.081581 0.52988 0 0 -1
0.133104 -0.121534 0.0922534 0.607244 0.667797 -0.430468
-0.00281427 0.173786 0.548697 0 0 1
0.240231 -0.0211987 0.548697 0 0 1
0.359385 0.142002 0.548697 0 0 1
0.173293 -0.375483 0.534747 -0.450029 0.893014 0
0.216017 0.146763 0.52988 0 0 -1
0.139976 -0.115067 0.52988 0 0 -1
0.0324954 -0.0200221 0.548697 0 0 1
0.181532 0.0453149 0.548697 0 0 1
0.0364483 0.0208286 0.516102 0.700074 -0.603201 -0.382158
0.115325 -0.0606682 0.52988 0 0 -1
-0.221255 -0.350202 0.551829 -0.318982 -0.486519 0.813357
-0.209982 -0.223583 0.52988 0 0 -1
0.0609638 -0.239767 0.52988 0 0 -1
0.173675 -0.37529 0.530067 -0.450029 0.893014 0
0.104265 -0.271218 0.548697 0 0 1
0.243335 0.282819 0.52988 0 0 -1
0.102845 -0.199668 0.52988 0 0 -1
0.153154 0.182709 0.548697 0 0 1
-0.0523664 -0.0943222 0.548697 0 0 1
-0.241102 -0.253057 0.0489375 0.949368 -0.213481 0.23049
0.186749 -0.235736 0.548697 0 0 1
0.198083 0.24371 0.52988 0 0 -1
0.176474 -0.185772 0.101113 -0.69359 -0.718454 0.0525015
0.0901146 -0.362337 0.548697 0 0 1
0.0180487 0.23701 0.52988 0 0 -1
0.256518 -0.239485 0.0172888 0.698461 0.698461 -0.1559
0.386446 -0.116876 0.548697 0 0 1
-0.385165 -0.131696 0.52988 0 0 -1
-0.116627 -0.153639 0.548697 0 0 1
0.247287 0.217427 0.548697 0 0 1
-0.249585 -0.329346 0.539894 -0.58778 -0.809021 0
0.0898807 0.324482 0.52988 0 0 -1
0.00696219 0.185669 0.52988 0 0 -1
0.331012 -0.000582144 0.548697 0 0 1
0.170046 0.366563 0.52988 0 0 -1
0.0857499 -0.330563 0.548697 0 0 1
-0.0634402 0.0520657 0.131615 -0.718453 -0.693589 0.0525279
0.140643 0.111187 0.52988 0 0 -1
-0.173408 -0.175502 0.548697 0 0 1
0.400832 0.0231633 0.52988 0 0 -1
0.109203 -0.397792 0.543761 -0.248656 0.968592 0
-0.288004 0.152947 0.548697 0 0 1
-0.216734 -0.0856089 0.548697 0 0 1
0.108481 -0.0468181 0.52988 0 0 -1
0.30001 0.156889 0.548697 0 0 1
-0.231577 0.241125 0.0786872 0.665306 0.73125 0.150467
-0.0132277 -0.303895 0.52988 0 0 -1
-0.187072 -0.147995 0.548697 0 0 1
0.297359 0.275168 0.548697 0 0 1
0.412792 -0.0207197 0.547997 -0.998391 0.0566996 0
0.00111223 -0.0221194 0.330138 0.382861 -0.923806 0
-0.191564 -0.136634 0.52988 0 0 -1
0.0140435 0.224128 0.52988 0 0 -1
0.263465 0.105789 0.52988 0 0 -1
-0.228487 0.352635 0.536353 -0.470783 0.717906 -0.51281
-0.322871 -0.160599 0.52988 0 0 -1
0.253695 0.0513934 0.52988 0 0 -1
-0.283552 -0.069946 0.548697 0 0 1
0.180139 -0.372435 0.531027 0.481747 -0.87631 0
0.291956 -0.0448903 0.548697 0 0 1
-0.168711 0.228457 0.52988 0 0 -1
0.326946 0.250851 0.551121 -0.781945 -0.623348 0
0.206919 -0.151709 0.52988 0 0 -1
-0.0415475 0.0553934 0.52988 0 0 -1
0.0146779 -0.0164973 0.171556 0.382861 -0.923806 0
-0.136495 0.331092 0.52988 0 0 -1
0.201281 -0.200273 0.52988 0 0 -1
0.0572166 0.0465401 0.52988 0 0 -1
-0.171939 -0.0501344 0.548697 0 0 1
0.168605 0.0281252 0.52988 0 0 -1
0.249879 0.0661437 0.52988 0 0 -1
0.214159 0.331724 0.52988 0 0 -1
0.0129333 -0.0205687 0.100804 -0.417073 -0.433361 -0.798905
-0.228114 0.246573 0.548697 0 0 1
0.0842684 -0.341509 0.548697 0 0 1
0.015973 0.411491 0.531625 -0.0495427 -0.998772 0
-0.242778 -0.313839 0.52988 0 0 -1
-0.387978 0.13951 0.529956 -0.542192 0.212914 -0.812832
-0.107683 -0.366423 0.548697 0 0 1
-0.351853 0.0148749 0.548697 0 0 1
-0.361638 -0.136331 0.52988 0 0 -1
-0.00439985 0.320134 0.548697 0 0 1
0.258153 0.243319 0.0342235 0.703329 -0.703329 0.103233
0.0847581 -0.0238882 0.52988 0 0 -1
0.141816 0.34892 0.52988 0 0 -1
0.179821 0.191017 0.0846289 -0.686298 0.717661 0.118141
-0.136117 0.115894 0.527627 -0.754896 -0.655844 0
-0.409179 0.059867 0.547127 -0.982297 0.187329 0
-0.321021 0.193376 0.548697 0 0 1
0.13198 -0.249816 0.548697 0 0 1
-0.257272 -0.00454814 0.52988 0 0 -1
0.135164 0.0133511 0.548697 0 0 1
-0.374188 0.0447642 0.52988 0 0 -1
-0.278619 0.258869 0.548697 0 0 1
0.129169 0.38789 0.548697 0 0 1
0.139121 -0.145988 0.083147 -0.66779 -0.607119 -0.430655
-0.0493925 0.32764 0.52988 0 0 -1
-0.25678 0.0468948 0.52988 0 0 -1
0.118897 0.0329681 0.548697 0 0 1
-0.371583 0.180691 0.539584 -0.904797 0.425842 0
0.10966 0.00789765 0.548697 0 0 1
0.243786 -0.28604 0.548697 0 0 1
0.316457 -0.102843 0.52988 0 0 -1
-0.0811858 -0.0902305 0.519586 0.605253 -0.7009 -0.377368
0.109351 -0.331177 0.548697 0 0 1
-0.254991 -0.258635 0.0443541 -0.703329 -0.703329 0.103233
-0.293519 -0.0257949 0.52988 0 0 -1
-0.258193 -0.0726041 0.548697 0 0 1
-0.0420819 -0.0108189 0.548697 0 0 1
-0.00889785 -0.255259 0.52988 0 0 -1
-0.145444 0.153252 0.0835822 0.667804 0.60715 -0.43059
0.065182 -0.0535947 0.127994 0.718456 0.693586 0.0525277
0.0873034 0.144993 0.52988 0 0 -1
0.0991246 -0.0864785 0.100606 0.71766 0.68629 0.118194
-0.0378898 0.0218826 0.548697 0 0 1
0.161375 -0.297337 0.52988 0 0 -1
0.0535716 0.199563 0.52988 0 0 -1
-0.103039 -0.0518757 0.52988 0 0 -1
-0.140719 0.0339342 0.548697 0 0 1
0.0200519 0.00610126 0.222584 0.923807 0.382859 0
-0.206397 -0.196574 0.0792281 -0.607452 0.667938 -0.429954
0.133145 0.129607 0.52988 0 0 -1
0.235581 -0.240179 0.0882562 -0.395939 -0.750952 0.528491
-0.00215748 0.263801 0.548697 0 0 1
0.132749 0.189967 0.52988 0 0 -1
0.0215849 0.325545 0.548697 0 0 1
0.0367056 0.0270424 0.102885 0.617905 -0.633877 -0.46518
0.0546485 -0.000307081 0.52988 0 0 -1
-0.407115 -0.0180454 0.52988 0 0 -1
-0.130783 -0.298595 0.52988 0 0 -1
0.086234 -0.112469 0.548697 0 0 1
-0.0903463 -0.0787028 0.115326 -0.718453 0.693589 0.0525279
0.0367649 -0.146154 0.548697 0 0 1
-0.340724 0.234158 0.540169 -0.844339 0.53581 0
0.195907 -0.137542 0.548697 0 0 1
-0.135654 -0.239723 0.52988 0 0 -1
0.0512731 -0.171318 0.52988 0 0 -1
-0.291627 -0.072422 0.52988 0 0 -1
0.257039 -0.0187812 0.548697 0 0 1
-0.109035 -0.0496543 0.548697 0 0 1
0.0182307 0.0104957 0.339138 0.923807 0.382859 0
0.0630069 0.170151 0.52988 0 0 -1
0.150279 -0.334506 0.52988 0 0 -1
0.327883 0.249677 0.530706 -0.781945 -0.623348 0
0.0147459 0.352989 0.52988 0 0 -1
-0.234498 -0.290581 0.52988 0 0 -1
-0.0757232 0.175188 0.52988 0 0 -1
0.184097 0.0297239 0.548697 0 0 1
-0.0170547 -0.248777 0.52988 0 0 -1
-0.0718394 0.272948 0.52988 0 0 -1
-0.0580534 0.207395 0.52988 0 0 -1
-0.304834 -0.277831 0.52988 0 0 -1
0.195571 0.0671766 0.52988 0 0 -1
-0.18477 -0.0771422 0.52988 0 0 -1
-0.271924 -0.00903622 0.548697 0 0 1
-0.228464 0.0840839 0.52988 0 0 -1
-0.370673 -0.0505195 0.548697 0 0 1
-0.156172 0.194283 0.52988 0 0 -1
0.219493 -0.137224 0.52988 0 0 -1
-0.177674 0.173079 0.10986 -0.6647 -0.492617 0.561696
0.0649453 -0.0221922 0.52988 0 0 -1
-0.233926 0.00807158 0.548697 0 0 1
-0.0483635 -0.146885 0.52988 0 0 -1
-0.0914907 -0.182069 0.548697 0 0 1
0.366745 -0.187839 0.552263 0.518743 -0.266183 0.812436
-0.0434854 0.0616094 0.52988 0 0 -1
0.0712176 0.162559 0.548697 0 0 1
-0.0854281 -0.202883 0.52988 0 0 -1
-0.130311 0.109212 0.524943 -0.754896 -0.655844 0
0.291811 0.0314436 0.52988 0 0 -1
-0.246795 -0.287982 0.52988 0 0 -1
0.0199407 -0.00636953 0.222813 0.923807 -0.382859 0
0.10639 -0.116183 0.124148 -0.492264 -0.664494 0.56225
0.115484 0.103519 0.100219 0.71766 -0.68629 0.118194
0.0752057 -0.341371 0.548697 0 0 1
-0.392355 -0.140575 0.549185 -0.542591 -0.213161 0.8125
-0.344575 -0.0847279 0.52988 0 0 -1
0.0130208 0.274696 0.548697 0 0 1
0.187095 0.20141 0.548697 0 0 1
0.411445 0.0187086 0.52988 0 0 -1
-0.199581 -0.261752 0.548697 0 0 1
0.358913 -0.172274 0.548697 0 0 1
0.322031 -0.261088 0.55064 0.455762 -0.363322 0.812575
-0.107452 0.149674 0.548697 0 0 1
0.298431 -0.109514 0.52988 0 0 -1
0.31173 -0.269939 0.536065 -0.781945 0.623348 0
-0.134451 0.289708 0.548697 0 0 1
0.169009 0.208707 0.548697 0 0 1
-0.271195 -0.191379 0.548697 0 0 1
-0.0902892 -0.113872 0.52983 0.655845 -0.754896 0
-0.277626 0.128129 0.548697 0 0 1
-0.253209 0.0367173 0.548697 0 0 1
-0.1906 -0.0956142 0.52988 0 0 -1
-0.0139812 -0.0167859 0.206891 -0.382834 -0.923817 0
0.18022 -0.297246 0.548697 0 0 1
0.169712 0.3842 0.53545 0.299712 0.80404 -0.51351
0.00496592 -0.00966331 0.0993526 0 0 1
-0.274804 0.0565621 0.52988 0 0 -1
-0.0597622 -0.0725501 0.108649 0.693587 -0.718455 0.0525277
0.317376 -0.202554 0.548697 0 0 1
-0.286986 -0.152053 0.548697 0 0 1
0.217062 -0.0151422 0.548697 0 0 1
0.0709684 -0.0826013 0.119132 -0.69359 -0.718454 0.0525015
0.410979 0.0474823 0.535078 0.998023 0.0628461 0
0.223589 0.0211197 0.548697 0 0 1
0.0313888 0.042502 0.145022 -0.615706 0.787976 0
0.277705 0.266131 0.548697 0 0 1
0.0690567 0.0387044 0.527251 0.754897 -0.655843 0
-0.368871 0.183092 0.542008 0.889705 -0.456535 0
0.148037 0.162253 0.523859 0 0 -1
0.229469 -0.0190603 0.548697 0 0 1
0.292537 0.290242 0.548697 0 0 1
0.331651 -0.247262 0.537409 0.770495 -0.637447 0
0.145032 -0.163147 0.52988 0 0 -1
0.297072 0.16296 0.548697 0 0 1
-0.278873 0.199243 0.52988 0 0 -1
0.0815798 0.340436 0.52988 0 0 -1
0.0909499 0.08692 0.52988 0 0 -1
-0.392748 0.126684 0.52988 0 0 -1
0.416467 0.0156851 0.532301 0.580865 0.0330651 -0.813328
0.172506 0.297661 0.548697 0 0 1
-0.223112 -0.0283536 0.52988 0 0 -1
-0.164773 -0.379278 0.546161 0.34927 0.937022 0
-0.309529 0.063551 0.52988 0 0 -1
0.420484 -0.0178083 0.541421 0.998392 -0.0566882 0
-0.0520869 -0.322395 0.548697 0 0 1
-0.0516963 0.285282 0.548697 0 0 1
