0.00293824 0.158558 0.52988 0 0 -1
-0.0933664 0.175513 0.52988 0 0 -1
-0.0985201 -0.2947 0.548697 0 0 1
-0.322994 -0.00231269 0.548697 0 0 1
-0.00366695 -0.290905 0.548697 0 0 1
-0.018195 -0.0105807 0.153115 -0.923833 -0.382795 0
0.0604258 -0.389278 0.548697 0 0 1
-0.00888209 0.100038 0.548697 0 0 1
-0.22156 -0.0301334 0.548697 0 0 1
0.196622 -0.266489 0.548697 0 0 1
0.194182 -0.281918 0.52988 0 0 -1
-0.18763 0.178483 0.102236 -0.718453 -0.693589 0.0525279
-0.185859 -0.376033 0.535121 -0.385998 -0.766205 -0.513747
-0.0113959 -0.200224 0.52988 0 0 -1
0.321569 0.01455 0.548697 0 0 1
0.161997 0.188228 0.548697 0 0 1
-0.386175 0.12642 0.52988 0 0 -1
-0.198947 -0.00747981 0.52988 0 0 -1
-0.0259991 0.414872 0.549679 -0.028828 0.582314 0.812452
-0.263475 0.0891719 0.548697 0 0 1
0.115288 0.24606 0.548697 0 0 1
0.118492 -0.126298 0.122789 -0.492264 -0.664494 0.56225
0.391291 0.0823042 0.548697 0 0 1
-0.0902422 -0.274605 0.52988 0 0 -1
0.0139391 0.0168035 0.267462 0.382861 0.923806 0
-0.114163 0.139253 0.548697 0 0 1
-0.240673 -0.11766 0.548697 0 0 1
0.245232 0.258662 0.0437896 -0.703864 0.702801 0.103177
-0.366926 -0.193176 0.550398 -0.518753 -0.266169 0.812434
-0.0550442 -0.0678543 0.11058 0.693587 -0.718455 0.0525277
0.133907 -0.132933 0.517716 0.700906 0.605248 -0.377368
0.125992 0.120744 0.125123 0.66464 -0.492488 0.56188
0.123685 -0.343826 0.52988 0 0 -1
-0.20894 -0.313415 0.548697 0 0 1
-0.0467128 -0.338974 0.52988 0 0 -1
0.065358 0.0557114 0.548697 0 0 1
-0.170984 0.30353 0.548697 0 0 1
0.261995 -0.173667 0.548697 0 0 1
0.072868 0.143328 0.52988 0 0 -1
0.120095 0.396159 0.530687 0.144963 0.564376 -0.812691
-0.0126305 0.240507 0.52988 0 0 -1
0.270372 0.0786061 0.52988 0 0 -1
0.292636 -0.126873 0.52988 0 0 -1
0.216556 -0.214897 0.52988 0 0 -1
-0.0973311 -0.019463 0.548697 0 0 1
-0.0936698 0.241507 0.548697 0 0 1
-0.204445 -0.256581 0.548697 0 0 1
0.240017 -0.246911 0.0377301 -0.994636 0 0.103438
-0.300028 0.0476351 0.548697 0 0 1
-0.121928 -0.155529 0.548697 0 0 1
0.262608 0.272024 0.548697 0 0 1
-0.324982 0.08068 0.548697 0 0 1
0.284859 -0.0816436 0.52988 0 0 -1
0.0685687 0.0782995 0.135807 -0.492501 0.664627 0.561884
-0.134305 -0.106802 0.52988 0 0 -1
0.310026 0.280013 0.548898 0.416234 0.40752 0.81282
-0.0626769 0.0389662 0.548697 0 0 1
0.14119 0.250148 0.548697 0 0 1
0.312379 0.129948 0.548697 0 0 1
0.17877 0.170661 0.0804552 0.607205 -0.667833 -0.430466
-0.00824757 -0.019162 0.469762 -0.382834 -0.923817 0
-0.137419 0.136679 0.518229 -0.700909 -0.605256 -0.377348
0.0553281 0.224611 0.548697 0 0 1
-0.26602 0.0885952 0.52988 0 0 -1
-0.417592 0.0505764 0.545372 -0.845509 0.142449 0.51461
0.389916 -0.154782 0.542807 0.93078 -0.365581 0
-0.124303 0.299552 0.548697 0 0 1
-0.270413 -0.230186 0.52988 0 0 -1
0.0519576 -0.070714 0.548697 0 0 1
0.0238594 -0.418596 0.537891 0.0495159 -0.998773 0
-0.193388 -0.0957425 0.548697 0 0 1
0.139668 -0.290722 0.548697 0 0 1
0.147663 0.12567 0.548697 0 0 1
0.110105 0.115791 0.548697 0 0 1
0.0807545 0.283565 0.52988 0 0 -1
0.164318 -0.206384 0.548697 0 0 1
-0.141234 -0.347345 0.52988 0 0 -1
-0.0879117 -0.344732 0.548697 0 0 1
-0.0372946 -0.146243 0.548697 0 0 1
-0.295142 -0.109146 0.548697 0 0 1
-0.139125 0.0894177 0.548697 0 0 1
0.0979565 0.0138334 0.52988 0 0 -1
-0.146282 0.363491 0.52988 0 0 -1
0.357379 -0.102468 0.52988 0 0 -1
0.282288 0.138503 0.52988 0 0 -1
-0.135634 -0.223251 0.52988 0 0 -1
-0.265612 0.0144052 0.52988 0 0 -1
0.0738592 -0.0833213 0.518264 -0.603205 -0.700067 -0.382165
0.0499062 -0.0387018 0.103403 0.607562 0.66807 -0.429592
-0.211875 0.206492 0.548697 0 0 1
-0.133126 -0.0105071 0.548697 0 0 1
0.209778 -0.304792 0.548697 0 0 1
0.107597 0.0664572 0.52988 0 0 -1
0.102393 0.319819 0.52988 0 0 -1
-0.16515 -0.256517 0.548697 0 0 1
-0.0220374 0.00130766 0.434663 -0.923833 0.382795 0
0.126544 0.0547075 0.52988 0 0 -1
-0.188371 0.175907 0.548697 0 0 1
0.185243 0.278824 0.52988 0 0 -1
-0.317961 0.125399 0.52988 0 0 -1
-0.37478 -0.0952594 0.52988 0 0 -1
0.0165031 -0.303595 0.52988 0 0 -1
0.0554824 -0.242924 0.52988 0 0 -1
0.0319923 -0.0179376 0.121675 0.787986 0.615693 0
0.249797 0.00403077 0.548697 0 0 1
-0.281559 -0.172798 0.52988 0 0 -1
0.00974789 -0.0295015 0.520867 -0.603205 -0.700067 -0.382165
0.127185 -0.264026 0.548697 0 0 1
0.166395 -0.0344839 0.548697 0 0 1
0.15263 0.38978 0.548124 0.299653 0.803936 0.513707
0.133425 0.337074 0.548697 0 0 1
-0.195743 -0.145568 0.548697 0 0 1
0.0703427 0.108153 0.52988 0 0 -1
-0.0898099 0.307873 0.52988 0 0 -1
0.359101 0.203964 0.551861 0.518757 0.266158 0.812435
0.360804 0.00536453 0.548697 0 0 1
-0.0864401 -0.00126509 0.52988 0 0 -1
-0.159242 -0.173778 0.525298 0.655845 -0.754896 0
0.3105 -0.0351063 0.548697 0 0 1
-0.0649932 0.0694251 0.506802 0.603205 0.700067 -0.382164
-0.189741 -0.183213 0.0764585 -0.60718 0.667817 -0.430525
0.173667 -0.159002 0.548697 0 0 1
-0.23556 0.262275 0.52988 0 0 -1
-0.067497 0.276731 0.548697 0 0 1
0.196545 0.241317 0.52988 0 0 -1
-0.226863 0.216435 0.0795727 -0.717662 -0.686308 0.118082
0.0315254 0.316558 0.548697 0 0 1
-0.0608045 0.370795 0.52988 0 0 -1
-0.370012 0.014379 0.52988 0 0 -1
-0.152431 0.127939 0.548697 0 0 1
0.0151034 -0.345658 0.548697 0 0 1
0.124447 -0.202417 0.548697 0 0 1
0.161037 -0.0755828 0.548697 0 0 1
-0.148615 0.238225 0.52988 0 0 -1
-0.380236 -0.0807226 0.548697 0 0 1
-0.0180558 -0.0109166 0.41179 -0.923833 -0.382795 0
-0.0530489 -0.105915 0.52988 0 0 -1
0.256312 0.3313 0.547928 0.546855 0.662027 0.512513
0.211241 -0.0535044 0.52988 0 0 -1
0.190583 -0.352374 0.52988 0 0 -1
-0.0809911 -0.157566 0.548697 0 0 1
0.255318 -0.0123571 0.52988 0 0 -1
-0.310371 -0.242402 0.52988 0 0 -1
-0.0142074 0.0265669 0.508452 0.603205 0.700067 -0.382164
-0.070664 0.107213 0.548697 0 0 1
-0.0957362 -0.373151 0.52988 0 0 -1
0.0499149 0.144319 0.548697 0 0 1
-0.000104958 -0.0225363 0.248969 -0.382834 -0.923817 0
0.359101 -0.214461 0.54703 0.721462 -0.465591 0.51256
-0.210002 -0.218729 0.0757909 0.667953 -0.607388 -0.430021
-0.177233 0.0796499 0.52988 0 0 -1
-0.24912 0.213706 0.548697 0 0 1
0.0762849 -0.118045 0.52988 0 0 -1
0.0019065 0.390567 0.52988 0 0 -1
0.0180167 0.0320534 0.153559 -0.615706 0.787976 0
-0.101962 -0.0971109 0.548697 0 0 1
0.300281 -0.0110433 0.52988 0 0 -1
-0.329157 -0.145047 0.52988 0 0 -1
-0.016538 0.0145799 0.32306 -0.923833 0.382795 0
-0.128171 0.227818 0.548697 0 0 1
0.016957 -0.013569 0.324499 0.923807 -0.382859 0
-0.1477 0.213877 0.52988 0 0 -1
0.206896 -0.0902601 0.548697 0 0 1
-0.217069 0.33708 0.548697 0 0 1
-0.151809 -0.363965 0.548697 0 0 1
0.0438338 0.0116463 0.548697 0 0 1
0.109072 0.0801374 0.548697 0 0 1
-0.286541 0.224817 0.548697 0 0 1
-0.222343 -0.20381 0.52988 0 0 -1
0.349909 0.0623085 0.548697 0 0 1
0.0982288 0.295482 0.548697 0 0 1
0.0987278 -0.0879524 0.122833 0.718456 0.693586 0.0525277
-0.241601 -0.0388595 0.52988 0 0 -1
0.139852 0.301635 0.548697 0 0 1
-0.118404 0.107892 0.52988 0 0 -1
0.401116 -0.0335884 0.548697 0 0 1
-0.2924 0.23689 0.52988 0 0 -1
-0.12875 -0.335563 0.548697 0 0 1
0.101198 -0.0348702 0.52988 0 0 -1
-0.0339621 -0.29468 0.548697 0 0 1
-0.301046 0.175522 0.548697 0 0 1
-0.145784 -0.298589 0.548697 0 0 1
0.126041 0.179437 0.548697 0 0 1
0.247569 -0.145328 0.52988 0 0 -1
0.419171 -0.0182351 0.547082 0.856561 -0.0486351 0.513749
-0.308254 0.0314281 0.52988 0 0 -1
0.386557 0.0384463 0.52988 0 0 -1
-0.123014 0.134733 0.0965344 0.686291 0.717659 0.118194
0.18674 -0.194536 0.52988 0 0 -1
-0.372946 -0.111948 0.548697 0 0 1
-0.131588 -0.136742 0.121911 0.492289 -0.664529 0.562187
-0.169709 0.275478 0.548697 0 0 1
-0.0169057 -0.0136924 0.115293 -0.923833 -0.382795 0
0.22714 -0.328162 0.52988 0 0 -1
-0.361837 0.0807482 0.52988 0 0 -1
-0.0779785 0.0660178 0.116991 -0.718453 -0.693589 0.0525279
-0.0505567 -0.0378845 0.120577 -0.718453 0.693589 0.0525279
0.0171931 -0.123664 0.52988 0 0 -1
0.323877 -0.173646 0.52988 0 0 -1
0.113444 0.360932 0.52988 0 0 -1
-0.251558 0.192054 0.52988 0 0 -1
0.0299753 -0.019336 0.159122 0.845125 0.23306 0.481089
0.221713 0.203369 0.52988 0 0 -1
-0.175906 -0.141117 0.52988 0 0 -1
-0.346528 0.114944 0.52988 0 0 -1
-0.102098 -0.0556563 0.548697 0 0 1
-0.0712871 0.123668 0.52988 0 0 -1
-0.352644 -0.215375 0.537463 -0.844339 -0.53581 0
-0.244248 0.0468099 0.52988 0 0 -1
0.331935 0.119909 0.52988 0 0 -1
0.129578 -0.130402 0.548697 0 0 1
-0.286125 0.248097 0.548697 0 0 1
-0.334506 0.241068 0.549725 0.840242 -0.542211 0
-0.356545 -0.143276 0.52988 0 0 -1
0.382036 -0.0543525 0.548697 0 0 1
0.321 0.203776 0.548697 0 0 1
-0.219638 0.144009 0.548697 0 0 1
0.00515039 -0.131915 0.548697 0 0 1
-0.0114815 0.16033 0.548697 0 0 1
0.343293 -0.042668 0.52988 0 0 -1
-0.010491 -0.0784308 0.52988 0 0 -1
-0.10062 -0.122848 0.527451 0.655845 -0.754896 0
-0.0362826 -0.200216 0.548697 0 0 1
0.0432071 0.400097 0.548697 0 0 1
-0.0033075 -0.021252 0.503013 -0.384143 -0.923273 -0.00120324
-0.327109 -0.109739 0.52988 0 0 -1
0.0579281 0.104098 0.548697 0 0 1
0.0321388 0.0633518 0.527355 -0.655839 0.754901 0
-0.262047 0.140743 0.548697 0 0 1
0.0465172 -0.28288 0.548697 0 0 1
0.137851 -0.375527 0.52988 0 0 -1
0.0576586 -0.0383961 0.548697 0 0 1
0.0867563 0.362743 0.52988 0 0 -1
-0.318631 -0.261287 0.550701 0.782046 0.623221 0
0.176859 0.115613 0.548697 0 0 1
-0.276906 -0.0377671 0.52988 0 0 -1
-0.3294 -0.197734 0.52988 0 0 -1
-0.168976 -0.0226298 0.548697 0 0 1
-0.276874 0.280118 0.52988 0 0 -1
-0.0148924 0.332439 0.548697 0 0 1
-0.151444 -0.099658 0.548697 0 0 1
-0.176888 0.0207318 0.548697 0 0 1
-0.130618 -0.281226 0.548697 0 0 1
0.37051 0.0766079 0.52988 0 0 -1
-0.232704 0.295603 0.52988 0 0 -1
-0.155043 -0.132699 0.548697 0 0 1
0.300378 0.238516 0.52988 0 0 -1
-0.224664 -0.0931068 0.52988 0 0 -1
-0.282658 -0.154638 0.548697 0 0 1
-0.138081 0.334377 0.52988 0 0 -1
0.0292719 0.0421061 0.122659 -0.68957 0.722314 0.0524956
-0.0199178 0.294276 0.52988 0 0 -1
-0.058149 -0.382943 0.548697 0 0 1
-0.223745 -0.166628 0.548697 0 0 1
0.0546738 0.283594 0.52988 0 0 -1
-0.258227 -0.00994418 0.548697 0 0 1
0.0377317 0.124151 0.52988 0 0 -1
-0.0261325 -0.105755 0.52988 0 0 -1
-0.407384 -0.0845358 0.55044 -0.57393 -0.0966051 0.813186
-0.391248 0.0525065 0.52988 0 0 -1
0.0409581 -0.0537665 0.117259 -0.69359 -0.718454 0.0525015
-0.179216 0.353162 0.52988 0 0 -1
-0.274722 -0.193507 0.548697 0 0 1
-0.121905 -0.0182276 0.52988 0 0 -1
-0.311158 0.204206 0.548697 0 0 1
-0.180689 -0.173782 0.106912 -0.664502 0.492254 0.562249
0.307106 -0.240264 0.52988 0 0 -1
0.023526 -0.186762 0.52988 0 0 -1
-0.0835387 -0.0940835 0.128074 0.693587 -0.718455 0.0525277
0.0392001 0.334144 0.52988 0 0 -1
-0.400499 -0.0533239 0.548697 0 0 1
-0.0618621 0.247268 0.548697 0 0 1
0.00893252 0.0314281 0.52988 0 0 -1
-0.382872 -0.00925111 0.52988 0 0 -1
-0.0506653 0.0620382 0.13231 0.693587 0.718455 0.0525275
-0.345773 0.13481 0.548697 0 0 1
0.020708 -0.00451822 0.293652 0.923807 -0.382859 0
-0.0063424 -0.387484 0.52988 0 0 -1
0.249276 -0.339433 0.540983 0.636912 -0.770936 0
-0.0502997 0.180593 0.548697 0 0 1
0.00887368 0.0189028 0.196101 0.382861 0.923806 0
-0.0287641 0.381912 0.548697 0 0 1
0.272961 0.204304 0.52988 0 0 -1
-0.200434 0.0721275 0.548697 0 0 1
0.200955 0.0656411 0.52988 0 0 -1
0.208646 0.174538 0.548697 0 0 1
0.345693 -0.11959 0.548697 0 0 1
-0.062339 0.326454 0.52988 0 0 -1
0.170751 0.127572 0.52988 0 0 -1
0.116762 -0.300725 0.548697 0 0 1
-0.131346 -0.0347499 0.548697 0 0 1
0.0229784 0.00860905 0.136703 0.70711 -0.707103 0
0.335889 -0.152553 0.548697 0 0 1
0.119474 -0.0752372 0.548697 0 0 1
0.377462 -0.130427 0.52988 0 0 -1
0.222836 -0.101947 0.52988 0 0 -1
0.223505 0.229553 0.0926921 -0.492746 0.664768 0.561502
0.084315 -0.00407331 0.548697 0 0 1
0.235749 0.109049 0.548697 0 0 1
-0.324146 0.176586 0.52988 0 0 -1
-0.0665786 -0.200471 0.52988 0 0 -1
0.229499 -0.178921 0.52988 0 0 -1
0.105977 -0.388913 0.52988 0 0 -1
-0.0529029 -0.123098 0.548697 0 0 1
-0.1886 0.247741 0.52988 0 0 -1
-0.0307207 0.205029 0.52988 0 0 -1
-0.29533 -0.0567227 0.548697 0 0 1
-0.000584994 -0.243174 0.52988 0 0 -1
0.0125945 0.301516 0.548697 0 0 1
-0.0413279 0.0591239 0.52988 0 0 -1
0.284013 0.166221 0.548697 0 0 1
-0.137964 0.272722 0.52988 0 0 -1
-0.222057 0.30991 0.548697 0 0 1
-0.412354 0.028445 0.535344 0.998391 -0.0566996 0
0.290687 -0.249401 0.548697 0 0 1
0.277656 0.0993832 0.548697 0 0 1
-0.292495 0.296475 0.549623 -0.416575 0.407845 0.812482
-0.306169 -0.0314017 0.548697 0 0 1
0.0902002 -0.218179 0.52988 0 0 -1
-0.24998 -0.329118 0.539182 0.636877 0.770965 0
-0.0647837 -0.280484 0.548697 0 0 1
0.233096 -0.241068 0.52988 0 0 -1
0.261929 0.0280751 0.548697 0 0 1
-0.00307906 -0.265537 0.548697 0 0 1
0.0494695 -0.378868 0.52988 0 0 -1
-0.244774 0.323988 0.52988 0 0 -1
-0.0394758 -0.359852 0.548697 0 0 1
0.260191 -0.256949 0.0204092 0.703331 -0.703331 0.10321
-0.245285 -0.157113 0.52988 0 0 -1
0.150018 -0.0603265 0.52988 0 0 -1
0.0975902 -0.322134 0.548697 0 0 1
-0.058527 0.351739 0.548697 0 0 1
0.205318 -0.127993 0.52988 0 0 -1
-0.182415 0.197627 0.52988 0 0 -1
0.279362 -0.216794 0.548697 0 0 1
-0.000485791 -0.0550717 0.52988 0 0 -1
0.105472 0.104605 0.510313 0.700074 -0.603201 -0.382158
-0.0753503 0.232019 0.52988 0 0 -1
-0.0648455 -0.0104115 0.52988 0 0 -1
-0.0205584 0.116447 0.52988 0 0 -1
0.0549863 -0.314297 0.52988 0 0 -1
0.170914 0.349769 0.548697 0 0 1
-0.0998843 0.0534207 0.548697 0 0 1
-0.192828 0.272283 0.52988 0 0 -1
0.292308 0.0726955 0.52988 0 0 -1
-0.350461 -0.0447282 0.52988 0 0 -1
0.135057 0.234142 0.52988 0 0 -1
-0.0720183 0.406877 0.530627 -0.086687 0.576226 -0.81268
-0.171485 -0.0722557 0.52988 0 0 -1
-0.249913 -0.0716953 0.52988 0 0 -1
0.0583489 -0.367138 0.548697 0 0 1
0.0301306 0.178474 0.548697 0 0 1
-0.029466 0.235193 0.548697 0 0 1
0.0397239 -0.347386 0.548697 0 0 1
0.105824 0.170394 0.52988 0 0 -1
-0.029017 -0.176614 0.548697 0 0 1
0.389785 0.00403043 0.52988 0 0 -1
0.144847 0.149901 0.117966 -0.492746 0.664768 0.561502
0.0823934 0.0540554 0.52938 0.754897 -0.655843 0
-0.0537872 -0.0639241 0.139855 0.492505 -0.664629 0.561878
-0.259021 -0.21741 0.548697 0 0 1
0.201522 -0.203676 0.101983 0.146702 -0.146665 0.978247
0.199065 -0.0726943 0.52988 0 0 -1
-0.199172 0.0381792 0.548697 0 0 1
-0.252989 0.248629 0.548697 0 0 1
0.0549156 0.0233762 0.52988 0 0 -1
-0.301205 -0.196366 0.52988 0 0 -1
0.0699307 -0.0574642 0.114138 0.718456 0.693586 0.0525277
0.0287027 -0.146293 0.52988 0 0 -1
0.117292 0.134981 0.52988 0 0 -1
0.0852854 0.220191 0.548697 0 0 1
0.177567 0.175812 0.523859 0 0 -1
0.0958127 -0.0626915 0.52988 0 0 -1
0.205222 -0.0200984 0.52988 0 0 -1
0.185535 -0.314194 0.52988 0 0 -1
0.0137684 0.101009 0.52988 0 0 -1
-0.143592 0.064806 0.548697 0 0 1
-0.273305 0.00876948 0.548697 0 0 1
-0.21019 0.0520763 0.52988 0 0 -1
-0.304382 0.000613846 0.52988 0 0 -1
0.35774 -0.139989 0.52988 0 0 -1
-0.0634832 -0.188588 0.548697 0 0 1
0.167097 -0.226381 0.52988 0 0 -1
0.247625 0.14039 0.548697 0 0 1
-0.0869914 0.359274 0.548697 0 0 1
0.18753 0.297745 0.548697 0 0 1
0.218362 -0.241136 0.548697 0 0 1
0.173767 0.0793653 0.52988 0 0 -1
-0.186132 0.125122 0.52988 0 0 -1
-0.105909 0.0943233 0.108725 -0.718453 -0.693589 0.0525279
0.217276 0.306175 0.548697 0 0 1
-0.0761339 -0.0437857 0.548697 0 0 1
0.113808 0.102845 0.113215 0.718456 -0.693586 0.0525279
0.247817 0.239164 0.0295275 0 -0.994636 0.103438
0.387193 0.141222 0.54805 -0.930804 -0.365519 0
0.0209616 -0.0479424 0.548697 0 0 1
0.00514392 0.205616 0.52988 0 0 -1
-0.204989 -0.226452 0.548697 0 0 1
-0.39774 -0.129529 0.548207 -0.799552 -0.31411 0.511909
0.0582462 -0.0725193 0.523119 -0.603205 -0.700067 -0.382165
-0.121393 0.109254 0.0976351 -0.717662 -0.686308 0.118082
-0.286236 0.111432 0.52988 0 0 -1
0.0279552 -0.0990558 0.548697 0 0 1
0.07528 0.386402 0.548697 0 0 1
-0.314775 0.0928394 0.52988 0 0 -1
0.193364 0.238777 0.548697 0 0 1
-0.0290932 -0.262276 0.52988 0 0 -1
-0.235398 0.0901292 0.52988 0 0 -1
0.12231 -0.154103 0.52988 0 0 -1
0.146519 -0.154519 0.0837028 -0.66779 -0.607119 -0.430655
0.00117254 0.246459 0.548697 0 0 1
-0.0785565 -0.127333 0.548697 0 0 1
-0.101038 -0.321768 0.52988 0 0 -1
0.0723578 -0.0433059 0.52988 0 0 -1
0.0649989 0.169028 0.52988 0 0 -1
-0.195806 -0.348191 0.548697 0 0 1
0.269791 -0.0225558 0.548697 0 0 1
0.0876662 -0.411045 0.544418 0.148799 -0.988867 0
0.156648 -0.327145 0.52988 0 0 -1
-0.0339538 0.116538 0.548697 0 0 1
-0.088446 0.275535 0.52988 0 0 -1
-0.0733303 -0.241989 0.548697 0 0 1
0.417472 0.0268958 0.533475 0.580865 0.0330651 -0.813328
-0.00356429 -0.0211028 0.176966 -0.382834 -0.923817 0
-0.0674801 -0.0596439 0.52988 0 0 -1
0.0909106 0.391249 0.52988 0 0 -1
-0.0328704 -0.0259454 0.52988 0 0 -1
0.0411292 -0.0501778 0.52988 0 0 -1
-0.168009 0.211023 0.548697 0 0 1
-0.270088 0.215988 0.52988 0 0 -1
-0.260041 -0.103689 0.548697 0 0 1
0.312907 0.0663243 0.548697 0 0 1
0.125453 -0.184213 0.52988 0 0 -1
0.167042 0.339242 0.52988 0 0 -1
-0.0186479 0.00948784 0.261178 -0.923833 0.382795 0
0.0264489 -0.0259778 0.489669 0.700906 0.605248 -0.377368
0.236215 -0.15841 0.548697 0 0 1
0.0673978 0.0553383 0.120712 0.718456 -0.693586 0.0525279
0.35322 -0.189882 0.548697 0 0 1
0.0421246 -0.255135 0.548697 0 0 1
0.266782 -0.273467 0.548697 0 0 1
0.190285 -0.0034169 0.548697 0 0 1
0.235168 0.170951 0.52988 0 0 -1
0.244279 0.242184 0.52988 0 0 -1
0.146857 0.184685 0.52988 0 0 -1
0.152661 0.003323 0.548697 0 0 1
-0.262162 -0.247009 0.0194481 -0.99466 0 0.10321
-0.23977 0.165928 0.548697 0 0 1
0.195314 -0.220318 0.548697 0 0 1
-0.0678476 0.152853 0.52988 0 0 -1
-0.23329 -0.269007 0.52988 0 0 -1
-0.0962745 0.345508 0.52988 0 0 -1
-0.162397 -0.0417022 0.52988 0 0 -1
0.0415341 0.409398 0.52988 0 0 -1
-0.10345 0.311754 0.548697 0 0 1
-0.269826 -0.276581 0.548697 0 0 1
0.203252 0.103915 0.548697 0 0 1
-0.000955389 -0.000771008 0.0993526 0 0 1
-0.206839 0.358577 0.549254 0.450038 -0.893009 0
0.197268 -0.15051 0.548697 0 0 1
-0.0404466 -0.415988 0.547925 -0.0424667 -0.857809 0.512211
-0.0224994 0.189363 0.548697 0 0 1
-0.220742 -0.339144 0.52988 0 0 -1
-0.295547 0.193838 0.52988 0 0 -1
-0.0336603 -0.312929 0.52988 0 0 -1
0.337005 0.237197 0.531992 -0.840242 -0.542211 0
-0.0195237 -0.122728 0.548697 0 0 1
0.305177 -0.129183 0.548697 0 0 1
0.156745 -0.186225 0.52988 0 0 -1
-0.0670968 0.0102014 0.548697 0 0 1
-0.354504 -0.0761162 0.52988 0 0 -1
0.0982577 0.40767 0.546028 0.213525 0.831825 0.512323
0.279224 0.116044 0.52988 0 0 -1
0.166441 0.15449 0.523859 0 0 -1
-0.347778 0.189253 0.52988 0 0 -1
0.0996603 -0.22964 0.548697 0 0 1
-0.1873 0.297984 0.52988 0 0 -1
-0.33715 -0.0103303 0.52988 0 0 -1
0.247729 0.0883449 0.52988 0 0 -1
-0.130607 -0.119812 0.107467 -0.718453 0.693589 0.0525279
-0.332436 -0.222658 0.548697 0 0 1
0.0216134 0.340616 0.548697 0 0 1
-0.405787 0.108258 0.542205 -0.963133 0.269027 0
-0.370957 0.190121 0.533515 -0.518753 0.266169 -0.812434
0.350068 0.169519 0.52988 0 0 -1
0.0894977 0.12741 0.548697 0 0 1
-0.00221395 -0.187043 0.548697 0 0 1
-0.415123 -0.0285127 0.550478 -0.581353 -0.0330925 0.812978
-0.127453 0.15808 0.52988 0 0 -1
0.157946 -0.141019 0.529486 0.754897 0.655843 0
-0.0791302 -0.0788717 0.502675 -0.700077 0.60321 -0.382138
0.402948 -0.0905422 0.547198 -0.963131 0.269032 0
0.235457 -0.0642902 0.548697 0 0 1
0.23961 0.287434 0.52988 0 0 -1
0.254725 0.0412448 0.52988 0 0 -1
-0.202314 0.209102 0.0983112 0.492717 0.664793 0.561498
0.208726 0.0512501 0.548697 0 0 1
0.157558 0.152064 0.548697 0 0 1
-0.322332 -0.107939 0.548697 0 0 1
0.11041 -0.0187105 0.548697 0 0 1
-0.183397 -0.0501465 0.548697 0 0 1
-0.154964 0.175929 0.52988 0 0 -1
-0.310545 -0.162591 0.52988 0 0 -1
-0.0317633 0.32174 0.52988 0 0 -1
-0.11837 0.285794 0.52988 0 0 -1
-0.166926 -0.344884 0.548697 0 0 1
0.203345 0.355965 0.52988 0 0 -1
0.0169983 0.0134694 0.322565 0.923807 0.382859 0
-0.2325 0.239503 0.0869295 0.383459 0.760554 0.523943
-0.00376907 -0.00469521 0.548697 0 0 1
0.234558 -0.273147 0.548697 0 0 1
0.0101947 0.0795531 0.548697 0 0 1
0.0513301 -0.194129 0.548697 0 0 1
-0.0516965 0.0383473 0.111099 -0.718453 -0.693589 0.0525279
-0.0291197 0.0218911 0.16186 -0.845125 -0.23306 0.481089
-0.234589 -0.296886 0.548697 0 0 1
-0.119674 -0.200231 0.52988 0 0 -1
0.0345047 0.0730492 0.548697 0 0 1
0.22943 0.343785 0.547748 -0.548375 -0.836232 0
0.40686 0.072027 0.531842 0.982297 0.187329 0
0.0290846 0.0102918 0.519244 0.700074 -0.603201 -0.382158
-0.0178739 -0.0113558 0.316623 -0.923833 -0.382795 0
0.0460874 -0.409724 0.552207 -0.148769 0.988872 0
-0.0978985 0.0719037 0.5248 -0.754896 -0.655844 0
-0.390251 0.133435 0.548998 0.930804 -0.365519 0
-0.136927 0.0168653 0.548697 0 0 1
0.311385 0.16154 0.548697 0 0 1
0.345279 0.125183 0.548697 0 0 1
-0.283787 -0.21001 0.52988 0 0 -1
-0.273635 0.0581173 0.548697 0 0 1
0.295576 0.0241944 0.548697 0 0 1
-0.0702797 -0.0861329 0.523859 0 0 -1
-0.171356 0.000497811 0.548697 0 0 1
-0.120393 -0.120275 0.512914 -0.700077 0.60321 -0.382138
0.165529 -0.291884 0.52988 0 0 -1
-0.255118 0.260958 0.0276572 -0.703329 0.703329 0.103233
0.223785 0.141548 0.548697 0 0 1
0.0217268 -0.00206001 0.205232 0.923807 -0.382859 0
-0.137845 -0.250919 0.52988 0 0 -1
0.0206215 -0.00472701 0.243456 0.923807 -0.382859 0
0.189026 0.21036 0.548697 0 0 1
0.185944 -0.158022 0.52988 0 0 -1
-0.376392 -0.175448 0.532178 -0.518834 -0.266211 -0.812369
0.200884 -0.369993 0.542523 0.450042 -0.893007 0
-0.237289 0.243733 0 0 0 -1
-0.123801 -0.38107 0.548697 0 0 1
-0.160308 0.318357 0.52988 0 0 -1
-0.0741777 -0.405498 0.548587 0.148765 0.988873 0
0.0914916 0.0916002 0.52988 0 0 -1
-0.11218 0.324676 0.52988 0 0 -1
0.334504 -0.241072 0.529961 -0.840242 0.542211 0
-0.0177682 0.308345 0.548697 0 0 1
-0.321925 0.0567791 0.548697 0 0 1
-0.307159 0.258758 0.52988 0 0 -1
-0.220704 -0.116538 0.52988 0 0 -1
0.3134 -0.265723 0.52988 0 0 -1
-0.126325 0.35977 0.548697 0 0 1
0.000616977 -0.215405 0.548697 0 0 1
-0.0669074 0.05296 0.52988 0 0 -1
0.154667 -0.0979149 0.52988 0 0 -1
-0.103766 -0.148278 0.52988 0 0 -1
0.232419 -0.298124 0.52988 0 0 -1
-0.0970266 0.131702 0.52988 0 0 -1
-0.154015 0.142407 0.0920581 -0.717662 -0.686308 0.118082
0.00332101 0.021204 0.408405 0.382861 0.923806 0
0.303702 -0.110167 0.52988 0 0 -1
0.285394 -0.293772 0.52988 0 0 -1
0.0665683 0.0814961 0.52988 0 0 -1
0.185435 0.172703 0.548697 0 0 1
0.128067 -0.226827 0.548697 0 0 1
0.0360661 0.026536 0.102726 0.617905 -0.633877 -0.46518
-0.335093 0.0498293 0.52988 0 0 -1
0.0838729 -0.325859 0.52988 0 0 -1
-0.330017 -0.035599 0.548697 0 0 1
-0.0785236 -0.110934 0.52988 0 0 -1
0.00421182 0.41756 0.548296 0.0425121 0.857501 0.512724
-0.336198 0.158758 0.548697 0 0 1
0.00740743 0.18957 0.548697 0 0 1
-0.0168438 0.0509707 0.523859 0 0 -1
0.0428334 -0.401186 0.52988 0 0 -1
0.28193 -0.232437 0.52988 0 0 -1
0.00305525 -0.356827 0.52988 0 0 -1
-0.112037 -0.100561 0.0950805 -0.60716 0.667836 -0.430524
0.176395 0.186355 0.0930421 -0.686298 0.717661 0.118141
-0.151403 0.0330023 0.52988 0 0 -1
-0.234766 -0.232974 0.067624 0.229878 0.229878 -0.945681
0.121274 0.367083 0.548697 0 0 1
0.0107765 0.078567 0.52988 0 0 -1
0.161367 -0.171243 0.100354 -0.69359 -0.718454 0.0525015
0.23471 -0.0892592 0.548697 0 0 1
0.0725302 0.293407 0.548697 0 0 1
-0.231792 -0.204662 0.548697 0 0 1
0.102286 -0.087993 0.52988 0 0 -1
-0.14327 -0.197545 0.52988 0 0 -1
-0.0176669 0.0118552 0.289622 -0.923833 0.382795 0
0.074843 -0.0192534 0.52988 0 0 -1
0.401628 0.0994616 0.543504 0.982297 0.187329 0
0.071366 -0.391858 0.52988 0 0 -1
-0.0456418 -0.141716 0.52988 0 0 -1
0.19735 0.188871 0.0784115 0.607416 -0.667927 -0.430022
0.374829 0.175576 0.551119 0.518884 0.266255 0.812322
0.105768 0.0179377 0.548697 0 0 1
0.11701 -0.272021 0.52988 0 0 -1
-0.220612 -0.142116 0.52988 0 0 -1
0.0551011 -0.352537 0.52988 0 0 -1
0.177542 0.303517 0.52988 0 0 -1
0.112867 -0.118092 0.086747 -0.0765904 0.0765996 -0.994116
0.0939149 -0.0822483 0.0979234 0.607562 0.66807 -0.429592
0.133801 -0.395944 0.549024 0.203333 -0.54552 0.813058
-0.0159633 -0.297323 0.52988 0 0 -1
0.122426 0.0878778 0.52988 0 0 -1
0.162669 0.291623 0.548697 0 0 1
-0.265491 0.323615 0.548061 -0.546733 0.661878 0.512836
-0.0730133 -0.340825 0.52988 0 0 -1
-0.192319 0.339705 0.548697 0 0 1
-0.1764 -0.185094 0.548697 0 0 1
-0.255524 0.302734 0.52988 0 0 -1
0.227544 -0.139986 0.52988 0 0 -1
0.166885 0.0666574 0.548697 0 0 1
0.161351 -0.384345 0.532423 0.203339 -0.545518 -0.813058
-0.0920306 -0.192098 0.52988 0 0 -1
-0.416875 0.00510773 0.550176 -0.580939 0.0330689 0.813275
-0.0390548 0.0248451 0.514901 -0.700909 -0.605256 -0.377348
-0.00368797 -0.410848 0.52988 0 0 -1
-0.293883 0.0215055 0.548697 0 0 1
0.279783 0.31423 0.537584 0.636912 0.770936 0
-0.00399435 0.0209245 0.174582 -0.382834 0.923817 0
-0.310955 0.242618 0.548697 0 0 1
-0.126336 0.386313 0.52988 0 0 -1
-0.294851 -0.28912 0.552105 -0.416519 -0.407906 0.812481
0.0133164 0.0559654 0.548697 0 0 1
-0.210182 -0.361381 0.532852 -0.318793 -0.486231 -0.813603
0.119918 -0.108853 0.108984 0.718456 0.693586 0.0525277
-0.151757 -0.32476 0.548697 0 0 1
0.312705 0.0274756 0.52988 0 0 -1
-0.0286381 0.0142701 0.124834 -0.70711 -0.707103 0
-0.020825 0.403352 0.52988 0 0 -1
0.0702256 0.061044 0.514502 0.700074 -0.603201 -0.382158
0.253458 -0.222376 0.548697 0 0 1
0.0772224 0.198858 0.52988 0 0 -1
0.0084886 -0.0090676 0.52988 0 0 -1
-0.292073 0.276179 0.548697 0 0 1
0.330629 0.190018 0.52988 0 0 -1
-0.224845 0.120855 0.548697 0 0 1
-0.117115 -0.396484 0.529966 -0.248711 -0.968578 0
0.0613749 0.042239 0.523859 0 0 -1
-0.113744 0.199377 0.52988 0 0 -1
0.253501 0.314968 0.52988 0 0 -1
0.0769263 -0.146296 0.548697 0 0 1
-0.380668 0.146468 0.52988 0 0 -1
-0.0303539 -0.0406476 0.509023 0.605253 -0.7009 -0.377368
0.0894391 -0.193215 0.52988 0 0 -1
-0.293669 0.086308 0.548697 0 0 1
-0.377047 -0.142539 0.548697 0 0 1
-0.0210646 0.0796849 0.548697 0 0 1
0.264588 -0.106653 0.52988 0 0 -1
-0.0156316 0.016102 0.357827 -0.382834 0.923817 0
0.410679 0.0520045 0.533649 0.982297 0.187329 0
0.123863 0.135957 0.0940243 -0.686298 0.717661 0.118141
0.165568 0.37363 0.548697 0 0 1
-0.00656608 -0.402494 0.548697 0 0 1
0.0179937 -0.249185 0.548697 0 0 1
-0.0319005 -0.396316 0.548697 0 0 1
-0.160306 0.382102 0.530657 -0.203339 0.545518 -0.813058
-0.0384909 -0.233989 0.52988 0 0 -1
-0.328675 0.0285982 0.548697 0 0 1
-0.192445 -0.0191838 0.548697 0 0 1
-0.0827427 0.381291 0.52988 0 0 -1
0.261927 -0.317891 0.548697 0 0 1
-0.0540166 0.416108 0.53829 -0.148799 0.988867 0
-0.114216 0.00447357 0.548697 0 0 1
0.380731 -0.102449 0.52988 0 0 -1
0.0287115 -0.040783 0.133503 -0.68957 -0.722314 0.0524956
0.182705 -0.35415 0.548697 0 0 1
0.133089 -0.112407 0.525686 0.754897 0.655843 0
-0.164795 -0.387283 0.542213 -0.349288 -0.937015 0
-0.0305792 0.268498 0.548697 0 0 1
0.20044 0.0344242 0.52988 0 0 -1
0.302749 -0.0664159 0.52988 0 0 -1
0.0312755 0.270732 0.548697 0 0 1
-0.13379 0.125772 0.120309 -0.664507 -0.492248 0.562248
-0.271276 -0.0194895 0.52988 0 0 -1
0.0776404 0.255726 0.52988 0 0 -1
0.0619198 -0.112759 0.548697 0 0 1
0.0873934 -0.175587 0.548697 0 0 1
-0.356991 0.00299364 0.548697 0 0 1
0.325934 0.264144 0.539037 0.781979 0.623305 0
0.0661948 0.352437 0.52988 0 0 -1
0.032803 -0.321508 0.52988 0 0 -1
0.288887 -0.194558 0.548697 0 0 1
0.0482658 0.060549 0.120985 -0.69359 0.718454 0.0525014
0.371222 -0.159909 0.52988 0 0 -1
-0.229943 -0.323779 0.548697 0 0 1
0.0953479 0.039638 0.52988 0 0 -1
0.0434752 -0.0306606 0.52988 0 0 -1
-0.286118 -0.0954061 0.52988 0 0 -1
0.0199762 -0.00634131 0.492331 0.923265 -0.384161 -0.0011974
0.0754785 0.241918 0.548697 0 0 1
0.117951 -0.22367 0.52988 0 0 -1
0.10848 0.263048 0.52988 0 0 -1
0.243286 -0.273731 0.52988 0 0 -1
0.0140848 -0.0167431 0.365273 0.382861 -0.923806 0
-0.183088 0.221765 0.52988 0 0 -1
0.384671 -0.132527 0.548697 0 0 1
0.146047 -0.246201 0.52988 0 0 -1
-0.263484 0.166841 0.548697 0 0 1
-0.00918273 -0.354522 0.548697 0 0 1
-0.0791265 -0.372393 0.548697 0 0 1
0.346489 0.0241265 0.548697 0 0 1
0.181732 0.0359138 0.548697 0 0 1
0.339124 -0.23846 0.55069 0.49008 -0.31625 0.812285
0.00270453 -0.0214595 0.421744 0.382861 -0.923806 0
-0.00981153 -0.0185139 0.366827 -0.382834 -0.923817 0
0.00697837 -0.0939412 0.52988 0 0 -1
-0.0304789 -0.40696 0.52988 0 0 -1
0.291103 0.226726 0.548697 0 0 1
0.0843092 -0.287505 0.548697 0 0 1
0.132532 0.273187 0.548697 0 0 1
-0.0388317 0.0441434 0.548697 0 0 1
0.349211 0.156322 0.548697 0 0 1
-0.18681 -0.241245 0.548697 0 0 1
0.0497203 0.236668 0.52988 0 0 -1
0.0530358 0.0330986 0.548697 0 0 1
-0.221925 -0.0472787 0.52988 0 0 -1
-0.195734 0.115308 0.548697 0 0 1
0.0280033 -0.12858 0.548697 0 0 1
0.106836 -0.1287 0.548697 0 0 1
-0.0783192 0.297288 0.548697 0 0 1
0.0902135 0.0658386 0.548697 0 0 1
-0.316592 -0.125226 0.52988 0 0 -1
-0.0298407 -0.36974 0.52988 0 0 -1
-0.0413465 0.337582 0.548697 0 0 1
0.0198091 -0.0110762 0.0996523 0.555975 -0.285731 -0.780544
0.133156 0.0278708 0.548697 0 0 1
-0.272417 0.182168 0.52988 0 0 -1
-0.211157 0.253018 0.52988 0 0 -1
0.193233 0.265765 0.548697 0 0 1
-0.111936 -0.0880613 0.527455 -0.754896 0.655844 0
-0.0502787 0.100252 0.548697 0 0 1
0.247723 -0.108367 0.548697 0 0 1
0.224584 0.0306576 0.52988 0 0 -1
-0.0451757 0.00255566 0.52988 0 0 -1
-0.359554 -0.0600423 0.548697 0 0 1
0.136208 0.12944 0.523859 0 0 -1
0.165085 0.210568 0.52988 0 0 -1
-0.1328 -0.197037 0.548697 0 0 1
0.0206869 0.00456903 0.108209 0.923807 0.382859 0
-0.30841 -0.0772946 0.548697 0 0 1
-0.304264 -0.264574 0.52988 0 0 -1
-0.269374 0.118946 0.548697 0 0 1
-0.0374763 0.229785 0.52988 0 0 -1
0.306898 0.117961 0.52988 0 0 -1
-0.0909716 0.116864 0.548697 0 0 1
0.0985294 0.272546 0.548697 0 0 1
0.12474 0.316056 0.52988 0 0 -1
0.362557 0.197506 0.53057 0.518743 0.266183 -0.812436
-0.0585527 -0.260038 0.52988 0 0 -1
0.0271416 -0.0380045 0.508989 -0.603205 -0.700067 -0.382165
-0.391545 0.0812014 0.548697 0 0 1
-0.246834 0.341358 0.541853 -0.548377 0.836231 0
0.105907 0.209128 0.548697 0 0 1
-0.252745 0.257991 0.0550629 0.187578 0.972636 0.137091
0.0108666 0.13718 0.52988 0 0 -1
-0.0217171 0.261412 0.52988 0 0 -1
-0.193653 -0.0729589 0.548697 0 0 1
-0.150872 -0.132877 0.525901 -0.754896 0.655844 0
0.261972 0.250263 0 0 0 -1
0.347927 -0.0757181 0.52988 0 0 -1
0.148977 -0.142276 0.548697 0 0 1
0.302495 0.00253385 0.548697 0 0 1
-0.361382 0.0543194 0.52988 0 0 -1
-0.137352 0.0758649 0.52988 0 0 -1
-0.174089 -0.212869 0.548697 0 0 1
-0.00871927 0.0189665 0.115414 -0.382834 0.923817 0
-0.178806 0.190008 0.0848693 0.686291 0.717659 0.118194
-0.168509 0.0887052 0.548697 0 0 1
-0.00819823 0.0191824 0.243632 -0.382834 0.923817 0
-0.0554307 0.048906 0.506725 -0.700909 -0.605256 -0.377348
0.0180409 -0.0109536 0.184683 0.923807 -0.382859 0
-0.275726 -0.145463 0.52988 0 0 -1
-0.371621 -0.1265 0.52988 0 0 -1
-0.0183588 0.0101854 0.397997 -0.923833 0.382795 0
0.151169 0.356396 0.548697 0 0 1
-0.0355174 -0.0976622 0.548697 0 0 1
0.0268515 -0.296886 0.548697 0 0 1
0.406298 0.00538086 0.548697 0 0 1
-0.143028 0.154642 0.548697 0 0 1
-0.39285 -0.0163819 0.548697 0 0 1
0.0654034 0.00804073 0.548697 0 0 1
-0.381971 0.0116908 0.548697 0 0 1
0.26213 -0.0594081 0.548697 0 0 1
-0.167568 -0.157473 0.0992256 -0.718453 0.693589 0.0525279
-0.0924183 0.163305 0.548697 0 0 1
-0.207446 -0.0787351 0.52988 0 0 -1
-0.306127 -0.128726 0.548697 0 0 1
-0.020097 -0.0445429 0.52988 0 0 -1
0.17646 -0.0276232 0.52988 0 0 -1
-0.239339 -0.345886 0.536867 -0.470744 -0.717846 -0.51293
-0.109532 -0.289552 0.52988 0 0 -1
0.141693 0.0605952 0.548697 0 0 1
-0.210681 0.305772 0.52988 0 0 -1
-0.203944 -0.101775 0.52988 0 0 -1
0.178954 -0.236509 0.548697 0 0 1
0.215507 0.288328 0.52988 0 0 -1
-0.00527312 -0.313164 0.548697 0 0 1
0.248625 0.110635 0.52988 0 0 -1
0.208402 0.221245 0.52988 0 0 -1
-0.196911 -0.322682 0.52988 0 0 -1
0.0769162 0.332657 0.52988 0 0 -1
0.0984776 0.120783 0.523859 0 0 -1
-0.382689 0.0884472 0.52988 0 0 -1
-0.219832 -0.00798823 0.548697 0 0 1
-0.0140573 0.0891547 0.52988 0 0 -1
-0.019632 -0.00706859 0.48915 -0.924368 -0.3815 0.0011891
-0.0249402 -0.0317168 0.158777 0.233097 -0.845143 0.48104
-0.310164 0.155319 0.548697 0 0 1
-0.0709943 -0.0831499 0.111981 0.693587 -0.718455 0.0525277
-0.354217 0.22378 0.545439 -0.72147 0.465577 0.512561
0.131998 0.257283 0.52988 0 0 -1
-0.35067 0.0309319 0.548697 0 0 1
-0.0104452 0.0207651 0.52988 0 0 -1
0.0185049 -0.00983409 0.411563 0.923807 -0.382859 0
-0.210156 -0.336515 0.548697 0 0 1
0.0101425 0.0183769 0.446978 0.382861 0.923806 0
-0.150505 0.290341 0.548697 0 0 1
0.147415 -0.351507 0.52988 0 0 -1
-0.00364832 -0.151806 0.548697 0 0 1
-0.243485 -0.260387 0.0201386 0.703317 -0.703317 0.103395
-0.205665 0.162276 0.548697 0 0 1
-0.268911 0.0471866 0.52988 0 0 -1
-0.0896488 0.252176 0.52988 0 0 -1
0.243743 -0.0310389 0.52988 0 0 -1
-0.216384 -0.100874 0.548697 0 0 1
-0.116053 0.168764 0.548697 0 0 1
-0.370585 0.179754 0.551973 0.889705 -0.456535 0
0.224091 -0.0782365 0.52988 0 0 -1
0.21831 0.0822543 0.548697 0 0 1
0.117721 0.0616102 0.548697 0 0 1
0.400953 -0.0650622 0.548697 0 0 1
-0.167229 -0.278311 0.548697 0 0 1
0.236324 -0.321772 0.548697 0 0 1
0.272754 0.0511775 0.52988 0 0 -1
0.0648231 0.0773018 0.110468 -0.69359 0.718454 0.0525014
0.419122 -0.041802 0.539372 0.998392 -0.0566882 0
0.137203 -0.0392327 0.52988 0 0 -1
-0.202391 0.2262 0.548697 0 0 1
0.0346267 0.387156 0.52988 0 0 -1
0.191593 0.366261 0.551102 -0.450029 -0.893014 0
-0.268565 -0.32207 0.535563 -0.546959 -0.662094 -0.512316
0.225309 0.191055 0.548697 0 0 1
0.294276 -0.184875 0.52988 0 0 -1
0.138752 -0.135056 0.121684 0.1467 -0.146668 0.978247
0.0176659 0.215207 0.548697 0 0 1
0.308791 -0.182942 0.548697 0 0 1
-0.136004 0.187156 0.52988 0 0 -1
0.236019 0.226088 0.0752259 0.607416 -0.667927 -0.430022
0.00856545 0.149194 0.548697 0 0 1
0.178428 0.249977 0.52988 0 0 -1
-0.161679 0.17157 0.100026 0.693587 0.718455 0.0525275
-0.0150247 0.0163535 0.211039 -0.382834 0.923817 0
0.34906 -0.221024 0.530716 0.844339 -0.53581 0
-0.0788443 0.181934 0.548697 0 0 1
0.113889 -0.134374 0.526564 -0.655839 -0.754901 0
-0.0918264 0.202411 0.52988 0 0 -1
0.0163553 0.379669 0.548697 0 0 1
-0.237134 0.103031 0.548697 0 0 1
-0.238375 0.0378609 0.548697 0 0 1
-0.203192 0.191585 0.52988 0 0 -1
0.315141 0.0410412 0.548697 0 0 1
-0.18234 -0.102613 0.52988 0 0 -1
-0.145764 -0.229744 0.548697 0 0 1
0.020967 -0.00389313 0.381662 0.923807 -0.382859 0
-0.0563064 0.0595871 0.548697 0 0 1
0.273078 -0.132892 0.52988 0 0 -1
0.17639 -0.137604 0.548697 0 0 1
0.297012 0.288612 0.531089 0.416249 0.407534 -0.812806
-0.179328 -0.166824 0.524543 -0.942772 0.333438 0
0.123448 0.216008 0.52988 0 0 -1
0.175293 -0.249978 0.52988 0 0 -1
0.0308555 0.20526 0.52988 0 0 -1
-0.172566 -0.108841 0.548697 0 0 1
0.263155 0.0710598 0.548697 0 0 1
0.309752 -0.272421 0.552268 -0.781945 0.623348 0
-0.280786 -0.272411 0.52988 0 0 -1
-0.0565602 0.172314 0.52988 0 0 -1
0.262181 0.243953 0.548697 0 0 1
0.408619 -0.026477 0.52988 0 0 -1
0.0620463 -0.0648414 0.0947655 -0.0765904 0.0765996 -0.994116
0.239314 -0.229734 0.0797309 0.743014 0.658789 0.118013
-0.0803572 -0.388091 0.52988 0 0 -1
-0.150468 -0.0680188 0.52988 0 0 -1
0.251269 0.26946 0.52988 0 0 -1
0.301026 -0.213246 0.548697 0 0 1
0.170984 0.0892008 0.548697 0 0 1
-0.100085 -0.246197 0.548697 0 0 1
-0.415308 -0.041991 0.532543 -0.58136 -0.033016 -0.812976
0.105562 -0.3325 0.52988 0 0 -1
0.0484616 -0.0107845 0.548697 0 0 1
0.038541 0.112961 0.548697 0 0 1
0.0220887 0.250543 0.548697 0 0 1
0.254432 0.261608 0.0247954 0 0.99466 0.10321
-0.239321 -0.0924993 0.548697 0 0 1
-0.121272 -0.214927 0.548697 0 0 1
0.131715 0.378868 0.52988 0 0 -1
-0.097645 -0.0469944 0.52988 0 0 -1
0.11855 -0.364356 0.52988 0 0 -1
0.152866 -0.271668 0.548697 0 0 1
-0.404773 -0.0910845 0.531244 -0.560978 -0.156631 -0.812878
0.0983452 -0.075794 0.548697 0 0 1
0.403277 -0.0555709 0.52988 0 0 -1
-0.105837 0.116957 0.109653 0.693587 0.718455 0.0525275
0.0430434 0.201597 0.548697 0 0 1
-0.226702 0.232417 0.52988 0 0 -1
-0.054682 -0.314721 0.52988 0 0 -1
0.19637 0.168519 0.52988 0 0 -1
-0.131688 -0.0833918 0.52988 0 0 -1
-0.092816 -0.314944 0.548697 0 0 1
0.142377 0.339876 0.52988 0 0 -1
0.296626 -0.0734884 0.548697 0 0 1
0.360355 0.0533523 0.52988 0 0 -1
-0.374858 0.171966 0.52988 0 0 -1
-0.0364084 -0.19091 0.52988 0 0 -1
-0.265727 -0.057129 0.52988 0 0 -1
-0.0306618 0.361019 0.548697 0 0 1
0.0280866 0.156871 0.548697 0 0 1
0.274862 0.195243 0.548697 0 0 1
0.0416117 0.346928 0.548697 0 0 1
-0.121932 -0.124077 0.0855873 0.0765954 0.0765954 -0.994116
0.0221182 -0.399316 0.52988 0 0 -1
-0.216814 0.0851836 0.548697 0 0 1
-0.0877641 -0.221221 0.52988 0 0 -1
-0.208197 -0.186815 0.52988 0 0 -1
-0.154391 -0.234801 0.52988 0 0 -1
0.35895 0.0409484 0.548697 0 0 1
-0.331159 -0.245566 0.549661 0.782046 0.623221 0
-0.278885 -0.304717 0.539926 0.714455 0.699682 0
0.269221 -0.179241 0.52988 0 0 -1
0.255176 0.246313 0.060524 0.827023 -0.555414 0.0868775
0.112601 0.339822 0.548697 0 0 1
-0.102393 0.221901 0.548697 0 0 1
0.241905 0.0145251 0.52988 0 0 -1
-0.272174 -0.239093 0.548697 0 0 1
0.146979 -0.0167715 0.548697 0 0 1
-0.347299 -0.119849 0.52988 0 0 -1
0.0977366 -0.385244 0.548697 0 0 1
0.00794848 -0.148436 0.52988 0 0 -1
-0.288111 0.0390236 0.52988 0 0 -1
0.282943 0.2444 0.548697 0 0 1
-0.189608 0.367261 0.535206 0.450038 -0.893009 0
0.0877284 0.160074 0.52988 0 0 -1
-0.228744 0.0219895 0.52988 0 0 -1
-0.337073 0.238638 0.530483 -0.490056 0.316281 -0.812288
0.0528872 0.322805 0.548697 0 0 1
-0.0497576 0.352673 0.52988 0 0 -1
-0.0222307 0.136239 0.548697 0 0 1
0.254514 -0.0803507 0.548697 0 0 1
0.0452938 -0.215615 0.548697 0 0 1
0.213722 0.20454 0.0903054 0.71766 -0.68629 0.118194
-0.339906 0.201008 0.548697 0 0 1
-0.169396 0.325744 0.548697 0 0 1
0.321626 -0.146985 0.52988 0 0 -1
-0.370348 0.0825296 0.548697 0 0 1
0.175761 -0.335157 0.52988 0 0 -1
0.0742452 -0.253306 0.52988 0 0 -1
-0.160242 0.197389 0.52988 0 0 -1
-0.0113767 0.418731 0.536598 -0.0425166 0.857618 -0.512526
-0.256434 -0.126425 0.52988 0 0 -1
0.06161 0.219729 0.52988 0 0 -1
-0.300468 0.289132 0.533119 -0.416253 0.40753 -0.812806
0.336784 0.0463273 0.548697 0 0 1
0.0308844 -0.235803 0.52988 0 0 -1
-0.257884 -0.208963 0.52988 0 0 -1
0.356894 0.218983 0.536313 0.721561 0.465655 -0.512363
-0.0646162 0.0776089 0.102283 0.66782 0.607132 -0.43059
0.272598 -0.066083 0.52988 0 0 -1
-0.120716 0.247761 0.548697 0 0 1
0.326735 0.14614 0.548697 0 0 1
0.257864 -0.258137 0 0 0 -1
-0.207193 -0.0448381 0.548697 0 0 1
-0.31789 0.152391 0.52988 0 0 -1
-0.095366 0.400556 0.52988 0 0 -1
-0.114025 0.100911 0.548697 0 0 1
-0.00472713 -0.0725582 0.548697 0 0 1
-0.107915 -0.0774582 0.548697 0 0 1
-0.143798 -0.32669 0.52988 0 0 -1
0.252506 0.0616393 0.52988 0 0 -1
0.348158 0.0866411 0.548697 0 0 1
0.134383 0.39261 0.551115 0.203345 0.545551 0.813034
0.11717 -0.244214 0.548697 0 0 1
0.157241 0.107539 0.548697 0 0 1
-0.0956589 0.155157 0.52988 0 0 -1
-0.211551 0.14381 0.52988 0 0 -1
0.09853 0.0873471 0.117547 0.718456 -0.693586 0.0525279
0.253781 0.14554 0.52988 0 0 -1
-0.0659723 0.0806749 0.523859 0 0 -1
0.225719 0.0398652 0.548697 0 0 1
0.0222678 0.415471 0.532958 0.028828 0.582314 -0.812453
-0.287407 0.14224 0.548697 0 0 1
0.311896 -0.0878185 0.52988 0 0 -1
0.260974 -0.220109 0.52988 0 0 -1
0.155189 -0.313113 0.548697 0 0 1
0.00464684 -0.0206545 0.454057 0.382861 -0.923806 0
0.324193 -0.0356023 0.52988 0 0 -1
0.187234 -0.174177 0.548697 0 0 1
-0.0913663 -0.080168 0.120721 -0.718453 0.693589 0.0525279
-0.193228 -0.256968 0.52988 0 0 -1
-0.324691 -0.15134 0.548697 0 0 1
-0.151596 -0.152797 0.52988 0 0 -1
-0.0710564 -0.0594389 0.124801 -0.718453 0.693589 0.0525279
-0.165983 0.282177 0.52988 0 0 -1
0.177201 -0.260548 0.548697 0 0 1
-0.178336 -0.00255797 0.52988 0 0 -1
0.00547738 0.128026 0.548697 0 0 1
0.398079 0.118019 0.550525 0.560703 0.156568 0.813079
0.127832 0.137885 0.113824 -0.69359 0.718454 0.0525014
0.379763 -0.0341997 0.548697 0 0 1
0.0831106 0.0718079 0.123265 0.718456 -0.693586 0.0525279
-0.397861 0.0478195 0.548697 0 0 1
0.10623 -0.283424 0.548697 0 0 1
-0.236879 -0.288912 0.52988 0 0 -1
-0.0961667 0.263711 0.548697 0 0 1
-0.0982669 -0.103531 0.52988 0 0 -1
-0.171122 -0.190285 0.52988 0 0 -1
0.00719934 -0.0195967 0.267315 0.382861 -0.923806 0
0.0959044 0.316357 0.548697 0 0 1
-0.227491 0.0715444 0.52988 0 0 -1
-0.0971199 -0.108052 0.116344 0.693587 -0.718455 0.0525277
-0.174901 -0.375308 0.552054 -0.261652 -0.519196 0.813617
0.259875 -0.246067 0.0412094 0.702932 0.703729 0.103209
0.335609 5.87421e-05 0.548697 0 0 1
-0.15086 -0.293387 0.52988 0 0 -1
0.250739 0.0955554 0.548697 0 0 1
-0.128498 0.19461 0.548697 0 0 1
-0.31055 0.0514524 0.52988 0 0 -1
-0.134318 -0.2722 0.52988 0 0 -1
-0.146938 -0.136835 0.108873 -0.718453 0.693589 0.0525279
-0.130499 0.28039 0.548697 0 0 1
0.119143 -0.172799 0.548697 0 0 1
0.113697 0.23362 0.52988 0 0 -1
0.00892325 -0.0188822 0.233701 0.382861 -0.923806 0
0.322035 0.217544 0.52988 0 0 -1
0.244811 0.332815 0.53203 0.587798 0.809007 0
0.321278 0.179068 0.548697 0 0 1
-0.121733 -0.314807 0.548697 0 0 1
0.234194 0.326012 0.548697 0 0 1
0.0177798 -0.207469 0.52988 0 0 -1
0.0154977 0.356308 0.52988 0 0 -1
0.0824237 -0.0710106 0.122133 0.718456 0.693586 0.0525277
0.332961 -0.034132 0.548697 0 0 1
-0.250065 0.0764059 0.52988 0 0 -1
0.366431 -0.0127777 0.52988 0 0 -1
0.292835 0.212222 0.52988 0 0 -1
0.00662778 -0.0198336 0.344124 0.382861 -0.923806 0
-0.408207 0.0626665 0.534135 0.986097 -0.166172 0
-0.00125241 -0.0479138 0.548697 0 0 1
0.229338 0.116068 0.52988 0 0 -1
-0.204324 0.252413 0.548697 0 0 1
0.0803553 -0.0920997 0.113162 -0.69359 -0.718454 0.0525015
0.245642 -0.194866 0.548697 0 0 1
0.120109 0.304887 0.548697 0 0 1
0.0320226 -0.0690874 0.548697 0 0 1
0.356368 -0.0958193 0.548697 0 0 1
0.143703 -0.296051 0.52988 0 0 -1
0.0754562 -0.173768 0.52988 0 0 -1
0.0541841 0.0409342 0.11125 0.718456 -0.693586 0.0525279
0.131259 -0.317344 0.548697 0 0 1
0.295222 0.0899568 0.548697 0 0 1
-0.111132 -0.272647 0.548697 0 0 1
-0.0439723 0.0176207 0.548697 0 0 1
0.0620084 -0.243017 0.548697 0 0 1
0.148643 0.296255 0.52988 0 0 -1
-0.230172 0.289669 0.548697 0 0 1
0.195326 0.317095 0.548697 0 0 1
-0.0407331 -0.0538015 0.113822 0.693587 -0.718455 0.0525277
-0.0613891 0.274041 0.52988 0 0 -1
0.0897916 -0.0881863 0.507545 0.700906 0.605248 -0.377368
0.28019 -0.0432516 0.548697 0 0 1
0.113179 -0.199846 0.52988 0 0 -1
-0.000474159 0.0204391 0.548697 0 0 1
-0.111426 0.0902993 0.523859 0 0 -1
-0.171804 0.0245224 0.52988 0 0 -1
0.200219 -0.124246 0.548697 0 0 1
-0.0502231 -0.0325418 0.52285 -0.700077 0.60321 -0.382138
0.363313 -0.198263 0.533402 0.904805 -0.425826 0
0.2234 -0.180539 0.548697 0 0 1
0.0457385 -0.0895536 0.548697 0 0 1
0.21265 -0.289162 0.52988 0 0 -1
0.122575 -0.134504 0.0953699 -0.686298 -0.717661 0.118141
-0.103788 0.0965056 0.130144 -0.664507 -0.492248 0.562248
-0.00963575 -0.0185867 0.133067 -0.382834 -0.923817 0
-0.182289 0.17465 0.52988 0 0 -1
0.0439929 -0.288552 0.52988 0 0 -1
-0.162662 0.2522 0.52988 0 0 -1
0.186101 -0.196767 0.0861776 -0.686298 -0.717661 0.118141
0.0829706 -0.118698 0.548697 0 0 1
0.00377356 0.252059 0.52988 0 0 -1
-0.0754355 -0.299243 0.548697 0 0 1
-0.39372 -0.0987412 0.548697 0 0 1
-0.00137702 -0.336365 0.548697 0 0 1
-0.0961663 0.0182063 0.52988 0 0 -1
-0.0742033 -0.31789 0.52988 0 0 -1
-0.232352 0.238197 0.0671988 0.736667 0.53925 -0.408082
-0.195932 0.0154103 0.548697 0 0 1
0.0395227 0.0451865 0.52988 0 0 -1
0.00725739 0.0198074 0.507359 -0.605253 0.7009 -0.377369
0.146715 0.155439 0.0846973 -0.667755 0.607156 -0.430656
0.248598 0.239315 0.0095612 0 -0.987752 -0.156029
-0.075229 -0.104549 0.548697 0 0 1
0.178671 -0.374425 0.530935 0.261781 -0.519636 -0.813295
-0.189908 -0.281498 0.548697 0 0 1
-0.0631286 0.253105 0.52988 0 0 -1
0.384482 -0.0456287 0.52988 0 0 -1
-0.0552217 0.372853 0.548697 0 0 1
-0.291869 0.113309 0.548697 0 0 1
0.264272 0.0496105 0.548697 0 0 1
-0.33504 -0.163865 0.52988 0 0 -1
0.24911 -0.319044 0.52988 0 0 -1
-0.0646154 0.0525825 0.122365 -0.718453 -0.693589 0.0525279
0.0540474 -0.0419072 0.125966 0.718456 0.693586 0.0525277
-0.115387 -0.114577 0.52988 0 0 -1
0.18398 -0.216304 0.52988 0 0 -1
-0.315954 -0.183369 0.52988 0 0 -1
-0.143471 0.124359 0.529376 -0.754896 -0.655844 0
0.256481 0.166628 0.548697 0 0 1
-0.0188027 -0.00911409 0.216994 -0.923833 -0.382795 0
-0.00986784 0.277402 0.52988 0 0 -1
0.00812474 0.0224933 0.139555 -0.707108 0.707106 0
-0.137267 0.314291 0.548697 0 0 1
-0.366793 -0.172174 0.548697 0 0 1
0.163671 0.0435353 0.548697 0 0 1
0.0335709 -0.0243855 0.102529 0.586721 0.663319 -0.464506
0.304999 0.137462 0.52988 0 0 -1
-0.201209 -0.119094 0.548697 0 0 1
0.238997 -0.219746 0.52988 0 0 -1
-0.105336 -0.00639381 0.52988 0 0 -1
-0.389646 0.106746 0.52988 0 0 -1
0.0712288 0.148401 0.548697 0 0 1
-0.0181242 -0.0107517 0.392241 -0.923833 -0.382795 0
0.285802 0.272203 0.548697 0 0 1
0.362761 -0.0511081 0.548697 0 0 1
0.0414467 0.253768 0.548697 0 0 1
-0.0524842 -0.0810278 0.527928 0.655845 -0.754896 0
0.230512 0.0071197 0.548697 0 0 1
-0.0695809 -0.278405 0.52988 0 0 -1
-0.23905 0.266166 0.548697 0 0 1
0.127376 0.0263491 0.52988 0 0 -1
-0.121639 0.35763 0.52988 0 0 -1
0.21172 -0.163607 0.548697 0 0 1
-0.381432 -0.0757381 0.52988 0 0 -1
-0.0186376 0.00958101 0.499955 -0.923292 0.384097 -0.0011972
-0.0491205 -0.209149 0.52988 0 0 -1
-0.296211 -0.0240396 0.52988 0 0 -1
0.159435 -0.181927 0.548697 0 0 1
0.386666 0.065711 0.52988 0 0 -1
0.213306 -0.139441 0.548697 0 0 1
-0.370469 0.0370815 0.52988 0 0 -1
-0.119624 -0.182682 0.548697 0 0 1
-0.349044 -0.0398865 0.548697 0 0 1
0.352823 -0.16459 0.52988 0 0 -1
0.147489 -0.0560685 0.548697 0 0 1
0.376849 0.0949993 0.52988 0 0 -1
0.138805 -0.0807293 0.548697 0 0 1
0.118449 0.120304 0.515678 -0.605253 0.7009 -0.377369
-0.0213209 -0.00303686 0.455228 -0.923833 -0.382795 0
-0.119883 -0.352408 0.52988 0 0 -1
0.093689 -0.111859 0.523859 0 0 -1
0.166002 0.132032 0.548697 0 0 1
-0.0061836 -0.0310077 0.52988 0 0 -1
0.168946 0.233054 0.52988 0 0 -1
0.285692 -0.103009 0.52988 0 0 -1
0.366416 -0.0741848 0.548697 0 0 1
-0.256585 -0.00562506 0.52988 0 0 -1
0.102193 0.293186 0.52988 0 0 -1
-0.00173469 0.387808 0.548697 0 0 1
-0.2479 0.189378 0.548697 0 0 1
0.406981 0.0404202 0.548697 0 0 1
0.192182 -0.0501484 0.52988 0 0 -1
0.188118 -0.0948847 0.548697 0 0 1
-0.267376 0.22006 0.548697 0 0 1
-0.23977 0.256195 0.014565 0.6984 0.698523 -0.155894
-0.178338 -0.188529 0.0911303 0.686291 -0.717659 0.118195
0.339155 -0.1716 0.548697 0 0 1
0.281982 0.0969189 0.52988 0 0 -1
0.278577 0.140831 0.548697 0 0 1
0.300376 0.177412 0.548697 0 0 1
-0.285259 0.0903097 0.52988 0 0 -1
0.0360208 0.0922941 0.548697 0 0 1
0.0321271 -0.365109 0.548697 0 0 1
-0.0148822 -0.0164126 0.429984 -0.382834 -0.923817 0
0.0330265 0.101617 0.52988 0 0 -1
-0.0183254 -0.0102661 0.194473 -0.923833 -0.382795 0
0.305719 -0.165322 0.52988 0 0 -1
-0.0832369 -0.358539 0.52988 0 0 -1
-0.16677 -0.301491 0.548697 0 0 1
0.0917884 0.0755697 0.523859 0 0 -1
-0.188944 0.272274 0.548697 0 0 1
-0.191886 0.194769 0.548697 0 0 1
0.17733 0.276495 0.548697 0 0 1
-0.0335444 -0.316532 0.548697 0 0 1
-0.0707482 0.305958 0.52988 0 0 -1
0.354427 -0.141347 0.548697 0 0 1
0.208993 0.0885835 0.52988 0 0 -1
-0.156078 -0.0367779 0.548697 0 0 1
-0.188689 0.310801 0.548697 0 0 1
0.232854 -0.0127464 0.548697 0 0 1
-0.135143 -0.365452 0.52988 0 0 -1
0.0227629 -0.044987 0.52988 0 0 -1
0.293589 0.0698545 0.548697 0 0 1
0.0644838 0.0050671 0.52988 0 0 -1
-0.256202 0.0200929 0.548697 0 0 1
0.0649915 -0.287593 0.548697 0 0 1
0.160806 -0.0946292 0.548697 0 0 1
0.0476128 0.142536 0.52988 0 0 -1
0.118971 0.137259 0.548697 0 0 1
-0.355562 -0.162263 0.52988 0 0 -1
-0.181049 -0.170019 0.088238 -0.717662 0.686308 0.118082
-0.0983415 -0.373629 0.548697 0 0 1
-0.122302 -0.240017 0.52988 0 0 -1
0.186374 0.347458 0.52988 0 0 -1
-0.128892 0.230217 0.52988 0 0 -1
-0.282157 -0.211906 0.548697 0 0 1
-0.148952 0.235769 0.548697 0 0 1
-0.345786 0.0907776 0.548697 0 0 1
0.291938 -0.145828 0.52988 0 0 -1
-0.00468176 -0.267296 0.52988 0 0 -1
0.0344412 -0.164882 0.52988 0 0 -1
0.195319 -0.00392868 0.52988 0 0 -1
0.314199 -0.0123743 0.548697 0 0 1
0.255029 0.187838 0.52988 0 0 -1
-0.160617 0.070539 0.52988 0 0 -1
-0.0411628 0.0284714 0.125117 -0.722289 -0.689594 0.0525221
-0.14008 0.334201 0.548697 0 0 1
-0.0221361 -0.22448 0.52988 0 0 -1
0.00730492 0.322405 0.548697 0 0 1
