-0.259599 -0.302563 0.57572 0 0 -1
0.123121 -0.218789 0.221916 0.469328 -0.812809 0.34507
0.293609 -0.139053 0.575299 0 0 -1
-0.0684773 -0.345081 0.575299 0 0 -1
0.0333998 -0.0772562 0.553469 -0.866005 -0.500035 -1.56651e-05
-0.237923 0.0131941 0.600147 0 0 1
-0.0905081 0.236231 0.600568 0 0 1
0.0316667 0.117034 0.575299 0 0 -1
-0.079046 0.0185562 0.547099 0 1 0
-0.0762686 -0.135956 0.600568 0 0 1
0.000636449 0.225801 0.600147 0 0 1
-0.129531 0.0523906 0.57572 0 0 -1
0.12244 0.212222 0.0693381 -0.418157 -0.723956 -0.548664
-0.111839 -0.253598 0.575299 0 0 -1
0.0865099 0.16924 0.334383 -0.866015 0.500018 -6.39678e-07
0.172296 0.0696751 0.575299 0 0 -1
-0.345467 0.200853 0.577995 -0.844301 0.53587 0
0.000286845 0.347088 0.600147 0 0 1
-0.15578 -0.0905645 0.600568 0 0 1
0.00651038 -0.320901 0.600147 0 0 1
0.139238 0.00114138 0.600147 0 0 1
-0.29765 -0.0172421 0.566443 0 1 0
0.200884 -0.214869 0.575299 0 0 -1
0.148713 -0.170612 0.600147 0 0 1
0.290137 -0.151626 0.600568 0 0 1
-0.0987244 0.00537549 0.600568 0 0 1
-0.151846 -0.306016 0.600147 0 0 1
0.351185 -0.18955 0.593662 0.904859 -0.425712 0
0.163342 0.208788 0.600568 0 0 1
0.07431 -0.0807259 0.452245 0.866048 0.499962 7.58502e-06
-0.169256 0.197491 0.600147 0 0 1
0.104423 0.369621 0.575299 0 0 -1
0.0591407 -0.121837 0.264417 -0.866015 -0.500018 -6.39678e-07
-0.120248 -0.197958 0.57572 0 0 -1
0.318903 0.0584824 0.600147 0 0 1
0.233295 -0.0174669 0.600147 0 0 1
0.214022 -0.337036 0.599045 0.587786 -0.809016 0
-0.213895 -0.0392478 0.575299 0 0 -1
-0.0267411 0.13328 0.600568 0 0 1
0.038266 -0.12114 0.600568 0 0 1
-0.108356 -0.0168462 0.506598 0 -1 0
0.0270888 -0.192193 0.57572 0 0 -1
0.206019 0.213985 0.575299 0 0 -1
-0.0136707 0.0109479 0.403001 0.836057 0 -0.548643
-0.0807613 0.359918 0.600568 0 0 1
0.21146 -0.163421 0.600147 0 0 1
-0.261057 -0.0168462 0.0473439 0 -1 0
0.258654 0.0563465 0.575299 0 0 -1
0.287673 -0.112576 0.57572 0 0 -1
-0.342255 -0.0679875 0.57572 0 0 -1
0.0880672 0.171937 0.303279 -0.866015 0.500018 -6.39678e-07
-0.221202 0.331819 0.597832 -0.587796 0.809009 0
0.113723 -0.249064 0.600147 0 0 1
0.275716 0.195495 0.600147 0 0 1
0.218189 -0.0625058 0.57572 0 0 -1
-0.176849 -0.0168462 0.264502 0 -1 0
-0.110851 -0.218124 0.600568 0 0 1
0.011565 0.0394382 0.470999 -0.866005 0.500035 -1.56451e-05
-0.0761186 -0.132581 0.575299 0 0 -1
0.106093 -0.135781 0.39637 0.866048 0.499962 7.58502e-06
0.0943879 -0.115504 0.338931 0.866048 0.499962 7.58502e-06
-0.150098 0.20737 0.57572 0 0 -1
0.00797733 -0.0331447 0.400319 -0.960335 -0.183228 -0.210198
-0.0891286 0.136381 0.57572 0 0 -1
0.0908405 0.068751 0.57572 0 0 -1
0.0829045 -0.0838721 0.575299 0 0 -1
-0.320909 0.216291 0.575299 0 0 -1
0.0547606 0.114252 0.446864 -0.866015 0.500018 -6.39678e-07
-0.223085 -0.112134 0.575299 0 0 -1
0.172274 -0.152783 0.600147 0 0 1
-0.0533918 0.215669 0.575299 0 0 -1
-0.259481 -0.300009 0.600147 0 0 1
-0.225577 -0.0168462 0.10675 0 -1 0
-0.302146 0.0598291 0.575299 0 0 -1
-0.103389 0.297104 0.575299 0 0 -1
-0.391708 -0.00689011 0.600147 0 0 1
-0.374938 -0.0945426 0.600147 0 0 1
-0.304341 -0.185406 0.57572 0 0 -1
0.173721 0.0883773 0.600147 0 0 1
0.344666 0.134889 0.575299 0 0 -1
0.0525559 -0.0430414 0.519704 0.866083 0.4999 -4.25978e-05
-0.291555 -0.183611 0.600568 0 0 1
-0.265971 -0.063942 0.600147 0 0 1
-0.01056 0.30965 0.575299 0 0 -1
0.0773946 -0.342545 0.575299 0 0 -1
0.162502 0.196628 0.575299 0 0 -1
0.283403 0.0840412 0.575299 0 0 -1
-0.0455379 -0.0178954 0.450713 0 0 1
0.071312 0.199533 0.575299 0 0 -1
-0.185184 -0.245633 0.575299 0 0 -1
0.0796028 0.207353 0.600568 0 0 1
0.130115 -0.244763 0.0579463 -0.866015 -0.500018 -6.39678e-07
-0.374461 0.136987 0.580723 -0.951023 0.309121 0
-0.211541 0.226479 0.600568 0 0 1
-0.212879 0.0168462 0.191766 0 1 0
0.0781607 0.116471 0.600147 0 0 1
-0.160368 0.0433334 0.600568 0 0 1
-0.136633 -0.0185056 0.552419 0 -1 0
0.11151 0.212542 0.201418 -0.866103 0.499865 -5.53043e-05
-0.180733 0.119538 0.600568 0 0 1
0.179049 0.316733 0.575299 0 0 -1
-0.0355153 -0.219838 0.57572 0 0 -1
0.0474811 0.358437 0.575299 0 0 -1
0.101475 -0.127779 0.283247 0.866048 0.499962 7.58502e-06
0.0386434 0.0189428 0.415217 0.866047 -0.499962 7.56788e-06
-0.0135782 -0.0185056 0.544033 0 -1 0
-0.121607 0.0166696 0.244802 0.320375 0.923842 -0.209465
0.0540903 -0.365562 0.600568 0 0 1
-0.241282 0.179616 0.575299 0 0 -1
0.013749 0.0567748 0.57572 0 0 -1
-0.347142 0.070749 0.600147 0 0 1
0.267492 0.295427 0.59396 0.684506 0.729008 0
-0.248086 -0.23494 0.575299 0 0 -1
0.327613 -0.0150979 0.600147 0 0 1
-0.163757 -0.0168462 0.384667 0 -1 0
0.0723429 -0.144703 0.375719 -0.866015 -0.500018 -6.39678e-07
-0.120213 -0.294991 0.600568 0 0 1
0.266187 0.192383 0.57572 0 0 -1
0.105194 -0.2016 0.157723 -0.866015 -0.500018 -6.39678e-07
0.156124 0.0538803 0.600568 0 0 1
-0.261851 0.253711 0.57572 0 0 -1
0.167629 -0.258939 0.0668081 0.469328 -0.812809 0.34507
0.108625 0.140163 0.220183 0.866047 -0.499962 7.56788e-06
0.172518 0.253062 0.0695004 0.944068 0.221676 0.24412
0.0396313 0.0880481 0.525412 -0.866015 0.500018 -6.39678e-07
0.127084 0.344559 0.600147 0 0 1
-0.291485 -0.00821562 0.0782338 -0.938579 0 0.345066
0.118377 -0.105794 0.600568 0 0 1
0.0978481 -0.273706 0.575299 0 0 -1
-0.2263 -0.16069 0.600147 0 0 1
0.00769599 -0.211538 0.600147 0 0 1
0.264505 -0.0979314 0.600568 0 0 1
-0.125612 -0.128471 0.57572 0 0 -1
0.0939109 0.114679 0.454347 0.866047 -0.499962 7.56788e-06
0.196955 0.0389634 0.57572 0 0 -1
-0.0795333 0.0168462 0.450536 0 1 0
0.105816 0.202678 0.133832 -0.866015 0.500018 -6.39678e-07
0.269709 -0.279593 0.57572 0 0 -1
0.143959 -0.201369 0.153964 0.866048 0.499962 7.58502e-06
-0.0861342 -0.203665 0.57572 0 0 -1
0.178022 -0.349527 0.575299 0 0 -1
0.0454949 0.060588 0.600568 0 0 1
-0.214283 0.284581 0.600568 0 0 1
0.0968408 -0.307305 0.600568 0 0 1
-0.145885 -0.0310147 0.600147 0 0 1
0.219966 0.00173018 0.575299 0 0 -1
-0.216267 -0.0982256 0.600568 0 0 1
-0.0181504 0.398464 0.57746 0 1 0
-0.0347852 -0.338479 0.600147 0 0 1
-0.178495 0.0168462 0.311027 0 1 0
-0.125489 -0.0168462 0.301654 0 -1 0
0.178636 0.264281 0.600568 0 0 1
-0.0715104 0.180379 0.600147 0 0 1
-0.2833 -0.00191815 0.600568 0 0 1
0.0638835 0.130052 0.310523 -0.866015 0.500018 -6.39678e-07
0.121609 -0.122601 0.575299 0 0 -1
-0.08818 -0.0833699 0.600568 0 0 1
-0.27199 -0.229214 0.575299 0 0 -1
-0.267714 0.202073 0.600568 0 0 1
0.302155 -0.0489164 0.575299 0 0 -1
0.28728 0.270616 0.600568 0 0 1
0.0463663 -0.198406 0.600147 0 0 1
-0.271439 0.101769 0.600147 0 0 1
0.0715604 0.0759622 0.400637 0.866047 -0.499962 7.56788e-06
-0.184679 -0.169665 0.57572 0 0 -1
0.106683 -0.246905 0.57572 0 0 -1
-0.285141 0.0312993 0.600568 0 0 1
-0.0258986 0.0185562 0.567694 0 1 0
-0.204965 0.0598526 0.57572 0 0 -1
-0.0735364 -0.0168462 0.563792 0 -1 0
-0.204798 -0.302872 0.600568 0 0 1
0.0729001 -0.150341 0.549639 0.866144 0.499795 -4.83492e-06
-0.353792 0.0144658 0.575299 0 0 -1
-0.0427727 -0.094353 0.600147 0 0 1
-0.0513363 -0.368454 0.575299 0 0 -1
0.131103 -0.179584 0.560593 0.866146 0.499791 -3.28985e-05
0.265406 0.12782 0.600147 0 0 1
-0.0323805 0.0014874 0.600568 0 0 1
0.191035 0.0357321 0.600568 0 0 1
-0.00540229 0.262467 0.600568 0 0 1
0.363644 0.023746 0.600147 0 0 1
0.24425 -0.0474684 0.600147 0 0 1
0.0628663 -0.00715469 0.575299 0 0 -1
0.0927859 -0.18011 0.261955 -0.866015 -0.500018 -6.39678e-07
0.00335076 0.18132 0.575299 0 0 -1
0.342529 0.0155931 0.575299 0 0 -1
0.334647 0.184163 0.575299 0 0 -1
-0.371445 0.013814 0.600568 0 0 1
-0.323418 -0.047593 0.600568 0 0 1
-0.3589 0.172516 0.600568 0 0 1
-0.144715 -0.362975 0.57572 0 0 -1
-0.0802315 -0.0168462 0.3499 0 -1 0
0.0554515 0.0510085 0.546501 -0.865963 0.500109 0
-0.0273164 0.0652292 0.600568 0 0 1
0.0541644 0.166266 0.600147 0 0 1
-0.174675 0.353538 0.575299 0 0 -1
-0.253227 0.0966713 0.57572 0 0 -1
-0.0775113 0.391488 0.581019 -0.248653 0.968592 0
0.12965 0.114949 0.57572 0 0 -1
0.0749806 0.308487 0.600568 0 0 1
-0.150999 0.167655 0.600568 0 0 1
0.163096 -0.250658 0.57572 0 0 -1
-0.362235 -0.129474 0.57572 0 0 -1
0.196041 -0.0243748 0.600568 0 0 1
0.0937003 -0.0533634 0.57572 0 0 -1
0.0490406 -0.104344 0.390621 -0.866015 -0.500018 -6.39678e-07
-0.216237 -0.271215 0.575299 0 0 -1
0.0131859 -0.0606148 0.600147 0 0 1
-0.253398 -0.226233 0.600147 0 0 1
0.346076 -0.0265025 0.57572 0 0 -1
0.0689454 0.138819 0.217244 -0.866015 0.500018 -6.39678e-07
-0.00253271 -0.0778993 0.57572 0 0 -1
0.155543 0.227538 0.0243154 -0.239137 -0.808284 -0.538043
0.361478 0.0999543 0.600568 0 0 1
-0.134326 0.111823 0.575299 0 0 -1
0.0975412 -0.198891 0.600568 0 0 1
-0.17836 -0.0953479 0.575299 0 0 -1
0.0830464 -0.0144728 0.600568 0 0 1
0.210558 0.335232 0.600147 0 0 1
0.181593 0.166128 0.600568 0 0 1
-0.0737362 0.0367771 0.575299 0 0 -1
0.179353 0.129018 0.57572 0 0 -1
0.156154 -0.042441 0.57572 0 0 -1
0.0406215 0.0875998 0.298795 -0.952269 0.013185 -0.304975
0.348068 -0.120818 0.600568 0 0 1
-0.273324 -0.132749 0.57572 0 0 -1
0.0618016 0.0590591 0.486583 0.866047 -0.499962 7.56788e-06
0.0512339 0.243743 0.600147 0 0 1
0.0538889 -0.112742 0.517256 -0.866015 -0.500018 -6.39678e-07
0.329087 0.208194 0.575299 0 0 -1
0.142757 0.221151 0.600147 0 0 1
0.174152 -0.214822 0.600568 0 0 1
0.0724249 0.151978 0.561009 -0.86597 0.500096 0.00011362
0.383415 -0.071231 0.57572 0 0 -1
0.0475427 -0.10175 0.484273 -0.866015 -0.500018 -6.39678e-07
0.0426205 0.0932252 0.404037 -0.866015 0.500018 -6.39678e-07
-0.0910829 0.0168462 0.511449 0 1 0
0.0317607 -0.0744163 0.435544 -0.866015 -0.500018 -6.39678e-07
0.148592 -0.337113 0.600147 0 0 1
-0.303155 0.211556 0.600147 0 0 1
0.113673 -0.148907 0.227471 0.866048 0.499962 7.58502e-06
-0.0735763 0.3309 0.57572 0 0 -1
-0.124099 0.326809 0.600568 0 0 1
0.266668 -0.239614 0.600568 0 0 1
-0.184156 -0.0392146 0.600147 0 0 1
-0.19818 0.0521048 0.600568 0 0 1
0.349213 -0.146783 0.57572 0 0 -1
-0.140257 -0.0168462 0.418752 0 -1 0
0.0272227 0.162515 0.57572 0 0 -1
-0.106069 0.0168462 0.407208 0 1 0
-0.00325231 -0.267561 0.600568 0 0 1
0.0424076 -0.140411 0.57572 0 0 -1
-0.197924 0.200821 0.575299 0 0 -1
0.243202 -0.233121 0.575299 0 0 -1
0.0444118 -0.0276449 0.440478 0.866039 0.499976 0.000437293
0.0485589 -0.260262 0.575299 0 0 -1
-0.231618 0.0167644 0.0778152 0.162718 0.980877 -0.106784
0.123068 -0.346173 0.575299 0 0 -1
0.247701 0.265514 0.57572 0 0 -1
-0.253645 -0.0742574 0.57572 0 0 -1
-0.0889382 -0.0468897 0.575299 0 0 -1
-0.106639 -0.301227 0.57572 0 0 -1
0.11239 0.146687 0.358409 0.866047 -0.499962 7.56788e-06
-0.149071 0.0168462 0.392019 0 1 0
0.281341 0.150032 0.600147 0 0 1
0.034101 0.301075 0.600147 0 0 1
0.346375 0.0515223 0.575299 0 0 -1
-0.224665 -0.0168462 0.224857 0 -1 0
0.0791923 -0.0891844 0.537649 0.866048 0.499962 7.58502e-06
0.138223 0.258809 0.039248 -0.866103 0.499865 -5.53043e-05
0.231055 0.174002 0.57572 0 0 -1
0.121964 -0.0486715 0.600568 0 0 1
-0.155779 -0.25294 0.600147 0 0 1
-0.0435332 0.00783292 0.530211 0.938877 0 0.344253
-0.128994 0.0901287 0.600568 0 0 1
-0.172422 -0.0119901 0.574491 0 0 1
0.156658 -0.223363 0.112361 0.865982 0.500075 -3.31753e-05
-0.152249 -0.114673 0.600147 0 0 1
0.279892 -0.188284 0.575299 0 0 -1
0.0291787 0.0699445 0.467325 -0.866015 0.500018 -6.39678e-07
-0.132174 0.0186835 0.575299 0 0 -1
0.126666 0.183064 0.600568 0 0 1
-0.343702 0.0968438 0.57572 0 0 -1
0.0996 -0.124534 0.44034 0.866048 0.499962 7.58502e-06
0.0368378 -0.390257 0.575299 0 0 -1
0.0782704 -0.0875851 0.376602 0.866048 0.499962 7.58502e-06
-0.0604448 -0.0220029 0.600147 0 0 1
0.0316685 -0.0445735 0.574491 0 0 1
0.00822356 -0.371132 0.57572 0 0 -1
0.0476109 0.034476 0.382737 0.866047 -0.499962 7.56788e-06
0.0665836 0.0673431 0.521628 0.866047 -0.499962 7.56788e-06
-0.143459 0.332649 0.575299 0 0 -1
-0.16815 0.253652 0.600147 0 0 1
0.317585 -0.224704 0.600568 0 0 1
0.27853 -0.189237 0.600147 0 0 1
0.0929954 0.113488 0.564609 0.865976 -0.500085 -7.70409e-05
-0.0356217 0.229607 0.600568 0 0 1
0.0472663 -0.328885 0.57572 0 0 -1
0.0564096 0.395358 0.597901 0.125249 0.992125 0
0.285248 0.0423361 0.600568 0 0 1
-0.148113 0.26559 0.575299 0 0 -1
0.0292544 0.278266 0.57572 0 0 -1
0.111722 0.220025 0.564767 -0.86597 0.500096 0.00011362
-0.0424707 0.115387 0.575299 0 0 -1
-0.0152978 0.0938279 0.57572 0 0 -1
0.12302 0.0990362 0.600568 0 0 1
0.0523711 -0.110113 0.33266 -0.866015 -0.500018 -6.39678e-07
-0.0856275 -0.330652 0.600147 0 0 1
-0.00238279 0.265108 0.575299 0 0 -1
0.192712 -0.138877 0.57572 0 0 -1
0.232119 -0.0997962 0.57572 0 0 -1
-0.126597 0.0168462 0.304804 0 1 0
0.0845187 0.0390127 0.575299 0 0 -1
0.254507 0.132686 0.57572 0 0 -1
-0.335667 -0.201065 0.600568 0 0 1
0.0812055 0.0926686 0.323217 0.866047 -0.499962 7.56788e-06
0.0461815 0.0993927 0.363573 -0.866015 0.500018 -6.39678e-07
0.0914963 0.358933 0.600147 0 0 1
0.304516 0.24561 0.600568 0 0 1
-0.0747121 0.198142 0.57572 0 0 -1
-0.308126 -0.218907 0.600147 0 0 1
-0.185948 -0.00811578 0.365292 -0.938579 0 0.345066
0.0610879 0.00921866 0.600147 0 0 1
-0.127242 0.163773 0.57572 0 0 -1
-0.166842 -0.0168462 0.230716 0 -1 0
-0.039908 -0.202206 0.600568 0 0 1
0.118353 -0.0739673 0.57572 0 0 -1
-0.261284 0.301256 0.596011 -0.684496 0.729017 0
0.0410079 -0.0323192 0.600568 0 0 1
-0.060593 -0.30208 0.575299 0 0 -1
-0.000608148 -0.134426 0.600147 0 0 1
0.0463212 -0.315693 0.600568 0 0 1
0.232989 0.120451 0.600568 0 0 1
0.1186 0.157443 0.281658 0.866047 -0.499962 7.56788e-06
-0.114722 -0.168723 0.600568 0 0 1
-0.279514 0.0971039 0.575299 0 0 -1
-0.0330069 -0.00536882 0.373536 0.836057 0 -0.548643
0.144187 0.135234 0.600568 0 0 1
-0.312212 -0.0808706 0.600568 0 0 1
0.0729665 0.141876 0.469248 -0.279394 0.928581 0.244286
0.126735 -0.171533 0.187898 0.866048 0.499962 7.58502e-06
0.30549 0.046892 0.57572 0 0 -1
-0.0352254 0.169284 0.600568 0 0 1
0.186161 -0.192089 0.575299 0 0 -1
0.252931 -0.309807 0.599664 0.587873 -0.808953 0
-0.144542 -0.0122244 0.477918 -0.938579 0 0.345066
-0.187501 -0.186552 0.600147 0 0 1
-0.0973979 0.0576137 0.600568 0 0 1
-0.0465404 -0.143086 0.575299 0 0 -1
0.0507382 0.111901 0.550281 0.865957 -0.500118 4.65615e-05
-0.275203 0.205 0.575299 0 0 -1
0.14104 0.196313 0.179202 0.865982 -0.500075 -3.32252e-05
-0.20597 0.0168462 0.126781 0 1 0
-0.0388064 0.307549 0.600568 0 0 1
-0.11521 -0.336678 0.57572 0 0 -1
-0.387907 -0.0888152 0.575299 0 0 -1
-0.266311 -0.100302 0.600568 0 0 1
-0.254172 -0.008167 0.575299 0 0 -1
-0.167421 0.0168462 0.208286 0 1 0
-0.10542 0.248581 0.575299 0 0 -1
-0.267904 -0.18765 0.57572 0 0 -1
0.262512 0.00950608 0.600568 0 0 1
-0.100971 -0.0168462 0.457845 0 -1 0
0.316134 -0.076371 0.57572 0 0 -1
-0.241945 0.0618088 0.600568 0 0 1
-0.286331 0.0168462 0.0271884 0 1 0
0.315848 0.192326 0.600147 0 0 1
-0.197371 -0.310684 0.575299 0 0 -1
0.0622796 -0.198176 0.57572 0 0 -1
0.143802 -0.229114 0.169468 0.469328 -0.812809 0.34507
0.217798 -0.087909 0.600568 0 0 1
0.0862504 0.168791 0.246384 -0.866015 0.500018 -6.39678e-07
0.0933546 -0.113712 0.240331 0.866048 0.499962 7.58502e-06
0.140624 0.199261 0.241696 0.944068 0.221676 0.24412
-0.339472 -0.127009 0.600568 0 0 1
-0.125968 -0.356966 0.600568 0 0 1
-0.324367 -0.157242 0.575299 0 0 -1
0.0701979 0.140988 0.368568 -0.866015 0.500018 -6.39678e-07
0.234322 0.191505 0.600568 0 0 1
-0.154895 -0.270296 0.575299 0 0 -1
0.228312 -0.119574 0.600147 0 0 1
0.0868087 0.102376 0.423452 0.866047 -0.499962 7.56788e-06
0.0664403 0.13448 0.410634 -0.866015 0.500018 -6.39678e-07
-0.292252 -0.271197 0.575299 0 0 -1
0.0196312 0.223785 0.57572 0 0 -1
-0.350864 0.0487532 0.575299 0 0 -1
0.138043 0.306461 0.600147 0 0 1
-0.159335 0.345598 0.600568 0 0 1
-0.0667921 -0.251736 0.57572 0 0 -1
0.202876 -0.277725 0.57572 0 0 -1
0.0812297 -0.160095 0.305769 -0.866015 -0.500018 -6.39678e-07
0.079218 -0.156611 0.203419 -0.866015 -0.500018 -6.39678e-07
0.160782 0.230505 0.108113 0.865982 -0.500075 -3.32252e-05
-0.135106 0.246616 0.600568 0 0 1
-0.224039 -0.330802 0.581078 -0.587864 -0.80896 0
0.052636 0.108513 0.262185 -0.952269 0.013185 -0.304975
0.200286 -0.303693 0.57572 0 0 -1
0.0426901 0.0259529 0.453775 0.866054 -0.49995 0
-0.041197 0.375022 0.600147 0 0 1
-0.254595 0.0684607 0.575299 0 0 -1
0.111653 0.164439 0.14061 -0.417908 -0.72411 -0.548651
-0.157489 0.150384 0.575299 0 0 -1
0.140816 0.339971 0.57572 0 0 -1
-0.376506 -0.0346957 0.575299 0 0 -1
0.380113 0.113454 0.575299 0 0 -1
-0.209086 0.317672 0.575299 0 0 -1
-0.0806823 -0.390545 0.575299 0 0 -1
0.0271572 -0.0664433 0.506092 -0.866016 -0.500017 0
-0.0863251 -0.205464 0.600568 0 0 1
-0.223441 -0.0145693 0.261817 -0.906917 -0.257544 0.333425
0.147654 0.271217 0.574491 0 0 1
0.186532 0.305074 0.600568 0 0 1
0.260711 -0.0178144 0.600147 0 0 1
0.227778 0.0938827 0.57572 0 0 -1
-0.084082 0.0168462 0.337712 0 1 0
-0.0585866 -0.0715647 0.57572 0 0 -1
0.309192 0.103932 0.600568 0 0 1
-0.144385 0.0133462 0.600147 0 0 1
0.225364 -0.130356 0.575299 0 0 -1
0.128428 -0.174465 0.296237 0.865982 0.500075 -3.31753e-05
0.116282 -0.153427 0.361555 0.865982 0.500075 -3.31753e-05
0.0382257 0.0953514 0.600147 0 0 1
0.247974 -0.301268 0.57572 0 0 -1
-0.169703 0.0436732 0.575299 0 0 -1
-0.312981 0.169413 0.57572 0 0 -1
-0.0308667 0.201206 0.600147 0 0 1
0.0916226 0.185221 0.558645 -0.86597 0.500096 0.00011362
0.225816 -0.228095 0.600568 0 0 1
0.130149 0.244825 0.0914985 -0.866103 0.499865 -5.53043e-05
0.0483654 -0.0968196 0.600568 0 0 1
-0.160995 -0.172914 0.575299 0 0 -1
0.181128 0.356098 0.584848 0.481675 0.87635 0
0.0244518 0.399307 0.576613 0 1 0
0.131404 -0.205496 0.0713825 -0.418161 0.723963 -0.548651
-0.202142 -0.0168462 0.143618 0 -1 0
-0.397636 0.0257299 0.583166 -0.998025 0.0628228 0
-0.0599237 0.105538 0.600568 0 0 1
0.0993169 -0.156773 0.573227 0 0 -1
-0.0413341 -0.187345 0.575299 0 0 -1
0.0798802 0.153538 0.432808 0.232071 0.913714 0.33357
-0.0623195 -0.0168462 0.509154 0 -1 0
-0.193487 0.178763 0.600568 0 0 1
-0.308123 0.0157517 0.573227 0 0 -1
0.0233242 -0.0239254 0.575299 0 0 -1
0.0494112 -0.0375957 0.472012 0.866054 0.49995 0
-0.0458601 0.0193985 0.422171 0 1 0
0.186601 0.241741 0.575299 0 0 -1
-0.152726 -0.205055 0.600568 0 0 1
0.330285 -0.119863 0.57572 0 0 -1
-0.0112426 -0.311679 0.575299 0 0 -1
-0.114617 0.20155 0.600147 0 0 1
0.312034 -0.194675 0.575299 0 0 -1
-0.294512 0.075014 0.600147 0 0 1
0.305971 0.206477 0.57572 0 0 -1
0.366907 -0.0472939 0.600568 0 0 1
0.19721 0.0921091 0.575299 0 0 -1
0.131222 0.051845 0.57572 0 0 -1
-0.0208818 -0.241483 0.600147 0 0 1
-0.0171637 -0.0251411 0.575299 0 0 -1
-0.0820105 0.314742 0.600147 0 0 1
-0.120975 0.275247 0.600568 0 0 1
0.377162 -0.0210545 0.600147 0 0 1
0.172382 0.0358156 0.575299 0 0 -1
0.0429951 0.0304521 0.575299 0 0 -1
0.148103 0.208547 0.0966386 0.866047 -0.499962 7.56788e-06
0.234663 -0.168653 0.57572 0 0 -1
-0.236512 -0.0185056 0.559695 0 -1 0
0.0943387 0.238764 0.57572 0 0 -1
0.0719951 0.0767143 0.341726 0.866047 -0.499962 7.56788e-06
0.013608 -0.0168133 0.438026 -0.200119 -0.129419 0.971186
-0.232826 0.119259 0.600147 0 0 1
0.0238471 0.331094 0.57572 0 0 -1
0.0145111 -0.172307 0.600568 0 0 1
-0.229287 0.0168462 0.224177 0 1 0
0.0249869 -0.0626842 0.374788 -0.866015 -0.500018 -6.39678e-07
-0.0299051 -0.0168462 0.409855 0 -1 0
0.261274 -0.0706996 0.575299 0 0 -1
0.129848 -0.176927 0.258042 0.865982 0.500075 -3.31753e-05
0.245509 0.223896 0.600147 0 0 1
0.0494576 0.0754784 0.574491 0 0 1
-0.218162 0.0185562 0.555263 0 1 0
0.0523658 -0.230713 0.57572 0 0 -1
0.258695 0.0147751 0.57572 0 0 -1
-0.336549 0.160431 0.57572 0 0 -1
0.105402 -0.281246 0.600568 0 0 1
0.357093 0.176272 0.600568 0 0 1
0.0114745 -0.0464193 0.542389 -0.866148 -0.499788 0
-0.0943287 0.102111 0.575299 0 0 -1
0.121307 -0.162295 0.143009 0.768515 0.630919 -0.106422
-0.054278 0.288877 0.575299 0 0 -1
-0.311278 0.0118809 0.0243966 -0.938579 0 0.345066
-0.086512 0.0750974 0.57572 0 0 -1
0.304591 -0.10164 0.600147 0 0 1
-0.34798 0.11052 0.600568 0 0 1
-0.212192 0.0120104 0.293911 -0.938579 0 0.345066
-0.0351274 -0.0339887 0.57572 0 0 -1
-0.336041 -0.0232386 0.57572 0 0 -1
0.274174 0.154922 0.575299 0 0 -1
-0.195461 0.0153081 0.336145 -0.663527 0.707265 0.243944
-0.110867 0.0168462 0.47571 0 1 0
0.0202965 -0.33251 0.57572 0 0 -1
-0.181123 0.0940849 0.575299 0 0 -1
-0.233333 -0.200664 0.600147 0 0 1
-0.0529462 0.029421 0.600147 0 0 1
-0.199541 -0.0185056 0.554459 0 -1 0
0.162574 -0.287965 0.00531233 0.469328 -0.812809 0.34507
-0.258674 0.00144351 0.167478 -0.938579 0 0.345066
-0.113738 -0.0168462 0.328022 0 -1 0
-0.0162297 -0.255684 0.57572 0 0 -1
-0.033421 0.258174 0.57572 0 0 -1
-0.00474265 -0.0277732 0.600147 0 0 1
-0.261967 0.0261571 0.575299 0 0 -1
-0.0962943 -0.0970198 0.575299 0 0 -1
0.102083 0.327182 0.600147 0 0 1
0.092816 -0.1667 0.151982 -0.417904 0.724102 -0.548664
0.117739 -0.138321 0.600147 0 0 1
-0.154523 -0.128609 0.575299 0 0 -1
0.0812339 -0.0927171 0.289606 0.866048 0.499962 7.58502e-06
-0.205559 -0.2058 0.57572 0 0 -1
0.0827537 -0.390143 0.577183 0.248659 -0.968591 0
0.159916 -0.0366251 0.600147 0 0 1
-0.352222 -0.0224458 0.600147 0 0 1
0.0576094 -0.0547446 0.558142 -0.866151 -0.499782 9.76423e-05
-0.382757 0.102676 0.57572 0 0 -1
-0.304814 0.163193 0.600147 0 0 1
0.136419 -0.255074 0.00699419 -0.930276 -0.351336 -0.105588
-0.106045 -0.0151434 0.263914 0.695792 -0.554419 -0.45661
-0.272307 0.134189 0.600568 0 0 1
-0.263094 -0.0326521 0.600147 0 0 1
0.384623 -0.0353761 0.575299 0 0 -1
0.339294 -0.151711 0.600147 0 0 1
-0.160369 0.0168462 0.273912 0 1 0
0.0317648 -0.24266 0.600147 0 0 1
-0.0443149 -0.393541 0.600568 0 0 1
0.0767929 0.0850242 0.280356 0.866047 -0.499962 7.56788e-06
0.132504 0.275265 0.600568 0 0 1
0.0748112 -0.148978 0.238948 -0.866015 -0.500018 -6.39678e-07
0.0110869 0.185768 0.600147 0 0 1
-0.287983 -0.0547083 0.57572 0 0 -1
-0.229672 0.192323 0.600568 0 0 1
0.143 -0.262315 0.0909343 0.232071 -0.913714 0.33357
0.00855912 0.0470124 0.600147 0 0 1
0.223805 -0.0344206 0.575299 0 0 -1
0.172493 -0.248636 0.600147 0 0 1
0.326863 -0.230164 0.580477 0.844292 -0.535884 0
0.24818 0.161627 0.600568 0 0 1
-0.156613 -0.211763 0.57572 0 0 -1
-0.262609 -0.0168462 0.119248 0 -1 0
-0.1112 -0.249214 0.600147 0 0 1
-0.327992 0.039592 0.600147 0 0 1
0.262636 -0.0474188 0.575299 0 0 -1
-0.0857394 0.121926 0.600568 0 0 1
0.290367 -0.059005 0.600568 0 0 1
0.100127 -0.349865 0.600568 0 0 1
-0.375247 0.066699 0.600568 0 0 1
0.182209 -0.317757 0.600568 0 0 1
0.0643458 -0.163853 0.600147 0 0 1
0.0860466 -0.154981 0.422639 0.469328 -0.812809 0.34507
0.28822 0.0661173 0.600147 0 0 1
0.360208 -0.102264 0.57572 0 0 -1
0.217986 -0.0476984 0.600568 0 0 1
0.211546 0.0892291 0.600568 0 0 1
0.00546713 -0.354829 0.600147 0 0 1
-0.130094 -0.0306177 0.575299 0 0 -1
0.10773 -0.0230361 0.600147 0 0 1
0.0813305 0.270129 0.57572 0 0 -1
-0.0295905 -0.305819 0.600147 0 0 1
-0.123541 0.0443195 0.600147 0 0 1
0.0993568 -0.311297 0.57572 0 0 -1
-0.0820854 -0.0482108 0.600568 0 0 1
-0.0382978 -0.124553 0.600147 0 0 1
0.0370449 0.0191366 0.548175 -0.865963 0.500109 0
-0.299145 -0.158617 0.57572 0 0 -1
-0.067093 0.250545 0.575299 0 0 -1
0.0156762 -0.229101 0.57572 0 0 -1
0.00419868 0.0200456 0.575299 0 0 -1
-0.0134769 0.293822 0.600147 0 0 1
-0.299151 0.252256 0.575299 0 0 -1
-0.240857 0.220569 0.57572 0 0 -1
-0.187164 -0.261485 0.600568 0 0 1
-0.257799 -0.262375 0.57572 0 0 -1
0.312537 0.0172423 0.600147 0 0 1
-0.112096 -0.117838 0.600147 0 0 1
-0.0580758 0.358729 0.575299 0 0 -1
-0.128638 -0.0672921 0.600568 0 0 1
-0.100164 -0.0168462 0.545066 0 -1 0
0.0897859 -0.110507 0.562665 -0.866151 -0.499782 9.76423e-05
-0.201469 0.14873 0.600147 0 0 1
0.161683 -0.223931 0.57572 0 0 -1
0.0408286 -0.0286122 0.374211 -0.153176 0.8367 -0.525805
-0.194671 -0.333317 0.600147 0 0 1
-0.107753 0.00175256 0.573227 0 0 -1
-0.135487 -0.0168462 0.363041 0 -1 0
0.186234 -0.0235241 0.575299 0 0 -1
0.143231 0.200109 0.135088 0.866047 -0.499962 7.56788e-06
0.0518439 -0.164005 0.57572 0 0 -1
0.0721529 -0.0769876 0.341077 0.866048 0.499962 7.58502e-06
0.0706014 -0.0743025 0.505112 0.866048 0.499962 7.58502e-06
-0.17176 0.246684 0.575299 0 0 -1
0.171128 0.290871 0.575299 0 0 -1
-0.323424 -0.211034 0.575299 0 0 -1
0.377378 0.0283165 0.57572 0 0 -1
-0.257366 -0.261267 0.600147 0 0 1
-0.337554 -0.10161 0.575299 0 0 -1
0.143259 0.26753 0.00369954 -0.866103 0.499865 -5.53043e-05
0.242882 -0.158756 0.600147 0 0 1
0.196569 0.186098 0.575299 0 0 -1
0.0885901 0.17574 0.600147 0 0 1
-0.21467 -0.269311 0.600568 0 0 1
0.269162 -0.272967 0.600568 0 0 1
0.0571776 -0.0968204 0.574491 0 0 1
-0.185343 0.0169222 0.600568 0 0 1
0.237161 -0.262027 0.57572 0 0 -1
0.0106523 0.0855134 0.600568 0 0 1
-0.202235 -0.13824 0.575299 0 0 -1
0.334575 0.0992989 0.575299 0 0 -1
0.106247 -0.160231 0.600568 0 0 1
0.255214 0.0953595 0.57572 0 0 -1
-0.189485 -0.124334 0.600568 0 0 1
0.188024 -0.116641 0.600147 0 0 1
0.14009 0.195039 0.565331 0.865976 -0.500085 -7.70409e-05
0.125159 0.243291 0.56496 -0.86597 0.500096 0.00011362
0.149787 -0.128312 0.57572 0 0 -1
-0.120958 0.0172926 0.545429 0 -1 0
-0.202679 -0.0788492 0.57572 0 0 -1
-0.263672 -0.145909 0.600568 0 0 1
-0.123109 0.366206 0.600568 0 0 1
-0.328779 0.12392 0.57572 0 0 -1
0.020513 0.0549365 0.514717 -0.866005 0.500035 -1.56451e-05
0.238292 0.320445 0.581465 0.587873 0.808953 0
-0.0155608 0.139361 0.57572 0 0 -1
0.374479 -0.136933 0.591611 0.951023 -0.309121 0
0.0240643 -0.28882 0.600147 0 0 1
-0.18706 -0.0749767 0.600568 0 0 1
0.0186521 0.0851969 0.57572 0 0 -1
0.0867945 -0.102351 0.417318 0.866048 0.499962 7.58502e-06
-0.197681 -0.115538 0.575299 0 0 -1
0.0843352 0.0811176 0.600147 0 0 1
0.371459 0.146223 0.590174 0.951023 0.309121 0
0.0992793 0.191356 0.17451 -0.866015 0.500018 -6.39678e-07
0.362194 0.0686288 0.600147 0 0 1
-0.0234482 0.0976475 0.600147 0 0 1
0.0524943 0.130053 0.600568 0 0 1
-0.0901162 -0.165838 0.575299 0 0 -1
0.062287 0.302423 0.575299 0 0 -1
0.137745 0.0810354 0.575299 0 0 -1
0.156866 -0.0918406 0.600568 0 0 1
0.227882 0.305146 0.600568 0 0 1
0.156226 -0.222617 0.0462915 0.866048 0.499962 7.58502e-06
0.201795 0.269686 0.575299 0 0 -1
0.0957333 -0.0915139 0.600568 0 0 1
0.222436 0.0184235 0.600147 0 0 1
0.123376 -0.213797 0.57572 0 0 -1
-0.00435695 0.382371 0.600147 0 0 1
-0.0644185 -0.360743 0.600147 0 0 1
-0.26904 0.233249 0.600568 0 0 1
0.0708115 -0.223073 0.600568 0 0 1
0.265323 -0.126936 0.600147 0 0 1
0.0527287 -0.292541 0.57572 0 0 -1
0.225223 0.0395969 0.600147 0 0 1
0.253492 0.267475 0.600568 0 0 1
0.11004 -0.209993 0.123953 -0.866015 -0.500018 -6.39678e-07
-0.302573 -0.245521 0.575299 0 0 -1
-0.148654 0.0168462 0.240229 0 1 0
-0.22546 -0.0458131 0.600568 0 0 1
-0.236467 0.0168462 0.155071 0 1 0
0.0972083 -0.222466 0.600568 0 0 1
0.14991 0.163506 0.57572 0 0 -1
0.170542 0.0167894 0.600147 0 0 1
-0.354961 -0.0590887 0.600147 0 0 1
0.179231 0.132039 0.600147 0 0 1
0.0769418 0.0882204 0.549054 -0.86597 0.500096 -5.15017e-05
0.323976 0.075442 0.575299 0 0 -1
0.134238 0.375414 0.589376 0.368073 0.929797 0
-0.0205338 0.0494194 0.57572 0 0 -1
-0.0166433 0.0121762 0.456875 0.938877 0 0.344253
0.238283 0.288865 0.575299 0 0 -1
0.110105 0.142729 0.312601 0.866047 -0.499962 7.56788e-06
-0.114023 -0.331797 0.600147 0 0 1
-0.157276 -0.364055 0.600568 0 0 1
0.0878563 0.389705 0.589047 0.24881 0.968552 0
0.0795528 -0.132507 0.574491 0 0 1
-0.183483 0.0168462 0.172532 0 1 0
-0.1927 0.34382 0.600147 0 0 1
-0.224887 -0.0723123 0.600568 0 0 1
0.0395705 0.0210846 0.4815 -0.469349 -0.813146 0.344245
-0.212063 0.250591 0.600568 0 0 1
0.0598043 -0.0543047 0.425809 0.866025 0.5 0.000305793
0.033182 0.214311 0.600147 0 0 1
0.0841996 0.16524 0.367409 -0.866103 0.499865 -5.53043e-05
-0.105298 -0.0168462 0.416341 0 -1 0
-0.0539849 0.0168462 0.483035 0 1 0
-0.245914 0.270581 0.600568 0 0 1
0.133743 -0.183674 0.224119 0.865982 0.500075 -3.31753e-05
-0.00207401 -0.0908641 0.600568 0 0 1
0.28541 0.00897911 0.57572 0 0 -1
0.391437 0.0366651 0.600568 0 0 1
-0.219768 0.111282 0.57572 0 0 -1
0.0704307 0.141391 0.269295 -0.866015 0.500018 -6.39678e-07
-0.142553 -0.00715813 0.206602 0.836057 0 -0.548643
0.040719 0.089932 0.50017 -0.866015 0.500018 -6.39678e-07
0.0028023 0.0194329 0.426942 -0.857323 0.477616 0.192044
-0.147771 -0.0899933 0.575299 0 0 -1
0.021196 0.0561185 0.377729 -0.866015 0.500018 -6.39678e-07
-0.142708 -0.0168462 0.269506 0 -1 0
-0.171684 0.187521 0.57572 0 0 -1
0.176223 0.26627 0.0378505 0.469287 0.812833 0.345068
-0.147395 -0.174595 0.600147 0 0 1
-0.161502 0.0168462 0.359852 0 1 0
0.19668 -0.27162 0.600568 0 0 1
-0.0159905 -0.164289 0.57572 0 0 -1
-0.27082 0.286151 0.575299 0 0 -1
0.0279468 0.0678119 0.544727 -0.866005 0.500035 -1.56451e-05
0.0975413 0.164594 0.573227 0 0 -1
0.346571 -0.0602847 0.575299 0 0 -1
0.311533 -0.134663 0.600568 0 0 1
0.0109517 0.0455294 0.543046 -0.865986 0.500068 0
-0.0877632 0.0168462 0.312605 0 1 0
-0.0124346 -0.280416 0.575299 0 0 -1
0.0983591 -0.189762 0.192812 -0.866015 -0.500018 -6.39678e-07
0.0925308 0.112286 0.31554 0.866047 -0.499962 7.56788e-06
0.111769 0.219495 0.600147 0 0 1
-0.349918 -0.189176 0.575299 0 0 -1
-0.141312 0.298675 0.57572 0 0 -1
-0.214887 0.149644 0.57572 0 0 -1
0.0982818 -0.176876 0.354424 0.469328 -0.812809 0.34507
-0.11199 0.0168462 0.443396 0 1 0
0.152785 -0.276982 0.0439649 0.22878 -0.914651 0.333278
0.125423 0.169261 0.215656 0.866047 -0.499962 7.56788e-06
0.146366 0.308179 0.575299 0 0 -1
-0.0227813 0.031501 0.600568 0 0 1
0.00245945 0.352287 0.575299 0 0 -1
-0.272704 0.230903 0.575299 0 0 -1
-0.294291 0.0168462 0.0548809 0 1 0
0.118526 0.185312 0.107828 -0.418157 -0.723956 -0.548664
0.0833733 0.0964261 0.479146 0.866047 -0.499962 7.56788e-06
0.0977144 0.0929465 0.575299 0 0 -1
-0.151049 -0.0168462 0.307333 0 -1 0
-0.00886258 -0.196267 0.575299 0 0 -1
-0.0613383 -0.0193479 0.422924 0 -1 0
-0.279812 0.120803 0.575299 0 0 -1
0.173032 -0.0706304 0.57572 0 0 -1
-0.258329 -0.10872 0.575299 0 0 -1
0.235575 0.235405 0.575299 0 0 -1
0.103717 0.131664 0.423684 0.865982 -0.500075 -3.32252e-05
0.258713 0.0879363 0.600147 0 0 1
-0.138128 0.0168157 0.483505 -0.243307 0.965816 0.0894512
0.282072 0.220881 0.575299 0 0 -1
-0.0222135 0.205237 0.57572 0 0 -1
0.0901686 0.109034 0.235269 0.639212 -0.739817 -0.209951
-0.0723321 -0.304592 0.600568 0 0 1
0.0359387 0.198666 0.57572 0 0 -1
-0.095575 0.223777 0.575299 0 0 -1
-0.0580989 0.144476 0.600568 0 0 1
0.127096 0.172157 0.310345 0.865982 -0.500075 -3.32252e-05
0.142084 -0.142378 0.600147 0 0 1
-0.33836 0.135856 0.600147 0 0 1
-0.0502777 -0.00405599 0.575299 0 0 -1
0.0677552 -0.393925 0.59861 0.125249 -0.992125 0
-0.116568 0.0820171 0.57572 0 0 -1
-0.15858 -0.278173 0.600568 0 0 1
0.0640453 0.273988 0.600147 0 0 1
0.153306 -0.323607 0.57572 0 0 -1
0.0499975 0.14004 0.57572 0 0 -1
0.123354 0.0661431 0.600568 0 0 1
0.180031 0.333868 0.600568 0 0 1
0.14754 0.105532 0.600147 0 0 1
0.01978 -0.387716 0.600568 0 0 1
-0.0294389 -0.0968027 0.575299 0 0 -1
-0.200468 -0.0168462 0.202605 0 -1 0
0.108796 -0.201702 0.280761 0.232071 -0.913714 0.33357
0.067683 0.332714 0.575299 0 0 -1
0.10925 -0.141248 0.325126 0.866048 0.499962 7.58502e-06
-0.119474 -0.381583 0.578344 -0.24881 -0.968552 0
0.140822 -0.261193 0.574491 0 0 1
0.151846 0.215029 0.0553393 0.866047 -0.499962 7.56788e-06
-0.238574 -0.0168462 0.152696 0 -1 0
0.19769 -0.250801 0.57572 0 0 -1
-0.370708 0.114644 0.600568 0 0 1
-0.00803917 -0.0489757 0.575299 0 0 -1
-0.338119 0.0174733 0.600147 0 0 1
0.120538 -0.320355 0.57572 0 0 -1
0.104623 -0.133234 0.364206 0.866048 0.499962 7.58502e-06
0.304991 0.174554 0.57572 0 0 -1
0.147705 -0.370985 0.598867 0.368074 -0.929797 0
0.0638423 0.129982 0.496427 -0.866103 0.499865 -5.53043e-05
-0.029188 -0.388208 0.575299 0 0 -1
0.0546563 -0.121254 0.547581 -0.866147 -0.499789 2.73278e-06
-0.0742023 0.210982 0.600147 0 0 1
-0.372909 -0.00658745 0.575299 0 0 -1
0.165888 -0.167051 0.57572 0 0 -1
-0.092318 0.166224 0.575299 0 0 -1
-0.317769 -0.103638 0.600147 0 0 1
0.0371864 0.0838134 0.334783 -0.866015 0.500018 -6.39678e-07
-0.0996104 0.360738 0.57572 0 0 -1
-0.261677 0.00612998 0.0250737 0.836057 0 -0.548643
-0.28701 0.180973 0.575299 0 0 -1
0.0984633 -0.189943 0.232148 -0.866015 -0.500018 -6.39678e-07
-0.0469879 0.338266 0.600147 0 0 1
0.128525 -0.221501 0.600147 0 0 1
0.0760556 -0.347193 0.600147 0 0 1
0.0641364 0.228886 0.57572 0 0 -1
-0.317882 -0.171456 0.600147 0 0 1
0.0628899 0.0609426 0.374103 0.866047 -0.499962 7.56788e-06
0.148898 -0.182351 0.57572 0 0 -1
0.0244092 -0.09454 0.575299 0 0 -1
0.145122 -0.242694 0.600147 0 0 1
-0.320062 0.0851259 0.57572 0 0 -1
0.0286517 -0.0690317 0.475817 -0.866015 -0.500018 -6.39678e-07
-0.316778 0.243522 0.597963 -0.770525 0.63741 0
0.070816 0.338226 0.600568 0 0 1
-0.0185725 -0.363817 0.600568 0 0 1
-0.217409 -0.133114 0.600147 0 0 1
-0.0871789 -0.273116 0.575299 0 0 -1
-0.0483895 0.39637 0.590889 -0.125249 0.992125 0
-0.136837 -0.135175 0.600568 0 0 1
0.216156 -0.180612 0.57572 0 0 -1
0.114043 0.216927 0.163652 -0.866103 0.499865 -5.53043e-05
0.197065 -0.195222 0.600147 0 0 1
-0.127079 -7.89575e-05 0.525417 -0.938579 0 0.345066
0.24759 -0.202223 0.57572 0 0 -1
0.204327 -0.110212 0.575299 0 0 -1
0.172178 -0.184123 0.600147 0 0 1
0.146033 0.26964 0.067156 -0.279394 0.928581 0.244286
-0.166682 0.0730171 0.600568 0 0 1
0.0857157 -0.263555 0.600568 0 0 1
0.275881 0.272251 0.57572 0 0 -1
0.211706 0.0663985 0.575299 0 0 -1
-0.141156 0.0677703 0.600568 0 0 1
-0.220213 -0.241659 0.600568 0 0 1
0.141521 0.197144 0.210725 0.865982 -0.500075 -3.32252e-05
0.0911338 0.00911337 0.57572 0 0 -1
-0.282225 0.00730681 0.10342 -0.938579 0 0.345066
-0.0552154 -0.0168462 0.357613 0 -1 0
-0.0140629 -0.0115729 0.42991 -0.0250538 -0.935134 0.353406
0.0642055 0.11329 0.573227 0 0 -1
0.119696 -0.226724 0.19225 -0.866103 -0.499865 -5.52793e-05
0.109627 -0.177122 0.573227 0 0 -1
-0.237116 -0.207616 0.57572 0 0 -1
0.0630271 0.0641275 0.566601 -0.86597 0.500096 -5.15017e-05
0.0897745 -0.0459711 0.600147 0 0 1
0.0273363 0.266549 0.600147 0 0 1
0.215904 0.229192 0.600147 0 0 1
-0.0694055 -0.165962 0.600147 0 0 1
0.147419 0.248847 0.600147 0 0 1
-0.238482 -0.0143275 0.600568 0 0 1
0.201508 -0.0838603 0.575299 0 0 -1
-0.173347 -0.00700215 0.600147 0 0 1
0.322425 -0.183398 0.600147 0 0 1
0.262257 -0.17246 0.57572 0 0 -1
0.12734 0.172583 0.248588 0.866047 -0.499962 7.56788e-06
-0.303291 -0.00806207 0.0461193 -0.938579 0 0.345066
0.11645 -0.210488 0.250541 0.469328 -0.812809 0.34507
0.363058 -0.166289 0.582574 0.904876 -0.425676 0
0.0568242 -0.117826 0.36179 -0.866015 -0.500018 -6.39678e-07
-0.253 -0.177895 0.600147 0 0 1
-0.213078 -0.00852092 0.57572 0 0 -1
-0.137459 0.118282 0.600147 0 0 1
0.360833 0.12546 0.600147 0 0 1
-0.149611 -0.336351 0.600147 0 0 1
0.0141215 -0.143529 0.575299 0 0 -1
0.0792259 0.237071 0.600568 0 0 1
-0.049221 -0.274381 0.57572 0 0 -1
0.152751 0.1712 0.600147 0 0 1
-0.0493889 -0.0168462 0.392364 0 -1 0
0.393626 -0.0675287 0.597036 0.982312 -0.18725 0
0.208989 0.0632761 0.600147 0 0 1
0.0166734 -0.0482857 0.432262 -0.866015 -0.500018 -6.39678e-07
-0.2587 -0.157932 0.57572 0 0 -1
0.204452 0.33301 0.57572 0 0 -1
-0.0865296 -0.0168462 0.485613 0 -1 0
0.31154 0.0133648 0.57572 0 0 -1
0.341264 -0.189405 0.575299 0 0 -1
-0.165232 0.00624215 0.421642 -0.938579 0 0.345066
-0.232283 0.0168462 0.111936 0 1 0
-0.305562 -0.128292 0.575299 0 0 -1
-0.0995001 -0.139342 0.600568 0 0 1
0.275419 -0.214492 0.57572 0 0 -1
-0.0134006 0.235697 0.575299 0 0 -1
0.105479 0.316201 0.575299 0 0 -1
0.0849355 -0.215487 0.57572 0 0 -1
0.113268 0.148207 0.389216 0.865982 -0.500075 -3.32252e-05
-0.11409 0.329198 0.575299 0 0 -1
-0.230152 -0.298237 0.575299 0 0 -1
0.0806662 0.0917352 0.376753 0.866047 -0.499962 7.56788e-06
0.262706 0.239084 0.57572 0 0 -1
0.0514919 0.10859 0.479312 -0.866015 0.500018 -6.39678e-07
0.326307 0.213865 0.600147 0 0 1
0.0825831 -0.120081 0.509558 0.469287 -0.812833 0.345068
-0.155146 -0.0124595 0.449075 -0.938579 0 0.345066
-0.364971 -0.0607256 0.57572 0 0 -1
-0.148364 -0.00548274 0.575299 0 0 -1
0.0609426 -0.284573 0.600568 0 0 1
-0.0909752 -0.35643 0.57572 0 0 -1
0.116547 0.182679 0.575299 0 0 -1
0.13476 -0.278765 0.600568 0 0 1
0.169982 0.246443 0.00644374 0.865982 -0.500075 -3.32252e-05
0.350163 0.165183 0.57572 0 0 -1
0.191278 -0.0494639 0.575299 0 0 -1
0.00902774 0.133578 0.575299 0 0 -1
0.163851 0.10644 0.57572 0 0 -1
-0.136118 -0.161951 0.57572 0 0 -1
0.0663297 0.038412 0.600147 0 0 1
-0.275003 -0.0894343 0.575299 0 0 -1
-0.345576 -0.0972529 0.600568 0 0 1
0.0378174 -0.0849063 0.339829 -0.866015 -0.500018 -6.39678e-07
0.254095 -0.110637 0.57572 0 0 -1
0.172005 -0.302261 0.57572 0 0 -1
-0.0844548 0.0247428 0.600568 0 0 1
0.262591 -0.0681919 0.600568 0 0 1
-0.0356558 -0.0172421 0.557513 0 1 0
-0.0833377 -0.229472 0.575299 0 0 -1
-0.0983091 -0.270516 0.600568 0 0 1
0.139675 -0.308527 0.600147 0 0 1
0.205342 0.1909 0.600147 0 0 1
0.294451 -0.269194 0.575361 0.770575 -0.637349 0
0.0449359 0.389177 0.575299 0 0 -1
0.357052 -0.0963724 0.600147 0 0 1
-0.0113545 -0.349313 0.57572 0 0 -1
0.319262 -0.149092 0.57572 0 0 -1
-0.3822 0.0433102 0.57572 0 0 -1
0.0612002 -0.125405 0.406877 -0.866015 -0.500018 -6.39678e-07
-0.177443 0.0107407 0.388428 -0.938579 0 0.345066
0.0586508 0.052353 0.411995 0.866003 -0.500038 -0.000592983
-0.153164 0.0869712 0.575299 0 0 -1
0.0260624 -0.04004 0.507858 -0.469347 0.813147 0.344245
-0.330624 0.0287357 0.57572 0 0 -1
0.0775714 -0.153759 0.277539 -0.866015 -0.500018 -6.39678e-07
0.0999774 -0.363505 0.575299 0 0 -1
0.215435 -0.307974 0.600147 0 0 1
-0.0914413 -0.234651 0.600568 0 0 1
0.141123 0.0309052 0.575299 0 0 -1
0.32167 0.126078 0.600568 0 0 1
-0.138968 0.190736 0.600568 0 0 1
0.0118596 0.319584 0.600147 0 0 1
0.146085 -0.0658406 0.57572 0 0 -1
-0.0718869 -0.38474 0.600568 0 0 1
-0.304344 0.108623 0.57572 0 0 -1
-0.308316 0.0966816 0.600568 0 0 1
0.125992 0.170247 0.167021 0.866047 -0.499962 7.56788e-06
0.081506 0.14319 0.191622 -0.418157 -0.723956 -0.548664
0.126991 -0.150472 0.575299 0 0 -1
0.0713472 0.114362 0.53831 0.469287 0.812833 0.345068
-0.190379 -0.276594 0.575299 0 0 -1
0.0379515 0.306609 0.575299 0 0 -1
-0.278174 -0.21174 0.600147 0 0 1
0.012876 2.52693e-05 0.41716 0 1 0
0.0118394 0.0399132 0.416328 -0.866015 0.500018 -6.39678e-07
-0.0847478 -0.317633 0.575299 0 0 -1
0.0755172 0.0828178 0.499204 0.866047 -0.499962 7.56788e-06
-0.150977 0.313661 0.600147 0 0 1
-0.0692465 -0.112531 0.600147 0 0 1
-0.0809609 0.276512 0.57572 0 0 -1
0.176766 -0.00660228 0.600568 0 0 1
-0.242274 -0.0405662 0.575299 0 0 -1
-0.361835 0.0460009 0.600147 0 0 1
-0.0538187 0.0185562 0.557271 0 1 0
0.157231 -0.0642384 0.600568 0 0 1
-0.331123 0.205686 0.600147 0 0 1
-0.223299 0.0168462 0.248248 0 1 0
-0.136115 -0.291473 0.575299 0 0 -1
-0.0398199 0.306869 0.575299 0 0 -1
0.285849 -0.224756 0.600568 0 0 1
-0.022167 0.16984 0.575299 0 0 -1
0.213826 -0.249308 0.600568 0 0 1
-0.105847 0.0287567 0.57572 0 0 -1
-0.0429986 0.256843 0.600568 0 0 1
-0.296141 -0.0270725 0.600147 0 0 1
-0.181316 0.00180408 0.147532 0.836057 0 -0.548643
-0.282614 -0.275799 0.600147 0 0 1
-0.162749 0.122703 0.575299 0 0 -1
0.247793 0.0309923 0.600568 0 0 1
-0.0495217 0.0193985 0.448069 0 1 0
0.124586 -0.235188 0.113134 -0.866103 -0.499865 -5.52793e-05
-0.235779 -0.287761 0.600568 0 0 1
-0.125595 -0.194411 0.600147 0 0 1
0.0959536 0.290088 0.600147 0 0 1
0.0338557 -0.0780447 0.396454 -0.866015 -0.500018 -6.39678e-07
0.104915 0.137248 0.573227 0 0 -1
0.0241702 0.0701165 0.407644 -0.866004 0.500038 9.97721e-05
-0.0671284 0.249503 0.600147 0 0 1
-0.0912818 -0.0745296 0.575299 0 0 -1
-0.0635031 0.0672186 0.575299 0 0 -1
0.06407 0.177511 0.575299 0 0 -1
-0.241826 0.00369485 0.0553233 0.836057 0 -0.548643
-0.0856291 0.0780531 0.600147 0 0 1
0.172737 0.236987 0.600568 0 0 1
0.0986226 -0.0306986 0.575299 0 0 -1
-0.174554 -0.294853 0.575299 0 0 -1
-0.109648 -0.0295394 0.57572 0 0 -1
-0.14315 -0.245977 0.57572 0 0 -1
0.111658 0.0227104 0.575299 0 0 -1
-0.0650152 -0.0168462 0.54005 0 -1 0
-0.396198 0.0485865 0.598411 -0.998025 0.0628228 0
-0.102588 0.0528541 0.575299 0 0 -1
0.14703 0.13629 0.57572 0 0 -1
0.367413 0.0708301 0.57572 0 0 -1
-0.321434 0.0646332 0.600147 0 0 1
0.289956 0.0100567 0.600147 0 0 1
0.140094 0.220223 0.195454 0.469287 0.812833 0.345068
-0.155941 -0.0629384 0.600147 0 0 1
-0.239708 -0.0168462 0.0829371 0 -1 0
-0.117354 -0.0168462 0.480122 0 -1 0
-0.0886201 0.165048 0.600568 0 0 1
0.0406298 0.327806 0.600568 0 0 1
0.0492635 0.0674764 0.316103 -0.417908 -0.72411 -0.548651
-0.182827 -0.221376 0.57572 0 0 -1
0.13302 0.223604 0.57572 0 0 -1
0.0833205 -0.177371 0.57572 0 0 -1
-0.256866 0.0387506 0.600568 0 0 1
-0.0696132 0.0181445 0.412304 -0.865889 0 -0.500237
-0.275198 0.163455 0.600568 0 0 1
0.0407801 0.0946601 0.562702 0.865957 -0.500118 4.65615e-05
-0.125634 -0.0884089 0.57572 0 0 -1
-0.243919 0.00512775 0.207612 -0.938579 0 0.345066
-0.0985821 0.380794 0.600568 0 0 1
-0.211857 0.236788 0.575299 0 0 -1
-0.147561 0.284903 0.600568 0 0 1
-0.07152 0.0140688 0.57572 0 0 -1
-0.129703 -0.00840613 0.600568 0 0 1
0.0372077 -0.344054 0.600147 0 0 1
0.31657 -0.0122992 0.575299 0 0 -1
-0.183047 -0.355043 0.594231 -0.481683 -0.876345 0
-0.273504 -0.0340181 0.575299 0 0 -1
0.144897 -0.202994 0.0949287 0.866048 0.499962 7.58502e-06
0.107526 0.172657 0.351789 0.469287 0.812833 0.345068
-0.361542 -0.0956053 0.575299 0 0 -1
-0.173863 0.0152598 0.57572 0 0 -1
0.154746 0.36023 0.575299 0 0 -1
0.189682 0.213974 0.600147 0 0 1
0.298305 0.169356 0.600568 0 0 1
-0.0392238 -0.310931 0.575299 0 0 -1
-0.151553 0.368559 0.592988 -0.368073 0.929797 0
-0.37133 0.148429 0.600147 0 0 1
-0.112095 0.188107 0.57572 0 0 -1
-0.27962 0.0503781 0.57572 0 0 -1
-0.17516 0.0682356 0.57572 0 0 -1
0.389688 0.0836949 0.598978 0.982302 0.187305 0
-0.189738 -0.027683 0.575299 0 0 -1
0.11532 -0.151762 0.289699 0.866048 0.499962 7.58502e-06
-0.235683 0.0133154 0.573227 0 0 -1
0.0276837 0.151032 0.600147 0 0 1
-0.0854001 -0.0168462 0.323485 0 -1 0
0.0908872 0.010746 0.600568 0 0 1
-0.000186531 0.378566 0.57572 0 0 -1
0.0198314 -0.166443 0.57572 0 0 -1
0.237337 0.0691892 0.57572 0 0 -1
0.196776 0.0130269 0.575299 0 0 -1
-0.0199718 0.341262 0.575299 0 0 -1
0.0864499 -0.131555 0.477272 0.469287 -0.812833 0.345068
0.0315286 0.386233 0.600568 0 0 1
0.307221 -0.255075 0.594469 0.770535 -0.637398 0
-0.29204 -0.0581056 0.600568 0 0 1
-0.158296 0.221513 0.600568 0 0 1
-0.116342 0.227175 0.600147 0 0 1
0.0723445 -0.265861 0.57572 0 0 -1
0.0817233 -0.157264 0.17439 -0.8294 0.323084 -0.455755
0.0442335 -0.0960189 0.415551 -0.866015 -0.500018 -6.39678e-07
-0.229507 -0.0741622 0.57572 0 0 -1
-0.367835 0.0713845 0.57572 0 0 -1
0.116449 -0.221093 0.147372 -0.866015 -0.500018 -6.39678e-07
-0.0605345 0.0168462 0.354791 0 1 0
0.0221888 -0.259266 0.575299 0 0 -1
0.181357 0.153447 0.575299 0 0 -1
0.0890952 -0.132071 0.200517 -0.418161 0.723963 -0.548651
0.176409 -0.275657 0.575299 0 0 -1
-0.369194 -0.153249 0.580319 -0.904868 -0.425692 0
-0.232858 0.0901978 0.600568 0 0 1
0.125195 0.153758 0.600568 0 0 1
0.148628 0.244218 0.573227 0 0 -1
0.145982 -0.0920592 0.57572 0 0 -1
0.373232 -0.0126835 0.575299 0 0 -1
0.192261 -0.166307 0.575299 0 0 -1
-0.318916 -0.00490019 0.00362128 -0.938579 0 0.345066
0.106021 -0.200881 0.0994853 -0.952269 -0.0131861 -0.304976
-0.370619 -0.120112 0.600568 0 0 1
0.245153 -0.252955 0.600568 0 0 1
-0.204813 0.0168462 0.153116 0 1 0
-0.283352 0.0168462 0.0776044 0 1 0
0.0187936 0.0519579 0.493013 -0.866005 0.500035 -1.56451e-05
-0.104884 0.384461 0.575989 -0.248653 0.968592 0
0.00112519 -0.00212926 0.600568 0 0 1
-0.194318 -0.0168462 0.284171 0 -1 0
0.252785 -0.184259 0.600568 0 0 1
0.0585646 -0.0702596 0.574491 0 0 1
0.322174 0.0845018 0.600568 0 0 1
0.341107 0.046774 0.600568 0 0 1
0.0303118 0.0719069 0.43648 -0.866015 0.500018 -6.39678e-07
0.116827 -0.154844 0.557599 0.866146 0.499791 -3.28985e-05
0.00107896 0.161891 0.600147 0 0 1
0.129463 -0.250896 0.563392 -0.866147 -0.499789 2.73278e-06
0.205618 -0.330074 0.575299 0 0 -1
0.130355 -0.0841395 0.600147 0 0 1
0.0720344 0.144169 0.242589 -0.866015 0.500018 -6.39678e-07
-0.194566 0.0362084 0.575299 0 0 -1
0.240814 -0.0106152 0.57572 0 0 -1
-0.188727 0.238951 0.600568 0 0 1
0.0873234 0.138638 0.575299 0 0 -1
-0.233908 -0.114807 0.600147 0 0 1
0.0737866 0.147204 0.339696 -0.866015 0.500018 -6.39678e-07
0.155434 0.286689 0.600568 0 0 1
0.0831506 0.163422 0.274492 -0.866015 0.500018 -6.39678e-07
-0.0577745 -0.32607 0.600147 0 0 1
0.162375 -0.0177106 0.57572 0 0 -1
0.0727035 0.0868885 0.57572 0 0 -1
0.0406738 -0.146965 0.600568 0 0 1
-0.0610345 -0.0334322 0.575299 0 0 -1
0.121608 -0.327567 0.600568 0 0 1
-0.00955683 0.0185562 0.548038 0 1 0
-0.20761 0.0828161 0.575299 0 0 -1
0.122589 0.243471 0.600568 0 0 1
0.174403 -0.27291 0.0246855 0.469328 -0.812809 0.34507
0.274574 0.0310089 0.575299 0 0 -1
0.070628 -0.05051 0.57572 0 0 -1
0.289623 0.125927 0.600568 0 0 1
-0.0545537 0.0946976 0.57572 0 0 -1
-0.159559 -0.0336574 0.57572 0 0 -1
0.148478 -0.235566 0.0186911 -0.418161 0.723963 -0.548651
0.0666759 -0.365945 0.575299 0 0 -1
0.0924037 0.127666 0.478336 0.469287 0.812833 0.345068
0.00848437 0.109505 0.600568 0 0 1
0.279171 0.241345 0.600568 0 0 1
-0.0418532 -0.0555719 0.575299 0 0 -1
-0.353708 -0.0392657 0.575299 0 0 -1
-0.17459 0.212959 0.57572 0 0 -1
0.214391 -0.00359679 0.600568 0 0 1
0.0682965 0.144988 0.600147 0 0 1
0.142986 -0.195547 0.600568 0 0 1
0.23554 0.285937 0.600568 0 0 1
-0.301999 0.209113 0.575299 0 0 -1
0.22456 0.144497 0.600147 0 0 1
0.0716536 -0.306232 0.600568 0 0 1
0.0699489 -0.308791 0.575299 0 0 -1
0.343838 0.00849649 0.600147 0 0 1
0.0918127 -0.385475 0.600147 0 0 1
-0.222665 -0.235316 0.57572 0 0 -1
-0.254346 0.0168462 0.0892224 0 1 0
0.00487541 0.0230168 0.600568 0 0 1
0.020892 -0.0231746 0.600568 0 0 1
0.262817 0.0662475 0.600568 0 0 1
0.0968509 0.18715 0.232733 -0.866015 0.500018 -6.39678e-07
0.322324 -0.171459 0.575299 0 0 -1
0.242493 0.0402404 0.575299 0 0 -1
0.227284 0.192256 0.575299 0 0 -1
0.0143987 -0.112631 0.600147 0 0 1
-0.264243 0.0146393 0.600147 0 0 1
0.119567 0.0168971 0.600568 0 0 1
-0.106522 -0.0543851 0.600568 0 0 1
-0.244413 0.119171 0.57572 0 0 -1
0.153867 -0.218531 0.0710253 0.866048 0.499962 7.58502e-06
0.0551659 0.114953 0.415671 -0.866015 0.500018 -6.39678e-07
0.342194 -0.044628 0.600147 0 0 1
-0.228486 -0.311846 0.600147 0 0 1
-0.32867 0.164895 0.600147 0 0 1
-0.319213 -0.00562618 0.575299 0 0 -1
-9.90909e-05 -0.294854 0.600147 0 0 1
-0.274761 -0.000661719 0.573227 0 0 -1
0.0549771 0.202766 0.600568 0 0 1
-0.0729646 0.00253773 0.600568 0 0 1
0.135402 0.227583 0.0391898 -0.418157 -0.723956 -0.548664
0.195162 -0.228195 0.600568 0 0 1
0.0740374 0.0802536 0.445702 0.866047 -0.499962 7.56788e-06
-0.21533 0.0238647 0.600147 0 0 1
-0.0913352 -0.180995 0.600147 0 0 1
0.279472 -0.0371596 0.600147 0 0 1
0.0187159 0.244163 0.600568 0 0 1
-0.235009 0.216454 0.600568 0 0 1
-0.172916 -0.0168462 0.343499 0 -1 0
-0.0546245 -0.393136 0.57572 0 0 -1
0.0518151 -0.04176 0.494789 0.866054 0.49995 0
-0.107445 0.11037 0.600147 0 0 1
-0.118686 0.177427 0.600568 0 0 1
0.154857 -0.220242 0.136924 0.865982 0.500075 -3.31753e-05
0.325795 0.231847 0.587855 0.844292 0.535884 0
-0.243555 0.315578 0.586217 -0.587796 0.809009 0
-0.0161884 -0.0637362 0.600568 0 0 1
0.138224 -0.199 0.247657 0.677333 -0.655833 0.333323
0.112014 0.146034 0.244019 0.866047 -0.499962 7.56788e-06
0.0122769 0.300028 0.575299 0 0 -1
-0.185263 -0.101595 0.600568 0 0 1
0.0503311 -0.0391882 0.401165 0.866048 0.499962 7.58502e-06
0.0672419 0.376265 0.600147 0 0 1
0.154859 -0.121447 0.600147 0 0 1
0.269406 0.171406 0.600568 0 0 1
-0.135014 0.244624 0.575299 0 0 -1
-0.204031 0.0124657 0.574491 0 0 1
-0.205057 -0.00701782 0.313316 -0.938579 0 0.345066
-0.0820751 0.0168462 0.488524 0 1 0
-0.180247 0.0168462 0.244968 0 1 0
-0.212365 -0.160654 0.57572 0 0 -1
0.0896541 -0.107304 0.367256 0.866048 0.499962 7.58502e-06
-0.0650373 -0.180741 0.575299 0 0 -1
-0.201048 -0.0168462 0.23172 0 -1 0
-0.110914 0.120265 0.57572 0 0 -1
-0.359572 0.169035 0.575299 0 0 -1
0.0669334 0.135334 0.443061 -0.866015 0.500018 -6.39678e-07
0.0217836 -0.0571363 0.454556 -0.866015 -0.500018 -6.39678e-07
-0.0650297 -0.0942615 0.575299 0 0 -1
-0.156162 0.0172926 0.557558 0 -1 0
0.0950995 0.20091 0.575299 0 0 -1
-0.187766 -0.148629 0.600568 0 0 1
-0.0307816 0.277908 0.600568 0 0 1
0.329334 -0.0965181 0.57572 0 0 -1
