0.152252 -0.0537051 0.303333 0.894424 0.447219 1.3235e-08
0.165622 0.275521 0.475846 0 0 1
-0.327492 -0.0458656 0.460193 -1 0 0
-0.00523043 0.284595 0.475846 0 0 1
-0.0562707 -0.00263272 0.352004 0 -0.258766 0.96594
-0.190854 -0.0727048 0.451939 0 0 -1
-0.135161 -0.115368 0.475846 0 0 1
0.202895 0.0554496 0.475846 0 0 1
0.259003 -0.26295 0.475846 0 0 1
0.326835 -0.216472 0.477309 0.471526 0 0.881852
-0.124056 -0.0641696 0.451939 0 0 -1
-0.169847 0.118906 0.254893 0.89443 0.447209 -2.46175e-06
-0.186017 0.121235 0.218591 -0.894427 -0.447214 -2.62054e-06
-0.181172 0.1402 0.121876 0.969182 -0.0605047 -0.238801
0.0145551 -0.00932071 0.344766 0 -0.965909 0.258881
-0.203681 -0.17854 0.130373 -0.520322 -0.807818 0.276938
0.10232 0.00194772 0.352187 0 0.258766 0.96594
0.136531 -0.161687 0.475846 0 0 1
-0.169718 -0.0886374 0.35549 -0.894427 0.447214 -2.63378e-06
-0.285851 0.212831 0.475846 0 0 1
0.0386007 -0.0487272 0.475846 0 0 1
-0.198216 0.240479 0.475846 0 0 1
-0.202108 0.183427 0.0925402 0.894414 0.44724 6.47717e-06
-0.216656 0.0592505 0.451939 0 0 -1
0.256426 0.177845 0.475846 0 0 1
0.0702903 0.263742 0.475846 0 0 1
-0.220501 -0.239596 0.451939 0 0 -1
0.244843 -0.15432 0.475846 0 0 1
-0.0920537 0.0156573 0.451939 0 0 -1
-0.180083 -0.00841722 0.451939 0 0 -1
0.268032 0.220469 0.475846 0 0 1
0.0592598 -0.191779 0.451939 0 0 -1
-0.174732 0.122774 0.347432 -0.520602 0.807642 0.276926
-0.163771 -0.076743 0.293822 -0.894427 0.447214 -2.63378e-06
-0.207609 0.0873613 0.475846 0 0 1
0.141869 0.0364255 0.367238 -0.814544 -0.507634 0.280761
0.309889 0.0738909 0.451939 0 0 -1
-0.285155 -0.0892525 0.451939 0 0 -1
-0.231189 -0.252677 0.475846 0 0 1
-0.32001 -0.118043 0.475846 0 0 1
-0.23526 0.106296 0.451939 0 0 -1
0.185805 0.148282 0.475846 0 0 1
0.1499 -0.294743 0.454228 0 -1 0
0.187337 -0.207262 0.451939 0 0 -1
0.224287 0.0776019 0.475846 0 0 1
-0.228209 0.294743 0.457142 0 1 0
0.281286 -0.0867485 0.475846 0 0 1
0.114143 0.244297 0.475846 0 0 1
-0.207308 -0.202735 0.451939 0 0 -1
-0.0786482 0.226319 0.475846 0 0 1
-0.0964496 0.08405 0.475846 0 0 1
0.194292 0.181889 0.475846 0 0 1
-0.251213 -0.0824774 0.475846 0 0 1
0.300666 -0.0844458 0.451939 0 0 -1
0.207405 -0.162814 0.475846 0 0 1
0.151517 -0.144497 0.451939 0 0 -1
0.0906833 -0.272887 0.451939 0 0 -1
0.122105 0.160544 0.475846 0 0 1
0.123416 0.271804 0.451939 0 0 -1
0.109703 -0.106329 0.475846 0 0 1
-0.067124 -0.252124 0.475846 0 0 1
0.00887212 0.248897 0.475846 0 0 1
-0.0913622 0.179619 0.451939 0 0 -1
-0.0380058 -0.0543374 0.451939 0 0 -1
0.181921 -0.0579458 0.451939 0 0 -1
-0.13445 -0.167512 0.475846 0 0 1
0.327417 0.0280389 0.453345 0.991087 0 -0.133214
0.102612 0.0795839 0.451939 0 0 -1
-0.135017 -0.253117 0.451939 0 0 -1
0.177986 0.134134 0.298068 -0.790115 0.61041 0.0558417
0.0379947 0.252925 0.451939 0 0 -1
-0.284804 -0.0630029 0.475846 0 0 1
0.0491529 0.0307191 0.475846 0 0 1
0.198625 0.0184879 0.451939 0 0 -1
-0.0105494 -0.0683445 0.475846 0 0 1
-0.209857 -0.0949008 0.475846 0 0 1
0.165379 -0.10997 0.315692 -0.89443 -0.447209 -2.46175e-06
0.0532036 0.190544 0.475846 0 0 1
-0.00810045 0.0424826 0.451939 0 0 -1
-0.0794715 -0.031291 0.475846 0 0 1
-0.269575 -0.188699 0.475846 0 0 1
0.168138 0.0854762 0.330384 0.894424 -0.447219 0
-0.0478618 0.0943622 0.475846 0 0 1
0.190895 -0.159728 0.200946 -0.790115 -0.61041 0.0558418
0.165978 -0.229277 0.451939 0 0 -1
-0.146055 0.293021 0.452004 0 0.257561 -0.966262
0.187438 0.154088 0.193399 -0.894414 0.44724 6.51162e-06
-0.0236306 -0.164527 0.475846 0 0 1
0.0270624 -0.078492 0.451939 0 0 -1
-0.174266 0.0515697 0.451939 0 0 -1
-0.0225058 0.199647 0.451939 0 0 -1
0.0675289 0.0296768 0.451939 0 0 -1
-0.0567606 0.132904 0.451939 0 0 -1
-0.180148 -0.219844 0.475846 0 0 1
-0.174522 -0.0982464 0.1922 -0.894427 0.447214 -2.63378e-06
-0.145036 0.0692832 0.329109 0.89443 0.447209 -2.46175e-06
-0.301216 0.088573 0.451939 0 0 -1
0.186803 -0.152817 0.150116 -0.89443 -0.447209 -2.46175e-06
0.134763 0.161011 0.451939 0 0 -1
0.141618 0.294743 0.468833 0 1 0
-0.0487612 -0.216035 0.451939 0 0 -1
-0.219172 0.212411 0.451939 0 0 -1
0.195606 -0.159766 0.0653757 -0.832765 0.416419 -0.364825
-0.0299077 0.170576 0.475846 0 0 1
-0.2535 0.140405 0.451939 0 0 -1
-0.212544 0.17429 0.0239234 -0.894427 -0.447214 -2.62054e-06
-0.0461493 0.259628 0.451939 0 0 -1
-0.176596 0.132403 0.162101 0.89443 0.447209 -2.46175e-06
0.152573 0.0843563 0.308862 -0.89443 0.447209 -2.46175e-06
-0.188395 0.156002 0.101932 0.89443 0.447209 -2.46175e-06
-0.152981 0.0851738 0.38992 0.89443 0.447209 -2.46175e-06
-0.0433391 0.0827157 0.451939 0 0 -1
0.211958 0.174206 0.09017 0.950652 -0.307179 0.0436001
0.25498 0.254286 0.451939 0 0 -1
0.0817244 0.0108703 0.451939 0 0 -1
-0.262311 -0.0120931 0.451939 0 0 -1
0.309814 0.275532 0.475846 0 0 1
-0.00830624 -0.242378 0.475846 0 0 1
-0.316316 -0.218549 0.451939 0 0 -1
0.191397 -0.189656 0.475846 0 0 1
0.31729 -0.141969 0.475846 0 0 1
0.140447 0.0934524 0.475846 0 0 1
0.297697 -0.200062 0.451939 0 0 -1
-2.97129e-05 -0.240582 0.451939 0 0 -1
-0.164657 -0.102308 0.426062 -0.520602 -0.807642 0.276926
-0.128916 -0.0903588 0.451939 0 0 -1
0.0614923 -0.269917 0.475846 0 0 1
-0.110374 0.0993375 0.451939 0 0 -1
0.290734 0.106645 0.451939 0 0 -1
0.146696 -0.0568919 0.416352 -0.862538 0.431246 0.26468
-0.177878 0.104958 0.278114 -0.894427 -0.447214 -2.62054e-06
-0.208937 -0.165189 0.451939 0 0 -1
-0.290317 -0.190582 0.451939 0 0 -1
0.24157 0.0437379 0.451939 0 0 -1
-0.0609792 -0.115957 0.475846 0 0 1
0.147427 0.0632788 0.429142 -0.862538 -0.431246 0.264678
0.327492 0.173059 0.454478 1 0 0
0.271477 0.172462 0.451939 0 0 -1
0.291225 0.096321 0.475846 0 0 1
0.176667 -0.122732 0.343921 0.520602 -0.807643 0.276924
0.259697 0.0714522 0.475846 0 0 1
0.0132169 -0.0260366 0.475846 0 0 1
-0.0788628 -0.269449 0.451939 0 0 -1
-0.144828 -0.0388575 0.353235 -0.894425 0.447219 0
0.221835 0.0235296 0.475846 0 0 1
-0.327492 0.1003 0.471086 -1 0 0
0.169584 -0.0593826 0.475846 0 0 1
-0.305315 0.00312087 0.451939 0 0 -1
-0.123784 0.265464 0.475846 0 0 1
0.282691 0.294743 0.462646 0 1 0
-0.212401 -0.179154 0.0919285 -0.991361 0.0714087 0.110016
0.0102589 -0.138373 0.475846 0 0 1
-0.115389 0.203067 0.475846 0 0 1
0.0358709 0.0678827 0.451939 0 0 -1
0.270876 -0.0980288 0.451939 0 0 -1
-0.163423 -0.277187 0.451939 0 0 -1
0.143914 0.0670392 0.356092 -0.89443 0.447209 -2.46175e-06
0.069007 -0.212437 0.475846 0 0 1
0.160498 -0.0197796 0.451939 0 0 -1
0.291712 0.140852 0.475846 0 0 1
0.0161546 -0.0119297 0.451939 0 0 -1
-0.3051 0.168161 0.451939 0 0 -1
0.0907469 -0.132483 0.451939 0 0 -1
0.319014 -0.136834 0.451939 0 0 -1
0.171665 -0.11392 0.172355 -0.832765 0.416419 -0.364825
-0.163142 -0.294743 0.475332 0 -1 0
-0.16302 -0.105252 0.252733 0.89443 -0.447209 -2.46175e-06
0.201327 0.249932 0.475846 0 0 1
0.0977836 -0.157849 0.451939 0 0 -1
-0.310414 -0.152856 0.475846 0 0 1
-0.242467 -0.188042 0.475846 0 0 1
0.147531 -0.0742738 0.383237 -0.89443 -0.447209 -2.46175e-06
-0.0896816 0.294743 0.458361 0 1 0
-0.218077 0.274619 0.475846 0 0 1
-0.178702 -0.106605 0.335502 -0.894414 0.447239 -9.71575e-06
0.0249306 -0.110152 0.451939 0 0 -1
0.182058 -0.113315 0.229722 0.894424 0.447219 1.3235e-08
0.127748 -0.255919 0.475846 0 0 1
0.274884 -0.00556451 0.475846 0 0 1
-0.327492 0.271436 0.458189 -1 0 0
0.026366 0.184863 0.475846 0 0 1
0.0776054 0.179844 0.451939 0 0 -1
-0.134923 -0.0416439 0.475846 0 0 1
-0.260834 -0.0831971 0.451939 0 0 -1
0.114538 -0.0417646 0.451939 0 0 -1
0.230205 -0.241662 0.451939 0 0 -1
-0.265021 0.239805 0.451939 0 0 -1
0.111134 0.0731943 0.475846 0 0 1
0.192067 -0.273563 0.451939 0 0 -1
0.0253274 0.135316 0.475846 0 0 1
-0.327492 -0.292172 0.474347 -1 0 0
-0.134309 0.161549 0.451939 0 0 -1
0.250108 0.231019 0.451939 0 0 -1
-0.182609 -0.114421 0.21181 -0.894427 0.447214 -2.63378e-06
0.16108 0.0713612 0.40405 0.894424 -0.447219 0
0.0836949 0.124117 0.451939 0 0 -1
-0.202298 -0.107993 0.451939 0 0 -1
0.0353919 0.00506765 0.334531 0 0.707021 -0.707193
-0.217373 0.138465 0.451939 0 0 -1
0.115403 -0.212123 0.451939 0 0 -1
-0.191443 0.162097 0.167097 0.894414 0.44724 6.47717e-06
0.205057 0.160079 0.475846 0 0 1
-0.0626439 0.160861 0.475846 0 0 1
-0.26757 0.0864524 0.475846 0 0 1
0.282592 0.00511929 0.451939 0 0 -1
0.0692099 0.110892 0.475846 0 0 1
0.162002 -0.0732052 0.319678 0.894424 0.447219 1.3235e-08
0.313067 0.26359 0.451939 0 0 -1
0.207443 -0.212412 0.451939 0 0 -1
-0.323498 0.138305 0.475846 0 0 1
0.310234 0.230014 0.451939 0 0 -1
-0.0571359 0.0343434 0.475846 0 0 1
-0.174266 0.0865638 0.451939 0 0 -1
0.0621698 -0.0167069 0.451939 0 0 -1
-0.151351 0.0519293 0.294272 -0.816827 -0.572392 -0.0718371
-0.123616 0.0159946 0.351846 0.348994 0.17452 0.920731
-0.17536 0.0876494 0.475846 0 0 1
0.0395595 0.0116996 0.475846 0 0 1
-0.063525 -0.0308789 0.451939 0 0 -1
0.12683 0.19757 0.475846 0 0 1
0.327492 -0.249378 0.470974 1 0 0
0.18376 -0.14673 0.11691 -0.89443 -0.447209 -2.46175e-06
-0.0943111 -0.0794238 0.451939 0 0 -1
-0.266228 0.268292 0.451939 0 0 -1
0.133481 0.0210695 0.475846 0 0 1
-0.0229014 0.0862447 0.475846 0 0 1
0.158137 -0.0954863 0.386332 -0.89443 -0.447209 -2.46175e-06
-0.291137 0.290897 0.475846 0 0 1
0.311634 -0.0292007 0.475846 0 0 1
-0.131486 -0.0309587 0.451939 0 0 -1
-0.280857 -0.228149 0.475846 0 0 1
0.158967 -0.0671353 0.269736 0.894424 0.447219 1.3235e-08
0.00600287 0.196679 0.451939 0 0 -1
-0.177776 0.104755 0.191541 -0.894427 -0.447214 -2.62054e-06
-0.11134 -0.176485 0.451939 0 0 -1
0.160404 0.100019 0.275742 -0.89443 0.447209 -2.46175e-06
0.0774668 -0.294743 0.471772 0 -1 0
-0.0191908 -0.294743 0.458048 0 -1 0
0.170308 -0.258509 0.475846 0 0 1
0.0141266 0.287472 0.451939 0 0 -1
0.0183949 0.0696182 0.475846 0 0 1
0.101785 -0.0798021 0.475846 0 0 1
0.00707325 0.115762 0.451939 0 0 -1
0.111672 -0.225189 0.475846 0 0 1
0.024995 0.26362 0.475846 0 0 1
-0.193488 -0.136179 0.138767 -0.894427 0.447214 -2.63378e-06
0.15077 0.21866 0.451939 0 0 -1
0.150854 0.0809203 0.380254 -0.89443 0.447209 -2.46175e-06
0.219971 -0.069986 0.475846 0 0 1
-0.0603027 -0.156545 0.475846 0 0 1
-0.263383 -0.198619 0.451939 0 0 -1
-0.253264 -0.138992 0.475846 0 0 1
-0.190188 0.129577 0.235089 -0.894414 -0.447239 -9.77604e-06
-0.0369221 -0.00576932 0.335233 0 -0.707021 -0.707193
-0.327492 -0.231427 0.475462 -1 0 0
-0.140001 0.0742415 0.475846 0 0 1
0.215395 -0.0698155 0.451939 0 0 -1
0.17556 0.100321 0.357739 0.894414 -0.44724 -5.99482e-06
-0.0102381 0.00177705 0.475846 0 0 1
-0.312333 0.0247665 0.475846 0 0 1
-0.30493 -0.165961 0.451939 0 0 -1
0.268273 -0.227284 0.475846 0 0 1
0.138866 -0.0569421 0.345305 -0.89443 -0.447209 -2.46175e-06
-0.201299 0.151801 0.126492 -0.894427 -0.447214 -2.62054e-06
-0.168206 -0.104054 0.475846 0 0 1
0.209472 0.18267 0.00758058 -0.832764 -0.416419 -0.364827
0.191343 0.236327 0.451939 0 0 -1
0.228663 -0.0254777 0.451939 0 0 -1
-0.117413 0.144484 0.475846 0 0 1
0.168339 -0.0862822 0.21479 0.682826 0.712386 -0.162034
0.0445813 -0.120128 0.475846 0 0 1
-0.162026 0.137871 0.451939 0 0 -1
-0.0341831 0.0498833 0.451939 0 0 -1
0.237572 0.294743 0.458839 0 1 0
-0.146103 -0.0714174 0.328473 0.89443 -0.447209 -2.46175e-06
0.00443101 0.103411 0.475846 0 0 1
-0.24804 0.219516 0.451939 0 0 -1
-0.214835 -0.201892 0.0412967 -0.520322 -0.807818 0.276938
0.159647 0.022304 0.475846 0 0 1
-0.181306 -0.111814 0.297669 -0.894427 0.447214 -2.63378e-06
-0.314099 0.234425 0.451939 0 0 -1
0.208792 -0.215651 0.475846 0 0 1
-0.155101 -0.0894136 0.385517 0.89443 -0.447209 -2.46175e-06
-0.202461 -0.0340095 0.451939 0 0 -1
0.195369 0.158627 0.0672165 -0.832764 -0.416419 -0.364827
0.304099 -0.259993 0.451939 0 0 -1
0.214028 -0.203679 0.0343312 -0.27072 -0.939787 0.208593
-0.0637198 -0.246322 0.451939 0 0 -1
-0.180363 -0.203802 0.451939 0 0 -1
0.173773 0.096746 0.253037 0.894424 -0.447219 0
-0.111412 -0.221236 0.451939 0 0 -1
0.201388 -0.163652 0.171516 0.871243 -0.435751 0.225956
0.176483 -0.0937398 0.475846 0 0 1
0.11278 0.20119 0.451939 0 0 -1
-0.220192 0.155473 0.475846 0 0 1
-0.253241 -0.288533 0.475846 0 0 1
0.245016 -0.293246 0.477358 0 -0.257533 0.966269
0.24223 -0.234445 0.475846 0 0 1
-0.101337 -0.0984813 0.475846 0 0 1
-0.0203494 -0.106714 0.475846 0 0 1
0.171573 0.291756 0.451939 0 0 -1
-0.0878161 -0.294743 0.461542 0 -1 0
0.0983738 -0.154532 0.475846 0 0 1
0.163731 -0.0766632 0.439981 0.894449 0.447169 -3.18195e-05
-0.166563 -0.0823267 0.328194 -0.894427 0.447214 -2.63378e-06
-0.185339 -0.119879 0.234313 -0.894427 0.447214 -2.63378e-06
0.183528 0.172376 0.451939 0 0 -1
-0.0904473 0.0540506 0.475846 0 0 1
0.198781 0.146762 0.123849 0.894424 -0.447219 0
0.207648 -0.174563 0.0209991 -0.832765 0.416419 -0.364825
0.127403 -0.0268136 0.350787 -0.755951 -0.378045 0.534434
-0.124178 0.241799 0.451939 0 0 -1
-0.301723 0.154438 0.475846 0 0 1
0.189664 0.128528 0.178464 0.894424 -0.447219 0
0.0865313 0.217079 0.451939 0 0 -1
0.155245 0.091805 0.451939 0 0 -1
-0.295398 0.243615 0.475846 0 0 1
-0.164174 0.101682 0.203422 0.832765 -0.416419 -0.364825
0.248615 -0.129491 0.451939 0 0 -1
0.114816 0.135536 0.451939 0 0 -1
-0.202292 -0.165341 0.475846 0 0 1
0.130785 0.00583717 0.451939 0 0 -1
0.0185502 -0.165984 0.475846 0 0 1
-0.244976 0.183134 0.475846 0 0 1
-0.214215 -0.177632 0.0217237 -0.894414 0.447239 -9.71575e-06
-0.254224 -0.262294 0.451939 0 0 -1
0.0904784 0.136713 0.475846 0 0 1
-0.020052 0.104418 0.451939 0 0 -1
0.0779453 0.00560826 0.335072 0 0.707021 -0.707193
0.226454 0.143448 0.451939 0 0 -1
0.101286 -0.241027 0.451939 0 0 -1
-0.0204239 -0.209766 0.451939 0 0 -1
-0.181373 0.284554 0.451939 0 0 -1
0.172354 0.123919 0.204857 -0.89443 0.447209 -2.46175e-06
-0.0995946 -0.0588761 0.475846 0 0 1
0.177382 -0.137556 0.475846 0 0 1
-0.0300278 0.278857 0.475846 0 0 1
-0.107943 -0.145017 0.451939 0 0 -1
-0.0831719 0.227267 0.451939 0 0 -1
-0.0823737 0.0935363 0.451939 0 0 -1
-0.14788 -0.012512 0.475846 0 0 1
-0.250164 3.51667e-06 0.475846 0 0 1
0.327492 0.189074 0.471583 1 0 0
0.271647 -0.201541 0.451939 0 0 -1
0.13569 0.0460947 0.33189 -0.8328 -0.416364 -0.364809
-0.0306816 -0.0894655 0.451939 0 0 -1
0.229716 0.00362504 0.451939 0 0 -1
-0.146728 -0.0681851 0.345671 0.881816 -0.440905 0.167345
-0.0850156 -0.00511166 0.475846 0 0 1
-0.219735 0.0369668 0.475846 0 0 1
0.253361 0.0208737 0.475846 0 0 1
0.327492 -0.0112336 0.455002 1 0 0
0.0905905 -0.189035 0.451939 0 0 -1
-0.139015 -0.165851 0.451939 0 0 -1
-0.193114 -0.0149023 0.475846 0 0 1
-0.0614261 0.132726 0.475846 0 0 1
0.314849 -0.175388 0.475846 0 0 1
0.326521 0.294737 0.473744 0.471526 0.881852 0
0.25143 0.19063 0.451939 0 0 -1
-0.159499 -0.0982088 0.282718 0.89443 -0.447209 -2.46175e-06
-0.214975 0.179152 0.0591002 -0.894414 -0.447239 -9.77604e-06
0.0690562 -0.176887 0.475846 0 0 1
-0.29926 0.0478324 0.451939 0 0 -1
-0.139459 0.183762 0.475846 0 0 1
0.293633 0.157541 0.451939 0 0 -1
0.191071 -0.128523 0.451939 0 0 -1
-0.153778 0.086767 0.428531 0.894432 0.447204 0
0.0495158 -0.192008 0.475846 0 0 1
-0.0398628 -0.284479 0.451939 0 0 -1
0.0842144 0.239736 0.475846 0 0 1
0.173565 0.0357218 0.451939 0 0 -1
0.144526 0.0704432 0.451939 0 0 -1
-0.148042 -0.206702 0.475846 0 0 1
0.17709 -0.103381 0.290883 0.894424 0.447219 1.3235e-08
-0.231687 0.0955818 0.475846 0 0 1
0.16536 0.109932 0.310739 -0.89443 0.447209 -2.46175e-06
-0.272224 0.187452 0.475846 0 0 1
0.172103 -0.0934058 0.263238 0.894424 0.447219 1.3235e-08
-0.193472 -0.166155 0.0985333 0.89443 -0.447209 -2.46175e-06
-0.0467245 -0.0238831 0.475846 0 0 1
-0.143988 -0.0377888 0.372664 -0.659484 0.741313 0.12464
-0.269768 0.0150131 0.451939 0 0 -1
-0.171986 0.0931737 0.355884 -0.894427 -0.447214 -2.62054e-06
-0.19639 0.183999 0.451939 0 0 -1
-0.131115 0.0690275 0.451939 0 0 -1
-0.0171489 -0.198258 0.475846 0 0 1
-0.171785 0.0927708 0.327894 -0.894427 -0.447214 -2.62054e-06
0.30673 0.00808501 0.451939 0 0 -1
0.140286 0.136432 0.475846 0 0 1
-0.184831 0.128383 0.301247 -0.9734 0.156956 0.166904
-0.327492 0.0630113 0.475233 -1 0 0
-0.19916 0.294743 0.465918 0 1 0
0.190538 0.0362031 0.475846 0 0 1
0.283611 0.252344 0.475846 0 0 1
0.0315726 -0.221454 0.475846 0 0 1
-0.165986 -0.0811725 0.405275 -0.894427 0.447214 -2.63378e-06
-0.315211 -0.0800518 0.451939 0 0 -1
-0.130661 -0.088755 0.475846 0 0 1
-0.252234 -0.131357 0.451939 0 0 -1
0.120153 -0.0889124 0.451939 0 0 -1
-0.0424831 -0.248637 0.475846 0 0 1
0.0344657 -0.272839 0.475846 0 0 1
-0.156569 0.269456 0.475846 0 0 1
-0.263619 0.119792 0.475846 0 0 1
0.195194 -0.169599 0.112781 -0.89443 -0.447209 -2.46175e-06
-0.284795 0.230066 0.451939 0 0 -1
0.156082 -0.177181 0.475846 0 0 1
-0.19061 0.17686 0.475846 0 0 1
0.0553678 -0.0968826 0.451939 0 0 -1
-0.21766 0.226944 0.475846 0 0 1
0.318069 0.112785 0.451939 0 0 -1
0.23268 -0.0399986 0.475846 0 0 1
-0.121607 0.0329326 0.475846 0 0 1
-0.129126 0.126314 0.451939 0 0 -1
0.327492 -0.0751828 0.457666 1 0 0
-0.327492 0.213146 0.462359 -1 0 0
-0.226564 -0.212242 0.475846 0 0 1
0.205349 -0.186878 0.451939 0 0 -1
-0.107923 -0.0028007 0.451939 0 0 -1
-0.282783 -0.125687 0.451939 0 0 -1
-0.327492 -0.266475 0.461058 -1 0 0
0.327492 0.147244 0.46721 1 0 0
0.272036 -0.0653953 0.451939 0 0 -1
-0.00142226 -0.28762 0.475846 0 0 1
0.295684 -0.237219 0.475846 0 0 1
0.275364 -0.030215 0.451939 0 0 -1
-0.167527 -0.114266 0.359151 0.894414 -0.44724 6.51162e-06
-0.0517434 0.22368 0.475846 0 0 1
0.323752 0.0894256 0.475846 0 0 1
-0.27852 -0.235089 0.451939 0 0 -1
-0.207229 -0.0672738 0.475846 0 0 1
0.292799 -0.113734 0.475846 0 0 1
-0.152414 0.0540293 0.348517 -0.894427 -0.447214 -2.62054e-06
-0.0921804 -0.199982 0.451939 0 0 -1
0.0714113 -0.260321 0.451939 0 0 -1
0.135661 0.116621 0.451939 0 0 -1
0.204209 0.169055 0.149995 0.973482 0.156545 0.166813
0.0514654 0.289284 0.451939 0 0 -1
-0.184167 0.147545 0.149532 0.89443 0.447209 -2.46175e-06
-0.182368 0.143948 0.209535 0.89443 0.447209 -2.46175e-06
0.0388291 -0.169054 0.451939 0 0 -1
-0.0547665 -0.16458 0.451939 0 0 -1
-0.0278192 0.237844 0.451939 0 0 -1
-0.078735 -0.144578 0.451939 0 0 -1
0.203773 -0.0162911 0.475846 0 0 1
-0.0772429 0.105544 0.475846 0 0 1
-0.165344 0.0798892 0.291803 -0.894427 -0.447214 -2.62054e-06
-0.145474 -0.0745168 0.451939 0 0 -1
-0.0514245 -0.108152 0.451939 0 0 -1
-0.0239542 0.294743 0.458362 0 1 0
0.187934 0.125618 0.271649 0.950514 -0.307625 0.0434712
0.120511 -0.127881 0.475846 0 0 1
0.194153 0.219223 0.475846 0 0 1
-0.068921 0.26299 0.451939 0 0 -1
-0.16565 -0.0805011 0.248258 -0.894427 0.447214 -2.63378e-06
-0.103021 0.239538 0.475846 0 0 1
0.258846 0.107852 0.451939 0 0 -1
-0.14708 -0.0548218 0.295928 0.8328 0.416364 -0.364809
0.136952 -0.162655 0.451939 0 0 -1
-0.157399 0.0940082 0.253878 0.89443 0.447209 -2.46175e-06
-0.090414 -0.224553 0.475846 0 0 1
0.0565147 -0.239885 0.451939 0 0 -1
-0.133369 -0.139099 0.475846 0 0 1
-0.247305 0.0397048 0.475846 0 0 1
-0.232872 -0.201399 0.451939 0 0 -1
0.183805 0.0762728 0.475846 0 0 1
0.299669 -0.292778 0.476949 0 1 0
0.0374007 0.162724 0.475846 0 0 1
0.0746479 -0.0730819 0.475846 0 0 1
-0.126267 -0.229407 0.475846 0 0 1
0.0702953 -0.162793 0.451939 0 0 -1
-0.15475 0.0587002 0.386768 -0.894427 -0.447214 -2.62054e-06
-0.190076 -0.129355 0.163775 -0.894427 0.447214 -2.63378e-06
-0.184968 -0.149148 0.20865 0.894414 -0.44724 6.51162e-06
-0.0999024 0.283013 0.475846 0 0 1
0.0659665 -0.115928 0.475846 0 0 1
0.164692 0.0785855 0.43173 0.894424 -0.447219 0
0.014942 0.219023 0.475846 0 0 1
-0.216903 5.82039e-05 0.475846 0 0 1
-0.0248326 -0.146075 0.451939 0 0 -1
-0.235182 -0.120501 0.475846 0 0 1
0.249614 -0.180176 0.451939 0 0 -1
0.0994744 0.243937 0.451939 0 0 -1
0.263686 -0.272238 0.451939 0 0 -1
-0.0797645 0.157232 0.451939 0 0 -1
0.297585 -0.171401 0.451939 0 0 -1
-0.146166 -0.0715421 0.303017 0.89443 -0.447209 -2.46175e-06
-0.29849 -0.0904547 0.475846 0 0 1
-0.232713 -0.041069 0.451939 0 0 -1
0.198306 0.275066 0.475846 0 0 1
-0.292018 -0.13158 0.475846 0 0 1
0.1752 -0.220686 0.475846 0 0 1
-0.0823047 0.00513633 0.351169 0 0.70712 0.707093
0.00299072 -0.13136 0.451939 0 0 -1
0.210827 -0.195525 0.0669152 -0.27072 -0.939787 0.208593
-0.0717755 -0.00206958 0.333614 0 -0.258952 -0.96589
0.192909 0.107912 0.475846 0 0 1
-0.0524324 0.0631045 0.475846 0 0 1
0.177347 0.103894 0.207286 0.894424 -0.447219 0
0.0687177 -0.00805259 0.475846 0 0 1
-0.165699 0.11061 0.358722 0.89443 0.447209 -2.46175e-06
0.290602 0.215203 0.475846 0 0 1
0.253686 -0.0880159 0.475846 0 0 1
0.146313 0.237342 0.475846 0 0 1
-0.263003 0.212499 0.475846 0 0 1
-0.0109658 0.0492594 0.475846 0 0 1
0.311227 0.161015 0.475846 0 0 1
-0.0346029 0.194254 0.475846 0 0 1
-0.209745 0.174216 0.112651 -0.991361 -0.0714093 0.110016
-0.298694 -0.273591 0.451939 0 0 -1
0.0693395 -0.146181 0.475846 0 0 1
-0.327492 0.146435 0.456027 -1 0 0
0.0632199 0.0527228 0.451939 0 0 -1
0.00947776 -0.222214 0.475846 0 0 1
0.318722 -0.112686 0.451939 0 0 -1
-0.00378114 -0.0817908 0.451939 0 0 -1
-0.113368 -0.268154 0.451939 0 0 -1
0.130942 -0.0194024 0.451939 0 0 -1
0.182856 -0.0353861 0.475846 0 0 1
0.120892 -0.180139 0.475846 0 0 1
0.150954 -0.105218 0.451939 0 0 -1
0.144652 0.0685156 0.330942 -0.89443 0.447209 -2.46175e-06
-0.175168 -0.129548 0.251691 0.89443 -0.447209 -2.46175e-06
0.240052 0.156847 0.475846 0 0 1
-0.279363 0.146292 0.451939 0 0 -1
-0.12292 0.276389 0.451939 0 0 -1
-0.165579 0.240384 0.451939 0 0 -1
-0.26507 -0.253091 0.475846 0 0 1
0.184873 0.118946 0.22155 0.894424 -0.447219 0
0.175372 0.245507 0.475846 0 0 1
0.21658 -0.258458 0.451939 0 0 -1
-0.179943 0.109088 0.236312 -0.894427 -0.447214 -2.62054e-06
0.242524 0.122872 0.451939 0 0 -1
0.115694 -0.0591469 0.475846 0 0 1
0.116324 -0.278533 0.451939 0 0 -1
0.312515 0.0498261 0.451939 0 0 -1
-0.141905 0.133841 0.475846 0 0 1
0.0644647 0.293422 0.477311 0 0.257533 0.966269
-0.312086 -0.0358699 0.475846 0 0 1
-0.110417 -0.174601 0.475846 0 0 1
0.327492 0.0319783 0.474797 1 0 0
0.17665 0.132512 0.159624 -0.89443 0.447209 -2.46175e-06
0.032645 0.0414405 0.451939 0 0 -1
0.0967288 -0.0615585 0.451939 0 0 -1
0.179394 0.294743 0.475445 0 1 0
-0.0408114 -0.0926324 0.475846 0 0 1
-0.217104 -0.185634 0.0537508 -0.991361 0.0714087 0.110016
0.0103912 -0.193036 0.451939 0 0 -1
-0.173414 -0.126038 0.190097 0.89443 -0.447209 -2.46175e-06
-0.312527 -0.0287496 0.451939 0 0 -1
0.0447623 0.074852 0.475846 0 0 1
-0.289045 -0.294743 0.473445 0 -1 0
-0.121781 0.0564056 0.475846 0 0 1
-0.179675 0.256304 0.475846 0 0 1
-0.105987 0.0456644 0.451939 0 0 -1
-0.197314 -0.294643 0.453529 0 -0.966205 -0.257774
-0.0515351 0.192937 0.451939 0 0 -1
-0.160526 0.0702523 0.441083 -0.894411 -0.447246 1.72992e-05
-0.0375246 -0.190291 0.451939 0 0 -1
-0.156447 -0.138756 0.451939 0 0 -1
-0.175038 0.0219157 0.451939 0 0 -1
-0.202605 0.141882 0.475846 0 0 1
-0.315831 0.259038 0.475846 0 0 1
0.0692046 0.143777 0.451939 0 0 -1
-0.123755 -0.0647694 0.475846 0 0 1
-0.196065 0.234821 0.451939 0 0 -1
0.0129108 -0.266474 0.451939 0 0 -1
-0.263005 -0.0401371 0.475846 0 0 1
-0.272566 0.147476 0.475846 0 0 1
0.327269 0.207051 0.452739 0.894664 0 -0.44674
-0.142194 -0.287448 0.475846 0 0 1
0.0924418 0.294496 0.476442 0 0.966205 0.257774
-0.204506 -0.159404 0.148354 -0.950525 0.307592 0.0434765
0.00367999 -0.182485 0.475846 0 0 1
-0.161118 -0.0714371 0.428184 -0.894425 0.447219 0
-0.0706944 -0.00779748 0.451939 0 0 -1
0.164517 0.136998 0.475846 0 0 1
0.21173 0.20267 0.0234018 -0.894414 0.44724 6.51162e-06
-0.245525 0.0565737 0.451939 0 0 -1
0.170112 -0.180804 0.451939 0 0 -1
-0.207913 -0.143379 0.451939 0 0 -1
0.0445329 0.118936 0.475846 0 0 1
-0.014994 -0.00283569 0.333819 0 -0.258952 -0.96589
-0.109053 -0.00231024 0.35209 0 -0.258766 0.96594
-0.206293 0.161788 0.0893646 -0.894414 -0.447239 -9.77604e-06
-0.0864703 -0.149503 0.475846 0 0 1
0.251184 -0.128884 0.475846 0 0 1
-0.103539 -0.0547221 0.451939 0 0 -1
-0.15359 0.217968 0.475846 0 0 1
-0.323074 0.18631 0.451939 0 0 -1
0.245897 0.197736 0.475846 0 0 1
-0.217924 0.18505 0.00283015 -0.894414 -0.447239 -9.77604e-06
-0.129223 -0.0286458 0.334196 0.349222 -0.174634 -0.920623
0.0752993 0.087825 0.475846 0 0 1
0.164956 -0.122879 0.451939 0 0 -1
0.0812729 -0.0355136 0.451939 0 0 -1
0.303156 -0.0064204 0.475846 0 0 1
-0.21131 0.0932108 0.451939 0 0 -1
0.0111253 -0.0592116 0.475846 0 0 1
-0.0828701 0.253485 0.475846 0 0 1
-0.157398 -0.0639973 0.395959 -0.894427 0.447214 -2.63378e-06
0.15203 -0.0970102 0.475846 0 0 1
0.0326495 -0.0443914 0.451939 0 0 -1
0.248366 0.241583 0.475846 0 0 1
-0.0182608 -0.270515 0.451939 0 0 -1
-0.306108 -0.177204 0.475846 0 0 1
-0.208205 0.165612 0.0440627 -0.894427 -0.447214 -2.62054e-06
-0.327492 0.192828 0.47439 -1 0 0
0.218533 -0.0479142 0.451939 0 0 -1
0.14925 -0.0777105 0.358447 -0.89443 -0.447209 -2.46175e-06
0.320486 -0.042 0.451939 0 0 -1
-0.0349926 0.0320753 0.475846 0 0 1
0.0541769 0.233684 0.451939 0 0 -1
0.179674 0.122893 0.451939 0 0 -1
-0.19497 0.0626167 0.451939 0 0 -1
-0.169289 0.117789 0.18384 0.89443 0.447209 -2.46175e-06
0.251273 -0.0767929 0.451939 0 0 -1
0.195319 -0.139837 0.166653 0.894424 0.447219 1.3235e-08
0.0693779 -0.0361689 0.475846 0 0 1
0.303276 -0.267549 0.475846 0 0 1
-0.235418 -0.0664404 0.475846 0 0 1
-0.0246099 0.133047 0.451939 0 0 -1
0.212462 -0.294743 0.456194 0 -1 0
0.180501 -0.140213 0.213866 -0.89443 -0.447209 -2.46175e-06
-0.32747 -0.206869 0.47568 -0.991087 0 0.133214
0.16415 -0.107511 0.35588 -0.89443 -0.447209 -2.46175e-06
0.222006 0.198048 0.451939 0 0 -1
0.144716 -0.0238287 0.475846 0 0 1
0.145129 -0.273351 0.451939 0 0 -1
0.140368 -0.0599468 0.320482 -0.89443 -0.447209 -2.46175e-06
-0.279981 0.0808999 0.451939 0 0 -1
-0.120488 0.189265 0.451939 0 0 -1
-0.166704 -0.270146 0.475846 0 0 1
-0.0640983 -0.270821 0.475846 0 0 1
-0.293727 0.26826 0.475846 0 0 1
0.206714 0.186667 0.100966 0.520602 0.807642 0.276924
0.282957 -0.168896 0.475846 0 0 1
0.196527 -0.0822285 0.451939 0 0 -1
-0.139083 -0.0573207 0.386052 0.955441 -0.289476 0.0577623
-0.199063 0.152821 0.195022 -0.991361 -0.0714093 0.110016
0.220692 -0.191045 0.0183573 0.950652 0.307179 0.0435999
-0.037018 0.151159 0.451939 0 0 -1
0.0290746 0.0425592 0.475846 0 0 1
0.157694 0.0946001 0.401491 -0.89443 0.447209 -2.46175e-06
0.0453553 0.155064 0.451939 0 0 -1
0.0291298 0.0913115 0.451939 0 0 -1
0.327492 -0.225995 0.456173 1 0 0
-0.23187 0.247092 0.475846 0 0 1
-0.0221183 0.0231088 0.451939 0 0 -1
0.171956 0.220051 0.451939 0 0 -1
0.107616 0.0491573 0.475846 0 0 1
-0.0719478 0.293737 0.477227 0 0.257533 0.966269
0.229931 0.250693 0.451939 0 0 -1
-0.0279015 -0.0275952 0.451939 0 0 -1
0.209521 0.122144 0.451939 0 0 -1
-0.190216 0.129635 0.13681 -0.894427 -0.447214 -2.62054e-06
-0.20935 0.0637691 0.475846 0 0 1
-0.0802652 -0.0991054 0.451939 0 0 -1
0.0110696 0.0339544 0.451939 0 0 -1
-0.0215976 -0.111884 0.451939 0 0 -1
-0.31151 -0.10964 0.451939 0 0 -1
-0.0101951 0.00219095 0.451939 0 0 -1
-0.219925 0.190068 0.0281892 -0.950525 -0.307592 0.0434764
0.162824 0.104861 0.338196 -0.89443 0.447209 -2.46175e-06
-0.155404 -0.028877 0.451939 0 0 -1
-0.186356 -0.149303 0.0986909 0.903796 0.282247 -0.321697
0.190523 -0.140807 0.256369 0.973482 -0.156545 0.166813
-0.161242 0.0688455 0.475846 0 0 1
0.202754 -0.154708 0.126442 0.894414 0.44724 -5.9862e-06
0.121306 0.0644883 0.451939 0 0 -1
-0.0821635 -0.0483965 0.451939 0 0 -1
-0.320936 -0.241473 0.451939 0 0 -1
-0.216254 0.125093 0.475846 0 0 1
-0.185614 -0.132471 0.292465 -0.871468 -0.435343 0.225876
0.0472533 0.185537 0.451939 0 0 -1
0.27122 0.199613 0.451939 0 0 -1
-0.240736 -0.166379 0.475846 0 0 1
0.267328 -0.294743 0.470375 0 -1 0
-0.00312245 0.185181 0.475846 0 0 1
0.00973126 0.00851411 0.475846 0 0 1
-0.185399 -0.243031 0.475846 0 0 1
0.226353 0.0730535 0.451939 0 0 -1
-0.167652 -0.16502 0.475846 0 0 1
-0.0746862 0.0317107 0.451939 0 0 -1
0.150031 0.0492624 0.342666 0.894424 -0.447219 0
0.182606 0.144423 0.13302 -0.89443 0.447209 -2.46175e-06
-0.210287 -0.194842 0.0692931 0.270616 -0.939813 0.208612
-0.200177 -0.222801 0.451939 0 0 -1
-0.327492 -0.157871 0.46606 -1 0 0
0.0835799 0.183558 0.475846 0 0 1
-0.22557 -0.262655 0.451939 0 0 -1
0.208549 -0.166297 0.0844746 0.894414 0.44724 -5.9862e-06
0.144762 0.266187 0.475846 0 0 1
-0.256827 -0.294602 0.453377 0 -0.966205 -0.257774
-0.00972793 0.26697 0.475846 0 0 1
-0.203493 -0.157486 0.0512423 0.205034 0.879209 -0.430061
0.243506 -0.17785 0.475846 0 0 1
0.147798 -0.0748067 0.337328 -0.89443 -0.447209 -2.46175e-06
0.12984 -0.203639 0.475846 0 0 1
0.0587481 0.00788575 0.451939 0 0 -1
-0.0431885 -0.294743 0.470874 0 -1 0
0.16246 -0.104131 0.233033 -0.89443 -0.447209 -2.46175e-06
0.247316 0.154604 0.451939 0 0 -1
0.0415157 -0.140907 0.451939 0 0 -1
-0.217979 -0.272018 0.475846 0 0 1
0.167413 0.272917 0.451939 0 0 -1
0.0778848 0.241058 0.451939 0 0 -1
0.150931 -0.0453029 0.475846 0 0 1
-0.181999 0.11817 0.326292 -0.991361 -0.0714093 0.110016
-0.327492 0.159465 0.475273 -1 0 0
0.170454 0.090109 0.380069 0.894424 -0.447219 0
0.224522 -0.0914059 0.451939 0 0 -1
-0.0693107 -0.195478 0.451939 0 0 -1
0.149968 0.200222 0.475846 0 0 1
0.169113 0.117438 0.288791 -0.89443 0.447209 -2.46175e-06
-0.273699 -0.0323037 0.451939 0 0 -1
0.255147 -0.0347516 0.475846 0 0 1
0.118191 0.0952477 0.475846 0 0 1
-0.327492 0.00567064 0.45492 -1 0 0
-0.0265742 0.262139 0.451939 0 0 -1
-0.327492 -0.100374 0.46785 -1 0 0
-0.154586 0.292195 0.475846 0 0 1
-0.129978 0.0365976 0.339041 0.881819 0.440843 -0.167488
-0.176241 -0.0822739 0.475846 0 0 1
-0.147952 0.0751162 0.372088 0.89443 0.447209 -2.46175e-06
0.185315 -0.11983 0.249859 0.894424 0.447219 1.3235e-08
0.271046 0.0901213 0.451939 0 0 -1
-0.0429129 0.106499 0.451939 0 0 -1
-0.173736 0.186113 0.451939 0 0 -1
0.213953 -0.188443 0.475846 0 0 1
0.0290601 -0.135373 0.475846 0 0 1
-0.0945979 -0.254981 0.451939 0 0 -1
0.144331 -0.221779 0.451939 0 0 -1
-0.162896 0.174427 0.475846 0 0 1
0.225781 -0.129187 0.475846 0 0 1
0.0536705 0.24802 0.475846 0 0 1
0.0116671 -0.115523 0.475846 0 0 1
-0.111966 -0.120925 0.475846 0 0 1
0.317777 -0.294743 0.454063 0 -1 0
-0.186514 0.122229 0.18871 -0.894427 -0.447214 -2.62054e-06
0.171562 0.182841 0.475846 0 0 1
-0.112579 0.294654 0.45357 0 0.966205 -0.257774
0.196547 0.143121 0.207173 0.950652 -0.307179 0.0436001
0.145349 -0.291763 0.475846 0 0 1
-0.269909 -0.109465 0.451939 0 0 -1
0.174326 -0.127827 0.155135 -0.94045 -0.334709 -0.0593654
0.204849 0.174621 0.0273221 -0.832764 -0.416419 -0.364827
-0.206022 -0.161245 0.11366 -0.894414 0.447239 -9.71575e-06
0.167076 -0.109096 0.399528 -0.270903 -0.939742 0.208558
0.277789 -0.0644023 0.475846 0 0 1
0.172428 -0.151051 0.451939 0 0 -1
0.327492 0.261048 0.46511 1 0 0
-0.233898 0.26782 0.451939 0 0 -1
0.168605 0.08641 0.358439 0.894424 -0.447219 0
0.227353 0.279742 0.475846 0 0 1
-0.147852 -0.102222 0.451939 0 0 -1
-0.110615 0.115189 0.475846 0 0 1
-0.30281 0.00149083 0.475846 0 0 1
0.3157 -0.197517 0.475846 0 0 1
0.195468 0.146746 0.080551 -0.832764 -0.416419 -0.364827
0.266388 -0.205343 0.475846 0 0 1
0.0555227 -0.275831 0.451939 0 0 -1
0.155064 -0.0410776 0.451939 0 0 -1
0.207292 0.163783 0.112724 0.894414 -0.44724 -5.99482e-06
0.170625 0.00771663 0.451939 0 0 -1
0.133394 0.0889979 0.451939 0 0 -1
0.108277 0.172695 0.451939 0 0 -1
-0.284788 0.168822 0.475846 0 0 1
-0.290175 0.184468 0.451939 0 0 -1
0.0938272 0.0592428 0.451939 0 0 -1
-0.207541 -0.0551205 0.451939 0 0 -1
0.183687 0.120483 0.312585 0.991362 -0.0713946 0.11002
-0.211486 0.282813 0.451939 0 0 -1
-0.315867 0.0816626 0.475846 0 0 1
-0.281886 -0.173067 0.451939 0 0 -1
0.159321 0.0722181 0.345397 0.881821 -0.440917 0.167285
-0.17742 0.23297 0.475846 0 0 1
-0.158541 -0.0962937 0.338676 0.89443 -0.447209 -2.46175e-06
-0.01826 0.177951 0.451939 0 0 -1
-0.0478592 -0.261665 0.451939 0 0 -1
0.142336 0.215631 0.475846 0 0 1
-0.207809 -0.252424 0.475846 0 0 1
-0.32599 0.113761 0.451939 0 0 -1
0.200554 0.152343 0.181281 0.991362 -0.0713946 0.11002
-0.229426 -0.16271 0.451939 0 0 -1
-0.191821 -0.289497 0.475846 0 0 1
-0.0826506 0.204787 0.475846 0 0 1
-0.258034 0.113016 0.451939 0 0 -1
0.165816 0.107928 0.192698 -0.904592 -0.280406 -0.321068
0.172055 -0.264481 0.451939 0 0 -1
0.146547 0.0674352 0.282748 -0.8328 -0.416364 -0.364809
-0.178936 -0.113056 0.451939 0 0 -1
0.089022 -0.227185 0.475846 0 0 1
0.233048 -0.275674 0.475846 0 0 1
-0.0599259 0.250626 0.475846 0 0 1
0.152256 -0.270017 0.475846 0 0 1
-0.303649 -0.202931 0.451939 0 0 -1
0.267736 0.159736 0.475846 0 0 1
0.0725577 0.202382 0.475846 0 0 1
0.158295 -0.0657908 0.401054 0.894424 0.447219 1.3235e-08
0.0039086 0.175033 0.451939 0 0 -1
0.105192 0.190615 0.475846 0 0 1
0.291325 -0.151488 0.451939 0 0 -1
-0.278439 0.233203 0.475846 0 0 1
-0.200496 0.26206 0.475846 0 0 1
-0.0422744 -0.0450846 0.475846 0 0 1
0.219136 -0.169044 0.451939 0 0 -1
-0.00698033 -0.122995 0.475846 0 0 1
0.0410382 -0.0244942 0.451939 0 0 -1
-0.16163 0.0724615 0.342187 -0.894427 -0.447214 -2.62054e-06
0.0921849 0.0979476 0.451939 0 0 -1
0.0308141 -0.0107988 0.475846 0 0 1
0.29976 0.115978 0.475846 0 0 1
-0.327443 0.0422782 0.475882 -0.991087 0 0.133214
0.300356 0.294386 0.476595 0 0.707589 0.706624
0.169085 -0.0873704 0.369972 0.894424 0.447219 1.3235e-08
0.0508973 0.272827 0.475846 0 0 1
-0.137391 -0.0495149 0.340108 0.881833 -0.440915 -0.167227
-0.0694693 0.0532514 0.475846 0 0 1
-0.113655 0.167135 0.451939 0 0 -1
0.298058 0.0667909 0.475846 0 0 1
0.153061 0.171089 0.451939 0 0 -1
0.222573 0.147445 0.475846 0 0 1
0.14753 -0.0742702 0.286518 -0.89443 -0.447209 -2.46175e-06
0.0940404 -0.212612 0.451939 0 0 -1
-0.155596 0.0414352 0.451939 0 0 -1
-0.276004 -0.0867912 0.475846 0 0 1
0.156038 0.0477718 0.451939 0 0 -1
0.285927 0.278473 0.475846 0 0 1
0.179889 -0.0368475 0.451939 0 0 -1
-0.12203 0.0135068 0.451939 0 0 -1
-0.237804 0.154635 0.451939 0 0 -1
0.179492 -0.108184 0.190986 0.894424 0.447219 1.3235e-08
-0.06688 0.178346 0.451939 0 0 -1
-0.250674 0.282763 0.451939 0 0 -1
-0.1636 -0.106411 0.212344 0.89443 -0.447209 -2.46175e-06
0.19037 -0.294743 0.456601 0 -1 0
-0.0112496 -0.0460914 0.475846 0 0 1
0.2914 0.0232702 0.451939 0 0 -1
0.0946614 -0.0592975 0.475846 0 0 1
0.139058 0.0317816 0.344724 0.894129 0.44781 -0.000404898
-0.248049 -0.103233 0.475846 0 0 1
0.198432 0.176075 0.0764366 -0.89443 0.447209 -2.46175e-06
-0.135749 -0.222758 0.451939 0 0 -1
-0.0967769 -0.282151 0.475846 0 0 1
0.234754 0.0956587 0.475846 0 0 1
-0.168364 -0.0859291 0.274879 -0.894427 0.447214 -2.63378e-06
0.0675581 0.227197 0.475846 0 0 1
0.291258 0.256176 0.451939 0 0 -1
-0.212309 0.16986 0.451939 0 0 -1
0.16539 0.109992 0.239096 -0.89443 0.447209 -2.46175e-06
-0.203831 -0.156864 0.130776 -0.894414 0.447239 -9.71575e-06
0.294753 0.178308 0.451939 0 0 -1
0.1444 0.0574754 0.40982 -0.862538 -0.431246 0.264678
0.212139 0.240013 0.451939 0 0 -1
-0.186391 -0.184086 0.451939 0 0 -1
0.0841011 -0.0149898 0.451939 0 0 -1
-0.0632334 0.0770146 0.451939 0 0 -1
0.295502 0.12994 0.451939 0 0 -1
0.102101 0.0144373 0.451939 0 0 -1
0.268029 -0.137362 0.451939 0 0 -1
0.110695 -0.259557 0.451939 0 0 -1
-0.213089 0.189247 0.0770346 -0.871468 0.435344 0.225876
0.1583 -0.156638 0.475846 0 0 1
-0.222766 -0.0229749 0.451939 0 0 -1
-0.194948 -0.14506 0.475846 0 0 1
0.22541 0.195199 0.475846 0 0 1
0.0497537 0.0548235 0.475846 0 0 1
-0.154854 -0.0889197 0.309582 0.89443 -0.447209 -2.46175e-06
-0.0363674 0.216607 0.451939 0 0 -1
0.151328 -0.24377 0.451939 0 0 -1
-0.0283037 0.214742 0.475846 0 0 1
0.140132 -0.0594753 0.362756 -0.89443 -0.447209 -2.46175e-06
0.165481 0.0801629 0.244419 0.894424 -0.447219 0
-0.169186 0.117584 0.2155 0.89443 0.447209 -2.46175e-06
0.109251 -0.264941 0.475846 0 0 1
-0.173424 0.0960502 0.296122 -0.894427 -0.447214 -2.62054e-06
-0.0305334 -0.226955 0.451939 0 0 -1
-0.123805 0.0141297 0.333497 0.34903 0.174512 -0.920719
-0.116986 0.0845573 0.475846 0 0 1
0.249716 0.0167207 0.451939 0 0 -1
-0.199732 0.127999 0.451939 0 0 -1
0.124772 -0.088978 0.475846 0 0 1
-0.290412 0.0140263 0.451939 0 0 -1
0.0613924 0.270212 0.451939 0 0 -1
-0.243854 -0.00351837 0.451939 0 0 -1
0.128825 0.110286 0.475846 0 0 1
-0.156221 0.157351 0.451939 0 0 -1
0.278906 0.0780801 0.475846 0 0 1
0.157134 0.0634679 0.385947 0.894424 -0.447219 0
0.0122343 0.294743 0.470758 0 1 0
-0.080537 -0.0519993 0.475846 0 0 1
0.0246244 0.236207 0.475846 0 0 1
0.022412 0.269023 0.451939 0 0 -1
0.104146 0.288826 0.451939 0 0 -1
-0.273283 -0.254408 0.451939 0 0 -1
0.202502 -0.0378075 0.451939 0 0 -1
-0.279046 -0.0661662 0.451939 0 0 -1
0.143187 0.275796 0.451939 0 0 -1
0.056156 0.170605 0.475846 0 0 1
0.118849 0.224702 0.475846 0 0 1
-0.204272 0.158395 0.146333 -0.950525 -0.307592 0.0434764
0.118101 -0.0636744 0.451939 0 0 -1
0.187355 -0.161086 0.475846 0 0 1
0.051512 0.0939866 0.475846 0 0 1
-0.195306 0.220986 0.475846 0 0 1
0.150648 -0.0604552 0.435038 -0.862538 0.431246 0.26468
-0.0144812 0.278237 0.451939 0 0 -1
0.218526 0.292227 0.451939 0 0 -1
-0.120509 -0.108567 0.451939 0 0 -1
0.0222006 0.128916 0.451939 0 0 -1
0.0929036 -0.0083128 0.337776 0 -0.707021 -0.707193
0.212295 0.0873367 0.451939 0 0 -1
-0.19715 0.173511 0.0662766 0.89443 0.447209 -2.46175e-06
-0.173191 -0.123301 0.343465 0.271112 -0.93969 0.208519
-0.257246 -0.0634051 0.475846 0 0 1
-0.261195 0.189499 0.451939 0 0 -1
0.275171 0.129605 0.475846 0 0 1
0.168848 0.158833 0.451939 0 0 -1
0.221942 -0.198687 0.451939 0 0 -1
0.0765088 -0.29268 0.451939 0 0 -1
-0.26864 -0.213199 0.475846 0 0 1
0.178849 -0.107877 0.344749 0.950514 0.307625 0.0434712
-0.261275 0.0514421 0.475846 0 0 1
0.299312 -0.150497 0.475846 0 0 1
0.128612 0.00182804 0.475846 0 0 1
-0.185566 -0.150342 0.150259 0.89443 -0.447209 -2.46175e-06
-0.297564 0.0405498 0.475846 0 0 1
0.210975 0.035807 0.451939 0 0 -1
-0.165989 -0.23737 0.475846 0 0 1
0.217102 -0.183402 0.0360492 0.894414 0.44724 -5.9862e-06
0.00400895 0.0832805 0.475846 0 0 1
0.151851 0.00406522 0.475846 0 0 1
-0.122756 -0.0137795 0.475846 0 0 1
-0.17995 0.038988 0.475846 0 0 1
0.284016 -0.247857 0.451939 0 0 -1
0.134074 0.229304 0.451939 0 0 -1
-0.210992 -0.171186 0.0681832 -0.894414 0.447239 -9.71575e-06
0.253667 0.290622 0.475846 0 0 1
-0.267313 -0.219124 0.451939 0 0 -1
-0.018374 -0.0564107 0.451939 0 0 -1
0.216255 -0.107515 0.475846 0 0 1
0.213809 -0.177791 0.0750701 0.950652 0.307179 0.0435999
-0.120841 0.222366 0.451939 0 0 -1
-0.166641 -0.0185487 0.475846 0 0 1
0.0458998 -0.223288 0.451939 0 0 -1
0.294581 -0.210822 0.475846 0 0 1
-0.187111 0.123919 0.277595 -0.950514 -0.307625 0.0434669
-0.200201 -0.179614 0.0410491 0.89443 -0.447209 -2.46175e-06
-0.125815 -0.0135025 0.451939 0 0 -1
-0.0639386 -0.0956634 0.475846 0 0 1
0.220094 -0.260843 0.475846 0 0 1
-0.0225706 0.105902 0.475846 0 0 1
-0.201873 -0.182424 0.10819 0.790258 -0.610231 0.0557786
-0.111796 -0.0380685 0.451939 0 0 -1
0.182835 0.14488 0.172591 -0.89443 0.447209 -2.46175e-06
0.266055 -0.117056 0.451939 0 0 -1
0.185378 -0.120878 0.293991 0.950514 0.307625 0.0434712
-0.309289 0.0707235 0.451939 0 0 -1
0.0904548 -0.102804 0.475846 0 0 1
-0.32221 0.00788134 0.475846 0 0 1
-0.188285 0.125771 0.253872 -0.894414 -0.447239 -9.77604e-06
-0.200927 0.0421622 0.451939 0 0 -1
-0.142964 0.236622 0.451939 0 0 -1
0.182702 0.143245 0.265205 -0.790115 0.61041 0.0558417
-0.30128 -0.112707 0.475846 0 0 1
0.156513 -0.092237 0.281983 -0.89443 -0.447209 -2.46175e-06
-0.154402 -0.254811 0.451939 0 0 -1
0.186674 0.152558 0.150208 -0.89443 0.447209 -2.46175e-06
-0.146002 0.0712146 0.40802 0.894431 0.447206 -1.00399e-06
0.00237519 -0.0264334 0.451939 0 0 -1
0.154734 0.08508 0.342427 -0.881829 0.440922 -0.167228
0.16625 -0.284519 0.451939 0 0 -1
0.139152 0.0575146 0.373187 -0.894432 0.447204 0
0.142114 0.0628624 0.301079 -0.966569 0.231658 -0.109907
-0.112407 -0.140289 0.475846 0 0 1
-0.231214 0.0720132 0.451939 0 0 -1
-0.0689777 -0.286874 0.451939 0 0 -1
-0.23229 0.198195 0.451939 0 0 -1
-0.140256 0.0359292 0.352877 0.894447 -0.447173 0
-0.216401 -0.1159 0.475846 0 0 1
0.177323 -0.133858 0.231834 -0.89443 -0.447209 -2.46175e-06
-0.154881 -0.179508 0.475846 0 0 1
0.290238 -0.106458 0.451939 0 0 -1
-0.316221 -0.276597 0.475846 0 0 1
0.327492 -0.0401096 0.474721 1 0 0
0.0489597 -0.00923489 0.345086 0 -0.965909 0.258881
-0.259797 0.0695218 0.451939 0 0 -1
-0.321555 0.288661 0.451939 0 0 -1
0.191694 0.162598 0.0912336 -0.89443 0.447209 -2.46175e-06
0.283391 0.0331082 0.475846 0 0 1
0.27565 0.190152 0.475846 0 0 1
0.147833 -0.00306958 0.451939 0 0 -1
-0.0101102 -0.222112 0.475846 0 0 1
0.326457 -0.158801 0.475846 0 0 1
0.0197117 -0.173501 0.451939 0 0 -1
-0.146999 -0.225831 0.475846 0 0 1
0.163948 -0.294743 0.472443 0 -1 0
0.0502854 -0.225453 0.475846 0 0 1
0.209358 0.0895706 0.475846 0 0 1
0.273822 -0.116037 0.475846 0 0 1
0.247134 -0.0303614 0.451939 0 0 -1
-0.154113 -0.0874386 0.366434 0.89443 -0.447209 -2.46175e-06
-0.323466 -0.284756 0.451939 0 0 -1
0.115561 -0.161225 0.475846 0 0 1
0.00803271 -0.0668642 0.451939 0 0 -1
0.237496 -0.252857 0.475846 0 0 1
-0.159558 -0.122992 0.475846 0 0 1
0.0455805 -0.0790888 0.451939 0 0 -1
-0.248758 -0.0253733 0.451939 0 0 -1
0.240116 0.219913 0.475846 0 0 1
0.314251 -0.190819 0.451939 0 0 -1
0.175746 0.100692 0.226228 0.894424 -0.447219 0
-0.302471 0.135513 0.475846 0 0 1
-0.314004 0.28363 0.475846 0 0 1
-0.0102969 -0.141925 0.475846 0 0 1
-0.261828 -0.0148975 0.475846 0 0 1
0.257484 0.0538931 0.451939 0 0 -1
-0.271526 -0.294743 0.465271 0 -1 0
0.0248494 0.195198 0.451939 0 0 -1
-0.0602313 0.158571 0.451939 0 0 -1
-0.184232 0.147676 0.234846 0.894414 0.44724 6.47717e-06
0.223254 -0.22275 0.451939 0 0 -1
-0.162306 -0.103825 0.375698 0.89443 -0.447209 -2.46175e-06
-0.308668 -0.234211 0.475846 0 0 1
0.17669 -0.10258 0.328858 0.894424 0.447219 1.3235e-08
0.197237 0.200504 0.475846 0 0 1
0.270676 0.0128024 0.475846 0 0 1
-0.12898 0.102303 0.451939 0 0 -1
-0.068567 0.210901 0.451939 0 0 -1
-0.219747 -0.280537 0.451939 0 0 -1
0.0525761 0.12839 0.451939 0 0 -1
0.303035 -0.0979793 0.475846 0 0 1
-0.152137 -0.0491655 0.475846 0 0 1
-0.164146 0.128615 0.475846 0 0 1
0.206655 0.121693 0.475846 0 0 1
-0.0490638 -0.130448 0.475846 0 0 1
0.310482 -0.12449 0.475846 0 0 1
-0.175546 0.104692 0.345451 -0.881787 -0.440901 0.167504
0.0771391 -0.00879192 0.346739 0 -0.965909 0.258881
0.00941008 0.218717 0.451939 0 0 -1
0.0222296 0.00716844 0.349137 0 0.70712 0.707093
0.220737 -0.089359 0.475846 0 0 1
0.327492 -0.207394 0.457972 1 0 0
0.0488459 0.0296726 0.451939 0 0 -1
0.190209 -0.129618 0.120719 0.894424 0.447219 1.3235e-08
-0.122024 -0.158145 0.451939 0 0 -1
0.154618 0.0884471 0.263775 -0.89443 0.447209 -2.46175e-06
0.275355 0.153829 0.451939 0 0 -1
0.0432158 0.206284 0.475846 0 0 1
-0.280637 0.251476 0.451939 0 0 -1
0.208309 0.165816 0.045254 0.894424 -0.447219 0
-0.162174 0.00846687 0.451939 0 0 -1
-0.21452 0.0187804 0.475846 0 0 1
-0.327492 0.247683 0.470875 -1 0 0
-0.192426 0.149677 0.0841511 0.832765 -0.416419 -0.364825
-0.220948 -0.194653 0.0249693 -0.991361 0.0714087 0.110016
0.130297 0.28919 0.451939 0 0 -1
0.0230148 -0.139105 0.451939 0 0 -1
0.153161 -0.0861902 0.451939 0 0 -1
0.0627047 0.16876 0.451939 0 0 -1
-0.159194 -0.097599 0.401674 0.89443 -0.447209 -2.46175e-06
-0.110987 -0.0826254 0.475846 0 0 1
0.115874 0.133634 0.475846 0 0 1
-0.0780403 0.142212 0.475846 0 0 1
-0.190573 0.133031 0.107618 0.712345 -0.571971 -0.406711
0.0991668 0.000211746 0.475846 0 0 1
0.209079 -0.167356 0.0998929 0.894414 0.44724 -5.9862e-06
0.00271082 -0.211372 0.451939 0 0 -1
0.245583 0.208177 0.451939 0 0 -1
0.021685 -0.0743926 0.475846 0 0 1
-0.0551025 0.0385658 0.451939 0 0 -1
0.279142 0.218809 0.451939 0 0 -1
-0.100739 -0.285707 0.451939 0 0 -1
-0.0057466 0.294743 0.461408 0 1 0
0.293271 0.0883632 0.451939 0 0 -1
0.217576 0.235536 0.475846 0 0 1
0.207427 -0.182157 0.112544 0.871439 -0.435395 0.225886
-0.201196 0.181604 0.0381391 0.89443 0.447209 -2.46175e-06
-0.281217 -0.0154646 0.451939 0 0 -1
-0.0563827 -0.0530843 0.451939 0 0 -1
0.31115 -0.0689577 0.451939 0 0 -1
-0.154831 0.0588639 0.310933 -0.894427 -0.447214 -2.62054e-06
-0.19161 -0.132421 0.205028 -0.894427 0.447214 -2.63378e-06
-0.146885 0.0443955 0.395144 0.285936 -0.903056 0.320517
0.0775482 -0.204403 0.451939 0 0 -1
-0.156279 -0.0617591 0.279065 -0.894427 0.447214 -2.63378e-06
-0.215662 0.104417 0.475846 0 0 1
-0.121233 0.185395 0.475846 0 0 1
0.327492 0.225512 0.456011 1 0 0
-0.2462 -0.279783 0.451939 0 0 -1
-0.203886 -0.0855343 0.451939 0 0 -1
0.19013 0.131577 0.11058 -0.204676 -0.879311 -0.430024
0.323119 0.242966 0.451939 0 0 -1
-0.220359 -0.110739 0.451939 0 0 -1
-0.0278456 -0.125251 0.475846 0 0 1
-0.29068 -0.151354 0.451939 0 0 -1
0.18285 -0.114899 0.276928 0.894424 0.447219 1.3235e-08
-0.177938 -0.135086 0.227451 0.89443 -0.447209 -2.46175e-06
0.140512 -0.0560999 0.394909 -0.862545 0.431235 0.264676
-0.146714 -0.0726386 0.358764 0.89443 -0.447209 -2.46175e-06
0.164801 0.0788017 0.296524 0.894424 -0.447219 0
0.221302 -0.0213183 0.475846 0 0 1
-0.15913 0.0974717 0.377945 0.89443 0.447209 -2.46175e-06
-0.163929 0.294743 0.45513 0 1 0
-0.270994 0.130129 0.451939 0 0 -1
0.1627 0.294743 0.467542 0 1 0
0.266068 0.245767 0.475846 0 0 1
-0.169034 0.117279 0.288146 0.89443 0.447209 -2.46175e-06
0.17249 0.124191 0.186679 -0.89443 0.447209 -2.46175e-06
0.147776 -0.074764 0.413227 -0.894431 -0.447206 -1.00399e-06
0.0258724 -0.186472 0.475846 0 0 1
-0.164813 0.0788261 0.404999 -0.894427 -0.447214 -2.62054e-06
0.181253 0.0522557 0.451939 0 0 -1
0.217701 0.294743 0.47287 0 1 0
-0.168874 0.0869486 0.31106 -0.894427 -0.447214 -2.62054e-06
-0.160652 0.100514 0.234714 0.89443 0.447209 -2.46175e-06
-0.307978 0.107782 0.475846 0 0 1
0.327492 -0.151671 0.457728 1 0 0
-0.13978 0.0587718 0.342763 0.89443 0.447209 -2.46175e-06
-0.253023 -0.271224 0.475846 0 0 1
-0.298744 0.225917 0.475846 0 0 1
-0.0524152 0.175685 0.475846 0 0 1
0.233635 -0.073238 0.451939 0 0 -1
0.0871761 -0.11485 0.451939 0 0 -1
0.0662737 0.193813 0.451939 0 0 -1
0.246674 0.0723825 0.451939 0 0 -1
-0.160489 -0.0743385 0.340947 -0.881813 0.440896 -0.167384
-0.101553 -0.0121355 0.475846 0 0 1
-0.145793 -0.280653 0.451939 0 0 -1
-0.168807 -0.116826 0.240598 0.89443 -0.447209 -2.46175e-06
0.148991 0.0771946 0.417954 -0.894431 0.447206 -1.01944e-06
0.126876 0.26512 0.475846 0 0 1
-0.227331 -0.17848 0.475846 0 0 1
-0.0617217 0.0948527 0.451939 0 0 -1
-0.0643855 -0.120493 0.451939 0 0 -1
0.200123 -0.151595 0.184676 0.991362 0.071394 0.11002
0.127686 0.212597 0.451939 0 0 -1
0.166706 -0.0826134 0.395302 0.894424 0.447219 1.3235e-08
-0.138815 -0.269895 0.475846 0 0 1
0.0867935 -0.174675 0.475846 0 0 1
-0.152048 -0.294743 0.461322 0 -1 0
-0.176235 0.131681 0.19809 0.89443 0.447209 -2.46175e-06
-0.139215 -0.057642 0.322107 0.89443 -0.447209 -2.46175e-06
-0.315041 0.252258 0.451939 0 0 -1
0.163015 -0.100798 0.340199 -0.881873 -0.440933 -0.166966
-0.0389678 0.00172035 0.352248 0 0.258766 0.96594
0.31334 0.179085 0.475846 0 0 1
0.163869 -0.10695 0.255062 -0.89443 -0.447209 -2.46175e-06
0.217095 -0.294743 0.473557 0 -1 0
-0.102577 -0.0952099 0.451939 0 0 -1
0.0951186 0.0872795 0.475846 0 0 1
-0.0376992 -0.159493 0.451939 0 0 -1
-0.150334 0.124443 0.451939 0 0 -1
-0.32651 -0.249152 0.476784 1 0 0
-0.00828078 -0.0227803 0.475846 0 0 1
-0.219139 0.113805 0.451939 0 0 -1
-0.16476 0.0297533 0.475846 0 0 1
-0.0150316 0.0703095 0.475846 0 0 1
0.0898546 -0.254625 0.451939 0 0 -1
-0.169935 -0.119083 0.279329 0.89443 -0.447209 -2.46175e-06
0.137263 -0.0359976 0.451939 0 0 -1
0.00333395 0.00928127 0.340856 0 0.965935 -0.258785
0.254696 -0.28752 0.451939 0 0 -1
0.163458 -0.237668 0.475846 0 0 1
0.0272682 -0.276835 0.451939 0 0 -1
0.0333154 -0.294743 0.47126 0 -1 0
0.0618933 -0.00414757 0.334171 0 -0.258952 -0.96589
0.0314443 0.290982 0.451939 0 0 -1
0.255998 -0.190339 0.475846 0 0 1
-0.0766258 0.0312982 0.475846 0 0 1
0.164526 0.108265 0.363038 -0.89443 0.447209 -2.46175e-06
-0.286794 0.06025 0.451939 0 0 -1
-0.270861 -0.137179 0.475846 0 0 1
-0.0403751 0.0784438 0.475846 0 0 1
0.294597 -0.0217882 0.475846 0 0 1
-0.316043 0.21903 0.475846 0 0 1
0.211108 0.00611293 0.451939 0 0 -1
-0.00991553 -0.0925702 0.475846 0 0 1
0.312495 0.189202 0.451939 0 0 -1
-0.179818 0.107732 0.475846 0 0 1
0.11665 -0.132203 0.451939 0 0 -1
-0.162492 -0.0128353 0.451939 0 0 -1
-0.0798982 -0.240111 0.475846 0 0 1
-0.0243644 -0.182278 0.475846 0 0 1
0.0949887 -0.294743 0.471532 0 -1 0
0.190724 -0.0667786 0.475846 0 0 1
