-0.297971 -0.215472 0.596892 0 -0.938482 0.34533
0.304449 -0.118706 0.580636 0 0 -1
0.287688 -0.0106185 0.566414 0 -1 0
0.183201 -0.00490951 0.223625 -0.999955 0.000602248 0.0094219
0.198485 -0.18072 0.596188 0 0 1
0.0845946 -0.0656809 0.580636 0 0 -1
0.207952 0.119739 0.138417 0.998854 0.0478134 0.00210918
-0.199997 -0.172698 0.143558 -0.997251 -0.0735412 0.0090691
0.135887 -0.104391 0.580636 0 0 -1
0.269728 -0.0894452 0.580636 0 0 -1
-0.200362 0.142362 0.347521 -0.997254 0.0735049 0.00905943
0.212178 -0.0592774 0.106648 0.999932 0.00598423 0.00998311
-0.112807 0.158828 0.596188 0 0 1
-0.203262 0.0865947 0.424598 -0.998854 0.0478179 0.00211247
0.191528 -0.152229 0.488846 -0.998756 -0.0495038 0.00606075
0.340594 -0.107553 0.581235 0.983479 0 0.181022
-0.205459 0.0414952 0.291028 -0.999951 0.00400362 0.00909209
-0.264551 -0.0278042 0.58981 0 0 1
0.190068 0.138592 0.358105 -0.998753 0.0495557 0.00606721
-0.17937 -0.0874828 0.346775 0.997043 -0.0762812 0.0093302
-0.204797 -0.0662939 0.282072 0.999932 -0.00602478 -0.00998737
-0.179808 0.00615559 0.466674 0.999947 0.00418375 0.00935744
0.189293 0.149132 0.144444 -0.998753 0.0495557 0.00606721
-0.173033 -0.041426 0.545636 1 0 0
-0.185076 -0.149575 0.448984 0.997049 -0.0761986 0.00934022
0.0293438 -0.221284 0.581097 0 -0.938482 0.34533
-0.148613 -0.0408945 0.586618 0 0 -1
-0.286814 0.185947 0.580636 0 0 -1
-0.29437 -0.063365 0.580636 0 0 -1
-0.125866 -0.0106185 0.533139 0 1 0
0.208481 0.102065 0.288924 0.998854 0.0478134 0.00210918
0.190424 -0.136578 0.434768 -0.998756 -0.0495038 0.00606075
0.204814 0.148963 0.428261 0.997253 0.0735188 0.00906113
-0.202061 -0.15566 0.0547656 -0.997251 -0.0735412 0.0090691
0.179451 -0.0390829 0.570987 -1 0 0
-0.198454 0.194946 0.130923 -0.997254 0.0735049 0.00905943
0.0201088 -0.0179042 0.596188 0 0 1
0.125042 0.0655962 0.596188 0 0 1
0.212575 -0.0513588 0.0620606 0.999932 0.00598423 0.00998311
-0.180446 0.0810228 0.469664 0.995263 0.097042 -0.00593399
-0.181407 0.085549 0.29932 0.998753 0.0495557 0.00606724
0.211181 -0.0366588 0.301667 0.999959 -0.000257039 0.0090901
0.190633 0.093513 0.596188 0 0 1
-0.202081 0.101674 0.488358 -0.997254 0.0735049 0.00905943
0.207887 0.125782 0.0325767 0.998854 0.0478134 0.00210918
-0.205277 -0.0720906 0.326364 -0.999959 -0.000262019 0.00908935
-0.116056 0.099268 0.58981 0 0 1
-0.0730002 -0.137 0.580636 0 0 -1
-0.198706 0.15975 0.388745 -0.997254 0.0735049 0.00905943
-0.20003 0.133382 0.456867 -0.997254 0.0735049 0.00905943
0.221868 0.0939277 0.58981 0 0 1
0.325005 0.0270495 0.586618 0 0 -1
0.185062 0.0590641 0.183497 -0.998753 0.0495557 0.00606721
0.197841 -0.154094 0.00999341 0 -0.0071953 -0.999974
0.188982 -0.137464 0.189942 -0.998756 -0.0495038 0.00606075
-0.204607 -0.0621077 0.400311 -0.999959 -0.000262019 0.00908935
-0.176474 0.0176527 0.0995148 0.995263 0.097042 -0.00593399
0.187244 -0.118094 0.0617787 -0.998756 -0.0495038 0.00606075
-0.0128928 -0.0106185 0.534556 0 1 0
0.209407 0.0430018 0.479963 0.999951 0.0040035 0.00909003
-0.17675 -0.0016237 0.14162 0.999956 -0.000240103 0.00935752
0.143719 -0.0106185 0.556954 0 1 0
0.188179 -0.104817 0.540252 -0.997043 -0.0762817 0.00933464
0.18493 0.0141214 0.407372 -0.999956 -0.000362212 0.00942229
-0.178409 -0.0478264 0.21707 0.999929 0.00596401 0.0102632
-0.199196 0.187145 0.0710674 -0.998854 0.0478179 0.00211247
-0.206963 0.0243507 0.0835691 -0.998854 0.0478179 0.00211247
-0.204407 0.079046 0.0537759 -0.998854 0.0478179 0.00211247
-0.160765 -0.14284 0.580636 0 0 -1
0.14956 0.0372803 0.596188 0 0 1
0.208275 -0.126809 0.229102 0.997252 -0.0735341 0.00906514
-0.204089 -0.0505873 0.457669 -0.999959 -0.000244178 0.00909216
-0.183689 -0.123949 0.510206 0.997043 -0.0762812 0.0093302
-0.0834651 -0.0291106 0.580636 0 0 -1
-0.03436 -0.172129 0.596188 0 0 1
0.212711 -0.0160198 0.134008 0.999959 -0.000257039 0.0090901
0.266566 0.0622923 0.596188 0 0 1
-0.00666514 0.110248 0.586618 0 0 -1
-0.256648 0.188857 0.58981 0 0 1
-0.174322 0.154809 0.571783 -1 0 0
-0.20386 0.047655 0.464221 -0.999951 0.00400362 0.00909209
0.184265 0.00381162 0.336474 -0.999956 -0.000362212 0.00942229
-0.204869 -0.120715 0.02937 -0.997251 -0.0735412 0.0090691
-0.0191812 0.0182381 0.586618 0 0 -1
-0.139457 0.0106291 0.558854 0 -1 0
0.212938 0.0200074 0.0382661 0.998854 0.0478134 0.00210918
-0.29311 -0.00889682 0.552274 -0.223131 -0.817638 -0.530737
0.155356 0.0119752 0.580636 0 0 -1
0.204814 0.0320717 0.596188 0 0 1
-0.080348 0.0106291 0.581929 0 -1 0
-0.285793 -0.131263 0.596188 0 0 1
0.211468 0.0437977 0.194941 0.998854 0.0478134 0.00210918
-0.176944 -0.0365702 0.0679056 -0.999929 -0.00599148 -0.0102675
-0.205564 -0.0763037 0.248233 -0.801758 0.597605 0.00727798
0.209662 0.00104592 0.469889 0.999959 -0.000257039 0.0090901
0.145383 0.130449 0.596188 0 0 1
0.20691 -0.156663 0.137116 0.997252 -0.0735341 0.00906514
0.182997 -0.0312323 0.0713843 -0.998756 -0.0495038 0.00606075
0.104397 0.00598104 0.5032 0 -0.503513 0.863988
0.213368 -0.0717157 0.060195 0.999959 -0.000248967 0.00909138
-0.340573 0.0290175 0.580636 0 0 -1
0.188577 0.120415 0.260983 -0.998753 0.0495557 0.00606721
-0.206226 -0.0045613 0.22386 -0.999959 -0.000244178 0.00909216
-0.198275 -0.189862 0.193795 -0.997254 -0.073505 0.0090593
-0.179969 -0.0565038 0.484215 0.999956 -0.000240103 0.00935752
0.108735 0.166109 0.586618 0 0 -1
-0.204253 0.0752485 0.21275 -0.998854 0.0478179 0.00211247
0.0479577 0.185556 0.580636 0 0 -1
0.202798 -0.0578589 0.495826 0.000372956 0.0237958 0.999717
0.194606 -0.0658553 0.586618 0 0 -1
0.195234 0.217721 0.0811158 -0.731873 0.676359 0.0830672
-0.183056 0.152427 0.0244271 0.998753 0.0495557 0.00606724
0.161548 0.0858396 0.580636 0 0 -1
-0.265335 -0.00685069 0.596188 0 0 1
-0.0538528 0.0303411 0.58981 0 0 1
0.227345 -0.0106185 0.545454 0 -1 0
0.197341 -0.191877 0.301693 -0.311054 -0.943302 0.115872
-0.0931955 -0.188727 0.580636 0 0 -1
-0.183935 -0.14344 0.377274 0.997049 -0.0761986 0.00934022
0.191652 0.178992 0.288746 -0.998753 0.0495557 0.00606721
0.0204453 -0.152495 0.580636 0 0 -1
-0.282896 -0.156883 0.586618 0 0 -1
-0.244609 -0.177327 0.596188 0 0 1
0.179518 -0.0103279 0.596188 0 0 1
-0.207317 -0.035761 0.102982 -0.999959 -0.000262019 0.00908935
0.194939 -0.142365 0.58981 0 0 1
0.1855 0.0871366 0.0264061 -0.998753 0.0495557 0.00606721
0.185419 -0.0267992 0.460477 -0.999955 0.000602248 0.0094219
-0.0474922 -0.00279358 0.501349 0 0.503512 0.863989
0.206284 -0.211821 0.588775 0 -0.938209 -0.346068
-0.302236 0.0940218 0.596188 0 0 1
0.190332 0.167347 0.166624 -0.998753 0.0495557 0.00606721
0.207618 0.12407 0.198624 0.998854 0.0478134 0.00210918
0.0999281 0.0294035 0.580636 0 0 -1
-0.186666 -0.188232 0.277146 0.983898 -0.177403 0.0217594
0.254712 -0.0499541 0.580636 0 0 -1
-0.12611 0.185033 0.58981 0 0 1
-0.271251 -0.197595 0.596188 0 0 1
0.204166 -0.181175 0.240217 0.997253 -0.0735188 0.009061
0.199194 -0.182543 0.374611 0.31133 -0.94321 0.115879
-0.202088 0.0951074 0.541036 -0.997253 0.0735176 0.00905835
-0.206955 -0.0187823 0.143262 -0.999959 -0.000244178 0.00909216
-0.178252 -0.215061 0.00413391 0.995805 0.091504 0
-0.238127 0.100461 0.596188 0 0 1
-0.17724 -0.0493179 0.19292 0.999956 -0.000191077 0.00936524
-0.0504195 0.0830793 0.58981 0 0 1
0.307596 -0.147642 0.586618 0 0 -1
0.106857 0.100934 0.596188 0 0 1
-0.181911 -0.144158 0.155379 0.997049 -0.0761986 0.00934022
-0.20061 -0.122736 0.481359 -0.997254 -0.073505 0.0090593
0.204887 -0.192002 0.073051 0.997252 -0.0735341 0.00906514
-0.248794 -0.0979213 0.58981 0 0 1
0.341313 -0.00680033 0.578924 1 0 0
0.0865967 -0.132036 0.580636 0 0 -1
-0.12746 0.126218 0.586618 0 0 -1
-0.020162 0.18348 0.58981 0 0 1
-0.323651 -0.00217938 0.596188 0 0 1
0.183916 0.00255253 0.299416 -0.999956 -0.000362212 0.00942229
-0.163707 -0.0760093 0.596188 0 0 1
-0.178958 0.00417727 0.502149 0 -0.503512 0.863988
0.211059 0.0359865 0.301401 0.999951 0.0040035 0.00909003
0.204691 -0.139736 0.518661 0.997253 -0.0735188 0.009061
-0.204774 -0.0178738 0.383147 -0.999959 -0.000244178 0.00909216
-0.281257 0.116411 0.58981 0 0 1
-0.220317 0.0801219 0.596188 0 0 1
-0.173811 0.0574863 0.587643 0 0 1
0.0779716 -0.183443 0.596188 0 0 1
0.204498 0.187819 0.147812 0.997253 0.0735188 0.00906113
0.192297 0.160834 0.496592 -0.984243 0.175504 0.0215403
0.306109 0.0106291 0.57988 0 1 0
0.211769 -0.0716065 0.236116 0.999959 -0.000248967 0.00909138
0.0133906 -0.0101013 0.51088 0 0.98277 0.184835
-0.199398 0.14827 0.596188 0 0 1
0.207964 0.0997799 0.480697 0.997253 0.0735188 0.00906113
-0.213047 0.0366343 0.580636 0 0 -1
0.199034 0.0106291 0.565502 0 1 0
-0.199398 0.13394 0.521913 -0.997254 0.0735049 0.00905943
-0.176778 -0.0427599 0.143669 0.999956 -0.000191077 0.00936524
0.175565 -0.144033 0.596188 0 0 1
-0.203089 0.0934405 0.351503 -0.998854 0.0478179 0.00211247
-0.200705 0.146781 0.270957 -0.998854 0.0478179 0.00211247
0.2117 -0.0683904 0.160077 -0.999932 -0.0060118 -0.0099874
0.185869 -0.0668371 0.253877 -0.998756 -0.0495038 0.00606075
0.262734 -0.194663 0.596188 0 0 1
-0.151364 0.0155532 0.586618 0 0 -1
0.0715988 0.136292 0.580636 0 0 -1
-0.215799 -0.155511 0.580636 0 0 -1
0.0130449 0.116049 0.596188 0 0 1
-0.20767 -0.0802135 0.0498061 -0.997251 -0.0735412 0.0090691
0.183238 0.040136 0.037836 -0.998753 0.0495557 0.00606721
-0.157849 0.139479 0.596188 0 0 1
-0.181079 -0.0929632 0.484597 0.997043 -0.0762812 0.0093302
0.205434 0.127108 0.53735 0.997253 0.0735188 0.00906113
0.203967 -0.0106185 0.573617 0 -1 0
-0.31275 -0.0775786 0.580636 0 0 -1
0.279786 -0.0025212 0.596188 0 0 1
0.221317 0.199463 0.596188 0 0 1
-0.30406 0.214912 0.598262 0 0.938482 0.34533
-0.083022 -0.0555722 0.596188 0 0 1
0.210126 0.0726414 0.176531 0.998854 0.0478134 0.00210918
0.334285 0.192788 0.596188 0 0 1
-0.229369 0.0106291 0.543165 0 1 0
-0.0980997 0.187536 0.580636 0 0 -1
-0.200228 -0.156139 0.252414 -0.997254 -0.073505 0.0090593
0.246739 -0.147267 0.596188 0 0 1
0.210723 -0.0266234 0.352435 0.999959 -0.000257039 0.0090901
0.184277 -0.0445317 0.182152 -0.995267 -0.0969964 -0.00590068
0.298268 0.0842581 0.596188 0 0 1
0.058882 0.00851445 0.506435 0 -0.834776 0.55059
-0.201142 0.147545 0.0474503 -0.998854 0.0478179 0.00211247
0.247253 -0.000379871 0.587643 0 0 1
-0.204156 0.0202404 0.44371 -0.999951 0.00400362 0.00909209
0.212062 -0.0588473 0.204202 0.999959 -0.000248967 0.00909138
-0.203704 0.0223715 0.492536 -0.999951 0.00400362 0.00909209
0.187579 -0.0901358 0.345248 -0.998756 -0.0495038 0.00606075
-0.0547914 -0.00433794 0.596188 0 0 1
0.0771523 0.205449 0.586618 0 0 -1
-0.207507 0.0158503 0.0187309 -0.998854 0.0478179 0.00211247
-0.17838 0.0566798 0.0367601 0.998753 0.0495557 0.00606724
-0.180825 0.0022115 0.580636 0 0 -1
-0.236536 0.218941 0.587314 0 0.938482 0.34533
-0.204675 0.0264835 0.383858 -0.999951 0.00400362 0.00909209
-0.20514 0.0580652 0.182463 -0.998854 0.0478179 0.00211247
-0.0693794 -0.0694679 0.580636 0 0 -1
-0.230918 -0.039867 0.596188 0 0 1
-0.206239 -0.0864696 0.156385 -0.997251 -0.0735412 0.0090691
0.0248851 0.150693 0.580636 0 0 -1
0.207073 0.131419 0.289968 0.998854 0.0478134 0.00210918
-0.189752 0.190779 0.596188 0 0 1
0.241732 0.16817 0.580636 0 0 -1
0.203561 0.215435 0.0268425 0.997253 0.0735188 0.00906113
-0.0765519 0.107144 0.586618 0 0 -1
-0.182022 0.122397 0.0994788 0.998753 0.0495557 0.00606724
0.201854 0.11005 0.00873258 0 -0.00138196 -0.999999
-0.136453 -0.195104 0.596188 0 0 1
0.129404 0.191438 0.580636 0 0 -1
0.207931 0.122175 0.0931361 0.998854 0.0478134 0.00210918
-0.206016 -0.0961637 0.102343 -0.997251 -0.0735412 0.0090691
-0.202056 -0.150607 0.096265 -0.997251 -0.0735412 0.0090691
-0.18031 0.0880715 0.0981241 0.998753 0.0495557 0.00606724
-0.183717 -0.00662352 0.565184 0.999412 0 -0.0342961
0.208541 0.105931 0.172625 0.998854 0.0478134 0.00210918
-0.23665 0.153735 0.596188 0 0 1
0.128214 -0.159523 0.580636 0 0 -1
0.207519 0.101329 0.517089 0.997253 0.0735188 0.00906113
-0.072964 0.203273 0.580636 0 0 -1
0.190513 0.183749 0.0623925 -0.998753 0.0495557 0.00606721
0.185861 -0.0849918 0.104242 -0.998756 -0.0495038 0.00606075
0.179451 0.0167752 0.546978 -1 0 0
0.207245 0.116765 0.421999 0.997253 0.0735188 0.00906113
-0.0383337 -0.0811819 0.596188 0 0 1
0.190483 0.161445 0.239719 -0.998753 0.0495557 0.00606721
0.182473 -0.0079463 0.146635 -0.999955 0.000602248 0.0094219
-0.202515 0.119075 0.0425228 -0.998854 0.0478179 0.00211247
-0.183515 -0.176653 0.061503 0.997049 -0.0761986 0.00934022
0.19774 -0.173339 0.453424 0.311055 -0.9433 0.115891
-0.308694 -0.0490234 0.596188 0 0 1
-0.193396 -0.0658917 0.58981 0 0 1
0.0692091 0.0624225 0.580636 0 0 -1
-0.204334 -0.0197377 0.431506 -0.999959 -0.000244178 0.00909216
-0.00363845 0.000705779 0.596188 0 0 1
-0.0961383 -0.103844 0.596188 0 0 1
-0.0252644 -0.106411 0.580636 0 0 -1
0.0857443 0.00242532 0.588614 0 0 1
-0.336218 0.0551975 0.590448 0.983504 0 0.180884
-0.057094 -0.19593 0.596188 0 0 1
-0.180324 -0.118528 0.195058 0.997049 -0.0761986 0.00934022
0.18074 0.159857 0.573707 1 0 0
-0.320886 0.108882 0.580636 0 0 -1
-0.173033 0.022866 0.568225 1 0 0
0.213583 -0.0585944 0.0368856 0.999959 -0.000248967 0.00909138
0.212104 0.00814184 0.198699 0.999951 0.0040035 0.00909003
0.0493773 -0.097402 0.586618 0 0 -1
0.188379 0.207055 0.596188 0 0 1
0.180946 0.124423 0.58981 0 0 1
0.206422 0.155174 0.0599464 0.998854 0.0478134 0.00210918
-0.181192 -0.139648 0.11542 0.997049 -0.0761986 0.00934022
-0.194517 0.166204 0.500252 -0.732249 0.675953 0.083059
0.18074 0.0698203 0.569438 1 0 0
-0.177293 -0.00856818 0.199488 0.999956 -0.000240103 0.00935752
0.0599819 -0.0106185 0.570091 0 1 0
0.209178 -0.138269 0.0367978 0.997252 -0.0735341 0.00906514
0.244101 0.0524226 0.580636 0 0 -1
-0.174322 -0.124136 0.579991 -1 0 0
-0.185628 0.203826 0.0279709 0.998753 0.0495557 0.00606724
0.185577 -0.0696334 0.375494 -0.995267 -0.0969964 -0.00590068
-0.184374 -0.156603 0.316731 0.997049 -0.0761986 0.00934022
0.190666 -0.147261 0.387439 -0.998756 -0.0495038 0.00606075
0.118631 -0.0988773 0.596188 0 0 1
0.209235 -0.0921225 0.404833 0.997252 -0.0735341 0.00906514
0.204943 0.187545 0.0263065 0.998854 0.0478134 0.00210918
-0.230255 -0.0101133 0.596188 0 0 1
0.182045 0.014955 0.0723601 -0.995263 0.0970417 -0.00593394
0.137981 -0.00257802 0.596188 0 0 1
-0.186543 0.0849079 0.596188 0 0 1
0.292605 0.124576 0.596188 0 0 1
-0.180945 -0.0952076 0.451916 0.997043 -0.0762812 0.0093302
0.204545 -0.135343 0.570359 0.997253 -0.0735188 0.009061
-0.316507 -0.159507 0.580636 0 0 -1
0.185722 0.0288574 0.492025 -0.999956 -0.000362212 0.00942229
0.205276 -0.171989 0.192586 0.997253 -0.0735188 0.009061
-0.201762 -0.124762 0.338186 -0.997251 -0.0735412 0.0090691
-0.204932 0.0335106 0.352529 -0.999951 0.00400362 0.00909209
-0.0500436 -0.139528 0.580636 0 0 -1
-0.193775 -0.224847 0.0295898 -0.31119 -0.943256 0.115883
-0.17822 -0.0344202 0.297877 0.999956 -0.000240103 0.00935752
-0.241499 0.128514 0.586618 0 0 -1
-0.127393 -0.0985799 0.586618 0 0 -1
0.188953 0.111439 0.49164 -0.995263 0.0970417 -0.00593394
0.183904 -0.0469925 0.285757 -0.996386 -0.084852 -0.00392054
0.257559 0.12862 0.586618 0 0 -1
0.160633 -0.100099 0.580636 0 0 -1
-0.15284 0.0106291 0.532263 0 -1 0
-0.267195 -0.0738789 0.586618 0 0 -1
0.210346 -0.0964923 0.247252 0.997252 -0.0735341 0.00906514
-0.169095 -0.195881 0.580636 0 0 -1
0.191024 0.177447 0.197985 -0.998753 0.0495557 0.00606721
0.335932 -0.0861228 0.589027 0.983414 0 -0.181373
-0.204989 0.057645 0.263078 -0.998854 0.0478179 0.00211247
0.0572816 0.0324694 0.580636 0 0 -1
0.190462 -0.159179 0.256535 -0.998756 -0.0495038 0.00606075
-0.185439 -0.19307 0.132933 0.997049 -0.0761986 0.00934022
0.110319 -0.0594848 0.596188 0 0 1
-0.189809 -0.150195 0.588991 0 0 1
0.336431 -0.173197 0.594924 -0.983431 0 0.181281
0.184492 0.0227925 0.361314 -0.999956 -0.000362212 0.00942229
-0.186826 -0.154992 0.555375 0.984291 -0.175241 0.0215077
0.154556 0.112341 0.580636 0 0 -1
0.174424 -0.166534 0.596188 0 0 1
-0.17707 0.00706648 0.173761 0.999947 0.00418375 0.00935744
-0.183434 0.132526 0.249189 0.998753 0.0495557 0.00606724
-0.201369 -0.106377 0.530537 -0.997254 -0.073505 0.0090593
0.197618 0.173403 0.00864503 0 -0.00138196 -0.999999
0.258468 -0.0693602 0.596188 0 0 1
-0.271517 0.0565364 0.596188 0 0 1
-0.0604734 0.135614 0.580636 0 0 -1
0.204779 0.164411 0.306836 0.997253 0.0735188 0.00906113
0.184996 -0.0291265 0.415673 -0.999955 0.000602248 0.0094219
-0.136496 -0.00663134 0.596188 0 0 1
0.306417 -0.0687398 0.580636 0 0 -1
-0.328528 -0.00974529 0.569151 -0.0764022 -0.980379 -0.181714
-0.175758 -0.0695329 0.034253 0.999956 -0.000191077 0.00936524
-0.182151 -0.128089 0.312096 0.997049 -0.0761986 0.00934022
-0.203792 -0.00818603 0.491424 -0.999959 -0.000244178 0.00909216
0.211827 0.0399424 0.112175 0.998854 0.0478134 0.00210918
-0.0912347 0.0106291 0.526894 0 -1 0
-0.00539508 -0.117664 0.596188 0 0 1
-0.0986656 -0.210941 0.596188 0 0 1
0.271091 -0.220264 0.583869 0 -0.938482 0.34533
0.189431 -0.115423 0.478157 -0.995267 -0.0969964 -0.00590068
-0.177693 -0.0780123 0.24363 0.999064 0.0422371 0.00934917
0.230532 -0.191048 0.58981 0 0 1
0.25442 -0.166941 0.596188 0 0 1
0.190976 0.142996 0.471578 -0.998753 0.0495557 0.00606721
0.0400099 -0.0499235 0.580636 0 0 -1
-0.337902 0.185438 0.599167 -0.983479 0 0.181022
0.104172 -0.0106185 0.535446 0 1 0
-0.185657 0.179502 0.00863035 -0.00364048 -0.0016013 -0.999992
0.204854 -0.185721 0.127607 0.997252 -0.0735341 0.00906514
-0.156525 0.0729595 0.596188 0 0 1
0.205606 0.15053 0.328421 0.997253 0.0735188 0.00906113
-0.295869 0.137594 0.58981 0 0 1
-0.107993 -0.148065 0.596188 0 0 1
-0.0921207 -0.168491 0.580636 0 0 -1
0.18331 0.0353938 0.236293 -0.999956 -0.000362212 0.00942229
0.18526 0.0281349 0.442995 -0.999956 -0.000362212 0.00942229
-0.178692 -0.0846805 0.297177 0.997043 -0.0762812 0.0093302
0.0634189 0.0845255 0.596188 0 0 1
-0.17854 -0.103596 0.126396 0.997049 -0.0761986 0.00934022
-0.20518 0.0437508 0.320748 -0.999951 0.00400362 0.00909209
0.212068 -0.0221762 0.204521 0.999959 -0.000257039 0.0090901
0.0860557 -0.214882 0.598495 0 -0.938482 0.34533
-0.17774 0.0247419 0.237465 0.999947 0.00418375 0.00935744
-0.202788 0.109038 0.140421 -0.998854 0.0478179 0.00211247
0.1864 -0.0830629 0.457457 -0.995267 -0.0969964 -0.00590068
0.0555367 -0.0188956 0.596188 0 0 1
-0.272707 0.0105776 0.550114 -0.0764077 0.980376 -0.181727
-0.232235 -0.149996 0.596188 0 0 1
0.189387 -0.123659 0.3694 -0.998756 -0.0495038 0.00606075
-0.19918 0.186136 0.101341 -0.998854 0.0478179 0.00211247
0.337616 -0.0349615 0.597415 0.983479 0 0.181022
0.331857 0.0810378 0.580636 0 0 -1
0.0530432 -0.184928 0.580636 0 0 -1
-0.304594 -0.106883 0.586618 0 0 -1
0.18379 0.0443427 0.287586 -0.999956 -0.000362212 0.00942229
0.0242479 0.0175256 0.586618 0 0 -1
0.18627 0.0737173 0.324753 -0.995263 0.0970417 -0.00593394
0.204596 -0.167042 0.307561 0.997253 -0.0735188 0.009061
-0.22024 -0.0456919 0.580636 0 0 -1
-0.199527 0.173 0.190809 -0.997254 0.0735049 0.00905943
-0.182309 0.115374 0.204192 0.998753 0.0495557 0.00606724
-0.185271 0.181856 0.148654 0.998753 0.0495557 0.00606724
0.0100918 0.215875 0.595646 0 0.938482 0.34533
-0.24623 0.0130607 0.580636 0 0 -1
0.200729 0.180423 0.379761 0.731492 0.67676 0.0831594
-0.175801 -0.0195703 0.0398401 0.999956 -0.000191077 0.00936524
-0.201848 0.134422 0.0106927 -0.998854 0.0478179 0.00211247
0.0381609 0.0678539 0.580636 0 0 -1
-0.295607 5.50486e-05 0.588614 0 0 1
-0.0230936 -0.04839 0.596188 0 0 1
0.186417 -0.0801485 0.406644 -0.995267 -0.0969964 -0.00590068
0.245743 -0.109952 0.58981 0 0 1
0.211415 -0.0347614 0.276031 0.999959 -0.000257039 0.0090901
0.0438507 0.16183 0.596188 0 0 1
0.00558844 -0.0692185 0.586618 0 0 -1
-0.207195 -0.0130414 0.00980216 -0.999932 0.00599716 0.00998307
-0.201389 0.136308 0.185021 -0.998854 0.0478179 0.00211247
-0.198156 -0.18693 0.230727 -0.997254 -0.073505 0.0090593
0.187435 0.0990198 0.247849 -0.998753 0.0495557 0.00606721
0.212313 -0.0102954 0.0637252 -0.999932 -0.0060118 -0.0099874
0.0386716 0.104708 0.58981 0 0 1
-0.193685 -0.175723 0.010149 0 -0.0071953 -0.999974
-0.0162794 -0.187702 0.580636 0 0 -1
0.106739 0.0693059 0.580636 0 0 -1
0.126223 -0.194135 0.596188 0 0 1
0.228943 -0.0519976 0.596188 0 0 1
0.208578 -0.0922534 0.00957075 0.018868 -0.00829927 -0.999788
0.205427 0.121099 0.596188 0 0 1
0.0397471 -0.143901 0.596188 0 0 1
0.123017 0.145787 0.58981 0 0 1
-0.012873 0.0472386 0.586618 0 0 -1
0.189566 0.148833 0.19172 -0.998753 0.0495557 0.00606721
0.100896 -0.01101 0.596188 0 0 1
-0.183035 0.135848 0.156413 0.998753 0.0495557 0.00606724
-0.198744 -0.19696 0.0846097 -0.997251 -0.0735412 0.0090691
0.207403 -0.113958 0.429289 0.997253 -0.0735188 0.009061
-0.198974 0.152936 0.414453 -0.997254 0.0735049 0.00905943
0.20981 0.0806993 0.1436 0.998854 0.0478134 0.00210918
-0.107079 -0.0210867 0.58981 0 0 1
0.124107 -0.0287485 0.586618 0 0 -1
0.190285 0.171398 0.125883 -0.998753 0.0495557 0.00606721
0.234451 -0.0251435 0.596188 0 0 1
-0.202915 0.0950675 0.396777 -0.998854 0.0478179 0.00211247
0.273473 0.190911 0.580636 0 0 -1
0.18277 -0.0301652 0.0426115 -0.998756 -0.0495038 0.00606075
0.179656 -0.00643621 0.503472 0 0.503512 0.863989
-0.156051 -0.0178023 0.596188 0 0 1
-0.184181 -0.0865449 0.583133 0 1 0
0.183687 0.219541 0.000847328 -0.995771 0.0918688 0
-0.163005 0.0384875 0.596188 0 0 1
-0.177817 -0.0664559 0.170344 -0.999929 -0.00599148 -0.0102675
-0.184037 0.169389 0.0474557 0.998753 0.0495557 0.00606724
0.0782151 -0.0106185 0.554909 0 1 0
0.210143 0.0749897 0.115206 0.998854 0.0478134 0.00210918
0.188319 0.0991467 0.396988 -0.995263 0.0970417 -0.00593394
0.248488 0.117132 0.596188 0 0 1
0.21371 0.00516066 0.009085 0.998854 0.0478134 0.00210918
-0.204319 -0.0674987 0.431814 -0.999959 -0.000262019 0.00908935
-0.199902 -0.170541 0.171499 -0.997251 -0.0735412 0.0090691
-0.339768 0.141103 0.589028 -0.983479 0 0.181022
-0.1884 0.198043 0.231117 0.732255 0.675952 0.0830221
-0.0718275 0.0557863 0.586618 0 0 -1
0.303812 0.0349388 0.596188 0 0 1
-0.183349 0.114608 0.532041 0.995263 0.097042 -0.00593399
0.204118 0.199379 0.0958633 0.997253 0.0735188 0.00906113
-0.203879 -0.0373947 0.481122 -0.999959 -0.000244178 0.00909216
-0.101236 0.0387943 0.580636 0 0 -1
0.211314 0.0520766 0.0800271 0.998854 0.0478134 0.00210918
-0.218995 -0.0771589 0.58981 0 0 1
-0.200865 -0.126451 0.423212 -0.997254 -0.073505 0.0090593
0.275228 0.114458 0.58981 0 0 1
0.204468 0.173397 0.268118 0.997253 0.0735188 0.00906113
-0.151296 -0.216658 0.593671 0 -0.938482 0.34533
0.156546 0.192345 0.586618 0 0 -1
0.212977 -0.0419816 0.0163306 -0.999932 -0.0060118 -0.0099874
0.211992 0.0106291 0.541529 0 1 0
-0.179551 0.0765937 0.0668119 0.998753 0.0495557 0.00606724
-0.0341419 0.000423759 0.596188 0 0 1
0.323646 0.162618 0.596188 0 0 1
-0.124544 0.0746625 0.58981 0 0 1
-0.0594527 0.19123 0.58981 0 0 1
-0.176862 -0.0566553 0.0715974 -0.999929 -0.00599148 -0.0102675
-0.17967 0.0276552 0.442337 0.999947 0.00418375 0.00935744
0.078219 -0.120632 0.596188 0 0 1
0.183593 0.045083 0.00882149 -0.00275579 -0.0013179 -0.999995
0.0335259 -0.000605583 0.596188 0 0 1
-0.0469411 0.0494009 0.596188 0 0 1
0.0074091 -0.205279 0.596188 0 0 1
0.305502 -0.220291 0.583797 0 -0.938482 0.34533
-0.232863 0.182677 0.596188 0 0 1
0.243545 0.0739039 0.58981 0 0 1
0.187045 -0.099419 0.181411 -0.998756 -0.0495038 0.00606075
0.156636 -0.124829 0.596188 0 0 1
-0.178325 0.0470284 0.289973 0.999947 0.00418375 0.00935744
-0.184057 -0.168439 0.186328 0.997049 -0.0761986 0.00934022
0.164947 -0.0460682 0.58981 0 0 1
-0.0273163 -0.0646532 0.580636 0 0 -1
-0.118972 -0.0817955 0.586618 0 0 -1
-0.326844 -0.0427069 0.596188 0 0 1
0.169861 -0.0767297 0.586618 0 0 -1
0.180457 0.0383295 0.586618 0 0 -1
0.136369 0.0514171 0.580636 0 0 -1
0.0468248 0.0130078 0.596188 0 0 1
-0.182423 -0.168298 0.580636 0 0 -1
-0.177687 0.0331851 0.150121 0.995263 0.097042 -0.00593399
-0.206876 -0.0938941 0.0261849 -0.997251 -0.0735412 0.0090691
0.21495 -0.0596224 0.580636 0 0 -1
0.0238602 -0.127119 0.580636 0 0 -1
-0.219318 0.112451 0.586618 0 0 -1
-0.184833 -0.181857 0.159721 0.997049 -0.0761986 0.00934022
-0.202611 -0.125326 0.240234 -0.997251 -0.0735412 0.0090691
-0.183987 -0.00402021 0.596188 0 0 1
0.183977 -0.0234378 0.307189 -0.999955 0.000602248 0.0094219
0.184123 0.0445722 0.208259 -0.995263 0.0970417 -0.00593394
0.208039 -0.0923673 0.534543 0.997252 -0.0735337 0.00905834
-0.0305987 0.135871 0.596188 0 0 1
-0.1424 0.20405 0.580636 0 0 -1
0.184254 -0.0235127 0.336605 -0.999955 0.000602248 0.0094219
-0.240434 -0.2146 0.599264 0 -0.938482 0.34533
0.200577 -0.217985 0.0773517 0.732368 -0.675826 0.0830434
0.0984802 0.150745 0.586618 0 0 -1
0.196016 -0.205376 0.188243 -0.311054 -0.943302 0.115872
0.240355 -0.169104 0.580636 0 0 -1
-0.204505 0.068839 0.238494 -0.998854 0.0478179 0.00211247
0.240888 0.107992 0.580636 0 0 -1
-0.311902 0.15956 0.596188 0 0 1
-0.204246 -0.100698 0.260216 -0.997251 -0.0735412 0.0090691
-0.17864 0.00812325 0.341015 0.999947 0.00418375 0.00935744
-0.186597 0.132093 0.587037 0 0 1
0.186162 -0.126226 0.596188 0 0 1
0.21905 0.0451629 0.580636 0 0 -1
-0.147943 0.179095 0.580636 0 0 -1
-0.179579 -0.103832 0.235454 0.997043 -0.0762812 0.0093302
0.19225 -0.0865449 0.575033 0 1 0
-0.157055 -0.159063 0.58981 0 0 1
-0.17913 -0.047532 0.394755 0.999956 -0.000240103 0.00935752
-0.178847 0.0454349 0.346442 0.999947 0.00418375 0.00935744
-0.179455 0.0801503 0.0220107 0.998753 0.0495557 0.00606724
0.18701 0.0904531 0.530827 -0.997043 0.0762821 0.00933464
-0.3166 -0.188957 0.586618 0 0 -1
-0.206539 0.00894105 0.186646 -0.999951 0.00400362 0.00909209
0.282085 -0.144087 0.58981 0 0 1
-0.18526 0.164503 0.288617 0.998753 0.0495557 0.00606724
-0.0930487 0.150191 0.580636 0 0 -1
-0.340974 -0.153023 0.582477 -0.983479 0 0.181022
-0.17933 0.0592011 0.391881 0.999947 0.00418375 0.00935744
-0.145032 -0.126567 0.58981 0 0 1
-0.0813752 -0.0104128 0.512536 0 0.98277 0.184835
-0.33028 0.193378 0.580636 0 0 -1
0.204599 -0.100042 0.596188 0 0 1
-0.207185 -0.0660312 0.116648 -0.999959 -0.000262019 0.00908935
-0.182878 -0.142382 0.27311 0.997049 -0.0761986 0.00934022
-0.0253988 0.0989926 0.596188 0 0 1
0.0173587 -0.0106185 0.571298 0 1 0
0.20708 0.129063 0.339943 0.998854 0.0478134 0.00210918
-0.287529 -0.203052 0.580636 0 0 -1
0.210104 0.00487552 0.420163 0.999951 0.0040035 0.00909003
0.209596 0.0737433 0.402679 0.998854 0.0478134 0.00210918
0.103823 -0.0106185 0.568515 0 1 0
0.126527 0.220212 0.583858 0 0.938482 0.34533
-0.186358 -0.172474 0.391497 0.984291 -0.175241 0.0215077
-0.206624 -0.0309559 0.0778153 0.999932 -0.00602478 -0.00998737
0.0875315 0.114666 0.586618 0 0 -1
0.182526 0.0233318 0.12877 -0.995263 0.0970417 -0.00593394
-0.0618182 -0.0273463 0.586618 0 0 -1
0.210075 -0.0695385 0.323395 0.999932 0.00598423 0.00998311
0.144764 0.0824874 0.596188 0 0 1
-0.000442594 -0.164558 0.580636 0 0 -1
-0.185051 -0.200209 0.0332654 0.997049 -0.0761986 0.00934022
-0.319871 -0.0976045 0.596188 0 0 1
-0.205771 -0.00837115 0.273792 -0.999959 -0.000244178 0.00909216
0.184404 0.0618155 0.0527535 -0.998753 0.0495557 0.00606721
0.110201 -0.159523 0.596188 0 0 1
0.263111 0.0091171 0.586618 0 0 -1
-0.182365 0.106883 0.282762 0.998753 0.0495557 0.00606724
-0.190099 0.0554554 0.596188 0 0 1
-0.206466 -0.0375737 0.196547 -0.999959 -0.000262019 0.00908935
-0.180568 -0.109562 0.29427 0.997043 -0.0762812 0.0093302
0.0113276 0.0635861 0.596188 0 0 1
-0.177791 -0.0380787 0.251937 0.999956 -0.000191077 0.00936524
0.208595 -0.1361 0.118566 0.997252 -0.0735341 0.00906514
0.287353 0.217242 0.580636 0 0 -1
0.211407 0.144815 0.580636 0 0 -1
0.18603 0.0790636 0.452425 -0.995263 0.0970417 -0.00593394
0.0573419 -0.0596449 0.58981 0 0 1
0.212443 -0.0410602 0.16281 0.999959 -0.000248967 0.00909138
-0.000335753 -0.028992 0.580636 0 0 -1
-0.174322 -0.037105 0.57244 -1 0 0
-0.205014 -0.0869194 0.287479 -0.997251 -0.0735412 0.0090691
-0.174285 0.174004 0.58981 0 0 1
0.317936 0.129312 0.596188 0 0 1
-0.179508 -0.12104 0.0874767 0.997049 -0.0761986 0.00934022
0.185014 0.0416126 0.417435 -0.999956 -0.000362212 0.00942229
0.158674 -0.0901749 0.596188 0 0 1
0.184471 -0.0346091 0.360323 -0.999955 0.000602248 0.0094219
0.0758589 0.0383396 0.586618 0 0 -1
-0.179782 -0.0667581 0.361872 -0.999929 -0.00599148 -0.0102675
-0.20556 -0.0340517 0.296332 -0.999959 -0.000244178 0.00909216
0.18074 0.0264003 0.565796 1 0 0
-0.202141 -0.143289 0.14624 -0.997251 -0.0735412 0.0090691
-0.149635 -0.0106185 0.547092 0 1 0
0.228317 0.0183491 0.58981 0 0 1
-0.207288 -0.0382868 0.00960235 -0.233751 -0.0172377 -0.972144
-0.207263 0.0191907 0.0582862 -0.998854 0.0478179 0.00211247
-0.113813 -0.196221 0.596188 0 0 1
0.189636 0.124496 0.402096 -0.998753 0.0495557 0.00606721
-0.203711 -0.0106185 0.566447 0 -1 0
0.265509 0.0335839 0.580636 0 0 -1
0.211298 0.0297654 0.277806 0.999951 0.0040035 0.00909003
0.18275 -0.0431432 0.596188 0 0 1
0.185378 0.0779527 0.0813142 -0.998753 0.0495557 0.00606721
-0.191325 0.18226 0.377105 0.311057 0.943301 0.115874
0.166489 0.0225341 0.596188 0 0 1
0.0966966 0.184313 0.596188 0 0 1
0.042434 -0.206613 0.596188 0 0 1
-0.174322 0.0736397 0.551583 -1 0 0
0.102959 -0.20636 0.580636 0 0 -1
0.210633 -0.0446425 0.252661 -0.999932 -0.0060118 -0.0099874
0.0762703 -0.167297 0.580636 0 0 -1
-0.0190059 -0.14117 0.580636 0 0 -1
-0.190708 -0.103583 0.586618 0 0 -1
-0.190828 -0.0106185 0.521332 0 -1 0
0.194627 0.0707572 0.580636 0 0 -1
-0.198829 -0.204384 0.0150704 -0.997251 -0.0735412 0.0090691
0.189914 -0.171926 0.0619553 -0.998756 -0.0495038 0.00606075
0.186943 0.0900144 0.478466 -0.995263 0.0970417 -0.00593394
0.207638 -0.173531 0.580636 0 0 -1
0.18074 0.0954397 0.573406 1 0 0
0.18074 -0.0213517 0.578603 1 0 0
0.083072 -0.0239984 0.586618 0 0 -1
-0.184538 -0.145557 0.424333 0.997049 -0.0761986 0.00934022
0.18993 0.126064 0.437637 -0.998753 0.0495557 0.00606721
-0.179808 -0.0228544 0.467875 0.999956 -0.000240103 0.00935752
-0.0995777 0.171983 0.596188 0 0 1
0.320834 0.21915 0.586746 0 0.938482 0.34533
-0.184639 0.0106291 0.5252 0 -1 0
0.208511 0.109065 0.115802 0.998854 0.0478134 0.00210918
0.20774 0.116231 0.318501 0.998854 0.0478134 0.00210918
0.209575 -0.0648053 0.370658 -0.999932 -0.0060118 -0.0099874
0.210892 -0.223466 0.00402514 0.982591 -0.185784 0
0.185035 -0.0663003 0.12076 -0.998756 -0.0495038 0.00606075
0.297929 -0.195949 0.58981 0 0 1
0.18457 0.045992 0.370486 -0.999956 -0.000362212 0.00942229
0.188139 0.122345 0.17312 -0.998753 0.0495557 0.00606721
-0.182828 0.105638 0.472721 0.995263 0.097042 -0.00593399
-0.179469 0.0434917 0.413796 0.999947 0.00418375 0.00935744
0.210885 0.0549983 0.217117 0.998854 0.0478134 0.00210918
0.191322 -0.165096 0.349768 -0.998756 -0.0495038 0.00606075
0.0329958 -0.185102 0.586618 0 0 -1
-0.144563 0.083334 0.580636 0 0 -1
0.208139 -0.0657086 0.596188 0 0 1
-0.193678 -0.0106185 0.542799 0 -1 0
-0.0992321 -0.038204 0.596188 0 0 1
0.183902 3.85275e-05 0.19935 -0.369642 -0.929168 0.00346356
0.209618 -0.092485 0.359811 0.997252 -0.0735341 0.00906514
-0.182632 -0.128839 0.35735 0.997049 -0.0761986 0.00934022
0.186527 -0.0953416 0.129415 -0.998756 -0.0495038 0.00606075
0.0815361 -0.145641 0.596188 0 0 1
-0.203949 -0.0755188 0.372488 0.999932 -0.00602478 -0.00998737
0.295326 -0.0247269 0.596188 0 0 1
-0.205031 0.0635109 0.110467 -0.998854 0.0478179 0.00211247
0.187377 -0.0865449 0.522495 0 1 0
-0.267323 -0.132246 0.580636 0 0 -1
-0.192565 -0.0865449 0.542103 0 1 0
0.188589 -0.115826 0.301848 -0.998756 -0.0495038 0.00606075
0.185342 0.070526 0.427912 -0.996385 0.0848597 -0.00393949
0.185051 -0.0524714 0.423065 -0.999955 0.000602248 0.0094219
-0.203376 -0.119075 0.206796 -0.997251 -0.0735412 0.0090691
-0.201242 0.124118 0.398629 -0.997254 0.0735049 0.00905943
-0.179392 0.059631 0.179227 0.998753 0.0495557 0.00606724
0.28662 0.0974266 0.580636 0 0 -1
-0.204543 -0.0583923 0.302647 -0.999932 0.00599716 0.00998307
-0.203747 0.0765239 0.463936 -0.999951 0.00400362 0.00909209
0.179451 -0.0871517 0.561552 -1 0 0
0.206281 -0.126594 0.450323 0.997253 -0.0735188 0.009061
0.124384 0.116942 0.596188 0 0 1
-0.0351153 -0.0106185 0.560297 0 1 0
0.161569 0.167012 0.580636 0 0 -1
0.00500271 0.0895787 0.586618 0 0 -1
-0.302008 0.0408467 0.596188 0 0 1
-0.179737 -0.0841186 0.413454 0.997066 -0.0759786 0.00933495
0.185744 -0.023834 0.494748 -0.999955 0.000602248 0.0094219
-0.106074 0.202846 0.596188 0 0 1
0.210069 0.0655346 0.364569 0.998854 0.0478134 0.00210918
0.0312651 0.216242 0.594649 0 0.938482 0.34533
-0.285926 -0.0412932 0.596188 0 0 1
0.331101 0.108782 0.596188 0 0 1
0.295779 -0.0846022 0.596188 0 0 1
-0.106909 0.118921 0.596188 0 0 1
-0.197961 0.161735 0.454584 -0.997254 0.0735049 0.00905943
0.0809337 -0.201385 0.580636 0 0 -1
0.325423 -0.155697 0.596188 0 0 1
0.228436 0.0478584 0.596188 0 0 1
0.209393 -0.10228 0.305107 0.997252 -0.0735341 0.00906514
0.114238 0.0467061 0.58981 0 0 1
0.211227 -0.0130029 0.297332 0.999959 -0.000257039 0.0090901
0.181981 0.0762581 0.596188 0 0 1
0.0826946 0.0864978 0.596188 0 0 1
0.184475 0.056555 0.346288 -0.996385 0.0848597 -0.00393949
0.209776 0.0161211 0.451196 0.999951 0.0040035 0.00909003
-0.18156 0.101891 0.580636 0 0 -1
-0.201249 -0.127471 0.372672 -0.997254 -0.073505 0.0090593
0.161591 -0.0106185 0.524356 0 1 0
-0.144945 0.0335987 0.596188 0 0 1
-0.205936 -0.0934094 0.133476 -0.997251 -0.0735412 0.0090691
0.295128 -0.1742 0.586618 0 0 -1
0.187546 -0.120226 0.0940904 -0.998756 -0.0495038 0.00606075
0.211499 -0.0735707 0.183277 -0.999932 -0.0060118 -0.0099874
-0.182292 0.124572 0.126275 0.998753 0.0495557 0.00606724
0.209402 0.0836143 0.270789 0.998854 0.0478134 0.00210918
-0.180435 0.0765039 0.213141 0.998753 0.0495557 0.00606724
0.185609 0.0746335 0.1464 -0.998753 0.0495557 0.00606721
0.165632 -0.0106185 0.578265 0 1 0
-0.229381 0.0616776 0.586618 0 0 -1
0.206952 -0.142126 0.250461 0.997252 -0.0735341 0.00906514
0.244817 -0.138393 0.580636 0 0 -1
0.00449687 -0.144067 0.596188 0 0 1
-0.0238143 0.116365 0.580636 0 0 -1
-0.0202069 -0.00359589 0.587643 0 0 -1
0.204281 -0.205759 0.0280862 0.997252 -0.0735341 0.00906514
-0.180162 0.0753545 0.42472 0.995263 0.097042 -0.00593399
-0.17914 0.0223637 0.388115 0.999947 0.00418375 0.00935744
-0.279113 -0.0106185 0.571387 0 -1 0
-0.195929 0.175821 0.40889 -0.91446 0.401654 0.0493665
-0.178783 -0.0659479 0.264055 0.999929 0.00596401 0.0102632
-0.204732 -0.0423322 0.387176 -0.999959 -0.000244178 0.00909216
0.210904 0.028721 0.00884497 -0.000466358 -0.00141287 -0.999999
0.284391 -0.0365906 0.58981 0 0 1
0.184423 -0.0557974 0.344452 -0.996386 -0.084852 -0.00392054
0.211775 -0.0146493 0.237019 0.999959 -0.000257039 0.0090901
-0.2061 0.0386083 0.168949 -0.998854 0.0478179 0.00211247
-0.205292 0.0146001 0.321274 -0.999951 0.00400362 0.00909209
-0.177324 0.0344242 0.0447248 0.998753 0.0495557 0.00606724
-0.184043 0.162679 0.103247 0.998753 0.0495557 0.00606724
-0.18569 -0.171586 0.334977 0.997049 -0.0761986 0.00934022
-0.20144 0.12892 0.328123 -0.998854 0.0478179 0.00211247
-0.121321 0.0218653 0.580636 0 0 -1
-0.337248 0.115975 0.596045 0.983504 0 0.180884
0.256721 0.164085 0.596188 0 0 1
0.176416 0.219434 0.585974 0 0.938482 0.34533
0.202727 0.181196 0.344301 0.914687 0.401144 0.0493085
-0.213265 0.19323 0.596188 0 0 1
0.185819 -0.06869 0.23042 -0.998756 -0.0495038 0.00606075
-0.198202 0.145461 0.560098 -0.997254 0.0735049 0.00905943
-0.182011 -0.159241 0.043022 0.997049 -0.0761986 0.00934022
0.194368 0.174602 0.586618 0 0 -1
-0.195913 0.213827 0.594363 0 0.938432 -0.345464
-0.173569 0.0174301 0.540899 0 0 -1
0.204359 -0.155037 0.430976 0.997253 -0.0735188 0.009061
0.240434 0.205461 0.58981 0 0 1
0.00471225 0.163685 0.580636 0 0 -1
0.190205 -0.125023 0.505378 -0.995267 -0.0969964 -0.00590068
0.205388 -0.182558 0.0944465 0.997252 -0.0735341 0.00906514
-0.176584 -0.0719415 0.122336 0.999956 -0.000191077 0.00936524
0.0335783 -0.0106185 0.541233 0 1 0
-0.196091 0.056511 0.00880657 0 -0.00138196 -0.999999
0.208646 -0.0894213 0.491627 0.997253 -0.0735188 0.009061
-0.207033 -0.0557626 0.0516565 -0.999932 0.00599716 0.00998307
-0.205356 0.0587282 0.0652553 -0.998854 0.0478179 0.00211247
0.255875 0.00996311 0.537025 0.0764715 0.980341 -0.181891
-0.204967 0.000585094 0.588614 0 0 1
0.0656612 -0.202239 0.596188 0 0 1
-0.0992117 0.0578095 0.58981 0 0 1
-0.174322 0.0479646 0.566519 -1 0 0
-0.197738 0.161334 0.477796 -0.984002 0.176827 0.0217522
0.208801 0.0877809 0.460869 0.998854 0.0478134 0.00210918
0.129253 -0.0541196 0.580636 0 0 -1
-0.287843 0.0218174 0.586618 0 0 -1
-0.109119 -0.121753 0.580636 0 0 -1
0.23802 0.0033194 0.520954 0.340301 0.478568 -0.809424
0.00418584 0.0106291 0.515353 0 -1 0
-0.125615 -0.150166 0.596188 0 0 1
0.34019 0.0370433 0.580636 0 0 -1
0.196456 -0.211483 0.139711 -0.311054 -0.943302 0.115872
0.190088 -0.181683 0.0109528 -0.998756 -0.0495038 0.00606075
0.0184004 -0.0562014 0.580636 0 0 -1
0.187268 0.109572 0.134184 -0.998753 0.0495557 0.00606721
-0.072904 0.14924 0.580636 0 0 -1
-0.176579 -0.0341823 0.122582 0.999956 -0.000191077 0.00936524
0.190743 -0.132363 0.535389 -0.995267 -0.0969964 -0.00590068
0.188876 -0.15351 0.0413618 -0.998756 -0.0495038 0.00606075
0.123424 -0.0804424 0.596188 0 0 1
-0.278264 -0.1766 0.596188 0 0 1
0.190403 0.153335 0.292776 -0.998753 0.0495557 0.00606721
0.194651 -0.112677 0.580636 0 0 -1
-0.200087 0.164803 0.155336 -0.998854 0.0478179 0.00211247
0.20518 -0.193341 0.580636 0 0 -1
0.207071 0.14086 0.0772093 0.998854 0.0478134 0.00210918
0.168728 0.134443 0.586618 0 0 -1
-0.189634 -0.192561 0.586618 0 0 -1
-0.222924 -0.137517 0.580636 0 0 -1
0.0910813 0.0106291 0.550857 0 -1 0
-0.18261 0.103441 0.3512 0.998753 0.0495557 0.00606724
-0.202638 0.0963503 0.58981 0 0 1
-0.205807 -0.105778 0.0473152 -0.997251 -0.0735412 0.0090691
0.212396 -0.0848837 0.115902 0.997252 -0.0735341 0.00906514
0.0118382 -0.0106185 0.533582 0 1 0
0.210948 -0.0258373 0.327633 0.999959 -0.000257039 0.0090901
0.176205 -0.188962 0.58981 0 0 1
0.317109 -0.0547853 0.586618 0 0 -1
0.211047 0.0125422 0.313027 0.999951 0.0040035 0.00909003
-0.168097 0.121418 0.580636 0 0 -1
-0.178274 -0.11064 0.0405972 0.997049 -0.0761986 0.00934022
-0.297758 0.201686 0.580636 0 0 -1
0.185015 -0.208202 0.00781522 -0.95843 0.285328 0
-0.183542 -0.15728 0.22242 0.997049 -0.0761986 0.00934022
0.287776 0.00093459 0.541311 0.387565 0 -0.921843
-0.178315 0.00340421 0.308365 0.999947 0.00418375 0.00935744
-0.20408 0.0759771 0.277955 -0.998854 0.0478179 0.00211247
0.188304 0.142342 0.0369757 -0.998753 0.0495557 0.00606721
-0.12708 0.161461 0.580636 0 0 -1
0.179451 0.00295979 0.564546 -1 0 0
0.179451 -0.148842 0.57712 -1 0 0
-0.0819334 -0.189212 0.596188 0 0 1
0.18074 -0.0317733 0.547488 1 0 0
-0.185244 0.172078 0.224133 0.998753 0.0495557 0.00606724
-0.176123 0.196666 0.580636 0 0 -1
0.212481 -0.00033962 0.159793 0.999959 -0.000257039 0.0090901
0.191221 -0.179861 0.21256 -0.998756 -0.0495038 0.00606075
-0.204531 -0.0249212 0.409646 -0.999959 -0.000244178 0.00909216
-0.0937573 -0.00166078 0.580636 0 0 -1
0.0929606 -0.107195 0.586618 0 0 -1
-0.185351 0.144129 0.469997 0.998753 0.0495557 0.00606724
-0.205883 -0.0451098 0.160443 -0.999932 0.00599716 0.00998307
0.227735 -0.212798 0.59462 0 0.938268 0.345909
0.184128 0.0595374 0.0258906 -0.998753 0.0495557 0.00606721
-0.00670758 0.13008 0.586618 0 0 -1
0.210198 0.0588001 0.386073 0.999951 0.0040035 0.00909003
0.157562 0.00968656 0.508619 0 -0.982767 0.184848
0.205953 -0.160431 0.211795 0.997252 -0.0735341 0.00906514
0.333234 0.00933701 0.596188 0 0 1
0.185203 -0.0313027 0.437842 -0.999955 0.000602248 0.0094219
0.20281 0.169743 0.435933 0.914687 0.401144 0.0493085
-0.190005 -0.0756632 0.00942906 0 -0.0071953 -0.999974
-0.198372 -0.176454 0.29189 -0.997254 -0.073505 0.0090593
-0.0841253 -0.0106185 0.534568 0 1 0
0.191886 -0.154516 0.52916 -0.998756 -0.0495038 0.00606075
0.121589 0.0106291 0.53414 0 -1 0
0.212908 -0.0202975 0.11226 0.999959 -0.000248967 0.00909138
0.189223 -0.111419 0.44745 -0.995267 -0.0969964 -0.00590068
-0.144529 -0.0860206 0.580636 0 0 -1
-0.30916 -0.0274806 0.596188 0 0 1
0.209828 -0.0723956 0.349872 0.999932 0.00598423 0.00998311
-0.179298 -0.103155 0.210934 0.997049 -0.0761986 0.00934022
-0.206026 -0.00800072 0.245709 -0.999959 -0.000244178 0.00909216
-0.203069 0.106254 0.0707039 -0.998854 0.0478179 0.00211247
0.000631124 -0.104404 0.580636 0 0 -1
0.185225 0.0618646 0.306144 -0.995263 0.0970417 -0.00593394
-0.0552216 -0.0106185 0.569678 0 1 0
0.203343 -0.162501 0.473279 0.984002 -0.176824 0.0217515
-0.227756 0.199806 0.580636 0 0 -1
0.220888 -0.0943286 0.580636 0 0 -1
-0.199805 0.172333 0.118536 -0.998854 0.0478179 0.00211247
0.187329 -0.123035 0.0353415 -0.998756 -0.0495038 0.00606075
0.00446972 -0.0883269 0.596188 0 0 1
0.189576 -0.162665 0.0819537 -0.998756 -0.0495038 0.00606075
-0.121156 0.0106291 0.536612 0 -1 0
-0.298784 -0.0826374 0.596188 0 0 1
-0.183185 -0.16977 0.0824293 0.997049 -0.0761986 0.00934022
-0.0893113 0.0106291 0.5549 0 -1 0
-0.177914 -0.0422705 0.165618 0.999929 0.00596401 0.0102632
0.199405 0.203274 0.203337 0.311329 0.94321 0.115881
-0.183755 -0.118318 0.563258 0.997042 -0.0762979 0.00929675
-0.319617 0.0664964 0.586618 0 0 -1
0.208539 0.0951141 0.418665 0.998854 0.0478134 0.00210918
0.325783 -0.113723 0.596188 0 0 1
-0.206813 -0.0700399 0.0825111 0.999932 -0.00602478 -0.00998737
0.208206 -0.100618 0.449161 0.997253 -0.0735188 0.009061
-0.206828 -0.0318299 0.0578848 -0.999932 0.00599716 0.00998307
0.118652 -0.175476 0.58981 0 0 1
0.204528 0.158886 0.379211 0.997253 0.0735188 0.00906113
-0.182714 0.120946 0.225342 0.998753 0.0495557 0.00606724
0.209135 -0.0710095 0.418467 0.999932 0.00598423 0.00998311
0.18988 0.16582 0.104746 -0.998753 0.0495557 0.00606721
-0.200209 -0.146777 0.330518 -0.997254 -0.073505 0.0090593
-0.207977 -0.193038 0.596188 0 0 1
0.212274 0.160239 0.58981 0 0 1
-0.302105 -0.157249 0.596188 0 0 1
0.204036 0.143909 0.554881 0.997253 0.0735188 0.00906113
-0.184582 0.141648 0.36372 0.998753 0.0495557 0.00606724
0.0436056 -0.000613168 0.580636 0 0 -1
0.190423 -0.153257 0.298438 -0.998756 -0.0495038 0.00606075
-0.176507 0.00282103 0.115446 0.999947 0.00418375 0.00935744
0.188891 0.117159 0.339277 -0.998753 0.0495557 0.00606721
0.0670072 -0.0812652 0.580636 0 0 -1
-0.186504 -0.16423 0.465385 0.984291 -0.175241 0.0215077
-0.17747 0.0335552 0.0758228 0.998753 0.0495557 0.00606724
0.228995 0.17043 0.596188 0 0 1
0.126897 0.176503 0.596188 0 0 1
0.208469 -0.129688 0.184439 0.997252 -0.0735341 0.00906514
-0.207208 -0.113851 0.580636 0 0 -1
0.249675 0.0465743 0.596188 0 0 1
-0.177012 -0.0114581 0.0599035 -0.999929 -0.00599148 -0.0102675
-0.177339 -0.0314578 0.203792 0.999956 -0.000191077 0.00936524
0.137087 0.019925 0.596188 0 0 1
-0.184349 -0.134857 0.491508 0.997043 -0.0762812 0.0093302
0.211206 -0.040231 0.192607 -0.999932 -0.0060118 -0.0099874
-0.193658 0.0106291 0.57181 0 1 0
-0.0142763 0.0271141 0.596188 0 0 1
-0.209517 -0.0161683 0.596188 0 0 1
0.315768 0.195154 0.580636 0 0 -1
0.0808981 0.178616 0.580636 0 0 -1
-0.299567 -0.137043 0.580636 0 0 -1
-0.0697807 0.086714 0.596188 0 0 1
0.189496 0.12481 0.376371 -0.998753 0.0495557 0.00606721
0.186752 -0.0967974 0.154536 -0.998756 -0.0495038 0.00606075
0.184868 -0.00634211 0.400654 -0.999955 0.000602248 0.0094219
-0.212282 -0.0546647 0.596188 0 0 1
0.18635 -0.211077 0.586758 0 -0.938209 -0.346068
-0.179273 0.0667891 0.101227 0.998753 0.0495557 0.00606724
-0.180632 0.0719657 0.28267 0.998753 0.0495557 0.00606724
-0.0306846 0.0660567 0.596188 0 0 1
0.120196 -0.205182 0.580636 0 0 -1
-0.18495 0.141166 0.428263 0.998753 0.0495557 0.00606724
0.125401 0.00201294 0.501095 0 0 1
0.307743 0.168129 0.580636 0 0 -1
0.100282 -0.0855498 0.596188 0 0 1
0.206636 0.149052 0.0970794 0.998854 0.0478134 0.00210918
-0.260502 -0.0542414 0.596188 0 0 1
-0.0732144 0.0106291 0.53844 0 -1 0
0.182573 -0.0240232 0.132527 -0.995267 -0.0969964 -0.00590068
0.0811829 0.0106291 0.514248 0 -1 0
0.206009 -0.134398 0.41684 0.997253 -0.0735188 0.009061
-0.20628 0.0414253 0.0199742 -0.998854 0.0478179 0.00211247
0.0575168 0.140066 0.596188 0 0 1
-0.193058 -0.164929 0.519224 -0.310509 -0.943477 0.115912
-0.182194 0.10604 0.261478 0.998753 0.0495557 0.00606724
-0.201518 -0.121269 0.393338 -0.997254 -0.073505 0.0090593
0.179451 -0.101699 0.577228 -1 0 0
-0.185183 0.193329 0.0405665 0.998753 0.0495557 0.00606724
-0.181781 0.0942199 0.547326 0.997042 0.0762983 0.00929674
-0.185437 0.223146 -1.38778e-17 0 0 -1
0.184709 0.030021 0.384537 -0.999956 -0.000362212 0.00942229
0.205681 -0.183638 0.0535098 0.997252 -0.0735341 0.00906514
-0.234066 -0.0853783 0.580636 0 0 -1
0.244793 0.148037 0.580636 0 0 -1
-0.207442 -0.014651 0.0898091 -0.999959 -0.000262019 0.00908935
0.316791 0.0621481 0.596188 0 0 1
0.207522 0.122919 0.27013 0.998854 0.0478134 0.00210918
-0.203479 -0.106994 0.00990481 -0.233751 -0.0172377 -0.972144
0.203918 -0.0106185 0.536066 0 -1 0
0.101238 -0.0382155 0.580636 0 0 -1
-0.198059 0.197277 0.155468 -0.997254 0.0735049 0.00905943
-0.205772 -0.0474029 0.272598 -0.999959 -0.000262019 0.00908935
-0.320369 -0.21256 0.590779 0 -0.938209 -0.346068
0.210605 0.0570805 0.302578 0.998854 0.0478134 0.00210918
0.0226725 -0.0328356 0.580636 0 0 -1
-0.00448519 0.196885 0.586618 0 0 -1
-0.340794 -0.12575 0.580636 0 0 -1
0.21119 -0.0756865 0.215453 0.999932 0.00598423 0.00998311
-0.198979 -0.156671 0.385616 -0.997254 -0.073505 0.0090593
-0.04748 -0.153486 0.596188 0 0 1
0.235529 -0.0392927 0.580636 0 0 -1
-0.183152 0.149657 0.0628677 0.998753 0.0495557 0.00606724
-0.205051 -0.0237752 0.35258 -0.999959 -0.000244178 0.00909216
0.205152 0.179356 0.113319 0.998854 0.0478134 0.00210918
0.208705 -0.130276 0.153722 0.997252 -0.0735341 0.00906514
-0.177174 -0.0361098 0.0899413 0.999929 0.00596401 0.0102632
-0.260338 -0.191355 0.580636 0 0 -1
0.190662 -0.181233 0.109344 -0.998756 -0.0495038 0.00606075
-0.200949 0.113365 0.518112 -0.997254 0.0735049 0.00905943
-0.133731 -0.157209 0.580636 0 0 -1
-0.201445 -0.13817 0.264305 -0.997251 -0.0735412 0.0090691
0.188434 0.120761 0.234647 -0.998753 0.0495557 0.00606721
0.189367 -0.150502 0.146817 -0.998756 -0.0495038 0.00606075
0.186035 -0.0916284 0.0785999 -0.998756 -0.0495038 0.00606075
-0.204315 -0.0405944 0.433024 -0.999959 -0.000244178 0.00909216
-0.0780308 -0.116088 0.58981 0 0 1
-0.120998 -0.0355657 0.596188 0 0 1
-0.181809 0.123279 0.0571805 0.998753 0.0495557 0.00606724
-0.176885 -0.0732269 0.0835717 -0.999929 -0.00599148 -0.0102675
0.301662 -0.0106185 0.581945 0 -1 0
-0.202202 0.122863 0.104802 -0.998854 0.0478179 0.00211247
-0.0597304 -0.129528 0.596188 0 0 1
0.270802 -0.0106185 0.580105 0 -1 0
-0.079124 -0.00900811 0.580636 0 0 -1
-0.16497 0.10015 0.58981 0 0 1
0.333204 -0.0408203 0.580636 0 0 -1
0.186055 -0.17331 0.580636 0 0 -1
-0.179378 -0.0646224 0.420798 0.999956 -0.000191077 0.00936524
-0.199242 0.162737 0.305475 -0.997254 0.0735049 0.00905943
-0.181777 -0.132295 0.237819 0.997049 -0.0761986 0.00934022
-0.0438675 -0.210701 0.58981 0 0 1
-0.201101 0.122161 0.430026 -0.997254 0.0735049 0.00905943
-0.179821 0.0850462 0.0422421 0.998753 0.0495557 0.00606724
0.278525 0.0793273 0.596188 0 0 1
0.1882 -0.1361 0.0721655 -0.998756 -0.0495038 0.00606075
0.210034 -0.0377094 0.427877 0.999959 -0.000257039 0.0090901
0.104965 0.205287 0.580636 0 0 -1
-0.137581 0.215219 0.597429 0 0.938482 0.34533
0.212482 -0.0636173 0.0787689 0.999932 0.00598423 0.00998311
0.188645 -0.139918 0.114419 -0.998756 -0.0495038 0.00606075
-0.205233 0.0546758 0.215092 -0.998854 0.0478179 0.00211247
0.227226 -0.0135114 0.580636 0 0 -1
-0.189798 -0.174422 0.437713 0.73256 -0.675626 0.0829771
-0.176833 -0.0205435 0.14997 0.999956 -0.000191077 0.00936524
0.18074 0.137566 0.573681 1 0 0
0.185269 0.000798231 0.423612 -0.957558 -0.2881 0.00897568
0.320667 0.0437094 0.580636 0 0 -1
0.210221 -0.121728 0.0562832 0.997252 -0.0735341 0.00906514
0.213105 -0.0475044 0.089777 0.999959 -0.000248967 0.00909138
-0.0912564 -0.151212 0.58981 0 0 1
0.188152 0.0981689 0.372724 -0.998753 0.0495557 0.00606721
-0.202473 -0.100648 0.455575 -0.997254 -0.073505 0.0090593
0.155274 -0.0348116 0.580636 0 0 -1
0.188486 -0.123182 0.224832 -0.998756 -0.0495038 0.00606075
0.189228 -0.14478 0.170727 -0.998756 -0.0495038 0.00606075
-0.195222 0.120859 0.587037 0 0 1
