0.156347 0.138179 0.460987 0 0 -1
-0.203034 -0.114643 0.287231 -0.946887 0.316537 -0.0566514
0.212012 0.0958045 0.481029 0 0 1
0.229842 0.300643 0.475514 0 1 0
0.141967 0.146619 0.460987 0 0 -1
0.206867 -0.244947 0.460987 0 0 -1
-0.0361504 -0.130047 0.460987 0 0 -1
0.220144 0.0702865 0.481029 0 0 1
0.0688642 -0.150613 0.481029 0 0 1
0.168827 0.206762 0.481029 0 0 1
-0.295664 -0.29859 0.470995 0 -0.263108 -0.964766
0.235715 0.251378 0.481029 0 0 1
0.277268 -0.224675 0.481029 0 0 1
0.32038 0.197798 0.471512 0.928474 0 -0.371397
0.0551026 -0.17327 0.481029 0 0 1
0.101754 0.287371 0.481029 0 0 1
-0.151292 -0.227356 0.481029 0 0 1
-0.290178 0.192533 0.481029 0 0 1
0.211216 -0.242377 0.0177774 -0.162733 -0.918773 0.359687
-0.0393589 0.27659 0.481029 0 0 1
-0.115852 -0.148026 0.460987 0 0 -1
-0.191535 -0.166141 0.190399 0.850298 -0.507042 0.141073
0.254393 -0.142918 0.460987 0 0 -1
0.0720078 0.208273 0.460987 0 0 -1
-0.320687 -0.135434 0.478369 -1 0 0
0.191202 -0.0743554 0.421649 0.850301 -0.462368 0.251404
0.202718 0.27394 0.481029 0 0 1
0.0847837 0.0675458 0.481029 0 0 1
0.319492 0.166975 0.470741 0.563296 0 -0.826255
-0.290399 0.0102477 0.460987 0 0 -1
-0.200152 -0.113974 0.271758 -0.688988 0.68841 -0.226689
-0.226223 0.0872482 0.460987 0 0 -1
0.170902 0.0550657 0.460987 0 0 -1
-0.178753 -0.0759629 0.426869 0.457617 -0.835651 0.303766
0.174973 -0.00841478 0.426246 0 0 -1
0.10371 -0.209677 0.460987 0 0 -1
0.122018 0.255029 0.460987 0 0 -1
0.260116 -0.000322878 0.460987 0 0 -1
-0.203282 0.221757 0.0204952 0.946545 -0.267761 -0.179882
-0.280731 0.198259 0.481029 0 0 1
-0.307504 0.105086 0.481029 0 0 1
-0.264157 -0.154485 0.481029 0 0 1
0.10906 0.179519 0.481029 0 0 1
0.0490593 0.00948966 0.460987 0 0 -1
0.266382 -0.168221 0.460987 0 0 -1
-0.125453 -0.243236 0.481029 0 0 1
-0.282944 0.300643 0.47662 0 1 0
-0.0594391 -0.2367 0.460987 0 0 -1
-0.196585 -0.0494832 0.460987 0 0 -1
-0.209147 0.214078 0.0201543 0.457457 -0.811691 -0.363167
0.0825716 -0.0797632 0.481029 0 0 1
-0.127789 -0.155353 0.481029 0 0 1
-0.299152 -0.251109 0.481029 0 0 1
-0.0716052 0.191007 0.481029 0 0 1
-0.27597 -0.0602384 0.460987 0 0 -1
0.204556 0.123109 0.27665 0.992184 -0.12216 0.0254512
-0.201045 0.163679 0.460987 0 0 -1
0.0252465 -0.0799071 0.460987 0 0 -1
-0.190936 -0.0835068 0.341104 -0.160368 0.91907 -0.359989
-0.28484 0.0919308 0.481029 0 0 1
0.211061 -0.235941 0.481029 0 0 1
-0.168104 0.0167024 0.446109 0 1 0
-0.0467825 0.023796 0.460987 0 0 -1
0.193139 0.0645614 0.426953 0.991921 0.0723701 0.104189
0.0352248 0.27481 0.464509 0 0.263108 -0.964766
0.21003 -0.155303 0.203119 0.992055 -0.0711828 0.103728
-0.0320078 -0.0624061 0.460987 0 0 -1
0.073593 0.184798 0.460987 0 0 -1
0.153985 -0.181163 0.481029 0 0 1
0.304474 0.15931 0.481029 0 0 1
0.279444 -0.300643 0.478522 0 -1 0
0.194431 -0.0772206 0.403453 0.946935 -0.266658 0.179464
0.242329 0.185739 0.460987 0 0 -1
-0.111042 -0.229899 0.481029 0 0 1
0.129561 -0.0164437 0.432706 0 -0.848812 -0.528694
-0.0975903 0.220691 0.460987 0 0 -1
-0.203998 -0.129743 0.460987 0 0 -1
-0.217701 -0.235243 0 0 0 -1
0.0689015 -0.182663 0.460987 0 0 -1
0.269312 -0.194524 0.481029 0 0 1
-0.320687 0.0647232 0.478509 -1 0 0
0.0640095 0.204122 0.481029 0 0 1
-0.203625 0.214683 0.0827324 0.456537 0.836138 0.304053
0.203449 0.00329906 0.481029 0 0 1
0.253912 0.170523 0.481029 0 0 1
0.172344 0.0648884 0.420336 -0.99192 -0.0723654 -0.104204
-0.13915 -0.0700906 0.460987 0 0 -1
-0.0877271 -0.164819 0.481029 0 0 1
-0.18366 0.0834792 0.442733 -0.846005 0.467367 0.256601
0.0860602 0.233304 0.460987 0 0 -1
-0.147405 0.0986796 0.460987 0 0 -1
-0.174851 -0.0783896 0.403612 0.946832 -0.316691 0.0567157
0.152765 -0.230005 0.460987 0 0 -1
0.119661 -0.185805 0.460987 0 0 -1
0.18388 0.0665105 0.382793 -0.16175 -0.910399 -0.380802
-0.189557 -0.158163 0.460987 0 0 -1
-0.128921 -0.110173 0.481029 0 0 1
0.221607 -0.225891 0.481029 0 0 1
0.12489 0.0793623 0.460987 0 0 -1
0.21107 0.09484 0.481029 0 0 1
-0.252421 0.239783 0.481029 0 0 1
0.208017 0.14158 0.220016 0.946538 -0.317506 -0.0570657
0.120872 -0.257487 0.481029 0 0 1
0.151662 -0.145755 0.481029 0 0 1
-0.261962 -0.0848859 0.481029 0 0 1
0.0836943 -0.0139003 0.481029 0 0 1
-0.137515 -0.0625125 0.481029 0 0 1
0.219775 -0.207162 0.0516303 0.849831 0.507735 -0.141396
0.207714 0.0819359 0.460987 0 0 -1
-0.288299 -0.186446 0.481029 0 0 1
-0.213797 -0.181754 0.145945 -0.946959 -0.266586 0.179442
-0.0170839 -0.0135236 0.460987 0 0 -1
0.101187 -0.0972383 0.460987 0 0 -1
0.0985476 -0.00517547 0.460987 0 0 -1
-0.210666 0.234254 0.0382782 0.162733 0.918773 0.359687
0.139081 0.290476 0.468782 0 0.263108 -0.964766
-0.21128 -0.166716 0.145809 -0.850019 0.507455 -0.141271
-0.074478 0.129627 0.481029 0 0 1
0.313932 -0.0285731 0.481029 0 0 1
-0.0719662 0.176938 0.481029 0 0 1
0.201059 -0.117501 0.263793 0.690412 0.687181 -0.226082
0.0279864 0.212405 0.481029 0 0 1
0.0264973 0.0167024 0.439295 0 1 0
0.172965 -0.051308 0.435065 -0.84982 0.463108 -0.251668
-0.153581 -0.265808 0.481029 0 0 1
-0.0315548 -0.184041 0.481029 0 0 1
-0.10807 -0.00513524 0.481029 0 0 1
-0.0693041 0.139616 0.460987 0 0 -1
0.205738 -0.164629 0.204353 0.689896 -0.651384 0.31582
-0.202652 0.229172 0.0234734 0.992031 0.123507 -0.0249032
0.024872 -0.0248827 0.460987 0 0 -1
-0.131132 -0.240376 0.481029 0 0 1
0.129008 0.0590416 0.481029 0 0 1
0.0287656 0.024309 0.481029 0 0 1
0.0710332 -0.0334381 0.460987 0 0 -1
0.278575 0.00611022 0.460987 0 0 -1
-0.0169396 0.0350066 0.481029 0 0 1
-0.14027 0.187216 0.460987 0 0 -1
-0.126001 -0.264793 0.481029 0 0 1
-0.158882 -0.287813 0.468056 0 -0.263108 -0.964766
0.31975 0.189816 0.470917 0.563296 0 -0.826255
0.290489 0.300643 0.478654 0 1 0
0.234306 0.210805 0.460987 0 0 -1
0.31277 -0.00357729 0.481029 0 0 1
0.166738 -0.110037 0.460987 0 0 -1
0.252449 0.189123 0.481029 0 0 1
-0.00649929 0.226611 0.481029 0 0 1
0.171502 0.280467 0.466052 0 0.263108 -0.964766
0.125963 -0.1552 0.460987 0 0 -1
0.195352 -0.00210655 0.438804 1 0 0
0.319861 0.213761 0.470993 0.563296 0 -0.826255
-0.294177 0.103012 0.481029 0 0 1
-0.0951232 -0.00801504 0.481029 0 0 1
0.192394 0.100564 0.298198 0.161885 -0.918876 -0.359805
-0.0715622 0.218381 0.481029 0 0 1
0.163082 -0.0220821 0.481029 0 0 1
-0.287852 -0.23018 0.460987 0 0 -1
-0.194994 -0.0959701 0.369065 -0.849366 -0.46381 0.251907
0.0778171 0.269159 0.481029 0 0 1
-0.155618 -0.0450286 0.460987 0 0 -1
0.0497966 0.0870648 0.460987 0 0 -1
-0.0414951 0.108103 0.481029 0 0 1
-0.086949 -0.191757 0.460987 0 0 -1
0.172747 0.0539743 0.430913 -0.946719 -0.267267 -0.179699
0.272508 0.12078 0.460987 0 0 -1
-0.21288 0.0910176 0.460987 0 0 -1
-0.247097 -0.268927 0.481029 0 0 1
-0.0670064 -0.222554 0.481029 0 0 1
-0.00679225 0.0547995 0.481029 0 0 1
-0.177889 0.260332 0.481029 0 0 1
0.249818 0.104851 0.481029 0 0 1
-0.183264 0.0360898 0.434771 0 0.375262 -0.926919
-0.312405 -0.0504404 0.465909 -0.563349 0 -0.826219
0.145917 0.0155032 0.460987 0 0 -1
0.203697 -0.233372 0.0198066 -0.946477 -0.317672 0.0571421
0.311943 0.0691772 0.465594 0.563296 0 -0.826255
-0.08112 -0.27365 0.481029 0 0 1
0.20701 -0.21797 0.078221 -0.162733 -0.918773 0.359687
-0.18996 0.1596 0.186874 0.99198 -0.0718421 -0.103988
0.195352 -0.0300481 0.458787 1 0 0
0.0212462 0.0775856 0.481029 0 0 1
-0.212739 -0.248743 0.460987 0 0 -1
0.0367349 0.265988 0.462104 0 0.263108 -0.964766
-0.211984 0.209042 0.0300933 0.162736 -0.910225 -0.380799
-0.248933 0.0895628 0.460987 0 0 -1
0.223139 -0.0639458 0.481029 0 0 1
0.0150253 -0.00116088 0.431589 0 0 -1
-0.0201984 0.282835 0.466698 0 0.263108 -0.964766
0.190475 -0.137716 0.460987 0 0 -1
-0.0543013 -0.178862 0.460987 0 0 -1
0.230693 -0.100412 0.460987 0 0 -1
-0.298461 0.261081 0.481029 0 0 1
-0.197819 0.111552 0.330853 -0.849366 0.46381 0.251907
-0.179288 -0.015878 0.481029 0 0 1
-0.223516 0.0776842 0.481029 0 0 1
-0.135573 -0.0433652 0.481029 0 0 1
0.0446558 -0.206925 0.460987 0 0 -1
-0.252878 -0.198293 0.460987 0 0 -1
-0.19919 -0.135279 0.460987 0 0 -1
0.192648 -0.172857 0.152079 -0.99192 0.0723654 -0.104204
0.199572 0.100454 0.313381 0.849744 -0.507864 -0.141454
-0.187429 -0.158384 0.460987 0 0 -1
0.186897 -0.172394 0.481029 0 0 1
0.119571 0.0482351 0.460987 0 0 -1
0.173122 0.0157394 0.426532 0 0.375262 -0.926919
-0.205196 -0.00841585 0.481029 0 0 1
0.191439 0.0881319 0.460987 0 0 -1
-0.154097 -0.298618 0.471002 0 -0.263108 -0.964766
0.0280744 0.2891 0.468407 0 0.263108 -0.964766
-0.116332 -0.26199 0.461013 0 -0.263108 -0.964766
0.193722 -0.0756374 0.409547 0.946935 -0.266658 0.179464
0.211927 0.166366 0.481029 0 0 1
0.0648122 -0.112064 0.460987 0 0 -1
0.287395 -0.227079 0.481029 0 0 1
0.140171 -0.22778 0.481029 0 0 1
-0.128676 0.200998 0.481029 0 0 1
0.210113 -0.154009 0.185613 0.947121 0.315885 -0.0563798
0.235324 0.273733 0.481029 0 0 1
0.254666 0.200453 0.481029 0 0 1
-0.150851 -0.296239 0.470354 0 -0.263108 -0.964766
-0.00949001 0.246889 0.481029 0 0 1
0.194574 0.17447 0.17751 -0.690455 0.687144 0.226066
-0.228984 0.030349 0.481029 0 0 1
-0.198509 0.285804 0.481029 0 0 1
0.250643 0.177821 0.481029 0 0 1
0.0455648 0.283374 0.466845 0 0.263108 -0.964766
0.06952 -0.0159096 0.481029 0 0 1
-0.19243 -0.1002 0.481029 0 0 1
0.161379 -0.281561 0.466351 0 -0.263108 -0.964766
-0.231963 -0.238895 0.460987 0 0 -1
-0.247255 -0.202806 0.460987 0 0 -1
-0.178134 -0.103723 0.460987 0 0 -1
0.236686 0.181935 0.481029 0 0 1
-0.0742456 0.0195468 0.460987 0 0 -1
0.236834 0.0520971 0.460987 0 0 -1
0.297827 -0.0878808 0.481029 0 0 1
0.107582 -0.22556 0.481029 0 0 1
-0.205447 0.231482 0.0374244 0.690455 0.687144 0.226066
0.153595 0.0690063 0.460987 0 0 -1
0.148185 0.0909105 0.460987 0 0 -1
0.219087 -0.13467 0.481029 0 0 1
0.245848 0.0124615 0.481029 0 0 1
-0.160092 -0.0467868 0.481029 0 0 1
-0.176861 -0.0887798 0.379141 0.946832 -0.316691 0.0567157
0.202178 0.263703 0.46148 0 0.263108 -0.964766
0.0995415 0.272115 0.463775 0 0.263108 -0.964766
0.281898 -0.212702 0.481029 0 0 1
0.0655598 -0.161158 0.481029 0 0 1
0.149545 -0.243249 0.460987 0 0 -1
-0.209174 0.242784 0.481029 0 0 1
0.248895 0.224274 0.460987 0 0 -1
0.213598 -0.171111 0.15456 0.992184 0.12216 0.0254512
-0.206994 -0.204 0.481029 0 0 1
-0.0678831 0.192099 0.460987 0 0 -1
-0.252708 0.173342 0.460987 0 0 -1
-0.125669 -0.0914713 0.481029 0 0 1
-0.0172803 0.192217 0.460987 0 0 -1
0.194091 -0.206598 0.460987 0 0 -1
0.163248 -0.131875 0.481029 0 0 1
-0.210672 0.205651 0.460987 0 0 -1
-0.192095 0.102406 0.293485 0.162736 -0.910225 -0.380799
-0.114608 0.0167024 0.43502 0 1 0
0.257639 -0.131686 0.460987 0 0 -1
0.219463 0.210662 0.0730954 0.94696 0.266586 0.179438
0.293685 0.105063 0.460987 0 0 -1
-0.00164795 -0.0636883 0.460987 0 0 -1
0.224015 0.188276 0.460987 0 0 -1
0.0924445 0.192898 0.460987 0 0 -1
-0.176615 -0.0498874 0.440357 0 -0.375262 -0.926919
0.117753 -0.126937 0.481029 0 0 1
0.0520333 0.0482007 0.481029 0 0 1
0.178347 0.0917604 0.345229 -0.94712 -0.266138 -0.179262
-0.0287067 -0.248395 0.481029 0 0 1
0.0320239 -0.0541098 0.481029 0 0 1
-0.195516 0.0112178 0.460987 0 0 -1
0.233944 0.292479 0.481029 0 0 1
-0.274047 -0.211757 0.481029 0 0 1
0.0154805 -0.0563007 0.481029 0 0 1
-0.320661 -0.154382 0.472776 -0.994253 0 -0.107059
0.20025 -0.119519 0.481029 0 0 1
-0.135796 0.225039 0.481029 0 0 1
0.0902942 -0.232784 0.481029 0 0 1
0.192311 -0.156613 0.460987 0 0 -1
-0.136402 0.273965 0.481029 0 0 1
0.191947 -0.0707285 0.378133 0.690412 0.687181 -0.226082
0.300277 -0.188554 0.460987 0 0 -1
0.309089 0.0719246 0.481029 0 0 1
0.201722 -0.010489 0.460987 0 0 -1
-0.309019 0.105152 0.4636 -0.563349 0 -0.826219
0.233337 -0.25117 0.460987 0 0 -1
0.0264271 0.121309 0.460987 0 0 -1
-0.0341477 0.0167024 0.4385 0 1 0
0.303339 0.106361 0.481029 0 0 1
0.199926 0.153324 0.168429 -0.16175 -0.910399 -0.380802
-0.175507 -0.0658858 0.481029 0 0 1
-0.093132 0.21669 0.481029 0 0 1
-0.0945956 0.0888822 0.460987 0 0 -1
-0.130166 0.0319692 0.460987 0 0 -1
0.0853507 0.0514003 0.460987 0 0 -1
-0.184523 0.0903649 0.393999 0.163079 0.918729 0.359641
0.0703612 0.0796445 0.481029 0 0 1
0.262817 -0.233342 0.460987 0 0 -1
0.262883 0.148023 0.481029 0 0 1
0.0535919 0.265783 0.481029 0 0 1
0.196042 -0.180446 0.120086 -0.946719 0.267267 -0.179699
-0.0166936 0.300643 0.474054 0 1 0
-0.118354 -0.0487214 0.460987 0 0 -1
-0.100709 0.0351891 0.481029 0 0 1
0.200632 0.10175 0.327054 0.991932 -0.124369 0.0245567
-0.0738355 0.120127 0.481029 0 0 1
0.119586 -0.000362128 0.481029 0 0 1
0.152563 0.0986956 0.460987 0 0 -1
0.0322061 0.0746943 0.481029 0 0 1
-0.0740213 -0.0685192 0.460987 0 0 -1
-0.091622 -0.0507302 0.460987 0 0 -1
0.255416 0.143418 0.481029 0 0 1
-0.266561 -0.242933 0.481029 0 0 1
0.0552576 0.112407 0.460987 0 0 -1
-0.0729624 -0.295399 0.470124 0 -0.263108 -0.964766
-0.27291 0.0634502 0.481029 0 0 1
0.15738 0.150487 0.460987 0 0 -1
0.214422 -0.203463 0.481029 0 0 1
0.305126 0.132154 0.481029 0 0 1
0.1272 0.218403 0.481029 0 0 1
-0.0773413 -0.00835067 0.481029 0 0 1
-0.261399 -0.15169 0.460987 0 0 -1
0.0716154 0.0599074 0.460987 0 0 -1
0.0795827 0.128888 0.481029 0 0 1
0.000370443 0.0880806 0.460987 0 0 -1
0.0845411 -0.147204 0.460987 0 0 -1
0.00659698 0.199215 0.481029 0 0 1
0.0980219 0.211607 0.481029 0 0 1
-0.21786 -0.224328 0.0547337 -0.69087 -0.650495 0.315523
-0.264057 0.000142306 0.481029 0 0 1
0.0390955 -0.287988 0.468103 0 -0.263108 -0.964766
0.17924 0.0952075 0.37122 -0.84971 0.507915 0.141479
0.0217884 0.124505 0.481029 0 0 1
-0.180369 -0.167646 0.460987 0 0 -1
-0.303558 -0.264377 0.481029 0 0 1
-0.0156012 0.276945 0.465092 0 0.263108 -0.964766
-0.279607 0.150278 0.460987 0 0 -1
0.185358 -0.0873327 0.401641 0.163125 -0.910154 0.380802
0.0361951 0.145019 0.481029 0 0 1
0.29487 -0.242685 0.481029 0 0 1
0.0100486 0.174193 0.481029 0 0 1
0.10896 0.288286 0.481029 0 0 1
-0.177387 0.046449 0.434818 0.45758 -0.81163 -0.36315
-0.199371 0.180516 0.170308 0.457617 0.835651 0.303766
0.128151 0.012126 0.481029 0 0 1
0.0943906 0.087061 0.481029 0 0 1
-0.119205 0.206996 0.460987 0 0 -1
-0.18329 -0.211691 0.460987 0 0 -1
-0.30719 0.232154 0.481029 0 0 1
-0.137579 -0.162331 0.460987 0 0 -1
-0.0635783 -0.107905 0.481029 0 0 1
-0.175121 0.0175869 0.481029 0 0 1
-0.302586 -0.222272 0.460987 0 0 -1
0.233652 0.154549 0.460987 0 0 -1
-0.0261112 -0.0177547 0.460987 0 0 -1
0.171937 0.277191 0.481029 0 0 1
0.13558 0.122574 0.460987 0 0 -1
-0.116412 -0.0209754 0.460987 0 0 -1
0.200312 -0.182597 0.460987 0 0 -1
-0.283275 0.179425 0.481029 0 0 1
0.191344 0.109588 0.345885 0.163125 0.910154 0.380802
-0.20962 -0.204137 0.0428343 0.160503 0.910619 -0.380805
0.202027 0.182867 0.165634 -0.163079 0.918729 0.359641
-0.0863107 0.0777094 0.481029 0 0 1
0.126053 -0.066269 0.460987 0 0 -1
-0.116477 -0.0186232 0.460987 0 0 -1
-0.235785 -0.105762 0.481029 0 0 1
0.241313 -0.161248 0.481029 0 0 1
-0.199425 -0.0880341 0.460987 0 0 -1
0.113081 -0.0338435 0.460987 0 0 -1
0.188147 -0.11788 0.460987 0 0 -1
0.172818 -0.257169 0.460987 0 0 -1
-0.0648084 -0.296994 0.481029 0 0 1
-0.0970775 0.225058 0.481029 0 0 1
0.049927 -0.202568 0.460987 0 0 -1
0.168493 -0.142995 0.481029 0 0 1
0.189892 -0.190266 0.460987 0 0 -1
-0.292753 -0.176811 0.481029 0 0 1
0.14003 -0.112577 0.460987 0 0 -1
-0.278604 -0.243229 0.481029 0 0 1
-0.29689 0.0286932 0.460987 0 0 -1
0.146207 -0.0428033 0.481029 0 0 1
0.0120125 -0.171499 0.481029 0 0 1
-0.0182807 -0.11989 0.481029 0 0 1
-0.291501 -0.166241 0.481029 0 0 1
0.19801 0.199945 0.107927 -0.850298 0.507042 0.141073
0.12635 -0.223272 0.481029 0 0 1
-0.124915 -0.0825737 0.460987 0 0 -1
-0.0697512 0.132503 0.481029 0 0 1
0.192985 -0.100299 0.299136 0.161885 0.918881 -0.359792
0.164163 -0.00640148 0.460987 0 0 -1
0.247326 -0.249399 0.460987 0 0 -1
-0.211572 -0.16047 0.182424 -0.992125 0.122684 0.025239
0.0412013 -0.0442451 0.481029 0 0 1
0.274464 -0.282308 0.481029 0 0 1
-0.195352 -0.0114668 0.457718 -1 0 0
0.249335 -0.0820173 0.481029 0 0 1
-0.174633 -0.171108 0.481029 0 0 1
-0.115952 -0.0119237 0.431589 0 0 -1
-0.0566219 0.0302926 0.481029 0 0 1
0.202335 0.281919 0.481029 0 0 1
-0.183267 -0.16911 0.460987 0 0 -1
-0.0425683 0.226515 0.481029 0 0 1
-0.0318557 -0.163086 0.460987 0 0 -1
-0.312951 0.254499 0.481029 0 0 1
-0.268408 -0.00887656 0.481029 0 0 1
-0.187935 -0.135505 0.229644 0.946545 0.267761 -0.179882
0.249923 -0.0911715 0.460987 0 0 -1
0.116155 0.285546 0.467437 0 0.263108 -0.964766
0.314073 0.186695 0.481029 0 0 1
-0.140002 0.250624 0.481029 0 0 1
0.26343 0.241545 0.460987 0 0 -1
0.126693 0.233689 0.460987 0 0 -1
-0.295459 0.252833 0.481029 0 0 1
-0.0846752 0.106326 0.481029 0 0 1
0.203375 -0.232757 0.0124735 -0.99209 -0.122984 -0.0251284
-0.188928 -0.111589 0.481029 0 0 1
0.0577183 -0.17527 0.481029 0 0 1
-0.212176 -0.171988 0.481029 0 0 1
0.209178 0.28139 0.466304 0 0.263108 -0.964766
-0.204923 -0.24293 0.460987 0 0 -1
-0.0876774 -0.239865 0.481029 0 0 1
0.276575 -0.298202 0.470889 0 -0.263108 -0.964766
0.212372 0.0772494 0.481029 0 0 1
0.242697 -0.247498 0.481029 0 0 1
0.195305 -0.093454 0.372647 0.850301 -0.462368 0.251404
0.168416 0.163132 0.481029 0 0 1
0.0890709 -0.160845 0.460987 0 0 -1
-0.154239 -0.105211 0.460987 0 0 -1
0.030442 0.109959 0.460987 0 0 -1
0.0974064 -0.0472573 0.481029 0 0 1
0.0670135 0.274691 0.464477 0 0.263108 -0.964766
0.252871 -0.15204 0.481029 0 0 1
-0.0305233 0.203811 0.460987 0 0 -1
-0.14328 -0.166493 0.481029 0 0 1
-0.240543 -0.0343158 0.481029 0 0 1
-0.0438886 0.0152481 0.431677 0 0.158645 -0.987336
0.00933191 -0.233374 0.460987 0 0 -1
0.190446 0.113483 0.481029 0 0 1
0.271353 -0.202732 0.481029 0 0 1
-0.309178 -0.0711175 0.463708 -0.563349 0 -0.826219
0.216119 -0.249762 0 0 0 -1
-0.116359 0.128927 0.481029 0 0 1
0.191416 0.111546 0.341173 0.163125 0.910154 0.380802
-0.0537608 -0.0163009 0.481029 0 0 1
-0.00374287 0.117541 0.460987 0 0 -1
0.139798 -0.033308 0.460987 0 0 -1
-0.261381 0.236836 0.481029 0 0 1
0.211101 -0.19335 0.0696475 0.162733 0.918772 -0.35969
0.148363 0.0691912 0.481029 0 0 1
-0.0744161 0.000552297 0.460987 0 0 -1
0.318254 -0.10637 0.469897 0.563296 0 -0.826255
0.114963 -0.00416302 0.431589 0 0 -1
0.0789391 -0.0548527 0.460987 0 0 -1
0.295608 -0.0894877 0.460987 0 0 -1
0.155718 -0.300643 0.473664 0 -1 0
0.248981 -0.0487364 0.481029 0 0 1
-0.234378 0.254951 0.481029 0 0 1
-0.181773 -0.115323 0.295556 0.99198 0.0718421 -0.103988
-0.0236829 -0.165041 0.481029 0 0 1
0.217623 -0.163379 0.481029 0 0 1
0.294213 0.0270319 0.481029 0 0 1
-0.112598 0.202399 0.481029 0 0 1
-0.00645053 -0.216659 0.481029 0 0 1
-0.253927 -0.0553475 0.481029 0 0 1
-0.20255 0.112574 0.2907 -0.947121 -0.315886 -0.0563761
0.244669 0.219997 0.481029 0 0 1
-0.246674 -0.187706 0.460987 0 0 -1
-0.193104 -0.174518 0.14657 0.992071 0.071052 -0.103668
-0.187963 0.251663 0.481029 0 0 1
-0.211274 0.18741 0.481029 0 0 1
-0.189338 -0.176813 0.481029 0 0 1
-0.106596 -0.221704 0.460987 0 0 -1
0.0735039 -0.151983 0.481029 0 0 1
-0.205023 -0.249803 0.460987 0 0 -1
0.320622 0.128925 0.472412 0.994253 0 -0.107059
-0.00240844 0.107786 0.460987 0 0 -1
0.0113543 -0.0202441 0.481029 0 0 1
0.294493 -0.104746 0.481029 0 0 1
-0.102636 -0.244055 0.460987 0 0 -1
-0.0625927 -0.0584401 0.460987 0 0 -1
0.210396 -0.114544 0.460987 0 0 -1
0.02741 -0.271824 0.481029 0 0 1
0.0280776 0.294575 0.481029 0 0 1
-0.316436 -0.0900376 0.468657 -0.563349 0 -0.826219
-0.225585 -0.256572 0.481029 0 0 1
-0.313003 0.0888409 0.466316 -0.563349 0 -0.826219
0.0201059 -0.0841252 0.460987 0 0 -1
0.11095 -0.103757 0.481029 0 0 1
-0.19194 0.0596246 0.460987 0 0 -1
-0.223464 -0.228014 0.0247366 -0.992055 -0.0711828 0.103728
-0.0594884 -0.132662 0.460987 0 0 -1
0.140564 0.110849 0.481029 0 0 1
0.122836 -0.0571482 0.481029 0 0 1
0.150355 0.0164657 0.432741 0 0.848812 -0.528694
0.0448953 -0.245825 0.481029 0 0 1
0.0298998 -0.141387 0.460987 0 0 -1
-0.20673 -0.164531 0.141496 -0.459739 0.834684 -0.303221
-0.066716 0.130694 0.460987 0 0 -1
-0.0962492 0.231819 0.460987 0 0 -1
-0.0834266 0.285669 0.481029 0 0 1
-0.0146184 0.0248065 0.460987 0 0 -1
0.0219236 -0.133123 0.460987 0 0 -1
0.0888148 0.0941683 0.460987 0 0 -1
0.201796 0.15336 0.235282 0.456371 0.812243 0.363301
0.201103 0.212977 0.0797293 -0.850298 0.507042 0.141073
-0.157341 0.258083 0.460987 0 0 -1
0.101203 -0.300643 0.47739 0 -1 0
0.14281 -0.281386 0.466303 0 -0.263108 -0.964766
0.199937 -0.0136525 0.460987 0 0 -1
0.133163 0.198569 0.460987 0 0 -1
0.202893 0.113235 0.293911 0.991932 -0.124369 0.0245567
0.0447161 -0.00352108 0.460987 0 0 -1
-0.214395 0.212518 0.0221756 -0.162619 -0.918786 -0.359704
0.0343114 0.0134622 0.481029 0 0 1
-0.0685493 0.226244 0.481029 0 0 1
0.318343 -0.248165 0.469957 0.563296 0 -0.826255
0.145732 0.209725 0.460987 0 0 -1
0.250017 0.277305 0.481029 0 0 1
-0.126833 -0.139651 0.460987 0 0 -1
-0.130501 -0.0167024 0.436583 0 -1 0
-0.202415 0.185285 0.481029 0 0 1
-0.0518726 0.269493 0.481029 0 0 1
0.213605 -0.197664 0.481029 0 0 1
0.164414 -0.025026 0.481029 0 0 1
0.217852 0.219052 0.460987 0 0 -1
0.11464 0.279879 0.481029 0 0 1
0.210939 0.204741 0.0408334 -0.160391 -0.910639 -0.380805
0.205357 -0.177791 0.481029 0 0 1
0.196838 0.106018 0.287569 0.459599 -0.834748 -0.303257
-0.0435687 0.263409 0.4614 0 0.263108 -0.964766
0.143277 -0.0889295 0.460987 0 0 -1
-0.156379 -0.18197 0.460987 0 0 -1
-0.0336756 0.184148 0.460987 0 0 -1
-0.216902 -0.167339 0.481029 0 0 1
-0.220464 -0.211796 0.481029 0 0 1
-0.15659 0.0725815 0.460987 0 0 -1
-0.202247 -0.117409 0.302493 -0.94676 -0.267152 0.179651
0.174294 -0.229527 0.481029 0 0 1
-0.124337 -0.152858 0.481029 0 0 1
0.293946 -0.0178385 0.460987 0 0 -1
-0.10406 0.213662 0.460987 0 0 -1
-0.0826335 -0.300643 0.476138 0 -1 0
-0.158465 -0.0702663 0.481029 0 0 1
-0.233018 -0.059324 0.481029 0 0 1
-0.130201 0.260775 0.481029 0 0 1
-0.193336 0.0737532 0.414376 -0.94676 0.267152 0.179651
-0.154546 -0.232234 0.460987 0 0 -1
-0.178297 -0.264907 0.481029 0 0 1
-0.253276 -0.00150278 0.481029 0 0 1
-0.00176296 0.173897 0.460987 0 0 -1
-0.149949 0.167606 0.460987 0 0 -1
0.221485 -0.24558 0 0 0 -1
0.199238 0.158935 0.224558 0.162736 0.910225 0.380799
-0.0802335 0.0661178 0.460987 0 0 -1
0.150055 0.0354179 0.481029 0 0 1
-0.0305902 -0.00383267 0.460987 0 0 -1
0.120022 -0.231459 0.481029 0 0 1
-0.195352 0.0399165 0.438567 -1 0 0
-0.0652566 0.232672 0.481029 0 0 1
-0.194935 0.0788408 0.398382 -0.94676 0.267152 0.179651
-0.182652 -0.298111 0.481029 0 0 1
0.284743 -0.153863 0.481029 0 0 1
-0.136617 0.252816 0.481029 0 0 1
0.242844 0.151717 0.460987 0 0 -1
-0.17077 0.0891748 0.457691 0.998653 0.0190654 -0.0482504
0.121917 -0.186961 0.460987 0 0 -1
-0.187981 0.0873587 0.331208 0.161863 -0.910379 -0.380801
-0.238959 0.189716 0.460987 0 0 -1
-0.23332 -0.0477545 0.481029 0 0 1
-0.177132 0.110132 0.481029 0 0 1
-0.0932686 -0.198878 0.481029 0 0 1
0.0570323 0.193694 0.481029 0 0 1
0.210419 -0.191123 0.0750253 0.162733 0.918772 -0.35969
0.10085 -0.139172 0.481029 0 0 1
0.0114585 -0.236664 0.481029 0 0 1
-0.0967274 0.047254 0.460987 0 0 -1
0.214676 0.0453353 0.460987 0 0 -1
-0.103663 -0.140299 0.460987 0 0 -1
-0.100592 -0.288989 0.468376 0 -0.263108 -0.964766
-0.264212 -0.00580224 0.460987 0 0 -1
-0.125107 0.0649484 0.481029 0 0 1
-0.188774 0.169545 0.460987 0 0 -1
-0.303784 -0.159259 0.481029 0 0 1
-0.314228 0.0870473 0.481029 0 0 1
0.286342 0.150248 0.460987 0 0 -1
-0.320687 -0.132651 0.475627 -1 0 0
-0.178173 0.25568 0.460987 0 0 -1
-0.189546 0.0957999 0.310363 0.161863 -0.910379 -0.380801
0.204826 0.15514 0.225922 0.690517 0.650817 0.315633
0.192942 -0.269259 0.462996 0 -0.263108 -0.964766
0.109306 -0.0442868 0.460987 0 0 -1
-0.21522 0.173169 0.481029 0 0 1
-0.24062 0.10262 0.460987 0 0 -1
0.19591 -0.266238 0.481029 0 0 1
-0.120489 -0.296494 0.470423 0 -0.263108 -0.964766
-0.18027 0.1884 0.460987 0 0 -1
-0.208153 -0.153404 0.217848 -0.946959 -0.266586 0.179442
0.121826 0.16127 0.481029 0 0 1
-0.138753 -0.263349 0.481029 0 0 1
-0.170765 0.0214365 0.440083 1 0 0
-0.170765 -0.0449468 0.456869 1 0 0
-0.320354 -0.0992551 0.471447 -0.928474 0 -0.371397
0.18411 0.0936373 0.481029 0 0 1
-0.0902707 0.124573 0.481029 0 0 1
-0.127254 -0.108926 0.460987 0 0 -1
-0.30576 -0.296786 0.481029 0 0 1
-0.214197 -0.179229 0.146849 -0.992055 -0.0711828 0.103728
-0.0422367 -0.0863648 0.460987 0 0 -1
0.313938 0.296342 0.470382 0 0.263108 -0.964766
-0.231903 0.196748 0.481029 0 0 1
-0.310182 0.244778 0.464392 -0.563349 0 -0.826219
-0.247691 0.15581 0.481029 0 0 1
-0.198904 0.128703 0.481029 0 0 1
0.303236 -0.21704 0.460987 0 0 -1
-0.215664 -0.249271 0.00160947 -0.162622 -0.910245 0.380799
0.179653 -0.202388 0.481029 0 0 1
-0.0985833 0.0873044 0.481029 0 0 1
-0.216638 -0.196774 0.460987 0 0 -1
0.168516 1.57952e-06 0.460987 0 0 -1
-0.218153 0.196182 0.0973281 -0.992125 -0.122684 0.025239
-0.184974 0.126732 0.258291 0.946944 -0.266638 -0.179447
0.297006 -0.166358 0.460987 0 0 -1
-0.225176 0.199095 0.460987 0 0 -1
0.160113 -0.103935 0.481029 0 0 1
-0.097664 0.0904431 0.481029 0 0 1
-0.0245559 -0.196937 0.460987 0 0 -1
-0.0426678 -0.216648 0.481029 0 0 1
0.150283 -0.2501 0.460987 0 0 -1
0.0129061 0.0167024 0.458986 0 1 0
0.192439 -0.148192 0.191021 -0.850123 0.462643 -0.251498
-0.241555 0.254121 0.460987 0 0 -1
-0.132306 0.0773256 0.460987 0 0 -1
-0.194485 0.1781 0.131778 0.946944 -0.266638 -0.179447
-0.154475 -0.00698962 0.431589 0 0 -1
-0.167231 0.243799 0.460987 0 0 -1
-0.306557 0.188627 0.461921 -0.563349 0 -0.826219
-0.141717 0.00409517 0.460987 0 0 -1
0.195528 -0.186532 0.115152 -0.99207 0.0710519 -0.103673
-0.102451 -0.275771 0.481029 0 0 1
0.123882 -0.0167024 0.447919 0 -1 0
-0.214878 -0.182888 0.460987 0 0 -1
-0.203066 -0.118305 0.270282 -0.849559 0.50814 -0.141577
-0.113359 0.0185081 0.460987 0 0 -1
0.191489 -0.0779637 0.356677 0.457867 0.835536 -0.303706
0.205361 -0.15054 0.233645 0.850185 -0.462547 0.251466
0.219446 -0.208235 0.0767442 0.992055 -0.0711828 0.103728
-0.0598851 -0.0505431 0.460987 0 0 -1
0.0367928 -0.271595 0.463633 0 -0.263108 -0.964766
0.0040206 0.157622 0.460987 0 0 -1
-0.182706 0.119687 0.304145 0.946832 0.316691 0.0567157
0.0264033 -0.272008 0.481029 0 0 1
0.233279 0.0191006 0.481029 0 0 1
-0.0880619 -0.209598 0.481029 0 0 1
-0.0885733 0.10751 0.481029 0 0 1
-0.191841 0.0797127 0.352395 -0.458007 -0.835472 -0.303671
0.204066 0.062905 0.481029 0 0 1
0.224638 -0.0701389 0.460987 0 0 -1
-0.123183 0.00073877 0.460987 0 0 -1
-0.124078 -0.180004 0.460987 0 0 -1
-0.216787 -0.153661 0.481029 0 0 1
-0.00924304 -0.0403443 0.481029 0 0 1
-0.111222 0.0371977 0.460987 0 0 -1
0.31402 -0.086071 0.46701 0.563296 0 -0.826255
0.0844159 0.095018 0.481029 0 0 1
-0.223406 0.174675 0.460987 0 0 -1
-0.192619 0.0759635 0.364272 -0.690087 -0.687463 -0.226221
-0.311188 0.250865 0.465079 -0.563349 0 -0.826219
-0.0999144 0.0163511 0.481029 0 0 1
-0.307149 0.185306 0.481029 0 0 1
-0.195031 -0.17869 0.166076 0.690455 -0.687144 0.226066
-0.00883362 0.0807424 0.460987 0 0 -1
0.186395 0.225139 0.460987 0 0 -1
-0.184167 0.142026 0.481029 0 0 1
0.245505 -0.268092 0.481029 0 0 1
-0.27215 0.00480738 0.460987 0 0 -1
-0.320687 0.162888 0.476117 -1 0 0
-0.195352 -0.0394732 0.441446 -1 0 0
-0.302965 -0.166043 0.460987 0 0 -1
-0.0383099 -0.185384 0.460987 0 0 -1
-0.163304 0.205406 0.481029 0 0 1
0.192014 -0.0977312 0.305258 0.161885 0.918881 -0.359792
-0.17692 0.0837667 0.398361 0.84971 0.507915 0.141479
-0.320687 0.263404 0.473283 -1 0 0
-0.196317 -0.0784767 0.377038 -0.947121 0.315886 -0.0563761
-0.168574 -0.0107442 0.431589 0 0 -1
-0.140697 0.142971 0.460987 0 0 -1
0.0385348 -0.267521 0.462522 0 -0.263108 -0.964766
-0.27596 0.300605 0.479168 0 0.965982 0.258608
0.260719 -0.0226829 0.481029 0 0 1
-0.0747982 0.104728 0.481029 0 0 1
-0.260874 -0.0906615 0.481029 0 0 1
-0.1177 -0.177108 0.481029 0 0 1
0.143996 -0.184122 0.481029 0 0 1
-0.108954 -0.252256 0.460987 0 0 -1
-0.201488 0.295574 0.481029 0 0 1
-0.174016 -0.119792 0.45965 0 0 -1
0.029333 0.180061 0.460987 0 0 -1
0.179556 0.102237 0.325746 -0.99192 -0.0723654 -0.104204
-0.202048 0.127267 0.237129 -0.690087 -0.687463 -0.226221
-0.0745564 0.165664 0.460987 0 0 -1
0.195352 0.0275115 0.438717 1 0 0
0.0131402 0.15711 0.460987 0 0 -1
0.293361 0.130855 0.460987 0 0 -1
0.208548 -0.150572 0.187362 0.849744 0.507864 -0.141454
0.172046 -0.00715294 0.460987 0 0 -1
-0.0563738 -0.103309 0.481029 0 0 1
-0.19095 -0.154835 0.460987 0 0 -1
0.282621 -0.0531455 0.481029 0 0 1
0.0452828 0.119442 0.460987 0 0 -1
0.255909 -0.065534 0.481029 0 0 1
-0.242674 -0.183687 0.460987 0 0 -1
-0.193386 0.0888212 0.387651 -0.849366 0.46381 0.251907
0.0700856 -0.25002 0.460987 0 0 -1
-0.146157 0.123213 0.481029 0 0 1
0.2047 0.227895 0.00390399 -0.946719 -0.267267 -0.179699
-0.0657039 0.276302 0.481029 0 0 1
-0.0975698 -0.136545 0.460987 0 0 -1
0.277341 0.221417 0.460987 0 0 -1
-0.1953 -0.162899 0.212637 0.457617 -0.835651 0.303766
0.317565 -0.044783 0.481029 0 0 1
-0.318621 -0.063761 0.481029 0 0 1
-0.314092 0.106047 0.467059 -0.563349 0 -0.826219
-0.0124993 0.141062 0.481029 0 0 1
0.198689 0.0916759 0.342933 0.947121 -0.315885 -0.0563798
-0.287035 0.275219 0.464621 0 0.263108 -0.964766
-0.133734 -0.210387 0.460987 0 0 -1
0.182527 -0.113743 0.290508 -0.94712 0.266138 -0.179262
0.108466 -0.00634043 0.431589 0 0 -1
-0.195605 0.190501 0.11241 0.992031 0.123507 -0.0249032
0.296719 -0.295385 0.470121 0 -0.263108 -0.964766
0.182517 0.282498 0.466606 0 0.263108 -0.964766
-0.237682 0.202879 0.460987 0 0 -1
0.0500061 -0.195959 0.460987 0 0 -1
0.147468 -0.186653 0.481029 0 0 1
-0.0957313 0.140719 0.460987 0 0 -1
-0.18307 0.20119 0.460987 0 0 -1
-0.189822 -0.136717 0.27641 0.456537 -0.836138 0.304053
0.210603 0.267005 0.481029 0 0 1
0.264093 -0.120909 0.460987 0 0 -1
0.17725 -0.0726305 0.38136 -0.84982 0.463108 -0.251668
-0.112567 0.00472403 0.460987 0 0 -1
0.0169605 0.0057589 0.431589 0 0 -1
-0.137534 -0.118351 0.460987 0 0 -1
-0.00751883 -0.188946 0.460987 0 0 -1
-0.320687 -0.276964 0.475124 -1 0 0
0.0707091 0.0865121 0.481029 0 0 1
-0.0771437 0.077806 0.481029 0 0 1
0.125951 -0.0178385 0.460987 0 0 -1
0.0573323 -0.237997 0.460987 0 0 -1
0.169224 -0.0135664 0.460987 0 0 -1
-0.0748834 -0.0193215 0.460987 0 0 -1
-0.140547 0.179416 0.460987 0 0 -1
-0.181953 0.0470978 0.430044 -0.161829 -0.918888 -0.3598
-0.0414834 -0.194138 0.481029 0 0 1
0.270781 0.266308 0.481029 0 0 1
0.118375 -0.170315 0.481029 0 0 1
-0.171074 -0.252398 0.460987 0 0 -1
0.011267 0.203501 0.481029 0 0 1
-0.176708 0.102064 0.460987 0 0 -1
-0.15115 0.120339 0.460987 0 0 -1
-0.278388 0.126571 0.481029 0 0 1
-0.188743 0.00950781 0.426246 0 0 -1
-0.0901196 -0.230439 0.460987 0 0 -1
-0.190368 -0.0547233 0.442315 0 -0.375262 -0.926919
0.202709 0.103502 0.481029 0 0 1
-0.296019 -0.159509 0.460987 0 0 -1
0.10726 0.232514 0.481029 0 0 1
-0.116749 0.0548125 0.460987 0 0 -1
0.191498 -0.2705 0.481029 0 0 1
0.197338 0.115155 0.324748 0.690517 0.650817 0.315633
-0.165615 -0.00546771 0.460987 0 0 -1
0.0164035 0.300643 0.47603 0 1 0
-0.215225 0.161711 0.481029 0 0 1
-0.202239 0.111118 0.307972 -0.99198 0.0718514 0.103987
-0.152275 -0.23195 0.460987 0 0 -1
4.56572e-05 -0.00338098 0.460987 0 0 -1
0.079231 0.0815743 0.460987 0 0 -1
-0.218197 0.195332 0.089829 -0.946887 -0.316537 -0.0566514
0.00361252 -0.167688 0.481029 0 0 1
0.309967 0.189388 0.481029 0 0 1
-0.134746 0.108227 0.481029 0 0 1
-0.212584 -0.101168 0.460987 0 0 -1
0.175157 0.0860744 0.443459 -0.850557 0.506529 0.141355
0.279664 0.207044 0.460987 0 0 -1
0.244313 -0.127314 0.481029 0 0 1
-0.0290056 -0.107612 0.460987 0 0 -1
0.150275 0.152622 0.460987 0 0 -1
-0.201792 0.163944 0.142246 0.162736 -0.910225 -0.380799
-0.00428361 0.204137 0.460987 0 0 -1
-0.181273 -0.0502358 0.422809 0.161863 0.910379 -0.380801
-0.200287 -0.113756 0.31826 -0.946959 -0.266586 0.179442
-0.19947 -0.158335 0.481029 0 0 1
-0.213582 -0.219803 0.460987 0 0 -1
0.0315896 0.248648 0.460987 0 0 -1
0.104851 0.283026 0.46675 0 0.263108 -0.964766
0.16582 0.159568 0.460987 0 0 -1
0.271562 0.180266 0.460987 0 0 -1
0.251363 0.202264 0.481029 0 0 1
0.0974186 -0.0046961 0.460987 0 0 -1
0.144269 0.0846756 0.460987 0 0 -1
0.214067 -0.173924 0.149777 0.992184 0.12216 0.0254512
-0.302907 -0.215782 0.460987 0 0 -1
-0.183251 -0.101702 0.460987 0 0 -1
-0.192634 0.0127302 0.481029 0 0 1
-0.0687214 0.0160345 0.432127 0 0.528009 -0.849239
-0.182083 0.114104 0.320452 0.84971 0.507915 0.141479
-0.0343879 0.200073 0.481029 0 0 1
-0.172758 -0.0749766 0.450514 0 -0.375262 -0.926919
-0.227951 0.0974072 0.481029 0 0 1
0.283995 -0.208997 0.481029 0 0 1
0.305639 0.129033 0.461296 0.563296 0 -0.826255
0.0143535 -0.0601607 0.460987 0 0 -1
0.186384 0.0600788 0.481029 0 0 1
-0.143571 0.0473303 0.481029 0 0 1
-0.0844294 0.25176 0.460987 0 0 -1
0.239454 0.188626 0.481029 0 0 1
0.225706 -0.163983 0.481029 0 0 1
0.170882 0.0238695 0.430778 -0.964447 0.0971185 -0.245785
-0.263509 0.152367 0.460987 0 0 -1
-0.0458125 -0.152944 0.460987 0 0 -1
-0.206767 0.136 0.460987 0 0 -1
-0.140291 0.274735 0.464489 0 0.263108 -0.964766
-0.0825771 0.154629 0.481029 0 0 1
0.198488 0.162835 0.215201 -0.163079 0.918729 0.359641
-0.169233 -0.0313981 0.460987 0 0 -1
-0.189292 -0.0851385 0.481029 0 0 1
0.259699 -0.0042738 0.460987 0 0 -1
0.20623 0.149842 0.23199 0.850301 0.462368 0.251404
-0.121814 0.247177 0.481029 0 0 1
0.0856093 0.238153 0.481029 0 0 1
0.0803738 -0.206814 0.481029 0 0 1
-0.149129 -0.0239075 0.460987 0 0 -1
0.173724 0.267611 0.481029 0 0 1
0.0774639 0.00567362 0.481029 0 0 1
0.269638 -0.0561792 0.460987 0 0 -1
-0.0148154 0.074381 0.481029 0 0 1
-0.251849 -0.200661 0.481029 0 0 1
0.178028 0.0805194 0.364215 -0.84982 -0.463108 -0.251668
0.0833367 0.162729 0.460987 0 0 -1
0.116442 0.136398 0.481029 0 0 1
-0.208289 0.282873 0.466708 0 0.263108 -0.964766
0.0239837 0.162858 0.460987 0 0 -1
0.186062 -0.112632 0.278203 -0.69035 0.650971 -0.315679
0.0997238 0.00963407 0.431589 0 0 -1
-0.0286413 0.260832 0.460987 0 0 -1
-0.0337217 -0.0833884 0.481029 0 0 1
0.0656667 -0.144292 0.460987 0 0 -1
0.0192662 0.0530406 0.481029 0 0 1
0.233 0.259549 0.481029 0 0 1
0.0438648 0.0451995 0.481029 0 0 1
-0.118525 0.174122 0.481029 0 0 1
0.201309 -0.159134 0.15395 -0.162622 0.910245 -0.380799
0.283765 -0.181204 0.460987 0 0 -1
0.216002 -0.0825658 0.481029 0 0 1
0.181999 -0.0971298 0.481029 0 0 1
0.271589 -0.100635 0.460987 0 0 -1
0.196527 -0.16587 0.206313 -0.457617 -0.835651 0.303766
0.0673358 0.0145967 0.481029 0 0 1
0.185986 0.121957 0.26109 -0.84982 -0.463108 -0.251668
-0.221574 -0.00958017 0.460987 0 0 -1
0.239167 -0.156261 0.481029 0 0 1
-0.303659 0.132561 0.460987 0 0 -1
-0.16095 0.15339 0.481029 0 0 1
-0.211807 -0.204052 0.109372 -0.456093 -0.812383 0.363336
-0.313314 0.00439101 0.466528 -0.563349 0 -0.826219
-0.074788 0.180307 0.481029 0 0 1
0.123471 -0.0167024 0.454516 0 -1 0
-0.259385 0.298516 0.481029 0 0 1
-0.199036 0.149433 0.178109 0.161863 -0.910379 -0.380801
-0.0451312 -0.191178 0.481029 0 0 1
-0.210544 0.186587 0.148559 -0.690868 0.650493 0.315532
-0.269843 -0.0840164 0.460987 0 0 -1
-0.295737 -0.27291 0.481029 0 0 1
-0.194336 -0.178271 0.163679 0.850298 -0.507042 0.141073
0.206896 0.0648926 0.460987 0 0 -1
-0.233739 -0.13326 0.481029 0 0 1
-0.106125 -0.110846 0.460987 0 0 -1
-0.243679 -0.0335549 0.460987 0 0 -1
0.119281 0.250006 0.481029 0 0 1
-0.0409674 0.131174 0.460987 0 0 -1
-0.254852 -0.060149 0.481029 0 0 1
-0.19597 0.0776443 0.390899 -0.99198 0.0718514 0.103987
0.135534 -0.139996 0.460987 0 0 -1
-0.282336 -0.228652 0.460987 0 0 -1
0.0427869 -0.0158329 0.432002 0 -0.528009 -0.849239
-0.0679112 -0.0348794 0.481029 0 0 1
0.202383 -0.223147 0.0244618 -0.99207 0.0710519 -0.103673
0.0351818 -0.139028 0.481029 0 0 1
0.268619 0.0475821 0.460987 0 0 -1
0.284637 0.28915 0.46842 0 0.263108 -0.964766
-0.219826 -0.0599075 0.481029 0 0 1
-0.0775473 -0.295155 0.470058 0 -0.263108 -0.964766
-0.194228 -0.0781821 0.362444 -0.688988 0.68841 -0.226689
0.0339978 -0.116404 0.460987 0 0 -1
-0.272995 0.2865 0.467698 0 0.263108 -0.964766
-0.280317 0.240697 0.481029 0 0 1
0.147308 -0.267214 0.481029 0 0 1
0.0206471 -0.298876 0.471071 0 -0.257722 -0.966219
0.293628 0.120018 0.460987 0 0 -1
-0.130021 -0.290823 0.468877 0 -0.263108 -0.964766
0.275763 0.283149 0.466784 0 0.263108 -0.964766
-0.0646753 0.00887484 0.431589 0 0 -1
-0.0260543 0.110153 0.481029 0 0 1
-0.0808919 -0.0127991 0.431589 0 0 -1
0.11994 -0.101174 0.460987 0 0 -1
0.245576 0.272309 0.481029 0 0 1
0.0104636 0.143477 0.460987 0 0 -1
0.178902 -0.162668 0.460987 0 0 -1
-0.253279 0.0471081 0.481029 0 0 1
0.188652 -0.128991 0.295903 -0.457617 -0.835651 0.303766
-0.0838819 -0.00316346 0.460987 0 0 -1
-0.0395549 0.111775 0.460987 0 0 -1
-0.241622 0.115505 0.460987 0 0 -1
-0.154779 -0.0486359 0.481029 0 0 1
-0.061339 -0.110917 0.481029 0 0 1
-0.0882732 -0.198034 0.460987 0 0 -1
-0.0266103 -0.205566 0.460987 0 0 -1
-0.0588807 0.172866 0.481029 0 0 1
0.18253 -0.0403288 0.436487 0 -0.375262 -0.926919
0.316574 -0.104474 0.468752 0.563296 0 -0.826255
-0.0508257 -0.294953 0.470003 0 -0.263108 -0.964766
-0.193747 0.115052 0.460544 -1 0 0
0.31458 0.0551069 0.481029 0 0 1
-0.148773 0.163693 0.460987 0 0 -1
0.157934 0.300643 0.477795 0 1 0
-0.185318 -0.0717572 0.438421 -0.456093 -0.812383 0.363336
-0.079327 -0.129201 0.481029 0 0 1
-0.0329744 0.0526523 0.481029 0 0 1
0.183557 -0.196658 0.481029 0 0 1
0.0803147 0.230873 0.460987 0 0 -1
-0.186923 0.158897 0.460987 0 0 -1
0.28381 -0.191975 0.481029 0 0 1
-0.236579 -0.164581 0.481029 0 0 1
0.213513 -0.194778 0.124715 0.850185 -0.462547 0.251466
-0.229603 0.0537761 0.460987 0 0 -1
0.11368 0.272983 0.481029 0 0 1
0.212922 0.152593 0.460987 0 0 -1
-0.224902 0.228054 0.460987 0 0 -1
0.0393452 -0.0167024 0.447014 0 -1 0
0.261334 0.228079 0.481029 0 0 1
-0.212306 0.163622 0.168527 -0.946887 -0.316537 -0.0566514
-0.0939118 -0.0580096 0.460987 0 0 -1
-0.205162 0.130578 0.238807 -0.849559 -0.50814 -0.141577
-0.178907 0.101202 0.343943 0.946832 0.316691 0.0567157
-0.190289 0.0738556 0.425324 -0.689802 0.651474 0.315839
0.241945 0.0744331 0.481029 0 0 1
-0.0846401 -0.029896 0.460987 0 0 -1
0.144577 -0.0426916 0.481029 0 0 1
-0.191199 -0.119634 0.253857 0.459261 0.810776 -0.362934
-0.299585 0.140544 0.481029 0 0 1
-0.228125 -0.133711 0.481029 0 0 1
-0.219046 0.0196632 0.481029 0 0 1
0.23283 -0.27453 0.481029 0 0 1
-0.0504067 -0.0167024 0.446621 0 -1 0
-0.188025 0.070828 0.372171 -0.161829 -0.918888 -0.3598
-0.0217884 -0.0624719 0.481029 0 0 1
-0.24993 0.0472214 0.481029 0 0 1
-0.246174 -0.177844 0.460987 0 0 -1
-0.223797 -0.293722 0.481029 0 0 1
-0.128169 0.212595 0.481029 0 0 1
0.192154 -0.0674802 0.429938 0.946935 -0.266658 0.179464
-0.308553 -0.129657 0.463282 -0.563349 0 -0.826219
-0.0922227 -0.279649 0.465829 0 -0.263108 -0.964766
0.0425513 0.232308 0.481029 0 0 1
-0.216256 -0.174569 0.460987 0 0 -1
-0.283826 -0.0830811 0.481029 0 0 1
0.268699 0.288878 0.468346 0 0.263108 -0.964766
0.183308 0.0408864 0.460987 0 0 -1
0.2592 0.112153 0.481029 0 0 1
0.175505 0.201051 0.460987 0 0 -1
-0.172678 0.211413 0.460987 0 0 -1
-0.186252 0.130827 0.245464 0.946944 -0.266638 -0.179447
-0.0660826 0.282602 0.466634 0 0.263108 -0.964766
-0.178515 -0.0888813 0.481029 0 0 1
0.0404813 0.214718 0.481029 0 0 1
0.114133 0.0811428 0.460987 0 0 -1
0.184477 -0.131562 0.263339 -0.992038 -0.123448 -0.0249328
-0.0487193 0.196337 0.481029 0 0 1
0.320687 0.269724 0.476981 1 0 0
-0.195049 -0.107232 0.346092 -0.69084 -0.650523 0.315532
0.19449 0.17654 0.170822 -0.84971 0.507915 0.141479
-0.189738 -0.0770048 0.420037 -0.69084 -0.650523 0.315532
-0.175845 0.203526 0.460987 0 0 -1
0.125604 -0.0119859 0.431589 0 0 -1
-0.00660312 0.132222 0.481029 0 0 1
-0.190632 0.079888 0.41213 -0.689802 0.651474 0.315839
0.0648016 0.247853 0.460987 0 0 -1
0.311528 0.266514 0.465311 0.563296 0 -0.826255
0.220421 -0.122467 0.460987 0 0 -1
-0.233943 0.120832 0.481029 0 0 1
-0.208847 -0.0400111 0.460987 0 0 -1
0.315456 -0.0537887 0.481029 0 0 1
0.232898 0.120021 0.460987 0 0 -1
0.120917 -0.0597744 0.481029 0 0 1
-0.283662 0.254679 0.481029 0 0 1
0.251545 -0.0576327 0.460987 0 0 -1
-0.0131339 0.234632 0.460987 0 0 -1
-0.0235855 0.00321844 0.460987 0 0 -1
0.207468 0.126181 0.460987 0 0 -1
-0.201213 0.220465 0.0376346 0.992031 0.123507 -0.0249032
-0.185979 0.210896 0.460987 0 0 -1
-0.299224 0.109368 0.481029 0 0 1
0.288277 -0.29183 0.481029 0 0 1
-0.195352 0.0370902 0.451573 -1 0 0
-0.0975304 -0.192293 0.481029 0 0 1
0.0919762 0.176917 0.460987 0 0 -1
-0.320032 -0.244226 0.471107 -0.554229 0 -0.832364
-0.195352 0.0492888 0.456737 -1 0 0
0.0228975 0.0163761 0.432597 0 0.848812 -0.528694
-0.0374121 -0.135804 0.481029 0 0 1
0.203101 -0.269455 0.463049 0 -0.263108 -0.964766
0.279325 0.283212 0.481029 0 0 1
0.0473362 0.159513 0.460987 0 0 -1
-0.171878 -0.27211 0.463773 0 -0.263108 -0.964766
-0.117431 -0.222649 0.460987 0 0 -1
-0.200538 -0.125306 0.240085 -0.459415 0.834832 -0.303303
0.307403 -0.279463 0.481029 0 0 1
-0.194947 0.281287 0.466276 0 0.263108 -0.964766
0.170765 -0.00735008 0.430344 -1 0 0
-0.175622 -0.00833136 0.481029 0 0 1
0.307763 -0.150787 0.481029 0 0 1
-0.222824 -0.222263 0.0166834 -0.946887 0.316537 -0.0566514
0.255009 0.283794 0.481029 0 0 1
-0.0887618 0.00525363 0.431589 0 0 -1
-0.11354 -0.0551886 0.460987 0 0 -1
-0.0386235 0.088592 0.460987 0 0 -1
-0.161677 0.135731 0.481029 0 0 1
0.0620061 -0.00347564 0.431589 0 0 -1
-0.195352 0.0247978 0.432542 -1 0 0
0.231783 0.105449 0.481029 0 0 1
-0.00115049 0.167989 0.481029 0 0 1
0.0575241 -0.234955 0.481029 0 0 1
-0.123754 -0.00699851 0.460987 0 0 -1
-0.200617 -0.214395 0.0717067 0.850298 -0.507042 0.141073
0.288818 -0.297555 0.470712 0 -0.263108 -0.964766
0.282376 -0.281999 0.46647 0 -0.263108 -0.964766
0.289366 0.243587 0.481029 0 0 1
0.190886 0.160204 0.207825 -0.850298 0.507042 0.141073
0.248494 -0.149897 0.460987 0 0 -1
0.195311 -0.0581139 0.444633 0.998773 -0.0182025 -0.0460664
-0.19565 0.196414 0.460987 0 0 -1
-0.0474939 -0.264278 0.461637 0 -0.263108 -0.964766
0.233905 0.230624 0.460987 0 0 -1
-0.282467 0.175533 0.481029 0 0 1
-0.212434 0.271153 0.463512 0 0.263108 -0.964766
0.187072 -0.16601 0.481029 0 0 1
-0.0944631 -0.09954 0.481029 0 0 1
0.175143 0.0252557 0.481029 0 0 1
0.233108 0.225706 0.481029 0 0 1
-0.0770939 0.30036 0.480041 0 0.704193 0.710008
0.0830598 -0.248496 0.460987 0 0 -1
-0.0283396 -0.126042 0.481029 0 0 1
-0.189919 0.13645 0.277293 0.457617 0.835651 0.303766
0.292212 -0.0348479 0.481029 0 0 1
0.191408 0.19479 0.460987 0 0 -1
-0.178761 0.0586897 0.40573 0.45758 -0.81163 -0.36315
0.206455 0.157857 0.216487 0.850185 0.462547 0.251466
0.279623 0.255858 0.481029 0 0 1
0.203591 0.140685 0.202381 0.459415 -0.834832 -0.303303
0.100482 -0.231473 0.481029 0 0 1
-0.053245 0.201883 0.481029 0 0 1
-0.0458699 0.244946 0.481029 0 0 1
0.296852 0.300643 0.473646 0 1 0
-0.207695 0.238014 0.0244349 0.690455 0.687144 0.226066
0.198396 0.0901439 0.346596 0.947121 -0.315885 -0.0563798
0.019688 -0.217833 0.460987 0 0 -1
0.223096 -0.186394 0.481029 0 0 1
-0.310177 0.185494 0.464389 -0.563349 0 -0.826219
-0.188675 0.0833156 0.340578 0.162736 -0.910225 -0.380799
0.182719 -0.114166 0.288866 -0.94712 0.266138 -0.179262
0.232081 0.170251 0.481029 0 0 1
0.0900191 0.164488 0.481029 0 0 1
0.00408807 0.233372 0.481029 0 0 1
-0.197995 -0.111592 0.330185 -0.849366 -0.46381 0.251907
0.15322 -0.0167024 0.435207 0 -1 0
0.0600061 0.0135534 0.460987 0 0 -1
0.117399 0.0189981 0.460987 0 0 -1
0.199651 -0.0744309 0.460987 0 0 -1
-0.219582 -0.242778 0.0129266 -0.69087 -0.650495 0.315523
0.30705 -0.103087 0.462258 0.563296 0 -0.826255
-0.188042 -0.26332 0.461376 0 -0.263108 -0.964766
0.00396183 0.0407214 0.481029 0 0 1
0.134958 -0.143469 0.481029 0 0 1
0.0547454 -0.171273 0.460987 0 0 -1
-0.06153 0.110239 0.481029 0 0 1
0.266195 -0.294589 0.481029 0 0 1
0.188683 -0.122119 0.252907 -0.69035 0.650971 -0.315679
-0.226765 -0.183424 0.460987 0 0 -1
0.142528 0.00371492 0.431589 0 0 -1
-0.306784 -0.0461149 0.481029 0 0 1
-0.117422 0.019628 0.481029 0 0 1
-0.195721 0.174213 0.181788 0.690009 0.687528 0.226259
-0.118747 -0.109015 0.460987 0 0 -1
0.206084 -0.0166764 0.460987 0 0 -1
-0.0901442 0.126124 0.460987 0 0 -1
0.232589 -0.0949863 0.481029 0 0 1
0.0996956 0.287017 0.467839 0 0.263108 -0.964766
-0.199189 0.199546 0.0750977 0.946545 -0.267761 -0.179882
0.201596 -0.218905 0.0613954 -0.850298 -0.507042 0.141073
0.290491 0.0965481 0.460987 0 0 -1
-0.195078 0.0775352 0.399488 -0.992055 0.0711828 0.103728
-0.312909 0.300643 0.474247 0 1 0
0.286017 -0.109218 0.460987 0 0 -1
-0.288471 -0.0458398 0.481029 0 0 1
-0.137198 0.107719 0.481029 0 0 1
0.132395 -0.024185 0.481029 0 0 1
-0.265157 -0.278642 0.465555 0 -0.263108 -0.964766
0.0200923 0.257106 0.481029 0 0 1
0.172368 -0.115827 0.460196 -1 0 0
-0.254485 0.283539 0.481029 0 0 1
0.0810289 0.136096 0.481029 0 0 1
-0.202769 0.177286 0.460987 0 0 -1
0.179711 0.0698676 0.444179 -0.160743 0.9193 0.359233
0.203796 -0.133776 0.269771 0.850301 -0.462368 0.251404
-0.194139 -0.144796 0.259312 0.163079 -0.918729 0.359641
-0.00986829 -0.0948044 0.481029 0 0 1
0.135533 0.286914 0.46781 0 0.263108 -0.964766
-0.0646465 0.118707 0.460987 0 0 -1
0.181776 0.0747972 0.443257 -0.107023 -0.373368 0.921489
-0.0432344 0.0105231 0.460987 0 0 -1
0.184862 0.0894963 0.481029 0 0 1
0.0673389 0.280351 0.481029 0 0 1
0.0328823 0.197832 0.481029 0 0 1
0.175788 0.0848769 0.377908 -0.992038 0.123448 -0.0249328
-0.138733 0.252701 0.460987 0 0 -1
-0.0359664 0.0324815 0.481029 0 0 1
-0.313006 0.11521 0.481029 0 0 1
0.109069 0.300556 0.472686 0 0.966113 -0.25812
-0.0218137 0.279669 0.481029 0 0 1
-0.0786241 -0.0755677 0.481029 0 0 1
0.220765 -0.168975 0.481029 0 0 1
0.166326 0.0344155 0.460987 0 0 -1
0.0701726 0.0139045 0.431589 0 0 -1
-0.14598 0.256283 0.460987 0 0 -1
-0.28585 0.133598 0.460987 0 0 -1
-0.309001 -0.297571 0.481029 0 0 1
0.314162 -0.149757 0.467107 0.563296 0 -0.826255
-0.230954 -0.0217765 0.460987 0 0 -1
-0.190636 0.147248 0.460987 0 0 -1
-0.20687 0.190702 0.0761165 0.162736 -0.910225 -0.380799
-0.0106054 0.0491306 0.481029 0 0 1
-0.263111 -0.178737 0.460987 0 0 -1
0.320459 0.0151847 0.471711 0.928474 0 -0.371397
0.299936 -0.0971017 0.481029 0 0 1
0.00494131 0.0334948 0.460987 0 0 -1
0.195352 -0.000868589 0.434019 1 0 0
-0.0282246 0.0150124 0.481029 0 0 1
0.178549 -0.124371 0.460987 0 0 -1
-0.168958 -0.166592 0.460987 0 0 -1
0.0892361 -0.18833 0.460987 0 0 -1
-0.176579 -0.0809055 0.37069 0.946944 0.266638 -0.179447
0.234003 -0.138454 0.460987 0 0 -1
0.169159 -0.030378 0.481029 0 0 1
-0.0721809 -0.0167024 0.445896 0 -1 0
0.255794 0.295335 0.470107 0 0.263108 -0.964766
0.249506 0.233013 0.460987 0 0 -1
-0.121242 -0.0554723 0.481029 0 0 1
-0.218402 0.147413 0.460987 0 0 -1
-0.0462435 -0.00407588 0.481029 0 0 1
-0.0854444 -0.0508422 0.460987 0 0 -1
-0.222892 0.221403 0.033616 -0.992125 -0.122684 0.025239
-0.0782942 -0.164692 0.460987 0 0 -1
-0.0862397 0.297282 0.470638 0 0.263108 -0.964766
0.0217884 0.166737 0.481029 0 0 1
-0.200533 -0.138693 0.269221 -0.69087 -0.650495 0.315523
-0.294185 -0.0329991 0.460987 0 0 -1
0.162897 0.21858 0.460987 0 0 -1
-0.197662 -0.200218 0.0853333 0.992071 0.071052 -0.103668
0.285512 0.210645 0.460987 0 0 -1
-0.304728 -0.0570835 0.481029 0 0 1
0.0368337 -0.106103 0.481029 0 0 1
-0.200171 0.198717 0.0719415 0.850123 -0.462643 -0.251498
-0.155486 -0.275724 0.464759 0 -0.263108 -0.964766
0.177548 0.0466806 0.481029 0 0 1
0.113772 0.0837282 0.481029 0 0 1
-0.310531 0.27933 0.481029 0 0 1
-0.183717 0.148453 0.460987 0 0 -1
-0.0295586 0.14583 0.460987 0 0 -1
0.18583 0.0858804 0.40491 0.163125 0.910154 0.380802
0.217924 -0.0136967 0.460987 0 0 -1
-0.215235 -0.272273 0.481029 0 0 1
-0.0551219 0.0113186 0.460987 0 0 -1
0.182313 -0.0537965 0.460987 0 0 -1
0.255567 0.00394163 0.481029 0 0 1
-0.0823219 0.0628299 0.481029 0 0 1
-0.103436 0.296797 0.470506 0 0.263108 -0.964766
-0.0420236 -0.170126 0.460987 0 0 -1
0.210626 0.040282 0.460987 0 0 -1
-0.200327 0.111406 0.32154 -0.94676 0.267152 0.179651
-0.191919 0.170665 0.173301 0.946477 0.317672 0.0571486
-0.279016 0.0580994 0.460987 0 0 -1
-0.195808 0.259354 0.481029 0 0 1
0.177462 0.0483301 0.460987 0 0 -1
-0.120915 -0.0151462 0.481029 0 0 1
-0.165571 0.0199049 0.460987 0 0 -1
0.213624 -0.170463 0.481029 0 0 1
-0.19473 -0.186366 0.126748 0.992031 -0.123507 -0.0249032
-0.202755 -0.222812 0.0216999 0.946545 0.267761 -0.179882
-0.0563917 -0.138639 0.481029 0 0 1
-0.0423587 -0.108675 0.481029 0 0 1
0.0854952 0.0852232 0.481029 0 0 1
