0.132434 -0.075193 0.286807 0 0 -1
-0.00572446 -0.00448129 0.286807 0 0 -1
-0.114578 0.0180988 0.286807 0 0 -1
-0.385098 -0.0512574 0.297158 0 0 1
0.101326 0.126379 0.297158 0 0 1
0.232822 -0.176297 0.286807 0 0 -1
-0.106429 -0.117732 0.286807 0 0 -1
0.161488 -0.107248 0.297158 0 0 1
0.331671 0.0574382 0.286807 0 0 -1
0.253702 0.106836 0.286807 0 0 -1
-0.261497 -0.000218198 0.297158 0 0 1
-0.292275 0.110997 0.172673 -0.00471458 -0.98636 -0.164533
-0.0589071 -0.082955 0.297158 0 0 1
0.0417056 -0.0758324 0.275645 0 0.382473 0.923967
0.310166 0.0398677 0.297158 0 0 1
-0.0851253 0.106833 0.286807 0 0 -1
-0.408662 0.0167645 0.297158 0 0 1
-0.145459 -0.121275 0.297158 0 0 1
-0.238904 -0.134074 0.297158 0 0 1
0.048087 0.0550168 0.286807 0 0 -1
-0.238956 -0.0768364 0.297158 0 0 1
-0.398761 -0.126028 0.297158 0 0 1
0.0070875 -0.0941456 0.286807 0 0 -1
-0.35945 -0.14971 0.297158 0 0 1
0.0985026 0.18436 0.297158 0 0 1
-0.412467 0.101436 0.286807 0 0 -1
-0.106786 0.129516 0.286807 0 0 -1
-0.197461 -0.0199651 0.297158 0 0 1
-0.0610716 0.165909 0.297158 0 0 1
0.0184205 0.164136 0.286807 0 0 -1
0.430624 0.0457072 0.297158 0 0 1
-0.312929 0.0415023 0.297158 0 0 1
0.219888 0.0301606 0.297158 0 0 1
-0.0146124 -0.18198 0.287522 0 -0.298569 -0.954388
0.0374396 -0.0417115 0.297158 0 0 1
-0.0328495 -0.0674285 0.297158 0 0 1
-0.260692 0.162611 0.297158 0 0 1
-0.194532 -0.0648985 0.286807 0 0 -1
0.124318 -0.012291 0.286807 0 0 -1
-0.260717 0.0942472 0.297158 0 0 1
0.338714 -0.14291 0.00291869 0.944977 0.188026 0.267701
0.229846 -0.121809 0.286807 0 0 -1
0.252607 0.144276 0.286807 0 0 -1
-0.135894 0.0807289 0.27623 0 0.382455 0.923974
-0.318076 0.0784244 0.286807 0 0 -1
0.397193 0.0909093 0.286807 0 0 -1
-0.449075 -0.038142 0.28689 -0.298036 0 -0.954555
0.267453 -0.0205832 0.297158 0 0 1
0.0500618 0.14666 0.297158 0 0 1
-0.301995 0.128976 0.0918257 0.980741 0.139452 -0.136749
-0.113403 -0.185976 0.292942 0 -0.708537 0.705674
0.320538 -0.0568853 0.297158 0 0 1
-0.274842 0.00111329 0.255271 0.981366 0 -0.192146
0.271179 0.0598143 0.297158 0 0 1
-0.223933 0.0814901 0.286807 0 0 -1
0.315344 0.0855927 0.297158 0 0 1
0.439709 0.10283 0.286807 0 0 -1
0.172926 0.101785 0.297365 0 0 1
0.385494 0.120377 0.286807 0 0 -1
0.318653 -0.0733133 0.275254 0.728406 -0.568187 0.382869
-0.360383 0.186117 0.296113 0 0.708528 0.705683
0.278087 -0.168661 0.295532 -0.204963 -0.734434 0.64699
0.048623 -0.133396 0.297158 0 0 1
-0.352432 0.106543 0.286807 0 0 -1
-0.132038 -0.0109933 0.297158 0 0 1
0.136351 0.18158 0.287397 0 0.298569 -0.954388
0.34402 -0.0586271 0.286807 0 0 -1
-0.0386307 -0.0897136 0.297158 0 0 1
-0.285418 -0.0164263 0.297158 0 0 1
0.208621 -0.0793947 0.297158 0 0 1
0.372312 0.132797 0.286807 0 0 -1
0.117206 -0.0370556 0.286807 0 0 -1
-0.326093 -0.00401671 0.270167 -0.92397 0 -0.382464
-0.283538 0.0632554 0.274721 -0.990282 0 0.139077
-0.114949 -0.0466047 0.286807 0 0 -1
-0.288894 -0.0689272 0.297158 0 0 1
-0.446386 -0.00577791 0.286807 0 0 -1
-0.412774 -0.0903995 0.286807 0 0 -1
-0.334024 -0.0229197 0.286807 0 0 -1
0.2169 0.0815398 0.297158 0 0 1
-0.245241 -0.113227 0.286807 0 0 -1
0.0847333 -0.108712 0.297158 0 0 1
0.416685 -0.0481659 0.297158 0 0 1
-0.12713 0.127884 0.297158 0 0 1
0.376076 -0.123732 0.297158 0 0 1
-0.368798 -0.00155073 0.286807 0 0 -1
-0.196261 0.0806836 0.276249 0 0.382455 0.923974
-0.0118645 -0.111845 0.297158 0 0 1
0.250247 -0.147921 0.297158 0 0 1
-0.361947 -0.181661 0.287422 0 -0.298569 -0.954388
0.435397 -0.078415 0.286807 0 0 -1
0.0814485 -0.166359 0.297116 0 -0.776113 0.630594
-0.0840518 -0.0748773 0.273379 0 0.923926 0.382572
0.302192 0.121982 0.286807 0 0 -1
-0.384575 0.144421 0.286807 0 0 -1
-0.353782 0.165302 0.286807 0 0 -1
0.341189 0.115844 0.286807 0 0 -1
0.120548 -0.185453 0.293468 0 -0.708537 0.705674
0.298783 0.11269 0.1748 0.963065 0.191742 0.189055
-0.0726417 -0.10079 0.286807 0 0 -1
-0.319936 0.136062 0.0490132 -0.963122 0.191183 0.189326
0.350666 -0.00626168 0.286807 0 0 -1
-0.16058 0.164503 0.286807 0 0 -1
-0.160743 -0.16051 0.286807 0 0 -1
-0.286316 -0.0433906 0.257223 -0.981414 0 0.191901
0.126492 0.0556548 0.297158 0 0 1
0.164496 -0.186075 0.292843 0 -0.708537 0.705674
-0.0663909 -0.126051 0.286807 0 0 -1
0.350009 -0.186314 0.293838 0 -1 0
-0.345918 0.123909 0.297158 0 0 1
0.188514 -0.0614526 0.286807 0 0 -1
0.28697 -0.0705799 0.297158 0 0 1
0.267901 -0.0387224 0.286807 0 0 -1
0.139619 0.158776 0.297158 0 0 1
0.215036 -0.163465 0.286807 0 0 -1
0.284391 -0.100606 0.297158 0 0 1
-0.241191 0.169299 0.297158 0 0 1
-0.210399 0.0695183 0.297158 0 0 1
-0.0285749 0.153645 0.286807 0 0 -1
-0.0503839 -0.0570529 0.286807 0 0 -1
0.00160822 0.0494072 0.286807 0 0 -1
-0.0250171 0.0599186 0.286807 0 0 -1
0.455442 -0.11051 0.289026 1 0 0
-0.0978737 0.160217 0.297158 0 0 1
0.302136 0.186314 0.290969 0 1 0
0.32112 -0.0388926 0.2767 0.382374 0 0.924008
0.0100461 0.141107 0.297158 0 0 1
0.0915976 -0.0854152 0.286807 0 0 -1
0.368576 0.0425228 0.297158 0 0 1
-0.231382 0.0380588 0.297158 0 0 1
-0.281912 0.0203164 0.272854 0.109072 0 0.994034
0.0710148 -0.0463065 0.297158 0 0 1
0.302565 0.0964271 0.297158 0 0 1
0.443817 0.168344 0.294889 0.760285 0.649588 -0.00140386
0.374172 0.152726 0.297158 0 0 1
0.411317 0.0760612 0.297158 0 0 1
0.293255 -0.109308 0.182069 0.00472237 0.98636 -0.164534
0.433657 0.127524 0.297158 0 0 1
-0.355011 0.0889998 0.286807 0 0 -1
0.249298 0.0459036 0.286807 0 0 -1
0.40124 0.130454 0.297158 0 0 1
-0.206954 0.0259615 0.286807 0 0 -1
0.224166 -0.0409554 0.297158 0 0 1
0.350988 0.0841872 0.297158 0 0 1
0.19146 0.130804 0.297158 0 0 1
-0.413126 0.120364 0.297158 0 0 1
-0.139221 0.142533 0.297158 0 0 1
0.282419 -0.0561179 0.271409 0.981347 0 0.192244
0.196378 -0.127585 0.297158 0 0 1
0.090861 0.0900142 0.297158 0 0 1
-0.349889 -0.00117514 0.286807 0 0 -1
-0.0949301 0.115843 0.286807 0 0 -1
0.170275 -0.0863928 0.286807 0 0 -1
0.144953 0.0367365 0.297158 0 0 1
0.377045 -0.0268373 0.297158 0 0 1
0.452004 -0.0895125 0.287803 0.298528 0 -0.954401
-0.372168 0.159294 0.286807 0 0 -1
-0.308535 0.0170717 0.297158 0 0 1
0.106773 -0.140195 0.297158 0 0 1
-0.0182123 0.0735958 0.272623 0 -0.923934 0.382551
0.066817 0.164393 0.297158 0 0 1
0.30049 0.1519 0.286807 0 0 -1
0.0229679 -0.0700265 0.286807 0 0 -1
-0.311667 -0.0113145 0.297158 0 0 1
0.305069 0.119084 0.136294 0.963065 0.191742 0.189055
0.291784 0.135954 0.297158 0 0 1
0.292251 -0.117458 0.142491 -0.983141 0.063648 -0.171415
0.129673 0.114945 0.286807 0 0 -1
-0.289038 0.152275 0.297158 0 0 1
-0.193899 0.106399 0.291412 -0.980832 0.194853 0
-0.000565678 -0.0844855 0.272366 0 -0.924024 0.382334
0.0892797 -0.003066 0.286807 0 0 -1
0.366823 -0.0954312 0.286807 0 0 -1
0.274043 0.0120524 0.253629 -0.981395 0 -0.191999
-0.0871108 0.00476893 0.297158 0 0 1
0.0376713 0.0883139 0.297158 0 0 1
0.399449 -0.136944 0.286807 0 0 -1
-0.0690497 -0.186314 0.290051 0 -1 0
0.23408 -0.0130865 0.297158 0 0 1
0.0350544 -0.186314 0.289476 0 -1 0
-0.397597 -0.0684879 0.297158 0 0 1
0.338091 0.136392 0.286807 0 0 -1
0.386482 -0.0902072 0.297158 0 0 1
0.0598852 0.00676391 0.286807 0 0 -1
0.341038 -0.145028 0.286807 0 0 -1
0.271108 -0.0883221 0.268597 -0.981125 0.0137446 -0.192887
0.155583 -0.123448 0.286807 0 0 -1
-0.388343 0.184955 0.297158 0 0 1
0.0123967 -0.120794 0.297158 0 0 1
0.290764 0.0515372 0.297158 0 0 1
-0.0850249 -0.0471244 0.286807 0 0 -1
0.354159 -0.165869 0.286807 0 0 -1
0.0282134 -0.122113 0.286807 0 0 -1
0.0742804 -0.150303 0.286807 0 0 -1
-0.118144 0.07885 0.297158 0 0 1
-0.310823 -0.0357469 0.286807 0 0 -1
-0.250655 0.0081211 0.286807 0 0 -1
-0.334601 -0.144047 0.297158 0 0 1
0.280004 0.0800056 0.286807 0 0 -1
0.342916 -0.116242 0.286807 0 0 -1
-0.0495154 -0.121367 0.297158 0 0 1
0.265933 0.020364 0.297158 0 0 1
-0.221065 -0.00347643 0.297158 0 0 1
0.422425 -0.0973345 0.286807 0 0 -1
-0.447237 0.0813278 0.297158 0 0 1
-0.364707 0.0612683 0.297158 0 0 1
-0.160627 -0.0037577 0.286807 0 0 -1
0.0324446 0.171114 0.297158 0 0 1
-0.173757 -0.0321191 0.286807 0 0 -1
0.28237 0.0365538 0.283013 0.990281 0 0.139079
0.419237 -0.0705545 0.297158 0 0 1
0.382918 0.036006 0.286807 0 0 -1
0.134477 -0.0841717 0.273125 0 -0.924024 0.382334
0.272828 0.15317 0.286807 0 0 -1
0.284237 -0.029164 0.251905 0.108977 0 -0.994044
-0.321532 0.136744 0.286807 0 0 -1
0.0109699 0.0790237 0.297158 0 0 1
-0.192206 -0.154165 0.286807 0 0 -1
0.0668512 0.186314 0.293278 0 1 0
0.126571 0.0108101 0.297158 0 0 1
-0.283931 -0.0744301 0.271653 0 0.923926 -0.382572
0.122918 0.150113 0.286807 0 0 -1
-0.307661 -0.129053 0.00310527 0 0 -1
-0.300526 -0.0788174 0.27688 0 0.382473 0.923967
0.275681 0.00163688 0.297158 0 0 1
0.303123 0.154839 0.00174195 -0.800904 0.535315 0.268311
0.280996 0.0622885 0.27331 0 0 -1
0.228435 0.0119804 0.286807 0 0 -1
-0.0611836 0.0924164 0.286807 0 0 -1
-0.284818 0.0338953 0.264884 -0.981414 0 0.191901
-0.0089471 0.101307 0.286807 0 0 -1
-0.0887987 0.0827136 0.269645 0 0.923935 -0.382549
0.42183 -0.130084 0.286807 0 0 -1
0.276989 -0.107453 0.250287 -0.802857 -0.595322 -0.0318164
-0.237437 -0.0370688 0.297158 0 0 1
0.136303 -0.154827 0.297158 0 0 1
-0.174335 0.108449 0.286807 0 0 -1
-0.0812265 -0.16828 0.294752 0 -0.776113 0.630594
-0.322388 -0.0580215 0.286807 0 0 -1
-0.442746 0.112656 0.286807 0 0 -1
0.307795 0.130417 0.0567348 0.00488571 -0.986364 -0.164506
0.148962 -0.0715086 0.297158 0 0 1
-0.147973 0.0374279 0.286807 0 0 -1
-0.0899037 0.0680216 0.286807 0 0 -1
-0.268107 0.0430001 0.297158 0 0 1
0.0981912 0.0522154 0.297158 0 0 1
0.315981 -0.122381 0.297158 0 0 1
-0.0275052 -0.163583 0.297158 0 0 1
-0.308817 -0.0906472 0.297158 0 0 1
-0.379769 -0.146973 0.297158 0 0 1
0.0414484 -0.0244948 0.297158 0 0 1
-0.296666 0.0760425 0.276132 0 -0.382463 0.923971
0.0824921 0.116225 0.297158 0 0 1
-0.0674396 0.0260585 0.297158 0 0 1
0.0745003 -0.129521 0.286807 0 0 -1
-0.288981 -0.114858 0.213722 -0.208916 -0.958467 0.19415
0.257618 -0.0803738 0.286807 0 0 -1
0.360882 0.186314 0.294997 0 1 0
0.20848 0.0760908 0.286807 0 0 -1
-0.00455183 0.149047 0.286807 0 0 -1
-0.364421 -0.0814599 0.297158 0 0 1
0.238842 -0.0963867 0.286807 0 0 -1
-0.298898 0.118823 0.125951 -0.00471458 -0.98636 -0.164533
-0.401523 0.151108 0.297158 0 0 1
0.252514 -0.186314 0.289089 0 -1 0
-0.0180575 0.130942 0.286807 0 0 -1
-0.15082 0.176594 0.297158 0 0 1
-0.398731 0.057359 0.286807 0 0 -1
0.435858 0.0728867 0.286807 0 0 -1
-0.0506945 0.11689 0.297158 0 0 1
0.307916 -0.0104802 0.297158 0 0 1
0.170227 0.0393981 0.286807 0 0 -1
0.378944 -0.073552 0.286807 0 0 -1
-0.270636 -0.0687863 0.286807 0 0 -1
-0.0903378 0.175151 0.286807 0 0 -1
-0.251179 0.134884 0.286807 0 0 -1
0.151334 0.00316025 0.297158 0 0 1
0.287493 -0.13815 0.297158 0 0 1
0.393483 -0.0673657 0.297158 0 0 1
-0.110677 -0.0223991 0.297158 0 0 1
-0.276532 -0.095335 0.245467 0.97519 0.0453781 -0.216667
-0.277442 -0.144134 0.286807 0 0 -1
-0.444802 -0.141019 0.286807 0 0 -1
0.295576 0.0779586 0.297158 0 0 1
-0.0709913 -0.0302101 0.297158 0 0 1
-0.185518 0.0351643 0.286807 0 0 -1
0.282284 0.0497821 0.251691 0.108977 0 -0.994044
0.324155 -0.0898739 0.297158 0 0 1
-0.28258 -0.0551403 0.281542 -0.990282 0 0.139077
-0.279707 -0.0990811 0.285888 0.160337 0.162869 0.973533
-0.305533 -0.125379 0.0860436 -0.00479115 0.986362 -0.164523
0.257191 0.126767 0.286807 0 0 -1
0.400616 0.186314 0.292151 0 1 0
0.202736 -0.0788908 0.276911 0 0.382473 0.923967
0.13844 -0.105806 0.286807 0 0 -1
0.340462 0.153537 0.286807 0 0 -1
-0.256868 -0.031426 0.286807 0 0 -1
-0.415885 -0.159181 0.286807 0 0 -1
-0.0886346 -0.030033 0.297158 0 0 1
0.115623 0.0305389 0.286807 0 0 -1
0.347587 0.102507 0.297158 0 0 1
-0.156987 0.087413 0.297158 0 0 1
0.28073 0.100503 0.297158 0 0 1
-0.270146 0.0678463 0.297158 0 0 1
-0.290063 0.0767646 0.297158 0 0 1
0.216255 -0.0078768 0.297158 0 0 1
0.176257 -0.136009 0.286807 0 0 -1
0.175964 0.0632274 0.286807 0 0 -1
0.401743 -0.00122128 0.286807 0 0 -1
0.360059 0.150066 0.286807 0 0 -1
0.317032 0.0578117 0.275929 -0.376667 -0.0664947 0.923959
0.363211 0.00491935 0.286807 0 0 -1
-0.0245513 0.108891 0.286807 0 0 -1
0.26425 -0.106632 0.286807 0 0 -1
-0.112602 -0.148126 0.286807 0 0 -1
-0.226714 -0.0498697 0.286807 0 0 -1
-0.11336 -0.0715789 0.297158 0 0 1
0.18767 0.0932872 0.297365 0 0 1
-0.383053 0.0267685 0.286807 0 0 -1
-0.272018 -0.0990895 0.276045 0.980629 -0.138536 -0.138475
-0.00695494 0.184753 0.297158 0 0 1
0.373116 0.0782703 0.297158 0 0 1
-0.214018 -0.0797139 0.266901 0 -0.382374 -0.924007
0.0237219 0.0534449 0.297158 0 0 1
-0.273736 0.186314 0.289466 0 1 0
0.166685 0.114421 0.286807 0 0 -1
-0.0227949 0.037711 0.286807 0 0 -1
-0.268471 0.0567378 0.281017 0.990235 0 -0.139411
-0.225349 -0.183983 0.293846 0 0 1
0.0980951 0.0822174 0.268446 0 0.923935 -0.382549
-0.38492 0.0852382 0.286807 0 0 -1
-0.0157478 -0.0430065 0.297158 0 0 1
0.0534567 -0.0702262 0.286807 0 0 -1
0.241394 0.0824869 0.274855 0 0.923935 0.382549
0.412618 -0.0351477 0.286807 0 0 -1
0.290291 -0.184531 0.293846 0 0 1
-0.262685 -0.168721 0.294209 0 -0.776113 0.630594
-0.223712 -0.152542 0.286807 0 0 -1
-0.301766 -0.115092 0.147607 -0.00472371 0.98636 -0.164537
-0.133604 0.161785 0.297158 0 0 1
0.316972 0.14299 0.02251 0.00745926 0.984119 0.177351
-0.378301 0.126991 0.297158 0 0 1
-0.305627 0.0919803 0.297158 0 0 1
0.443288 0.0364484 0.297158 0 0 1
-0.129574 -0.0747864 0.270792 0 0.923926 -0.382572
0.199964 -0.0305935 0.286807 0 0 -1
-0.293603 -0.171728 0.286807 0 0 -1
-0.00747272 -0.130841 0.286807 0 0 -1
0.273247 -0.0941653 0.286807 0 0 -1
-0.262356 -0.130545 0.297158 0 0 1
0.2707 0.0139701 0.27331 0 0 -1
0.270981 0.0451902 0.269279 -0.981395 0 -0.191999
-0.437497 -0.0408183 0.297158 0 0 1
0.0560481 -0.0827196 0.268145 0 -0.382374 -0.924007
-0.187535 -0.0921969 0.286807 0 0 -1
-0.0784842 0.0942583 0.297158 0 0 1
-0.337355 -0.0902174 0.297158 0 0 1
0.230619 0.170154 0.297158 0 0 1
-0.386951 -0.0852837 0.286807 0 0 -1
-0.252553 -0.069594 0.286807 0 0 -1
0.0324159 -0.0556281 0.286807 0 0 -1
-0.327513 0.112701 0.286807 0 0 -1
0.12085 0.103919 0.297158 0 0 1
0.232391 -0.140051 0.286807 0 0 -1
0.353976 -0.142299 0.297158 0 0 1
-0.129931 0.0740469 0.286807 0 0 -1
-0.162453 -0.177977 0.293846 0 0 1
-0.161385 0.0966778 0.286807 0 0 -1
-0.452453 -0.076487 0.287945 -0.298036 0 -0.954555
-0.269238 0.0882588 0.275565 0.990435 0.000163007 -0.137978
-0.385218 0.109928 0.297158 0 0 1
-0.402796 -0.169003 0.286807 0 0 -1
0.42579 -0.0225755 0.286807 0 0 -1
-0.149324 0.127446 0.297158 0 0 1
-0.301398 0.174278 0.286807 0 0 -1
-0.439833 -0.117292 0.286807 0 0 -1
-0.273159 -0.0680485 0.263866 0.981366 0 -0.192146
0.048308 0.0284774 0.286807 0 0 -1
0.296779 0.00165775 0.297158 0 0 1
0.125335 -0.0960836 0.297158 0 0 1
0.162019 0.059865 0.297158 0 0 1
-0.0322126 -0.129716 0.297158 0 0 1
-0.19601 -0.168806 0.294105 0 -0.776113 0.630594
0.194753 -0.0983154 0.297158 0 0 1
-0.326887 0.173683 0.297158 0 0 1
-0.106045 0.10601 0.297158 0 0 1
-0.0826047 0.0454989 0.286807 0 0 -1
0.32182 -0.172975 0.286807 0 0 -1
-0.315335 -0.129867 0.297158 0 0 1
0.123551 -0.0573805 0.286807 0 0 -1
0.240193 0.15383 0.297158 0 0 1
-0.131546 -0.158487 0.297158 0 0 1
-0.267501 0.145802 0.297158 0 0 1
-0.438078 0.072133 0.286807 0 0 -1
0.143083 0.0618568 0.297158 0 0 1
0.167604 -0.0287105 0.297158 0 0 1
0.360882 0.0255897 0.286807 0 0 -1
0.300144 -0.149978 0.00208752 -0.944815 -0.187602 -0.26857
-0.305716 -0.143286 0.297158 0 0 1
0.294731 -0.154597 0.286807 0 0 -1
0.00756025 -0.141063 0.297158 0 0 1
-0.318522 -0.139499 0.0209185 0.009674 0.984007 -0.177868
0.0515746 -0.00678734 0.297158 0 0 1
-0.0391945 -0.144236 0.286807 0 0 -1
0.383588 0.181801 0.287466 0 0.298569 -0.954388
-0.299131 0.00987544 0.286807 0 0 -1
-0.329963 0.0629634 0.286807 0 0 -1
-0.0443018 0.102193 0.286807 0 0 -1
0.125237 -0.14341 0.286807 0 0 -1
-0.0137652 -0.0770385 0.286807 0 0 -1
0.0518483 0.087213 0.286807 0 0 -1
0.449966 0.0087328 0.297158 0 0 1
-0.191318 0.180651 0.297158 0 0 1
-0.267709 -0.0131445 0.286428 0.990235 0 -0.139411
-0.214179 -0.158206 0.297158 0 0 1
0.0466484 0.129442 0.286807 0 0 -1
0.211228 -0.0928319 0.286807 0 0 -1
0.235239 0.0591775 0.297158 0 0 1
0.381422 -0.137282 0.286807 0 0 -1
0.0810277 -0.0505942 0.286807 0 0 -1
-0.217208 0.125298 0.297158 0 0 1
-0.158325 0.0516119 0.297158 0 0 1
-0.32185 -0.184462 0.288299 0 -0.298569 -0.954388
0.105923 -0.169918 0.286807 0 0 -1
0.0978487 0.0688669 0.297158 0 0 1
0.0686551 -0.0999223 0.297158 0 0 1
-0.0536313 0.0206772 0.286807 0 0 -1
-0.236706 0.18617 0.296059 0 0.708528 0.705683
0.358534 -0.0592078 0.297158 0 0 1
0.268276 0.031382 0.282379 -0.990244 0 -0.139345
0.153438 -0.159533 0.286807 0 0 -1
0.414121 0.10547 0.297158 0 0 1
-0.0778362 -0.15505 0.297158 0 0 1
0.308459 -0.138163 0.0745185 -0.224754 -0.966415 0.124611
0.315718 0.172061 0.297158 0 0 1
-0.291878 -0.119536 0.187059 0.224468 -0.966475 0.12466
0.346539 0.0261707 0.297158 0 0 1
-0.0634768 0.00380237 0.286807 0 0 -1
0.243064 0.0819093 0.297158 0 0 1
-0.206206 0.0102213 0.297158 0 0 1
0.425265 -0.173934 0.286807 0 0 -1
-0.157067 -0.117953 0.286807 0 0 -1
0.400662 -0.106778 0.297158 0 0 1
-0.424467 0.0119951 0.286807 0 0 -1
-0.253763 0.0471322 0.286807 0 0 -1
-0.262711 -0.0936093 0.286807 0 0 -1
0.439154 0.00760575 0.286807 0 0 -1
-0.309745 -0.113101 0.297158 0 0 1
-0.176135 0.146371 0.286807 0 0 -1
-0.201993 -0.1857 0.288686 0 -0.298569 -0.954388
-0.241376 0.11038 0.296893 0.980782 -0.195106 0
0.153819 0.0834517 0.272525 0 0.923935 0.382549
0.113756 0.122871 0.286807 0 0 -1
-0.0371309 0.170294 0.286807 0 0 -1
-0.267043 -0.021213 0.297158 0 0 1
-0.268 0.0187484 0.284362 0.990235 0 -0.139411
0.379733 0.0180159 0.286807 0 0 -1
-0.0791437 0.140319 0.286807 0 0 -1
-0.257876 -0.0745506 0.27259 0 0.923926 0.382572
0.44243 0.124111 0.286807 0 0 -1
-0.315002 0.143856 0.297158 0 0 1
0.124223 -0.0293081 0.297158 0 0 1
0.14576 0.10268 0.286807 0 0 -1
0.215412 -0.0693714 0.286807 0 0 -1
-0.26928 0.0714853 0.275272 0.990235 0 -0.139411
0.0522276 -0.184111 0.288189 0 -0.298569 -0.954388
0.330577 0.098622 0.297158 0 0 1
-0.299555 0.0449732 0.286807 0 0 -1
0.211894 0.128545 0.297158 0 0 1
0.450222 -0.0466397 0.297158 0 0 1
0.11879 0.183523 0.297158 0 0 1
0.409872 0.154482 0.286807 0 0 -1
-0.104715 -0.165776 0.297158 0 0 1
-0.268262 -0.049169 0.282501 0.990235 0 -0.139411
-0.241528 0.0248863 0.286807 0 0 -1
0.118315 0.0828142 0.269888 0 0.923935 -0.382549
-0.178492 0.100745 0.297365 0 0 1
0.0270764 -0.0819788 0.297158 0 0 1
0.28454 -0.0717584 0.260582 0.981347 0 0.192244
-0.167727 0.125031 0.286807 0 0 -1
-0.438887 0.146301 0.297158 0 0 1
0.18296 0.167556 0.297158 0 0 1
0.27377 -0.134534 0.286807 0 0 -1
0.272314 -0.0205648 0.262468 -0.981395 0 -0.191999
0.310433 0.131834 0.0959722 0.960693 0.201752 0.190694
0.26762 0.0471909 0.287871 0 0 1
0.424998 0.0656286 0.297158 0 0 1
-0.374511 -0.0414714 0.286807 0 0 -1
-0.316998 0.0564521 0.273201 0.923883 0 0.382676
-0.209314 -0.0968054 0.297158 0 0 1
0.067722 0.0606565 0.297158 0 0 1
-0.399013 -0.0473422 0.297158 0 0 1
0.100255 0.107983 0.297158 0 0 1
-0.00369191 -0.0436592 0.286807 0 0 -1
0.0523682 -0.145221 0.286807 0 0 -1
0.0804388 -0.0244455 0.286807 0 0 -1
0.352537 -0.0250032 0.297158 0 0 1
-0.159117 -0.0695466 0.297158 0 0 1
-0.25557 -0.0939534 0.297158 0 0 1
0.223549 0.0959343 0.292028 0 1 0
-0.212099 -0.071776 0.286807 0 0 -1
0.134098 0.135509 0.286807 0 0 -1
0.419577 0.00497411 0.297158 0 0 1
-0.378233 -0.120237 0.297158 0 0 1
0.0291242 0.018841 0.286807 0 0 -1
-0.0111872 -0.161359 0.286807 0 0 -1
0.0690911 0.081482 0.286807 0 0 -1
-0.127757 -0.121631 0.286807 0 0 -1
0.3487 0.00817855 0.297158 0 0 1
-0.079266 0.123467 0.297158 0 0 1
-0.233182 0.140457 0.297158 0 0 1
0.437982 -0.154427 0.286807 0 0 -1
0.326179 0.140269 0.00502294 0.234698 -0.157035 0.9593
-0.275018 0.168075 0.286807 0 0 -1
0.28679 -0.0864 0.286807 0 0 -1
-0.138566 0.0522593 0.297158 0 0 1
-0.39497 -0.00775868 0.286807 0 0 -1
-0.326951 -0.0814528 0.286807 0 0 -1
0.201432 0.138722 0.286807 0 0 -1
0.168896 0.151619 0.297158 0 0 1
0.418213 0.0368731 0.286807 0 0 -1
-0.334127 0.1579 0.00145564 -0.55537 0.831603 0
-0.237343 0.0759748 0.267848 0 -0.382463 -0.923971
-0.246339 -0.141517 0.286807 0 0 -1
-0.403987 -0.086185 0.297158 0 0 1
-0.435629 0.176244 0.295162 -0.647989 0.76165 0
-0.201498 0.122553 0.294075 0 1 0
-0.113312 0.159176 0.286807 0 0 -1
0.351078 0.05634 0.297158 0 0 1
0.267053 -0.108222 0.297158 0 0 1
0.241104 0.111732 0.297262 -0.980866 -0.194686 0
0.182961 -0.152739 0.286807 0 0 -1
-0.392098 -0.185707 0.288688 0 -0.298569 -0.954388
0.326819 -0.154331 0.286807 0 0 -1
-0.274729 -0.0311342 0.255847 0.981366 0 -0.192146
-0.401684 0.0283769 0.286807 0 0 -1
-0.312171 0.147015 0 0 0 1
-0.0335881 0.0763138 0.286807 0 0 -1
0.37442 -0.0608341 0.297158 0 0 1
0.300793 -0.131945 0.108911 -0.224754 -0.966415 0.124611
-0.28352 -0.0874586 0.274856 -0.990169 -0.00045473 0.139875
0.105644 0.143226 0.286807 0 0 -1
-0.0834833 -0.108779 0.297158 0 0 1
0.328501 0.0443658 0.297158 0 0 1
-0.307305 -0.127539 0.121786 -0.960725 -0.20162 0.190673
0.271883 -0.0417502 0.26467 -0.981395 0 -0.191999
0.192898 0.0405416 0.297158 0 0 1
-0.0373599 -0.0750331 0.270197 0 0.923926 -0.382572
0.0283568 -0.171381 0.293846 0 0 1
-0.234321 0.000618614 0.286807 0 0 -1
0.0145427 -0.109607 0.286807 0 0 -1
-0.282573 -0.0200174 0.281593 -0.990282 0 0.139077
0.00156321 0.0930734 0.297158 0 0 1
-0.170294 0.0256534 0.297158 0 0 1
-0.0515333 0.130212 0.286807 0 0 -1
0.388597 0.162153 0.297158 0 0 1
0.322499 -0.0219688 0.27613 0.382374 0 0.924008
-0.27502 0.0938727 0.254058 0.981631 -0.0209806 -0.189631
0.0119425 -0.00444225 0.286807 0 0 -1
-0.305568 -0.0479401 0.297158 0 0 1
-0.282681 0.111225 0.235953 0.224928 0.96638 0.124569
0.237228 -0.0790863 0.276991 0 0.382473 0.923967
0.0667446 -0.170127 0.286807 0 0 -1
0.356492 -0.0471289 0.286807 0 0 -1
0.317591 -0.143546 0.0401155 0.208229 -0.958634 0.194067
0.257278 0.012544 0.286807 0 0 -1
0.389999 -0.179491 0.286807 0 0 -1
-0.415078 -0.0506378 0.297158 0 0 1
-0.31863 -0.13806 0.0535471 -0.96319 -0.1912 0.188966
-0.131357 0.0978982 0.286807 0 0 -1
-0.232737 -0.117791 0.297158 0 0 1
-0.438079 0.026769 0.286807 0 0 -1
-0.438942 -0.128934 0.297158 0 0 1
-0.0477248 0.0515826 0.297158 0 0 1
-0.0686187 0.150922 0.297158 0 0 1
-0.176523 0.0492376 0.286807 0 0 -1
-0.0926682 -0.0865023 0.286807 0 0 -1
0.0153542 0.115394 0.286807 0 0 -1
0.426316 0.111933 0.286807 0 0 -1
-0.313045 -0.161957 0.286807 0 0 -1
0.455442 0.092279 0.292313 1 0 0
0.246392 0.0230371 0.297158 0 0 1
0.406302 -0.171086 0.286807 0 0 -1
0.116322 0.0699317 0.297158 0 0 1
-0.242187 0.0500669 0.297158 0 0 1
-0.150694 -0.0651696 0.286807 0 0 -1
-0.286529 -0.113039 0.286807 0 0 -1
0.190823 0.00912873 0.297158 0 0 1
-0.182568 -0.142547 0.297158 0 0 1
0.227921 0.0453022 0.286807 0 0 -1
-0.354006 0.0475421 0.297158 0 0 1
0.041517 -0.153176 0.297158 0 0 1
-0.255531 0.0686286 0.297158 0 0 1
-0.10128 0.145035 0.286807 0 0 -1
-0.402466 0.185164 0.288518 0 0.298569 -0.954388
0.403386 -0.119401 0.286807 0 0 -1
-0.0372824 -0.0140828 0.286807 0 0 -1
0.284341 0.0948484 0.26099 0.984505 -0.0189186 0.174331
0.140497 -0.0328522 0.297158 0 0 1
-0.026199 -0.149016 0.286807 0 0 -1
-0.292952 0.120694 0.286807 0 0 -1
0.22851 -0.162403 0.297158 0 0 1
-0.401969 0.13951 0.286807 0 0 -1
0.308751 -0.0972954 0.286807 0 0 -1
0.169911 0.0817714 0.297158 0 0 1
-0.149978 -0.167924 0.29519 0 -0.776113 0.630594
-0.282708 0.0480799 0.280627 -0.990282 0 0.139077
0.0980422 0.171784 0.286807 0 0 -1
-0.321038 0.0143161 0.286807 0 0 -1
0.207876 0.182187 0.297158 0 0 1
-0.194708 0.16474 0.297158 0 0 1
0.0433202 -0.103202 0.286807 0 0 -1
0.00373822 0.176558 0.286807 0 0 -1
-0.0167401 -0.118146 0.286807 0 0 -1
-0.206251 -0.0361884 0.297158 0 0 1
-0.0703503 -0.0131243 0.297158 0 0 1
-0.282099 -0.110236 0.241548 0.225235 -0.966309 0.124567
0.455139 0.0683204 0.288783 0.298528 0 -0.954401
0.269574 0.0954837 0.281374 -0.973976 0.16395 -0.156494
0.324221 -0.0358447 0.297158 0 0 1
-0.406586 -0.111902 0.297158 0 0 1
0.207358 -0.146685 0.286807 0 0 -1
-0.145711 0.158277 0.286807 0 0 -1
-0.0605246 -0.0695776 0.286807 0 0 -1
-0.148197 -0.0199741 0.286807 0 0 -1
-0.164635 -0.0894812 0.297158 0 0 1
0.264299 0.185165 0.297069 0 0.708528 0.705683
-0.0496887 0.0880838 0.297158 0 0 1
0.311124 0.139062 0.0698562 0.208225 0.958635 0.194066
-0.31741 -0.0484337 0.274196 0.923883 0 0.382676
-0.432968 -0.0792069 0.286807 0 0 -1
-0.0584514 0.181096 0.297158 0 0 1
-0.377867 0.0770567 0.297158 0 0 1
-0.206755 -0.143142 0.297158 0 0 1
0.314033 0.135914 0.286807 0 0 -1
0.28358 0.0825514 0.274699 0 0.923935 0.382549
-0.107807 -0.129891 0.297158 0 0 1
0.146855 -0.114631 0.297158 0 0 1
-0.102695 -0.172527 0.286807 0 0 -1
0.134464 -0.0055885 0.297158 0 0 1
-0.171272 0.00211881 0.297158 0 0 1
0.0548768 0.112482 0.297158 0 0 1
0.272523 -0.0822099 0.297158 0 0 1
0.0295228 0.10606 0.286807 0 0 -1
-0.0282972 0.00417729 0.297158 0 0 1
0.187603 -0.0126806 0.297158 0 0 1
0.167465 -0.0782436 0.267309 0 0.382473 -0.923967
-0.328547 0.0993318 0.297158 0 0 1
0.28786 -0.100414 0.240795 0.979352 0.200125 0.0286189
-0.223289 0.172826 0.286807 0 0 -1
-0.0525293 0.0315271 0.297158 0 0 1
-0.101016 0.0944825 0.286807 0 0 -1
-0.107061 0.0760738 0.286807 0 0 -1
-0.0578724 0.0760405 0.276132 0 -0.382463 0.923971
-0.158632 0.185655 0.288672 0 0.298569 -0.954388
-0.163786 0.108426 0.297158 0 0 1
0.38541 -0.0459962 0.297158 0 0 1
0.32343 0.0138227 0.286807 0 0 -1
-0.117053 0.174476 0.286807 0 0 -1
-0.00618881 0.0189948 0.297158 0 0 1
0.223695 -0.102453 0.286807 0 0 -1
-0.328503 -0.158955 0.286807 0 0 -1
-0.178022 -0.0210564 0.297158 0 0 1
-0.297318 -0.122755 0.297158 0 0 1
0.362001 0.162694 0.297158 0 0 1
0.0705661 -0.0636677 0.297158 0 0 1
0.288398 -0.0306286 0.286807 0 0 -1
0.117382 -0.11327 0.286807 0 0 -1
0.0439857 -0.0575852 0.297158 0 0 1
0.444668 -0.118413 0.297158 0 0 1
0.21525 -0.0487602 0.286807 0 0 -1
-0.0136644 0.0696757 0.286807 0 0 -1
-0.361215 0.17018 0.297158 0 0 1
-0.284548 -0.0397641 0.286807 0 0 -1
0.207848 0.0615658 0.286807 0 0 -1
0.411236 -0.0953402 0.297158 0 0 1
0.320103 -0.141961 0.00830952 0.150099 -0.17777 -0.972558
-0.28472 0.046336 0.251835 -0.108924 0 -0.99405
-0.111001 -0.00606206 0.297158 0 0 1
0.420033 0.137522 0.286807 0 0 -1
0.0751201 0.00388922 0.286807 0 0 -1
0.0206641 0.0114794 0.297158 0 0 1
0.442209 0.0863815 0.286807 0 0 -1
-0.222323 0.0959343 0.294285 0 1 0
0.324109 0.00232883 0.297158 0 0 1
0.283845 0.0178069 0.264132 0.981347 0 0.192244
0.268353 -0.0187241 0.281833 -0.990244 0 -0.139345
0.113685 0.045998 0.297158 0 0 1
-0.0265955 -0.0849794 0.286807 0 0 -1
-0.195565 0.129968 0.286807 0 0 -1
0.292715 0.017935 0.297158 0 0 1
-0.389311 -0.0305996 0.297158 0 0 1
-0.436161 -0.0109233 0.297158 0 0 1
-0.196791 -0.0011625 0.286807 0 0 -1
0.417843 0.165348 0.297158 0 0 1
0.00833139 -0.162629 0.286807 0 0 -1
0.0581168 0.157031 0.286807 0 0 -1
-0.10296 -0.0513571 0.297158 0 0 1
0.112506 -0.0221561 0.286807 0 0 -1
0.242149 -0.0842208 0.297158 0 0 1
-0.184153 -0.121396 0.297158 0 0 1
-0.247239 0.120014 0.286807 0 0 -1
0.372395 -0.105353 0.297158 0 0 1
0.0374841 0.046578 0.297158 0 0 1
0.362834 -0.153182 0.286807 0 0 -1
-0.127203 0.0405015 0.286807 0 0 -1
-0.361039 -0.111236 0.286807 0 0 -1
-0.165339 -0.146152 0.286807 0 0 -1
-0.276121 0.123437 0.286807 0 0 -1
-0.154143 -0.0442272 0.297158 0 0 1
-0.455442 -0.105184 0.289184 -1 0 0
-0.321052 0.137731 0.00831363 0.195421 0.980719 0
0.199882 0.158705 0.297158 0 0 1
0.328168 0.112421 0.297158 0 0 1
-0.215201 -0.0204686 0.297158 0 0 1
-0.17158 0.156616 0.297158 0 0 1
-0.0566817 -0.0431609 0.286807 0 0 -1
0.44726 -0.0208584 0.297158 0 0 1
0.0323671 -0.137862 0.286807 0 0 -1
-0.409584 -0.123208 0.286807 0 0 -1
0.179069 -0.0739491 0.286807 0 0 -1
0.0568892 -0.165493 0.297158 0 0 1
0.312928 -0.0652144 0.286807 0 0 -1
-0.304561 0.132787 0.0773108 0.980741 0.139452 -0.136749
0.301879 0.0504972 0.286807 0 0 -1
0.285929 -0.111648 0.286807 0 0 -1
0.0362121 -0.0017545 0.286807 0 0 -1
-0.385229 -0.00241268 0.297158 0 0 1
-0.117728 0.00325093 0.286807 0 0 -1
-0.426123 -0.180743 0.296935 -0.270547 -0.663195 0.697837
-0.344837 0.171806 0.297158 0 0 1
0.0958341 -0.0715933 0.286807 0 0 -1
-0.323557 0.0522915 0.297158 0 0 1
0.381423 0.0840668 0.286807 0 0 -1
0.302311 0.167184 0.286807 0 0 -1
-0.132004 -0.0220354 0.286807 0 0 -1
0.37903 -0.00011389 0.297158 0 0 1
0.190975 0.0838939 0.286807 0 0 -1
0.0906641 0.00784897 0.297158 0 0 1
0.393244 0.0550461 0.297158 0 0 1
0.28604 0.110021 0.180591 -0.975376 -0.126046 -0.180979
0.252367 -0.0707673 0.297158 0 0 1
-0.362149 -0.011639 0.297158 0 0 1
0.271042 0.0705531 0.286807 0 0 -1
0.0663566 0.0295464 0.286807 0 0 -1
0.318551 0.075178 0.286807 0 0 -1
-0.0506693 -0.135835 0.286807 0 0 -1
0.274901 0.0959633 0.248646 -0.981137 -0.0226083 -0.191986
0.426324 0.0586694 0.286807 0 0 -1
-0.15509 0.0292108 0.297158 0 0 1
-0.14707 -0.0936059 0.297158 0 0 1
-0.0771998 0.083526 0.286807 0 0 -1
-0.360004 -0.0590746 0.297158 0 0 1
-0.393121 -0.14131 0.297158 0 0 1
-0.416077 -0.142862 0.286807 0 0 -1
0.346397 0.183498 0.297158 0 0 1
-0.295461 0.160602 0.286807 0 0 -1
-0.184003 0.0115205 0.286807 0 0 -1
-0.454386 -0.135812 0.296964 -0.70483 -4.87212e-05 0.709376
0.220774 -0.133209 0.297158 0 0 1
-0.0860178 -0.146161 0.286807 0 0 -1
0.155777 -0.175614 0.286807 0 0 -1
0.271342 0.0734367 0.271713 0 -0.923934 -0.382551
-0.327967 0.154073 0.286807 0 0 -1
0.300014 -0.0399438 0.286807 0 0 -1
0.424457 -0.106206 0.297158 0 0 1
0.0784778 -0.140476 0.297158 0 0 1
-0.142247 0.0192958 0.297158 0 0 1
-0.280597 -0.171745 0.293846 0 0 1
-0.137061 -0.0500747 0.297158 0 0 1
-0.200858 -0.103976 0.286807 0 0 -1
-0.278562 0.0585876 0.287871 0 0 1
0.368992 -0.0198789 0.286807 0 0 -1
-0.0552902 -0.165674 0.297158 0 0 1
-0.25106 -0.00670232 0.286807 0 0 -1
0.375988 0.115458 0.297158 0 0 1
0.0151335 0.131825 0.286807 0 0 -1
-0.3389 0.0103567 0.286807 0 0 -1
0.417443 -0.0602687 0.286807 0 0 -1
0.137978 -0.128929 0.286807 0 0 -1
-0.345057 -0.118165 0.286807 0 0 -1
-0.387416 0.0548553 0.297158 0 0 1
-0.158978 0.0735419 0.297158 0 0 1
0.281993 -0.0545172 0.285701 0.990281 0 0.139079
-0.255716 0.0850198 0.286807 0 0 -1
-0.270418 -0.142885 0.297158 0 0 1
-0.332768 -0.0594306 0.297158 0 0 1
0.078816 0.161294 0.286807 0 0 -1
0.356322 0.0946375 0.286807 0 0 -1
0.317358 0.0749606 0.269754 0.568237 0.728378 -0.382847
-0.402678 -0.0758319 0.286807 0 0 -1
-0.365077 -0.140933 0.286807 0 0 -1
0.447578 -0.0791008 0.297158 0 0 1
0.106703 0.0124961 0.286807 0 0 -1
0.173715 -0.015323 0.286807 0 0 -1
0.301598 -0.0675045 0.297158 0 0 1
-0.237105 -0.0623073 0.297158 0 0 1
-0.317732 -0.0150342 0.274972 0.923883 0 0.382676
-0.33271 -0.17476 0.286807 0 0 -1
-0.202618 0.0529594 0.286807 0 0 -1
0.39373 -0.123041 0.297158 0 0 1
-0.104857 0.0146674 0.297158 0 0 1
-0.220546 0.067284 0.286807 0 0 -1
0.389811 0.110746 0.297158 0 0 1
-0.107555 0.0291634 0.297158 0 0 1
-0.289472 0.0665186 0.286807 0 0 -1
0.331643 0.0734106 0.297158 0 0 1
0.223973 0.0602108 0.286807 0 0 -1
0.296436 -0.00972834 0.286807 0 0 -1
-0.0345022 0.0250279 0.286807 0 0 -1
0.436846 0.142461 0.297158 0 0 1
0.244509 -0.134551 0.297158 0 0 1
0.402571 -0.0449561 0.297158 0 0 1
0.191123 0.173689 0.286807 0 0 -1
0.179557 0.116984 0.297365 0 0 1
-0.14054 -0.130207 0.286807 0 0 -1
-0.442407 0.0477619 0.297158 0 0 1
0.393681 -0.0235508 0.297158 0 0 1
-0.127688 -0.183635 0.293846 0 0 1
-0.291695 -0.136113 0.297158 0 0 1
-0.373557 -0.186314 0.294701 0 -1 0
-0.00397202 -0.0795409 0.297158 0 0 1
0.284628 -0.0410552 0.260135 0.981347 0 0.192244
0.272076 0.172454 0.297158 0 0 1
0.291882 -0.116845 0.199191 0.680925 -0.696121 0.227501
-0.215928 0.0305408 0.297158 0 0 1
-0.308927 0.167608 0.297158 0 0 1
-0.0178233 -0.101508 0.286807 0 0 -1
0.0994897 -0.109413 0.286807 0 0 -1
-0.0598507 -0.157249 0.286807 0 0 -1
-0.117323 -0.0563662 0.297158 0 0 1
0.433421 -0.066966 0.297158 0 0 1
0.133982 -0.13847 0.297158 0 0 1
-0.423902 0.105946 0.297158 0 0 1
-0.297823 0.108379 0.297158 0 0 1
0.152463 -0.0808968 0.286807 0 0 -1
-0.272842 -9.72785e-05 0.286807 0 0 -1
0.00769377 0.0410156 0.297158 0 0 1
-0.455442 0.114053 0.293419 -1 0 0
0.0756928 -0.0332173 0.297158 0 0 1
0.308555 -0.000533894 0.286807 0 0 -1
-0.024098 -0.0386114 0.286807 0 0 -1
-0.329609 0.129772 0 0 0 1
0.302794 -0.161868 0.297158 0 0 1
0.0803179 -0.0932938 0.286807 0 0 -1
0.153873 0.0336792 0.286807 0 0 -1
0.329028 -0.154984 0.00310527 0 0 1
0.224139 -0.185587 0.293332 0 -0.708537 0.705674
0.305853 0.14147 0.00334994 -0.276979 -0.0549237 0.959305
-0.389555 -0.0947822 0.297158 0 0 1
0.401388 -0.162559 0.297158 0 0 1
-0.092058 0.098665 0.297158 0 0 1
0.276525 0.112372 0.286807 0 0 -1
-0.0702923 -0.117039 0.297158 0 0 1
-0.379635 -0.0293505 0.286807 0 0 -1
0.256087 0.116352 0.297158 0 0 1
0.298956 -0.0968562 0.297158 0 0 1
-0.0538133 -0.0978113 0.297158 0 0 1
-0.233415 -0.15379 0.297158 0 0 1
0.0929246 -0.137987 0.297158 0 0 1
-0.3243 -0.0239212 0.297158 0 0 1
-0.127545 -0.0554954 0.286807 0 0 -1
0.00443643 0.161499 0.286807 0 0 -1
0.287704 0.158119 0.286807 0 0 -1
0.0932677 -0.026214 0.297158 0 0 1
-0.408186 -0.0144976 0.297158 0 0 1
0.0785441 0.141227 0.297158 0 0 1
-0.0749909 -0.0718333 0.286807 0 0 -1
0.281786 0.135917 0.286807 0 0 -1
-0.109705 0.119702 0.297158 0 0 1
0.231903 -0.0467548 0.286807 0 0 -1
0.237789 0.130628 0.297158 0 0 1
-0.254118 -0.0539192 0.297158 0 0 1
-0.341241 -0.131554 0.297158 0 0 1
-0.272819 -0.0292027 0.286807 0 0 -1
0.0637873 0.0518723 0.286807 0 0 -1
0.149495 0.185333 0.296899 0 0.708528 0.705683
-0.0508601 -0.180917 0.293846 0 0 1
-0.222988 0.186314 0.290941 0 1 0
-0.116458 0.0414153 0.297158 0 0 1
-0.349488 0.0272639 0.286807 0 0 -1
-0.0191652 -0.0640564 0.297158 0 0 1
0.0355151 0.0783551 0.27709 0 -0.382463 0.923971
-0.293998 0.120573 0.180766 -0.20859 0.958546 0.194112
-0.141953 -0.156559 0.286807 0 0 -1
0.37066 0.0566 0.286807 0 0 -1
0.0135298 -0.0314435 0.286807 0 0 -1
-0.101412 0.0579904 0.286807 0 0 -1
-0.107238 -0.108283 0.297158 0 0 1
0.379074 0.0701834 0.286807 0 0 -1
0.168366 -0.117512 0.286807 0 0 -1
0.0188919 -0.0589425 0.297158 0 0 1
0.133313 0.0724465 0.286807 0 0 -1
0.348971 0.149408 0.297158 0 0 1
-0.205117 -0.0144323 0.286807 0 0 -1
-0.111588 -0.0875134 0.297158 0 0 1
-0.378298 0.0135963 0.286807 0 0 -1
0.118387 -0.0739146 0.286807 0 0 -1
0.363641 -0.0308743 0.297158 0 0 1
-0.0497642 0.0663745 0.286807 0 0 -1
-0.282047 0.0974958 0.277539 -0.982399 0.071773 0.172458
0.358667 -0.0686219 0.286807 0 0 -1
-0.204634 -0.0628017 0.297158 0 0 1
0.215972 -0.12003 0.286807 0 0 -1
0.0890806 0.0720361 0.286807 0 0 -1
-0.443778 -0.0252624 0.286807 0 0 -1
-0.151358 -0.140301 0.286807 0 0 -1
0.2914 0.122283 0.167937 -0.225 0.966365 0.124557
-0.0812264 0.0242024 0.297158 0 0 1
0.442 0.111835 0.297158 0 0 1
-0.299596 0.123184 0.160459 -0.67961 0.697406 0.227498
0.346582 -0.12481 0.297158 0 0 1
0.287148 0.0982003 0.24242 0.891545 -0.432488 -0.134543
-0.0185802 -0.00575613 0.297158 0 0 1
0.415532 -0.136886 0.297158 0 0 1
-0.206737 -0.0880566 0.286807 0 0 -1
0.0900366 -0.121544 0.297158 0 0 1
0.363744 -0.186314 0.295795 0 -1 0
-0.176348 -0.056898 0.286807 0 0 -1
0.150024 -0.0197353 0.297158 0 0 1
-0.283749 -0.0469845 0.270352 -0.981414 0 0.191901
0.398943 0.0342843 0.297158 0 0 1
0.296291 -0.127242 0.133562 -0.803225 -0.594817 -0.0319743
0.398565 0.0771386 0.286807 0 0 -1
-0.330842 0.126131 0.286807 0 0 -1
-0.298241 -0.156169 0.286807 0 0 -1
0.105558 0.0417331 0.286807 0 0 -1
-0.150645 0.145357 0.286807 0 0 -1
-0.337212 0.0573581 0.297158 0 0 1
-0.262076 0.0135897 0.297158 0 0 1
-0.300813 0.0283122 0.286807 0 0 -1
0.109863 -0.0316246 0.297158 0 0 1
0.180989 0.137409 0.286807 0 0 -1
-0.378624 0.0445808 0.286807 0 0 -1
0.201142 0.118523 0.296503 0.194686 -0.980866 0
0.332602 -0.130912 0 0 0 -1
-0.256303 0.175668 0.297158 0 0 1
0.418098 -0.0274065 0.297158 0 0 1
-0.40112 0.129856 0.297158 0 0 1
0.285322 0.0632052 0.252098 0.544041 0 -0.839059
-0.120286 0.11986 0.286807 0 0 -1
0.0112433 0.0699645 0.286807 0 0 -1
0.199146 -0.0215752 0.297158 0 0 1
-0.0345844 0.0396254 0.297158 0 0 1
-0.162553 -0.0400427 0.286807 0 0 -1
0.250873 -0.120742 0.297158 0 0 1
-0.197375 0.143299 0.286807 0 0 -1
0.411155 0.139926 0.297158 0 0 1
0.0808272 -0.0699864 0.286807 0 0 -1
0.145587 -0.0631775 0.286807 0 0 -1
-0.419951 0.0266544 0.286807 0 0 -1
0.293917 -0.126042 0.297158 0 0 1
0.151861 0.0249251 0.297158 0 0 1
0.198285 -0.0710619 0.286807 0 0 -1
0.0490027 0.0960163 0.297158 0 0 1
0.371475 -0.150899 0.297158 0 0 1
-0.321037 -0.0600444 0.266966 0.376602 0.066574 -0.92398
0.124147 0.165275 0.297158 0 0 1
0.392517 0.132332 0.286807 0 0 -1
0.0447466 0.165187 0.297158 0 0 1
0.279936 0.0708881 0.297158 0 0 1
-0.131389 0.08806 0.297158 0 0 1
-0.36488 0.0523991 0.286807 0 0 -1
-0.245897 -0.173134 0.286807 0 0 -1
0.283349 0.072988 0.266664 0.981347 0 0.192244
0.333792 -0.0465483 0.286807 0 0 -1
0.452489 0.153252 0.29235 0.925163 0.379567 -0.00157901
0.0942496 0.121092 0.286807 0 0 -1
-0.217635 0.00465213 0.286807 0 0 -1
-0.214817 0.0566627 0.297158 0 0 1
0.0532844 0.186314 0.292437 0 1 0
0.332396 0.129677 0.297158 0 0 1
0.339339 -0.0975805 0.286807 0 0 -1
0.0627272 -0.0596865 0.286807 0 0 -1
-0.0860931 0.147809 0.297158 0 0 1
0.177644 -0.172557 0.286807 0 0 -1
0.278077 0.046743 0.297158 0 0 1
0.162354 -0.0562879 0.297158 0 0 1
-0.393902 -0.118503 0.286807 0 0 -1
0.30411 0.0760116 0.286807 0 0 -1
-0.251061 0.149114 0.297158 0 0 1
0.431098 0.176948 0.297158 0 0 1
0.279999 -0.0711697 0.27331 0 0 -1
0.146088 0.125496 0.297158 0 0 1
-0.323357 -0.126536 0.286807 0 0 -1
-0.345904 0.0506532 0.286807 0 0 -1
-0.134793 -0.11299 0.297158 0 0 1
-0.369996 0.0734216 0.286807 0 0 -1
-0.318961 -0.155624 0.297158 0 0 1
0.44421 -0.0404214 0.286807 0 0 -1
0.0862594 0.186314 0.291345 0 1 0
-0.28634 0.126061 0.297158 0 0 1
0.101962 -0.0790576 0.266972 0 0.382473 -0.923967
0.0510876 -0.0181311 0.286807 0 0 -1
-0.447151 -0.0918498 0.286807 0 0 -1
-0.380886 -0.00986138 0.286807 0 0 -1
0.0383056 0.0599883 0.297158 0 0 1
-0.0221799 0.0683994 0.297158 0 0 1
0.308888 -0.0501469 0.297158 0 0 1
-0.0999109 -0.0947536 0.297158 0 0 1
-0.0204684 0.10134 0.297158 0 0 1
0.0547685 0.0666844 0.286807 0 0 -1
-0.353337 -0.0738708 0.297158 0 0 1
-0.0495761 0.178903 0.286807 0 0 -1
-0.379622 0.175178 0.286807 0 0 -1
-0.266086 0.155998 0.286807 0 0 -1
-0.224524 -0.170321 0.293846 0 0 1
0.0737531 0.0726346 0.297158 0 0 1
-0.404252 -0.101479 0.286807 0 0 -1
-0.356159 -0.0835188 0.286807 0 0 -1
0.103971 -0.0504762 0.286807 0 0 -1
-0.168184 -0.154173 0.297158 0 0 1
0.184745 -0.136577 0.297158 0 0 1
0.0187799 0.150744 0.286807 0 0 -1
0.292933 0.0860255 0.286807 0 0 -1
-0.03932 -0.125075 0.286807 0 0 -1
-0.0264041 -0.18171 0.293846 0 0 1
-0.115772 0.151058 0.297158 0 0 1
0.382859 -0.15811 0.286807 0 0 -1
-0.411068 -0.149704 0.297158 0 0 1
0.00506088 -0.0159146 0.286807 0 0 -1
0.263895 -0.0761528 0.275777 0 0.382473 0.923967
-0.292808 0.0042396 0.297158 0 0 1
0.0261716 0.176796 0.286807 0 0 -1
0.235216 0.0787443 0.286807 0 0 -1
-0.262391 -0.0682536 0.297158 0 0 1
0.381984 0.0276016 0.297158 0 0 1
-0.422399 0.125483 0.286807 0 0 -1
0.412029 -0.00971882 0.286807 0 0 -1
0.222879 -0.0784941 0.286807 0 0 -1
0.342489 0.0388781 0.297158 0 0 1
-0.334496 -0.141737 0.00310527 0 0 -1
-0.168426 0.13474 0.297158 0 0 1
0.130465 0.0236327 0.286807 0 0 -1
0.406427 0.0499255 0.297158 0 0 1
-0.368548 -0.107508 0.297158 0 0 1
0.345601 0.07605 0.286807 0 0 -1
0.272509 -0.0980509 0.263472 -0.980834 -0.1383 -0.137253
-0.34183 -0.00338529 0.297158 0 0 1
0.264369 -0.18062 0.287097 0 -0.298569 -0.954388
0.167477 0.0242142 0.286807 0 0 -1
-0.0982766 -0.0842373 0.272966 0 -0.924024 0.382334
0.422814 0.120026 0.297158 0 0 1
-0.380244 -0.0738145 0.286807 0 0 -1
-0.425183 0.174711 0.286807 0 0 -1
-0.392338 -0.0553581 0.286807 0 0 -1
-0.358499 -0.0986971 0.297158 0 0 1
-0.333964 0.118158 0.297158 0 0 1
-0.336902 0.1694 0.286807 0 0 -1
-0.250424 -0.0874735 0.286807 0 0 -1
0.162974 0.0747336 0.268581 0 -0.923934 -0.382551
0.345963 -0.153925 0.297158 0 0 1
0.191685 -0.120801 0.286807 0 0 -1
0.209627 -0.155625 0.297158 0 0 1
-0.445907 0.00245303 0.297158 0 0 1
0.0947954 0.0972563 0.286807 0 0 -1
0.108238 -0.185501 0.288624 0 -0.298569 -0.954388
-0.286867 -0.00356048 0.252375 -0.543308 0 -0.839533
-0.36586 0.0225365 0.297158 0 0 1
-0.0516698 0.145509 0.297158 0 0 1
-0.215507 0.154383 0.286807 0 0 -1
-0.166208 0.0642536 0.286807 0 0 -1
0.255592 -0.014806 0.297158 0 0 1
-0.329286 0.0860001 0.286807 0 0 -1
0.25105 0.0595998 0.297158 0 0 1
-0.114703 0.0868152 0.286807 0 0 -1
0.336805 -0.0862007 0.297158 0 0 1
0.27561 -0.0276611 0.287871 0 0 1
0.292654 0.119114 0.140689 -0.981871 0.129271 -0.13863
0.306388 0.138676 0.297158 0 0 1
-0.368881 -0.158887 0.297158 0 0 1
0.153951 0.128601 0.286807 0 0 -1
0.259139 0.081964 0.286807 0 0 -1
0.258257 -0.146619 0.286807 0 0 -1
-0.184243 -0.0774414 0.276311 0 0.382473 0.923967
-0.411307 0.161252 0.286807 0 0 -1
0.319618 -0.0235321 0.297158 0 0 1
0.430671 -0.163119 0.297158 0 0 1
-0.0685112 0.102845 0.297158 0 0 1
0.0648887 0.12533 0.286807 0 0 -1
-0.185872 -0.0192864 0.286807 0 0 -1
-0.117914 -0.104859 0.286807 0 0 -1
-0.234148 0.0497296 0.286807 0 0 -1
0.33975 0.0629334 0.297158 0 0 1
-0.252894 -0.121477 0.297158 0 0 1
-0.427189 -0.0227004 0.297158 0 0 1
0.0498621 -0.125475 0.286807 0 0 -1
-0.454416 0.0703819 0.296939 -0.708524 0.000222335 0.705687
0.261414 -0.00213677 0.297158 0 0 1
0.175683 -0.0608636 0.297158 0 0 1
-0.384423 0.0983178 0.286807 0 0 -1
0.419275 -0.0846317 0.286807 0 0 -1
0.283565 -0.0838224 0.265558 0.981347 0 0.192244
-0.0792302 0.175347 0.297158 0 0 1
-0.0984833 -0.118503 0.297158 0 0 1
-0.319793 -0.103817 0.297158 0 0 1
-0.327632 0.0246352 0.297158 0 0 1
-0.373551 -0.0930234 0.297158 0 0 1
0.0181827 -0.152768 0.297158 0 0 1
-0.322621 0.136632 0.0347779 -0.963122 0.191183 0.189326
-0.27951 -0.0528008 0.251264 -0.108924 0 -0.99405
-0.428063 0.0378709 0.297158 0 0 1
0.0403449 -0.034312 0.286807 0 0 -1
-0.193294 0.094813 0.297365 0 0 1
-0.421556 0.0505537 0.297158 0 0 1
0.286658 -0.129208 0.286807 0 0 -1
0.259037 0.139662 0.297158 0 0 1
0.286892 -0.155615 0.297158 0 0 1
-0.310977 0.122978 0.103448 -0.837964 -0.543758 0.0463091
-0.284966 -0.08253 0.264128 -0.981414 0 0.191901
-0.00630775 0.0803117 0.26755 0 0.382455 -0.923974
0.153607 -0.106881 0.286807 0 0 -1
-0.342924 0.0218413 0.297158 0 0 1
-0.307107 0.0819663 0.270296 -0.160937 0.909683 -0.382853
-0.283123 -0.097946 0.271169 -0.982381 -0.071741 0.172569
-0.415207 -0.179066 0.286972 -0.061429 -0.300229 -0.951887
0.0938702 0.058763 0.286807 0 0 -1
-0.170995 0.0436766 0.297158 0 0 1
-0.0238724 0.173727 0.286807 0 0 -1
0.409825 0.0879084 0.286807 0 0 -1
0.343356 -0.131932 0.286807 0 0 -1
-0.269098 0.00844627 0.276564 0.990235 0 -0.139411
-0.0367154 0.120031 0.286807 0 0 -1
-0.379122 0.114797 0.286807 0 0 -1
-0.126297 0.0823157 0.268684 0 0.923935 -0.382549
0.213564 0.0668443 0.297158 0 0 1
0.275037 0.086809 0.297158 0 0 1
-0.313804 -0.134815 0.0813468 -0.960725 -0.20162 0.190673
0.188523 0.0497852 0.286807 0 0 -1
0.392924 -0.150003 0.286807 0 0 -1
-0.0725138 0.1143 0.286807 0 0 -1
-0.326414 -0.0101721 0.286807 0 0 -1
0.240835 -0.158548 0.297158 0 0 1
-0.359266 0.130273 0.297158 0 0 1
-0.423632 0.151648 0.286807 0 0 -1
-0.0250499 0.0522413 0.297158 0 0 1
-0.124037 -0.0678901 0.286807 0 0 -1
0.406186 -0.148514 0.297158 0 0 1
0.19371 -0.138718 0.286807 0 0 -1
-0.352069 -0.147689 0.286807 0 0 -1
-0.0286608 -0.0259453 0.286807 0 0 -1
-0.444364 -0.0501137 0.286807 0 0 -1
-0.0972194 0.0745561 0.274942 0 -0.923934 0.382551
-0.146874 0.103806 0.286807 0 0 -1
-0.410875 -0.097766 0.297158 0 0 1
-0.369877 -0.132987 0.297158 0 0 1
-0.28712 0.0181623 0.25311 -0.981414 0 0.191901
-0.298629 -0.12383 0.110813 0.98181 -0.129844 -0.138525
-0.0627715 0.0320001 0.286807 0 0 -1
-0.272277 0.0610607 0.268371 0.981366 0 -0.192146
0.0456123 0.0766346 0.297158 0 0 1
0.00676149 -0.0865276 0.297158 0 0 1
0.447008 0.0268882 0.286807 0 0 -1
0.0845547 -0.151744 0.297158 0 0 1
0.360359 0.100988 0.297158 0 0 1
-0.186817 -0.0103767 0.297158 0 0 1
-0.39718 0.101336 0.286807 0 0 -1
0.112968 -0.14704 0.286807 0 0 -1
-0.2263 -0.13193 0.297158 0 0 1
0.405645 0.175239 0.286807 0 0 -1
0.0238398 -0.115107 0.297158 0 0 1
0.188956 0.122557 0.28773 0 -1 0
0.220613 0.0106075 0.297158 0 0 1
-0.444357 0.0351448 0.297158 0 0 1
-0.2902 0.184473 0.288302 0 0.298569 -0.954388
0.0556803 -0.0627263 0.297158 0 0 1
-0.241334 -0.106869 0.297158 0 0 1
0.117779 0.116589 0.297158 0 0 1
-0.0720367 0.00739425 0.297158 0 0 1
0.117165 -0.129539 0.286807 0 0 -1
-0.0592833 0.0569597 0.297158 0 0 1
-0.226899 0.0321336 0.286807 0 0 -1
0.0351046 -0.124893 0.297158 0 0 1
0.0890154 0.129662 0.297158 0 0 1
0.0379531 -0.00895073 0.297158 0 0 1
-0.0655331 0.17181 0.286807 0 0 -1
-0.0207114 -0.0805066 0.297158 0 0 1
0.0944024 -0.0588511 0.286807 0 0 -1
0.398212 -0.0855021 0.297158 0 0 1
0.0830015 -0.0837329 0.269767 0 -0.924024 -0.382334
-0.316434 -0.146244 0.0103509 0 0 -1
0.244245 -0.0418282 0.286807 0 0 -1
-0.182703 0.186314 0.289733 0 1 0
-0.246662 0.0376624 0.297158 0 0 1
0.315138 0.149466 0 0 0 -1
-0.12494 -0.00904504 0.286807 0 0 -1
0.296173 -0.113639 0.156189 0.00472237 0.98636 -0.164534
0.316133 0.148438 0.286807 0 0 -1
0.188984 -0.0307594 0.297158 0 0 1
-0.308545 -0.0287541 0.297158 0 0 1
-0.283544 -0.108487 0.20335 0.98181 -0.129844 -0.138525
0.133721 -0.082428 0.297158 0 0 1
0.0174345 0.0237827 0.286807 0 0 -1
-0.355054 0.158074 0.297158 0 0 1
-0.180118 -0.150315 0.286807 0 0 -1
0.272678 -0.116139 0.286807 0 0 -1
-0.295908 0.125578 0.148491 0.224463 0.966475 0.124668
0.310391 -0.141724 0.0503846 -0.224754 -0.966415 0.124611
-0.162572 -0.0752606 0.274305 0 0.923926 0.382572
0.302451 0.114695 0.297158 0 0 1
-0.308528 -0.138365 0.0611691 0.803357 -0.594637 -0.0320103
0.151599 0.162844 0.297158 0 0 1
0.257208 0.181341 0.287322 0 0.298569 -0.954388
-0.300338 -0.081272 0.297158 0 0 1
-0.269606 -0.179286 0.293846 0 0 1
-0.153481 0.163087 0.297158 0 0 1
-0.00501081 0.107382 0.297158 0 0 1
-0.407874 -0.0313899 0.297158 0 0 1
-0.148372 0.0876449 0.286807 0 0 -1
0.451878 -0.0549083 0.287763 0.298528 0 -0.954401
-0.275418 -0.0139104 0.252331 0.981366 0 -0.192146
0.455442 -0.123121 0.289364 1 0 0
-0.443964 0.0602771 0.297158 0 0 1
0.334088 -0.141511 0.297158 0 0 1
0.405828 0.160433 0.297158 0 0 1
0.274809 -0.160183 0.286807 0 0 -1
-0.262111 0.0715067 0.286807 0 0 -1
-0.116371 0.0655247 0.297158 0 0 1
0.280296 0.144196 0.297158 0 0 1
0.353768 0.116426 0.286807 0 0 -1
-0.202744 -0.0267978 0.286807 0 0 -1
-0.316056 0.168346 0.286807 0 0 -1
-0.195736 0.0607722 0.297158 0 0 1
0.403964 0.0055826 0.297158 0 0 1
-0.181674 0.0927504 0.288194 0 1 0
-0.306133 0.11781 0.297158 0 0 1
-0.249281 0.0880918 0.297158 0 0 1
0.121061 -0.174807 0.286807 0 0 -1
0.13806 0.171244 0.297158 0 0 1
-0.121523 -0.084104 0.273289 0 -0.924024 0.382334
-0.284792 0.0306536 0.286807 0 0 -1
0.17362 0.0946738 0.287036 -0.555841 -0.831289 0
-0.376875 0.144541 0.297158 0 0 1
0.0405847 0.111841 0.297158 0 0 1
0.371302 -0.135339 0.297158 0 0 1
0.326333 0.123831 0.286807 0 0 -1
0.0356415 -0.0176403 0.286807 0 0 -1
-0.187912 -0.134879 0.286807 0 0 -1
0.424618 -5.1558e-06 0.286807 0 0 -1
0.329318 -0.108526 0.297158 0 0 1
0.0799777 -0.0842524 0.297158 0 0 1
0.0929677 -0.170086 0.293846 0 0 1
-0.0728675 -0.0785876 0.297158 0 0 1
-0.272215 -0.0156068 0.268688 0.981366 0 -0.192146
-0.00426564 -0.0507119 0.297158 0 0 1
-0.191406 -0.116259 0.286807 0 0 -1
0.18986 -0.0885015 0.286807 0 0 -1
-0.0107465 -0.1246 0.297158 0 0 1
-0.392798 -0.158804 0.286807 0 0 -1
0.288243 -0.111848 0.167445 -0.29297 0.934016 -0.204406
0.0867204 0.0267682 0.297158 0 0 1
0.197827 0.171599 0.297158 0 0 1
-0.208338 0.0774689 0.276723 0 -0.382463 0.923971
0.0447361 0.142097 0.286807 0 0 -1
0.256731 -0.0331108 0.286807 0 0 -1
0.397326 -0.179057 0.297158 0 0 1
-0.113964 0.168192 0.297158 0 0 1
-0.130199 0.0159784 0.297158 0 0 1
0.126906 -0.07434 0.27187 0 0.923926 -0.382572
-0.263928 0.0821977 0.297158 0 0 1
-0.384026 0.16312 0.286807 0 0 -1
-0.311159 -0.0620313 0.297158 0 0 1
-0.176396 -0.0935926 0.297158 0 0 1
-0.0452477 -0.0917539 0.286807 0 0 -1
-0.151319 0.0155661 0.286807 0 0 -1
0.434625 0.0950544 0.297158 0 0 1
-0.0436863 -0.016668 0.297158 0 0 1
