0.323103 0.165779 0.482378 0 0 -1
-0.181781 -0.303819 0.576547 0 0 1
0.212128 0.32007 0.510765 0.587764 0.808983 -0.00893799
-0.366602 -0.0312838 0.576547 0 0 1
-0.265022 0.264886 0.266157 0.499988 -0.866033 0
0.265474 -0.257001 0.576547 0 0 1
0.261752 0.277276 0.332808 -1 0 0
-0.260523 -0.144224 0.576547 0 0 1
0.206422 -0.0661511 0.482378 0 0 -1
-0.26032 0.275023 0.175426 1 0 0
-0.269792 0.291003 0.445653 0.499899 0.866084 0
0.0404099 -0.330099 0.482378 0 0 -1
0.10159 -0.28379 0.482378 0 0 -1
0.292374 -0.0480153 0.576547 0 0 1
-0.0256349 0.0142461 0.482378 0 0 -1
0.191374 -0.0702825 0.576547 0 0 1
0.272973 -0.292012 0.47531 -0.499899 -0.866084 0
0.289991 0.267514 0.0819478 0.866084 -0.499899 0
0.139983 -0.213568 0.576547 0 0 1
0.351839 0.0406902 0.576547 0 0 1
0.300299 -0.013433 0.576547 0 0 1
-0.255787 0.177063 0.576547 0 0 1
-0.153313 -0.351697 0.553052 -0.406722 -0.913531 0.0061849
-0.153196 -0.207054 0.482378 0 0 -1
0.275852 -0.185474 0.466934 -1 0 0
-0.00220269 0.246866 0.482378 0 0 -1
-0.194678 -0.127566 0.482378 0 0 -1
0.277921 -0.133666 0.576547 0 0 1
0.293181 0.248394 0.55508 0.743102 0.669083 -0.0113001
-0.120642 0.10749 0.00352834 -0.47301 -0.47301 -0.743319
0.0263472 -0.253208 0.576547 0 0 1
0.257506 -0.267181 0.482378 0 0 -1
-0.192259 -0.318098 0.576547 0 0 1
-0.291147 0.271998 0.227928 -0.866084 -0.499899 0
0.227405 -0.246686 0.576547 0 0 1
0.0278048 -0.369626 0.482378 0 0 -1
-0.124508 0.129684 0.482378 0 0 -1
0.270263 0.0661456 0.576547 0 0 1
0.174275 0.14542 0.576547 0 0 1
-0.147907 -0.252221 0.482378 0 0 -1
0.0820208 -0.0682769 0.00299387 0.47301 0.47301 -0.743319
0.100822 -0.355048 0.576547 0 0 1
0.292815 -0.273487 0.207144 1 0 0
-0.177723 -0.080489 0.576547 0 0 1
-0.26552 0.288537 0.440182 0.499899 0.866084 0
0.264492 -0.285475 0.0964451 -0.866033 -0.499988 0
0.104374 -0.0726881 0.482378 0 0 -1
-0.048279 0.0634853 0.482378 0 0 -1
0.265723 0.265529 0.50346 -0.866033 -0.499988 0
-0.0923503 0.372856 0.493466 -0.207915 0.978142 0.0031617
-0.263832 -0.286812 0.537583 0.866033 -0.499988 0
0.2584 0.143959 0.576547 0 0 1
0.290952 0.0264833 0.482378 0 0 -1
-0.0463978 -0.288427 0.576547 0 0 1
-0.277284 -0.235224 0.463612 1 0 0
-0.112119 -0.0959177 0.00546939 -0.47301 0.473011 -0.743319
-0.188481 -0.112873 0.482378 0 0 -1
0.136869 -0.280383 0.482378 0 0 -1
-0.189237 -0.293742 0.576547 0 0 1
-0.316678 0.0944157 0.576547 0 0 1
0.00723262 -0.383795 0.54632 0 -1 0
0.0497315 0.153607 0.482378 0 0 -1
0.292815 -0.27874 0.39799 1 0 0
0.144567 0.146517 0.000454713 -0.165769 0.165769 -0.972133
-0.317611 0.217856 0.514846 -0.865944 0.499968 0.0131682
-0.0237516 0.248138 0.576547 0 0 1
0.0560385 0.174948 0.482378 0 0 -1
0.008562 -0.383795 0.537335 0 -1 0
0.284154 0.109996 0.482378 0 0 1
-0.287544 0.254053 0.539478 -0.743102 0.669083 0.0113001
-0.26502 0.288249 0.268119 0.499899 0.866084 0
-0.0513678 0.000434445 0.482378 0 0 -1
-0.130704 -0.361795 0.54829 -0.406722 -0.913531 0.00618486
0.306413 -0.17812 0.576547 0 0 1
0.282556 0.291458 0.350879 0.499899 0.866084 0
0.282859 0.261852 0.0708295 0.499988 -0.866033 0
0.279412 0.0193117 0.482378 0 0 1
-0.108957 -0.217052 0.482378 0 0 -1
0.29098 0.283909 0.21202 0.866084 0.499899 0
-0.202561 0.219022 0.576547 0 0 1
0.138331 0.094867 0.482378 0 0 -1
0.242102 0.0382966 0.482378 0 0 -1
0.101634 0.0970638 0.482378 0 0 -1
-0.108623 0.369353 0.507045 -0.207915 0.978142 0.0031617
-0.163191 -0.287413 0.459223 0 0 -1
-0.291383 0.277288 0.0796918 -1 0 0
-0.104124 0.0987397 0.482378 0 0 -1
0.0546626 -0.265112 0.576547 0 0 1
0.278301 0.205657 0.576547 0 0 1
-0.290543 -0.250434 0.556549 -0.743102 -0.669083 0.0113001
0.140394 -0.22757 0.482378 0 0 -1
-0.372387 -0.0630406 0.482378 0 0 -1
-0.183558 -0.219635 0.576547 0 0 1
0.0445435 0.271563 0.482378 0 0 -1
-0.379293 -0.0668814 0.502203 -0.994407 -0.104528 0.0151217
0.0293694 0.362846 0.576547 0 0 1
0.288696 -0.0287497 0.576547 0 0 1
-0.233833 0.252397 0.0232284 0.590347 0.34081 0.731669
0.277213 -0.269837 0.01945 0.62753 -0.291389 -0.72201
-0.0143582 0.0886942 0.576547 0 0 1
0.236553 0.302563 0.532369 0.587764 0.808983 -0.00893796
-0.184377 0.274289 0.576547 0 0 1
0.253054 -0.236793 0.0250661 0.340808 0.590349 0.731668
-0.293364 -0.177675 0.463244 -1 0 0
0.195262 -0.0723048 0.482378 0 0 -1
-0.278469 -0.0615612 0.576547 0 0 1
0.243442 -0.242191 0.026241 0.707198 -0.707015 0.00019176
-0.124307 -0.130675 0.482378 0 0 -1
-0.0921816 -0.0133256 0.576547 0 0 1
-0.238453 -0.0552886 0.576547 0 0 1
0.091623 -0.351421 0.482378 0 0 -1
0.284366 0.157075 0.482378 0 0 1
-0.139165 -0.0705876 0.482378 0 0 -1
0.339408 0.14209 0.576547 0 0 1
0.118316 -0.187833 0.482378 0 0 -1
0.00622354 -0.326888 0.482378 0 0 -1
-0.0687434 0.377612 0.574326 -0.207915 0.978142 0.00316171
-0.0990201 -0.111793 0.00237574 0.47301 -0.47301 -0.743319
-0.18568 0.212513 0.576547 0 0 1
-0.0637441 0.314294 0.576547 0 0 1
-0.28005 -0.270774 0.482378 0 0 1
-0.00440952 0.0151232 0.00855484 -0.677707 0.67771 -0.285345
-0.290106 -0.251977 0.493915 -0.743102 -0.669083 0.0113001
0.298921 0.182651 0.576547 0 0 1
-0.241118 -0.28843 0.482378 0 0 -1
-0.278065 0.0244305 0.482378 0 0 -1
0.150835 -0.145058 0.576547 0 0 1
-0.0494027 -0.38187 0.528948 -0.207915 -0.978142 0.00316172
0.0773433 0.361984 0.576547 0 0 1
-0.291145 -0.100021 0.482378 0 0 -1
-0.314131 0.199738 0.576547 0 0 1
0.229984 -0.0341826 0.576547 0 0 1
0.291082 0.235936 0.459223 0 0 -1
0.183018 0.338751 0.54718 0.406722 0.913531 -0.0061849
0.378016 0.0684484 0.483536 0.994407 0.104528 -0.0151217
-0.033512 0.063608 0.482378 0 0 -1
-0.0572655 0.0795461 0.0116796 0.677709 0.677707 -0.285346
0.128315 -0.301268 0.576547 0 0 1
-0.286125 0.266484 0.578863 0 0 1
0.383865 -0.0043065 0.576547 0 0 1
-0.0254673 -0.309641 0.576547 0 0 1
-0.297942 0.213591 0.576547 0 0 1
-0.285359 -0.0322914 0.482378 0 0 1
-0.290238 0.270424 0.0839748 -0.866084 -0.499899 0
-0.193311 -0.287119 0.482378 0 0 1
-0.24868 0.0732022 0.482378 0 0 -1
0.113321 -0.169233 0.482378 0 0 -1
0.00254107 -0.281483 0.482378 0 0 1
-0.2061 -0.324982 0.500056 -0.587764 -0.808983 0.00893796
-0.130584 0.230828 0.576547 0 0 1
-0.166894 -0.188761 0.0106969 0.677739 -0.677737 -0.285207
-0.196243 -0.330692 0.482378 0 0 -1
-0.284136 -0.28932 0.0566822 -0.480436 -0.832363 -0.276321
-0.186992 0.318193 0.576547 0 0 1
0.235758 0.143049 0.576547 0 0 1
-0.302481 0.128054 0.482378 0 0 -1
-0.260863 0.281669 0.119534 0.866033 0.499988 0
0.00852226 -0.281737 0.576547 0 0 1
0.280702 -0.207041 0.459223 0 0 -1
-0.134816 -0.14888 0.00319751 0.47301 -0.47301 -0.743319
0.261752 0.278541 0.512039 -1 0 0
-0.312477 0.225604 0.558332 -0.865944 0.499968 0.0131682
0.131835 -0.3617 0.570976 0.406722 -0.913531 -0.00618487
0.143024 0.146301 0.000680903 -0.165769 0.165769 -0.972133
-0.0326656 -0.179838 0.482378 0 0 -1
0.0985185 -0.290118 0.576547 0 0 1
-0.293364 -0.181983 0.465022 -1 0 0
0.0379305 -0.164484 0.482378 0 0 -1
0.154027 0.0211751 0.576547 0 0 1
-0.162629 -0.00726509 0.482378 0 0 -1
0.221836 -0.0027527 0.482378 0 0 -1
-0.277825 0.29006 0.0482011 0 0.978559 -0.205969
0.287897 -0.264761 0.198975 0.499988 0.866033 0
0.0864444 0.31748 0.482378 0 0 -1
-0.0183777 0.288575 0.459223 0 0 -1
0.380914 0.0471072 0.526593 0.994407 0.104528 -0.0151217
0.0337791 -0.0493522 0.482378 0 0 -1
0.265271 0.292648 0.463753 0 1 0
0.331402 -0.089418 0.482378 0 0 -1
0.19965 -0.0912886 0.576547 0 0 1
0.275852 -0.150301 0.478231 -1 0 0
0.100397 -0.0969963 0.482378 0 0 -1
0.159753 -0.328294 0.576547 0 0 1
-0.265418 0.28578 0.0312921 0.127808 0.826187 -0.548708
-0.265114 0.0962446 0.482378 0 0 -1
-0.264756 0.28242 0.026387 0.127854 0.826189 -0.548693
0.275852 -0.0406862 0.470468 -1 0 0
-0.280265 0.226576 0.459223 0 0 -1
-0.0301428 0.297721 0.482378 0 0 -1
-0.237573 -0.0740129 0.576547 0 0 1
-0.276045 0.261036 0.520002 0 -1 0
-0.31292 -0.226831 0.482575 -0.743102 -0.669083 0.0113001
0.130506 -0.183807 0.482378 0 0 -1
-0.0732947 0.376661 0.569333 -0.207915 0.978142 0.00316171
-0.353519 0.154662 0.514703 -0.950964 0.308964 0.014461
-0.0264032 0.292648 0.469995 0 1 0
0.275852 -0.0278278 0.476026 -1 0 0
-0.243575 0.22862 0.576547 0 0 1
-0.0373607 -0.328966 0.482378 0 0 -1
-0.17918 0.0490521 0.576547 0 0 1
-0.137894 -0.155243 0.00528794 0.473031 -0.47303 -0.743293
-0.000803202 0.194376 0.482378 0 0 -1
0.120582 0.195405 0.576547 0 0 1
0.164265 0.0825957 0.576547 0 0 1
-0.0675903 0.152261 0.576547 0 0 1
-0.293548 0.196132 0.576547 0 0 1
0.104823 0.0778526 0.576547 0 0 1
0.0565165 0.370706 0.482378 0 0 -1
0.171924 -0.163742 0.0276701 0.165767 0.165767 0.972133
-0.230056 -0.0390464 0.482378 0 0 -1
-0.0807589 -0.0830256 0.482378 0 0 -1
-0.271488 0.0987012 0.482378 0 0 -1
0.148773 -0.321222 0.576547 0 0 1
-0.181574 -0.328228 0.482378 0 0 -1
0.275852 0.0931047 0.472634 -1 0 0
-0.343298 0.173639 0.504527 -0.865944 0.499968 0.0131682
-0.299167 -0.05729 0.576547 0 0 1
-0.160238 0.310819 0.482378 0 0 -1
-0.277284 -0.172175 0.468054 1 0 0
0.261752 -0.278325 0.390716 -1 0 0
-0.146479 -0.274007 0.482378 0 0 -1
0.256252 0.158343 0.576547 0 0 1
0.288393 -0.0793296 0.576547 0 0 1
-0.294959 0.246587 0.493938 -0.743102 0.669083 0.0113001
0.170821 -0.0961072 0.482378 0 0 -1
0.291932 -0.187409 0.459767 1 0 0
0.10743 -0.31441 0.482378 0 0 -1
0.275852 0.00343579 0.478505 -1 0 0
-0.149062 0.354062 0.483296 -0.406722 0.913531 0.00618489
-0.124497 -0.364587 0.544013 -0.406722 -0.913531 0.00618486
0.235777 0.115482 0.482378 0 0 -1
-0.130002 0.276568 0.462639 0 -1 0
-0.241169 0.237146 0.482378 0 0 -1
0.0121896 -0.383795 0.563429 0 -1 0
-0.282128 -0.290878 0.56998 -0.499899 -0.866084 0
0.278121 -0.282994 0.028151 0.291412 -0.627558 -0.721976
0.129709 -0.149304 0.00870356 -0.67771 -0.677708 -0.285345
0.304512 -0.106063 0.576547 0 0 1
-0.272701 0.292099 0.501157 0 1 0
0.271751 0.276568 0.479033 0 -1 0
0.289803 0.167993 0.482378 0 0 -1
-0.26032 0.279707 0.113957 1 0 0
-0.271128 0.261361 0.191885 0.499988 -0.866033 0
-0.0479393 -0.358577 0.482378 0 0 -1
0.109283 -0.299823 0.482378 0 0 -1
-0.26032 0.273427 0.317838 1 0 0
-0.259563 0.286047 0.485162 -0.743102 0.669083 0.0113001
-0.0973189 0.0856345 0.482378 0 0 -1
0.286549 0.181058 0.459223 0 0 -1
0.0361339 0.28293 0.459223 0 0 -1
-0.0516696 0.0438169 0.482378 0 0 -1
0.242801 -0.0769176 0.482378 0 0 -1
0.367666 0.109155 0.50228 0.950964 0.308964 -0.014461
0.281634 0.29199 0.133546 0.499899 0.866084 0
-0.138706 -0.0815007 0.576547 0 0 1
-0.330685 0.000216272 0.482378 0 0 -1
-0.00891241 -0.053188 0.576547 0 0 1
0.14082 -0.108218 0.576547 0 0 1
0.00452755 -0.000628933 0.028186 0.165768 -0.165768 0.972133
-0.0420319 0.149082 0.482378 0 0 -1
-0.284745 0.289368 0.328444 -0.499899 0.866084 0
0.262869 -0.282664 0.36941 -0.866033 -0.499988 0
0.0876057 -0.0738577 0.576547 0 0 1
0.292815 -0.279162 0.50858 1 0 0
-0.0665068 0.276568 0.475831 0 -1 0
-0.375521 0.0739585 0.482378 0 0 -1
0.117559 -0.367418 0.541012 0.207915 -0.978142 -0.00316172
0.158658 -0.225785 0.482378 0 0 -1
0.262541 0.282096 0.566666 -0.866033 0.499988 0
-0.384306 0.021982 0.482904 -0.994407 0.104528 0.0151217
-0.357579 0.141606 0.526591 -0.950964 0.308964 0.014461
-0.0144799 -0.176893 0.482378 0 0 -1
0.132997 0.187168 0.482378 0 0 -1
0.1812 -0.308473 0.482378 0 0 -1
0.216493 0.192572 0.576547 0 0 1
0.349468 -0.16228 0.528919 0.865944 -0.499968 -0.0131682
-0.232409 -0.276568 0.472691 0 1 0
-0.345784 0.0472112 0.576547 0 0 1
0.188845 0.276568 0.473604 0 -1 0
-0.225284 0.292648 0.479836 0 1 0
-0.199581 0.0404753 0.482378 0 0 -1
-0.0916142 0.283409 0.459223 0 0 -1
0.27895 0.00188963 0.576547 0 0 1
-0.303128 0.236162 0.573969 -0.743102 0.669083 0.0113001
-0.013892 0.0041835 0.00666184 -0.47303 0.47303 -0.743294
0.105723 -0.266329 0.482378 0 0 -1
-0.26943 -0.274274 0.533376 -0.743102 -0.669083 0.0113001
-0.191386 0.139456 0.576547 0 0 1
-0.0435634 0.0225426 0.0120895 -0.677711 -0.677708 -0.285342
-0.143775 0.278501 0.482378 0 0 1
-0.167638 0.182172 0.025447 0.473017 0.473017 0.74331
-0.107778 -0.0872821 0.0181003 -0.67771 0.677707 0.285346
0.291932 -0.102031 0.472608 1 0 0
-0.10677 0.359305 0.576547 0 0 1
0.261752 -0.280384 0.305168 -1 0 0
-0.0598824 -0.309621 0.482378 0 0 -1
0.0263235 0.295927 0.576547 0 0 1
0.000995666 0.0951807 0.576547 0 0 1
-0.00624105 -0.281628 0.576547 0 0 1
-0.277284 0.274741 0.462804 1 0 0
-0.265281 0.288399 0.489615 0.499899 0.866084 0
0.260054 0.271447 0.0498195 -0.978559 0 0.205966
0.091417 -0.0469755 0.576547 0 0 1
-0.141793 0.224086 0.576547 0 0 1
0.13529 0.155343 0.00979145 -0.677739 0.677737 -0.285207
0.107485 -0.369537 0.533993 0.207915 -0.978142 -0.00316172
0.292815 -0.280088 0.128481 1 0 0
0.0310517 -0.360145 0.482378 0 0 -1
0.2802 0.275688 0.578863 0 0 1
0.154167 0.351672 0.558419 0.406722 0.913531 -0.0061849
0.110532 0.344622 0.576547 0 0 1
-0.130265 -0.319113 0.576547 0 0 1
-0.283329 -0.290185 0.234428 -0.499899 -0.866084 0
-0.274667 0.283411 0.0578863 0 0 -1
0.0797999 -0.0929638 0.0254072 -0.473017 -0.473017 0.74331
-0.0139388 -0.220989 0.576547 0 0 1
-0.220249 0.256697 0.482378 0 0 -1
-0.315669 0.219797 0.568858 -0.865944 0.499968 0.0131682
0.206801 -0.125909 0.576547 0 0 1
-0.343561 -0.0570496 0.576547 0 0 1
0.153573 -0.0340355 0.576547 0 0 1
-0.279232 0.261036 0.170218 0 -1 0
-0.293364 0.259672 0.464368 -1 0 0
-0.0680014 -0.0885549 0.00757801 0.677739 -0.677737 -0.285207
0.329129 0.0674258 0.482378 0 0 -1
0.22657 -0.225626 3.89144e-05 0.165769 0.165769 -0.972132
0.25326 -0.0548622 0.576547 0 0 1
0.195901 -0.276568 0.477469 0 1 0
0.129674 -0.362535 0.552235 0.406722 -0.913531 -0.00618487
0.0166729 -0.145422 0.576547 0 0 1
0.226766 0.201862 0.482378 0 0 -1
-0.168835 0.279845 0.482378 0 0 -1
-0.121144 -0.14195 0.00817688 0.677739 -0.677737 -0.285207
0.295279 0.24634 0.571438 0.743102 0.669083 -0.0113001
0.21189 -0.102082 0.576547 0 0 1
-0.0633019 -0.0586514 0.000915108 -0.165769 0.165769 -0.972132
-0.223395 0.281999 0.459223 0 0 -1
-0.0260647 -0.11762 0.576547 0 0 1
0.0801817 -0.375468 0.573436 0.207915 -0.978142 -0.00316171
-0.0562856 0.205993 0.576547 0 0 1
0.00064306 -0.291703 0.576547 0 0 1
-0.0424177 -0.251016 0.482378 0 0 -1
0.0701827 0.278363 0.459223 0 0 -1
0.164298 -0.289635 0.459223 0 0 -1
0.275852 -0.157019 0.465439 -1 0 0
0.198796 -0.0390713 0.482378 0 0 -1
0.28169 -0.261177 0.549394 0.499988 0.866033 0
0.0616911 0.379124 0.488661 0.207915 0.978142 -0.0031617
-0.0476286 0.38222 0.537381 -0.207915 0.978142 0.00316171
0.118793 0.195099 0.576547 0 0 1
0.265909 0.0917896 0.482378 0 0 -1
-0.186928 0.251048 0.482378 0 0 -1
0.275609 -0.291868 0.0578863 0 0 1
-0.271645 -0.261062 0.442221 0.499988 0.866033 0
-0.167318 0.219392 0.576547 0 0 1
0.105749 -0.22208 0.576547 0 0 1
0.138494 -0.129707 0.576547 0 0 1
0.276084 -0.292099 0.232723 0 -1 0
0.112102 -0.36076 0.482378 0 0 -1
0.0320605 -0.237751 0.482378 0 0 -1
0.27433 -0.261036 0.417104 0 1 0
-0.273198 -0.292099 0.281175 0 -1 0
-0.190808 0.197976 0.482378 0 0 -1
0.0336252 -0.157184 0.482378 0 0 -1
0.125148 -0.0100529 0.482378 0 0 -1
-0.269393 0.262362 0.163904 0.499988 -0.866033 0
0.368374 -0.0500434 0.576547 0 0 1
0.158201 0.146347 0.00189922 0.165769 -0.165769 -0.972132
-0.283319 -0.272175 0.578863 0 0 1
-0.259465 0.292648 0.47089 0 1 0
-0.287412 0.287609 0.516072 -0.866084 0.499899 0
0.069438 -0.0683071 0.0288725 0.165768 0.165768 0.972133
0.020077 0.334519 0.482378 0 0 -1
0.292815 0.274647 0.52024 1 0 0
-0.305689 -0.0183797 0.576547 0 0 1
-0.217742 0.247107 0.482378 0 0 -1
0.144034 0.0240958 0.576547 0 0 1
-0.231402 0.276568 0.468357 0 -1 0
0.192001 0.327598 0.576547 0 0 1
-0.271327 0.291889 0.0599342 0.499899 0.866084 0
-0.285092 -0.289167 0.400264 -0.499899 -0.866084 0
-0.129223 -0.111224 0.00661249 -0.47301 0.473011 -0.743319
-0.257905 -0.0079248 0.576547 0 0 1
-0.0988939 0.105838 0.576547 0 0 1
-0.285503 -0.193577 0.482378 0 0 -1
0.0383674 0.0807497 0.482378 0 0 -1
-0.100273 -0.301803 0.482378 0 0 -1
-0.190895 0.316848 0.482378 0 0 -1
-0.0461821 0.320904 0.576547 0 0 1
-0.165217 -0.207947 0.482378 0 0 -1
-0.215258 -0.318309 0.50177 -0.587764 -0.808983 0.00893796
-0.0577626 0.0466435 0.00223481 -0.47301 -0.47301 -0.743319
-0.0785969 -0.239702 0.576547 0 0 1
0.347311 0.16702 0.566975 0.865944 0.499968 -0.0131682
0.270234 0.262704 0.188204 -0.499988 -0.866033 0
-0.267222 -0.263616 0.322895 0.499988 0.866033 0
0.285106 -0.26315 0.303052 0.499988 0.866033 0
-0.136896 -0.131982 0.576547 0 0 1
-0.0113123 -0.112646 0.576547 0 0 1
0.291668 -0.282716 0.294666 0.866084 -0.499899 0
-0.230717 -0.284569 0.482378 0 0 -1
-0.038157 0.383795 0.483799 0 1 0
-0.0798969 -0.0429955 0.482378 0 0 -1
0.0323478 0.028826 0.576547 0 0 1
0.249092 -0.276568 0.466689 0 1 0
-0.269054 -0.290577 0.535461 0.499899 -0.866084 0
-0.322316 0.167652 0.482378 0 0 -1
-0.313107 0.224608 0.554666 -0.865944 0.499968 0.0131682
0.0203648 0.00897226 0.482378 0 0 -1
0.0763355 -0.045484 0.482378 0 0 -1
-0.148195 -0.324684 0.576547 0 0 1
0.274993 -0.126094 0.576547 0 0 1
-0.173144 0.159114 0.482378 0 0 -1
-0.343379 0.000493355 0.576547 0 0 1
0.247591 -0.14248 0.576547 0 0 1
0.114508 -0.0870063 0.576547 0 0 1
0.056472 0.131302 0.482378 0 0 -1
-0.269649 0.130995 0.576547 0 0 1
0.119908 -0.128164 0.0274134 -0.165768 -0.165768 0.972133
-0.127602 0.0178706 0.576547 0 0 1
-0.139887 -0.0601145 0.576547 0 0 1
0.146016 0.135501 0.00167104 0.165769 -0.165769 -0.972132
-0.282887 -0.07008 0.576547 0 0 1
-0.376909 0.0796097 0.570986 -0.994407 0.104528 0.0151217
0.279019 0.0288715 0.482378 0 0 1
-0.280822 -0.261503 0.354175 -0.499988 0.866033 0
0.115321 0.360216 0.576547 0 0 1
0.270585 -0.290634 0.262681 -0.499899 -0.866084 0
-0.328434 0.191058 0.482378 0 0 -1
-0.178955 0.340302 0.549796 -0.406722 0.913531 0.00618489
0.323237 0.0136187 0.576547 0 0 1
0.26695 -0.287409 0.0452238 -0.498422 -0.863525 -0.0768153
0.361876 -0.129868 0.564073 0.950964 -0.308964 -0.014461
-0.102691 -0.252474 0.482378 0 0 -1
-0.0995613 -0.371148 0.547507 -0.207915 -0.978142 0.00316169
0.0139906 -0.240703 0.576547 0 0 1
-0.260384 -0.272296 0.553605 0.866033 0.499988 0
0.11513 0.367827 0.507825 0.207915 0.978142 -0.00316169
0.00447145 -0.0599081 0.482378 0 0 -1
-0.0855359 0.276568 0.461797 0 -1 0
-0.372434 -0.0529965 0.576547 0 0 1
0.287481 0.244997 0.482378 0 0 -1
0.0304665 -0.00906302 0.0193463 0.677707 0.677709 0.28535
0.148081 -0.354212 0.533423 0.406722 -0.913531 -0.00618487
-0.293364 -0.16026 0.47035 -1 0 0
0.159803 0.295761 0.482378 0 0 -1
0.31599 0.206904 0.482378 0 0 -1
-0.205984 0.0129976 0.576547 0 0 1
0.35109 0.14391 0.482378 0 0 -1
-0.290633 -0.0509032 0.576547 0 0 1
-0.0553005 -0.0784077 0.0152998 0.677736 -0.677738 0.285211
0.151022 -0.352716 0.505715 0.406722 -0.913531 -0.0061849
-0.0399067 -0.27056 0.576547 0 0 1
-0.292139 -0.246633 0.576547 0 0 1
0.261918 -0.281016 0.486827 -0.866033 -0.499988 0
-0.0926371 0.029161 0.482378 0 0 -1
0.291932 -0.141166 0.479006 1 0 0
0.284373 0.203906 0.482378 0 0 -1
0.107789 -0.0350339 0.576547 0 0 1
0.0795822 -0.155037 0.482378 0 0 -1
-0.0102853 0.0231076 0.482378 0 0 -1
-0.145894 0.355254 0.515471 -0.406722 0.913531 0.00618489
-0.154715 -0.276661 0.576547 0 0 1
0.17939 -0.16571 0.00295277 0.47301 0.47301 -0.743319
-0.161576 0.0474485 0.482378 0 0 -1
-0.0926538 0.137125 0.576547 0 0 1
-0.105671 -0.115423 0.482378 0 0 -1
-0.288535 -0.224897 0.459223 0 0 -1
-0.0760928 -0.276568 0.470252 0 1 0
-0.170064 -0.342118 0.576547 0 0 1
0.0591273 -0.0551893 0.0283938 0.165768 0.165768 0.972133
0.210709 -0.0624442 0.482378 0 0 -1
-0.236489 0.258006 0.0208312 0.724662 0.627619 0.284533
-0.262325 0.284202 0.0851472 0.866033 0.499988 0
-0.28812 0.266754 0.350778 -0.866084 -0.499899 0
0.04077 -0.382119 0.482378 0 0 -1
0.0269405 -0.195434 0.482378 0 0 -1
0.111165 -0.119228 0.576547 0 0 1
-0.251726 0.154919 0.482378 0 0 -1
-0.277284 0.154936 0.466381 1 0 0
-0.312393 -0.0342442 0.576547 0 0 1
-0.211131 0.284882 0.459223 0 0 -1
0.154795 -0.092693 0.576547 0 0 1
0.293052 -0.0529044 0.576547 0 0 1
-0.284989 0.289227 0.482992 -0.499899 0.866084 0
-0.136923 -0.0596728 0.482378 0 0 -1
-0.370498 -0.0996013 0.574496 -0.950964 -0.308964 0.014461
0.0445236 -0.0260193 0.576547 0 0 1
0.19606 0.203401 0.482378 0 0 -1
0.272505 -0.255786 0.0388212 0.127779 0.826183 0.548721
0.284658 0.148276 0.482378 0 0 1
0.163521 0.119854 0.576547 0 0 1
-0.254381 0.289479 0.538406 -0.587764 0.808983 0.00893799
-0.326299 -0.203167 0.501255 -0.865944 -0.499968 0.0131682
0.275852 -0.247477 0.470501 -1 0 0
0.252424 0.289938 0.482378 0 0 1
0.291932 -0.0488325 0.471966 1 0 0
0.202761 0.112911 0.482378 0 0 -1
-0.21344 0.280185 0.482378 0 0 1
-0.090877 -0.373198 0.484315 -0.207915 -0.978142 0.00316172
0.154384 -0.0326363 0.576547 0 0 1
0.155518 -0.0828927 0.576547 0 0 1
-0.0416112 0.376391 0.482378 0 0 -1
0.123149 -0.170847 0.576547 0 0 1
-0.284646 -0.1483 0.482378 0 0 -1
-0.24005 0.299987 0.529767 -0.587764 0.808983 0.00893799
0.0207917 0.274593 0.576547 0 0 1
-0.257001 -0.213708 0.576547 0 0 1
-0.10452 -0.246553 0.482378 0 0 -1
0.302546 0.238127 0.562973 0.743102 0.669083 -0.0113001
-0.226674 -0.281036 0.482378 0 0 1
-0.14252 0.143397 0.482378 0 0 -1
0.297481 -0.0129328 0.482378 0 0 -1
-0.219649 0.314586 0.549973 -0.587764 0.808983 0.00893796
-0.0282833 0.0178607 0.00189937 -0.165769 -0.165769 -0.972132
-0.0805425 0.121823 0.576547 0 0 1
-0.266282 0.264159 0.325991 0.499988 -0.866033 0
-0.0606137 0.0700229 0.00148237 0.165769 0.165769 -0.972132
0.053946 -0.261474 0.482378 0 0 -1
0.291932 0.253477 0.467847 1 0 0
-0.273617 -0.252248 0.022972 -0.811674 0.545373 -0.209173
0.0467223 -0.231066 0.482378 0 0 -1
-0.262452 -0.255358 0.482378 0 0 -1
-0.27062 -0.273407 0.506481 -0.743102 -0.669083 0.0113001
-0.358159 0.139263 0.538546 -0.950964 0.308964 0.014461
-0.00801188 -0.197706 0.482378 0 0 -1
-0.131863 0.218333 0.576547 0 0 1
-0.285855 -0.288727 0.57452 -0.499899 -0.866084 0
0.107787 0.328505 0.482378 0 0 -1
-0.267281 0.263582 0.157085 0.499988 -0.866033 0
0.362081 0.0716695 0.576547 0 0 1
-0.294218 0.247074 0.482378 0 0 -1
-0.278377 0.290184 0.0492721 -0.480706 0.8322 -0.276343
-0.0446564 0.0582585 0.0260396 0.473017 0.473017 0.74331
0.246997 0.256354 0.576547 0 0 1
0.235041 0.182441 0.482378 0 0 -1
-0.0293869 -0.285164 0.482378 0 0 -1
0.104032 -0.095998 0.00124788 0.165769 0.165769 -0.972132
0.177982 -0.175041 0.576547 0 0 1
-0.289803 0.149486 0.576547 0 0 1
-0.288386 0.0822946 0.482378 0 0 -1
-0.0214971 -0.0398681 0.00593856 0.473031 -0.47303 -0.743293
-0.10364 -0.0917658 0.00271506 -0.47303 0.47303 -0.743294
-0.304966 0.235139 0.513713 -0.743102 0.669083 0.0113001
0.271179 -0.290977 0.510758 -0.499899 -0.866084 0
0.224106 0.304817 0.576547 0 0 1
-0.216632 -0.317117 0.519262 -0.587764 -0.808983 0.00893796
-0.0900803 0.104439 0.0033851 0.47303 0.47303 -0.743293
-0.178149 0.0294563 0.576547 0 0 1
-0.277284 0.22279 0.465912 1 0 0
0.0837224 0.312539 0.576547 0 0 1
-0.269859 -0.0551939 0.576547 0 0 1
-0.291398 0.125786 0.459223 0 0 -1
-0.301043 -0.00871193 0.576547 0 0 1
-0.335751 0.184873 0.574268 -0.865944 0.499968 0.0131682
-0.280237 -0.261165 0.456223 -0.499988 0.866033 0
-0.277284 0.257575 0.468145 1 0 0
0.292815 0.276466 0.209863 1 0 0
0.273621 -0.0406052 0.482378 0 0 -1
0.289432 0.266546 0.521147 0.866084 -0.499899 0
-0.000626296 0.287891 0.482378 0 0 1
-0.0496768 0.248992 0.482378 0 0 -1
-0.215351 -0.0486051 0.576547 0 0 1
-0.293364 -0.135548 0.464179 -1 0 0
-0.217955 -0.236706 0.0227629 0.473017 -0.473016 0.74331
0.300572 -0.0154814 0.576547 0 0 1
0.291932 -0.0181715 0.482288 1 0 0
0.29259 -0.272016 0.432625 0.866084 0.499899 0
0.0286208 -0.242665 0.482378 0 0 -1
0.0802571 -0.375206 0.497274 0.207915 -0.978142 -0.00316172
0.0158625 0.230874 0.576547 0 0 1
-0.0895667 0.191618 0.576547 0 0 1
-0.0339886 -0.219943 0.482378 0 0 -1
-0.077191 -0.00601945 0.576547 0 0 1
-0.0614619 -0.340854 0.576547 0 0 1
0.33787 0.0836439 0.576547 0 0 1
0.332347 -0.0257111 0.482378 0 0 -1
0.23645 -0.227639 0.576547 0 0 1
0.311291 0.227407 0.503305 0.743102 0.669083 -0.0113001
0.118601 0.097179 0.576547 0 0 1
0.138407 0.136776 0.000156017 0.165769 -0.165769 -0.972132
0.0852698 -0.0827573 0.482378 0 0 -1
0.157335 0.177257 0.00947873 -0.677739 0.677737 -0.285207
-0.324488 0.186234 0.482378 0 0 -1
-0.0918107 -0.0130944 0.482378 0 0 -1
-0.259235 -0.279355 0.482378 0 0 1
-0.0873984 -0.314861 0.576547 0 0 1
-0.269233 0.188053 0.576547 0 0 1
0.271621 -0.156938 0.482378 0 0 -1
0.267816 0.277708 0.459223 0 0 -1
-0.220148 -0.286742 0.576547 0 0 1
-0.0984424 -0.100975 0.000309805 0.165769 -0.165769 -0.972132
0.276341 0.159367 0.482378 0 0 1
-0.198145 0.330672 0.508146 -0.587764 0.808983 0.00893796
-0.00786036 0.241401 0.482378 0 0 -1
0.027526 -0.383795 0.507686 0 -1 0
-0.135488 -0.10513 0.482378 0 0 -1
-0.293364 0.215274 0.464205 -1 0 0
-0.16101 -0.348517 0.516565 -0.406722 -0.913531 0.00618486
-0.246136 -0.238065 0.0136197 0.707094 0.707119 -9.08951e-05
0.0620763 -0.0615919 3.9489e-05 -0.165769 -0.165769 -0.972132
-0.251755 0.292648 0.462194 0 1 0
-0.139247 0.136615 0.482378 0 0 -1
0.268016 -0.289151 0.0726374 -0.499899 -0.866084 0
0.0432834 -0.0120568 0.576547 0 0 1
-0.278347 -0.284324 0.0315725 -0.480685 -0.832184 -0.276426
-0.0318707 -0.0461514 0.482378 0 0 -1
-0.068506 -0.226589 0.482378 0 0 -1
-0.260399 0.26514 0.576547 0 0 1
0.149494 0.326335 0.482378 0 0 -1
-0.057276 0.380165 0.538503 -0.207915 0.978142 0.00316171
-0.260377 0.272308 0.0974914 0.866033 -0.499988 0
-0.0773335 0.272452 0.482378 0 0 -1
-0.250519 0.218754 0.576547 0 0 1
-0.143733 0.165654 0.0181141 0.677738 0.677736 0.285211
0.194492 0.181224 0.00269142 0.47303 -0.47303 -0.743294
-0.0630806 -0.0711434 0.00125279 0.165769 -0.165769 -0.972132
-0.0518477 -0.0942893 0.482378 0 0 -1
-0.30276 -0.117881 0.576547 0 0 1
-0.143333 -0.0156095 0.576547 0 0 1
-0.284853 -0.223796 0.482378 0 0 1
-0.248729 0.131091 0.576547 0 0 1
-0.115164 -0.322451 0.482378 0 0 -1
0.00685035 -0.355766 0.482378 0 0 -1
-0.0935568 -0.219963 0.576547 0 0 1
0.0377344 -0.255342 0.482378 0 0 -1
-0.262446 0.276568 0.46641 0 -1 0
-0.268881 0.290477 0.25214 0.499899 0.866084 0
0.275852 0.055133 0.480988 -1 0 0
0.367627 0.0904461 0.576547 0 0 1
0.0667652 -0.290057 0.459223 0 0 -1
0.275049 0.292099 0.236311 0 1 0
0.1527 0.346216 0.482378 0 0 -1
0.34805 0.10626 0.576547 0 0 1
0.220765 0.31411 0.539252 0.587764 0.808983 -0.00893796
0.107483 0.369587 0.549283 0.207915 0.978142 -0.00316169
-0.293364 -0.116516 0.466922 -1 0 0
0.30021 0.240021 0.521512 0.743102 0.669083 -0.0113001
-0.300721 0.239257 0.549069 -0.743102 0.669083 0.0113001
0.271973 0.2617 0.409486 -0.499988 -0.866033 0
-0.0944458 -0.372406 0.494681 -0.207915 -0.978142 0.00316172
-0.277021 -0.292099 0.552521 0 -1 0
-0.228943 -0.00075716 0.482378 0 0 -1
0.275852 -0.174429 0.474966 -1 0 0
-0.0151089 0.383795 0.499445 0 1 0
0.263005 -0.104022 0.576547 0 0 1
-0.272595 0.261036 0.42787 0 -1 0
-0.277654 -0.261036 0.209402 0 1 0
-0.161826 -0.0909831 0.482378 0 0 -1
-0.286409 0.264729 0.198575 -0.499988 -0.866033 0
0.0753407 0.197484 0.482378 0 0 -1
0.284954 -0.0569644 0.482378 0 0 1
0.290705 0.284385 0.514348 0.866084 0.499899 0
-0.289423 -0.244623 0.482378 0 0 -1
-0.203336 0.249177 0.576547 0 0 1
0.123685 -0.156774 0.576547 0 0 1
-0.0689926 -0.147461 0.482378 0 0 -1
0.0104467 0.309749 0.576547 0 0 1
-0.304057 0.0147408 0.576547 0 0 1
-0.291383 -0.273063 0.204065 -1 0 0
-0.286344 -0.264691 0.378704 -0.499988 0.866033 0
0.0418027 0.346709 0.482378 0 0 -1
0.0533964 -0.00914764 0.576547 0 0 1
-0.254349 -0.239871 0.00608082 -0.590374 0.340836 -0.731635
0.240827 0.0892005 0.576547 0 0 1
0.0556545 0.380552 0.533312 0.207915 0.978142 -0.0031617
-0.0055767 -0.292658 0.576547 0 0 1
-0.20279 -0.327305 0.507439 -0.587764 -0.808983 0.00893796
0.282069 -0.261396 0.242133 0.499988 0.866033 0
0.383807 0.0205923 0.533601 0.994407 0.104528 -0.0151217
0.269483 -0.272861 0.578863 0 0 1
0.174828 0.168453 0.576547 0 0 1
0.1249 -0.293782 0.482378 0 0 -1
-0.247887 -0.280016 0.482378 0 0 -1
0.265131 0.278677 0.503483 0.743102 0.669083 -0.0113001
-0.12294 -0.0676469 0.482378 0 0 -1
-0.0195754 0.198819 0.576547 0 0 1
-0.163776 0.319031 0.576547 0 0 1
-0.26032 0.274855 0.533166 1 0 0
0.103098 0.292648 0.466694 0 1 0
0.0374671 -0.361359 0.482378 0 0 -1
-0.130305 -0.17138 0.482378 0 0 -1
0.112867 0.314833 0.576547 0 0 1
0.230224 -0.238024 0.0274911 -0.165767 -0.165767 0.972133
0.247907 -0.197335 0.482378 0 0 -1
-0.368213 -0.107758 0.550469 -0.950964 -0.308964 0.014461
-0.171187 0.242921 0.482378 0 0 -1
0.354646 0.00603238 0.482378 0 0 -1
-0.285614 0.230691 0.576547 0 0 1
0.298224 0.24239 0.531191 0.743102 0.669083 -0.0113001
-0.0589763 -0.167375 0.576547 0 0 1
0.106601 0.228635 0.482378 0 0 -1
0.0401874 0.383795 0.552296 0 1 0
-0.229614 0.134357 0.576547 0 0 1
0.262946 -0.25163 0.576547 0 0 1
0.29396 -0.185191 0.482378 0 0 -1
0.255628 -0.0482489 0.576547 0 0 1
0.166061 -0.241224 0.576547 0 0 1
0.0865018 -0.292425 0.576547 0 0 1
-0.0229805 0.0507835 0.576547 0 0 1
0.261895 0.280977 0.448037 -0.866033 0.499988 0
0.312335 0.0782343 0.576547 0 0 1
0.0372856 -0.37864 0.482378 0 0 -1
0.00273189 -0.135338 0.576547 0 0 1
0.0802825 0.28282 0.576547 0 0 1
0.0274487 -0.0163517 0.576547 0 0 1
-0.285048 -0.289193 0.270654 -0.499899 -0.866084 0
-0.282974 -0.29039 0.494841 -0.499899 -0.866084 0
0.275852 -0.0843158 0.46063 -1 0 0
-0.193773 -0.020723 0.482378 0 0 -1
0.270156 -0.262749 0.318376 -0.499988 0.866033 0
0.0676278 0.306038 0.482378 0 0 -1
-0.251599 -0.204935 0.576547 0 0 1
-0.198838 -0.119282 0.482378 0 0 -1
0.260107 -0.285027 0.549134 0.743102 -0.669083 -0.0113001
0.183868 -0.21676 0.482378 0 0 -1
-0.293364 0.239584 0.477805 -1 0 0
0.0731207 0.118544 0.576547 0 0 1
-0.196848 0.292648 0.474738 0 1 0
0.0677859 -0.099569 0.576547 0 0 1
-0.162234 0.0554906 0.576547 0 0 1
-0.383103 0.029305 0.511445 -0.994407 0.104528 0.0151217
-0.385004 0.00947916 0.523469 -0.994407 0.104528 0.0151217
-0.321283 0.15581 0.482378 0 0 -1
-0.262768 0.284968 0.195553 0.866033 0.499988 0
-0.293364 -0.189002 0.480056 -1 0 0
0.0946292 0.131831 0.482378 0 0 -1
-0.285228 -0.289089 0.24716 -0.499899 -0.866084 0
-0.365893 0.117875 0.48694 -0.950964 0.308964 0.014461
0.280655 -0.261036 0.123589 0 1 0
0.101867 -0.365181 0.482378 0 0 -1
0.0105458 -0.189285 0.482378 0 0 -1
-0.113916 0.292648 0.469324 0 1 0
0.353588 -0.152266 0.49763 0.950964 -0.308964 -0.014461
-0.0841084 -0.103925 0.0220847 0.473017 -0.473016 0.74331
-0.292934 0.247646 0.564375 -0.743102 0.669083 0.0113001
-0.34865 0.00964731 0.482378 0 0 -1
-0.00974106 -0.377977 0.482378 0 0 -1
-0.0552038 0.152692 0.482378 0 0 -1
0.0557047 -0.132445 0.482378 0 0 -1
-0.168221 -0.0749728 0.482378 0 0 -1
0.172343 -0.343207 0.50334 0.406722 -0.913531 -0.0061849
-0.119104 -0.121232 0.000240901 0.165769 -0.165769 -0.972132
0.284825 -0.262987 0.355559 0.499988 0.866033 0
0.100166 -0.279506 0.459223 0 0 -1
-0.14064 -0.239143 0.482378 0 0 -1
0.291932 0.00109443 0.468265 1 0 0
0.124435 0.0307613 0.576547 0 0 1
0.316436 -0.186202 0.576547 0 0 1
-0.246552 0.257689 0.0051944 -3.85557e-05 0.32277 -0.946477
-0.206882 0.292634 0.482378 0 0 1
0.372322 -0.0951958 0.510231 0.950964 -0.308964 -0.014461
0.100643 0.0785257 0.0112915 0.677707 -0.677709 -0.285346
0.289773 -0.0692032 0.482378 0 0 -1
-0.0481762 0.231855 0.482378 0 0 -1
0.291932 -0.272769 0.462813 1 0 0
-0.196709 -0.278461 0.482378 0 0 1
-0.037836 0.345325 0.576547 0 0 1
-0.166279 0.139487 0.482378 0 0 -1
0.137248 -0.24619 0.482378 0 0 -1
0.208892 -0.010139 0.576547 0 0 1
0.0208583 -0.134152 0.576547 0 0 1
-0.031319 -0.125865 0.576547 0 0 1
0.0635581 0.0730783 0.482378 0 0 -1
0.217253 -0.272497 0.576547 0 0 1
-0.172969 0.278282 0.459223 0 0 -1
0.102763 0.248914 0.482378 0 0 -1
-0.267776 0.020986 0.482378 0 0 -1
0.144258 0.355957 0.539666 0.406722 0.913531 -0.00618486
-0.184685 0.277518 0.482378 0 0 1
-0.0227949 0.252204 0.576547 0 0 1
0.339202 -0.179747 0.516961 0.865944 -0.499968 -0.0131682
-0.360717 -0.00564772 0.576547 0 0 1
0.0262826 -0.0257454 0.482378 0 0 -1
0.290969 0.283927 0.470726 0.866084 0.499899 0
0.0532039 -0.381037 0.522239 0.207915 -0.978142 -0.00316171
-0.0193647 -0.00866795 0.0269772 -0.473017 0.473017 0.74331
-0.227134 0.281753 0.482378 0 0 1
-0.180833 -0.200039 0.0224737 0.473017 -0.473016 0.74331
-0.157565 -0.0601742 0.576547 0 0 1
-0.308337 -0.124871 0.482378 0 0 -1
-0.143283 0.292268 0.482378 0 0 -1
0.264427 -0.167306 0.482378 0 0 -1
-0.287423 -0.0684409 0.482378 0 0 -1
-0.116475 -0.326729 0.482378 0 0 -1
0.098226 0.00565152 0.482378 0 0 -1
0.164485 -0.292648 0.476249 0 -1 0
0.277045 0.138923 0.576547 0 0 1
0.0866693 -0.1052 0.482378 0 0 -1
0.380351 0.0594745 0.575075 0.994407 0.104528 -0.0151217
-0.293364 0.130766 0.477992 -1 0 0
-0.0445048 -0.383029 0.492322 -0.207915 -0.978142 0.00316172
0.292785 0.28078 0.287042 0.866084 0.499899 0
-0.0903772 0.189094 0.576547 0 0 1
-0.189925 0.1256 0.576547 0 0 1
0.250724 0.20723 0.482378 0 0 -1
-0.267117 0.263677 0.419104 0.499988 -0.866033 0
0.244648 0.0462045 0.482378 0 0 -1
-0.254974 0.271892 0.482378 0 0 -1
0.291932 -0.180563 0.473013 1 0 0
0.00123501 0.0155617 0.0240064 0.473038 0.473036 0.743285
-0.234744 -0.186546 0.576547 0 0 1
0.153193 -0.130858 0.0118107 0.67771 0.677707 -0.285346
0.301601 -0.0454116 0.482378 0 0 -1
-0.0507735 -0.300214 0.482378 0 0 -1
-0.269879 0.248946 0.0241563 -0.545524 -0.811597 0.20908
0.10438 0.163846 0.576547 0 0 1
0.241711 -0.243922 0.0137573 -0.707169 0.707045 -0.000168996
0.222842 -0.287855 0.482378 0 0 -1
0.261752 0.278993 0.191872 -1 0 0
-0.0523321 0.226873 0.576547 0 0 1
-0.109907 0.165219 0.576547 0 0 1
-0.0211767 -0.292648 0.475186 0 -1 0
0.128382 -0.362861 0.515393 0.406722 -0.913531 -0.00618487
-0.129534 -0.143823 0.0256025 0.473037 -0.473036 0.743285
-0.146221 -0.0594918 0.576547 0 0 1
-0.265535 0.26459 0.537495 0.499988 -0.866033 0
0.132607 -0.360948 0.510692 0.406722 -0.913531 -0.00618487
-0.25831 0.047701 0.576547 0 0 1
-0.0833582 0.063569 0.0197796 -0.677707 -0.677709 0.285347
-0.139303 0.0157085 0.576547 0 0 1
-0.277284 0.0704523 0.474494 1 0 0
0.106954 -0.276568 0.466435 0 1 0
0.103076 -0.211759 0.482378 0 0 -1
-0.234243 -0.155142 0.482378 0 0 -1
0.242424 -0.266992 0.482378 0 0 -1
0.308518 0.148946 0.576547 0 0 1
-0.14744 0.232343 0.576547 0 0 1
0.350896 -0.126419 0.576547 0 0 1
-0.279024 -0.274673 0.0578863 0 0 1
0.0188311 -0.292648 0.473108 0 -1 0
0.284682 0.29023 0.407555 0.499899 0.866084 0
0.117431 0.0659155 0.482378 0 0 -1
0.268912 0.274826 0.524131 0.743102 0.669083 -0.0113001
-0.114568 0.123776 0.482378 0 0 -1
0.113399 0.150863 0.576547 0 0 1
-0.247853 -0.282423 0.482378 0 0 -1
-0.149475 -0.062209 0.482378 0 0 -1
0.18127 -0.275691 0.482378 0 0 -1
0.0718749 0.0389953 0.482378 0 0 -1
-0.0249787 -0.286884 0.459223 0 0 -1
-0.351391 -0.113481 0.482378 0 0 -1
-0.28655 0.0354496 0.576547 0 0 1
0.0275685 0.0402106 0.0257392 -0.473037 0.473037 0.743285
-0.00894305 -0.17689 0.482378 0 0 -1
0.102448 -0.0792204 0.0139303 0.67771 0.677707 -0.285346
-0.0424631 -0.139641 0.482378 0 0 -1
-0.241467 0.27396 0.576547 0 0 1
0.281536 0.292046 0.30707 0.499899 0.866084 0
-0.0121091 0.344106 0.482378 0 0 -1
0.00837955 0.12868 0.576547 0 0 1
-0.0163078 0.267401 0.576547 0 0 1
-0.0702229 -0.228805 0.576547 0 0 1
0.0218429 0.298658 0.576547 0 0 1
-0.180394 0.266116 0.576547 0 0 1
-0.233297 0.0872742 0.482378 0 0 -1
-0.0632407 -0.0596223 0.576547 0 0 1
-0.0446892 0.148298 0.482378 0 0 -1
0.186842 -0.188718 0.576547 0 0 1
-0.0509678 0.381523 0.533509 -0.207915 0.978142 0.00316171
0.0345093 0.137133 0.482378 0 0 -1
0.352128 -0.158692 0.567622 0.865944 -0.499968 -0.0131682
-0.251721 0.191192 0.482378 0 0 -1
0.133302 0.276568 0.474938 0 -1 0
0.0713268 -0.0697226 0.0287918 0.165768 0.165768 0.972133
-0.27811 0.0801462 0.482378 0 0 1
-0.277284 0.149122 0.462033 1 0 0
0.00938579 -0.118222 0.576547 0 0 1
0.0334501 0.0341909 0.0286948 -0.165768 0.165768 0.972133
0.291932 0.162955 0.479617 1 0 0
-0.350313 -0.00107005 0.482378 0 0 -1
-0.251884 0.0170357 0.576547 0 0 1
0.112062 0.107396 0.000673576 0.165769 -0.165769 -0.972132
0.0524779 0.0498568 0.576547 0 0 1
-0.0538524 0.139484 0.482378 0 0 -1
-0.0350826 -0.218812 0.482378 0 0 -1
-0.0497818 0.13787 0.576547 0 0 1
0.337046 -0.184382 0.551165 0.865944 -0.499968 -0.0131682
-0.206398 0.207724 0.00010405 0.165769 0.165769 -0.972132
-0.127491 -0.12068 0.576547 0 0 1
0.0315084 0.0266993 0.000697967 0.165769 -0.165769 -0.972132
0.275852 0.139521 0.470262 -1 0 0
0.284075 0.25272 0.482378 0 0 -1
-0.230546 -0.245112 0.0254264 0.473017 -0.473016 0.74331
-0.19996 -0.19607 0.576547 0 0 1
-0.246051 0.19782 0.576547 0 0 1
0.0278304 0.370262 0.576547 0 0 1
0.283458 -0.0639879 0.482378 0 0 -1
-0.265814 0.27776 0.564798 -0.743102 0.669083 0.0113001
-0.0899868 0.303252 0.482378 0 0 -1
-0.215598 0.245455 0.576547 0 0 1
0.280404 0.261036 0.372419 0 -1 0
-0.179977 0.0861107 0.576547 0 0 1
-0.132726 0.014483 0.482378 0 0 -1
-0.316096 -0.172634 0.576547 0 0 1
0.129133 0.240236 0.482378 0 0 -1
0.0685642 0.0604897 0.0276884 0.165768 -0.165768 0.972133
-0.205461 -0.271334 0.576547 0 0 1
0.0297414 0.383795 0.525473 0 1 0
0.033552 0.383795 0.548454 0 1 0
-0.277284 0.218542 0.464679 1 0 0
0.301322 -0.238936 0.530388 0.743102 -0.669083 -0.0113001
0.283834 -0.199516 0.459223 0 0 -1
-0.180861 0.0892663 0.482378 0 0 -1
0.082189 -0.170882 0.576547 0 0 1
-0.142935 0.288489 0.482378 0 0 1
0.133159 0.349958 0.576547 0 0 1
0.265321 -0.256846 0.0397918 -0.291218 0.627698 0.721933
0.275852 0.263336 0.460523 -1 0 0
-0.263629 0.27744 0.0578863 0 0 1
0.075188 -0.168357 0.482378 0 0 -1
0.292443 -0.271763 0.0899849 0.866084 0.499899 0
-0.289704 -0.283638 0.105796 -0.866084 -0.499899 0
-0.0824229 0.292648 0.476185 0 1 0
0.0683297 0.18002 0.576547 0 0 1
-0.385 -0.0094821 0.523674 -0.994407 -0.104528 0.0151217
-0.155832 -0.0212071 0.482378 0 0 -1
0.115375 -0.118344 0.576547 0 0 1
-0.252991 -0.214494 0.482378 0 0 -1
-0.0918107 -0.272316 0.482378 0 0 -1
0.0954458 0.287132 0.576547 0 0 1
-0.15698 0.350452 0.49579 -0.406722 0.913531 0.00618489
-0.26056 0.271991 0.361459 0.866033 -0.499988 0
-0.278972 -0.237109 0.482378 0 0 1
-0.293364 0.219244 0.463908 -1 0 0
0.275852 0.104171 0.4751 -1 0 0
0.262878 -0.270456 0.0648947 -0.866033 0.499988 0
0.107848 -0.0955546 0.0268727 0.473036 0.473036 0.743286
0.133835 -0.360772 0.565518 0.406722 -0.913531 -0.00618487
0.191561 -0.278893 0.576547 0 0 1
-0.382432 0.0351283 0.51527 -0.994407 0.104528 0.0151217
-0.24344 0.226295 0.0228734 -0.473016 -0.473017 0.74331
-0.10395 0.125941 0.0179485 0.677706 0.677709 0.28535
-0.277284 -0.0102075 0.47501 1 0 0
-0.250084 0.171114 0.576547 0 0 1
0.285441 0.211113 0.482378 0 0 -1
0.178306 0.245194 0.482378 0 0 -1
-0.19769 -0.330408 0.561992 -0.587764 -0.808983 0.00893796
-0.106559 0.221031 0.576547 0 0 1
-0.266434 -0.289065 0.399593 0.499899 -0.866084 0
-0.273579 0.292099 0.376359 0 1 0
-0.0203665 0.383795 0.501529 0 1 0
-0.142873 0.103154 0.576547 0 0 1
-0.179728 0.170454 0.482378 0 0 -1
0.222311 -0.283959 0.482378 0 0 -1
0.275852 -0.115584 0.46424 -1 0 0
-0.290127 0.270231 0.0688949 -0.866084 -0.499899 0
0.0713263 -0.0503597 0.0203841 0.677707 0.677709 0.28535
0.27825 -0.242931 0.459223 0 0 -1
0.0923223 0.292648 0.477421 0 1 0
-0.323857 -0.0317037 0.482378 0 0 -1
0.0239908 -0.0996441 0.576547 0 0 1
0.335387 0.122893 0.576547 0 0 1
0.127433 0.175179 0.576547 0 0 1
-0.0762856 0.15347 0.576547 0 0 1
-0.0850772 -0.0101094 0.576547 0 0 1
-0.279348 -0.214803 0.482378 0 0 -1
-0.00429949 -0.241047 0.482378 0 0 -1
-0.188356 0.00806507 0.482378 0 0 -1
-0.20963 -0.100061 0.482378 0 0 -1
0.371709 0.0985521 0.541663 0.950964 0.308964 -0.014461
0.375218 -0.0882365 0.552013 0.950964 -0.308964 -0.014461
0.371389 -0.0562639 0.482378 0 0 -1
0.0680214 -0.357292 0.482378 0 0 -1
-0.140467 -0.350236 0.482378 0 0 -1
0.365085 0.104932 0.576547 0 0 1
0.107861 0.177353 0.482378 0 0 -1
-0.0992622 0.0702364 0.482378 0 0 -1
-0.215069 0.11857 0.576547 0 0 1
-0.280334 0.261221 0.520895 -0.499988 -0.866033 0
0.265513 0.274906 0.0160336 0.291389 0.62753 -0.72201
-0.0141831 0.120611 0.576547 0 0 1
0.0162546 -0.0118923 0.482378 0 0 -1
-0.105947 0.369814 0.54028 -0.207915 0.978142 0.0031617
-0.32399 -0.206107 0.541468 -0.865944 -0.499968 0.0131682
-0.000374675 -0.382004 0.576547 0 0 1
-0.0484822 -0.195865 0.576547 0 0 1
0.0893145 -0.373322 0.510045 0.207915 -0.978142 -0.00316172
0.0611512 -0.101279 0.482378 0 0 -1
-0.0815832 0.206931 0.576547 0 0 1
-0.242847 0.110775 0.482378 0 0 -1
-0.0984629 -0.193803 0.482378 0 0 -1
0.254087 0.291223 0.482378 0 0 1
0.324307 -0.206836 0.565953 0.865944 -0.499968 -0.0131682
-0.230476 0.306693 0.55244 -0.587764 0.808983 0.00893796
-0.117639 -0.033052 0.576547 0 0 1
0.280002 -0.20393 0.482378 0 0 -1
-0.360236 -0.132535 0.545738 -0.950964 -0.308964 0.014461
0.14083 -0.0419969 0.482378 0 0 -1
0.153781 -0.116104 0.482378 0 0 -1
-0.240993 -0.276568 0.46266 0 1 0
-0.0970504 0.346545 0.482378 0 0 -1
-0.245232 -0.0754554 0.576547 0 0 1
-0.24647 -0.290818 0.482378 0 0 -1
-0.319762 -0.094779 0.576547 0 0 1
-0.304501 -0.0675922 0.482378 0 0 -1
0.184915 0.162167 0.0127911 0.677739 -0.677736 -0.285207
-0.351742 0.0661024 0.482378 0 0 -1
-0.0231748 0.059111 0.482378 0 0 -1
0.377866 -0.0805308 0.56152 0.950964 -0.308964 -0.014461
0.0931031 -0.221921 0.576547 0 0 1
0.0206306 0.383795 0.487089 0 1 0
0.37435 0.0880209 0.490327 0.950964 0.308964 -0.014461
0.317152 0.16843 0.576547 0 0 1
-0.213594 -0.129326 0.576547 0 0 1
-0.283106 0.249103 0.482378 0 0 -1
0.290992 -0.269248 0.258634 0.866084 0.499899 0
0.205776 -0.231069 0.482378 0 0 -1
0.0914026 -0.0492468 0.576547 0 0 1
0.192715 0.193993 0.576547 0 0 1
0.16613 -0.184163 0.482378 0 0 -1
0.297171 0.200567 0.576547 0 0 1
0.0640655 0.0845386 0.0107889 -0.677707 0.67771 -0.285345
0.218441 -0.186845 0.482378 0 0 -1
0.168895 -0.344617 0.484791 0.406722 -0.913531 -0.0061849
-0.247938 0.141078 0.482378 0 0 -1
0.0153984 -0.00605583 0.482378 0 0 -1
0.292815 0.279771 0.22913 1 0 0
-0.154838 -0.13447 0.0105365 -0.677739 0.677736 -0.285207
-0.116384 0.190298 0.576547 0 0 1
0.347685 -0.164481 0.495246 0.865944 -0.499968 -0.0131682
-0.0967823 0.290736 0.459223 0 0 -1
0.16913 -0.166445 0.576547 0 0 1
0.0377317 -0.242487 0.482378 0 0 -1
-0.372272 0.0308064 0.576547 0 0 1
-0.0941213 0.0473668 0.482378 0 0 -1
0.16586 -0.102689 0.576547 0 0 1
-0.186603 0.206388 0.0221054 0.473038 0.473036 0.743285
-0.114838 -0.107515 0.00137073 -0.165769 0.165769 -0.972132
0.165568 -0.299272 0.576547 0 0 1
-0.380084 0.0544548 0.536076 -0.994407 0.104528 0.0151217
0.265791 -0.265412 0.113036 -0.866033 0.499988 0
-0.290987 0.121169 0.482378 0 0 -1
-0.130395 -0.113704 0.482378 0 0 -1
0.06721 -0.343041 0.576547 0 0 1
-0.290721 -0.281875 0.499237 -0.866084 -0.499899 0
0.238741 0.0989829 0.576547 0 0 1
0.27636 0.145962 0.482378 0 0 1
0.0780275 -0.142661 0.576547 0 0 1
-0.206072 0.140817 0.576547 0 0 1
-0.199861 0.292648 0.459824 0 1 0
0.127782 0.109258 0.00603603 0.47301 -0.473011 -0.743319
0.155172 -0.276568 0.476505 0 1 0
-0.289553 -0.283899 0.368683 -0.866084 -0.499899 0
-0.359704 -0.136142 0.5036 -0.950964 -0.308964 0.014461
0.263928 -0.268638 0.339304 -0.866033 0.499988 0
-0.267387 0.263521 0.21715 0.499988 -0.866033 0
-0.194875 0.276568 0.476662 0 -1 0
0.0553766 0.282842 0.482378 0 0 1
-0.251558 -0.238226 0.00459463 -0.590374 0.340836 -0.731635
0.365357 -0.0283623 0.482378 0 0 -1
0.134275 -0.348619 0.482378 0 0 -1
0.121164 -0.231993 0.482378 0 0 -1
0.271887 -0.265627 0.0578863 0 0 -1
0.100983 -0.0983325 0.576547 0 0 1
0.271331 0.114749 0.482378 0 0 -1
0.0516522 0.381241 0.483447 0.207915 0.978142 -0.0031617
0.302898 0.0837218 0.482378 0 0 -1
-0.281303 0.0643362 0.482378 0 0 -1
-0.262939 0.26787 0.197792 0.866033 -0.499988 0
0.131448 -0.12056 0.576547 0 0 1
-0.15584 -0.0458309 0.576547 0 0 1
-0.338483 0.182492 0.485008 -0.865944 0.499968 0.0131682
-0.164393 -0.0301208 0.482378 0 0 -1
-0.0558095 0.0428022 0.0255067 -0.473036 -0.473036 0.743286
-0.342487 -0.171688 0.576547 0 0 1
0.383135 -0.0235006 0.509476 0.994407 -0.104528 -0.0151217
-0.11654 -0.126311 0.0273992 0.165767 -0.165767 0.972133
0.0682779 0.0705302 0.576547 0 0 1
0.27384 0.179313 0.576547 0 0 1
0.228699 -0.308172 0.523543 0.587764 -0.808983 -0.00893796
0.346703 -0.167522 0.546088 0.865944 -0.499968 -0.0131682
-0.200144 -0.276568 0.470695 0 1 0
-0.170846 0.177738 0.02789 0.165767 0.165767 0.972133
-0.262769 -0.268165 0.472235 0.866033 0.499988 0
0.261875 0.272194 0.155736 -0.866033 -0.499988 0
-0.353798 -0.151017 0.574155 -0.950964 -0.308964 0.014461
-0.136865 0.338951 0.482378 0 0 -1
-0.176572 0.341315 0.556886 -0.406722 0.913531 0.00618487
0.173858 0.210467 0.576547 0 0 1
0.0365682 -0.0325254 0.482378 0 0 -1
-0.277284 -0.237299 0.472239 1 0 0
0.366957 -0.110535 0.485182 0.950964 -0.308964 -0.014461
0.372422 -0.094317 0.498043 0.950964 -0.308964 -0.014461
-0.277284 0.049443 0.460075 1 0 0
-0.289197 -0.26862 0.380187 -0.866084 0.499899 0
0.333434 0.190864 0.559727 0.865944 0.499968 -0.0131682
0.161709 -0.292648 0.471574 0 -1 0
-0.00612496 0.0029372 0.000665673 -0.165769 -0.165769 -0.972132
0.0704712 0.283986 0.459223 0 0 -1
-0.140508 -0.120366 0.482378 0 0 -1
-0.0408419 0.0437444 0.000372844 0.165769 0.165769 -0.972132
0.0230416 0.0395079 0.0233053 -0.473037 0.473037 0.743285
-0.280199 0.261144 0.260497 -0.499988 -0.866033 0
-0.0216995 -0.0906678 0.576547 0 0 1
-0.21235 0.235227 0.482378 0 0 -1
0.204448 0.269457 0.482378 0 0 -1
0.177447 -0.224483 0.576547 0 0 1
-0.0666249 0.0506642 0.0236271 -0.473036 -0.473036 0.743286
0.0910799 0.0950776 0.482378 0 0 -1
0.159635 0.0382348 0.482378 0 0 -1
0.10204 0.200301 0.576547 0 0 1
-0.0778118 0.0932089 0.00404601 0.47303 0.47303 -0.743293
-0.27008 -0.291169 0.181531 0.499899 -0.866084 0
0.166095 -0.226696 0.482378 0 0 -1
-0.176639 0.321769 0.482378 0 0 -1
-0.289375 -0.268929 0.12567 -0.866084 0.499899 0
-0.05319 -0.210005 0.576547 0 0 1
0.302001 -0.154143 0.576547 0 0 1
-0.0263595 -0.253457 0.482378 0 0 -1
-0.0153769 -0.0019539 0.0252422 -0.473036 0.473037 0.743285
-0.225559 -0.0127613 0.576547 0 0 1
-0.112707 -0.331168 0.482378 0 0 -1
0.291879 0.270785 0.219972 0.866084 -0.499899 0
0.0940398 -0.105917 0.00271729 -0.473031 -0.473031 -0.743293
-0.0251627 -0.0584447 0.576547 0 0 1
0.275852 0.169438 0.459601 -1 0 0
-0.366396 -0.0525965 0.576547 0 0 1
0.0465147 -0.218062 0.482378 0 0 -1
0.314094 -0.00737819 0.576547 0 0 1
-0.287573 0.00573629 0.459223 0 0 -1
-0.264179 0.265723 0.0815735 0.866033 -0.499988 0
0.201788 -0.0795305 0.482378 0 0 -1
0.275172 -0.261036 0.146113 0 1 0
-0.385669 -0.00731191 0.494684 -0.994407 -0.104528 0.0151217
0.0596429 -0.175667 0.482378 0 0 -1
0.275852 0.018112 0.465804 -1 0 0
-0.330383 -0.194167 0.574404 -0.865944 -0.499968 0.0131682
-0.223888 -0.157695 0.482378 0 0 -1
0.135887 -0.22249 0.482378 0 0 -1
0.383368 -0.0297828 0.568209 0.994407 -0.104528 -0.0151217
0.134717 -0.337935 0.482378 0 0 -1
0.107014 -0.122978 0.0236252 -0.473038 -0.473037 0.743284
-0.0323617 -0.147711 0.576547 0 0 1
0.195133 -0.181298 0.576547 0 0 1
0.0401488 -0.173234 0.482378 0 0 -1
-0.276558 0.292648 0.475648 0 1 0
0.35599 0.0189161 0.482378 0 0 -1
0.0180614 0.256012 0.576547 0 0 1
0.2683 0.289315 0.514469 -0.499899 0.866084 0
-0.0280775 0.0981906 0.482378 0 0 -1
-0.340517 -0.0511057 0.576547 0 0 1
-0.280672 0.0457728 0.459223 0 0 -1
0.115805 0.136019 0.0101756 -0.677739 0.677737 -0.285207
0.103297 0.284993 0.482378 0 0 -1
0.290389 0.268204 0.0601549 0.866084 -0.499899 0
0.0775456 0.286697 0.576547 0 0 1
-0.243826 -0.297234 0.530615 -0.587764 -0.808983 0.00893796
0.373696 -0.0922421 0.537471 0.950964 -0.308964 -0.014461
0.313503 0.0936268 0.482378 0 0 -1
-0.12006 0.336906 0.482378 0 0 -1
0.274477 -0.292099 0.329758 0 -1 0
0.2763 -0.261036 0.516222 0 1 0
-0.0458318 0.165001 0.576547 0 0 1
0.324414 0.0248895 0.576547 0 0 1
-0.209736 0.28492 0.459223 0 0 -1
0.0665617 -0.05647 0.576547 0 0 1
0.290676 0.268702 0.56205 0.866084 -0.499899 0
-0.371177 0.0984274 0.554901 -0.950964 0.308964 0.014461
-0.222673 0.292648 0.477912 0 1 0
-0.21199 -0.224821 0.482378 0 0 -1
-0.248903 -0.0623441 0.482378 0 0 -1
-0.101697 0.370745 0.53169 -0.207915 0.978142 0.0031617
0.311257 0.227873 0.528736 0.743102 0.669083 -0.0113001
-0.217774 0.00239653 0.482378 0 0 -1
-0.15261 0.149312 0.000684484 -0.165769 -0.165769 -0.972132
-0.0987984 0.303707 0.482378 0 0 -1
0.0544021 0.380748 0.511625 0.207915 0.978142 -0.0031617
