-0.157247 -0.136234 0.0168716 -0.67771 0.677707 0.285346
0.0407291 -0.0426331 0.576547 0 0 1
0.267708 -0.288974 0.203761 -0.499899 -0.866084 0
0.21739 -0.249689 0.576547 0 0 1
-0.205904 -0.157403 0.482378 0 0 -1
0.0953513 0.150498 0.482378 0 0 -1
0.291948 0.270905 0.479852 0.866084 -0.499899 0
-0.12518 0.24668 0.576547 0 0 1
-0.059409 0.0439692 0.482378 0 0 -1
-0.264426 -0.037981 0.482378 0 0 -1
-0.128571 -0.247922 0.576547 0 0 1
-0.109718 0.288164 0.459223 0 0 -1
0.0261161 0.140302 0.576547 0 0 1
-0.0978268 0.371691 0.493545 -0.207915 0.978142 0.0031617
0.19911 -0.211925 0.482378 0 0 -1
-0.1946 0.288855 0.482378 0 0 1
0.176132 0.341607 0.516199 0.406722 0.913531 -0.0061849
-0.0687695 0.0607095 0.0014965 -0.165769 -0.165769 -0.972132
0.236131 0.249501 0.00446117 -0.707338 -0.706875 -0.000630742
0.379674 -0.0567187 0.511546 0.994407 -0.104528 -0.0151217
0.287207 0.150562 0.576547 0 0 1
-0.0558278 0.0073541 0.576547 0 0 1
0.334132 -0.190077 0.575778 0.865944 -0.499968 -0.0131682
0.0207339 -0.142594 0.576547 0 0 1
0.274313 -0.292099 0.144994 0 -1 0
-0.236895 -0.0619738 0.576547 0 0 1
-0.38184 -0.0338637 0.562967 -0.994407 -0.104528 0.0151217
0.267031 -0.0146117 0.576547 0 0 1
0.200839 -0.21092 0.00184102 -0.165769 -0.165769 -0.972132
-0.330463 -0.16559 0.576547 0 0 1
0.0192743 -0.18582 0.482378 0 0 -1
0.141137 0.16178 0.482378 0 0 -1
0.289028 0.155643 0.482378 0 0 1
-0.0889268 -0.297517 0.482378 0 0 -1
0.137612 -0.358764 0.51719 0.406722 -0.913531 -0.00618487
-0.0355681 -0.383795 0.537438 0 -1 0
0.0967075 -0.102301 0.00107588 -0.165769 -0.165769 -0.972132
0.178444 0.0548099 0.482378 0 0 -1
0.261297 -0.283604 0.543123 0.743102 -0.669083 -0.0113001
-0.265857 -0.276644 0.578863 0 0 1
0.129462 0.235799 0.576547 0 0 1
0.285431 -0.256548 0.52819 0.743102 -0.669083 -0.0113001
0.0128429 -0.298999 0.576547 0 0 1
0.0482029 0.0615209 0.00363413 -0.473032 0.47303 -0.743292
-0.106083 -0.36987 0.514076 -0.207915 -0.978142 0.00316169
-0.0414787 -0.281492 0.482378 0 0 1
0.262274 0.271503 0.561001 -0.866033 -0.499988 0
0.189329 -0.284844 0.482378 0 0 1
0.0887294 0.0887983 0.0288094 -0.165768 0.165768 0.972133
-0.332469 -0.192852 0.487115 -0.865944 -0.499968 0.0131682
-0.0310607 0.0345736 0.576547 0 0 1
-0.267344 -0.288251 0.0428364 0.498587 -0.863434 -0.0767615
0.222958 0.113068 0.576547 0 0 1
-0.369241 0.0913089 0.482378 0 0 -1
0.0459005 0.382645 0.539389 0.207915 0.978142 -0.0031617
-0.0654514 -0.2297 0.576547 0 0 1
0.0307923 0.383795 0.567687 0 1 0
0.34128 -0.176059 0.513591 0.865944 -0.499968 -0.0131682
0.281623 -0.291996 0.344643 0.499899 -0.866084 0
0.213903 -0.211132 0.576547 0 0 1
-0.184503 -0.162964 0.0156206 -0.67771 0.677707 0.285346
-0.143066 0.321233 0.576547 0 0 1
0.129736 -0.14046 0.482378 0 0 -1
-0.362435 -0.127709 0.504181 -0.950964 -0.308964 0.014461
0.374749 -0.08916 0.540888 0.950964 -0.308964 -0.014461
0.377287 -0.08296 0.575296 0.950964 -0.308964 -0.014461
0.0267343 0.018277 0.0276232 0.165768 -0.165768 0.972133
-0.132338 0.0802429 0.576547 0 0 1
0.219679 -0.272729 0.482378 0 0 -1
0.0625305 -0.0918026 0.482378 0 0 -1
-0.235565 -0.303282 0.526414 -0.587764 -0.808983 0.00893796
-0.202044 -0.192404 0.576547 0 0 1
-0.208355 0.019886 0.576547 0 0 1
0.152708 -0.252416 0.482378 0 0 -1
-0.266884 -0.26294 0.0552625 0.480516 0.832306 0.276352
-0.256182 0.050767 0.576547 0 0 1
0.161689 -0.283639 0.576547 0 0 1
0.292467 0.272616 0.0578863 0 0 -1
0.269521 -0.259557 0.00898562 0.322805 1.04725e-06 -0.946465
-0.272246 -0.292099 0.369487 0 -1 0
-0.0502037 -0.0283114 0.0141591 -0.677739 0.677736 -0.285207
-0.269254 0.262443 0.162568 0.499988 -0.866033 0
0.137779 0.194121 0.482378 0 0 -1
0.236365 0.135452 0.482378 0 0 -1
-0.211993 0.32053 0.515454 -0.587764 0.808983 0.00893796
-0.0269345 0.0448664 0.482378 0 0 -1
0.289979 -0.240923 0.576547 0 0 1
0.268118 -0.263926 0.267117 -0.499988 0.866033 0
-0.0821928 -0.0447311 0.576547 0 0 1
0.323461 0.154042 0.482378 0 0 -1
0.257804 -0.286642 0.49327 0.743102 -0.669083 -0.0113001
0.235043 -0.21176 0.482378 0 0 -1
-0.0760735 0.0693462 0.482378 0 0 -1
0.291107 0.283688 0.323809 0.866084 0.499899 0
-0.286149 -0.249339 0.459223 0 0 -1
-0.328596 0.0452125 0.576547 0 0 1
0.254803 0.151363 0.576547 0 0 1
0.240335 0.292648 0.471294 0 1 0
0.242516 0.192701 0.576547 0 0 1
0.353109 -0.156477 0.556083 0.950964 -0.308964 -0.014461
0.292815 -0.272532 0.364432 1 0 0
0.143981 -0.190822 0.482378 0 0 -1
0.0756341 -0.0690606 0.0279444 0.165768 0.165768 0.972133
-0.0256058 0.093542 0.482378 0 0 -1
-0.180401 0.22743 0.576547 0 0 1
-0.191066 0.211526 0.00735621 0.677709 0.677707 -0.285346
-0.0330093 0.383795 0.524194 0 1 0
-0.0309156 0.0528894 0.0109511 0.677709 0.677707 -0.285346
-0.0231286 0.265952 0.482378 0 0 -1
-0.155905 -0.193029 0.482378 0 0 -1
0.244236 0.0309472 0.576547 0 0 1
-0.0175222 -0.000813261 0.576547 0 0 1
-0.287684 0.287138 0.120386 -0.866084 0.499899 0
0.118514 0.0634548 0.482378 0 0 -1
0.227129 0.162384 0.482378 0 0 -1
0.306083 0.0603777 0.576547 0 0 1
-0.0565412 -0.151537 0.576547 0 0 1
0.247269 -0.120232 0.482378 0 0 -1
-0.263169 -0.267471 0.0831265 0.866033 0.499988 0
0.0918875 -0.372697 0.485926 0.207915 -0.978142 -0.00316172
-0.110416 -0.359047 0.576547 0 0 1
0.118305 -0.302331 0.482378 0 0 -1
-0.173801 0.0678327 0.576547 0 0 1
0.30618 0.174401 0.576547 0 0 1
0.104277 0.21316 0.482378 0 0 -1
-0.26032 0.272718 0.206436 1 0 0
-0.282515 -0.0252569 0.576547 0 0 1
-0.235774 -0.20385 0.576547 0 0 1
0.0728068 0.0111022 0.576547 0 0 1
0.145368 0.297138 0.482378 0 0 -1
-0.00367698 -0.0399996 0.482378 0 0 -1
0.0576386 -0.359165 0.576547 0 0 1
-0.385905 0.0016548 0.518318 -0.994407 0.104528 0.0151217
-0.108762 -0.138397 0.576547 0 0 1
0.345402 -0.0811575 0.576547 0 0 1
-0.146275 0.226171 0.576547 0 0 1
-0.0848861 0.271141 0.576547 0 0 1
0.202167 -0.0397018 0.482378 0 0 -1
0.285086 0.108716 0.459223 0 0 -1
0.120388 -0.0812439 0.482378 0 0 -1
0.288205 -0.249269 0.459223 0 0 -1
0.113777 0.0491821 0.576547 0 0 1
0.202987 -0.179947 0.01546 0.677738 0.677736 0.285211
0.18195 -0.141658 0.482378 0 0 -1
-0.13146 -0.154352 0.0131315 0.677707 -0.67771 -0.285346
0.00854495 -0.276568 0.464545 0 1 0
-0.163091 0.284535 0.576547 0 0 1
-0.371992 0.0956828 0.559983 -0.950964 0.308964 0.014461
-0.363888 -0.121309 0.545372 -0.950964 -0.308964 0.014461
-0.190025 0.276568 0.46784 0 -1 0
-0.129255 -0.300986 0.482378 0 0 -1
0.0467022 -0.270911 0.482378 0 0 -1
-0.348747 -0.16272 0.56074 -0.865944 -0.499968 0.0131682
0.0237022 0.334662 0.576547 0 0 1
0.122024 -0.111545 0.482378 0 0 -1
-0.271764 -0.292099 0.311043 0 -1 0
0.328704 -0.198204 0.52738 0.865944 -0.499968 -0.0131682
0.30008 0.092184 0.576547 0 0 1
-0.277284 -0.0690869 0.466303 1 0 0
-0.30182 0.0794685 0.482378 0 0 -1
5.90123e-05 0.383795 0.550434 0 1 0
0.358863 -0.0788366 0.482378 0 0 -1
-0.326774 0.0120388 0.576547 0 0 1
-0.311724 0.221849 0.576547 0 0 1
0.291932 -0.00313693 0.465061 1 0 0
0.221563 0.258781 0.576547 0 0 1
0.272182 0.261579 0.344124 -0.499988 -0.866033 0
0.175837 0.152842 0.482378 0 0 -1
0.0473589 0.329867 0.482378 0 0 -1
-0.103706 -0.303194 0.576547 0 0 1
-0.241122 0.133286 0.482378 0 0 -1
0.0826711 -0.155362 0.482378 0 0 -1
0.00193073 0.341986 0.482378 0 0 -1
0.039503 -0.0179457 0.0189809 0.677707 0.677709 0.28535
0.362317 0.0307063 0.576547 0 0 1
-0.246932 0.289182 0.576547 0 0 1
0.290771 0.169228 0.459223 0 0 -1
-0.0841803 0.277445 0.482378 0 0 1
0.269026 0.263401 0.521179 -0.499988 -0.866033 0
-0.309033 -0.230199 0.538765 -0.743102 -0.669083 0.0113001
0.291932 -0.205312 0.462894 1 0 0
-0.110336 0.0996283 0.0269703 -0.473036 -0.473036 0.743286
0.0326466 0.188297 0.482378 0 0 -1
0.316015 0.219348 0.495747 0.865944 0.499968 -0.0131682
0.100403 -0.012118 0.482378 0 0 -1
-0.186951 -0.151557 0.576547 0 0 1
0.0504755 0.0668758 0.0233473 -0.473037 0.473037 0.743285
0.377019 -0.0243032 0.576547 0 0 1
-0.250836 0.00555686 0.482378 0 0 -1
-0.124654 0.146249 0.0188915 0.677738 0.677736 0.285211
-0.0474348 -0.382201 0.555979 -0.207915 -0.978142 0.00316172
0.354225 -0.149923 0.489465 0.950964 -0.308964 -0.014461
-0.135129 -0.105494 0.482378 0 0 -1
0.211148 0.195178 0.024533 0.473017 -0.473017 0.74331
0.151229 0.249478 0.482378 0 0 -1
0.283582 0.211287 0.576547 0 0 1
-0.289692 0.171829 0.482378 0 0 -1
0.0149989 -0.374122 0.576547 0 0 1
-0.017363 0.00218247 0.00481951 -0.473029 -0.473031 -0.743293
0.0807595 -0.0752188 0.576547 0 0 1
0.249364 -0.250959 0.576547 0 0 1
-0.36939 0.10589 0.512983 -0.950964 0.308964 0.014461
-0.142158 0.0915035 0.482378 0 0 -1
0.285797 -0.0417575 0.482378 0 0 -1
-0.37974 0.0615901 0.509378 -0.994407 0.104528 0.0151217
-0.0369329 -0.231883 0.482378 0 0 -1
-0.209012 -0.249117 0.576547 0 0 1
0.136851 0.0735606 0.576547 0 0 1
0.168157 0.0469304 0.576547 0 0 1
0.0115588 0.305981 0.576547 0 0 1
0.169681 -0.344519 0.522043 0.406722 -0.913531 -0.0061849
-0.0405599 -0.197785 0.482378 0 0 -1
0.145401 -0.283763 0.482378 0 0 -1
-0.0386322 -0.109687 0.576547 0 0 1
0.235458 0.303498 0.545009 0.587764 0.808983 -0.00893796
-0.0470135 -0.312758 0.576547 0 0 1
0.109102 -0.183341 0.576547 0 0 1
-0.0871019 0.00687039 0.576547 0 0 1
-0.0237852 -0.0291208 0.576547 0 0 1
-0.211303 -0.292648 0.478596 0 -1 0
0.265226 -0.286746 0.100815 -0.866033 -0.499988 0
-0.333309 0.189596 0.482378 0 0 -1
-0.278599 -0.264428 0.513438 -0.743102 -0.669083 0.0113001
-0.300123 -0.169348 0.576547 0 0 1
-0.291383 0.280082 0.532181 -1 0 0
-0.0914752 -0.106216 0.576547 0 0 1
0.274706 -0.261036 0.206939 0 1 0
0.113343 -0.292013 0.576547 0 0 1
-0.153602 -0.275668 0.576547 0 0 1
0.263097 0.283058 0.426709 -0.866033 0.499988 0
-0.166055 -0.283299 0.459223 0 0 -1
0.145025 0.0992475 0.576547 0 0 1
0.268261 -0.263843 0.150528 -0.499988 0.866033 0
0.364094 -0.121032 0.52118 0.950964 -0.308964 -0.014461
0.152876 -0.33116 0.482378 0 0 -1
0.0886526 0.299823 0.482378 0 0 -1
0.0990023 0.276568 0.478664 0 -1 0
0.292815 -0.274276 0.488213 1 0 0
-0.276619 0.266012 0.549841 -0.743102 0.669083 0.0113001
0.292212 0.271362 0.389964 0.866084 -0.499899 0
0.220087 0.221877 0.482378 0 0 -1
-0.277284 0.0280225 0.477586 1 0 0
-0.272684 0.292099 0.29728 0 1 0
0.239098 0.0645748 0.482378 0 0 -1
0.0933511 -0.0309857 0.576547 0 0 1
0.0233098 0.247206 0.576547 0 0 1
0.021405 -0.220026 0.482378 0 0 -1
-0.264955 0.288211 0.0715492 0.499899 0.866084 0
0.148714 0.0386882 0.482378 0 0 -1
-0.277681 -0.292099 0.186577 0 -1 0
-0.00303856 -0.376452 0.482378 0 0 -1
0.198898 0.17761 0.482378 0 0 -1
-0.383826 -0.0230371 0.507175 -0.994407 -0.104528 0.0151217
-0.227706 -0.219224 0.482378 0 0 -1
-0.0624658 -0.163663 0.482378 0 0 -1
-0.26032 -0.273636 0.237548 1 0 0
0.259276 0.0131049 0.482378 0 0 -1
0.275852 0.224481 0.463389 -1 0 0
0.263182 0.283205 0.129942 -0.866033 0.499988 0
-0.163129 -0.0719413 0.482378 0 0 -1
-0.161528 0.183496 0.482378 0 0 -1
-0.00391403 0.117455 0.482378 0 0 -1
-0.101299 -0.267926 0.576547 0 0 1
-0.247368 0.266516 0.0114953 0.340835 0.590375 -0.731634
0.234918 0.0977829 0.482378 0 0 -1
-0.263667 0.26661 0.495299 0.866033 -0.499988 0
0.291932 0.0771217 0.472968 1 0 0
0.310042 -0.092581 0.482378 0 0 -1
0.170122 0.183293 0.576547 0 0 1
-0.169002 0.279552 0.482378 0 0 1
-0.250448 0.285013 0.459223 0 0 -1
-0.223837 -0.150408 0.482378 0 0 -1
-0.160424 0.139455 0.576547 0 0 1
0.212527 -0.29065 0.576547 0 0 1
0.0213181 -0.287026 0.482378 0 0 1
0.125563 0.340807 0.576547 0 0 1
-0.259847 -0.0977017 0.482378 0 0 -1
-0.0264297 0.325613 0.482378 0 0 -1
-0.178025 -0.0575113 0.576547 0 0 1
-0.00665063 0.188838 0.576547 0 0 1
-0.351556 0.149216 0.482378 0 0 -1
0.305826 0.0378719 0.482378 0 0 -1
-0.264442 0.265267 0.420541 0.866033 -0.499988 0
-0.165628 -0.346323 0.537026 -0.406722 -0.913531 0.0061849
-0.0932406 0.0954786 0.576547 0 0 1
0.2743 -0.261036 0.098871 0 1 0
-0.26032 0.274206 0.389699 1 0 0
0.17317 -0.236725 0.576547 0 0 1
0.0978674 0.371642 0.552872 0.207915 0.978142 -0.00316169
0.383298 -0.0268306 0.543214 0.994407 -0.104528 -0.0151217
0.280685 0.292099 0.190899 0 1 0
-0.151019 -0.120641 0.576547 0 0 1
-0.291383 0.272732 0.577225 -1 0 0
-0.180037 -0.197799 0.0233926 0.473017 -0.473016 0.74331
0.279709 -0.11806 0.482378 0 0 -1
0.142961 -0.307579 0.482378 0 0 -1
0.127555 -0.0849138 0.576547 0 0 1
0.280203 -0.181413 0.482378 0 0 1
-0.0123669 0.120279 0.576547 0 0 1
-0.0707968 0.0561524 0.576547 0 0 1
-0.104771 -0.0292977 0.482378 0 0 -1
-0.29049 -0.00641653 0.459223 0 0 -1
-0.0882582 -0.373539 0.551176 -0.207915 -0.978142 0.00316169
-0.367225 0.0461254 0.576547 0 0 1
0.0936153 0.0923665 0.482378 0 0 -1
-0.21434 0.301366 0.482378 0 0 -1
-0.207576 -0.323091 0.574078 -0.587764 -0.808983 0.00893796
-0.350368 0.159619 0.571885 -0.865944 0.499968 0.0131682
-0.19226 -0.319465 0.482378 0 0 -1
0.0314939 -0.0358378 0.482378 0 0 -1
-0.381689 0.046464 0.485793 -0.994407 0.104528 0.0151217
0.28726 0.264393 0.191871 0.499988 -0.866033 0
-0.0158003 0.0682816 0.576547 0 0 1
-0.0922009 0.103622 0.482378 0 0 -1
-0.279703 -0.261036 0.17058 0 1 0
-0.0811653 -0.0854208 0.000603559 0.165769 -0.165769 -0.972132
-0.0413998 -0.292648 0.461694 0 -1 0
0.2703 0.286067 0.578863 0 0 1
-0.380222 0.0514132 0.548055 -0.994407 0.104528 0.0151217
0.261836 0.282229 0.0490967 -0.863473 0.49851 0.0768296
-0.186556 0.128239 0.482378 0 0 -1
0.213622 -0.0880499 0.576547 0 0 1
-0.0720382 0.0656472 0.0277313 -0.165768 -0.165768 0.972133
0.145444 -0.292648 0.463841 0 -1 0
0.278795 -0.292099 0.315321 0 -1 0
0.233223 0.055874 0.576547 0 0 1
-0.213617 0.31869 0.575225 -0.587764 0.808983 0.00893796
-0.189594 -0.084865 0.576547 0 0 1
0.184428 0.028901 0.482378 0 0 -1
-0.33412 -0.188371 0.548705 -0.865944 -0.499968 0.0131682
-0.330353 0.119993 0.576547 0 0 1
-0.258202 0.242813 0.0268582 -0.340805 -0.590344 0.731674
0.275852 -0.0741805 0.468648 -1 0 0
-0.153139 -0.0115271 0.576547 0 0 1
0.266534 0.151983 0.482378 0 0 -1
-0.204743 -0.0134309 0.576547 0 0 1
0.283738 0.26236 0.095273 0.499988 -0.866033 0
0.0837246 0.122583 0.482378 0 0 -1
0.132239 -0.0312435 0.576547 0 0 1
-0.335337 -0.142345 0.576547 0 0 1
-0.1698 0.344801 0.48746 -0.406722 0.913531 0.00618489
-0.221811 0.188215 0.576547 0 0 1
0.15821 0.179646 0.0130755 -0.677707 0.67771 -0.285345
0.164978 -0.184232 0.00789073 -0.67771 -0.677708 -0.285345
-0.21656 0.211391 0.00100345 -0.165769 -0.165769 -0.972132
0.163377 -0.0686695 0.482378 0 0 -1
-0.200409 -0.213493 0.482378 0 0 -1
0.12434 0.276884 0.459223 0 0 -1
-0.109113 -0.280948 0.482378 0 0 -1
-0.153099 0.167565 0.576547 0 0 1
-0.269556 0.220205 0.482378 0 0 -1
-0.279394 -0.2148 0.482378 0 0 1
-0.176632 0.151429 0.482378 0 0 -1
-0.0789299 -0.05864 0.0103526 -0.677708 0.67771 -0.285343
-0.0168039 0.215749 0.482378 0 0 -1
0.116419 -0.32255 0.576547 0 0 1
0.128048 -0.363408 0.574239 0.406722 -0.913531 -0.00618487
-0.10411 0.166007 0.576547 0 0 1
0.0658797 0.290409 0.576547 0 0 1
-0.290104 0.282944 0.227127 -0.866084 0.499899 0
0.278508 -0.292099 0.57138 0 -1 0
0.292337 -0.281558 0.426492 0.866084 -0.499899 0
0.0546204 0.0692483 0.482378 0 0 -1
0.366596 -0.114503 0.546235 0.950964 -0.308964 -0.014461
-0.253976 0.108154 0.482378 0 0 -1
0.0185128 -0.0610533 0.576547 0 0 1
-0.224478 0.0906701 0.576547 0 0 1
-0.0684544 0.251062 0.576547 0 0 1
-0.14761 -0.307836 0.576547 0 0 1
0.320782 -0.044282 0.576547 0 0 1
-0.128455 -0.0335496 0.576547 0 0 1
-0.116354 -0.137296 0.020443 0.677709 -0.677707 0.28535
-0.0408174 -0.145455 0.482378 0 0 -1
0.288155 0.177687 0.482378 0 0 -1
0.204637 0.100834 0.482378 0 0 -1
-0.306474 -0.196293 0.482378 0 0 -1
-0.101577 0.0605755 0.482378 0 0 -1
-0.335633 0.034446 0.482378 0 0 -1
0.274645 0.25463 0.482378 0 0 -1
-0.286529 -0.264798 0.126095 -0.499988 0.866033 0
0.266617 0.282345 0.0261742 -0.127849 0.8262 -0.548679
-0.0365232 -0.0584039 0.0182131 0.677709 -0.677707 0.28535
0.260572 0.251114 0.0328936 -0.291263 -0.627666 0.721943
0.086524 0.167879 0.576547 0 0 1
-0.232155 0.0244381 0.482378 0 0 -1
-0.343169 -0.00678104 0.482378 0 0 -1
0.0922607 0.113292 0.576547 0 0 1
0.176754 -0.0569125 0.576547 0 0 1
-0.115775 0.0209817 0.482378 0 0 -1
-0.289424 0.134781 0.482378 0 0 -1
-0.154991 -0.158542 0.482378 0 0 -1
-0.0689079 0.215504 0.482378 0 0 -1
-0.281112 -0.135123 0.576547 0 0 1
0.0478356 0.127077 0.576547 0 0 1
0.234317 -0.0721715 0.482378 0 0 -1
-0.19746 -0.261994 0.482378 0 0 -1
-0.0802703 -0.350243 0.482378 0 0 -1
-0.319026 0.209161 0.482378 0 0 -1
0.0974333 0.255614 0.482378 0 0 -1
0.207438 -0.295369 0.482378 0 0 -1
0.0860214 0.195634 0.482378 0 0 -1
-0.270923 0.291656 0.572162 0.499899 0.866084 0
-0.289472 -0.123078 0.459223 0 0 -1
-0.0043982 0.0626757 0.482378 0 0 -1
0.301601 0.229253 0.576547 0 0 1
0.112644 0.292424 0.576547 0 0 1
0.355973 -0.105819 0.576547 0 0 1
0.290252 0.28517 0.426371 0.866084 0.499899 0
-0.291774 -0.077989 0.576547 0 0 1
-0.226648 -0.123584 0.482378 0 0 -1
0.0748408 -0.339192 0.576547 0 0 1
0.050215 0.262382 0.482378 0 0 -1
-0.22279 -0.263506 0.482378 0 0 -1
0.237237 0.21415 0.0153462 0.677736 -0.677738 0.285211
-0.293038 0.248356 0.515519 -0.743102 0.669083 0.0113001
-0.00912505 -0.255203 0.482378 0 0 -1
0.1683 -0.216863 0.482378 0 0 -1
0.0784868 -0.0640542 0.00343208 0.47301 0.47301 -0.743319
-0.0585326 0.299872 0.482378 0 0 -1
0.0812856 0.0840332 0.576547 0 0 1
-0.0952159 -0.0637423 0.482378 0 0 -1
-0.264286 0.211086 0.576547 0 0 1
-0.100583 0.0977678 0.000602104 -0.165769 -0.165769 -0.972132
0.0963 -0.10327 0.482378 0 0 -1
0.0125656 0.141112 0.482378 0 0 -1
-0.137723 -0.358731 0.539275 -0.406722 -0.913531 0.00618486
-0.280096 0.292051 0.335045 -0.499899 0.866084 0
0.292483 -0.281304 0.401029 0.866084 -0.499899 0
0.199424 -0.329975 0.571787 0.587764 -0.808983 -0.00893796
0.0507945 0.365216 0.576547 0 0 1
0.0895785 0.10263 0.00346474 -0.47301 0.47301 -0.743319
-0.282759 -0.259098 0.555456 -0.743102 -0.669083 0.0113001
-0.381452 -0.0483403 0.482378 0 0 -1
-0.26623 0.135865 0.576547 0 0 1
-0.32303 0.20843 0.5164 -0.865944 0.499968 0.0131682
0.180288 -0.292648 0.465668 0 -1 0
-0.275423 -0.289661 0.482378 0 0 1
0.140233 0.0170714 0.482378 0 0 -1
-0.0933088 0.123832 0.576547 0 0 1
0.279065 0.261036 0.501607 0 -1 0
-0.074789 0.176915 0.482378 0 0 -1
0.333719 0.113158 0.482378 0 0 -1
-0.084554 0.288058 0.459223 0 0 -1
-0.274653 -0.292099 0.153996 0 -1 0
0.0948343 0.24186 0.576547 0 0 1
-0.132514 -0.346637 0.482378 0 0 -1
-0.158706 -0.177533 0.00622874 0.473031 -0.47303 -0.743293
-0.271211 0.261313 0.274074 0.499988 -0.866033 0
-0.28729 -0.246318 0.576547 0 0 1
0.0866767 0.326612 0.576547 0 0 1
0.270063 0.290333 0.153413 -0.499899 0.866084 0
-0.352641 -0.018426 0.576547 0 0 1
-0.109035 0.369238 0.51546 -0.207915 0.978142 0.0031617
-0.278244 -0.221222 0.576547 0 0 1
0.0950029 0.0366435 0.482378 0 0 -1
0.170509 0.29969 0.482378 0 0 -1
0.0224265 0.180531 0.576547 0 0 1
-0.118523 0.292648 0.481596 0 1 0
0.160252 0.30085 0.576547 0 0 1
0.269058 0.263383 0.394751 -0.499988 -0.866033 0
-0.0741077 -0.185307 0.482378 0 0 -1
0.225333 -0.188744 0.576547 0 0 1
0.0639634 0.311799 0.482378 0 0 -1
0.0170458 0.223487 0.576547 0 0 1
-0.0109268 0.0200315 0.482378 0 0 -1
0.213073 -0.168118 0.482378 0 0 -1
0.0562793 0.0362226 0.576547 0 0 1
0.295587 0.0951909 0.482378 0 0 -1
-0.2334 0.304955 0.51744 -0.587764 0.808983 0.00893799
-0.26014 -0.0452091 0.576547 0 0 1
-0.274882 0.276568 0.469967 0 -1 0
-0.152791 -0.221291 0.576547 0 0 1
-0.293364 -0.186889 0.463624 -1 0 0
0.359275 -0.0264999 0.482378 0 0 -1
-0.258169 -0.238676 0.0226391 -0.627619 0.724662 0.284533
0.183333 0.201118 0.482378 0 0 -1
0.383057 0.0204781 0.48347 0.994407 0.104528 -0.0151217
-0.0850332 -0.249765 0.576547 0 0 1
-0.169503 0.0391465 0.482378 0 0 -1
-0.188908 0.192819 0.0283985 0.165767 0.165767 0.972133
0.297452 -0.0567513 0.576547 0 0 1
-0.286172 0.175801 0.576547 0 0 1
-0.203993 -0.0432815 0.482378 0 0 -1
0.359869 0.133184 0.502971 0.950964 0.308964 -0.014461
0.351857 0.159328 0.57392 0.865944 0.499968 -0.0131682
-0.0316766 -0.0102707 0.0130037 -0.677708 0.67771 -0.285343
-0.282068 0.0353304 0.576547 0 0 1
-0.0409121 -0.262349 0.576547 0 0 1
0.356333 0.050412 0.482378 0 0 -1
0.144065 -0.00891122 0.576547 0 0 1
-0.0666916 0.295943 0.576547 0 0 1
0.0939029 -0.119068 0.576547 0 0 1
0.118922 0.145066 0.482378 0 0 -1
0.0836993 0.201946 0.576547 0 0 1
0.357242 0.121379 0.576547 0 0 1
-0.284661 -0.268889 0.482378 0 0 1
0.221518 0.227681 0.576547 0 0 1
-0.00544974 0.298614 0.482378 0 0 -1
0.195081 -0.257278 0.482378 0 0 -1
0.185781 -0.163562 0.0115371 0.677737 0.677739 -0.285207
0.252325 -0.258211 0.482378 0 0 -1
0.283952 -0.290652 0.187243 0.499899 -0.866084 0
0.278427 0.292099 0.253272 0 1 0
0.0492355 0.230585 0.576547 0 0 1
-0.232474 -0.273723 0.576547 0 0 1
0.254823 -0.162333 0.576547 0 0 1
-0.165393 -0.214904 0.482378 0 0 -1
-0.346381 0.0980685 0.482378 0 0 -1
-0.277284 0.080137 0.479286 1 0 0
0.195522 0.0294919 0.576547 0 0 1
-0.048817 -0.289042 0.576547 0 0 1
0.0484808 -0.0986652 0.576547 0 0 1
0.282163 -0.0940005 0.482378 0 0 -1
0.235756 -0.0308996 0.576547 0 0 1
0.117213 -0.225298 0.482378 0 0 -1
0.126646 -0.121279 0.576547 0 0 1
0.0889242 -0.336067 0.482378 0 0 -1
-0.285245 0.249916 0.576547 0 0 1
0.0692765 -0.236299 0.482378 0 0 -1
0.245229 0.122575 0.576547 0 0 1
0.112746 -0.113172 0.0287484 -0.165767 -0.165767 0.972133
0.176005 -0.0117265 0.576547 0 0 1
0.161607 -0.145897 0.0246977 0.473016 0.473017 0.74331
-0.281319 -0.102071 0.576547 0 0 1
-0.0562866 0.380427 0.522675 -0.207915 0.978142 0.00316171
0.187465 -0.189346 0.00044278 -0.165769 -0.165769 -0.972132
-0.287176 -0.287964 0.207992 -0.499899 -0.866084 0
0.0639754 -0.311585 0.576547 0 0 1
0.283976 0.262497 0.257355 0.499988 -0.866033 0
0.274382 0.292099 0.484957 0 1 0
-0.237879 0.218666 0.00779588 -0.677737 -0.677739 -0.285207
0.0034146 0.383795 0.506819 0 1 0
-0.289502 -0.269147 0.306514 -0.866084 0.499899 0
0.29748 -0.217167 0.482378 0 0 -1
0.290525 -0.284696 0.0616239 0.866084 -0.499899 0
0.270412 0.0655806 0.482378 0 0 -1
-0.167574 -0.243632 0.482378 0 0 -1
-0.133644 -0.360313 0.573839 -0.406722 -0.913531 0.0061849
-0.121144 -0.0711446 0.576547 0 0 1
0.17376 0.242575 0.482378 0 0 -1
0.155057 0.143161 0.00190638 0.165769 -0.165769 -0.972132
-0.260364 -0.280805 0.542097 0.866033 -0.499988 0
-0.0013234 0.158263 0.482378 0 0 -1
0.00729187 -0.349199 0.482378 0 0 -1
-0.15741 0.0336196 0.576547 0 0 1
-0.242065 -0.289114 0.482378 0 0 -1
-0.188886 0.188039 0.000266533 -0.165769 -0.165769 -0.972132
-0.13641 0.295356 0.576547 0 0 1
-0.0539137 -0.0767739 0.0130574 0.677707 -0.67771 -0.285346
0.320785 0.000405866 0.482378 0 0 -1
-0.210026 0.276568 0.479426 0 -1 0
-0.053384 -0.071701 0.576547 0 0 1
-0.250573 0.0591736 0.482378 0 0 -1
-0.0709634 -0.289531 0.482378 0 0 -1
-0.0216135 -0.315709 0.576547 0 0 1
-0.0678694 0.377882 0.548464 -0.207915 0.978142 0.00316171
0.173274 0.166797 0.000982306 0.165769 -0.165769 -0.972132
0.317793 0.109078 0.576547 0 0 1
-0.0275825 -0.383795 0.515272 0 -1 0
0.337623 -0.175202 0.482378 0 0 -1
0.0512966 0.367698 0.482378 0 0 -1
-0.135151 0.186556 0.482378 0 0 -1
-0.109899 0.246128 0.482378 0 0 -1
-0.288196 0.28625 0.143521 -0.866084 0.499899 0
-0.289442 -0.0510456 0.482378 0 0 -1
-0.105196 -0.233829 0.482378 0 0 -1
-0.152771 0.24439 0.482378 0 0 -1
-0.381959 -0.0360532 0.539965 -0.994407 -0.104528 0.0151217
-0.315689 -0.221425 0.505718 -0.865944 -0.499968 0.0131682
0.221957 0.297266 0.576547 0 0 1
0.17579 -0.102922 0.576547 0 0 1
-0.0164375 -0.352381 0.576547 0 0 1
0.0786947 -0.375659 0.534869 0.207915 -0.978142 -0.00316171
0.24481 0.296271 0.505859 0.587764 0.808983 -0.00893796
0.157633 -0.350235 0.574023 0.406722 -0.913531 -0.00618487
-0.0477868 -0.0375325 0.482378 0 0 -1
-0.027967 -0.0970623 0.482378 0 0 -1
0.0759757 -0.0293957 0.482378 0 0 -1
-0.116978 -0.154362 0.482378 0 0 -1
0.126098 -0.205036 0.482378 0 0 -1
-0.0038693 -0.0160333 0.00943345 -0.67771 -0.677708 -0.285345
0.231157 -0.306378 0.522818 0.587764 -0.808983 -0.00893796
0.377295 0.079377 0.511678 0.994407 0.104528 -0.0151217
-0.0184408 -0.279477 0.482378 0 0 -1
-0.261007 -0.253614 0.482378 0 0 -1
0.241401 -0.121855 0.576547 0 0 1
0.170178 -0.187989 0.482378 0 0 -1
-0.210986 0.220676 0.576547 0 0 1
0.267456 -0.288828 0.226353 -0.499899 -0.866084 0
0.056047 -0.22167 0.576547 0 0 1
-0.0217358 -0.0943869 0.576547 0 0 1
-0.0584817 -0.00971513 0.482378 0 0 -1
-0.240596 0.229623 0.482378 0 0 -1
0.217017 0.280261 0.482378 0 0 -1
0.233053 0.0282604 0.482378 0 0 -1
-0.148785 0.00569768 0.482378 0 0 -1
0.19694 0.0828872 0.576547 0 0 1
-0.115985 -0.189632 0.576547 0 0 1
0.275852 -0.264319 0.477073 -1 0 0
-0.129266 0.161105 0.482378 0 0 -1
-0.353783 -0.0399183 0.482378 0 0 -1
0.292815 0.277635 0.294187 1 0 0
0.281552 0.288614 0.0475758 0.480436 0.832363 -0.276321
-0.144186 0.125633 0.0069651 -0.473029 -0.473031 -0.743293
-0.0197017 0.00871707 0.026794 -0.473036 -0.473036 0.743286
0.175898 0.253001 0.576547 0 0 1
0.381395 -0.0384561 0.498428 0.994407 -0.104528 -0.0151217
0.272282 0.291613 0.357813 -0.499899 0.866084 0
-0.271734 -0.261036 0.222733 0 1 0
0.2731 -0.261049 0.412353 -0.499988 0.866033 0
-0.0899959 -0.097041 0.027864 0.165768 -0.165768 0.972133
-0.0345597 0.382293 0.482378 0 0 -1
-0.0482382 0.159404 0.576547 0 0 1
0.0121078 -0.164479 0.482378 0 0 -1
0.116357 -0.253756 0.576547 0 0 1
0.212175 0.156367 0.576547 0 0 1
-0.351833 0.157724 0.547455 -0.865944 0.499968 0.0131682
0.0521626 -0.291623 0.576547 0 0 1
0.270095 0.262784 0.232007 -0.499988 -0.866033 0
0.222153 0.312996 0.529669 0.587764 0.808983 -0.00893799
0.0915739 0.046099 0.576547 0 0 1
-0.245826 0.171096 0.482378 0 0 -1
-0.0770502 0.246898 0.482378 0 0 -1
0.281748 0.261147 0.55827 0.743102 0.669083 -0.0113001
0.281715 -0.261112 0.554059 0.743102 -0.669083 -0.0113001
0.274216 -0.175163 0.576547 0 0 1
0.0783924 0.217609 0.482378 0 0 -1
-0.0365033 -0.00154338 0.482378 0 0 -1
-0.153223 -0.352173 0.488542 -0.406722 -0.913531 0.00618486
-0.269778 -0.289341 0.459223 0 0 -1
-0.066912 0.118307 0.482378 0 0 -1
-0.368021 0.108753 0.541852 -0.950964 0.308964 0.014461
0.201865 0.178554 0.0141272 0.677739 -0.677736 -0.285207
0.0962866 -0.202661 0.482378 0 0 -1
0.0243618 -0.220102 0.576547 0 0 1
-0.0869984 -0.373935 0.511464 -0.207915 -0.978142 0.00316172
-0.135952 0.283937 0.482378 0 0 -1
0.0462376 -0.187324 0.482378 0 0 -1
0.275852 -0.164213 0.479198 -1 0 0
-0.0368605 -0.239702 0.576547 0 0 1
0.292769 0.272327 0.577421 0.866084 -0.499899 0
-0.117582 -0.162394 0.576547 0 0 1
0.167512 0.325837 0.576547 0 0 1
-0.291383 -0.277045 0.262893 -1 0 0
-0.282818 0.29048 0.394974 -0.499899 0.866084 0
-0.0536454 0.380825 0.573119 -0.207915 0.978142 0.00316171
0.3184 -0.174557 0.576547 0 0 1
-0.36801 -0.00361485 0.482378 0 0 -1
0.213188 0.203204 0.576547 0 0 1
0.157634 -0.0173715 0.482378 0 0 -1
-0.090796 0.372968 0.560927 -0.207915 0.978142 0.00316171
0.253555 -0.232078 0.01318 -0.707094 0.707119 9.08939e-05
-0.214487 0.112493 0.576547 0 0 1
0.138608 0.117195 0.482378 0 0 -1
0.283456 0.12154 0.482378 0 0 1
-0.205791 0.162 0.576547 0 0 1
-0.0268248 -0.0445501 0.482378 0 0 -1
0.365508 0.117834 0.545841 0.950964 0.308964 -0.014461
0.291922 0.282276 0.237868 0.866084 0.499899 0
-0.109125 -0.110811 0.000165344 0.165769 -0.165769 -0.972132
0.10348 -0.253428 0.482378 0 0 -1
0.0401422 -0.020697 0.576547 0 0 1
-0.0774754 0.375995 0.500475 -0.207915 0.978142 0.0031617
-0.0351936 0.154335 0.482378 0 0 -1
0.265568 0.287339 0.314859 -0.866033 0.499988 0
0.172134 0.208913 0.576547 0 0 1
-0.26032 0.275065 0.291462 1 0 0
-0.0437403 0.196484 0.482378 0 0 -1
0.00792354 0.128254 0.576547 0 0 1
0.325573 -0.204536 0.561897 0.865944 -0.499968 -0.0131682
0.024952 -0.0113946 0.482378 0 0 -1
-0.107596 0.326273 0.576547 0 0 1
0.153836 -0.197023 0.576547 0 0 1
-0.0606222 -0.113515 0.576547 0 0 1
0.244872 0.279017 0.482378 0 0 -1
0.262799 -0.276568 0.475712 0 1 0
-0.150179 0.353279 0.525513 -0.406722 0.913531 0.00618487
-0.15103 -0.0974497 0.576547 0 0 1
-0.22639 -0.223408 0.576547 0 0 1
-0.134426 -0.0528388 0.576547 0 0 1
0.175491 0.288294 0.459223 0 0 -1
0.224058 0.304198 0.482378 0 0 -1
-0.140553 -0.0754044 0.482378 0 0 -1
-0.264184 -0.287421 0.349965 0.866033 -0.499988 0
-0.299367 0.152546 0.482378 0 0 -1
-0.382424 0.0366787 0.505076 -0.994407 0.104528 0.0151217
0.261752 -0.273593 0.360826 -1 0 0
-0.233727 -0.250473 0.0125976 -0.707119 -0.707094 -9.08939e-05
0.288396 -0.265049 0.259767 0.499988 0.866033 0
-0.27202 -0.271626 0.0169022 -0.627558 -0.291412 -0.721976
-0.074492 0.343766 0.576547 0 0 1
0.354734 -0.150263 0.576547 0 0 1
0.308261 -0.231227 0.530226 0.743102 -0.669083 -0.0113001
0.175959 0.0852064 0.482378 0 0 -1
0.0393297 -0.0816847 0.482378 0 0 -1
0.0488384 0.0957601 0.576547 0 0 1
-0.260198 -0.209466 0.576547 0 0 1
0.291932 0.209387 0.461699 1 0 0
-0.0327182 0.223421 0.576547 0 0 1
0.268119 0.206619 0.482378 0 0 -1
0.221281 0.232449 0.00226551 -0.47301 0.47301 -0.743319
-0.1993 -0.0173153 0.482378 0 0 -1
-0.137303 0.0250931 0.482378 0 0 -1
0.244782 -0.283622 0.576547 0 0 1
0.19873 -0.329983 0.526919 0.587764 -0.808983 -0.00893796
-0.268325 0.262979 0.361725 0.499988 -0.866033 0
-0.216525 0.317516 0.490259 -0.587764 0.808983 0.00893799
-0.176634 -0.264806 0.576547 0 0 1
-0.296095 0.100028 0.482378 0 0 -1
-0.192735 0.00796985 0.482378 0 0 -1
0.378496 -0.0743365 0.555829 0.994407 -0.104528 -0.0151217
0.317289 0.083994 0.482378 0 0 -1
-0.158346 -0.132626 0.482378 0 0 -1
0.241372 0.00156913 0.482378 0 0 -1
-0.278064 -0.0237071 0.459223 0 0 -1
-0.0489557 -0.0587864 0.482378 0 0 -1
-0.268199 -0.263052 0.192109 0.499988 0.866033 0
0.020777 -0.383795 0.483036 0 -1 0
-0.00623885 0.376695 0.576547 0 0 1
0.01164 0.0987355 0.482378 0 0 -1
-0.0925363 0.188576 0.482378 0 0 -1
0.0309914 -0.383795 0.55243 0 -1 0
0.38272 0.037081 0.576072 0.994407 0.104528 -0.0151217
0.229604 0.0126148 0.576547 0 0 1
0.20783 -0.228543 0.0113562 -0.677736 -0.677739 -0.285207
-0.0389068 -0.0387011 0.028786 -0.165767 0.165767 0.972133
0.0761049 0.0677069 0.0276333 0.165768 -0.165768 0.972133
0.340184 0.178311 0.52704 0.865944 0.499968 -0.0131682
-0.268305 0.134562 0.482378 0 0 -1
-0.297764 0.00728825 0.482378 0 0 -1
-0.280709 -0.106825 0.482378 0 0 -1
-0.282652 -0.290576 0.564786 -0.499899 -0.866084 0
-0.287147 0.287981 0.315543 -0.499899 0.866084 0
0.129396 0.362647 0.550529 0.406722 0.913531 -0.00618486
-0.256107 -0.156568 0.482378 0 0 -1
0.294073 -0.246671 0.511672 0.743102 -0.669083 -0.0113001
-0.204696 -0.165483 0.576547 0 0 1
0.333126 -0.0962373 0.482378 0 0 -1
-0.126418 0.109114 0.0061711 -0.473029 -0.473031 -0.743293
-0.289519 0.21928 0.482378 0 0 1
0.358786 0.137735 0.528964 0.950964 0.308964 -0.014461
0.0346587 0.285584 0.459223 0 0 -1
0.205868 -0.0102242 0.576547 0 0 1
-0.028118 -0.345371 0.482378 0 0 -1
-0.216807 -0.234163 0.00529267 0.47301 -0.47301 -0.743319
0.0724175 -0.133442 0.576547 0 0 1
-0.277284 -0.208555 0.463191 1 0 0
-0.0478235 0.275697 0.482378 0 0 -1
0.377335 0.0667364 0.482378 0 0 -1
-0.307424 -0.028672 0.576547 0 0 1
0.120402 0.156002 0.576547 0 0 1
0.0556677 -0.276568 0.46592 0 1 0
0.150572 -0.107594 0.482378 0 0 -1
-0.154067 0.0748118 0.576547 0 0 1
-0.278465 -0.148074 0.459223 0 0 -1
-0.153483 0.176269 0.0160611 0.677706 0.677709 0.28535
-0.330312 0.195249 0.537974 -0.865944 0.499968 0.0131682
0.268617 0.289498 0.552007 -0.499899 0.866084 0
0.379227 0.0668405 0.552073 0.994407 0.104528 -0.0151217
0.107473 -0.366082 0.576547 0 0 1
0.27981 -0.276568 0.470525 0 -1 0
-0.000258058 0.0165404 0.576547 0 0 1
0.0645588 0.378706 0.547861 0.207915 0.978142 -0.0031617
-0.133535 0.34743 0.482378 0 0 -1
-0.229719 -0.253077 0.576547 0 0 1
-0.00827013 -0.383795 0.572935 0 -1 0
0.349992 -0.161506 0.533955 0.865944 -0.499968 -0.0131682
0.12898 0.0249717 0.576547 0 0 1
0.279274 0.0123123 0.459223 0 0 -1
0.069397 -0.377519 0.498812 0.207915 -0.978142 -0.00316172
-0.281646 -0.291157 0.422232 -0.499899 -0.866084 0
-0.223759 -0.310258 0.576547 0 0 1
-0.0708331 -0.377288 0.537137 -0.207915 -0.978142 0.00316172
-0.308851 0.00153398 0.576547 0 0 1
-0.0360802 0.292648 0.46718 0 1 0
0.235649 -0.256381 0.0186301 -0.724662 -0.627619 0.284533
0.284909 0.0568742 0.459223 0 0 -1
-0.148981 -0.195717 0.576547 0 0 1
0.0377675 -0.276691 0.576547 0 0 1
0.0719213 0.270572 0.576547 0 0 1
-0.275867 0.292099 0.0849538 0 1 0
0.0470541 -0.340505 0.576547 0 0 1
-0.22105 -0.207636 0.00369543 -0.47301 0.473011 -0.743319
-0.0991239 0.163162 0.482378 0 0 -1
0.271832 -0.261781 0.461163 -0.499988 0.866033 0
0.151706 0.277444 0.482378 0 0 -1
-0.351896 -0.0708673 0.576547 0 0 1
-0.344369 0.172139 0.482378 0 0 -1
0.204573 0.103633 0.576547 0 0 1
-0.0610942 -0.357295 0.576547 0 0 1
-0.0630355 -0.176518 0.576547 0 0 1
0.380606 -0.0445928 0.576547 0 0 1
-0.0970001 0.371722 0.538363 -0.207915 0.978142 0.0031617
-0.190034 -0.106986 0.482378 0 0 -1
-0.305955 0.0264378 0.482378 0 0 -1
-0.304939 0.173212 0.482378 0 0 -1
-0.0191631 0.141241 0.482378 0 0 -1
-0.192816 -0.199933 0.00109151 0.165769 -0.165769 -0.972132
0.0943122 0.00237582 0.576547 0 0 1
0.121138 0.288891 0.482378 0 0 1
0.125328 0.364209 0.513613 0.406722 0.913531 -0.00618486
0.197811 -0.144931 0.576547 0 0 1
0.237639 -0.16282 0.482378 0 0 -1
0.275852 0.274719 0.465344 -1 0 0
0.0689065 0.17504 0.482378 0 0 -1
0.261752 -0.278042 0.524428 -1 0 0
0.153658 0.219451 0.576547 0 0 1
0.253727 -0.244759 0.0297279 2.16808e-05 0.322814 0.946462
-0.242184 0.0312405 0.576547 0 0 1
0.266248 -0.284306 0.0578863 0 0 -1
0.141363 -0.286135 0.576547 0 0 1
-0.161987 -0.339396 0.576547 0 0 1
-0.218423 0.231698 0.00269556 0.473011 0.47301 -0.743319
-0.291383 -0.273036 0.350243 -1 0 0
-0.289663 0.234645 0.459223 0 0 -1
-0.129783 0.336704 0.576547 0 0 1
0.131135 -0.125495 0.000839646 0.165769 0.165769 -0.972132
-0.0556395 0.313066 0.576547 0 0 1
-0.372069 0.0640971 0.482378 0 0 -1
0.233605 0.236909 0.482378 0 0 -1
-0.217025 0.316503 0.548988 -0.587764 0.808983 0.00893796
-0.019434 -0.383795 0.549841 0 -1 0
-0.286851 0.0602655 0.459223 0 0 -1
0.0985429 -0.082359 0.00454654 0.473029 0.473031 -0.743293
-0.291383 -0.276942 0.384619 -1 0 0
0.135013 -0.243255 0.576547 0 0 1
0.0224412 0.285977 0.482378 0 0 -1
0.036988 -0.0277958 0.00144537 0.165769 0.165769 -0.972132
-0.288365 -0.285958 0.0959958 -0.866084 -0.499899 0
-0.0287652 0.0408196 0.0270098 0.165768 0.165768 0.972133
-0.148649 -0.251076 0.482378 0 0 -1
-0.19323 -0.333902 0.538983 -0.587764 -0.808983 0.00893796
-0.273847 -0.0809277 0.482378 0 0 -1
0.221782 -0.312978 0.503671 0.587764 -0.808983 -0.00893796
0.284569 -0.150302 0.576547 0 0 1
-0.246145 0.134423 0.576547 0 0 1
-0.28504 -0.263938 0.424896 -0.499988 0.866033 0
0.27463 -0.261036 0.285917 0 1 0
0.195838 0.217574 0.0151539 -0.677736 0.677738 0.285211
0.172469 -0.179146 0.0276826 -0.165767 -0.165767 0.972133
0.290269 -0.267997 0.196305 0.866084 0.499899 0
-0.287728 0.266074 0.212563 -0.866084 -0.499899 0
0.0760133 0.270656 0.482378 0 0 -1
0.128113 -0.149975 0.0140875 -0.677736 -0.677739 -0.285207
0.202744 -0.14795 0.482378 0 0 -1
-0.132329 0.361278 0.517802 -0.406722 0.913531 0.00618487
0.285164 0.0766603 0.576547 0 0 1
-0.308245 -0.113097 0.482378 0 0 -1
-0.0478638 0.0619186 0.0257515 0.473038 0.473036 0.743285
0.203693 -0.315496 0.482378 0 0 -1
-0.378106 0.0711413 0.550843 -0.994407 0.104528 0.0151217
0.0528449 -0.251359 0.576547 0 0 1
0.196036 -0.0904355 0.482378 0 0 -1
0.068039 0.0607245 0.00112519 0.165769 -0.165769 -0.972132
-0.0715313 0.0897642 0.0230925 0.473038 0.473036 0.743285
-0.240258 0.167409 0.576547 0 0 1
-0.385541 -0.0091758 0.490213 -0.994407 -0.104528 0.0151217
-0.334579 -0.0460853 0.576547 0 0 1
0.093483 0.364681 0.576547 0 0 1
0.142173 0.356187 0.482378 0 0 -1
-0.167584 0.096466 0.482378 0 0 -1
0.159268 -0.291202 0.482378 0 0 1
0.137069 0.292648 0.464804 0 1 0
-0.131783 0.361206 0.564392 -0.406722 0.913531 0.00618487
0.216215 0.141503 0.482378 0 0 -1
-0.193702 0.0690722 0.576547 0 0 1
-0.0534203 0.343133 0.482378 0 0 -1
-0.0975502 -0.266406 0.482378 0 0 -1
-0.249625 0.293482 0.488868 -0.587764 0.808983 0.00893799
-0.27791 0.292099 0.459033 0 1 0
-0.131095 -0.361974 0.496047 -0.406722 -0.913531 0.00618486
-0.279787 -0.247029 0.482378 0 0 1
-0.277284 0.248653 0.466044 1 0 0
-0.141075 -0.273562 0.482378 0 0 -1
-0.0878037 -0.148174 0.576547 0 0 1
-0.38294 0.0263567 0.542503 -0.994407 0.104528 0.0151217
0.358194 0.0830397 0.482378 0 0 -1
-0.117117 -0.0169113 0.576547 0 0 1
-0.203806 0.133632 0.576547 0 0 1
-0.275737 0.292099 0.534078 0 1 0
0.124224 0.121988 0.0286841 0.165767 -0.165767 0.972133
-0.272288 0.255753 0.0384886 -0.127779 -0.826183 0.548721
0.265676 -0.265611 0.314928 -0.866033 0.499988 0
0.0812462 -0.283381 0.482378 0 0 1
-0.291383 0.277898 0.24619 -1 0 0
-0.208127 0.0688922 0.482378 0 0 -1
0.247451 0.113055 0.482378 0 0 -1
0.0965464 0.0652124 0.576547 0 0 1
-0.0905728 -0.319 0.482378 0 0 -1
-0.129719 -0.323647 0.482378 0 0 -1
-0.276877 -0.292099 0.11844 0 -1 0
-0.0812341 0.0759594 0.00102154 -0.165769 -0.165769 -0.972132
-0.271244 0.261294 0.19003 0.499988 -0.866033 0
0.0541387 -0.12331 0.576547 0 0 1
0.291932 0.236481 0.476446 1 0 0
-0.279318 -0.292099 0.388123 0 -1 0
0.0543381 0.0481474 0.0280096 0.165768 -0.165768 0.972133
-0.123314 -0.0358582 0.482378 0 0 -1
-0.00193769 -0.157678 0.576547 0 0 1
-0.366719 0.0342315 0.482378 0 0 -1
-0.289967 0.19613 0.482378 0 0 -1
0.00116852 -0.273133 0.482378 0 0 -1
-0.277284 0.17887 0.465107 1 0 0
0.0626699 -0.378092 0.576547 0 0 1
-0.224366 0.071096 0.576547 0 0 1
-0.277145 -0.261036 0.0710354 0 1 0
0.125006 -0.159446 0.482378 0 0 -1
0.182755 -0.338971 0.562322 0.406722 -0.913531 -0.0061849
0.347304 0.165635 0.513974 0.865944 0.499968 -0.0131682
-0.0207094 0.164009 0.576547 0 0 1
0.379387 -0.0561145 0.48848 0.994407 -0.104528 -0.0151217
-0.228186 -0.100585 0.482378 0 0 -1
-0.267467 0.0715622 0.576547 0 0 1
-0.0930652 -0.0718763 0.0124882 -0.677739 0.677736 -0.285207
0.262917 0.0364599 0.576547 0 0 1
0.275173 0.261036 0.53994 0 -1 0
-0.26032 0.274188 0.537165 1 0 0
-0.0675377 -0.0645913 0.482378 0 0 -1
-0.031607 0.348076 0.576547 0 0 1
0.0475526 0.225685 0.482378 0 0 -1
-0.147255 0.0692357 0.482378 0 0 -1
0.139704 0.287675 0.576547 0 0 1
0.0298728 0.355622 0.576547 0 0 1
-0.090019 -0.211299 0.482378 0 0 -1
-0.342524 0.173497 0.560795 -0.865944 0.499968 0.0131682
0.13638 0.05368 0.482378 0 0 -1
-0.277607 -0.261036 0.325814 0 1 0
-0.204174 0.104635 0.482378 0 0 -1
0.154316 -0.2449 0.576547 0 0 1
0.253242 -0.218396 0.482378 0 0 -1
-0.169859 0.309629 0.482378 0 0 -1
0.202726 -0.104062 0.576547 0 0 1
-0.0996989 -0.276568 0.459662 0 1 0
-0.280003 0.152475 0.482378 0 0 1
-0.195575 -0.332591 0.503414 -0.587764 -0.808983 0.00893796
-0.291383 0.273981 0.0668132 -1 0 0
0.166176 0.346245 0.546553 0.406722 0.913531 -0.0061849
-0.237381 0.209081 0.482378 0 0 -1
-0.270441 -0.0196098 0.482378 0 0 -1
-0.351139 0.159484 0.526323 -0.865944 0.499968 0.0131682
-0.26751 0.287798 0.0374541 6.31697e-05 0.978557 -0.205974
-0.200807 0.180749 0.019141 -0.677738 -0.677736 0.285211
0.297505 0.194763 0.482378 0 0 -1
0.123794 0.120508 0.000438189 0.165769 -0.165769 -0.972132
0.275996 -0.261036 0.357387 0 1 0
0.381834 0.040155 0.539089 0.994407 0.104528 -0.0151217
0.0412595 -0.381274 0.482378 0 0 -1
-0.27438 -0.292099 0.518863 0 -1 0
-0.0500103 0.0302742 0.00903837 -0.677711 -0.677708 -0.285342
0.0437761 -0.347967 0.482378 0 0 -1
0.0966441 -0.0643744 0.576547 0 0 1
0.242606 0.174112 0.482378 0 0 -1
0.143668 0.128656 0.0251424 0.473017 -0.473017 0.74331
0.188754 -0.276568 0.45945 0 1 0
-0.011984 0.357811 0.482378 0 0 -1
-0.323273 -0.104028 0.576547 0 0 1
-0.225911 -0.310528 0.505442 -0.587764 -0.808983 0.00893796
0.185602 0.00979908 0.482378 0 0 -1
-0.327883 0.0791219 0.576547 0 0 1
-0.0727292 0.312696 0.482378 0 0 -1
0.384349 0.0167708 0.542784 0.994407 0.104528 -0.0151217
-0.353044 -0.152874 0.576547 0 0 1
0.29071 0.0509954 0.482378 0 0 1
0.289918 0.285749 0.217907 0.866084 0.499899 0
-0.290515 0.282233 0.1778 -0.866084 0.499899 0
-0.264162 -0.265753 0.553216 0.866033 0.499988 0
0.307401 -0.232657 0.558381 0.743102 -0.669083 -0.0113001
0.134067 -0.102865 0.576547 0 0 1
0.286679 0.289078 0.37273 0.499899 0.866084 0
0.0101931 -0.0530566 0.482378 0 0 -1
-0.300631 0.046332 0.576547 0 0 1
0.291932 0.153011 0.463694 1 0 0
0.173539 -0.275203 0.482378 0 0 -1
0.118875 0.208139 0.576547 0 0 1
0.342528 -0.0175245 0.482378 0 0 -1
0.0526034 -0.381227 0.541448 0.207915 -0.978142 -0.00316171
-0.226031 0.287639 0.482378 0 0 1
-0.379626 -0.0469412 0.576547 0 0 1
0.0258454 -0.117227 0.482378 0 0 -1
0.266273 -0.288145 0.12366 -0.499899 -0.866084 0
0.183597 0.338142 0.495216 0.406722 0.913531 -0.0061849
0.291879 -0.221155 0.576547 0 0 1
-0.363673 0.121117 0.563638 -0.950964 0.308964 0.014461
-0.285016 0.263925 0.114849 -0.499988 -0.866033 0
0.28115 0.0313358 0.576547 0 0 1
-0.293364 -0.0903834 0.478272 -1 0 0
-0.176514 -0.172128 0.000869988 -0.165769 0.165769 -0.972132
-0.293364 0.108731 0.46206 -1 0 0
-0.0507143 0.113544 0.576547 0 0 1
-0.37621 -0.0840561 0.531011 -0.950964 -0.308964 0.014461
-0.326249 0.0856644 0.482378 0 0 -1
0.0017914 0.323081 0.482378 0 0 -1
0.294846 0.136625 0.482378 0 0 -1
-0.238723 -0.197646 0.482378 0 0 -1
-0.102631 0.324035 0.482378 0 0 -1
-0.173218 0.110515 0.576547 0 0 1
0.0197072 0.285378 0.576547 0 0 1
0.359768 -0.0166721 0.576547 0 0 1
-0.0741918 -0.0716025 0.576547 0 0 1
0.0235547 -0.383795 0.52193 0 -1 0
-0.178269 0.340731 0.531531 -0.406722 0.913531 0.00618489
-0.287149 -0.254685 0.528082 -0.743102 -0.669083 0.0113001
0.0583606 0.379951 0.525532 0.207915 0.978142 -0.0031617
-0.241969 -0.143889 0.576547 0 0 1
0.189353 0.220112 0.576547 0 0 1
-0.201086 -0.125235 0.482378 0 0 -1
-0.23719 0.247012 0.0177081 0.707119 -0.707094 9.08939e-05
-0.148071 0.00656867 0.576547 0 0 1
-0.309135 0.230086 0.538777 -0.743102 0.669083 0.0113001
-0.268969 -0.25322 0.0116592 -0.590378 0.340847 -0.731627
-0.0516472 -0.277118 0.459223 0 0 -1
0.26494 -0.28625 0.452252 -0.866033 -0.499988 0
0.155281 0.152042 0.028513 0.165767 -0.165767 0.972133
-0.00614065 -0.0291441 0.0133973 0.677707 -0.67771 -0.285346
-0.180333 -0.336637 0.482378 0 0 -1
0.152346 -0.0353285 0.482378 0 0 -1
-0.337221 -0.135561 0.482378 0 0 -1
0.00272626 0.0656282 0.576547 0 0 1
0.259604 0.284861 0.506247 0.743102 0.669083 -0.0113001
-0.153032 0.352289 0.48402 -0.406722 0.913531 0.00618489
0.290208 0.267891 0.434996 0.866084 -0.499899 0
0.334064 -0.0663331 0.576547 0 0 1
0.320366 0.213105 0.544862 0.865944 0.499968 -0.0131682
0.031721 0.368069 0.482378 0 0 -1
-0.262058 -0.269397 0.431689 0.866033 0.499988 0
0.146652 0.0829856 0.482378 0 0 -1
0.264587 -0.28564 0.432369 -0.866033 -0.499988 0
0.00899479 -0.247616 0.576547 0 0 1
0.0928288 -0.0740992 0.0227763 0.473016 0.473017 0.74331
-0.193867 -0.103017 0.576547 0 0 1
-0.14412 -0.150497 0.0279778 0.165767 -0.165767 0.972133
-0.290211 0.282759 0.284905 -0.866084 0.499899 0
0.298193 -0.184584 0.482378 0 0 -1
-0.00637712 -0.305031 0.576547 0 0 1
0.279183 0.00455377 0.576547 0 0 1
-0.190126 0.243574 0.576547 0 0 1
0.21374 -0.229291 0.576547 0 0 1
-0.0029103 -0.365127 0.576547 0 0 1
0.2848 -0.0200601 0.576547 0 0 1
-0.220564 -0.0836381 0.482378 0 0 -1
0.34393 0.172387 0.548469 0.865944 0.499968 -0.0131682
0.34233 -0.175658 0.56742 0.865944 -0.499968 -0.0131682
0.159039 0.128856 0.576547 0 0 1
0.0969108 -0.207307 0.576547 0 0 1
0.278452 0.292099 0.503908 0 1 0
-0.290162 -0.138986 0.482378 0 0 -1
-0.302036 -0.23092 0.482378 0 0 -1
-0.0886995 0.0608666 0.576547 0 0 1
0.14094 0.0108424 0.576547 0 0 1
0.10511 -0.0621205 0.482378 0 0 -1
0.0336104 -0.0551164 0.0157013 -0.677707 -0.677709 0.285349
-0.217385 -0.121084 0.576547 0 0 1
-0.288745 0.246973 0.482378 0 0 1
0.222344 -0.063594 0.576547 0 0 1
0.259011 -0.278767 0.024405 -0.545514 -0.811607 -0.209064
0.0416821 0.0231929 0.576547 0 0 1
0.295946 -0.135826 0.576547 0 0 1
0.0441912 -0.319855 0.482378 0 0 -1
-0.153003 -0.0900115 0.482378 0 0 -1
-0.0190214 -0.236085 0.482378 0 0 -1
0.00641093 0.239957 0.576547 0 0 1
-0.000303209 -0.202932 0.576547 0 0 1
0.275852 -0.235849 0.461511 -1 0 0
0.104629 0.0979754 0.0279307 0.165768 -0.165768 0.972133
-0.0813193 -0.108817 0.482378 0 0 -1
0.0587477 0.242398 0.482378 0 0 -1
0.0240134 0.0388482 0.482378 0 0 -1
-0.225759 0.209212 0.0232541 -0.473016 -0.473017 0.74331
0.117282 -0.28408 0.482378 0 0 -1
-0.123305 0.365458 0.493855 -0.406722 0.913531 0.00618487
0.254585 -0.292648 0.472427 0 -1 0
0.0563878 -0.0521558 0.576547 0 0 1
0.165509 0.33996 0.482378 0 0 -1
-0.0024583 0.0808751 0.482378 0 0 -1
0.282253 -0.191857 0.576547 0 0 1
-0.100897 0.289253 0.482378 0 0 -1
0.121995 0.208666 0.482378 0 0 -1
-0.351112 0.115994 0.482378 0 0 -1
0.0526856 0.183445 0.482378 0 0 -1
0.324699 0.0406363 0.576547 0 0 1
-0.381963 -0.0410661 0.505076 -0.994407 -0.104528 0.0151217
-0.0922464 -0.357383 0.576547 0 0 1
-0.185202 -0.00931226 0.576547 0 0 1
-0.269319 -0.258906 0.576547 0 0 1
0.214926 0.129948 0.576547 0 0 1
0.172562 0.275995 0.576547 0 0 1
0.261752 -0.27382 0.211918 -1 0 0
0.0532207 -0.0649768 0.00264018 -0.473031 -0.473031 -0.743293
-0.00729069 0.0145761 0.0148448 -0.677709 0.677707 0.285349
-0.168458 -0.092215 0.576547 0 0 1
-0.191865 0.280288 0.576547 0 0 1
0.170458 0.260463 0.482378 0 0 -1
-0.16707 -0.160373 0.576547 0 0 1
0.288739 -0.287791 0.499875 0.866084 -0.499899 0
0.114073 0.10524 0.482378 0 0 -1
-0.0224777 -0.210948 0.482378 0 0 -1
0.280827 0.292099 0.1099 0 1 0
-0.285651 0.0830342 0.576547 0 0 1
0.00815284 -0.0243749 0.0234608 -0.473038 -0.473037 0.743284
-0.0220319 0.291342 0.482378 0 0 -1
0.104575 0.370113 0.520892 0.207915 0.978142 -0.00316169
0.0770312 -0.365713 0.576547 0 0 1
-0.0963498 0.207857 0.482378 0 0 -1
-0.293364 0.0245009 0.469449 -1 0 0
0.345464 0.0989768 0.576547 0 0 1
0.207079 0.0156085 0.576547 0 0 1
-0.317265 -0.18241 0.576547 0 0 1
0.25513 -0.0341797 0.576547 0 0 1
0.185056 0.337737 0.531404 0.406722 0.913531 -0.0061849
-0.279596 -0.283265 0.030557 -0.480685 -0.832184 -0.276426
0.344738 0.12745 0.482378 0 0 -1
0.176372 0.133846 0.576547 0 0 1
0.16237 0.169756 0.0275618 -0.165767 0.165767 0.972133
0.32418 0.173411 0.576547 0 0 1
-0.349588 0.00482984 0.576547 0 0 1
0.133088 0.186985 0.576547 0 0 1
-0.241827 0.151277 0.482378 0 0 -1
0.381852 0.0340713 0.498201 0.994407 0.104528 -0.0151217
0.0148287 -0.236771 0.482378 0 0 -1
-0.138304 -0.189309 0.482378 0 0 -1
-0.0853814 -0.231455 0.482378 0 0 -1
-0.139718 0.133752 0.0278038 -0.165767 -0.165767 0.972133
-0.332753 -0.191889 0.505063 -0.865944 -0.499968 0.0131682
0.229603 0.277052 0.576547 0 0 1
0.263288 0.269746 0.311702 -0.866033 -0.499988 0
-0.347561 -0.166541 0.493698 -0.865944 -0.499968 0.0131682
0.0123987 0.235618 0.482378 0 0 -1
0.279277 0.292099 0.173017 0 1 0
0.280165 -0.0615079 0.576547 0 0 1
-0.108063 -0.122061 0.0257874 0.473037 -0.473036 0.743285
0.114604 -0.102627 0.00192027 0.165769 0.165769 -0.972132
0.275852 -0.187878 0.460072 -1 0 0
-0.292569 0.0547868 0.482378 0 0 1
-0.18649 0.168776 0.482378 0 0 -1
-0.303805 -0.150204 0.482378 0 0 -1
0.130201 -0.325039 0.482378 0 0 -1
-0.381017 0.0416773 0.563038 -0.994407 0.104528 0.0151217
0.162638 -0.237543 0.482378 0 0 -1
0.101105 0.365287 0.482378 0 0 -1
0.237782 -0.268602 0.482378 0 0 -1
0.171167 0.281015 0.482378 0 0 -1
-0.111624 -0.242266 0.576547 0 0 1
0.291932 -0.142866 0.474916 1 0 0
0.212976 -0.223137 0.482378 0 0 -1
-0.289418 0.269003 0.41707 -0.866084 -0.499899 0
0.24268 -0.175687 0.576547 0 0 1
0.179757 0.0875306 0.576547 0 0 1
0.0832132 -0.116353 0.482378 0 0 -1
-0.0517308 -0.0780947 0.482378 0 0 -1
-0.333682 0.155636 0.576547 0 0 1
-0.09772 -0.124472 0.576547 0 0 1
0.148152 -0.142815 0.482378 0 0 -1
0.256817 0.292595 0.482378 0 0 1
-0.213807 -0.292648 0.461031 0 -1 0
0.235383 -0.229485 0.482378 0 0 -1
0.375163 -0.0852705 0.485025 0.950964 -0.308964 -0.014461
-0.0553968 -0.253908 0.482378 0 0 -1
-0.351671 -0.158139 0.54238 -0.865944 -0.499968 0.0131682
-0.308599 -0.0505198 0.482378 0 0 -1
0.0173263 0.383795 0.556175 0 1 0
0.241945 -0.218895 0.015433 0.677738 0.677736 0.285211
0.0922382 0.112748 0.0180688 -0.677709 0.677707 0.285349
-0.131895 0.187728 0.576547 0 0 1
-0.310701 -0.0746468 0.576547 0 0 1
0.254186 0.251085 0.00375572 0.322795 -9.64171e-06 -0.946469
-0.271581 0.250896 0.0185934 -0.811643 -0.545408 -0.209203
0.115365 -0.367767 0.504765 0.207915 -0.978142 -0.00316172
0.0394436 0.276568 0.478275 0 -1 0
