0.00853434 0.134024 0.318721 0 0 1
0.29695 -0.220534 0.208518 0 0.258849 0.965918
0.359987 -0.215874 0.0447062 -0.965911 0.258874 0
-0.301096 -0.141271 0.313701 0 0 -1
0.168027 -0.141562 0.318721 0 0 1
0.368995 0.238145 0.00425016 -0.258735 0.965948 0
-0.0234389 -0.0802213 0.318721 0 0 1
-0.108869 -0.219587 0.313701 0 0 -1
0.010606 0.235056 0.311192 0 0 -1
0.228926 -0.0057652 0.318721 0 0 1
-0.395528 0.231358 0.22049 -0.707155 0.707059 0
0.345329 0.213717 0.318721 0 0 1
0.259668 0.154009 0.313701 0 0 -1
0.132103 0.0174501 0.318721 0 0 1
0.114916 -0.0927923 0.313701 0 0 -1
-0.382217 0.165203 0.311192 0 0 -1
-0.194912 0.0774199 0.313701 0 0 -1
-0.373383 0.202055 0.166959 0.258824 -0.965924 0
0.30105 0.107453 0.318721 0 0 1
-0.377163 -0.240333 0.200051 0.258735 -0.965948 0
-0.387484 0.00818492 0.193564 -0.965918 0 -0.258849
-0.243068 0.154817 0.318721 0 0 1
0.416138 -0.109607 0.311192 0 0 -1
-0.391326 0.228934 0.303314 -0.508611 0.508611 0.694715
0.0987693 0.117637 0.318721 0 0 1
-0.239811 0.0240243 0.318721 0 0 1
-0.336286 0.210706 0.19873 0 -0.965978 0.258623
0.249788 -0.176533 0.318721 0 0 1
0.215154 0.0514448 0.318721 0 0 1
-0.244484 -0.208696 0.318721 0 0 1
-0.377732 0.20089 0.217665 0.258824 -0.965924 0
0.38172 0.100156 0.321231 0 0 1
0.346331 -0.213451 0.318721 0 0 1
0.301143 0.0286201 0.313701 0 0 -1
-0.0551412 0.218309 0.207922 0 -0.258849 0.965918
-0.149433 -0.147062 0.313701 0 0 -1
0.121827 -0.163111 0.313701 0 0 -1
0.0296265 0.053313 0.318721 0 0 1
0.394655 0.232232 0.166178 0.707155 0.707059 0
0.379173 -0.240429 0.290266 0.250514 -0.935147 -0.250485
-0.127561 -0.211059 0.200048 0 0.965978 0.258623
-0.251166 0.216295 0.313701 0 0 -1
-0.197927 0.242132 0.321231 0 0 1
-0.0340893 0.123634 0.313701 0 0 -1
0.156609 0.0721014 0.318721 0 0 1
0.2948 -0.0416794 0.313701 0 0 -1
0.234553 -0.115941 0.318721 0 0 1
-0.292083 -0.0877602 0.318721 0 0 1
-0.372316 0.0447536 0.318721 0 0 1
0.112295 0.166386 0.318721 0 0 1
0.385029 -0.0198539 0.321231 0 0 1
0.409146 0.223756 0.321231 0 0 1
-0.376344 -0.240113 0.0256248 0.258735 -0.965948 0
0.0689079 -0.0900151 0.318721 0 0 1
-0.407642 -0.0571356 0.321231 0 0 1
-0.27692 0.0958171 0.313701 0 0 -1
0.372402 0.238218 0.287982 -0.250483 0.935142 -0.250534
-0.334312 0.0917532 0.313701 0 0 -1
-0.359894 -0.225155 0.241399 0.965924 -0.258826 0
0.183795 0.20504 0.318721 0 0 1
0.362652 -0.209384 0.0768336 -0.707204 0.70701 0
-0.0640062 -0.188743 0.318721 0 0 1
-0.368902 -0.134991 0.318721 0 0 1
-0.00414938 -0.0276806 0.318721 0 0 1
0.325161 0.0716211 0.313701 0 0 -1
-0.418927 -0.149085 0.314489 -1 0 0
-0.391909 -0.23192 0.299467 -0.684606 -0.6845 0.250548
-0.243303 -0.153194 0.313701 0 0 -1
-0.376676 0.240202 0.031303 0.258735 0.965948 0
0.359581 -0.223987 0.22221 -0.965924 -0.258826 0
-0.178937 0.226413 0.206508 0 0.707107 0.707107
0.38642 -0.238716 0.196786 0.258735 -0.965948 0
-0.115643 -0.0943544 0.318721 0 0 1
0.367481 -0.209871 0.279874 -0.508614 0.508613 -0.694712
-0.0227071 0.0728619 0.313701 0 0 -1
0.228004 0.210734 0.198206 0 -0.965966 -0.25867
-0.317146 -0.210225 0.313701 0 0 -1
-0.313088 0.129685 0.313701 0 0 -1
0.261532 0.228626 0.321231 0 0 1
0.380487 0.0195088 0.188941 0.259158 0 -0.965835
-0.00814474 0.195031 0.318721 0 0 1
0.378773 -0.0804405 0.313349 -1 0 0
0.249551 0.114235 0.318721 0 0 1
-0.0711386 0.147495 0.313701 0 0 -1
-0.150025 -0.0507618 0.313701 0 0 -1
0.150773 -0.234532 0.321231 0 0 1
-0.360627 -0.200868 0.318721 0 0 1
0.166985 0.249311 0.321231 0 0 1
0.00781667 -0.225192 0.321231 0 0 1
-0.379903 0.240461 0.105288 -0.258735 0.965948 0
0.381794 -0.239955 0.0608443 0.258735 -0.965948 0
0.323699 -0.07575 0.318721 0 0 1
-0.381619 0.240002 0.197793 -0.258735 0.965948 0
-0.129964 0.0931083 0.313701 0 0 -1
0.418733 0.0890572 0.311192 0 0 -1
-0.397629 -0.216131 0.0359202 -0.965912 0.258871 0
-0.235074 0.0907022 0.318721 0 0 1
-0.387897 -0.0643044 0.201935 -0.96593 0 0.258802
0.132455 -0.0208041 0.313701 0 0 -1
-0.343784 -0.251584 0.311192 0 0 -1
0.192767 0.159605 0.318721 0 0 1
0.146284 0.210844 0.199243 0 -0.965978 0.258623
0.0832027 -0.173701 0.318721 0 0 1
0.330187 0.256198 0.311192 0 0 -1
-0.344362 -0.0353617 0.313701 0 0 -1
-0.136949 0.179704 0.313701 0 0 -1
0.305103 0.228262 0.204659 0 0.707107 0.707107
-0.268764 -0.254524 0.321231 0 0 1
-0.371699 -0.202506 0.224895 0.258824 0.965924 0
0.371726 -0.00123079 0.313701 0 0 -1
0.394296 0.142821 0.321231 0 0 1
0.0531076 0.102587 0.313701 0 0 -1
-0.0568893 -0.00336534 0.318721 0 0 1
-0.330764 0.229802 0.321231 0 0 1
-0.0542894 -0.114209 0.313701 0 0 -1
0.380569 0.201092 0.0137455 0.258824 -0.965924 0
-0.271266 -0.0359856 0.313701 0 0 -1
-0.206793 -0.0915791 0.313701 0 0 -1
0.0651731 0.220687 0.316968 0 1 0
-0.207164 -0.224767 0.207466 0 -0.258802 0.96593
0.26366 -0.260471 0.321231 0 0 1
0.395565 -0.191246 0.321231 0 0 1
-0.263044 0.214392 0.205938 0 -0.707108 0.707105
-0.404776 0.0196458 0.311192 0 0 -1
0.369836 0.203006 0.190134 -0.258824 -0.965924 0
-0.0237448 -0.2574 0.321231 0 0 1
0.194034 -0.104876 0.318721 0 0 1
0.321282 -0.154634 0.313701 0 0 -1
-0.399068 0.240547 0.315003 -0.707115 0.707098 0
-0.113934 -0.197981 0.313701 0 0 -1
0.128892 0.21864 0.313701 0 0 -1
0.0890031 0.215595 0.189901 0 -0.707012 -0.707201
-0.158617 0.216643 0.313701 0 0 -1
0.102793 -0.230376 0.199828 0 -0.96593 0.258802
-0.3599 -0.216198 0.101953 0.965911 0.258874 0
0.227261 -0.255272 0.321231 0 0 1
-0.145962 0.0207458 0.318721 0 0 1
-0.389141 0.224952 0.260752 -0.737748 0.197682 0.645484
-0.0361739 -0.216628 0.207471 0 0.258849 0.965918
0.397195 -0.226865 0.133719 0.965925 -0.258823 0
0.395012 -0.215824 0.300576 0.935134 0.250537 0.250512
0.152329 0.108153 0.313701 0 0 -1
0.369414 -0.0446216 0.201057 -0.965883 0 0.258979
-0.371572 0.140642 0.192009 0.707011 0 -0.707203
-0.39126 0.189751 0.321231 0 0 1
0.0475639 -0.153162 0.313701 0 0 -1
0.380298 -0.127584 0.321231 0 0 1
0.201734 -0.229228 0.193348 0 -0.707011 -0.707203
-0.298576 0.191935 0.313701 0 0 -1
-0.276788 0.0392032 0.318721 0 0 1
0.119984 -0.11935 0.313701 0 0 -1
0.0251387 0.260842 0.316124 0 1 0
-0.217859 -0.220616 0.313701 0 0 -1
0.396747 0.0676592 0.311192 0 0 -1
-0.195369 0.125223 0.313701 0 0 -1
-0.0843063 0.175111 0.318721 0 0 1
0.364012 0.233352 0.219374 -0.707204 0.70701 0
0.100892 0.0283867 0.318721 0 0 1
-0.380484 -0.240306 0.125512 -0.258735 -0.965948 0
-0.117778 -0.134653 0.318721 0 0 1
-0.0619041 -0.0744356 0.318721 0 0 1
-0.219713 0.191347 0.318721 0 0 1
0.329765 -0.0109722 0.313701 0 0 -1
0.0837941 0.247427 0.311192 0 0 -1
0.337051 -0.190234 0.313701 0 0 -1
-0.359764 0.22467 0.179579 0.965924 0.258826 0
-0.0352258 0.224931 0.321231 0 0 1
0.240768 0.224189 0.321231 0 0 1
-0.359862 -0.100217 0.318721 0 0 1
0.377143 0.194301 0.313701 0 0 -1
-0.106005 0.0697602 0.313701 0 0 -1
0.0825099 0.0920416 0.313701 0 0 -1
0.0474844 0.0213001 0.318721 0 0 1
-0.317642 -0.00171036 0.318721 0 0 1
-0.0769192 -0.146208 0.318721 0 0 1
-0.335643 0.156661 0.318721 0 0 1
0.369069 -0.155173 0.19977 -0.965883 0 0.258979
-0.367274 -0.219068 0.188916 0 0.259205 -0.965822
-0.358951 -0.219739 0.0495158 0.965911 0.258874 0
0.200953 -0.173928 0.313701 0 0 -1
0.0367915 0.147894 0.318721 0 0 1
0.38096 -0.201197 0.15571 0.258824 0.965924 0
0.0319549 -0.0969978 0.313701 0 0 -1
-0.418874 -0.0307903 0.311192 0 0 -1
-0.388067 0.031986 0.201299 -0.96593 0 0.258802
-0.30615 -0.176704 0.313701 0 0 -1
-0.394564 0.212082 0.283726 -0.935117 -0.250618 -0.250495
-0.418927 0.159988 0.315794 -1 0 0
-0.115461 -0.00277686 0.318721 0 0 1
0.384864 0.216665 0.265446 0.540111 -0.540038 0.645476
0.210846 -0.238969 0.321231 0 0 1
0.12422 0.187209 0.313701 0 0 -1
-0.38455 0.202159 0.11757 -0.258824 -0.965924 0
-0.120307 -0.0528883 0.313701 0 0 -1
-0.130284 0.121728 0.318721 0 0 1
0.282757 0.0967457 0.318721 0 0 1
-0.372989 0.0931116 0.190593 0.707011 0 -0.707203
-0.106092 -0.247025 0.311192 0 0 -1
0.303768 -0.0768956 0.313701 0 0 -1
0.388294 0.201938 0.196586 0.965918 0 -0.258849
-0.368212 -0.237553 0.0962143 0.707204 -0.70701 0
-0.117451 0.25839 0.311192 0 0 -1
0.0136837 -0.183218 0.313701 0 0 -1
-0.354238 0.0777837 0.313701 0 0 -1
0.205768 -0.0337942 0.318721 0 0 1
-0.165604 0.0502231 0.313701 0 0 -1
0.342617 0.158385 0.313701 0 0 -1
-0.374819 0.20167 0.0647636 0.258824 -0.965924 0
0.288295 -0.234769 0.321231 0 0 1
-0.39356 0.118057 0.311192 0 0 -1
0.156629 0.162235 0.318721 0 0 1
-0.335912 0.0401909 0.313701 0 0 -1
-0.118613 0.227247 0.191368 0 0.707011 -0.707203
0.00277078 0.165681 0.318721 0 0 1
-0.218455 -0.175408 0.318721 0 0 1
0.261703 -0.000226855 0.318721 0 0 1
0.158534 -0.0899272 0.318721 0 0 1
-0.2638 -0.00329643 0.318721 0 0 1
-0.418927 0.0961748 0.31723 -1 0 0
0.369475 0.138002 0.201284 -0.965883 0 0.258979
0.166227 -0.0158967 0.313701 0 0 -1
-0.194009 -0.0150867 0.313701 0 0 -1
0.326315 -0.232025 0.311192 0 0 -1
0.369422 -0.238259 0.125127 -0.258735 -0.965948 0
-0.0489453 0.260842 0.312489 0 1 0
0.0567264 -0.0422577 0.318721 0 0 1
0.0494659 -0.225195 0.311192 0 0 -1
-0.0784974 -0.217923 0.189223 0 0.259205 -0.965822
0.0675336 0.17454 0.313701 0 0 -1
0.106714 -0.178615 0.318721 0 0 1
0.0290376 -0.226765 0.190886 0 -0.707011 -0.707203
-0.374491 -0.201758 0.173003 0.258824 0.965924 0
-0.379084 -0.168903 0.311192 0 0 -1
0.396838 0.213182 0.0713539 0.965912 -0.258871 0
-0.369681 -0.203047 0.0222086 0.258824 0.965924 0
0.0184231 0.227807 0.205114 0 0.707107 0.707107
0.398619 -0.100658 0.321231 0 0 1
0.191405 0.0519681 0.313701 0 0 -1
0.0971723 -0.241423 0.321231 0 0 1
-0.154402 -0.17266 0.318721 0 0 1
0.0588361 -0.116044 0.313701 0 0 -1
0.266021 -0.0378313 0.313701 0 0 -1
0.122397 -0.0584978 0.313701 0 0 -1
-0.183722 0.172524 0.313701 0 0 -1
0.382101 -0.213639 0.189374 0.259158 0 -0.965835
-0.133217 0.238679 0.321231 0 0 1
-0.0698707 0.0474052 0.318721 0 0 1
-0.305167 0.0261193 0.313701 0 0 -1
-0.378773 -0.0452091 0.317013 -1 0 0
-0.184937 -0.214128 0.313701 0 0 -1
0.395818 0.210308 0.139367 0.707155 -0.707059 0
-0.0168506 -0.229453 0.321231 0 0 1
-0.274097 -0.14329 0.313701 0 0 -1
0.253975 0.183699 0.318721 0 0 1
-0.271036 0.128443 0.313701 0 0 -1
-0.357057 0.227818 0.311192 0 0 -1
0.396395 -0.211527 0.0692145 0.965912 0.258871 0
-0.149858 -0.234962 0.321231 0 0 1
0.143277 -0.227808 0.205113 0 -0.707107 0.707107
-0.265332 -0.0941163 0.313701 0 0 -1
0.363469 0.232809 0.156505 -0.707204 0.70701 0
0.280172 0.165602 0.318721 0 0 1
0.395515 0.231371 0.101853 0.707155 0.707059 0
-0.0168568 0.107311 0.313701 0 0 -1
-0.323301 -0.075424 0.313701 0 0 -1
0.146712 0.0449154 0.318721 0 0 1
0.372894 -0.0994587 0.190688 -0.707011 0 -0.707203
-0.185167 -0.0704995 0.318721 0 0 1
-0.079463 -0.220687 0.319259 0 1 0
-0.272942 0.16257 0.318721 0 0 1
-0.304363 0.0925301 0.318721 0 0 1
-0.0473734 0.0871587 0.318721 0 0 1
-0.369649 0.191059 0.195109 0.96587 0 -0.259026
0.0428488 0.216866 0.189507 0 -0.259205 -0.965822
0.359218 0.244817 0.321231 0 0 1
-0.00888836 0.0299335 0.313701 0 0 -1
0.242049 0.066264 0.313701 0 0 -1
0.362183 -0.226738 0.253092 -0.737758 -0.197687 0.645472
-0.204581 0.0476763 0.318721 0 0 1
-0.0573931 0.233948 0.311192 0 0 -1
0.373519 0.091709 0.190063 -0.707011 0 -0.707203
-0.261446 0.0629483 0.318721 0 0 1
0.367623 0.236963 0.0764682 -0.707204 0.70701 0
-0.277542 0.232825 0.321231 0 0 1
-0.206719 0.216938 0.189487 0 -0.259205 -0.965822
-0.16736 -0.0196983 0.313701 0 0 -1
-0.389335 0.237552 0.142565 -0.707155 0.707059 0
-0.222162 -0.0426961 0.318721 0 0 1
0.389141 -0.237745 0.228242 0.707155 -0.707059 0
-0.327827 0.259669 0.311192 0 0 -1
0.0468996 -0.012147 0.313701 0 0 -1
-0.265454 -0.230055 0.311192 0 0 -1
-0.0388581 -0.0129468 0.318721 0 0 1
0.38193 -0.203996 0 0 0 -1
0.189241 -0.0426994 0.318721 0 0 1
-0.361714 0.210323 0.0241505 0.707204 -0.70701 0
-0.176343 0.23354 0.311192 0 0 -1
0.132536 0.142228 0.318721 0 0 1
-0.081949 -0.0149476 0.318721 0 0 1
-0.0139053 -0.229076 0.193196 0 -0.707011 -0.707203
-0.0937908 0.211018 0.313701 0 0 -1
-0.0995483 0.132059 0.313701 0 0 -1
0.303533 -0.185749 0.313701 0 0 -1
0.226241 -0.0889739 0.313701 0 0 -1
-0.391464 -0.0790733 0.311192 0 0 -1
-0.372353 -0.239044 0.158383 0.258735 -0.965948 0
0.0993642 -0.0216798 0.313701 0 0 -1
0.186669 -0.218838 0.208064 0 0.258849 0.965918
-0.19117 0.101888 0.313701 0 0 -1
-0.0200987 -0.110425 0.318721 0 0 1
-0.156133 0.0807405 0.313701 0 0 -1
0.39832 0.0260558 0.321231 0 0 1
0.362912 0.232251 0.0417719 -0.707204 0.70701 0
0.397624 0.224659 0.291717 0.935105 0.250565 0.250589
-0.227139 -0.125202 0.318721 0 0 1
-0.378752 0.240758 0.0719779 0.258735 0.965948 0
-0.287319 -0.218695 0.189015 0 0.259205 -0.965822
-0.313127 -0.260842 0.32023 0 -1 0
0.221082 -0.214868 0.313701 0 0 -1
-0.391894 -0.136236 0.321231 0 0 1
0.0262428 -0.028144 0.313701 0 0 -1
0.333198 0.225386 0.311192 0 0 -1
-0.158294 -0.212083 0.193412 0 0.707012 -0.707201
0.365712 0.206324 0.126211 -0.707204 -0.70701 0
0.389147 -0.0502776 0.321231 0 0 1
-0.381334 -0.12088 0.207873 -0.258802 0 0.96593
-0.000567317 0.00196593 0.313701 0 0 -1
-0.179884 0.260842 0.313776 0 1 0
-0.397934 -0.217271 0.216737 -0.965912 0.258871 0
0.0884842 -0.21278 0.192715 0 0.707012 -0.707201
-0.0394349 -0.209695 0.313701 0 0 -1
0.232143 -0.057678 0.318721 0 0 1
0.376133 0.227372 0.321231 0 0 1
0.393801 -0.171358 0.321231 0 0 1
0.327778 -0.220589 0.208533 0 0.258849 0.965918
0.223743 0.158476 0.318721 0 0 1
0.418927 -0.181189 0.315809 1 0 0
-0.417949 -0.115153 0.311192 0 0 -1
0.0964149 -0.0790722 0.318721 0 0 1
0.169867 -0.171692 0.313701 0 0 -1
-0.390508 0.0611959 0.321231 0 0 1
-0.330988 -0.139395 0.313701 0 0 -1
0.383509 -0.239496 0.0180962 0.258735 -0.965948 0
0.033366 0.220687 0.318364 0 -1 0
0.176027 -0.220687 0.31287 0 1 0
0.370341 -0.20287 0.201497 -0.258824 0.965924 0
-0.271498 0.253213 0.311192 0 0 -1
0.365605 -0.243037 0.321231 0 0 1
0.0531342 0.148726 0.313701 0 0 -1
0.124663 0.103747 0.313701 0 0 -1
-0.36308 0.024347 0.313701 0 0 -1
0.239191 0.230573 0.19909 0 0.96593 0.258802
-0.368167 0.205196 0.318721 0 0 1
0.292279 0.213055 0.192441 0 -0.707012 -0.707201
-0.395438 -0.209928 0.0790885 -0.707155 0.707059 0
-0.223119 0.220687 0.312345 0 -1 0
-0.167395 -0.260842 0.321146 0 -1 0
0.120281 0.0465404 0.313701 0 0 -1
0.0793016 -0.220687 0.31287 0 1 0
-0.418927 -0.193743 0.320903 -1 0 0
-0.355715 -0.169414 0.318721 0 0 1
0.298788 0.14335 0.318721 0 0 1
-0.0389203 0.0482664 0.313701 0 0 -1
-0.398563 0.219616 0.192062 -0.965912 -0.258871 0
-0.0409552 -0.172422 0.318721 0 0 1
0.364156 0.133964 0.313701 0 0 -1
0.322879 -0.124289 0.313701 0 0 -1
-0.17871 -0.120852 0.318721 0 0 1
-0.377416 -0.212433 0.264057 0.197683 0.737748 0.645484
0.338195 0.187205 0.318721 0 0 1
0.302824 0.0571975 0.313701 0 0 -1
0.153926 0.229316 0.311192 0 0 -1
0.309473 0.238859 0.321231 0 0 1
-0.384849 0.0764854 0.206158 -0.707107 0 0.707107
0.244048 -0.136376 0.318721 0 0 1
-0.106344 -0.069321 0.313701 0 0 -1
0.182501 0.0971823 0.313701 0 0 -1
0.261824 -0.217288 0.189393 0 0.259205 -0.965822
0.27217 0.260842 0.314449 0 1 0
0.048971 0.0747784 0.313701 0 0 -1
-0.211269 0.257392 0.321231 0 0 1
-0.219567 -0.215432 0.190064 0 0.707012 -0.707201
0.391828 0.235059 0.221901 0.707155 0.707059 0
0.359132 0.0992993 0.318721 0 0 1
-0.384386 -0.105923 0.311192 0 0 -1
0.27818 -0.215845 0.313701 0 0 -1
-0.217047 0.0249321 0.318721 0 0 1
-0.0288674 0.216509 0.189602 0 -0.259205 -0.965822
-0.385847 -0.204693 0.299276 -0.25051 0.935135 0.250535
0.23888 0.0260255 0.313701 0 0 -1
0.278897 -0.0644814 0.313701 0 0 -1
-0.181214 -0.16247 0.313701 0 0 -1
-0.127107 0.15972 0.318721 0 0 1
0.370437 0.0299762 0.313701 0 0 -1
0.416423 0.132727 0.311192 0 0 -1
0.220024 0.22355 0.321231 0 0 1
-0.398245 -0.222946 0.190312 -0.965925 -0.258823 0
-0.28917 -0.199416 0.318721 0 0 1
-0.14659 -0.125611 0.313701 0 0 -1
0.392626 0.113052 0.311192 0 0 -1
-0.364744 0.185415 0.313701 0 0 -1
-0.384495 -0.202144 0.100184 -0.258824 0.965924 0
0.353254 0.223947 0.189356 0 0.259158 -0.965835
-0.089948 0.232676 0.321231 0 0 1
0.373775 -0.20195 0.0205141 -0.258824 0.965924 0
-0.369041 0.23674 0.321231 0 0 1
-0.363035 0.22826 0.2536 0.737758 0.197687 0.645472
-0.374874 0.201656 0.145759 0.258824 -0.965924 0
-0.00349021 -0.164732 0.313701 0 0 -1
-0.375558 -0.182631 0.189344 0.259205 0 -0.965822
0.305251 -0.218826 0.188981 0 0.259205 -0.965822
0.340914 0.0870387 0.318721 0 0 1
0.148222 -0.153805 0.318721 0 0 1
0.364334 -0.0911612 0.313701 0 0 -1
-0.387818 0.231341 0.278109 -0.508647 0.508568 -0.694721
-0.143094 -0.07573 0.318721 0 0 1
-0.298277 0.216995 0.313701 0 0 -1
-0.00301507 0.0646267 0.313701 0 0 -1
0.00287899 -0.0712026 0.318721 0 0 1
0.376388 0.20125 0.0382023 -0.258824 -0.965924 0
0.156749 -0.211587 0.195021 0 0.965966 -0.25867
-0.215475 -0.244805 0.311192 0 0 -1
0.390619 0.236268 0.13 0.707155 0.707059 0
-0.21343 0.140962 0.313701 0 0 -1
-0.134249 -0.181709 0.313701 0 0 -1
-0.401101 -0.224843 0.321231 0 0 1
-0.249308 0.239614 0.321231 0 0 1
-0.342121 -0.062703 0.318721 0 0 1
0.0698951 -0.222504 0.188968 0 -0.259158 -0.965835
0.0896773 -0.112187 0.313701 0 0 -1
-0.359202 0.222572 0.103244 0.965924 0.258826 0
-0.378423 -0.107705 0.188575 0.259205 0 -0.965822
-0.367938 -0.225472 0.306423 0.694788 -0.186123 0.694714
0.315136 0.00215836 0.318721 0 0 1
-0.0165388 0.143056 0.318721 0 0 1
0.309618 -0.247628 0.311192 0 0 -1
-0.377439 0.240407 0.240447 0.258735 0.965948 0
-0.166968 0.136053 0.313701 0 0 -1
0.195356 -0.137197 0.318721 0 0 1
0.00486878 0.0433814 0.313701 0 0 -1
0.0417219 -0.245186 0.321231 0 0 1
-0.306858 -0.110101 0.313701 0 0 -1
0.352447 -0.146773 0.318721 0 0 1
-0.147226 0.226303 0.190424 0 0.707011 -0.707203
-0.140751 0.0651403 0.318721 0 0 1
-0.22017 0.0690892 0.318721 0 0 1
0.186247 0.133344 0.318721 0 0 1
-0.381609 0.240004 0.00459332 -0.258735 0.965948 0
0.366983 -0.205053 0.0993917 -0.707204 0.70701 0
0.366168 -0.063558 0.318721 0 0 1
-0.333611 0.0617609 0.313701 0 0 -1
-0.240089 0.216873 0.189505 0 -0.259205 -0.965822
0.253178 -0.199223 0.313701 0 0 -1
0.173955 -0.247579 0.311192 0 0 -1
0.374949 0.220687 0.201985 0 1 0
-0.377658 0.240465 0.16922 0.258735 0.965948 0
0.150645 0.260842 0.312969 0 1 0
-0.12794 -0.238058 0.311192 0 0 -1
0.13223 -0.237022 0.311192 0 0 -1
-0.296893 0.1716 0.318721 0 0 1
0.406282 -0.0803463 0.311192 0 0 -1
0.206893 0.260842 0.318143 0 1 0
0.41627 -0.209908 0.321231 0 0 1
-0.387299 -0.23848 0.226479 -0.258735 -0.965948 0
0.0838014 0.226425 0.206496 0 0.707107 0.707107
0.219585 0.10264 0.318721 0 0 1
-0.358387 -0.236727 0.321231 0 0 1
-0.171614 0.211526 0.195249 0 -0.965966 -0.25867
-0.393662 0.208151 0.232631 -0.707155 -0.707059 0
0.230289 -0.0300953 0.313701 0 0 -1
-0.00647691 0.217142 0.207609 0 -0.258849 0.965918
0.0646894 0.0224072 0.318721 0 0 1
-0.0851423 0.0858291 0.313701 0 0 -1
-0.339001 -0.218719 0.318721 0 0 1
0.0517491 -0.073398 0.313701 0 0 -1
0.387023 -0.251044 0.321231 0 0 1
-0.0830678 -0.173096 0.318721 0 0 1
-0.11837 -0.229095 0.193215 0 -0.707011 -0.707203
0.397228 0.214633 0.186637 0.965912 -0.258871 0
-0.195345 -0.211453 0.195522 0 0.965966 -0.25867
-0.19817 0.218679 0.313701 0 0 -1
-0.300835 -0.023969 0.318721 0 0 1
-0.398847 0.220697 0.0106283 -0.965925 0.258823 0
0.418927 0.20599 0.314489 1 0 0
0.360384 -0.226983 0.0944965 -0.965924 -0.258826 0
0.323608 0.143059 0.318721 0 0 1
0.285433 0.122139 0.313701 0 0 -1
0.378773 -0.150248 0.314803 1 0 0
-0.391378 -0.235508 0.0398005 -0.707155 -0.707059 0
0.228813 0.0890769 0.313701 0 0 -1
-0.241699 -0.187298 0.313701 0 0 -1
0.384351 0.0809693 0.206656 0.707107 0 0.707107
-0.388055 -0.0133871 0.201346 -0.96593 0 0.258802
0.0243098 0.173596 0.318721 0 0 1
-0.0625766 0.108518 0.318721 0 0 1
-0.0545315 0.16479 0.313701 0 0 -1
-0.246133 -0.0344043 0.313701 0 0 -1
-0.0585972 0.218829 0.18898 0 -0.259205 -0.965822
-0.241633 -0.235064 0.321231 0 0 1
-0.362191 0.23153 0.0421998 0.707204 0.70701 0
-0.113806 0.235276 0.311192 0 0 -1
0.0956663 0.230159 0.321231 0 0 1
-0.00881884 0.240275 0.321231 0 0 1
-0.327675 0.229474 0.203194 0 0.96593 0.258802
0.272265 -0.174305 0.313701 0 0 -1
0.375122 -0.225296 0.309572 -0.189026 -0.189026 0.963607
0.140277 0.0874971 0.318721 0 0 1
0.386963 -0.205153 0.253644 0.197683 0.737748 0.645484
0.374536 0.201746 0.24016 -0.258824 -0.965924 0
-0.111865 -0.0293937 0.318721 0 0 1
0.16932 0.046225 0.313701 0 0 -1
0.214438 0.230344 0.199945 0 0.96593 0.258802
-0.379498 -0.2346 0.277795 -0.186115 -0.694753 -0.694751
-0.180279 -0.237049 0.311192 0 0 -1
0.235246 0.136287 0.313701 0 0 -1
0.413327 -0.0200671 0.321231 0 0 1
-0.301041 0.212215 0.203761 0 -0.707108 0.707105
-0.418927 -0.0798984 0.313983 -1 0 0
-0.0856182 -0.0838072 0.318721 0 0 1
0.273987 -0.0902098 0.313701 0 0 -1
-0.366666 0.236006 0.124486 0.707204 0.70701 0
0.153316 0.0136284 0.313701 0 0 -1
0.0335305 -0.173488 0.318721 0 0 1
-0.32579 0.179102 0.318721 0 0 1
0.102958 0.244365 0.321231 0 0 1
-0.400149 0.168005 0.311192 0 0 -1
-0.285143 0.0772781 0.313701 0 0 -1
-0.217766 0.23303 0.311192 0 0 -1
0.0249904 -0.144782 0.318721 0 0 1
0.224138 -0.165986 0.313701 0 0 -1
-0.397988 0.223903 0.122174 -0.965925 0.258823 0
-0.217289 0.107406 0.318721 0 0 1
-0.116007 0.0185072 0.313701 0 0 -1
0.398025 -0.217607 0.190394 0.965912 0.258871 0
-0.0602043 0.02121 0.313701 0 0 -1
-0.228767 -0.093751 0.318721 0 0 1
-0.12436 -0.156693 0.313701 0 0 -1
0.30188 0.081176 0.313701 0 0 -1
-0.0693313 -0.0528896 0.318721 0 0 1
-0.377069 -0.240308 0.248319 0.258735 -0.965948 0
0.316796 -0.200946 0.318721 0 0 1
-0.333597 -0.19129 0.313701 0 0 -1
0.397256 0.221594 0.250961 0 0 1
-0.297754 -0.221666 0.311192 0 0 -1
0.202277 0.2139 0.191596 0 -0.707012 -0.707201
-0.368935 0.208659 0.199271 0.965883 0 0.258979
-0.00749165 0.220165 0.318721 0 0 1
-0.384091 0.13592 0.321231 0 0 1
0.219023 -0.18498 0.318721 0 0 1
-0.0746582 0.230661 0.198276 0 0.965918 -0.258849
0.182294 -0.0748184 0.318721 0 0 1
-0.315252 0.219679 0.188752 0 -0.259205 -0.965822
0.200201 0.220687 0.318586 0 -1 0
-0.199604 -0.169565 0.318721 0 0 1
-0.147036 -0.00100774 0.318721 0 0 1
0.320929 -0.100025 0.313701 0 0 -1
0.358138 -0.194413 0.318721 0 0 1
0.136605 -0.102411 0.318721 0 0 1
-0.395673 0.210162 0.17091 -0.707155 -0.707059 0
-0.37297 -0.206523 0.250961 0 0 -1
-0.0282758 0.193939 0.318721 0 0 1
0.337518 0.0471137 0.318721 0 0 1
0.396994 0.213762 0.02569 0.965912 -0.258871 0
0.360175 0.226202 0.093317 -0.965924 0.258826 0
0.371731 0.00820614 0.205191 -0.707107 0 0.707107
-0.292829 -0.252039 0.321231 0 0 1
0.361477 -0.22972 0.194764 0 -0.965918 -0.258849
0.372175 0.10993 0.205635 -0.707107 0 0.707107
-0.384123 -0.244198 0.321231 0 0 1
-0.279647 -0.220941 0.208491 0 -0.258802 0.96593
0.380842 0.169181 0.311192 0 0 -1
0.170289 0.169293 0.313701 0 0 -1
0.367336 -0.2047 0.235146 -0.707204 0.70701 0
0.374533 -0.239628 0.0391462 -0.258735 -0.965948 0
-0.259521 0.0318057 0.318721 0 0 1
0.389346 -0.224305 0.275231 0.694777 -0.186152 -0.694718
0.0907416 0.169156 0.313701 0 0 -1
-0.0120571 -0.0595851 0.313701 0 0 -1
0.00158393 -0.202833 0.313701 0 0 -1
0.0704625 -0.158652 0.318721 0 0 1
-0.398706 -0.221226 0.0588223 -0.965925 -0.258823 0
0.0734806 0.11445 0.318721 0 0 1
-0.236759 0.174471 0.313701 0 0 -1
0.291312 -0.1376 0.318721 0 0 1
-0.108107 0.0940349 0.318721 0 0 1
0.0290248 0.1223 0.318721 0 0 1
0.185196 -0.158078 0.313701 0 0 -1
-0.391704 -0.152078 0.311192 0 0 -1
-0.249088 0.104712 0.313701 0 0 -1
0.354192 0.0178597 0.318721 0 0 1
0.10332 0.00581041 0.313701 0 0 -1
0.285928 0.240573 0.311192 0 0 -1
-0.410791 0.00546262 0.321231 0 0 1
0.248129 -0.248719 0.311192 0 0 -1
-0.358994 0.162867 0.318721 0 0 1
0.126583 -0.215066 0.313701 0 0 -1
0.328514 0.230675 0.198331 0 0.965918 -0.258849
0.111682 -0.144182 0.313701 0 0 -1
0.243307 -0.160214 0.318721 0 0 1
0.418927 0.0697788 0.319084 1 0 0
0.140224 -0.0418048 0.313701 0 0 -1
-0.323084 -0.0250517 0.318721 0 0 1
0.164354 -0.0352249 0.318721 0 0 1
-0.388075 0.135002 0.201272 -0.96593 0 0.258802
-0.372636 0.204052 0.297818 0.250535 -0.935121 0.25056
0.00285885 -0.13738 0.313701 0 0 -1
-0.320081 0.152105 0.318721 0 0 1
0.36105 0.2159 0.287122 -0.935116 -0.25062 -0.250495
-0.333845 0.114797 0.318721 0 0 1
0.318678 -0.0325908 0.313701 0 0 -1
-0.0570462 0.129559 0.313701 0 0 -1
0.0707121 -0.0204241 0.313701 0 0 -1
0.397831 -0.22449 0.0229669 0.965925 -0.258823 0
0.38048 0.182242 0.188939 0.259158 0 -0.965835
0.387494 -0.0263175 0.193604 0.965918 0 -0.258849
0.364521 0.21549 0.250961 0 0 1
0.0820988 -0.249067 0.311192 0 0 -1
-0.349308 0.245478 0.321231 0 0 1
0.283391 -0.246409 0.311192 0 0 -1
0.279846 0.0212789 0.318721 0 0 1
-0.368433 0.237774 0.219337 0.707204 0.70701 0
-0.206133 -0.111482 0.313701 0 0 -1
-0.359361 -0.218209 0.217541 0.965911 0.258874 0
-0.343175 0.214618 0.318721 0 0 1
-0.402156 0.0782763 0.311192 0 0 -1
0.126606 -0.00565584 0.318721 0 0 1
-0.407785 -0.167807 0.321231 0 0 1
-0.162015 0.174627 0.318721 0 0 1
-0.29322 0.112208 0.313701 0 0 -1
0.390777 0.210006 0.321231 0 0 1
-0.186958 -0.229284 0.203637 0 -0.707107 0.707107
-0.143487 -0.225642 0.207231 0 -0.258802 0.96593
0.0716374 -0.0623936 0.318721 0 0 1
-0.359733 -0.224554 0.0198395 0.965924 -0.258826 0
0.259332 -0.105169 0.313701 0 0 -1
-0.010306 -0.0926306 0.318721 0 0 1
0.344894 -0.07575 0.318721 0 0 1
-0.0377976 -0.23899 0.311192 0 0 -1
0.0534135 0.23887 0.311192 0 0 -1
0.130489 0.237146 0.321231 0 0 1
0.24976 0.0932754 0.313701 0 0 -1
-0.242075 0.0680875 0.318721 0 0 1
0.0780106 -0.194413 0.313701 0 0 -1
-0.205717 0.208955 0.318721 0 0 1
0.365308 0.0799401 0.313701 0 0 -1
0.370134 0.0296397 0.203594 -0.707107 0 0.707107
-0.00981691 0.125685 0.318721 0 0 1
-0.247906 -0.127015 0.318721 0 0 1
-0.264585 -0.20835 0.313701 0 0 -1
0.359394 -0.218088 0.131958 -0.965911 0.258874 0
-0.287715 0.259078 0.321231 0 0 1
0.147884 -0.178498 0.318721 0 0 1
-0.281999 0.0198094 0.313701 0 0 -1
0.271967 -0.196864 0.318721 0 0 1
-0.354885 -0.11988 0.318721 0 0 1
0.398174 -0.22321 0.156812 0.965925 -0.258823 0
0.143479 -0.255002 0.311192 0 0 -1
-0.418106 0.0340588 0.321231 0 0 1
0.127785 -0.131403 0.318721 0 0 1
0.381604 0.189174 0.207801 0.258802 0 0.96593
-0.170606 -0.150901 0.318721 0 0 1
0.247467 0.0448404 0.313701 0 0 -1
-0.355424 0.228945 0.203976 0 0.707107 0.707107
0.399957 0.0508224 0.321231 0 0 1
0.13386 0.0639494 0.318721 0 0 1
0.226414 0.248613 0.321231 0 0 1
0.110561 0.143857 0.313701 0 0 -1
-0.38528 -0.0995043 0.205727 -0.707107 0 0.707107
0.381683 0.16273 0.189262 0.259158 0 -0.965835
-0.388312 -0.156431 0.196655 -0.965918 0 -0.258849
0.383866 -0.202355 0.292531 0.25057 0.935118 0.250539
0.258312 -0.22119 0.321231 0 0 1
0.389506 0.237381 0.0765473 0.707155 0.707059 0
-0.0132966 -0.218051 0.207853 0 0.258849 0.965918
0.239343 0.170576 0.313701 0 0 -1
-0.37703 0.00719252 0.318721 0 0 1
0.404182 -0.135043 0.311192 0 0 -1
0.00987226 -0.100974 0.318721 0 0 1
0.379325 -0.102582 0.311192 0 0 -1
0.374636 -0.0626358 0.189591 -0.259205 0 -0.965822
-0.157389 0.193535 0.313701 0 0 -1
-0.0584891 -0.150855 0.318721 0 0 1
0.179411 0.21725 0.189403 0 -0.259205 -0.965822
0.137309 0.161455 0.318721 0 0 1
0.0254887 -0.201382 0.318721 0 0 1
0.394617 -0.209107 0.138988 0.707155 0.707059 0
-0.260223 0.0874509 0.318721 0 0 1
0.103904 0.0870963 0.318721 0 0 1
0.0477687 -0.216718 0.189546 0 0.259205 -0.965822
0.0983217 0.0510855 0.318721 0 0 1
0.315482 0.0436434 0.313701 0 0 -1
-0.175155 -0.050886 0.313701 0 0 -1
-0.189476 -0.091993 0.318721 0 0 1
-0.386203 0.202602 0.193892 -0.258824 -0.965924 0
0.272171 -0.239388 0.321231 0 0 1
-0.397986 -0.223912 0.0111594 -0.965925 -0.258823 0
-0.173142 -0.192483 0.313701 0 0 -1
0.0989091 -0.198187 0.318721 0 0 1
-0.396056 -0.23083 0.103603 -0.707155 -0.707059 0
0.388987 0.238441 0.311192 0 0 -1
-0.0312342 0.243776 0.311192 0 0 -1
0.359395 0.181358 0.313701 0 0 -1
-0.0468046 0.0681073 0.313701 0 0 -1
-0.101297 0.189644 0.318721 0 0 1
-0.388159 -0.23825 0.174574 -0.258735 -0.965948 0
-0.025224 -0.0393987 0.313701 0 0 -1
-0.185108 0.0589132 0.313701 0 0 -1
0.308457 -0.220687 0.313896 0 1 0
-0.362553 0.231892 0.000900574 0.707204 0.70701 0
0.157701 0.0918256 0.313701 0 0 -1
-0.0878995 0.0109472 0.313701 0 0 -1
0.0755554 0.192856 0.313701 0 0 -1
0.0630345 -0.179274 0.318721 0 0 1
-0.396924 -0.206318 0.321231 0 0 1
-0.201197 0.188081 0.313701 0 0 -1
0.0619396 0.0438555 0.313701 0 0 -1
-0.398453 0.22217 0.0735143 -0.965925 0.258823 0
-0.309645 -0.0910288 0.313701 0 0 -1
0.00463551 0.25461 0.311192 0 0 -1
0.282765 0.00698084 0.313701 0 0 -1
0.31263 0.227483 0.311192 0 0 -1
0.142833 -0.217355 0.313701 0 0 -1
-0.295646 -0.0442514 0.313701 0 0 -1
-0.369971 0.0447716 0.193907 0.96587 0 -0.259026
0.369998 -0.238414 0.233691 -0.258735 -0.965948 0
-0.127002 -0.0772565 0.313701 0 0 -1
-0.0181697 -0.0135493 0.313701 0 0 -1
0.380152 0.0466713 0.321231 0 0 1
-0.317018 -0.233873 0.321231 0 0 1
-0.00651649 -0.242923 0.311192 0 0 -1
0.365663 -0.235003 0.0752457 -0.707204 -0.70701 0
0.311717 0.126056 0.318721 0 0 1
0.109615 0.211181 0.196538 0 -0.965966 -0.25867
-0.3811 0.0291434 0.321231 0 0 1
-0.14867 0.122367 0.318721 0 0 1
0.374426 0.217011 0 0 0 -1
-0.282156 -0.126471 0.313701 0 0 -1
-0.0656402 -0.022231 0.313701 0 0 -1
-0.275535 0.221762 0.188769 0 0.259158 -0.965835
0.381546 -0.191445 0.207816 0.258802 0 0.96593
0.401188 0.0939423 0.321231 0 0 1
0.379166 -0.200716 0.0555322 0.258824 0.965924 0
-0.357346 -0.00940096 0.318721 0 0 1
-0.380507 0.201076 0.0860728 -0.258824 -0.965924 0
0.00955972 0.206437 0.313701 0 0 -1
-0.378773 -0.0852719 0.317945 -1 0 0
0.390875 -0.236012 0.118129 0.707155 -0.707059 0
-0.262775 -0.157413 0.318721 0 0 1
0.389869 -0.0692709 0.321231 0 0 1
0.11959 0.121933 0.318721 0 0 1
0.249933 -0.0887516 0.318721 0 0 1
-0.276973 0.183102 0.313701 0 0 -1
-0.283872 -0.172387 0.313701 0 0 -1
-0.125261 0.194237 0.313701 0 0 -1
-0.123172 -0.115914 0.313701 0 0 -1
-0.290164 0.0556251 0.318721 0 0 1
-0.316766 0.220687 0.312689 0 -1 0
0.109509 0.225764 0.311192 0 0 -1
-0.0402626 0.226371 0.20655 0 0.707107 0.707107
0.201115 0.117577 0.318721 0 0 1
0.136917 0.230594 0.198026 0 0.965918 -0.258849
-0.225002 -0.196148 0.318721 0 0 1
0.0606412 -0.14455 0.318721 0 0 1
0.313769 0.210703 0.198322 0 -0.965966 -0.25867
-0.285279 -0.0680601 0.313701 0 0 -1
0.395142 -0.0357394 0.311192 0 0 -1
-0.10862 0.0499354 0.318721 0 0 1
-0.241738 0.20018 0.318721 0 0 1
0.357169 -0.0202668 0.313701 0 0 -1
0.38482 -0.202231 0.0894796 0.258824 0.965924 0
-0.348994 -0.213348 0.192148 0 0.707012 -0.707201
-0.377354 0.220687 0.19381 0 1 0
0.0288689 0.0771735 0.318721 0 0 1
0.0334727 0.0964683 0.318721 0 0 1
-0.0380889 0.105343 0.313701 0 0 -1
0.351361 0.260547 0.311192 0 0 -1
-0.281225 -0.103551 0.313701 0 0 -1
-0.111411 0.113415 0.313701 0 0 -1
0.37546 0.122456 0.318721 0 0 1
-0.392269 0.212818 0.311192 0 0 -1
-0.381556 0.201357 0.0334159 -0.258824 -0.965924 0
-0.089815 -0.237228 0.321231 0 0 1
-0.380221 0.206956 0.257769 -0.197683 -0.737748 0.645484
0.347695 -0.232399 0.311192 0 0 -1
-0.372033 0.23558 0.301843 0.186131 0.694734 0.694766
-0.0574976 -0.209079 0.313701 0 0 -1
-0.368844 -0.0582009 0.198929 0.965883 0 0.258979
0.170826 -0.191325 0.313701 0 0 -1
-0.223802 -0.159971 0.313701 0 0 -1
0.247586 -0.0443492 0.318721 0 0 1
0.331155 -0.0561051 0.318721 0 0 1
0.321674 0.015155 0.318721 0 0 1
0.145997 0.17961 0.313701 0 0 -1
0.0258547 0.0289935 0.313701 0 0 -1
0.0384215 -0.221852 0.208247 0 -0.258802 0.96593
0.0451147 0.167433 0.313701 0 0 -1
-0.388483 -0.0376003 0.197293 -0.965918 0 -0.258849
-0.043097 -0.0845829 0.313701 0 0 -1
0.164975 0.21622 0.207362 0 -0.258849 0.965918
0.114159 -0.0364086 0.313701 0 0 -1
-0.307432 -0.0628804 0.318721 0 0 1
0.215269 -0.103411 0.318721 0 0 1
-0.0457477 -0.0592214 0.318721 0 0 1
-0.315734 0.0682697 0.318721 0 0 1
0.0639828 0.0840836 0.313701 0 0 -1
0.0172402 0.152117 0.313701 0 0 -1
-0.116479 0.176238 0.318721 0 0 1
0.361216 -0.211286 0.181339 -0.965911 0.258874 0
-0.282637 -0.240375 0.311192 0 0 -1
0.183571 -0.0205187 0.313701 0 0 -1
-0.258245 0.173243 0.318721 0 0 1
-0.392694 -0.207183 0.186172 -0.707155 0.707059 0
0.144731 0.207345 0.318721 0 0 1
-0.307287 0.260842 0.31298 0 1 0
0.316771 -0.0162902 0.318721 0 0 1
-0.3656 -0.23494 0.0744075 0.707204 -0.70701 0
0.098443 -0.127625 0.313701 0 0 -1
-0.373222 -0.202098 0.14295 0.258824 0.965924 0
0.374104 -0.206344 0.313701 0 0 -1
-0.190374 0.0364555 0.313701 0 0 -1
0.0620281 -0.207893 0.313701 0 0 -1
-0.0732622 0.218506 0.318721 0 0 1
-0.0369934 -0.216472 0.189612 0 0.259205 -0.965822
0.127928 -0.0764487 0.313701 0 0 -1
0.0595503 0.204624 0.318721 0 0 1
0.155678 0.14277 0.318721 0 0 1
0.38749 -0.238429 0.149911 0.258735 -0.965948 0
0.157304 0.0324064 0.318721 0 0 1
0.377121 -0.22039 0.208479 0 0.258849 0.965918
0.392608 -0.118716 0.311192 0 0 -1
-0.329311 -0.215983 0.189743 0 0.259205 -0.965822
0.369702 0.209594 0.313701 0 0 -1
-0.288474 0.205663 0.318721 0 0 1
0.228188 0.119686 0.313701 0 0 -1
-0.356886 0.109614 0.313701 0 0 -1
-0.398758 -0.0261612 0.321231 0 0 1
-0.120677 0.138971 0.313701 0 0 -1
-0.0389187 -0.254657 0.311192 0 0 -1
0.117798 0.0234981 0.318721 0 0 1
0.00238985 -0.0463292 0.318721 0 0 1
0.23932 0.241903 0.311192 0 0 -1
0.200233 0.193475 0.318721 0 0 1
0.173285 -0.0569706 0.318721 0 0 1
-0.136195 -0.220687 0.317932 0 1 0
0.378773 -0.180686 0.313998 1 0 0
0.247017 -0.0203641 0.318721 0 0 1
-0.364166 -0.0316688 0.318721 0 0 1
-0.380134 0.118032 0.208194 -0.258802 0 0.96593
-0.108802 0.210945 0.197418 0 -0.965966 -0.25867
0.0351401 -0.122015 0.318721 0 0 1
0.374661 -0.17516 0.207457 -0.258849 0 0.965918
0.393956 0.208445 0.167971 0.707155 -0.707059 0
0.19574 0.0684211 0.318721 0 0 1
-0.361498 -0.210539 0.158558 0.707204 0.70701 0
0.0764372 -0.0422389 0.313701 0 0 -1
-0.36261 -0.231949 0.122872 0.707204 -0.70701 0
-0.175714 0.0352995 0.318721 0 0 1
0.120558 -0.199043 0.318721 0 0 1
-0.0667419 -0.212846 0.204392 0 0.707108 0.707105
0.359114 -0.222242 0.151346 -0.965924 -0.258826 0
-0.378773 -0.192805 0.313481 1 0 0
0.0134465 0.211661 0.194744 0 -0.965966 -0.25867
0.142079 0.125069 0.313701 0 0 -1
0.018739 -0.0822253 0.313701 0 0 -1
0.324073 -0.173326 0.313701 0 0 -1
-0.201265 -0.0621523 0.313701 0 0 -1
-0.414488 -0.0141277 0.321231 0 0 1
0.359325 0.22303 0.0589211 -0.965924 0.258826 0
-0.0804784 0.0292234 0.313701 0 0 -1
-0.369202 -0.00944562 0.196775 0.96587 0 -0.259026
-0.200974 0.013402 0.318721 0 0 1
0.387836 -0.15132 0.194877 0.965918 0 -0.258849
-0.359696 0.224415 0.159845 0.965924 0.258826 0
0.363054 -0.126782 0.313701 0 0 -1
0.256926 0.214884 0.190612 0 -0.707012 -0.707201
0.17148 0.230133 0.321231 0 0 1
0.350997 -0.000313774 0.313701 0 0 -1
-0.0394677 0.150263 0.313701 0 0 -1
-0.146937 0.0405094 0.313701 0 0 -1
-0.387173 0.0572076 0.203834 -0.707107 0 0.707107
-0.163046 -0.131618 0.313701 0 0 -1
0.375762 -0.201418 0.179466 -0.258824 0.965924 0
-0.180966 0.15322 0.313701 0 0 -1
0.00786898 -0.229936 0.201468 0 -0.96593 0.258802
0.194006 -0.220687 0.312125 0 1 0
0.0721514 0.260842 0.319393 0 1 0
-0.39696 0.227742 0.245893 -0.965925 0.258823 0
0.258062 0.247722 0.311192 0 0 -1
-0.218574 0.123161 0.318721 0 0 1
0.244471 0.00606062 0.318721 0 0 1
0.0621153 0.129466 0.313701 0 0 -1
-0.179824 0.115358 0.318721 0 0 1
-0.0923727 0.21619 0.207354 0 -0.258849 0.965918
0.08048 -0.229083 0.203838 0 -0.707107 0.707107
0.337953 0.130865 0.313701 0 0 -1
-0.231904 0.242693 0.311192 0 0 -1
0.173936 0.148268 0.318721 0 0 1
0.137893 0.0302576 0.313701 0 0 -1
-0.399907 0.0475484 0.311192 0 0 -1
0.0786122 0.22877 0.311192 0 0 -1
0.381734 0.239971 0.154017 0.258735 0.965948 0
-0.167214 -0.0775921 0.318721 0 0 1
-0.0705347 0.255393 0.311192 0 0 -1
-0.376193 -0.201302 0.0458419 0.258824 0.965924 0
-0.299532 -0.230597 0.198038 0 -0.965918 -0.258849
-0.312933 0.20258 0.318721 0 0 1
0.387038 0.137734 0.193072 0.707011 0 -0.707203
-0.386824 -0.202768 0.236781 -0.258824 0.965924 0
-0.144895 0.223282 0.321231 0 0 1
0.113738 -0.23179 0.311192 0 0 -1
0.14745 -0.0742864 0.313701 0 0 -1
-0.157367 0.243946 0.321231 0 0 1
-0.220775 0.158976 0.313701 0 0 -1
0.364197 0.228109 0.301975 -0.694788 0.186123 0.694714
-0.386724 0.186647 0.192758 -0.707011 0 -0.707203
-0.391857 -0.06266 0.321231 0 0 1
-0.329153 0.137465 0.313701 0 0 -1
-0.248342 0.133304 0.313701 0 0 -1
-0.0434421 0.205538 0.318721 0 0 1
-0.0767044 -0.127432 0.318721 0 0 1
-0.0837023 0.14781 0.318721 0 0 1
0.211272 -0.0109009 0.313701 0 0 -1
0.0426646 0.0403523 0.313701 0 0 -1
-0.392329 -0.206819 0.166947 -0.707155 0.707059 0
-0.256209 0.226886 0.191006 0 0.707011 -0.707203
0.398198 0.218255 0.0510542 0.965912 -0.258871 0
-0.0117079 0.177052 0.313701 0 0 -1
-0.317412 0.0436823 0.313701 0 0 -1
-0.378328 0.100409 0.313701 0 0 -1
-0.40324 0.140097 0.321231 0 0 1
-0.261417 -0.0513779 0.318721 0 0 1
-0.306448 -0.198081 0.313701 0 0 -1
0.20459 -0.213527 0.205073 0 0.707108 0.707105
-0.406904 0.193461 0.311192 0 0 -1
0.359274 0.218534 0.205683 -0.965911 -0.258874 0
-0.106767 -0.15365 0.318721 0 0 1
0.397915 -0.224175 0.0552618 0.965925 -0.258823 0
-0.348916 -0.0856739 0.313701 0 0 -1
-0.0637586 -0.133439 0.313701 0 0 -1
0.388493 0.210399 0.303893 0.508611 -0.508612 0.694715
-0.339178 -0.00921844 0.313701 0 0 -1
-0.25448 0.187052 0.313701 0 0 -1
-0.375961 0.0125318 0.207805 0.258849 0 0.965918
-0.258044 -0.0194132 0.313701 0 0 -1
0.395168 0.231718 0.0200936 0.707155 0.707059 0
-0.134975 0.257391 0.321231 0 0 1
-0.417824 -0.0495349 0.311192 0 0 -1
0.366578 0.235919 0.174746 -0.707204 0.70701 0
-0.228768 0.140175 0.313701 0 0 -1
-0.330079 -0.243676 0.321231 0 0 1
0.40535 -0.118327 0.321231 0 0 1
0.287278 0.221618 0.20831 0 0.258802 0.96593
0.168902 -0.107205 0.313701 0 0 -1
0.376777 0.0660527 0.318721 0 0 1
-0.0965917 -0.204862 0.313701 0 0 -1
-0.00653797 0.0829301 0.313701 0 0 -1
0.326488 -0.220687 0.320942 0 1 0
0.245665 -0.218237 0.207903 0 0.258849 0.965918
0.326781 0.0966014 0.313701 0 0 -1
-0.402111 0.223271 0.321231 0 0 1
0.266269 -0.0557413 0.318721 0 0 1
-0.0656752 -0.0912314 0.313701 0 0 -1
-0.00963366 -0.1231 0.313701 0 0 -1
-0.219597 -0.0592473 0.313701 0 0 -1
0.387607 -0.11999 0.194025 0.965918 0 -0.258849
-0.0212431 -0.166656 0.318721 0 0 1
-0.173392 -0.212615 0.204161 0 0.707108 0.707105
0.335961 -0.159528 0.318721 0 0 1
0.377004 -0.0946684 0.208085 -0.258849 0 0.965918
-0.167193 -0.220687 0.317635 0 1 0
0.373173 -0.0317698 0.313701 0 0 -1
-0.0983946 0.246861 0.311192 0 0 -1
-0.188266 0.217957 0.189214 0 -0.259205 -0.965822
0.0865018 0.0329418 0.318721 0 0 1
0.396022 0.210512 0.0896165 0.707155 -0.707059 0
0.372744 -0.213047 0.26247 -0.540144 0.539997 0.645482
-0.364883 0.0635664 0.318721 0 0 1
0.00282648 -0.256605 0.311192 0 0 -1
-0.377804 0.0941003 0.208299 0.258849 0 0.965918
0.190803 0.178527 0.313701 0 0 -1
0.120563 0.204462 0.318721 0 0 1
-0.370238 -0.212339 0.203698 0.707107 0 0.707107
0.264463 -0.0161001 0.313701 0 0 -1
0.398756 0.220336 0.116123 0.965912 -0.258871 0
0.369535 0.226186 0.274477 -0.508648 0.508567 -0.69472
0.365809 -0.23515 0.0198305 -0.707204 -0.70701 0
0.359919 -0.216128 0.0264214 -0.965911 0.258874 0
-0.145151 0.199619 0.318721 0 0 1
-0.218871 0.00150204 0.318721 0 0 1
-0.375035 -0.201612 0.115816 0.258824 0.965924 0
0.129823 -0.179548 0.318721 0 0 1
-0.352046 0.147329 0.313701 0 0 -1
-0.133056 0.226811 0.20611 0 0.707107 0.707107
-0.369323 0.203143 0.0468188 0.258824 -0.965924 0
0.346239 -0.0932114 0.313701 0 0 -1
-0.0272288 -0.217833 0.313701 0 0 -1
-0.320617 -0.186268 0.318721 0 0 1
0.0763039 0.158092 0.313701 0 0 -1
0.396195 -0.210781 0.00901571 0.965912 0.258871 0
0.267749 0.196285 0.313701 0 0 -1
0.264673 0.119113 0.313701 0 0 -1
0.369978 0.238408 0.140263 -0.258735 0.965948 0
-0.00178072 0.14811 0.318721 0 0 1
-0.129672 -0.0140493 0.318721 0 0 1
0.373192 -0.239269 0.0982269 -0.258735 -0.965948 0
-0.396493 0.229484 0.176994 -0.965925 0.258823 0
0.0340427 -0.216003 0.313701 0 0 -1
0.076554 0.211711 0.202482 0 -0.965978 0.258623
0.384807 0.0721399 0.190842 0.707011 0 -0.707203
0.399399 0.190269 0.321231 0 0 1
0.386223 0.00656606 0.321231 0 0 1
0.349086 -0.0588814 0.313701 0 0 -1
0.377096 0.20106 0.221901 -0.258824 -0.965924 0
0.147283 0.24384 0.321231 0 0 1
0.253164 0.211278 0.318721 0 0 1
0.105443 -0.213208 0.204754 0 0.707108 0.707105
-0.0175332 0.00546001 0.318721 0 0 1
-0.35945 0.217878 0.241381 0.965911 -0.258874 0
-0.0276193 0.0309174 0.313701 0 0 -1
0.295326 -0.0617891 0.318721 0 0 1
0.263395 0.0233979 0.313701 0 0 -1
-0.0950416 -0.185231 0.313701 0 0 -1
-0.104377 -0.218356 0.189107 0 0.259205 -0.965822
0.384123 0.239331 0.237957 0.258735 0.965948 0
0.41527 0.0157763 0.321231 0 0 1
-0.364911 0.234251 0.0597622 0.707204 0.70701 0
-0.288838 0.128239 0.313701 0 0 -1
-0.160624 0.0103885 0.318721 0 0 1
-0.145007 -0.223383 0.189204 0 -0.259158 -0.965835
-0.185364 -0.033365 0.318721 0 0 1
-0.214162 -0.146735 0.318721 0 0 1
0.234922 -0.191306 0.313701 0 0 -1
0.398294 -0.22276 0.216479 0.965925 -0.258823 0
-0.380915 -0.223329 0.250961 0 0 1
0.232658 0.208541 0.318721 0 0 1
-0.28347 -0.0126686 0.318721 0 0 1
-0.0882443 -0.218924 0.208087 0 0.258849 0.965918
-0.414189 0.112191 0.311192 0 0 -1
-0.00770873 -0.181218 0.318721 0 0 1
-0.372658 0.0175657 0.190923 0.707011 0 -0.707203
-0.366252 -0.235593 0.0464707 0.707204 -0.70701 0
-0.365917 0.235257 0.0179663 0.707204 0.70701 0
0.176329 -0.0911319 0.313701 0 0 -1
-0.418927 0.075528 0.318528 -1 0 0
0.376979 -0.227775 0.250961 0 0 1
-0.182299 -0.221125 0.188598 0 -0.259158 -0.965835
0.295212 0.174678 0.318721 0 0 1
-0.258028 0.146919 0.313701 0 0 -1
-0.100193 -0.138069 0.313701 0 0 -1
-0.410248 -0.21362 0.311192 0 0 -1
0.0403071 0.216857 0.207533 0 -0.258849 0.965918
-0.381526 -0.201349 0.00371892 -0.258824 0.965924 0
-0.0628491 0.179454 0.318721 0 0 1
0.0917914 -0.159728 0.313701 0 0 -1
0.241107 -0.214045 0.191451 0 0.707012 -0.707201
-0.0265179 0.0900219 0.313701 0 0 -1
-0.164533 -0.244844 0.311192 0 0 -1
-0.388612 -0.0836707 0.199267 -0.96593 0 0.258802
-0.305254 0.158409 0.313701 0 0 -1
-0.0999385 -0.0914378 0.313701 0 0 -1
-0.397182 0.214462 0.146197 -0.965912 -0.258871 0
-0.370627 -0.238582 0.231965 0.258735 -0.965948 0
-0.346471 0.0519776 0.318721 0 0 1
0.251439 -0.229948 0.195616 0 -0.965918 -0.258849
-0.314923 0.241454 0.321231 0 0 1
-0.0733991 -0.000411496 0.313701 0 0 -1
-0.206247 -0.207521 0.313701 0 0 -1
0.105377 -0.25318 0.311192 0 0 -1
-0.376774 0.218965 0.318721 0 0 1
-0.130624 0.0123399 0.318721 0 0 1
-0.270426 0.22236 0.311192 0 0 -1
0.327116 0.170782 0.318721 0 0 1
-0.180283 -0.137522 0.313701 0 0 -1
-0.403442 -0.0762857 0.321231 0 0 1
-0.394133 -0.232753 0.2096 -0.707155 -0.707059 0
0.307766 -0.143452 0.318721 0 0 1
-0.179379 0.085378 0.313701 0 0 -1
-0.292039 -0.156186 0.313701 0 0 -1
0.33452 -0.246829 0.311192 0 0 -1
0.169311 -0.215062 0.206608 0 0.707108 0.707105
-0.000268996 0.104328 0.318721 0 0 1
-0.359253 -0.218614 0.0847509 0.965911 0.258874 0
-0.159323 0.22641 0.206511 0 0.707107 0.707107
-0.294438 0.0397531 0.313701 0 0 -1
0.0257943 -0.238336 0.321231 0 0 1
-0.201342 -0.244898 0.321231 0 0 1
-0.37879 0.260825 0.312738 -0.707115 0.707098 0
0.403206 -0.0502365 0.311192 0 0 -1
-0.38645 -0.220474 0.311192 0 0 -1
-0.207271 0.227552 0.321231 0 0 1
-0.395136 0.209626 0.0621497 -0.707155 -0.707059 0
-0.365432 0.206604 0.127604 0.707204 -0.70701 0
0.140037 -0.00470781 0.318721 0 0 1
0.388545 -0.103155 0.197525 0.965918 0 -0.258849
-0.0848714 -0.0583383 0.313701 0 0 -1
-0.132412 -0.106567 0.318721 0 0 1
0.372897 -0.202185 0.21809 -0.258824 0.965924 0
0.210204 -0.0875584 0.318721 0 0 1
-0.236621 -0.10772 0.313701 0 0 -1
0.397806 0.216791 0.0088073 0.965912 -0.258871 0
-0.263941 -0.0777587 0.318721 0 0 1
-0.319396 0.0990928 0.313701 0 0 -1
-0.182835 -0.00308168 0.318721 0 0 1
-0.234845 -0.223159 0.189144 0 -0.259158 -0.965835
0.103292 -0.104349 0.318721 0 0 1
0.279452 -0.108892 0.318721 0 0 1
0.183059 0.031748 0.313701 0 0 -1
-0.107534 0.218579 0.313701 0 0 -1
-0.129321 -0.203528 0.318721 0 0 1
0.046357 0.0578751 0.313701 0 0 -1
0.407373 0.122265 0.321231 0 0 1
0.386082 0.230181 0.275988 0.508633 0.508554 -0.694741
0.397274 0.226569 0.144405 0.965925 0.258823 0
0.378075 0.200798 0.13661 -0.258824 -0.965924 0
-0.418927 0.176637 0.312101 -1 0 0
-0.211199 0.0925769 0.313701 0 0 -1
0.0464264 -0.13373 0.313701 0 0 -1
0.168092 0.06244 0.318721 0 0 1
-0.37349 0.176286 0.190092 0.707011 0 -0.707203
0.353842 0.198998 0.318721 0 0 1
-0.393432 0.0107733 0.321231 0 0 1
-0.418927 -0.131834 0.314132 -1 0 0
0.38814 -0.234119 0.321231 0 0 1
0.373924 0.121283 0.189782 -0.259205 0 -0.965822
-0.373022 0.0674009 0.206482 0.707107 0 0.707107
-0.379458 0.0692301 0.311192 0 0 -1
-0.281915 -0.220687 0.315753 0 1 0
-0.389233 0.203722 0.00614246 -0.707155 -0.707059 0
0.10821 0.103577 0.318721 0 0 1
-0.0826956 0.13055 0.313701 0 0 -1
0.376716 0.240213 0.210555 -0.258735 0.965948 0
-0.0693429 0.211517 0.201759 0 -0.965978 0.258623
-0.374857 0.20166 0.103731 0.258824 -0.965924 0
0.230717 0.0448591 0.318721 0 0 1
0.282183 -0.150902 0.313701 0 0 -1
-0.060182 -0.173076 0.313701 0 0 -1
0.198734 -0.120667 0.318721 0 0 1
-0.390308 -0.182553 0.321231 0 0 1
-0.195751 -0.224625 0.321231 0 0 1
-0.386659 0.152835 0.204348 -0.707107 0 0.707107
0.0321637 0.246418 0.321231 0 0 1
0.261983 -0.137119 0.313701 0 0 -1
0.175959 -0.217369 0.189371 0 0.259205 -0.965822
0.395304 -0.158021 0.311192 0 0 -1
0.0977343 0.229918 0.201538 0 0.96593 0.258802
-0.249971 -0.0874594 0.313701 0 0 -1
-0.354773 -0.220687 0.313489 0 1 0
0.268186 0.176134 0.313701 0 0 -1
0.379267 0.200743 0.154076 0.258824 -0.965924 0
0.294682 -0.256797 0.321231 0 0 1
-0.109394 0.22414 0.207634 0 0.258802 0.96593
-0.236129 -0.221037 0.311192 0 0 -1
-0.125711 0.0578973 0.318721 0 0 1
0.383596 0.0978728 0.207267 0.258802 0 0.96593
-0.389022 0.237865 0.0203297 -0.707155 0.707059 0
0.402939 -0.202342 0.311192 0 0 -1
-0.391462 -0.215499 0.257816 -0.737742 0.19772 0.645479
-0.192999 0.217599 0.207731 0 -0.258849 0.965918
0.323374 0.192738 0.313701 0 0 -1
-0.367148 0.204887 0.182058 0.707204 -0.70701 0
0.391129 0.0832493 0.311192 0 0 -1
-0.370165 0.0854574 0.318721 0 0 1
0.0145955 0.0687563 0.318721 0 0 1
-0.354501 -0.228946 0.193066 0 -0.707011 -0.707203
0.417045 -0.0879097 0.321231 0 0 1
0.214288 0.0275352 0.318721 0 0 1
0.383531 0.236601 0.254263 0.197618 0.737776 0.645472
-0.225735 0.211428 0.195614 0 -0.965966 -0.25867
-0.0553345 0.248364 0.321231 0 0 1
0.338373 -0.121634 0.318721 0 0 1
-0.21656 -0.0783127 0.313701 0 0 -1
0.389468 -0.203957 0.20062 0.707155 0.707059 0
-0.380281 -0.201015 0.0773019 -0.258824 0.965924 0
0.358938 0.221588 0.145374 -0.965924 0.258826 0
0.364019 0.233358 0.0254081 -0.707204 0.70701 0
0.389627 -0.237259 0.0466488 0.707155 -0.707059 0
0.241264 0.149738 0.318721 0 0 1
-0.370753 -0.108868 0.204213 0.707107 0 0.707107
-0.0498327 -0.21084 0.19781 0 0.965966 -0.25867
-0.214693 -0.0187379 0.318721 0 0 1
-0.378773 0.149682 0.315074 1 0 0
0.0525636 -0.0907619 0.318721 0 0 1
0.00372511 0.0195176 0.313701 0 0 -1
0.0183247 -0.0138384 0.313701 0 0 -1
0.279219 0.0815986 0.313701 0 0 -1
0.328118 0.210059 0.313701 0 0 -1
-0.333003 0.246528 0.321231 0 0 1
-0.25246 0.25779 0.321231 0 0 1
-0.390001 -0.20449 0.0273858 -0.707155 0.707059 0
-0.255414 -0.222006 0.321231 0 0 1
-0.369864 -0.162382 0.194305 0.96587 0 -0.259026
-0.404103 0.101666 0.321231 0 0 1
-0.32757 -0.0560285 0.313701 0 0 -1
0.395079 0.209569 0.216452 0.707155 -0.707059 0
0.271982 0.231795 0.311192 0 0 -1
-0.247606 -0.00954181 0.318721 0 0 1
0.0326738 -0.0751367 0.318721 0 0 1
-0.1356 0.136063 0.318721 0 0 1
-0.21269 0.230526 0.199267 0 0.96593 0.258802
0.0475595 0.182685 0.318721 0 0 1
-0.253028 -0.176806 0.318721 0 0 1
-0.331028 -0.259864 0.321231 0 0 1
-0.331815 0.0138977 0.313701 0 0 -1
0.0742362 -0.1153 0.318721 0 0 1
0.369438 0.0730758 0.195893 -0.96587 0 -0.259026
0.0331641 -0.260842 0.315755 0 -1 0
0.13451 -0.219917 0.188688 0 0.259205 -0.965822
-0.181474 0.216315 0.318721 0 0 1
0.362112 0.209925 0.110862 -0.707204 -0.70701 0
-0.325877 -0.120846 0.313701 0 0 -1
-0.016295 -0.213129 0.192367 0 0.707012 -0.707201
0.187385 0.229767 0.321231 0 0 1
0.14391 -0.131267 0.318721 0 0 1
0.287704 0.224547 0.311192 0 0 -1
0.223869 0.235563 0.311192 0 0 -1
-0.377431 0.240405 0.0880398 0.258735 0.965948 0
0.270074 0.243879 0.321231 0 0 1
-0.375444 -0.0213193 0.313701 0 0 -1
-0.287739 0.225805 0.311192 0 0 -1
