0.128229 -0.0406405 0.467479 0 0 -1
-0.242633 0.0725175 0 0 0 -1
-0.239037 0.0396349 0.243085 0.49885 0.86222 0.0878976
0.238045 -0.0701588 0.413323 -0.958444 0.201724 0.201723
-0.232908 0.0134632 0.286625 1 0 0
0.154548 -0.285425 0.474325 0 -1 0
0.345792 0.0477593 0.480805 0 0 1
0.203466 0.184418 0.467479 0 0 -1
-0.103174 0.246623 0.480805 0 0 1
0.114506 0.116472 0.467479 0 0 -1
-0.0549287 0.199532 0.467479 0 0 -1
-0.0232224 0.221089 0.480805 0 0 1
-0.232908 -0.00260328 0.217456 1 0 0
0.342396 0.0451335 0.467479 0 0 -1
0.383704 -0.00332014 0.467479 0 0 -1
-0.399172 -0.0203269 0.467479 0 0 -1
0.254831 -0.0239171 0.0238515 1 0 0
-0.235347 0.0152167 0.132151 0 1 0
0.320917 0.0740741 0.467479 0 0 -1
-0.233873 -0.0326247 0 0 0 -1
0.134595 -0.266706 0.467479 0 0 -1
0.254831 0.0115502 0.0751147 1 0 0
-0.236505 -0.203723 0.0425042 0.958003 -0.0950394 0.27055
-0.0810796 0.266766 0.467479 0 0 -1
0.185464 -0.00115311 0.467479 0 0 -1
0.160354 0.0872925 0.467479 0 0 -1
-0.286809 0.0622186 0.480805 0 0 1
-0.180204 0.100194 0.480805 0 0 1
-0.192409 0.0753783 0.467479 0 0 -1
-0.232908 -0.0666693 0.0216103 1 0 0
0.275304 0.273888 0.480805 0 0 1
0.142919 0.216355 0.467479 0 0 -1
0.235725 0.0974365 0.428836 -0.958447 0.201718 -0.201716
-0.17381 0.0357976 0.467479 0 0 -1
0.186136 0.266303 0.480805 0 0 1
0.0215913 -0.284743 0.480805 0 0 1
0.362828 -0.000790729 0.444494 0.0392033 -0.382531 -0.92311
-0.400701 -0.0869171 0.480805 0 0 1
-0.41793 -0.0138787 0.467479 0 0 -1
-0.138528 -0.0348129 0.467479 0 0 -1
0.353633 -0.220115 0.480805 0 0 1
-0.243083 0.234967 0.467479 0 0 -1
-0.146579 -0.221551 0.480805 0 0 1
-0.139556 0.138396 0.467479 0 0 -1
-0.236151 -0.0152167 0.142526 0 -1 0
-0.4043 -0.0894915 0.480805 0 0 1
0.0437865 0.13489 0.467479 0 0 -1
-0.321319 -0.00630113 0.480805 0 0 1
-0.339161 0.161135 0.480805 0 0 1
-0.409589 0.012505 0 0 0 -1
-0.2294 0.168518 0.480805 0 0 1
0.191881 -0.117647 0.467479 0 0 -1
0.250733 -0.0152167 0.0257359 0 -1 0
0.270102 -0.280528 0.469077 0.348852 -0.937178 0
-0.357253 -0.0239563 0.480805 0 0 1
-0.0848596 -0.0864034 0.480805 0 0 1
0.281516 0.226658 0.480805 0 0 1
-0.235695 -0.0152167 0.328223 0 -1 0
0.263642 -0.106754 0.467479 0 0 -1
0.286078 -0.00480372 0.480805 0 0 1
-0.131221 -0.136616 0.480805 0 0 1
0.241777 -0.0152167 0.220628 0 -1 0
0.237236 0.166139 0.460963 -0.958593 -0.00863566 0.284649
-0.0324518 0.208041 0.480805 0 0 1
0.308288 -0.00656947 0.480805 0 0 1
0.324709 -0.107839 0.467479 0 0 -1
-0.380498 -0.0152167 0.011337 0 -1 0
0.232908 0.115128 0.00479173 -1 0 0
-0.202241 0.229801 0.467479 0 0 -1
-0.242048 -0.0152167 0.35829 0 -1 0
-0.034835 -0.0641962 0.480805 0 0 1
-0.165924 0.207762 0.480805 0 0 1
-0.0510101 -0.262628 0.467479 0 0 -1
-0.15227 -0.0547762 0.467479 0 0 -1
0.208198 0.0119886 0.467479 0 0 -1
-0.156631 -0.259593 0.467479 0 0 -1
0.304798 -0.0220769 0.480805 0 0 1
0.0827117 0.100073 0.480805 0 0 1
0.0455599 -0.107666 0.480805 0 0 1
-0.261199 -0.000306757 0.34518 0.95261 -0.286746 0.101539
-0.0692772 -0.217544 0.467479 0 0 -1
0.305871 0.154805 0.480805 0 0 1
0.391307 0.132483 0.480805 0 0 1
0.0104808 0.258108 0.480805 0 0 1
0.0339504 0.097814 0.480805 0 0 1
0.250546 0.0512899 0.363388 0.958319 0.254553 -0.129717
-0.173352 -0.271593 0.480805 0 0 1
-0.33647 -0.23751 0.467479 0 0 -1
-0.232908 -0.0012467 0.453989 1 0 0
-0.343939 -0.0201635 0.467479 0 0 -1
0.318841 0.170299 0.480805 0 0 1
-0.391727 0.00257218 0.467479 0 0 -1
-0.0863272 -0.0418763 0.480805 0 0 1
0.0610719 -0.250038 0.467479 0 0 -1
0.366152 -0.217051 0.477917 0.811541 -0.584296 0
0.237553 -0.242696 0.467479 0 0 -1
-0.183501 0.0119271 0.480805 0 0 1
0.333301 0.0036411 0.480805 0 0 1
0.0343381 -0.0301921 0.467479 0 0 -1
0.300047 0.254158 0.467479 0 0 -1
-0.091922 0.25435 0.467479 0 0 -1
-0.242269 -0.0152167 0.158906 0 -1 0
-0.140278 -0.0660147 0.467479 0 0 -1
0.0936911 0.237775 0.480805 0 0 1
0.233517 0.110093 0.467479 0 0 -1
-0.240331 0.0549463 0.150732 0.498344 -0.757378 -0.421939
0.232965 0.0830629 0.480805 0 0 1
0.208237 0.120172 0.480805 0 0 1
-0.252877 -0.053101 0 0 0 -1
0.00177544 -0.0375094 0.480805 0 0 1
0.112239 -0.134662 0.467479 0 0 -1
0.21881 0.107589 0.480805 0 0 1
-0.128618 -0.267886 0.467479 0 0 -1
-0.230887 -0.186961 0.480805 0 0 1
0.286861 0.00287392 0.368757 0.895784 0.299464 -0.328468
0.237898 0.0596713 0.374536 -0.958442 0.254187 -0.129531
-0.301284 0.0558346 0.480805 0 0 1
0.084199 0.0419708 0.467479 0 0 -1
0.279687 0.188885 0.467479 0 0 -1
0.236293 0.233795 0.480805 0 0 1
-0.254831 -0.152138 0.0183854 -1 0 0
0.198622 0.0363056 0.480805 0 0 1
0.372931 -0.169955 0.480805 0 0 1
-0.136141 0.206153 0.467479 0 0 -1
0.241005 0.126741 0.467479 0 0 -1
0.239604 0.126449 0.480805 0 0 1
-0.389368 -0.0135019 0.0304494 0 0 1
0.272886 -0.00451678 0.245487 0.955252 -0.287301 0.0703665
0.183848 0.00172219 0.480805 0 0 1
-0.254831 -0.00964342 0.351481 -1 0 0
0.264454 -0.171131 0.467479 0 0 -1
0.111206 0.259657 0.467479 0 0 -1
0.169773 -0.0790703 0.467479 0 0 -1
0.245524 -0.20003 0.446184 0.497672 -0.0265108 -0.86696
-0.232908 -0.208377 0.00457083 1 0 0
0.253752 0.265013 0.467479 0 0 -1
-0.237746 0.0609594 0.144785 0.957993 -0.250537 -0.139575
0.417268 -0.0415494 0.480805 0 0 1
-0.136259 0.177849 0.467479 0 0 -1
-0.327364 -0.00581739 0.449281 0.540491 -0.353541 0.763465
0.217508 0.0855475 0.480805 0 0 1
-0.311019 -0.234965 0.467479 0 0 -1
-0.359589 0.038614 0.480805 0 0 1
0.24189 -0.284334 0.477697 0.120614 -0.9927 0
0.0740806 -0.255728 0.480805 0 0 1
0.00110018 0.0681426 0.480805 0 0 1
0.232908 -0.150771 0.00841432 -1 0 0
-0.0425998 -0.161979 0.467479 0 0 -1
0.127849 0.209686 0.467479 0 0 -1
0.321524 -0.0135871 0.0304494 0 0 1
-0.254831 0.00683042 0.0532269 -1 0 0
0.135953 -0.128704 0.467479 0 0 -1
-0.20069 0.128294 0.480805 0 0 1
-0.0647624 -0.17839 0.480805 0 0 1
-0.390379 -0.0735316 0.467479 0 0 -1
0.429287 -0.0106216 0.467479 0 0 -1
0.231622 -0.089237 0.467479 0 0 -1
-0.108359 0.186491 0.467479 0 0 -1
-0.338844 -0.111073 0.480805 0 0 1
0.387004 0.126724 0.467479 0 0 -1
0.225207 0.0794657 0.480805 0 0 1
0.0489546 -0.174692 0.480805 0 0 1
-0.238887 0.158333 0.480805 0 0 1
-0.250246 0.156613 0.449148 -0.958084 0.00873864 -0.286353
-0.344355 -0.103869 0.467479 0 0 -1
-0.154926 0.103201 0.480805 0 0 1
0.00303131 0.263128 0.480805 0 0 1
-0.227813 -0.167559 0.467479 0 0 -1
0.219473 -0.0686661 0.480805 0 0 1
-0.0555408 -0.25633 0.467479 0 0 -1
0.232908 0.00252467 0.154014 -1 0 0
-0.142979 0.283524 0.467479 0 0 -1
-0.240967 -0.0152167 0.385606 0 -1 0
-0.236173 -0.0152167 0.0739396 0 -1 0
-0.234275 0.0152167 0.217596 0 1 0
0.103736 0.264093 0.467479 0 0 -1
0.200157 0.103226 0.480805 0 0 1
0.321043 0.256652 0.476119 0.543539 0.839384 0
0.423451 0.105268 0.477692 0.948024 0.3182 0
-0.363586 -0.0056766 0.480805 0 0 1
0.351157 -0.0753426 0.480805 0 0 1
-0.318569 -0.187714 0.480805 0 0 1
0.249306 -0.0360897 0.274408 0.498143 -0.862618 0.087995
0.20329 0.189718 0.480805 0 0 1
-0.327272 -0.237485 0.467479 0 0 -1
-0.19455 -0.281894 0.467479 0 0 -1
0.32177 0.00119392 0.113249 0.805755 0.316797 0.500399
0.251053 -0.17965 0.452572 0.95844 -0.00866702 -0.285163
0.0886728 0.285425 0.472439 0 1 0
0.311486 -0.10897 0.480805 0 0 1
-0.129294 -0.028656 0.480805 0 0 1
-0.0152227 -0.141423 0.467479 0 0 -1
0.148441 0.137432 0.467479 0 0 -1
0.2774 0.0593909 0.467479 0 0 -1
-0.417488 0.078366 0.467479 0 0 -1
0.250845 -0.00629871 0 0 0 -1
0.248581 0.196335 0 0 0 -1
-0.063818 0.101835 0.467479 0 0 -1
-0.243304 0.0152167 0.365117 0 1 0
0.397998 -0.127612 0.480805 0 0 1
0.251598 -0.0457654 0.360325 0.958321 -0.254563 -0.129687
0.254831 0.0627917 0.0194174 1 0 0
0.0597957 0.283168 0.480805 0 0 1
-0.368698 0.0654681 0.467479 0 0 -1
0.188337 0.108836 0.467479 0 0 -1
-0.398637 -0.0137846 0.467479 0 0 -1
-0.258559 0.0150289 0.467479 0 0 -1
0.36283 0.152431 0.480805 0 0 1
-0.232908 -0.206151 0.00272609 1 0 0
0.344369 0.223122 0.467479 0 0 -1
0.432235 -0.0608538 0.480805 0 0 1
-0.249515 0.007613 0.480805 0 0 1
0.020791 -0.0499353 0.480805 0 0 1
-0.206459 0.0617886 0.467479 0 0 -1
-0.231682 0.0997521 0.480805 0 0 1
0.258253 0.130081 0.467479 0 0 -1
-0.0647422 0.252734 0.480805 0 0 1
0.233951 -0.0152167 0.384439 0 -1 0
-0.0644446 -0.0386729 0.480805 0 0 1
0.232908 -0.125981 0.0145469 -1 0 0
0.341737 0.144406 0.480805 0 0 1
-0.134221 0.103839 0.467479 0 0 -1
0.125077 -0.237225 0.467479 0 0 -1
-0.139362 0.0933668 0.480805 0 0 1
0.372175 -0.0152167 0.0186435 0 -1 0
0.346298 0.0419693 0.480805 0 0 1
-0.103671 -0.0408278 0.480805 0 0 1
-0.416446 -0.0536174 0.467479 0 0 -1
0.266783 -0.0106483 0.0304494 0 0 1
-0.307246 0.154235 0.467479 0 0 -1
-0.250022 0.0955617 0.417541 -0.958087 0.202572 -0.202568
-0.236457 0.141721 0.449253 0.957996 0.130181 -0.255533
0.25071 -0.0931466 0.106923 0.958326 0.216296 -0.186619
0.0423998 0.275945 0.480805 0 0 1
-0.318108 -0.258556 0.475637 -0.543386 -0.839483 0
-0.185636 -0.136258 0.480805 0 0 1
0.131851 -0.257574 0.467479 0 0 -1
0.409134 -0.00749843 0.0304494 0 0 1
-0.137761 -0.207351 0.467479 0 0 -1
0.156945 -0.144923 0.480805 0 0 1
0.363858 0.21976 0.471077 0.69722 0.716857 0
-0.151426 0.191869 0.467479 0 0 -1
0.155408 0.0414938 0.467479 0 0 -1
0.305262 0.00866135 0.133298 0.386568 0.890489 0.239986
0.132045 -0.0457374 0.467479 0 0 -1
0.323224 0.136806 0.480805 0 0 1
-0.254831 0.0141239 0.0442369 -1 0 0
0.254831 -0.0401712 0.00575452 1 0 0
0.335418 -0.167283 0.467479 0 0 -1
-0.170093 0.235506 0.467479 0 0 -1
-0.194591 0.207876 0.467479 0 0 -1
0.0425557 -0.103874 0.467479 0 0 -1
0.277241 0.0458222 0.480805 0 0 1
0.41296 0.128218 0.480805 0 0 1
-0.374478 0.0107648 0.0511379 -0.228532 0.912693 0.338769
-0.193522 0.265458 0.480805 0 0 1
0.232908 -0.000894827 0.104589 -1 0 0
-0.0636431 0.207185 0.467479 0 0 -1
0.339133 0.18413 0.480805 0 0 1
0.239518 -0.0152167 0.294228 0 -1 0
0.250793 -0.0612889 0.384842 0.958377 -0.254381 -0.129629
0.243778 0.159012 0.444025 -0.497672 0.0265108 -0.86696
-0.254831 -0.0688412 0.0178957 -1 0 0
0.254831 -0.0786097 0.0253612 1 0 0
0.209204 -0.194395 0.467479 0 0 -1
0.196091 -0.0897411 0.480805 0 0 1
-0.418729 0.0901119 0.467479 0 0 -1
-0.425061 0.0930904 0.480805 0 0 1
0.276028 -0.0794765 0.467479 0 0 -1
0.27041 -0.00383727 0.282004 0.955985 -0.284941 0.0700077
-0.239209 0.203502 0.467479 0 0 -1
-0.263014 -0.049617 0.480805 0 0 1
-0.308669 -0.0563573 0.467479 0 0 -1
-0.253117 -0.0152167 0.302898 0 -1 0
-0.191898 0.253726 0.480805 0 0 1
-0.109989 0.203988 0.467479 0 0 -1
-0.259786 0.000115328 0.226549 0.93258 0.29246 -0.211571
-0.242172 0.0212964 0.234934 0.498842 -0.862217 -0.0879639
0.254831 -0.01412 0.423862 1 0 0
0.265733 -0.0507298 0.467479 0 0 -1
-0.2653 0.121972 0.480805 0 0 1
-0.0435887 -0.196168 0.480805 0 0 1
0.0304603 0.0379211 0.467479 0 0 -1
0.232908 -0.0718562 0.0163356 -1 0 0
-0.247297 0.167589 0.0456062 -0.498258 -0.378911 -0.779849
-0.232908 -0.0133095 0.3332 1 0 0
-0.152786 -0.278484 0.480805 0 0 1
0.232908 -0.000229238 0.161465 -1 0 0
0.318686 -0.0805203 0.467479 0 0 -1
-0.23878 -0.0218966 0.311347 0.500636 0.856325 0.12677
0.240231 -0.0876083 0.432568 -0.499342 0.612645 0.612636
-0.41786 0.00132468 0.0202924 -1 0 0
0.113183 0.260748 0.467479 0 0 -1
-0.0933587 0.0802056 0.467479 0 0 -1
0.0642287 0.176185 0.467479 0 0 -1
0.195586 -0.198991 0.467479 0 0 -1
-0.241172 -0.249261 0.480805 0 0 1
0.125169 0.270481 0.480805 0 0 1
0.24524 -0.0405055 0.254141 0.498512 -0.862413 0.0879174
0.237243 0.0489303 0.169778 -0.958415 -0.249282 -0.138925
0.233911 0.265052 0.467479 0 0 -1
0.0399283 0.0734478 0.467479 0 0 -1
0.280314 -0.0408124 0.467479 0 0 -1
0.210773 0.268899 0.467479 0 0 -1
-0.0240941 -0.0567763 0.480805 0 0 1
0.0780042 0.252375 0.480805 0 0 1
0.0399274 -0.0818874 0.467479 0 0 -1
0.245256 -0.0413792 0.24548 0.498143 -0.862618 0.087995
-0.232908 0.170525 0.0222268 1 0 0
0.261738 -0.00577398 0.225728 -0.932989 -0.291083 -0.211664
0.243736 -0.00151154 0.467479 0 0 -1
0.23786 -0.0446853 0.480805 0 0 1
0.0258378 0.21781 0.480805 0 0 1
-0.245846 -0.241661 0.0145242 0 -1 0
0.423303 -0.104519 0.467479 0 0 -1
0.0719531 0.0112069 0.480805 0 0 1
0.238439 0.0937933 0.125937 -0.499025 0.656301 0.5659
0.0254415 -0.282209 0.480805 0 0 1
0.026467 0.225393 0.480805 0 0 1
-0.250878 0.114356 0.0970611 -0.958153 0.17452 0.226904
-0.0387427 0.165263 0.467479 0 0 -1
-0.0323688 0.0450846 0.467479 0 0 -1
0.359303 -0.217089 0.467479 0 0 -1
-0.423564 0.0763723 0.480805 0 0 1
-0.261709 -0.0221289 0.467479 0 0 -1
0.244694 -0.0448438 0 0 0 -1
0.219129 0.221642 0.467479 0 0 -1
-0.241409 0.0560957 0.18978 0.498679 0.826722 0.260481
0.140678 0.146562 0.480805 0 0 1
-0.368684 -0.00657093 0.0304494 0 0 1
0.342855 -0.00606137 0.460136 -0.540334 -0.353569 0.763563
-0.259299 0.235533 0.467479 0 0 -1
-0.417717 -0.0759356 0.480805 0 0 1
-0.108414 0.071595 0.480805 0 0 1
-0.397374 -0.0333591 0.480805 0 0 1
-0.000749296 0.184645 0.480805 0 0 1
-0.00424816 0.0761124 0.467479 0 0 -1
-0.18846 -0.0827389 0.480805 0 0 1
0.276648 -0.0239889 0.480805 0 0 1
-0.235839 0.0866371 0.120534 0.957967 -0.217238 -0.187371
-0.260936 0.153277 0.467479 0 0 -1
-0.236103 -0.0461622 0.361316 0.957963 -0.255632 -0.130232
0.425251 -0.01794 0.480805 0 0 1
-0.133663 0.0697007 0.467479 0 0 -1
-0.33204 0.117155 0.467479 0 0 -1
0.232908 -0.121995 0.0106722 -1 0 0
-0.35628 0.0418114 0.467479 0 0 -1
0.190285 -0.114857 0.467479 0 0 -1
0.0321025 -0.127738 0.467479 0 0 -1
0.235274 -0.0108281 0.46809 0 0 1
0.110275 0.214306 0.480805 0 0 1
-0.170284 0.220334 0.467479 0 0 -1
0.178192 0.154308 0.480805 0 0 1
0.308753 0.127236 0.480805 0 0 1
-0.168226 -0.236165 0.480805 0 0 1
0.166661 -0.0414733 0.467479 0 0 -1
-0.246695 -0.170971 0.0653485 -0.498258 -0.378909 0.77985
-0.159655 0.0758016 0.480805 0 0 1
0.0164709 -0.274346 0.467479 0 0 -1
0.127173 0.141961 0.480805 0 0 1
0.0553291 0.163427 0.467479 0 0 -1
-0.109501 0.0885247 0.467479 0 0 -1
-0.198122 0.275217 0.480805 0 0 1
0.320349 0.189136 0.467479 0 0 -1
-0.00924452 0.0935727 0.467479 0 0 -1
0.192366 -0.204648 0.480805 0 0 1
-0.299671 -0.00333561 0 0 0 -1
0.168252 0.271199 0.467479 0 0 -1
-0.416896 -0.102905 0.480805 0 0 1
0.26922 0.0072381 0.28581 0.952917 0.285745 -0.101487
-0.197469 -0.154898 0.467479 0 0 -1
-0.306783 -0.192629 0.480805 0 0 1
0.279145 -0.120064 0.480805 0 0 1
0.254831 -0.10765 0.00525208 1 0 0
-0.344976 0.213632 0.467479 0 0 -1
-0.357487 -0.00936383 0.0663724 -0.228654 -0.912684 0.338711
-0.328081 0.0142141 0.480805 0 0 1
-0.0943957 -0.242328 0.467479 0 0 -1
-0.235971 0.156922 0.454242 0.958504 0.0086957 -0.284945
0.174849 -0.102974 0.467479 0 0 -1
0.135408 -0.253378 0.480805 0 0 1
0.143562 -0.0988378 0.467479 0 0 -1
0.250401 0.0324074 0.284459 0.958325 0.284209 0.0289543
-0.0778763 -0.245624 0.467479 0 0 -1
-0.206971 0.0495665 0.467479 0 0 -1
-0.178762 -0.170355 0.480805 0 0 1
0.389663 -0.0319637 0.480805 0 0 1
0.287267 -0.261635 0.480805 0 0 1
0.406939 0.033707 0.467479 0 0 -1
-0.315932 0.00309877 0.0904204 0.80591 0.316379 -0.500412
0.0392265 -0.0900623 0.467479 0 0 -1
0.159176 -0.11498 0.467479 0 0 -1
-0.234173 0.0152167 0.0131209 0 -1 0
-0.246525 0.116896 0.0304494 0 0 1
-0.183069 0.126159 0.467479 0 0 -1
-0.319828 -0.199848 0.467479 0 0 -1
0.281857 0.00415449 0.356277 0.895869 0.299228 -0.328454
0.21326 0.0358483 0.480805 0 0 1
0.405735 0.00312198 0.0304494 0 0 1
0.326469 0.0152167 0.0124944 0 1 0
0.349718 -0.0871555 0.480805 0 0 1
-0.258263 -0.14494 0.480805 0 0 1
-0.251564 -0.0152167 0.445975 0 -1 0
-0.305577 0.266667 0.475889 -0.543539 0.839384 0
-0.132708 -0.0988219 0.467479 0 0 -1
-0.0859924 0.204375 0.467479 0 0 -1
-0.116602 0.134224 0.480805 0 0 1
-0.0657741 0.144342 0.480805 0 0 1
0.289711 0.140734 0.467479 0 0 -1
0.00157351 0.0635736 0.467479 0 0 -1
0.422082 0.0274916 0.480805 0 0 1
0.207681 0.267278 0.480805 0 0 1
-0.0118913 -0.197822 0.467479 0 0 -1
-0.249877 -0.144402 0.0781797 -0.958242 -0.174339 0.226669
-0.254831 0.0101764 0.217293 -1 0 0
-0.15751 -0.104806 0.467479 0 0 -1
0.0965794 -0.267794 0.480805 0 0 1
-0.211892 0.191777 0.480805 0 0 1
-0.0462464 -0.207974 0.480805 0 0 1
-0.0156895 0.155091 0.467479 0 0 -1
0.322469 0.25324 0.467479 0 0 -1
0.414754 -0.0152167 0.0221611 0 -1 0
-0.237888 0.107102 0.467479 0 0 -1
0.372357 0.159773 0.467479 0 0 -1
0.378234 -0.15086 0.480805 0 0 1
0.283721 0.0202438 0.480805 0 0 1
0.247264 0.0569218 0.147021 0.497635 -0.757733 -0.422137
-0.250537 0.107451 0.105357 -0.958152 0.216769 0.186966
-0.390369 0.0647946 0.467479 0 0 -1
-0.251925 0.0467731 0.187927 -0.958202 0.272888 0.0859141
-0.0501089 0.0375778 0.467479 0 0 -1
0.23565 -0.0324504 0.324623 -0.958395 -0.282374 -0.0417483
0.0937982 -0.168841 0.480805 0 0 1
-0.0334352 -0.1979 0.467479 0 0 -1
-0.370598 0.204155 0.467479 0 0 -1
-0.389035 0.162206 0.467479 0 0 -1
0.27244 -0.224247 0.467479 0 0 -1
0.0956702 -0.0123723 0.467479 0 0 -1
-0.213814 -0.202868 0.480805 0 0 1
-0.31761 -0.144361 0.480805 0 0 1
-0.121398 0.0468013 0.467479 0 0 -1
-0.147837 0.116643 0.467479 0 0 -1
0.256789 0.00676869 0.0304494 0 0 1
0.263611 -0.00528345 0 0 0 -1
0.117081 -0.110746 0.467479 0 0 -1
0.333248 0.00880196 0.450429 -0.237703 0.91146 0.335764
-0.286799 0.0769653 0.467479 0 0 -1
0.379404 -0.192871 0.467479 0 0 -1
-0.143596 0.204094 0.480805 0 0 1
0.0421256 0.178276 0.467479 0 0 -1
0.048381 -0.155458 0.480805 0 0 1
0.338078 0.128797 0.467479 0 0 -1
-0.164423 0.148687 0.467479 0 0 -1
-0.345791 -0.0111472 0.0702012 0.315543 -0.901796 -0.295291
0.41952 -0.0045042 0.480805 0 0 1
-0.120034 0.173884 0.467479 0 0 -1
-0.0496695 0.0950643 0.480805 0 0 1
0.340382 -0.108258 0.480805 0 0 1
0.250758 -0.0663125 0.140471 0.958427 0.249266 -0.138867
0.335309 0.0103817 0.0790647 -0.315543 0.901796 -0.295291
0.323501 -0.0238951 0.480805 0 0 1
-0.232908 0.0365384 0.0292925 1 0 0
-0.161542 -0.187151 0.480805 0 0 1
0.362917 -0.159534 0.480805 0 0 1
-0.254831 0.00825889 0.328925 -1 0 0
-0.319243 0.0113554 0.100813 -0.387052 0.890181 0.24035
0.238236 0.21173 0.467479 0 0 -1
0.407157 -0.00935525 0.480805 0 0 1
0.168911 -0.136163 0.467479 0 0 -1
0.223673 0.210829 0.467479 0 0 -1
0.211451 -0.0972378 0.480805 0 0 1
-0.229164 0.224758 0.467479 0 0 -1
0.30875 -0.256935 0.480805 0 0 1
-0.327211 0.012638 0.0304494 0 0 1
0.179429 0.285425 0.476552 0 1 0
-0.23719 -0.130855 0.0727388 0.95795 0.174955 -0.227427
0.182491 -0.224928 0.467479 0 0 -1
-0.261104 -0.110759 0.480805 0 0 1
-0.245551 -0.0491443 0.0304494 0 0 1
0.307826 -0.00860274 0.480805 0 0 1
0.290358 -0.248093 0.480805 0 0 1
-0.251792 0.0374752 0.218946 -0.958202 0.272888 0.0859141
0.111748 0.0822382 0.480805 0 0 1
-0.254831 -0.0104181 0.205596 -1 0 0
-0.24875 -0.185492 0.480805 0 0 1
-0.0242681 -0.102955 0.467479 0 0 -1
0.339307 0.0456195 0.467479 0 0 -1
-0.244302 0.200794 0.0523931 -0.498916 0.378744 0.77951
0.228766 -0.112825 0.467479 0 0 -1
0.143773 -0.231029 0.480805 0 0 1
0.369897 0.202658 0.467479 0 0 -1
0.237971 -0.0790527 0.421861 -0.958444 0.201724 0.201723
-0.131173 -0.0793087 0.467479 0 0 -1
0.251633 0.0152167 0.181504 0 1 0
-0.237905 -0.0152167 0.0712383 0 -1 0
0.306229 0.0082522 0.480805 0 0 1
0.236814 -0.28495 0.475776 0.120614 -0.9927 0
0.350241 -0.0951425 0.467479 0 0 -1
-0.202248 0.0522204 0.467479 0 0 -1
0.237578 -0.146495 0 0 0 -1
0.179603 -0.249672 0.467479 0 0 -1
0.0782955 0.0682912 0.480805 0 0 1
0.27261 0.220923 0.467479 0 0 -1
-0.161466 -0.185597 0.467479 0 0 -1
0.285776 0.00944104 0.17394 0.440818 0.879991 0.176903
0.329242 0.0122964 0.467479 0 0 -1
0.0307494 -0.117559 0.480805 0 0 1
-0.289103 -0.00337833 0.135284 0.88469 -0.302362 -0.354826
-0.249651 0.199554 0.448538 -0.498738 0.0263312 -0.866353
0.232908 -0.00929783 0.30139 -1 0 0
0.122598 0.191374 0.467479 0 0 -1
-0.237665 -0.0451667 0.213644 0.958012 -0.273472 0.0861721
0.0747108 0.205489 0.480805 0 0 1
0.211176 -0.27937 0.467479 0 0 -1
-0.0822062 -0.173477 0.480805 0 0 1
0.119233 -0.240007 0.480805 0 0 1
0.0586904 -0.0870243 0.480805 0 0 1
0.41786 -0.00218565 0.000723251 1 0 0
0.232908 -0.0741117 0.0260767 -1 0 0
-0.251397 0.183019 0.0511902 -0.95818 0.125025 0.257411
0.258316 0.0391568 0.480805 0 0 1
0.294968 -0.0387459 0.467479 0 0 -1
0.379568 0.0672431 0.480805 0 0 1
0.254831 -0.0135409 0.212781 1 0 0
0.246052 -0.154399 0.0304494 0 0 1
0.234008 -0.120712 0.467479 0 0 -1
0.284697 0.255208 0.480805 0 0 1
0.339801 0.0262535 0.480805 0 0 1
0.137577 -0.216817 0.467479 0 0 -1
-0.420895 -0.0310329 0.467479 0 0 -1
-0.0384745 0.113715 0.467479 0 0 -1
-0.200464 0.0672688 0.467479 0 0 -1
-0.254831 -0.106321 0.0205433 -1 0 0
0.254508 -0.161567 0.467479 0 0 -1
-0.0194174 0.182616 0.480805 0 0 1
-0.264451 0.0191391 0.480805 0 0 1
0.245619 0.143975 0.0822885 0.498413 0.528574 0.687163
0.283513 0.0625977 0.467479 0 0 -1
0.315683 0.00787407 0.467479 0 0 -1
-0.138311 -0.186009 0.480805 0 0 1
0.347259 0.210476 0.480805 0 0 1
-0.204265 0.252461 0.467479 0 0 -1
0.287287 -0.00588323 0.178831 0.884833 -0.301631 0.355089
0.318065 -0.118192 0.467479 0 0 -1
0.273047 -0.000940169 0.303984 0.952904 -0.285742 -0.101613
-0.213248 -0.0864528 0.480805 0 0 1
0.259415 0.245222 0.480805 0 0 1
-0.232908 -0.228581 0.0131241 1 0 0
-0.207495 -0.22609 0.467479 0 0 -1
-0.258821 -0.127695 0.480805 0 0 1
-0.240951 -0.0764327 0.394438 0.498738 -0.612892 -0.612881
0.225107 -0.246263 0.467479 0 0 -1
0.232908 -0.00193443 0.229379 -1 0 0
-0.218019 -0.157331 0.467479 0 0 -1
-0.406314 0.0713587 0.467479 0 0 -1
-0.0883901 0.227077 0.480805 0 0 1
0.239401 0.0359606 0.287987 -0.498645 0.85748 -0.126812
0.246374 -0.162309 0.480805 0 0 1
0.3277 0.129484 0.480805 0 0 1
0.261671 0.281927 0.480805 0 0 1
-0.407694 0.00476303 0.0304494 0 0 1
-0.109598 0.108238 0.467479 0 0 -1
-0.0917149 0.194531 0.480805 0 0 1
0.0496477 0.142387 0.480805 0 0 1
-0.290436 -0.208851 0.480805 0 0 1
0.0995804 0.0634563 0.467479 0 0 -1
0.0659945 -0.222436 0.467479 0 0 -1
0.00374556 0.0888703 0.467479 0 0 -1
-0.280872 0.0824899 0.480805 0 0 1
0.129648 0.117497 0.480805 0 0 1
-0.0649422 0.111826 0.480805 0 0 1
0.192171 -0.0622816 0.467479 0 0 -1
-0.0463718 -0.0479116 0.480805 0 0 1
-0.237018 -0.129491 0 0 0 -1
-0.252751 -0.0152167 0.378352 0 -1 0
-0.195463 -0.224386 0.480805 0 0 1
-0.237257 -0.0765664 0.415943 0.958024 0.20272 0.20272
0.34408 0.238996 0.474332 0.69722 0.716857 0
-0.0305462 0.211807 0.480805 0 0 1
0.412238 0.0152167 0.00220285 0 1 0
0.0167971 -0.0371839 0.467479 0 0 -1
-0.00297401 -0.062324 0.467479 0 0 -1
0.0439468 -0.131271 0.467479 0 0 -1
0.0709027 -0.0746219 0.480805 0 0 1
-0.322712 -0.000449554 0.112204 -0.805755 -0.316797 0.500399
0.139747 -0.107103 0.480805 0 0 1
0.232908 0.0118349 0.407468 -1 0 0
-0.17754 -0.00604409 0.467479 0 0 -1
0.254831 0.105453 0.019489 1 0 0
0.2652 -0.0100547 0.480805 0 0 1
-0.207291 0.183893 0.467479 0 0 -1
0.133774 -0.179023 0.467479 0 0 -1
0.179057 -0.208533 0.480805 0 0 1
-0.236948 -0.163998 0.0530131 0.957971 0.12533 -0.25804
0.241716 -0.248954 0.467479 0 0 -1
0.124784 0.132822 0.480805 0 0 1
-0.212636 -0.266577 0.467479 0 0 -1
-0.235335 -0.0152167 0.379344 0 -1 0
0.358823 -0.0138663 0 0 0 -1
-0.297253 0.122617 0.467479 0 0 -1
-0.0149445 -0.216881 0.467479 0 0 -1
-0.0550788 0.104203 0.467479 0 0 -1
-0.0300662 -0.0505071 0.467479 0 0 -1
-0.239467 -0.0401062 0.315801 0.499354 -0.857076 -0.126752
-0.157493 -0.0421074 0.467479 0 0 -1
0.248472 -0.0420422 0.230275 0.498112 -0.827033 0.260579
-0.30476 -0.0306595 0.467479 0 0 -1
-0.0794037 0.192754 0.480805 0 0 1
-0.32136 -0.0432886 0.467479 0 0 -1
-0.391734 -0.0654087 0.467479 0 0 -1
0.300361 0.0330957 0.480805 0 0 1
-0.380574 -0.118748 0.480805 0 0 1
0.0531821 0.285425 0.470234 0 1 0
-0.240795 0.0152167 0.347987 0 1 0
-0.254831 -0.0672253 0.0102395 -1 0 0
0.263876 0.131191 0.480805 0 0 1
0.279272 0.00252707 0.212971 0.932635 0.292456 0.211334
-0.237294 0.124201 0.449545 0.958131 -0.13003 0.255104
-0.237902 -0.137508 0.0646191 0.95795 0.174955 -0.227427
-0.280082 -0.159672 0.480805 0 0 1
-0.120046 -0.159396 0.480805 0 0 1
0.235821 -0.0152167 0.463262 0 -1 0
-0.232908 0.01039 0.241067 1 0 0
0.247628 0.10491 0.0875371 0.498635 -0.528502 -0.687059
0.0516855 -0.0417718 0.467479 0 0 -1
-0.232908 -0.00680184 0.274188 1 0 0
-0.257903 0.121693 0.467479 0 0 -1
-0.0590344 0.127409 0.480805 0 0 1
-0.232908 0.00703824 0.0411556 1 0 0
-0.118216 -0.0170301 0.480805 0 0 1
-0.286052 -0.109299 0.467479 0 0 -1
-0.105377 -0.203199 0.467479 0 0 -1
0.232908 0.0994322 0.00171676 -1 0 0
-0.0252917 -0.00618052 0.467479 0 0 -1
0.385582 0.00856511 0.463445 -0.0161764 0.924159 0.381664
0.0389818 0.198706 0.467479 0 0 -1
0.244505 -0.0152167 0.135317 0 -1 0
-0.126361 -0.281405 0.467479 0 0 -1
-0.258535 0.0123222 0.467479 0 0 -1
0.251845 0.0450312 0.19424 0.958372 0.272343 0.0857425
0.249518 0.141108 0.0610628 0.498412 -0.528605 -0.687141
0.317932 -0.11437 0.480805 0 0 1
-0.124725 0.192848 0.467479 0 0 -1
0.0788449 -0.256844 0.480805 0 0 1
0.239241 -0.0286165 0.214575 -0.499148 0.826489 -0.260322
0.242595 -0.0763961 0.467479 0 0 -1
-0.321348 -0.0139094 0.480805 0 0 1
-0.232908 0.00615683 0.09883 1 0 0
-0.32326 -0.255222 0.476709 -0.543386 -0.839483 0
-0.2511 -0.174961 0.45256 -0.958147 -0.00873225 -0.286143
-0.356416 -0.00850169 0.0304494 0 0 1
-0.248615 -0.0152167 0.298383 0 -1 0
0.142988 0.0653372 0.480805 0 0 1
-0.254831 -0.233427 0.0207297 -1 0 0
-0.234707 0.255308 0.467479 0 0 -1
-0.254831 -0.0592518 0.0237122 -1 0 0
-0.316547 0.00177294 0.417604 -0.767776 0.324349 -0.552556
0.350158 -0.068621 0.467479 0 0 -1
-0.232908 0.0972577 0.0289639 1 0 0
0.232908 -0.00891447 0.0477797 -1 0 0
0.0287073 -0.128254 0.467479 0 0 -1
0.242169 -0.0414822 0.314397 -0.498635 -0.857459 -0.126992
0.241098 0.146664 0.467479 0 0 -1
-0.329144 0.0047497 0.0304494 0 0 1
-0.0635736 0.0864267 0.467479 0 0 -1
0.233427 -0.0152167 0.414965 0 -1 0
0.386808 0.156005 0.467479 0 0 -1
0.362727 0.0688352 0.467479 0 0 -1
0.284381 -0.00885877 0.396775 -0.362789 -0.894544 0.261102
-0.372167 0.14636 0.467479 0 0 -1
0.300534 0.217568 0.480805 0 0 1
0.28241 -0.176633 0.467479 0 0 -1
0.232908 0.21534 0.00266023 -1 0 0
0.273498 0.105473 0.480805 0 0 1
-0.258665 0.0452135 0.480805 0 0 1
-0.211885 -0.283524 0.467479 0 0 -1
-0.252573 -0.0152167 0.0177195 0 1 0
-0.15929 0.0322654 0.480805 0 0 1
-0.155053 0.00101942 0.480805 0 0 1
-0.0804411 0.0536766 0.467479 0 0 -1
-0.244381 -0.179535 0.0626686 -0.498919 -0.378653 0.779552
0.280756 -0.20297 0.467479 0 0 -1
-0.254831 0.0151834 0.177395 -1 0 0
0.0528662 0.223154 0.480805 0 0 1
-0.366174 0.117778 0.480805 0 0 1
0.289198 -0.00810814 0.480805 0 0 1
0.0323273 0.257285 0.467479 0 0 -1
0.271162 -0.201932 0.480805 0 0 1
0.158422 -0.249225 0.480805 0 0 1
0.232908 0.0504212 0.0100539 -1 0 0
-0.235112 -0.0911596 0 0 0 -1
-0.334354 0.0301172 0.480805 0 0 1
0.0999324 0.0576929 0.467479 0 0 -1
-0.172086 -0.118542 0.480805 0 0 1
-0.143662 -0.25029 0.480805 0 0 1
0.237149 0.130768 0.072943 -0.958373 -0.174091 -0.226303
-0.223389 -0.0914614 0.480805 0 0 1
-0.0643909 -0.282182 0.480805 0 0 1
-0.246795 0.163246 0 0 0 -1
0.240449 -0.0429471 0.480805 0 0 1
0.226468 0.0669615 0.467479 0 0 -1
-0.234735 -0.0152167 0.244632 0 -1 0
-0.140079 0.0901724 0.480805 0 0 1
0.369237 -0.00957465 0.460313 -0.0160821 -0.92416 0.381666
-0.3698 -0.0964603 0.467479 0 0 -1
0.00848733 -0.140935 0.480805 0 0 1
-0.163708 -0.0767491 0.480805 0 0 1
-0.107191 0.283184 0.480805 0 0 1
-0.271746 -0.106734 0.467479 0 0 -1
0.00536511 -0.147081 0.480805 0 0 1
0.121115 0.0928417 0.480805 0 0 1
0.104651 -0.215636 0.467479 0 0 -1
0.234752 0.0790949 0 0 0 -1
0.236128 -0.0152167 0.162148 0 -1 0
0.207244 -0.0105506 0.480805 0 0 1
-0.323518 -0.0288855 0.480805 0 0 1
0.284755 0.192949 0.480805 0 0 1
0.124653 0.282999 0.480805 0 0 1
0.262098 0.256249 0.467479 0 0 -1
-0.230369 -0.240283 0.480805 0 0 1
-0.232908 -0.0341491 0.0127506 1 0 0
-0.254831 0.0872708 0.00928758 -1 0 0
0.348487 0.140307 0.467479 0 0 -1
0.242213 0.137148 0.480805 0 0 1
0.277127 -0.00529261 0.166751 -0.885095 -0.300983 -0.354989
-0.254831 0.0584918 0.0267141 -1 0 0
0.232908 0.0598274 0.0252808 -1 0 0
-0.157445 0.0273298 0.480805 0 0 1
-0.236003 -0.160812 0.467479 0 0 -1
-0.0963035 0.228311 0.480805 0 0 1
0.436358 0.0326364 0.478725 0.998022 0.0628609 0
-0.0758908 -0.208774 0.480805 0 0 1
-0.24575 -0.201111 0.448188 0 -0.999897 0.0143859
0.232908 -0.0148963 0.106264 -1 0 0
0.278022 -0.000197986 0.160201 -0.885095 -0.300983 -0.354989
0.386785 -0.0890079 0.467479 0 0 -1
0.249455 0.0395622 0.0304494 0 0 1
0.173845 0.188664 0.467479 0 0 -1
0.0902129 0.160805 0.467479 0 0 -1
-0.0265155 0.0540027 0.467479 0 0 -1
-0.331096 -0.210671 0.480805 0 0 1
-0.2541 0.034715 0.480805 0 0 1
0.0464816 0.02821 0.467479 0 0 -1
0.259595 -0.117154 0.480805 0 0 1
-0.119084 -0.174093 0.480805 0 0 1
-0.293902 0.175046 0.480805 0 0 1
-0.0314925 -0.263989 0.467479 0 0 -1
-0.0188087 -0.0732294 0.467479 0 0 -1
-0.351687 -0.0959741 0.480805 0 0 1
0.245494 0.0502878 0.156836 0.498909 -0.757006 -0.421938
0.0586914 -0.221462 0.480805 0 0 1
0.257114 0.153997 0.480805 0 0 1
-0.186009 -0.0968992 0.480805 0 0 1
-0.0119419 -0.0232331 0.480805 0 0 1
0.419698 0.0738488 0.467479 0 0 -1
0.0803889 -0.264431 0.480805 0 0 1
-0.352443 0.00777524 0 0 0 -1
0.0655549 0.190265 0.480805 0 0 1
-0.254831 -0.163433 0.0079243 -1 0 0
0.0349811 0.0149164 0.467479 0 0 -1
0.263851 0.0587418 0.480805 0 0 1
-0.300545 0.00542667 0.116673 0.80591 0.316379 -0.500412
-0.400973 -0.14347 0.480805 0 0 1
0.394523 0.0135127 0.467479 0 0 -1
-0.35387 -0.183722 0.480805 0 0 1
-0.232908 -0.231495 0.0165349 1 0 0
0.254831 -0.209378 0.0210067 1 0 0
-0.157422 0.210962 0.467479 0 0 -1
-0.0393127 0.0968541 0.467479 0 0 -1
-0.135407 -0.0827636 0.467479 0 0 -1
0.16245 -0.12994 0.480805 0 0 1
0.219126 0.228593 0.480805 0 0 1
-0.111041 -0.0202768 0.467479 0 0 -1
-0.128389 0.14309 0.467479 0 0 -1
-0.294156 0.0652208 0.467479 0 0 -1
0.117733 -0.18547 0.480805 0 0 1
0.0719228 0.282762 0.467479 0 0 -1
-0.300719 0.208317 0.467479 0 0 -1
0.163446 -0.156303 0.480805 0 0 1
0.274645 0.182328 0.467479 0 0 -1
-0.341369 0.151158 0.480805 0 0 1
0.349614 0.0152167 0.0235545 0 1 0
-0.156236 -0.244545 0.467479 0 0 -1
-0.306935 -0.0098263 0.413936 -0.363252 -0.894262 -0.261426
0.251424 0.0152167 0.176191 0 1 0
-0.248932 -0.0375441 0 0 0 -1
-0.250195 -0.0333722 0.28194 -0.958032 -0.285186 0.0290539
0.232908 -0.0741758 0.0111139 -1 0 0
0.0791778 0.235042 0.480805 0 0 1
0.213158 0.191893 0.480805 0 0 1
0.356227 0.167528 0.480805 0 0 1
0.232908 0.0843972 0.0218456 -1 0 0
0.250358 -0.0459141 0.208074 0.95837 -0.272328 0.0858118
0.322316 0.228948 0.467479 0 0 -1
0.0848799 -0.0323657 0.467479 0 0 -1
0.234442 0.0152167 0.232472 0 1 0
-0.247399 -0.0744617 0.467479 0 0 -1
-0.254831 -0.0015131 0.312512 -1 0 0
0.334719 0.174975 0.480805 0 0 1
0.250322 0.283309 0.477979 0.120614 0.9927 0
0.236729 0.2294 0.0304494 0 0 1
0.305139 0.214388 0.467479 0 0 -1
0.249089 -0.0223868 0.314142 0.499926 0.856731 0.12683
0.349327 0.169579 0.480805 0 0 1
0.190155 0.205666 0.467479 0 0 -1
-0.225637 -0.239986 0.480805 0 0 1
0.219401 0.160711 0.480805 0 0 1
-0.178267 0.0815588 0.467479 0 0 -1
-0.250749 -0.0152167 0.0292718 0 1 0
-0.232908 -0.236579 0.0301437 1 0 0
-0.187313 -0.000523269 0.480805 0 0 1
0.254831 -0.00556148 0.0798544 1 0 0
0.254831 -0.224885 0.0278596 1 0 0
0.325752 0.0152167 0.0212823 0 1 0
-0.388566 -0.0152167 0.0265508 0 -1 0
-0.31739 -0.232731 0.480805 0 0 1
-0.0391164 -0.0152653 0.480805 0 0 1
-0.227743 0.285425 0.467606 0 1 0
-0.158814 -0.0471393 0.467479 0 0 -1
0.248498 0.12918 0.436084 0.498936 0.39343 -0.772189
-0.351111 -0.182422 0.480805 0 0 1
0.405039 0.108118 0.467479 0 0 -1
-0.245208 0.103046 0.0872126 -0.498636 -0.528526 -0.687039
-0.243005 0.137727 0.0304494 0 0 1
0.273369 -0.0018263 0.24992 0.955252 -0.287301 0.0703665
0.243775 0.0152167 0.233098 0 1 0
0.335769 0.0152167 0.0241671 0 1 0
0.314621 0.098795 0.480805 0 0 1
-0.305436 0.0423765 0.467479 0 0 -1
0.225324 -0.137675 0.480805 0 0 1
0.344547 0.150793 0.480805 0 0 1
-0.247768 0.146856 0.480805 0 0 1
0.00620537 -0.166674 0.467479 0 0 -1
0.243612 -0.0152167 0.0205036 0 1 0
0.394365 0.0246408 0.480805 0 0 1
0.250326 -0.100667 0.480805 0 0 1
0.271401 0.0052261 0.300621 0.952917 0.285745 -0.101487
-0.254831 -0.00797603 0.0312795 -1 0 0
-0.0676612 0.284991 0.467479 0 0 -1
-0.251953 -0.0805421 0.127874 -0.958032 0.217073 -0.187229
0.397912 -0.0696256 0.480805 0 0 1
-0.245357 -0.211312 0.0304494 0 0 1
-0.296106 0.190795 0.480805 0 0 1
-0.24995 -0.0340311 0.202685 -0.958123 0.273129 -0.0860283
0.273225 0.130643 0.467479 0 0 -1
-0.290985 -0.220107 0.467479 0 0 -1
-0.371658 -0.000534602 0.0388428 0.522642 -0.356849 -0.774276
-0.229246 0.173218 0.467479 0 0 -1
0.112204 -0.109327 0.480805 0 0 1
0.154484 -0.244073 0.467479 0 0 -1
-0.104872 0.0282398 0.467479 0 0 -1
-0.242126 0.14592 0.0550548 0.498972 -0.378822 -0.779436
0.234435 -0.0674923 0.480805 0 0 1
-0.0840878 -0.259691 0.480805 0 0 1
0.232908 0.00878024 0.172499 -1 0 0
-0.30591 0.177802 0.467479 0 0 -1
0.431127 0.0711482 0.47755 0.98188 0.189503 0
-0.256624 0.00731383 0 0 0 -1
0.0171886 0.178541 0.467479 0 0 -1
-0.153582 -0.0769558 0.467479 0 0 -1
-0.377034 -0.16411 0.480805 0 0 1
-0.121656 0.155762 0.467479 0 0 -1
-0.228584 0.0672168 0.467479 0 0 -1
0.299639 0.260751 0.467479 0 0 -1
-0.254831 -0.0187836 0.0182147 -1 0 0
0.279698 -0.00860613 0.356792 0.448924 -0.878281 -0.16459
0.241495 -0.161787 0.0477428 -0.498263 0.379 -0.779803
-0.412416 0.0995793 0.467479 0 0 -1
-0.186672 0.186112 0.480805 0 0 1
-0.0185309 -0.283671 0.467479 0 0 -1
-0.271697 -0.00897342 0.326282 -0.492711 -0.868609 -0.0524745
-0.0311332 -0.220098 0.480805 0 0 1
-0.159162 -0.179808 0.467479 0 0 -1
0.0299568 0.255968 0.467479 0 0 -1
0.0100956 0.191751 0.480805 0 0 1
-0.25427 0.0152167 0.2397 0 1 0
0.175658 -0.234161 0.480805 0 0 1
-0.405025 0.0428777 0.467479 0 0 -1
-0.302562 -0.110188 0.467479 0 0 -1
-0.36339 0.197506 0.480805 0 0 1
0.395926 -0.00422492 0 0 0 -1
-0.245338 -0.210448 0 0 0 -1
0.160829 0.25989 0.467479 0 0 -1
0.0651492 0.175155 0.480805 0 0 1
-0.321303 0.00758421 0.480805 0 0 1
-0.303255 -0.00392526 0.428095 0.767952 -0.323298 0.552928
0.37169 0.209359 0.468277 0.811541 0.584296 0
-0.095766 -0.11622 0.467479 0 0 -1
-0.0523012 0.161583 0.467479 0 0 -1
0.254831 -0.00400288 0.0863986 1 0 0
-0.0480048 0.0469071 0.467479 0 0 -1
-0.232908 -0.125318 0.0287652 1 0 0
0.0807499 -0.016373 0.467479 0 0 -1
0.336938 -0.00418796 0.0304494 0 0 1
-0.271395 0.280047 0.470092 -0.34887 0.937171 0
-0.357608 0.0763837 0.480805 0 0 1
-0.045066 0.147849 0.480805 0 0 1
0.115767 -0.260683 0.467479 0 0 -1
-0.183625 0.135309 0.467479 0 0 -1
-0.245348 -0.149139 0.444217 -0.498936 -0.39343 -0.772189
0.308679 -0.221393 0.480805 0 0 1
-0.24905 0.273524 0.480805 0 0 1
0.382167 0.171946 0.480805 0 0 1
0.300807 0.254764 0.480805 0 0 1
-0.278772 -0.178399 0.467479 0 0 -1
-0.258954 -0.0463025 0.480805 0 0 1
-0.317735 -0.240151 0.467479 0 0 -1
-0.148184 -0.158072 0.467479 0 0 -1
0.232298 -0.2258 0.467479 0 0 -1
-0.00504655 0.213423 0.467479 0 0 -1
-0.349681 -0.0682109 0.480805 0 0 1
-0.254831 0.20181 0.0110925 -1 0 0
0.172134 0.250318 0.480805 0 0 1
0.173916 -0.15055 0.467479 0 0 -1
0.110087 0.0787058 0.480805 0 0 1
-0.0290199 -0.252054 0.480805 0 0 1
0.125414 -0.233374 0.467479 0 0 -1
-0.240322 -0.120026 0.0994083 0.499398 -0.528229 0.686714
0.232908 -0.231497 0.00770795 -1 0 0
0.24016 0.0958235 0.414462 -0.499451 0.612451 -0.612742
0.271045 -0.194877 0.467479 0 0 -1
0.246999 -0.077174 0.467479 0 0 -1
0.233691 -0.0775402 0 0 0 -1
0.038744 -0.0252403 0.467479 0 0 -1
-0.24642 -0.0131925 0.480805 0 0 1
0.352044 0.00939015 0.480805 0 0 1
0.242841 -0.0630205 0.13327 -0.497635 0.757733 -0.422137
-0.254831 0.181107 0.00764632 -1 0 0
-0.312227 0.136154 0.467479 0 0 -1
0.23611 -0.039644 0.213894 -0.958437 -0.272135 0.0856771
0.158513 -0.148735 0.480805 0 0 1
0.187789 0.186797 0.480805 0 0 1
-0.254831 0.0143611 0.0143458 -1 0 0
-0.124403 0.203861 0.467479 0 0 -1
0.232908 -0.00686655 0.44859 -1 0 0
-0.381092 0.00983977 0.467479 0 0 -1
0.255621 -0.140591 0.467479 0 0 -1
-0.254519 0.0834949 0.0304494 0 0 1
0.254831 -0.0138216 0.0868348 1 0 0
0.331017 -0.00551312 0.0983211 0.687381 -0.336331 0.64373
-0.324966 -0.224824 0.467479 0 0 -1
-0.41786 0.00312282 0.0158794 -1 0 0
0.176287 0.0450276 0.467479 0 0 -1
0.232908 0.167798 0.0123659 -1 0 0
-0.161949 0.217859 0.480805 0 0 1
0.287282 0.00993005 0.384513 0.44997 0.877673 -0.164974
0.240428 0.0334805 0.360579 -0.499795 -0.771706 0.393287
0.251921 -0.0706466 0.142926 0.958508 -0.249008 0.138772
0.0901352 -0.129959 0.480805 0 0 1
-0.0107269 -0.139334 0.467479 0 0 -1
-0.166931 -0.247715 0.467479 0 0 -1
0.25067 -0.0520795 0.185009 0.958494 -0.271953 0.0856197
-0.284022 -0.00128794 0.193728 -0.93304 -0.291064 0.211468
-0.248597 0.0974012 0 0 0 -1
-0.0696549 0.279211 0.467479 0 0 -1
0.232908 -0.0144468 0.156847 -1 0 0
-0.141067 -0.0635557 0.480805 0 0 1
-0.200326 -0.00113332 0.480805 0 0 1
0.171703 -0.0579639 0.480805 0 0 1
-0.245325 0.0415495 0.24343 -0.498143 0.862618 0.087995
-0.118233 0.143504 0.480805 0 0 1
-0.314602 -0.0473339 0.467479 0 0 -1
-0.180508 0.0720895 0.467479 0 0 -1
0.12713 -0.211633 0.467479 0 0 -1
0.199304 -0.210474 0.480805 0 0 1
-0.0646483 -0.167381 0.480805 0 0 1
-0.218662 -0.256557 0.467479 0 0 -1
0.313728 -0.217069 0.467479 0 0 -1
-0.232908 0.0567105 0.010116 1 0 0
-0.0286074 0.155307 0.480805 0 0 1
-0.052721 -0.203017 0.467479 0 0 -1
0.254831 -0.00661382 0.0216871 -1 0 0
0.239063 0.140173 0.461222 -0.497275 -0.393994 0.772972
0.308238 -0.0152167 0.00450946 0 -1 0
0.25643 -0.142583 0.480805 0 0 1
0.208108 0.14546 0.467479 0 0 -1
-0.150325 0.180737 0.467479 0 0 -1
-0.00458836 -0.000508338 0.480805 0 0 1
0.238094 0.0152167 0.301482 0 1 0
0.0994727 -0.276961 0.480805 0 0 1
0.41879 -0.06849 0.467479 0 0 -1
0.0170038 -0.000892401 0.480805 0 0 1
-0.190663 -0.185306 0.480805 0 0 1
-0.281395 0.222485 0.467479 0 0 -1
-0.24236 0.184206 0.0362964 0.498834 -0.378874 -0.779499
0.169055 -0.159167 0.480805 0 0 1
0.252007 0.182577 0.455867 0.95844 0.00870234 -0.285163
-0.236879 0.212305 0.0318186 0.958507 0.282484 0.0383041
0.0374072 0.133774 0.467479 0 0 -1
0.10811 0.157745 0.467479 0 0 -1
0.0306292 -0.221174 0.480805 0 0 1
-0.191515 -0.135274 0.467479 0 0 -1
-0.235476 0.0152167 0.146953 0 1 0
-0.241708 -0.0251795 0.345089 0.500636 0.856325 0.12677
-0.24257 -0.202639 0.0511589 0.49969 -0.288905 0.816605
0.0255615 0.0346476 0.480805 0 0 1
0.402965 0.0152167 0.0262418 0 1 0
0.031413 0.0898297 0.467479 0 0 -1
-0.137844 0.0537269 0.480805 0 0 1
0.236438 0.185488 0.050362 -0.958537 0.124501 0.256334
-0.10835 -0.257064 0.480805 0 0 1
-0.344364 -0.165516 0.480805 0 0 1
-0.352852 0.00333032 0.0761381 -0.687834 0.33521 0.643831
-0.178422 -0.113193 0.480805 0 0 1
0.0989399 0.0644425 0.467479 0 0 -1
-0.236623 0.0152167 0.465837 0 1 0
-0.118331 0.0507097 0.467479 0 0 -1
0.173278 -0.0653276 0.480805 0 0 1
0.261093 -0.00803846 0.0304494 0 0 1
0.250498 0.0817986 0 0 0 -1
-0.254831 0.0124164 0.108539 -1 0 0
0.197869 -0.144538 0.480805 0 0 1
-0.225524 0.0205242 0.480805 0 0 1
-0.223998 -0.272768 0.467479 0 0 -1
0.285013 0.0152167 0.0219153 0 1 0
0.174823 0.238324 0.467479 0 0 -1
-0.270796 -0.162246 0.480805 0 0 1
0.254831 -0.210007 0.0141357 1 0 0
-0.237527 0.0544362 0.367078 0.957961 0.255622 -0.130262
0.251116 -0.125431 0.44763 0.958491 0.129427 0.254053
0.382608 -0.165 0.480805 0 0 1
-0.126278 -0.0856663 0.480805 0 0 1
-0.297971 0.0666618 0.467479 0 0 -1
0.370866 -0.160347 0.480805 0 0 1
0.136712 -0.132207 0.480805 0 0 1
0.322026 0.191099 0.480805 0 0 1
0.254831 0.0105215 0.320226 1 0 0
-0.291901 0.085335 0.467479 0 0 -1
0.316023 -0.142546 0.467479 0 0 -1
-0.351813 -0.0940688 0.467479 0 0 -1
0.249714 0.0709711 0.157582 0.958508 0.248999 0.138786
0.254831 0.0689142 0.0222423 1 0 0
0.232908 -0.00128361 0.279169 -1 0 0
-0.242282 0.121422 0.0732543 0.499344 -0.528253 -0.686735
-0.0772217 0.143088 0.467479 0 0 -1
0.246338 0.195138 0.0304494 0 0 1
0.392079 0.00323373 0.480805 0 0 1
0.24272 0.0398038 0.26235 -0.498512 0.862413 0.0879174
-0.247975 0.0474906 0.347347 -0.499849 0.771692 -0.393245
0.0688625 0.132154 0.480805 0 0 1
-0.153753 0.201043 0.480805 0 0 1
-0.249077 -0.145639 0.467479 0 0 -1
0.0471034 0.221317 0.480805 0 0 1
-0.109484 0.268296 0.480805 0 0 1
-0.0129514 0.22575 0.480805 0 0 1
0.0952522 -0.227517 0.467479 0 0 -1
-0.00142211 0.233221 0.467479 0 0 -1
-0.165113 -0.145293 0.467479 0 0 -1
-0.271891 0.119968 0.467479 0 0 -1
-0.232908 0.219735 0.0243901 1 0 0
-0.383137 -0.00439256 0.0542253 -0.522677 -0.356845 0.774255
-0.393263 -0.109193 0.480805 0 0 1
0.0734709 -0.265687 0.467479 0 0 -1
-0.251175 0.27479 0.480805 0 0 1
0.363884 -0.178091 0.467479 0 0 -1
-0.251204 0.129836 0.480805 0 0 1
0.247298 -0.0708268 0.160908 0.498293 -0.757316 0.422109
-0.232908 -0.0101033 0.228561 1 0 0
0.350177 0.00803001 0.446231 0.539838 0.355211 -0.763151
-0.0404748 0.0675454 0.480805 0 0 1
0.135112 -0.197456 0.480805 0 0 1
-0.250951 0.179397 0.0461209 -0.95811 -0.125163 -0.257603
-0.121717 -0.264786 0.480805 0 0 1
0.266783 -0.0244982 0.480805 0 0 1
-0.232135 0.0746582 0.467479 0 0 -1
-0.163149 0.193903 0.480805 0 0 1
-0.272308 0.25879 0.480805 0 0 1
0.0254748 -0.121676 0.480805 0 0 1
0.235979 -0.203094 0.0408692 -0.958442 -0.0949459 0.269024
0.29584 0.006954 0 0 0 -1
-0.246873 -0.0152167 0.388816 0 -1 0
-0.252118 0.00652108 0.467479 0 0 -1
-0.417158 0.110753 0.480805 0 0 1
-0.237889 -0.0242231 0.235255 0.958049 0.285126 -0.0290887
0.132917 -0.00132796 0.467479 0 0 -1
0.133151 0.1843 0.467479 0 0 -1
0.33432 0.00582305 0.454202 -0.540491 0.353541 0.763465
-0.254831 0.217241 0.00164169 -1 0 0
0.0550358 -0.15318 0.480805 0 0 1
0.327483 0.00599511 0.0792995 -0.687598 0.336235 -0.643548
-0.259137 0.00570641 0.310598 0.952493 0.287139 0.101526
0.244523 0.10501 0.421163 0.499436 0.612608 -0.612597
0.232908 -0.218378 0.0236816 -1 0 0
0.2379 0.0635834 0.467479 0 0 -1
-0.339203 -0.233138 0.467479 0 0 -1
0.393515 -0.0773111 0.480805 0 0 1
0.1217 -0.0702489 0.480805 0 0 1
0.162695 0.266624 0.480805 0 0 1
-0.352799 -0.0081573 0.0734747 -0.315433 -0.901841 0.29527
0.398536 0.00855713 0.0338552 0.493712 0.868292 0.0481309
-0.251869 -0.0891 0.421921 -0.958089 0.202567 0.202565
0.210868 0.196532 0.480805 0 0 1
0.154584 -0.16923 0.480805 0 0 1
-0.278603 0.190789 0.467479 0 0 -1
-0.413763 0.0920388 0.480805 0 0 1
0.12594 0.0219477 0.480805 0 0 1
0.245884 0.195654 0.0304494 0 0 1
-0.31519 -0.0299164 0.467479 0 0 -1
-0.242139 0.0152167 0.0426435 0 1 0
0.118393 0.139187 0.467479 0 0 -1
0.194543 -0.103421 0.467479 0 0 -1
0.383542 -0.00250823 0.0304494 0 0 1
-0.326221 0.0134674 0.0304494 0 0 1
-0.248486 0.0805189 0 0 0 -1
0.241433 0.0152167 0.391344 0 1 0
0.0184553 0.147836 0.480805 0 0 1
0.0195306 0.230682 0.467479 0 0 -1
0.117353 -0.0838104 0.467479 0 0 -1
0.106905 0.0923779 0.480805 0 0 1
-0.193065 -0.029725 0.480805 0 0 1
0.271912 -0.00886441 0.326495 0.492868 -0.868519 -0.0524912
0.399584 0.109842 0.467479 0 0 -1
-0.237996 0.231898 0.480805 0 0 1
-0.0890268 0.0494467 0.467479 0 0 -1
-0.190017 0.118975 0.480805 0 0 1
0.254831 0.000174006 0.428164 1 0 0
0.21468 -0.0636625 0.467479 0 0 -1
0.378325 0.00811961 0.448271 0.0161151 0.924168 -0.381646
-0.236564 0.0335618 0.247765 0.958033 0.285179 0.0290909
0.197446 -0.184531 0.467479 0 0 -1
0.0712204 0.285425 0.480489 0 1 0
-0.428861 -0.00298768 0.467479 0 0 -1
0.404228 2.76854e-05 0 0 0 -1
0.233178 0.026216 0.480805 0 0 1
-0.246687 -0.0152167 0.104239 0 -1 0
-0.359001 0.201867 0.467479 0 0 -1
-0.347469 0.140724 0.467479 0 0 -1
-0.212164 -0.249124 0.467479 0 0 -1
0.029588 -0.114376 0.467479 0 0 -1
0.242104 0.240573 0.480805 0 0 1
-0.0328738 0.138307 0.467479 0 0 -1
-0.251601 0.0164033 0.467479 0 0 -1
0.115158 -0.131897 0.467479 0 0 -1
-0.23933 -0.0152167 0.141243 0 -1 0
0.207609 0.279133 0.480805 0 0 1
0.0598885 0.152772 0.480805 0 0 1
-0.429831 0.0778689 0.476885 -0.981888 0.189464 0
0.232908 -0.00221215 0.288948 -1 0 0
-0.260642 0.249742 0.467479 0 0 -1
-0.353735 0.148837 0.467479 0 0 -1
0.102607 0.191609 0.467479 0 0 -1
-0.254831 0.0144353 0.326966 -1 0 0
0.140575 0.0343474 0.480805 0 0 1
0.251649 0.0331805 0.339544 0.958357 -0.282494 0.0418204
0.291499 -0.105737 0.480805 0 0 1
0.232908 0.0146301 0.343917 -1 0 0
-0.303121 0.174869 0.480805 0 0 1
0.240344 0.122363 0.0304494 0 0 1
0.35382 -0.00844938 0.480805 0 0 1
-0.250183 0.0973677 0.480805 0 0 1
0.248648 0.0152167 0.152187 0 1 0
-0.254802 0.0152167 0.0362446 0 1 0
-0.256947 0.00775614 0.480805 0 0 1
0.168452 0.0892995 0.480805 0 0 1
0.0189207 -0.168086 0.467479 0 0 -1
-0.419254 -0.0538191 0.467479 0 0 -1
0.208011 -0.220607 0.467479 0 0 -1
-0.277868 0.0386196 0.467479 0 0 -1
-0.0490049 -0.106202 0.480805 0 0 1
0.127365 0.126667 0.480805 0 0 1
-0.0497634 -0.198713 0.480805 0 0 1
0.114042 -0.167595 0.467479 0 0 -1
-0.240214 0.0921906 0.43713 0.500052 -0.612356 0.612347
0.220213 0.217949 0.467479 0 0 -1
0.241432 -0.126389 0.0304494 0 0 1
0.245514 0.0967748 0.480805 0 0 1
-0.23278 0.0303107 0.480805 0 0 1
0.146598 -0.151016 0.467479 0 0 -1
-0.251191 -0.187695 0.042982 -0.958111 0.125126 -0.257619
0.237075 -0.0152167 0.412572 0 -1 0
0.277209 0.037707 0.467479 0 0 -1
0.248109 -0.19117 0.0346671 0.498963 0.378824 -0.779441
0.0936262 -0.0145298 0.467479 0 0 -1
0.159828 0.265651 0.467479 0 0 -1
-0.371175 0.00158092 0.0635882 -0.52243 0.356875 0.774408
0.431556 0.0192619 0.467479 0 0 -1
-0.104341 0.229959 0.480805 0 0 1
-0.140059 0.197334 0.467479 0 0 -1
0.238243 -0.0389872 0.368614 -0.499802 0.771745 0.393202
-0.1764 0.0796198 0.467479 0 0 -1
0.147425 -0.262454 0.467479 0 0 -1
-0.236769 0.22698 0.0304494 0 0 1
0.0244671 -0.28176 0.467479 0 0 -1
0.0206009 -0.242275 0.480805 0 0 1
0.235748 -0.139954 0.451771 -0.958439 0.129507 0.254211
-0.250047 -0.022433 0.259249 -0.958186 0.284667 -0.0290419
-0.2534 -0.0152167 0.444412 0 -1 0
-0.22261 -0.27412 0.480805 0 0 1
-0.417107 0.124169 0.470624 -0.948011 0.318237 0
0.236588 0.280726 0.480805 0 0 1
0.200516 -0.209492 0.467479 0 0 -1
-0.280587 0.196893 0.480805 0 0 1
0.339105 0.00144814 0.435341 0.540256 0.354177 -0.763336
-0.044008 -0.174693 0.467479 0 0 -1
-0.0930633 0.136776 0.480805 0 0 1
-0.238038 0.185747 0.0383523 0.957978 -0.125564 -0.257899
0.223338 0.114882 0.467479 0 0 -1
0.0668681 -0.271101 0.480805 0 0 1
-0.01504 -0.178283 0.480805 0 0 1
-0.386442 0.18887 0.476118 -0.811541 0.584296 0
-0.210556 0.104873 0.467479 0 0 -1
-0.237347 0.0210116 0.2846 0.958121 -0.284883 -0.029064
0.389924 -0.137557 0.467479 0 0 -1
0.250484 0.0913104 0.124321 0.958443 0.216057 0.186297
0.244895 -0.0703464 0.123842 0.497998 0.656574 -0.566488
-0.130025 -0.154387 0.467479 0 0 -1
0.387054 -0.00709844 0.480805 0 0 1
0.30961 0.162565 0.480805 0 0 1
0.0244792 -0.155294 0.467479 0 0 -1
-0.234267 -0.00165168 0 0 0 -1
0.249979 -0.080881 0.422629 0.958381 0.201873 0.201872
0.121632 -0.129582 0.467479 0 0 -1
-0.359639 -0.00849348 0.462525 0.0160649 -0.924322 0.381276
-0.343873 0.126241 0.480805 0 0 1
-0.0481062 -0.103809 0.467479 0 0 -1
0.139479 -0.058094 0.480805 0 0 1
0.191165 0.0514624 0.480805 0 0 1
-0.322354 0.0669193 0.467479 0 0 -1
0.305824 0.0470198 0.467479 0 0 -1
0.243585 0.241661 0.00922669 0 1 0
0.391014 -0.0738314 0.467479 0 0 -1
0.138414 0.120551 0.480805 0 0 1
0.284176 0.164747 0.467479 0 0 -1
0.137059 0.242593 0.480805 0 0 1
-0.394942 0.118946 0.480805 0 0 1
0.0817653 0.07984 0.480805 0 0 1
-0.348679 -0.202916 0.480805 0 0 1
-0.248456 0.0301754 0.0304494 0 0 1
-0.232908 0.00248081 0.251745 1 0 0
0.306955 0.169587 0.467479 0 0 -1
-0.138614 -0.16459 0.480805 0 0 1
0.204159 -0.191843 0.467479 0 0 -1
-0.243798 -0.0152167 0.276196 0 -1 0
-0.0489929 -0.0822038 0.467479 0 0 -1
-0.354278 0.178918 0.467479 0 0 -1
-0.0451831 -0.0114807 0.467479 0 0 -1
0.254831 -0.0100821 0.46721 1 0 0
-0.254831 0.169951 0.0074083 -1 0 0
0.0125579 -0.246094 0.480805 0 0 1
-0.240413 0.00592238 0.467479 0 0 -1
0.278249 0.151865 0.467479 0 0 -1
0.16627 0.0267728 0.480805 0 0 1
0.100854 -0.121541 0.480805 0 0 1
-0.0600315 0.0980758 0.480805 0 0 1
0.293808 0.111968 0.480805 0 0 1
0.254831 -0.163789 0.0293187 1 0 0
0.088289 0.260447 0.467479 0 0 -1
-0.0239262 -0.230115 0.467479 0 0 -1
0.187765 0.230681 0.467479 0 0 -1
0.190876 0.236013 0.467479 0 0 -1
0.325461 0.105588 0.480805 0 0 1
0.139139 -0.0762084 0.480805 0 0 1
-0.232908 0.0151124 0.257047 1 0 0
0.249105 -0.17273 0.0304494 0 0 1
