0.247993 -0.0211827 0.480805 0 0 1
0.146706 -0.0694723 0.480805 0 0 1
-0.362408 0.146358 0.467479 0 0 -1
0.247289 0.0491183 0.349678 0.499866 0.771792 -0.393028
0.171179 0.112928 0.467479 0 0 -1
0.238884 -0.0152167 0.43897 0 -1 0
0.0174413 -0.202355 0.480805 0 0 1
-0.254831 0.0655502 0.0136358 -1 0 0
0.238678 0.253609 0.480805 0 0 1
0.254831 0.0144019 0.348533 1 0 0
-0.276897 -0.125433 0.467479 0 0 -1
0.236581 0.0476642 0.193706 -0.958559 0.271746 0.0855544
-0.254831 0.206345 0.0142803 -1 0 0
0.239672 0.086858 0.135066 -0.498126 0.656603 0.566342
-0.193268 0.131275 0.467479 0 0 -1
-0.13437 0.140247 0.467479 0 0 -1
-0.308106 0.2304 0.467479 0 0 -1
-0.225555 -0.11291 0.467479 0 0 -1
-0.283155 -0.0528524 0.480805 0 0 1
-0.368685 -0.168493 0.467479 0 0 -1
0.254831 0.156506 0.000786906 1 0 0
0.242995 0.0590026 0.0304494 0 0 1
0.129057 0.0768614 0.480805 0 0 1
-0.078698 0.190121 0.467479 0 0 -1
0.273095 0.0721643 0.467479 0 0 -1
0.0574853 0.244731 0.480805 0 0 1
-0.119687 0.24535 0.480805 0 0 1
0.337497 0.0403787 0.467479 0 0 -1
0.406068 -0.0681872 0.467479 0 0 -1
-0.134831 -0.0920751 0.480805 0 0 1
-0.0217741 0.145918 0.467479 0 0 -1
-0.237683 0.0158905 0.480805 0 0 1
-0.251926 0.0486905 0.370859 -0.958082 -0.255276 0.13005
-0.0784366 -0.0865127 0.467479 0 0 -1
-0.273496 0.00456327 0.480805 0 0 1
0.39345 0.0562434 0.467479 0 0 -1
0.325587 0.0875636 0.467479 0 0 -1
-0.122237 -0.253416 0.467479 0 0 -1
0.328642 0.16274 0.467479 0 0 -1
-0.307498 -0.0816002 0.480805 0 0 1
-0.232908 0.00499885 0.366098 1 0 0
-0.334743 -0.218165 0.467479 0 0 -1
0.254831 -0.0821728 0.0190041 1 0 0
-0.314272 -0.00669065 0.467479 0 0 -1
-0.254831 -0.22105 0.00262006 -1 0 0
-0.00923773 -0.00325659 0.467479 0 0 -1
0.0428322 0.133581 0.467479 0 0 -1
-0.0970064 0.0360679 0.480805 0 0 1
-0.286672 0.00517571 0 0 0 -1
-0.381165 -0.0446821 0.480805 0 0 1
-0.234429 -0.0152167 0.349072 0 -1 0
-0.271093 0.00899124 0.0304494 0 0 1
-0.061462 -0.0180737 0.467479 0 0 -1
0.00661676 0.062619 0.480805 0 0 1
-0.235546 -0.202377 0.480805 0 0 1
0.27112 -0.23921 0.467479 0 0 -1
-0.26003 0.182696 0.467479 0 0 -1
0.405332 0.0881742 0.480805 0 0 1
-0.252141 0.0152167 0.155887 0 1 0
-0.342423 -0.0579952 0.480805 0 0 1
0.236363 0.108058 0.467479 0 0 -1
0.0957236 0.175692 0.480805 0 0 1
0.297548 0.00533712 0.467479 0 0 -1
-0.244763 0.122496 0.0304494 0 0 1
0.0522125 -0.227639 0.480805 0 0 1
0.0414601 -0.0325184 0.467479 0 0 -1
-0.127246 0.0123799 0.467479 0 0 -1
-0.309031 0.0152167 0.0221833 0 1 0
-0.237304 -0.24718 0.480805 0 0 1
-0.232908 0.207765 0.0121915 1 0 0
-0.24654 0.0808555 0.467479 0 0 -1
0.342156 -0.0152167 0.0273773 0 -1 0
0.253946 -0.0152167 0.209092 0 -1 0
0.148945 -0.142968 0.467479 0 0 -1
-0.233345 -0.0107557 0 0 0 -1
0.251229 -0.240027 0.0304494 0 0 1
0.155442 0.0504264 0.480805 0 0 1
0.0740125 -0.0617763 0.467479 0 0 -1
0.0950348 0.0400421 0.467479 0 0 -1
0.245758 -0.154377 0.467479 0 0 -1
0.120254 -0.115728 0.467479 0 0 -1
-0.314971 -0.00155099 0.44249 0.540157 -0.35442 0.763293
-0.209473 -0.259227 0.467479 0 0 -1
0.246262 0.0204891 0.246826 0.498133 -0.862623 -0.0880053
-0.250079 -0.0803877 0.118454 -0.958115 0.216831 -0.18708
0.121068 0.263888 0.480805 0 0 1
0.175072 -0.238259 0.480805 0 0 1
0.384196 -0.188255 0.467479 0 0 -1
0.228489 0.017777 0.480805 0 0 1
0.211283 0.0881643 0.480805 0 0 1
-0.228096 -0.0567291 0.480805 0 0 1
-0.215886 0.191168 0.480805 0 0 1
-0.254831 -0.0619079 0.0137522 -1 0 0
0.386797 -0.122769 0.467479 0 0 -1
0.0354141 0.22102 0.467479 0 0 -1
0.254831 0.0116604 0.0574169 1 0 0
-0.324581 -0.153744 0.480805 0 0 1
-0.0547796 0.0890502 0.467479 0 0 -1
0.386969 -0.00524908 0.480805 0 0 1
0.365387 0.00158857 0.0435614 -0.522654 0.356794 -0.774294
-0.250424 0.0469654 0.467479 0 0 -1
-0.357208 0.171364 0.467479 0 0 -1
-0.238686 -0.167668 0.0304494 0 0 1
0.172161 -0.144144 0.467479 0 0 -1
0.0832937 -0.186387 0.480805 0 0 1
0.190388 -0.190584 0.480805 0 0 1
-0.171322 0.229066 0.480805 0 0 1
-0.272333 -0.256784 0.480805 0 0 1
0.150394 -0.100464 0.480805 0 0 1
-0.232908 0.00793964 0.430125 1 0 0
0.276061 -0.00484644 0.169031 -0.885095 -0.300983 -0.354989
-0.032101 -0.149878 0.467479 0 0 -1
-0.232908 -0.0135244 0.219983 1 0 0
0.233761 0.140042 0.467479 0 0 -1
0.346731 -0.00840632 0.461047 -0.237441 -0.911665 0.335395
-0.24359 0.133569 0.467479 0 0 -1
-0.182619 -0.257199 0.467479 0 0 -1
-0.139942 0.111785 0.480805 0 0 1
-0.153926 0.259789 0.480805 0 0 1
0.120467 -0.0225377 0.480805 0 0 1
0.172028 0.216818 0.480805 0 0 1
0.232908 0.0132535 0.33643 -1 0 0
0.250863 0.186188 0.452133 0.95844 0.00870234 -0.285163
0.383206 0.0822316 0.467479 0 0 -1
0.160586 -0.285178 0.480805 0 0 1
0.0962599 0.116785 0.480805 0 0 1
-0.249494 0.250498 0.467479 0 0 -1
0.0416463 -0.0951692 0.467479 0 0 -1
0.141882 0.169852 0.467479 0 0 -1
-0.127381 0.160631 0.480805 0 0 1
0.353636 -0.160462 0.467479 0 0 -1
0.254831 0.00473574 0.459257 1 0 0
0.0469453 0.179453 0.467479 0 0 -1
-0.348762 0.101055 0.480805 0 0 1
-0.218059 -0.152759 0.480805 0 0 1
-0.385562 -0.146968 0.480805 0 0 1
-0.400856 0.0106799 0 0 0 -1
-0.331913 0.0157736 0.480805 0 0 1
0.254831 -0.210299 0.00861498 1 0 0
0.251439 -0.0668275 0.153105 0.958508 -0.249008 0.138772
-0.329522 -0.0847923 0.467479 0 0 -1
-0.244451 0.112145 0.079665 -0.498413 -0.528579 -0.687159
0.100792 -0.257556 0.467479 0 0 -1
0.209009 -0.1024 0.467479 0 0 -1
-0.254831 -0.188916 0.0207588 -1 0 0
-0.128312 -0.189636 0.480805 0 0 1
-0.238743 0.168488 0.0304494 0 0 1
0.244122 -0.0535284 0.202133 0.498112 -0.827033 0.260579
0.181357 -0.00438932 0.480805 0 0 1
-0.232908 0.12 0.00701544 1 0 0
-0.177958 -0.194243 0.480805 0 0 1
-0.435312 0.0492426 0.469401 -0.998022 0.0628609 0
0.232908 -0.00489469 0.278091 -1 0 0
0.380524 -0.154398 0.480805 0 0 1
0.364889 0.0218431 0.480805 0 0 1
0.320787 -0.00599046 0.0864517 -0.687581 -0.336237 -0.643566
0.272216 -0.00254221 0.300703 0.952904 -0.285742 -0.101613
0.254831 -0.000353532 0.0308837 1 0 0
0.301995 -0.0233652 0.480805 0 0 1
0.29843 -0.192085 0.467479 0 0 -1
0.406091 0.00174725 0.480805 0 0 1
-0.0601793 0.260669 0.467479 0 0 -1
0.223296 -0.188856 0.480805 0 0 1
-0.237721 0.0512256 0.19503 0.958139 0.273068 0.0860448
-0.192824 0.171987 0.480805 0 0 1
-0.112259 -0.285425 0.470681 0 -1 0
-0.268372 -0.00999566 0.348426 0.449196 -0.878105 0.164783
-0.254831 0.0047812 0.0933082 -1 0 0
-0.152298 0.0896032 0.467479 0 0 -1
-0.146184 0.0439765 0.480805 0 0 1
-0.342499 0.0669174 0.467479 0 0 -1
-0.0292502 -0.266122 0.480805 0 0 1
-0.0509612 -0.220025 0.467479 0 0 -1
-0.0493887 -0.0938612 0.467479 0 0 -1
-0.254831 -0.0110881 0.254839 -1 0 0
-0.25259 -0.0152167 0.193607 0 -1 0
0.343417 0.231695 0.467479 0 0 -1
0.312137 0.21836 0.480805 0 0 1
0.00728906 -0.142747 0.467479 0 0 -1
-0.0238767 0.104723 0.480805 0 0 1
0.369255 0.189871 0.480805 0 0 1
0.230952 -0.237407 0.480805 0 0 1
0.250598 -0.188398 0.0515331 0.958472 -0.124597 0.256529
-0.254661 -0.0622753 0.467479 0 0 -1
-0.168924 -0.0331541 0.467479 0 0 -1
-0.106966 0.0579297 0.467479 0 0 -1
-0.299125 0.113283 0.480805 0 0 1
-0.361703 -0.00901813 0.051571 0.228758 -0.912552 -0.338995
-0.0775562 0.130211 0.480805 0 0 1
0.386941 -0.0608477 0.480805 0 0 1
0.251896 -0.0152167 0.169574 0 -1 0
-0.0243458 0.0242362 0.467479 0 0 -1
-0.313645 0.038664 0.480805 0 0 1
0.23543 0.0152167 0.299119 0 1 0
0.254831 -0.157357 0.00244151 1 0 0
0.368415 -0.0105383 0.453706 0.0161756 -0.924167 -0.381645
-0.100478 -0.188359 0.480805 0 0 1
0.15584 -0.201071 0.467479 0 0 -1
-0.232908 0.0576578 0.00531337 1 0 0
0.144657 0.035959 0.467479 0 0 -1
0.256216 -0.0791935 0.480805 0 0 1
0.332357 -0.128035 0.467479 0 0 -1
0.364179 -0.219447 0.470417 0.69722 -0.716857 0
0.232908 -0.00967672 0.395139 -1 0 0
0.0910624 -0.0436637 0.480805 0 0 1
-0.363857 0.026186 0.480805 0 0 1
0.0743722 -0.261249 0.480805 0 0 1
-0.358127 -0.225337 0.475987 -0.697379 -0.716703 0
-0.197119 0.0725318 0.467479 0 0 -1
0.079674 -0.0916316 0.467479 0 0 -1
0.249811 0.178146 0.0594555 0.958471 0.124633 0.256514
0.00895249 -0.107574 0.467479 0 0 -1
0.245066 0.0990677 0.415665 0.499436 0.612608 -0.612597
0.27993 -0.109744 0.467479 0 0 -1
0.0345326 0.0474603 0.480805 0 0 1
0.157164 -0.258123 0.467479 0 0 -1
-0.0182347 -0.201931 0.467479 0 0 -1
-0.356827 0.00155091 0.467479 0 0 -1
-0.199948 -0.094399 0.467479 0 0 -1
0.0224659 0.254871 0.480805 0 0 1
0.279682 0.0984342 0.480805 0 0 1
0.232908 0.103059 0.0257665 -1 0 0
0.0742854 0.0218603 0.467479 0 0 -1
0.431234 -0.0705947 0.479708 0.98188 -0.189503 0
0.194136 0.21175 0.480805 0 0 1
0.028479 -0.0588247 0.480805 0 0 1
0.119153 -0.191731 0.467479 0 0 -1
-0.107687 -0.0127202 0.467479 0 0 -1
-0.259323 -0.11109 0.480805 0 0 1
0.348318 0.165469 0.480805 0 0 1
-0.0201007 -0.226868 0.480805 0 0 1
0.232908 -0.0703612 0.0145142 -1 0 0
0.208614 -0.134266 0.467479 0 0 -1
-0.256495 0.149127 0.480805 0 0 1
0.0171083 0.00326777 0.467479 0 0 -1
0.316109 -0.245964 0.480805 0 0 1
-0.402183 0.115084 0.480805 0 0 1
0.254831 0.00422172 0.107394 1 0 0
-0.250151 0.0206288 0.280348 -0.958188 -0.284667 -0.029001
0.332728 -0.0463999 0.480805 0 0 1
0.156847 0.0843565 0.467479 0 0 -1
-0.289332 -0.176832 0.467479 0 0 -1
0.246251 0.108289 0.111801 0.49903 0.656209 0.566002
-0.169908 0.00331742 0.467479 0 0 -1
0.297816 -0.00906454 0.1264 -0.387485 -0.889925 -0.2406
-0.236598 -0.0102091 0.480805 0 0 1
-0.200724 0.285425 0.474885 0 1 0
0.0167578 0.140578 0.480805 0 0 1
-0.0950083 0.273755 0.480805 0 0 1
0.243521 -0.041288 0.252337 -0.498141 -0.862625 0.087939
0.217122 0.28118 0.480805 0 0 1
-0.335223 0.0045942 0.0943129 -0.687784 0.335335 0.64382
-0.364156 0.209844 0.480805 0 0 1
0.0889169 -0.0762534 0.480805 0 0 1
0.400342 0.151473 0.480805 0 0 1
-0.232908 -0.218921 0.0283986 1 0 0
-0.317485 0.108159 0.467479 0 0 -1
-0.297084 -0.00178828 0.390583 -0.768065 -0.323309 -0.552764
0.127151 -0.0537438 0.480805 0 0 1
-0.253429 0.232309 0.0304494 0 0 1
0.154048 0.26325 0.467479 0 0 -1
-0.245782 0.116295 0.480805 0 0 1
0.290755 0.0152167 0.0278421 0 1 0
-0.0441335 -0.131928 0.480805 0 0 1
-0.218082 0.140654 0.480805 0 0 1
-0.108878 -0.147255 0.480805 0 0 1
0.16474 0.0131098 0.467479 0 0 -1
-0.240575 -0.0383687 0.299687 0.499354 -0.857076 -0.126752
0.332386 0.0632674 0.480805 0 0 1
-0.291539 0.090342 0.467479 0 0 -1
0.254831 0.233955 0.00283958 1 0 0
0.232908 0.185682 0.00361221 -1 0 0
0.31802 -0.0857137 0.467479 0 0 -1
0.124956 0.000128984 0.467479 0 0 -1
0.0558334 -0.182969 0.480805 0 0 1
-0.218713 -0.184542 0.480805 0 0 1
0.232908 -0.137192 0.00628062 -1 0 0
-0.107393 0.153263 0.467479 0 0 -1
-0.189724 0.0465943 0.480805 0 0 1
-0.250541 -0.143168 0.447208 -0.958061 -0.130082 -0.255339
-0.326668 -0.135675 0.467479 0 0 -1
0.239194 0.226266 0.480805 0 0 1
0.254831 -0.00788397 0.333389 1 0 0
0.302727 -0.133945 0.467479 0 0 -1
0.294246 0.270837 0.480805 0 0 1
-0.393308 -0.122113 0.467479 0 0 -1
-0.239175 -0.135067 0.065016 0.499346 0.528277 -0.686715
-0.414206 -0.00122249 0.467479 0 0 -1
0.0760401 0.0642629 0.467479 0 0 -1
-0.237627 -0.0464661 0.171625 0.958069 0.250313 -0.139451
-0.253836 0.0152167 0.350851 0 1 0
-0.23749 0.0848973 0.114108 0.95805 -0.216995 -0.187222
-0.0650155 -0.183148 0.480805 0 0 1
-0.168244 -0.274648 0.467479 0 0 -1
0.276444 -0.0779513 0.467479 0 0 -1
-0.27201 0.204256 0.480805 0 0 1
0.142462 0.12683 0.467479 0 0 -1
0.249018 0.0152167 0.201527 0 1 0
-0.306068 0.00208844 0.137967 -0.805711 0.316802 0.500466
0.295939 -0.0152167 0.0206971 0 -1 0
0.251941 -0.0458216 0.365041 0.958375 0.254401 0.129605
-0.0574245 -0.245164 0.467479 0 0 -1
0.11089 0.281811 0.480805 0 0 1
-0.102448 0.193748 0.480805 0 0 1
0.238512 0.0459635 0.480805 0 0 1
-0.398334 -0.0152167 0.00960545 0 -1 0
0.0910141 0.203694 0.480805 0 0 1
-0.316094 -0.22879 0.480805 0 0 1
-0.119885 -0.235471 0.480805 0 0 1
-0.0973275 -0.0600735 0.467479 0 0 -1
-0.339644 -0.113597 0.480805 0 0 1
-0.243486 -0.091184 0.467479 0 0 -1
-0.242885 0.0688281 0.415948 0.500052 -0.612356 0.612347
-0.0116543 0.194041 0.467479 0 0 -1
0.213244 -0.0430108 0.480805 0 0 1
-0.254831 0.01149 0.242042 -1 0 0
-0.153184 0.121919 0.467479 0 0 -1
-0.0700921 -0.26649 0.480805 0 0 1
-0.305278 -0.189404 0.480805 0 0 1
-0.192813 0.0298941 0.467479 0 0 -1
0.318179 0.102778 0.480805 0 0 1
0.138288 -0.128921 0.480805 0 0 1
-0.253711 -0.187336 0.480805 0 0 1
-0.159628 0.179503 0.467479 0 0 -1
-0.236535 0.11848 0.44378 0.958016 -0.13015 0.255473
0.236869 0.204171 0.0304423 -0.958313 -0.282752 -0.0410843
-0.383301 0.168999 0.480805 0 0 1
0.179506 0.160443 0.480805 0 0 1
-0.236133 0.0541395 0.383908 0.958017 -0.255463 0.130158
-0.254831 -0.0138919 0.0529161 -1 0 0
0.00439432 -0.253669 0.480805 0 0 1
-0.236232 0.175729 0.0543202 0.958185 0.125017 0.257396
-0.330851 -0.197237 0.480805 0 0 1
-0.241749 -0.0810692 0.144084 0.499002 -0.75696 0.42191
0.304542 0.00100386 0.400491 0.767524 0.324411 -0.552869
0.244698 -0.0152167 0.308262 0 -1 0
0.0447413 0.0654311 0.467479 0 0 -1
-0.250845 0.197936 0.452408 -0.958147 0.00869682 -0.286144
-0.232908 0.0849444 0.00316569 1 0 0
-0.189434 0.248115 0.480805 0 0 1
0.241089 -0.127457 0.467479 0 0 -1
-0.0153635 -0.0977147 0.480805 0 0 1
-0.394979 0.0502148 0.480805 0 0 1
0.239319 0.0399662 0.241495 -0.498143 0.862618 0.087995
-0.00563545 -0.0689184 0.467479 0 0 -1
0.238247 0.201003 0.455438 0.000341323 0.999888 0.0149807
-0.325898 -0.0347966 0.480805 0 0 1
-0.00199626 0.156418 0.480805 0 0 1
-0.267276 -0.0152167 0.000597803 0 -1 0
0.316478 0.231498 0.467479 0 0 -1
-0.138534 -0.15162 0.480805 0 0 1
0.115358 0.15598 0.467479 0 0 -1
-0.073551 -0.0430274 0.467479 0 0 -1
0.254831 -0.00823193 0.381846 1 0 0
0.253231 -0.0152167 0.067782 0 -1 0
0.173539 0.257838 0.467479 0 0 -1
0.232908 0.00683676 0.154764 -1 0 0
0.0762361 0.189465 0.467479 0 0 -1
0.0693624 -0.00467604 0.480805 0 0 1
0.232908 0.010334 0.0148092 -1 0 0
-0.251505 0.0152167 0.319385 0 1 0
0.218343 0.150591 0.480805 0 0 1
-0.210592 0.214092 0.467479 0 0 -1
0.246576 -0.119004 0.0304494 0 0 1
-0.242463 -0.0152167 0.0886551 0 -1 0
0.418039 -0.0142322 0.467479 0 0 -1
-0.234403 0.0990796 0.480805 0 0 1
0.385372 0.126038 0.467479 0 0 -1
0.273995 0.195805 0.480805 0 0 1
0.243163 0.155808 0.0740767 -0.498254 0.37882 0.779896
-0.0934408 -0.249176 0.467479 0 0 -1
-0.350729 0.000238359 0.480805 0 0 1
0.0473317 -0.26823 0.480805 0 0 1
-0.0208737 -0.0201353 0.480805 0 0 1
0.234023 -0.00293713 0.46809 0 0 1
0.275034 -0.0333475 0.480805 0 0 1
0.227222 0.124445 0.480805 0 0 1
-0.00421006 0.0380242 0.480805 0 0 1
0.273609 -0.206189 0.467479 0 0 -1
0.380044 -0.0118938 0 0 0 -1
0.271926 -0.159731 0.467479 0 0 -1
-0.351578 -0.166009 0.480805 0 0 1
-0.00438376 -0.0214393 0.480805 0 0 1
0.24085 -0.0431841 0.480805 0 0 1
0.33182 -0.00391117 0.467479 0 0 -1
-0.255676 0.0690259 0.480805 0 0 1
0.115589 0.106118 0.467479 0 0 -1
-0.142699 -0.0380099 0.480805 0 0 1
0.307793 -0.0576165 0.480805 0 0 1
-0.0127083 0.255151 0.480805 0 0 1
-0.0456732 0.189408 0.467479 0 0 -1
-0.242238 -0.131122 0 0 0 -1
0.0335009 -0.14025 0.467479 0 0 -1
0.307505 0.200297 0.467479 0 0 -1
0.102231 0.242454 0.480805 0 0 1
0.243586 0.10763 0.082913 -0.498413 -0.528579 -0.687159
-0.0334738 -0.0641485 0.480805 0 0 1
0.0866077 -0.00278047 0.467479 0 0 -1
-0.190416 0.109228 0.467479 0 0 -1
0.246878 0.0647961 0.132432 0.497635 -0.757733 -0.422137
-0.0765715 -0.00413752 0.480805 0 0 1
0.374997 0.00217682 0.0607396 0.522698 0.355616 0.774806
-0.232908 -0.00610554 0.450811 1 0 0
-0.250142 -0.176048 0.449387 -0.958082 -0.00870341 -0.286361
-0.266111 -0.0365356 0.480805 0 0 1
0.0665869 -0.247407 0.467479 0 0 -1
0.232908 -0.21543 0.0104569 -1 0 0
0.134645 0.0578256 0.467479 0 0 -1
0.219527 -0.0252579 0.467479 0 0 -1
0.318938 -0.220176 0.467479 0 0 -1
0.254831 0.184695 0.02766 1 0 0
-0.3977 -0.103648 0.480805 0 0 1
-0.238828 0.21133 0.0438481 0.499718 0.671079 0.547664
-0.254831 -0.099652 0.0155676 -1 0 0
0.216557 -0.26071 0.467479 0 0 -1
-0.175976 -0.2122 0.467479 0 0 -1
0.254831 0.0243615 0.0215005 1 0 0
0.251153 -0.0152167 0.263137 0 -1 0
0.398893 -0.0866399 0.480805 0 0 1
-0.134036 -0.0530352 0.467479 0 0 -1
-0.290151 -0.0685304 0.467479 0 0 -1
0.236978 -0.0688459 0.135859 -0.958493 0.249052 -0.138797
0.348794 -0.0678717 0.467479 0 0 -1
-0.163363 -0.192366 0.467479 0 0 -1
0.0383951 -0.211296 0.467479 0 0 -1
0.353986 -0.0332815 0.467479 0 0 -1
-0.0398142 0.0722624 0.467479 0 0 -1
0.232931 0.20312 0.480805 0 0 1
0.251125 0.218132 0.0304494 0 0 1
0.237317 -0.121398 0.435643 -0.95844 -0.129516 -0.254202
-0.00916495 -0.0451437 0.480805 0 0 1
0.251584 -0.0329383 0.316601 0.958309 -0.282663 -0.041791
-0.250414 -0.0373765 0.359793 -0.958082 0.25527 0.130059
-0.020856 0.228307 0.467479 0 0 -1
0.232078 -0.278801 0.480805 0 0 1
0.253888 -0.19611 0.480805 0 0 1
0.130201 -0.283592 0.467479 0 0 -1
0.0777829 -0.223149 0.480805 0 0 1
-0.254831 -0.00427117 0.367276 -1 0 0
-0.259894 -0.167473 0.480805 0 0 1
-0.117878 0.258572 0.467479 0 0 -1
0.135646 0.196633 0.480805 0 0 1
-0.138652 -0.236135 0.467479 0 0 -1
-0.341594 -0.0164166 0.467479 0 0 -1
-0.222926 -0.285425 0.472758 0 -1 0
0.0459252 -0.248039 0.467479 0 0 -1
0.317728 -0.00510638 0.421203 0.767659 -0.324378 -0.552701
0.376974 -0.137429 0.480805 0 0 1
0.0676309 0.13559 0.480805 0 0 1
-0.129557 -0.208021 0.467479 0 0 -1
0.271349 -0.00251291 0.274565 0.955985 -0.284941 0.0700077
-0.12437 0.0295959 0.480805 0 0 1
0.314841 0.142321 0.467479 0 0 -1
-0.393298 0.00235792 0.480805 0 0 1
0.00928225 0.0907708 0.480805 0 0 1
0.138166 -0.0842291 0.467479 0 0 -1
0.240579 -0.206338 0.467479 0 0 -1
0.141096 -0.0179723 0.467479 0 0 -1
-0.0612268 0.154641 0.480805 0 0 1
-0.215796 -0.21762 0.480805 0 0 1
-0.251865 0.0314105 0.246157 -0.958097 0.28497 0.0290319
-0.158294 0.139563 0.480805 0 0 1
-0.102986 -0.15986 0.467479 0 0 -1
0.226754 0.0688702 0.480805 0 0 1
-0.420431 -0.0827999 0.480805 0 0 1
0.346693 0.198898 0.467479 0 0 -1
-0.326484 0.17594 0.467479 0 0 -1
0.275791 0.0100518 0.368348 -0.448632 0.878416 0.164665
0.131063 0.141561 0.480805 0 0 1
0.00703801 -0.186229 0.467479 0 0 -1
-0.26183 -0.207641 0.467479 0 0 -1
0.232908 -0.0112864 0.11275 -1 0 0
0.345152 -0.179153 0.467479 0 0 -1
0.177703 0.129277 0.480805 0 0 1
0.232908 0.0123543 0.114304 -1 0 0
-0.232908 -0.0130509 0.128295 1 0 0
-0.398388 0.00792574 0.0304494 0 0 1
0.347465 0.100354 0.480805 0 0 1
0.258617 0.0907147 0.480805 0 0 1
0.328042 -0.146258 0.480805 0 0 1
0.236399 0.135575 0.446323 -0.958418 0.129549 -0.254267
-0.00480939 -0.260587 0.467479 0 0 -1
-0.272838 -0.27951 0.473541 -0.34887 -0.937171 0
0.257873 -0.12318 0.480805 0 0 1
0.402219 -0.0117503 0.0304494 0 0 1
0.254831 0.128362 0.0024584 1 0 0
-0.311262 -0.0152167 0.0231526 0 -1 0
-0.327112 0.221918 0.480805 0 0 1
-0.254831 0.169278 0.0103177 -1 0 0
-0.330706 0.249315 0.480805 0 0 1
0.232908 0.221478 0.00131634 -1 0 0
-0.145111 0.28412 0.467479 0 0 -1
-0.191692 0.00720549 0.480805 0 0 1
0.0793805 -0.110083 0.480805 0 0 1
-0.232908 -0.0855792 0.00707047 1 0 0
0.167934 -0.0580346 0.480805 0 0 1
0.235652 -0.0277513 0.274413 -0.95847 0.283725 -0.028905
0.275846 -0.00271088 0.335236 0.952682 -0.286534 -0.101462
-0.249901 -0.0486492 0.385693 -0.958082 0.25527 0.130059
0.291494 -0.0638997 0.467479 0 0 -1
0.19239 0.0204344 0.480805 0 0 1
0.247943 -0.107871 0 0 0 -1
0.122745 0.0307384 0.480805 0 0 1
-0.267965 -0.0106629 0.236438 -0.495704 -0.867725 0.0364784
0.107531 0.188365 0.467479 0 0 -1
-0.10159 -0.120737 0.467479 0 0 -1
-0.232908 0.00913686 0.0763977 1 0 0
0.134034 -0.249604 0.467479 0 0 -1
0.244303 -0.0335774 0.190813 0.499142 0.826536 -0.260183
0.245288 0.151199 0.480805 0 0 1
-0.21988 -0.166776 0.467479 0 0 -1
-0.357607 0.00612953 0.0706559 -0.522942 0.355599 0.774649
-0.081652 -0.285425 0.479209 0 -1 0
-0.246182 0.0713264 0.161331 -0.498206 0.757353 0.422145
-0.177341 -0.153779 0.480805 0 0 1
-0.304658 0.0718969 0.467479 0 0 -1
0.295497 0.246267 0.480805 0 0 1
0.0780697 0.231235 0.480805 0 0 1
-0.157999 -0.10365 0.467479 0 0 -1
-0.319498 -0.0108191 0.0979908 0.386887 -0.890286 -0.240229
-0.0987832 0.0940268 0.480805 0 0 1
-0.247914 -0.0756149 0.420234 -0.499302 0.612658 0.612657
0.121098 -0.140159 0.467479 0 0 -1
-0.364134 0.0487289 0.480805 0 0 1
0.392007 0.0152167 0.0240996 0 1 0
-0.242939 0.00323772 0 0 0 -1
0.354231 -0.0064055 0 0 0 -1
-0.0678702 -0.126217 0.467479 0 0 -1
-0.20113 -0.0791506 0.480805 0 0 1
-0.0813456 0.285425 0.469705 0 1 0
0.134836 0.0970352 0.467479 0 0 -1
-0.232908 -0.105773 0.0190582 1 0 0
-0.0902876 -0.106456 0.480805 0 0 1
0.266897 0.279708 0.480805 0 0 1
0.00984706 0.233032 0.467479 0 0 -1
-0.0904 0.162104 0.480805 0 0 1
0.240862 -0.0262158 0.219097 -0.498112 0.827101 -0.260361
-0.246906 -0.0152167 0.316156 0 -1 0
-0.201341 -0.162989 0.480805 0 0 1
0.0652892 -0.150444 0.480805 0 0 1
-0.148416 -0.0773339 0.467479 0 0 -1
-0.276188 -0.0985636 0.467479 0 0 -1
0.34793 -0.205965 0.480805 0 0 1
-0.249774 0.0412853 0.331467 -0.958038 0.283558 -0.041935
-0.225001 0.0804045 0.480805 0 0 1
0.247356 -0.0259512 0.345051 0.499926 0.856731 0.12683
0.174535 -0.0228295 0.480805 0 0 1
-0.0775342 0.21217 0.467479 0 0 -1
-0.290689 -0.003692 0.467479 0 0 -1
-0.243243 -0.143598 0.480805 0 0 1
0.399306 -0.129962 0.480805 0 0 1
-0.254831 0.0031609 0.180187 -1 0 0
-0.176353 0.154962 0.480805 0 0 1
-0.0156212 0.277576 0.467479 0 0 -1
-0.351413 0.0152167 0.0172 0 1 0
0.0171147 0.0762639 0.467479 0 0 -1
0.232908 0.143837 0.0298435 -1 0 0
-0.232908 0.15164 0.00180884 1 0 0
-0.0359342 -0.0193503 0.467479 0 0 -1
-0.249611 -0.190072 0 0 0 -1
-0.425369 0.0843761 0.480805 0 0 1
0.258569 0.0034239 0.480805 0 0 1
-0.125245 0.133337 0.480805 0 0 1
-0.232908 0.00995285 0.168381 1 0 0
0.318705 -0.0152167 0.0271148 0 -1 0
-0.320251 0.152997 0.467479 0 0 -1
-0.317098 -0.242397 0.467479 0 0 -1
-0.254831 0.0138814 0.200604 -1 0 0
-0.0399262 -0.171115 0.480805 0 0 1
0.163017 -0.180042 0.480805 0 0 1
0.214487 0.242787 0.480805 0 0 1
0.244752 0.0628732 0.467479 0 0 -1
-0.00396955 0.180836 0.480805 0 0 1
0.232908 0.0328524 0.0017855 -1 0 0
0.0918941 -0.0184988 0.480805 0 0 1
-0.419671 0.0483269 0.480805 0 0 1
-0.240804 0.0371277 0.277696 0.499218 0.862003 0.0879323
-0.236257 0.0899713 0.418855 0.958022 0.202725 -0.202722
-0.254831 0.185222 0.00390877 -1 0 0
0.199566 0.269381 0.467479 0 0 -1
0.232908 -0.00336442 0.0714406 -1 0 0
0.254831 0.177101 0.0113031 1 0 0
-0.145919 -0.00185692 0.480805 0 0 1
0.397778 0.111851 0.480805 0 0 1
0.291622 0.0946807 0.467479 0 0 -1
0.24055 -0.160285 0.445923 -0.498754 -0.0264918 -0.866339
-0.260814 0.229995 0.480805 0 0 1
0.314237 0.171203 0.480805 0 0 1
-0.254247 0.0246912 0.0304494 0 0 1
-0.0709106 0.0586208 0.467479 0 0 -1
0.247726 0.124294 0.480805 0 0 1
-0.356296 -0.19708 0.467479 0 0 -1
0.232908 0.00838928 0.195319 -1 0 0
-0.254831 0.0883536 0.0148825 -1 0 0
0.246986 -0.0152167 0.0191584 0 -1 0
0.365101 -0.13045 0.467479 0 0 -1
0.0736781 -0.135508 0.480805 0 0 1
-0.35337 0.0771071 0.480805 0 0 1
0.254831 -0.199401 0.0275082 1 0 0
0.254831 0.0077686 0.221331 1 0 0
-0.191638 -0.0380528 0.480805 0 0 1
-0.0145736 0.0617703 0.467479 0 0 -1
0.270406 0.0508295 0.480805 0 0 1
-0.24107 -0.0346771 0.191847 0.499851 0.826146 -0.26006
0.311416 -0.184009 0.480805 0 0 1
-0.342479 -0.153632 0.467479 0 0 -1
0.417037 0.0976626 0.467479 0 0 -1
0.254831 0.00045723 0.152706 1 0 0
0.397727 -0.168807 0.478056 0.892839 -0.450375 0
0.0170519 -0.173446 0.480805 0 0 1
0.254831 -0.0147513 0.462815 1 0 0
0.24546 0.0379713 0.37173 0.499108 -0.772059 0.393467
-0.12072 0.225135 0.467479 0 0 -1
-0.250211 -0.114448 0.431335 -0.958082 -0.13006 -0.25527
-0.23765 -0.0228373 0.256708 0.958049 0.285126 -0.0290887
-0.254831 -0.150684 0.0256701 -1 0 0
0.276403 0.138178 0.467479 0 0 -1
0.349012 -0.113729 0.467479 0 0 -1
-0.254831 -0.0123106 0.136282 -1 0 0
0.359152 0.0410664 0.480805 0 0 1
0.0525248 -0.0578412 0.467479 0 0 -1
0.354659 0.0551317 0.467479 0 0 -1
0.232908 -0.000146997 0.415461 -1 0 0
-0.435877 0.0296457 0.467479 0 0 -1
0.254831 0.000968512 0.246834 1 0 0
0.252791 0.0990908 0 0 0 -1
0.4275 0.0550061 0.480805 0 0 1
-0.403 -0.05311 0.480805 0 0 1
0.424096 -0.0549291 0.467479 0 0 -1
0.244185 0.017044 0.268814 0.498505 -0.862405 -0.0880359
0.0950008 0.139076 0.480805 0 0 1
-0.213352 0.267961 0.480805 0 0 1
0.232908 -0.00668308 0.211722 -1 0 0
-0.0948802 0.128785 0.467479 0 0 -1
-0.254831 -0.000356589 0.287096 -1 0 0
-0.212965 -0.0109899 0.467479 0 0 -1
-0.248434 -0.0938912 0.437784 -0.499123 0.393512 0.772026
0.277838 0.0136868 0.480805 0 0 1
-0.124784 -0.106751 0.467479 0 0 -1
-0.232908 -0.217986 0.00176363 1 0 0
0.238729 -0.115698 0.0802314 -0.498412 0.528605 -0.687141
-0.177586 -0.0625026 0.480805 0 0 1
-0.254831 -0.238595 0.0160923 -1 0 0
-0.306945 -0.0101322 0.423757 0.36321 -0.894285 0.261405
-0.232908 0.0135437 0.295966 1 0 0
0.232908 -0.159736 0.00148651 -1 0 0
-0.159635 -0.148672 0.467479 0 0 -1
-0.434929 -0.0104735 0.480805 0 0 1
-0.296716 -0.0144518 0 0 0 -1
0.00338128 0.0235979 0.467479 0 0 -1
-0.00422792 -0.198439 0.480805 0 0 1
0.0629732 0.261385 0.467479 0 0 -1
-0.266872 -0.00840234 0.208919 0.476982 -0.872245 -0.108058
-0.07565 0.0307351 0.480805 0 0 1
0.232908 -0.0304396 0.0186738 -1 0 0
-0.0348211 -0.107727 0.480805 0 0 1
-0.241182 -0.0152167 0.413768 0 -1 0
-0.379927 0.135005 0.480805 0 0 1
0.188734 -0.0379102 0.480805 0 0 1
0.239811 -0.0951795 0.438775 -0.499123 0.393512 0.772026
0.191181 0.0905384 0.467479 0 0 -1
-0.0600372 0.233735 0.467479 0 0 -1
-0.289031 0.200932 0.467479 0 0 -1
0.197103 -0.223237 0.480805 0 0 1
0.162644 -0.219733 0.480805 0 0 1
-0.0770764 0.0916543 0.480805 0 0 1
0.344107 0.00460202 0.084813 0.687665 0.335241 0.643996
0.254831 0.069825 0.0135973 1 0 0
-0.0592005 -0.0807658 0.480805 0 0 1
-0.290383 -0.245763 0.480805 0 0 1
0.213073 0.135601 0.467479 0 0 -1
-0.277773 0.146296 0.480805 0 0 1
-0.239942 -0.0152167 0.175896 0 -1 0
-0.28132 0.109151 0.467479 0 0 -1
-0.239623 0.160549 0.0695057 0.498962 0.378619 0.779541
-0.236979 0.0275861 0.232263 0.958047 -0.285134 -0.0290486
-0.23832 0.0377816 0.36633 0.500512 -0.771379 0.393016
-0.371857 0.00950278 0.451344 -0.0161258 0.924064 -0.381898
0.0367206 0.148924 0.480805 0 0 1
-0.236938 -0.268529 0.467479 0 0 -1
0.285701 -0.0220402 0.467479 0 0 -1
0.254831 -0.0118005 0.293104 1 0 0
-0.0984374 -0.078169 0.480805 0 0 1
0.254733 -0.168305 0.480805 0 0 1
0.24766 0.0241288 0.331524 0.499914 -0.856762 0.126668
0.174323 0.0918155 0.480805 0 0 1
0.302654 -0.0143636 0 0 0 -1
0.365239 0.00403058 0.465445 -0.0390943 0.381014 0.923742
0.291118 0.161031 0.480805 0 0 1
-0.236174 0.0627074 0.0304494 0 0 1
-0.357853 -0.0152167 0.014541 0 -1 0
0.254831 -0.235199 0.0042208 1 0 0
0.203968 0.198166 0.467479 0 0 -1
0.0830196 -0.245168 0.480805 0 0 1
0.365233 0.032386 0.467479 0 0 -1
0.143367 -0.188174 0.480805 0 0 1
0.338431 0.114602 0.467479 0 0 -1
0.151299 -0.0564928 0.467479 0 0 -1
0.360923 0.129304 0.467479 0 0 -1
0.0493122 0.096929 0.467479 0 0 -1
0.169725 0.238794 0.480805 0 0 1
-0.0839046 -0.159821 0.467479 0 0 -1
-0.340436 -0.00545284 0 0 0 -1
-0.0427586 0.265877 0.480805 0 0 1
-0.306223 -0.140387 0.467479 0 0 -1
0.36513 -0.19782 0.467479 0 0 -1
0.204174 0.0644461 0.467479 0 0 -1
-0.212364 -0.0438856 0.467479 0 0 -1
0.351732 0.00873856 0.448646 0.0161857 0.924068 -0.381884
0.137498 -0.0345126 0.480805 0 0 1
-0.32712 0.0483421 0.467479 0 0 -1
0.330893 0.212738 0.480805 0 0 1
-0.332799 0.0855376 0.467479 0 0 -1
0.2069 -0.173652 0.467479 0 0 -1
-0.388519 -0.0156741 0.467479 0 0 -1
0.254812 -0.0152167 0.115234 0 -1 0
0.0496304 -0.170488 0.467479 0 0 -1
-0.344769 -0.0789304 0.480805 0 0 1
0.360126 0.156263 0.467479 0 0 -1
0.0494354 -0.110019 0.480805 0 0 1
0.374643 -0.0499527 0.467479 0 0 -1
0.412084 0.0462401 0.467479 0 0 -1
-0.37533 0.0121768 0 0 0 -1
-0.31091 0.00394777 0 0 0 -1
-0.239842 0.188025 0.467479 0 0 -1
-0.241443 0.271067 0.480805 0 0 1
-0.274041 -0.141562 0.480805 0 0 1
0.416849 -0.0321224 0.480805 0 0 1
-0.364541 -0.143335 0.480805 0 0 1
-0.27503 -0.0105282 0.190068 0.476982 -0.872245 -0.108058
-0.237264 -0.22773 0.467479 0 0 -1
-0.236684 -0.0289953 0 0 0 -1
-0.41786 0.00970996 0.00958627 -1 0 0
-0.305728 0.177502 0.467479 0 0 -1
0.0150585 -0.0650683 0.467479 0 0 -1
-0.19144 0.268056 0.467479 0 0 -1
0.381082 -0.010443 0.0423227 -0.228941 -0.912413 -0.339246
0.254831 -0.030668 0.0037828 1 0 0
0.248745 0.0590043 0.402945 0.499302 -0.612658 0.612657
0.293902 0.0211638 0.480805 0 0 1
-0.233762 -0.193164 0.0304494 0 0 1
0.088239 -0.206628 0.467479 0 0 -1
-0.254831 -0.205469 0.028048 -1 0 0
-0.131696 -0.270147 0.480805 0 0 1
0.280924 0.122717 0.480805 0 0 1
-0.200489 0.186135 0.467479 0 0 -1
0.230235 0.239914 0.467479 0 0 -1
-0.254027 -0.00466427 0.480805 0 0 1
-0.114764 -0.0208257 0.480805 0 0 1
0.175492 -0.107273 0.467479 0 0 -1
0.273031 -0.00650474 0.235404 0.955252 -0.287301 0.0703665
-0.388 -0.0108853 0.04206 -0.175039 -0.917273 0.357732
-0.307289 0.244333 0.480805 0 0 1
-0.239102 -0.0152167 0.0201479 0 -1 0
-0.218921 0.0666211 0.467479 0 0 -1
-0.232908 0.0372182 0.00186419 1 0 0
-0.233887 0.201443 0.480805 0 0 1
-0.0397099 0.103858 0.467479 0 0 -1
-0.235547 -0.183316 0.467479 0 0 -1
0.254831 -0.0632972 0.0275189 1 0 0
0.250541 0.0561568 0.17845 0.95848 0.249089 0.138818
0.259662 -0.146772 0.480805 0 0 1
0.284759 -0.247268 0.480805 0 0 1
0.0908799 0.0254457 0.480805 0 0 1
0.250204 0.232439 0.467479 0 0 -1
-0.236672 -0.170643 0.0508066 0.957971 0.12533 -0.25804
0.254831 0.00260199 0.185853 1 0 0
0.232908 0.0581993 0.00593262 -1 0 0
0.319286 -0.0461031 0.467479 0 0 -1
-0.0331893 0.218247 0.467479 0 0 -1
-0.361735 -0.0409945 0.467479 0 0 -1
-0.233578 0.0152167 0.347039 0 1 0
0.122179 -0.21157 0.467479 0 0 -1
0.33505 0.00548184 0 0 0 -1
-0.235066 -0.0725187 0.467479 0 0 -1
0.184676 0.0554357 0.467479 0 0 -1
-0.232908 0.00784275 0.409556 1 0 0
0.254831 0.0456821 0.0210372 1 0 0
-0.0463872 0.149635 0.467479 0 0 -1
0.157955 -0.0812727 0.467479 0 0 -1
0.287498 -0.00879225 0.480805 0 0 1
0.0790006 0.263899 0.480805 0 0 1
0.0517959 0.0401296 0.467479 0 0 -1
-0.0505776 -0.182532 0.467479 0 0 -1
-0.206704 -0.123066 0.467479 0 0 -1
0.00675252 -0.285425 0.473539 0 -1 0
-0.254831 -0.0107582 0.386731 -1 0 0
0.236735 -0.0977705 0.480805 0 0 1
-0.232908 0.0131488 0.455478 1 0 0
-0.0993493 0.246696 0.467479 0 0 -1
0.30711 0.0152167 0.0136522 0 1 0
-0.174958 0.122742 0.480805 0 0 1
0.152797 0.206492 0.480805 0 0 1
-0.176535 -0.237522 0.480805 0 0 1
-0.262717 -0.0100782 0.30438 0.492861 -0.868521 0.0525341
0.0015513 0.138478 0.467479 0 0 -1
0.385065 0.152976 0.467479 0 0 -1
-0.254831 -0.00497744 0.459693 -1 0 0
0.0840941 -0.271042 0.467479 0 0 -1
0.358114 0.00273427 0.480805 0 0 1
0.426337 0.0959644 0.479311 0.98188 0.189503 0
0.248662 -0.158094 0.0510928 0.498258 0.378911 -0.779849
0.0940918 -0.0645899 0.467479 0 0 -1
-0.0940746 -0.025093 0.480805 0 0 1
0.250906 -0.237856 0.467479 0 0 -1
0.232908 0.00978239 0.134381 -1 0 0
-0.29664 0.052751 0.480805 0 0 1
-0.372169 0.0387296 0.467479 0 0 -1
-0.343834 0.209942 0.467479 0 0 -1
0.0178316 0.0563057 0.467479 0 0 -1
-0.103594 -0.039519 0.467479 0 0 -1
-0.151082 0.212407 0.480805 0 0 1
0.251588 0.028566 0.309746 0.958465 -0.282143 0.0417141
-0.0493663 0.0386696 0.480805 0 0 1
0.257787 -0.0641528 0.467479 0 0 -1
-0.0149471 -0.0321414 0.467479 0 0 -1
0.141318 0.263023 0.480805 0 0 1
-0.0970513 0.0754473 0.467479 0 0 -1
-0.383473 0.153939 0.467479 0 0 -1
0.00494969 0.0121513 0.480805 0 0 1
-0.406481 0.0775462 0.480805 0 0 1
-0.254831 0.227416 0.0104132 -1 0 0
0.410811 0.0152167 0.0156403 0 1 0
-0.347519 0.144533 0.480805 0 0 1
-0.346434 0.0550847 0.480805 0 0 1
-0.254831 -0.174269 0.00732584 -1 0 0
0.119375 0.217768 0.467479 0 0 -1
0.207993 -0.0718938 0.467479 0 0 -1
0.175446 -0.190862 0.467479 0 0 -1
-0.211963 0.108994 0.480805 0 0 1
-0.275721 -0.000209431 0.38587 0.895797 -0.299393 0.328498
-0.254831 0.0485574 0.0258751 -1 0 0
-0.290048 0.273104 0.47743 -0.34887 0.937171 0
-0.176282 0.0812633 0.467479 0 0 -1
0.0434311 -0.0126848 0.467479 0 0 -1
0.237458 0.178861 0.0438574 -0.958468 -0.124639 -0.256524
0.217684 0.223143 0.480805 0 0 1
0.171731 -0.275544 0.467479 0 0 -1
0.232908 0.01276 0.460072 -1 0 0
-0.241931 -0.0681423 0 0 0 -1
-0.25509 0.0330082 0.480805 0 0 1
-0.330724 0.00673279 0.451237 0.540301 0.354412 0.763195
0.292949 -0.210542 0.467479 0 0 -1
-0.237316 0.142487 0.077336 0.958177 0.174472 0.226842
0.251343 0.122625 0.445343 0.958374 -0.129606 0.254405
0.0125466 -0.0296861 0.480805 0 0 1
-0.273987 0.168704 0.467479 0 0 -1
-0.275395 0.00484627 0.337024 -0.952618 0.28675 -0.101455
0.12899 0.243072 0.467479 0 0 -1
0.041042 0.202093 0.467479 0 0 -1
0.291876 -0.00362889 0.383122 0.895801 -0.299459 -0.328429
-0.267832 0.0152167 0.0120291 0 1 0
0.225723 -0.0121188 0.480805 0 0 1
-0.368832 0.182387 0.480805 0 0 1
0.116504 0.0655309 0.467479 0 0 -1
-0.324377 0.00754781 0.427756 -0.53989 0.354974 -0.763225
-0.239503 0.0152167 0.0214458 0 -1 0
0.201725 -0.153119 0.467479 0 0 -1
-0.220596 -0.133578 0.480805 0 0 1
-0.254831 -0.000288463 0.415652 -1 0 0
-0.24647 -0.0816243 0.399367 -0.498014 -0.613035 -0.613327
0.147998 0.0219826 0.480805 0 0 1
-0.247803 0.0508603 0.353741 -0.499849 0.771692 -0.393245
-0.244628 0.135485 0.436794 -0.498932 0.39347 -0.772171
0.268986 0.00883773 0.203062 -0.477702 0.871816 -0.108341
0.232908 -0.00551454 0.350812 -1 0 0
-0.245548 -0.100096 0.0899236 -0.498969 0.656151 -0.566123
0.254831 0.00122767 0.0855268 1 0 0
-0.161717 0.23965 0.467479 0 0 -1
0.292907 -0.00680582 0.412042 -0.767674 -0.324298 0.552728
0.236917 0.182688 0.46039 -0.9585 -0.00869615 0.28496
0.127213 -0.0680104 0.467479 0 0 -1
0.0678073 0.22133 0.467479 0 0 -1
0.295038 0.0492194 0.467479 0 0 -1
0.403625 -0.0175897 0.480805 0 0 1
-0.332486 -0.0478333 0.467479 0 0 -1
-0.375131 0.00938454 0.480805 0 0 1
-0.169047 -0.0108528 0.480805 0 0 1
-0.0168805 0.218072 0.480805 0 0 1
-0.174906 -0.173073 0.480805 0 0 1
-0.387381 -0.187566 0.474529 -0.811541 -0.584296 0
-0.393768 0.103756 0.467479 0 0 -1
-0.251181 0.0152167 0.298739 0 1 0
0.24621 0.122353 0.098491 0.498686 0.528445 0.687064
0.0661079 -0.225623 0.467479 0 0 -1
0.406684 -0.0992578 0.467479 0 0 -1
0.236678 -0.0697808 0.396648 -0.958447 -0.201719 -0.201715
-0.249103 -0.127521 0.480805 0 0 1
0.127349 0.277027 0.467479 0 0 -1
0.25795 0.178895 0.480805 0 0 1
0.303306 -0.0131083 0.467479 0 0 -1
-0.259209 0.122206 0.467479 0 0 -1
0.243077 0.0776074 0.115207 -0.498963 -0.656243 -0.566022
-0.242035 -0.146394 0.0803709 0.499125 -0.528292 0.686864
-0.0555407 0.000269115 0.467479 0 0 -1
-0.254831 -0.0420367 0.00747562 -1 0 0
0.127507 0.185342 0.467479 0 0 -1
-0.254831 0.00440919 0.334929 -1 0 0
-0.29594 -0.11719 0.480805 0 0 1
-0.272658 -0.0146676 0.480805 0 0 1
0.291284 0.204294 0.480805 0 0 1
-0.247543 0.176646 0.480805 0 0 1
-0.212157 -0.100917 0.480805 0 0 1
0.109536 0.0936732 0.480805 0 0 1
-0.204189 0.147079 0.467479 0 0 -1
0.326947 0.0288672 0.480805 0 0 1
0.156817 0.168674 0.480805 0 0 1
-0.142929 -0.132957 0.480805 0 0 1
-0.0302362 0.135057 0.480805 0 0 1
0.0582185 0.0790389 0.467479 0 0 -1
-0.287817 -0.00360158 0.138679 0.88469 -0.302362 -0.354826
-0.420745 -0.111265 0.480805 0 0 1
0.0243005 -0.157006 0.467479 0 0 -1
-0.246291 -0.0652171 0.0304494 0 0 1
0.267442 0.0108916 0 0 0 -1
-0.279156 -0.224803 0.467479 0 0 -1
0.318014 0.0762962 0.480805 0 0 1
-0.240187 0.0152167 0.141094 0 1 0
-0.349421 -0.20913 0.480805 0 0 1
0.361852 -0.108872 0.480805 0 0 1
-0.251265 0.129594 0.0767227 -0.958057 -0.174755 -0.227128
-0.113619 0.131529 0.467479 0 0 -1
0.131682 -0.09756 0.480805 0 0 1
-0.033765 -0.209879 0.480805 0 0 1
0.365989 -0.166303 0.480805 0 0 1
-0.33204 0.127876 0.480805 0 0 1
0.109013 0.268529 0.467479 0 0 -1
0.236305 0.0316184 0.258419 -0.958454 0.283777 0.0289103
0.0869924 0.165517 0.467479 0 0 -1
0.249797 0.171358 0.463454 0.958435 -0.00865174 0.285179
-0.234166 -0.0152167 0.431277 0 -1 0
-0.235145 -0.0152167 0.367914 0 -1 0
0.236802 -0.0827475 0.467479 0 0 -1
0.327607 0.149453 0.480805 0 0 1
0.352338 -0.0178093 0.480805 0 0 1
0.254831 -0.00383502 0.352945 1 0 0
0.238004 -0.187531 0.0376072 -0.958395 0.124746 -0.256744
0.0552342 0.152052 0.480805 0 0 1
-0.139945 0.0820047 0.480805 0 0 1
0.138547 -0.151106 0.480805 0 0 1
-0.089648 -0.00590587 0.467479 0 0 -1
0.303063 0.00665829 0.139912 0.805755 0.316797 0.500399
0.23519 -0.0799577 0.0304494 0 0 1
0.0459487 0.261684 0.480805 0 0 1
0.192371 0.00671819 0.467479 0 0 -1
0.0527056 0.124285 0.480805 0 0 1
0.221616 -0.136243 0.480805 0 0 1
0.315927 -0.00467822 0.480805 0 0 1
0.0394314 0.168672 0.480805 0 0 1
0.335695 -0.0795725 0.467479 0 0 -1
0.405342 0.0352793 0.480805 0 0 1
-0.140482 0.0160367 0.480805 0 0 1
0.124882 -0.0380894 0.467479 0 0 -1
-0.137744 0.240521 0.480805 0 0 1
-0.320591 0.0659135 0.480805 0 0 1
-0.073214 0.247379 0.480805 0 0 1
-0.249873 -0.059418 0.177234 -0.958216 -0.249855 0.139263
-0.213577 -0.0750709 0.467479 0 0 -1
-0.0866562 0.0280457 0.467479 0 0 -1
0.356237 0.117094 0.480805 0 0 1
0.278404 0.0107207 0.17907 -0.441424 0.879644 -0.17712
-0.386643 -0.080872 0.480805 0 0 1
-0.246161 -0.0225018 0.229545 -0.498112 0.827101 -0.260361
-0.135352 0.170923 0.467479 0 0 -1
0.238799 0.0851943 0.404941 -0.498029 0.613181 -0.613169
-0.0562876 0.0213839 0.480805 0 0 1
0.344022 -0.223583 0.467479 0 0 -1
0.240223 0.143604 0.0576808 -0.498413 -0.528579 -0.687159
-0.181984 0.0636124 0.480805 0 0 1
0.0940217 0.0586201 0.467479 0 0 -1
-0.369442 -0.185224 0.480805 0 0 1
-0.249674 -0.0989681 0.119596 -0.498132 -0.65669 0.566236
0.235995 0.0951086 0.480805 0 0 1
-0.424418 0.0261627 0.480805 0 0 1
-0.320718 -0.212767 0.480805 0 0 1
-0.0720264 0.0798312 0.467479 0 0 -1
0.321818 -0.168487 0.480805 0 0 1
-0.240642 0.169297 0.465279 0.497659 -0.026418 0.866971
0.0368391 0.18734 0.480805 0 0 1
-0.164194 0.20794 0.467479 0 0 -1
0.0342441 0.249869 0.467479 0 0 -1
0.312073 0.183799 0.467479 0 0 -1
-0.254831 0.13597 0.0209421 -1 0 0
0.126337 -0.159667 0.467479 0 0 -1
0.249925 -0.0575133 0.180273 0.95848 -0.249083 0.138832
0.188214 -0.108154 0.480805 0 0 1
0.248411 0.261847 0.467479 0 0 -1
0.228675 -0.255706 0.480805 0 0 1
0.250909 0.146271 0.450196 0.958354 0.129636 -0.254465
-0.271807 0.244747 0.480805 0 0 1
0.0873165 -0.168616 0.480805 0 0 1
0.232349 -0.153395 0.480805 0 0 1
-0.101197 -0.23918 0.480805 0 0 1
-0.0273182 0.0741929 0.480805 0 0 1
-0.232908 0.00780783 0.252441 1 0 0
-0.259695 -0.256618 0.467479 0 0 -1
0.254831 -0.137195 0.0194706 1 0 0
-0.166586 -0.0747924 0.467479 0 0 -1
-0.128159 -0.08138 0.467479 0 0 -1
0.0207837 -0.216412 0.467479 0 0 -1
0.169691 0.0356838 0.480805 0 0 1
-0.254831 -0.00493442 0.0777582 -1 0 0
0.32292 0.0108073 0.0972983 0.315704 0.90162 0.295655
0.212515 0.106446 0.480805 0 0 1
-0.138552 -0.252316 0.480805 0 0 1
-0.308954 0.208921 0.467479 0 0 -1
0.412585 -0.117356 0.480805 0 0 1
0.100269 -0.0278123 0.467479 0 0 -1
-0.235251 0.0152167 0.381083 0 1 0
0.0213595 -0.143294 0.480805 0 0 1
-0.232908 0.224806 0.00556826 1 0 0
-0.233137 0.222389 0.0304494 0 0 1
0.134163 0.160012 0.480805 0 0 1
0.232908 0.00355025 0.26189 -1 0 0
-0.384919 -0.0593997 0.467479 0 0 -1
-0.376722 0.0938686 0.467479 0 0 -1
0.198397 -0.262567 0.467479 0 0 -1
-0.254831 -0.0111351 0.272365 -1 0 0
-0.070621 -0.0654654 0.467479 0 0 -1
-0.124678 0.0964797 0.467479 0 0 -1
-0.314011 -0.0943772 0.467479 0 0 -1
-0.132837 0.205842 0.467479 0 0 -1
-0.254831 0.189671 0.0216248 -1 0 0
-0.435332 -0.0489264 0.468893 -0.998022 -0.0628609 0
0.156188 0.0686024 0.480805 0 0 1
-0.328466 -0.0971185 0.480805 0 0 1
0.184263 0.178049 0.480805 0 0 1
-0.375386 -0.0106961 0.454384 -0.0161817 -0.924067 -0.381888
0.251754 0.13596 0.467479 0 0 -1
0.0259819 0.213071 0.480805 0 0 1
0.239794 0.0768708 0.0304494 0 0 1
0.37676 -0.0819699 0.480805 0 0 1
0.208838 -0.0900993 0.480805 0 0 1
-0.158182 0.0466678 0.467479 0 0 -1
-0.33503 0.0152167 0.0249649 0 1 0
-0.200658 0.200994 0.480805 0 0 1
-0.277468 -0.17186 0.480805 0 0 1
-0.185544 -0.22921 0.467479 0 0 -1
0.062674 -0.0978556 0.467479 0 0 -1
0.0537061 -0.0323722 0.480805 0 0 1
0.0128504 0.0448711 0.480805 0 0 1
-0.21826 0.0384979 0.467479 0 0 -1
-0.297038 0.151621 0.480805 0 0 1
-0.262966 0.0109104 0.274595 0.495571 0.867802 -0.0364686
-0.348829 -0.0108453 0.0694996 -0.315265 -0.901978 0.295031
0.0632679 -0.140308 0.467479 0 0 -1
-0.17164 -0.262935 0.480805 0 0 1
0.289301 0.193953 0.467479 0 0 -1
0.170333 0.275642 0.480805 0 0 1
-0.136107 0.27593 0.480805 0 0 1
0.243911 0.0152167 0.0279065 0 1 0
-0.379125 -0.130126 0.480805 0 0 1
-0.196107 -0.273359 0.467479 0 0 -1
0.267705 -0.0106269 0.316162 0.492719 -0.868606 -0.0524541
-0.270817 -0.235023 0.480805 0 0 1
0.0583299 -0.263174 0.467479 0 0 -1
0.052785 0.282297 0.480805 0 0 1
0.2837 -0.0546497 0.480805 0 0 1
0.389996 -0.0152167 0.0173675 0 -1 0
-0.420373 -0.037985 0.480805 0 0 1
0.307524 -0.148726 0.480805 0 0 1
-0.179015 0.142242 0.467479 0 0 -1
-0.0351841 0.0189265 0.480805 0 0 1
-0.0471362 0.167686 0.467479 0 0 -1
0.247159 0.0152167 0.364758 0 1 0
0.254831 -0.19248 0.00636746 1 0 0
-0.269683 0.00883845 0.256533 -0.49572 0.867719 0.0364099
-0.35604 0.00808259 0.0528736 0.228917 0.912425 -0.33923
0.268428 -0.016652 0.480805 0 0 1
-0.327781 -0.116057 0.467479 0 0 -1
0.251327 0.0152167 0.0401864 0 1 0
0.232908 -0.0294013 0.000776911 -1 0 0
0.200873 0.127599 0.480805 0 0 1
-0.266287 0.0583817 0.467479 0 0 -1
-0.107244 -0.171037 0.480805 0 0 1
0.232908 -0.120008 0.0166464 -1 0 0
-0.00177675 0.235727 0.480805 0 0 1
-0.25008 0.150279 0.461874 -0.958237 -0.00867197 0.285845
0.425452 -0.00488898 0.480805 0 0 1
-0.205663 -0.223905 0.467479 0 0 -1
-0.147481 0.0321349 0.467479 0 0 -1
-0.125271 0.000638515 0.480805 0 0 1
-0.0846721 -0.26627 0.467479 0 0 -1
-0.391943 0.17718 0.467479 0 0 -1
-0.0211477 -0.190402 0.480805 0 0 1
-0.163335 0.107226 0.467479 0 0 -1
-0.232908 0.00457687 0.330806 1 0 0
0.0676615 0.114567 0.480805 0 0 1
0.154379 0.285425 0.468279 0 1 0
0.108916 0.0450527 0.480805 0 0 1
-0.294156 -0.00853778 0.411449 0.362729 -0.89455 0.261166
0.254831 -0.00452078 0.0499692 1 0 0
0.12774 0.106484 0.480805 0 0 1
-0.254831 -0.116968 0.0114255 -1 0 0
0.220408 0.0292325 0.467479 0 0 -1
0.25033 0.105612 0.480805 0 0 1
-0.414703 -0.0152167 0.0027046 0 -1 0
0.117891 0.0164267 0.467479 0 0 -1
0.364424 -0.0112666 0.0557798 -0.228941 -0.912413 -0.339246
0.236905 -0.0588222 0.380211 -0.958441 -0.254205 -0.129505
-0.0611005 0.198169 0.467479 0 0 -1
0.250206 0.0367651 0.196906 0.958416 -0.272193 -0.0857336
-0.0176387 -0.250754 0.480805 0 0 1
-0.199619 0.0844407 0.480805 0 0 1
-0.25604 -0.0226324 0.480805 0 0 1
-0.0682167 0.175835 0.467479 0 0 -1
-0.0812469 0.177267 0.480805 0 0 1
0.345334 0.0711277 0.467479 0 0 -1
-0.25117 -0.0832463 0 0 0 -1
0.250541 0.0917366 0.430815 0.958379 -0.201878 0.201877
0.28176 -0.258524 0.467479 0 0 -1
-0.205166 -0.0268659 0.467479 0 0 -1
-0.373105 -0.151205 0.467479 0 0 -1
-0.0895208 0.207148 0.480805 0 0 1
0.314929 -0.0996926 0.480805 0 0 1
-0.0767769 -0.145119 0.480805 0 0 1
0.167941 0.0497743 0.467479 0 0 -1
-0.0423175 -0.120484 0.467479 0 0 -1
0.288008 -0.142078 0.467479 0 0 -1
-0.231868 0.127166 0.480805 0 0 1
0.232908 0.2033 0.00471808 -1 0 0
0.173666 0.141447 0.467479 0 0 -1
0.385055 0.0997765 0.467479 0 0 -1
0.25063 -0.188502 0.461174 0.958435 0.00870279 0.285178
0.12078 -0.254519 0.480805 0 0 1
-0.101836 -0.0514785 0.480805 0 0 1
-0.236563 -0.115774 0.0869817 0.957992 0.174887 -0.227301
-0.114246 0.176209 0.480805 0 0 1
-0.409224 -0.0303694 0.467479 0 0 -1
-0.258204 -0.0755046 0.480805 0 0 1
-0.0239312 0.170978 0.467479 0 0 -1
0.0288787 -0.0968403 0.480805 0 0 1
0.419538 0.0303565 0.467479 0 0 -1
-0.260074 0.282125 0.467805 -0.120607 0.9927 0
0.321382 0.0472898 0.467479 0 0 -1
-0.20288 0.123982 0.480805 0 0 1
0.182829 -0.148023 0.480805 0 0 1
-0.0103651 0.0785278 0.480805 0 0 1
0.0280097 0.00636768 0.480805 0 0 1
-0.232908 -0.0101643 0.0476968 1 0 0
0.251253 0.0363512 0.228427 0.958372 0.272343 0.0857425
-0.332903 -0.172285 0.480805 0 0 1
0.256614 -0.135914 0.467479 0 0 -1
-0.281728 -0.0416786 0.467479 0 0 -1
-0.390062 0.0328233 0.480805 0 0 1
0.0898576 0.107546 0.467479 0 0 -1
0.384614 0.0493611 0.480805 0 0 1
0.232908 -0.221274 0.0268543 -1 0 0
-0.261503 -0.13355 0.467479 0 0 -1
0.0306003 0.121203 0.467479 0 0 -1
0.308289 0.0894332 0.467479 0 0 -1
0.308338 0.0231242 0.467479 0 0 -1
-0.232908 0.0110837 0.0936791 1 0 0
-0.311736 -0.0175662 0.480805 0 0 1
0.150519 0.145731 0.480805 0 0 1
-0.0761387 -0.183701 0.467479 0 0 -1
-0.204397 -0.0620946 0.480805 0 0 1
0.0254336 0.281519 0.467479 0 0 -1
0.426921 0.0211263 0.480805 0 0 1
-0.0623406 -0.235204 0.480805 0 0 1
-0.0859322 -0.205068 0.480805 0 0 1
-0.245086 -0.0601944 0.480805 0 0 1
0.149226 -0.241249 0.467479 0 0 -1
-0.331605 0.0382128 0.480805 0 0 1
0.190302 -0.168708 0.467479 0 0 -1
-0.254831 -0.0122164 0.0122607 -1 0 0
0.396498 -0.00651093 0 0 0 -1
0.0969167 0.263666 0.480805 0 0 1
0.271057 -0.194024 0.480805 0 0 1
-0.121871 -0.215913 0.480805 0 0 1
0.118989 -0.0855381 0.480805 0 0 1
0.0594917 0.193746 0.467479 0 0 -1
-0.232908 -0.0072437 0.112017 1 0 0
-0.397544 -0.0219439 0.480805 0 0 1
-0.233569 -0.0152167 0.327114 0 -1 0
-0.232908 0.236677 0.0180849 1 0 0
-0.254831 0.000232249 0.229846 -1 0 0
-0.0503453 -0.19977 0.467479 0 0 -1
0.238102 0.0152167 0.072273 0 1 0
-0.300972 0.00244449 0.0304494 0 0 1
0.331423 -0.0965117 0.467479 0 0 -1
-0.153224 -0.28414 0.480805 0 0 1
0.249945 0.141272 0.0802869 0.958533 0.173742 0.225893
0.251233 -0.0757277 0.138563 0.958508 -0.249008 0.138772
0.0467484 -0.0486431 0.480805 0 0 1
-0.401076 -0.137411 0.480805 0 0 1
-0.420545 0.113928 0.479388 -0.948011 0.318237 0
-0.320559 -0.200674 0.467479 0 0 -1
0.16314 -0.150142 0.480805 0 0 1
-0.25669 0.212013 0.480805 0 0 1
0.237435 0.0955241 0.120421 -0.958582 0.215702 0.185991
0.101816 -0.164393 0.467479 0 0 -1
-0.0878237 0.0905929 0.467479 0 0 -1
0.151659 -0.159903 0.467479 0 0 -1
-0.338882 0.0252097 0.467479 0 0 -1
-0.0158099 -0.162904 0.467479 0 0 -1
0.389108 0.185167 0.480633 0.811541 0.584296 0
-0.252086 0.0841267 0.415925 -0.958086 -0.202573 0.202571
-0.0685051 0.0462853 0.480805 0 0 1
0.0710384 -0.173789 0.480805 0 0 1
0.214343 -0.233349 0.480805 0 0 1
-0.087426 -0.0607271 0.480805 0 0 1
-0.25129 -0.209357 0.480805 0 0 1
0.191154 -0.252477 0.480805 0 0 1
0.215379 0.078324 0.467479 0 0 -1
0.281537 0.227994 0.480805 0 0 1
0.372592 0.0152167 0.01753 0 1 0
-0.174271 0.26117 0.467479 0 0 -1
0.200991 -0.191395 0.467479 0 0 -1
-0.400435 -0.0119499 0.0304494 0 0 1
0.265854 0.214264 0.480805 0 0 1
0.243518 -0.116629 0.452098 -0.497298 0.393772 0.773071
-0.10925 -0.12807 0.480805 0 0 1
0.379147 -0.104467 0.480805 0 0 1
0.259057 0.0204356 0.480805 0 0 1
-0.251045 -0.0366911 0.206433 -0.958056 0.273353 -0.0860604
-0.247546 0.0768989 0 0 0 -1
0.377791 -0.00163388 0.466963 -0.0390816 -0.38174 0.923443
0.3181 -0.0356344 0.480805 0 0 1
0.105404 -0.132997 0.467479 0 0 -1
-0.181781 0.240918 0.467479 0 0 -1
0.0518382 -0.140421 0.480805 0 0 1
0.287742 -0.0112717 0.158534 -0.441713 -0.879475 -0.177236
-0.0514244 0.117661 0.480805 0 0 1
0.232157 -0.142925 0.467479 0 0 -1
-0.0968062 -0.198159 0.467479 0 0 -1
-0.221298 0.100132 0.467479 0 0 -1
-0.238228 0.0152167 0.197525 0 1 0
0.234532 0.0809608 0.467479 0 0 -1
0.232908 0.0469215 0.0185626 -1 0 0
0.236309 -0.138954 0.448384 -0.958419 -0.129538 -0.254271
-0.00226742 -0.128775 0.467479 0 0 -1
0.241255 0.0260609 0.347071 -0.499795 -0.771706 0.393287
-0.153031 -0.0394146 0.467479 0 0 -1
0.254831 -0.00969357 0.440183 1 0 0
0.0840189 -0.134271 0.467479 0 0 -1
0.251705 -0.126514 0.0809863 0.95835 0.174156 -0.22635
-0.299215 0.202994 0.480805 0 0 1
-0.227121 0.14577 0.467479 0 0 -1
-0.333114 -0.228423 0.480805 0 0 1
0.234428 -0.0942923 0 0 0 -1
0.252074 0.0794455 0 0 0 -1
-0.289677 0.234265 0.480805 0 0 1
-0.254724 -0.142476 0 0 0 -1
0.289054 0.149336 0.467479 0 0 -1
-0.317559 -0.0691295 0.467479 0 0 -1
-0.24047 0.0243154 0.334346 0.500625 -0.856356 0.126608
-0.284311 -0.261862 0.467479 0 0 -1
-0.118916 0.0455153 0.480805 0 0 1
-0.128834 0.218754 0.480805 0 0 1
0.361486 -0.00234299 0.0697751 0.522942 -0.355599 0.774649
0.000118216 0.209126 0.467479 0 0 -1
-0.34049 0.16157 0.467479 0 0 -1
0.165723 -0.267097 0.480805 0 0 1
0.334736 -0.118016 0.480805 0 0 1
0.00627663 -0.169407 0.467479 0 0 -1
-0.0404845 -0.0861198 0.480805 0 0 1
