-0.153316 0.241777 0.415406 0 0 1
0.0881166 -0.263698 0.415406 0 0 1
-0.041494 0.066498 0.415406 0 0 1
0.265861 0.0984859 0.353786 -1 0 0
0.264588 -0.230707 0.402006 0 0 -1
-0.217112 -0.249148 0.415406 0 0 1
-0.0294029 -0.0502442 0.415406 0 0 1
-0.0262342 0.256975 0.402006 0 0 -1
0.259029 0.0634875 0.415406 0 0 1
-0.280991 -0.321605 0.414529 0 -1 0
-0.00348365 0.26949 0.415406 0 0 1
0.321605 -0.132932 0.409095 1 0 0
-0.28153 -0.28254 0.415406 0 0 1
0.164142 -0.153458 0.415406 0 0 1
-0.263562 0.190533 0.402006 0 0 -1
-0.177284 -0.157476 0.415406 0 0 1
-0.16578 0.282131 0.402006 0 0 -1
-0.01851 -0.0872053 0.402006 0 0 -1
0.0320602 0.250659 0.402006 0 0 -1
-0.321605 -0.249506 0.409258 -1 0 0
-0.281741 0.15322 0.415406 0 0 1
0.221339 0.129987 0.415406 0 0 1
-0.0547712 0.221238 0.402006 0 0 -1
0.269704 -0.182301 0.402006 0 0 -1
0.199206 -0.151446 0.402006 0 0 -1
0.0881785 -0.28852 0.415406 0 0 1
0.055348 0.321605 0.412749 0 1 0
0.265861 0.0991113 0.00569264 -1 0 0
0.27107 -0.118041 0.415406 0 0 1
-0.282215 -0.116874 0.377389 0 -0.866026 -0.5
0.287987 0.181085 0.415406 0 0 1
-0.0693446 -0.0145464 0.415406 0 0 1
-0.301218 0.260799 0.402006 0 0 -1
0.2873 -0.051345 0.0897142 1 0 0
0.0374055 -0.120073 0.402006 0 0 -1
0.224875 -0.0744431 0.402006 0 0 -1
0.26665 -0.00299393 0.199159 0 -0.891006 0.453992
0.0049431 -0.0534888 0.402006 0 0 -1
-0.252978 -0.0305742 0.402006 0 0 -1
-0.292927 0.104959 0.415406 0 0 1
-0.273529 -0.0147152 0.117121 0 0.891006 -0.453991
0.233232 0.191604 0.415406 0 0 1
-0.0356337 -0.131825 0.415406 0 0 1
-0.062386 0.176244 0.402006 0 0 -1
0.296635 0.0558547 0.415406 0 0 1
0.265861 -0.0408762 0.261031 -1 0 0
-0.133416 0.10948 0.402006 0 0 -1
0.114514 -0.0134125 0.415406 0 0 1
0.199861 0.290917 0.402006 0 0 -1
-0.275203 -0.155213 0.402006 0 0 -1
-0.070251 -0.235343 0.402006 0 0 -1
-0.271785 -0.220403 0.402006 0 0 -1
0.150329 0.154332 0.402006 0 0 -1
0.301556 -0.0574353 0.402006 0 0 -1
0.287147 -0.0822843 0.0435437 0 -0.891006 0.453992
-0.210421 0.0674141 0.402006 0 0 -1
-0.210406 0.15878 0.415406 0 0 1
0.149944 -0.240716 0.415406 0 0 1
0.0183802 -0.284578 0.415406 0 0 1
-0.278772 0.0937657 0.330027 0 0.891006 -0.453991
0.267638 0.161723 0.402006 0 0 -1
0.271064 0.0171008 0.145339 0 -0.866026 -0.5
-0.0645102 0.282573 0.402006 0 0 -1
0.268596 0.0548734 0.253696 0 0.891006 -0.453991
0.124249 0.236334 0.415406 0 0 1
0.137129 0.0307398 0.415406 0 0 1
0.265861 0.0362764 0.141297 -1 0 0
-0.169102 -0.263264 0.415406 0 0 1
0.0896097 0.0184221 0.402006 0 0 -1
0.0899219 0.163408 0.402006 0 0 -1
0.122535 0.104192 0.402006 0 0 -1
-0.289984 -0.246877 0.402006 0 0 -1
0.2873 0.118043 0.379225 1 0 0
-0.159614 0.167178 0.402006 0 0 -1
0.254056 0.101701 0.415406 0 0 1
-0.174704 0.128857 0.402006 0 0 -1
0.264493 0.216771 0.415406 0 0 1
-0.0869763 0.187197 0.415406 0 0 1
0.088106 0.0742564 0.402006 0 0 -1
0.27022 -0.0519329 0.318509 0 0.866025 0.5
-0.321605 -0.085206 0.412782 -1 0 0
0.28084 -0.316706 0.415406 0 0 1
0.0838155 -0.103555 0.402006 0 0 -1
0.148177 -0.314927 0.402006 0 0 -1
0.205802 -0.258918 0.415406 0 0 1
0.113366 0.28475 0.415406 0 0 1
-0.0243313 -0.220302 0.415406 0 0 1
-0.241564 0.213244 0.402006 0 0 -1
-0.108448 -0.109686 0.402006 0 0 -1
0.057826 -0.140211 0.415406 0 0 1
-0.265859 0.0283578 0.23812 1 0 0
-0.223858 0.0103655 0.402006 0 0 -1
0.159362 0.304573 0.415406 0 0 1
-0.253968 0.146745 0.402006 0 0 -1
0.0150985 0.0564506 0.402006 0 0 -1
0.247662 -0.130478 0.402006 0 0 -1
-0.00528976 0.1549 0.402006 0 0 -1
-0.0695648 -0.186459 0.415406 0 0 1
-0.244815 0.283807 0.415406 0 0 1
0.197727 -0.0824267 0.415406 0 0 1
-0.0973766 -0.321605 0.404821 0 -1 0
-0.268649 -0.00677314 0.402006 0 0 -1
-0.2873 0.0591682 0.268739 -1 0 0
-0.279726 0.0952021 0.010063 0 -0.866026 -0.5
-0.276818 -0.0709537 0.297854 0 -0.866026 -0.5
-0.023274 0.321605 0.405261 0 1 0
-0.265859 0.0570501 0.0919114 1 0 0
0.295817 -0.18311 0.415406 0 0 1
-0.140887 -0.00423256 0.402006 0 0 -1
0.0622186 -0.116061 0.402006 0 0 -1
-0.321605 -0.174221 0.413435 -1 0 0
0.09579 -0.0744763 0.415406 0 0 1
-0.265859 -0.0886351 0.0285033 1 0 0
0.186045 0.0105121 0.402006 0 0 -1
0.296332 0.0963783 0.402006 0 0 -1
0.17972 0.0554875 0.402006 0 0 -1
0.315379 -0.258475 0.415406 0 0 1
0.245517 0.260168 0.415406 0 0 1
0.232092 -0.0573961 0.415406 0 0 1
0.300032 -0.198104 0.402006 0 0 -1
-0.2873 0.0110688 0.176227 -1 0 0
0.265639 -0.2853 0.415406 0 0 1
0.242058 -0.217113 0.415406 0 0 1
-0.280466 -0.00443998 0.236249 0 0.866025 0.5
-0.184793 0.242753 0.402006 0 0 -1
-0.237474 0.0450689 0.415406 0 0 1
-0.289366 -0.0705792 0.402006 0 0 -1
-0.126346 -0.255607 0.415406 0 0 1
-0.0373831 -0.00175676 0.415406 0 0 1
0.316268 -0.093031 0.415406 0 0 1
0.0727078 0.0895647 0.415406 0 0 1
-0.265859 -0.0551446 0.0800964 1 0 0
0.285037 0.0147893 0.202943 0 0.866025 0.5
0.283847 -0.0245811 0.156792 0 -0.891006 0.453992
-0.0606037 0.0348088 0.402006 0 0 -1
0.238281 0.22301 0.402006 0 0 -1
-0.240678 0.0898459 0.415406 0 0 1
-0.0733084 -0.259594 0.415406 0 0 1
0.181692 0.240795 0.415406 0 0 1
0.112408 0.301873 0.402006 0 0 -1
-0.298796 0.295137 0.415406 0 0 1
-0.321605 -0.204889 0.406191 -1 0 0
-0.249323 -0.203495 0.415406 0 0 1
-0.177202 -0.22051 0.415406 0 0 1
0.149589 0.00522408 0.402006 0 0 -1
0.177578 -0.234872 0.402006 0 0 -1
-0.0663328 -0.0603422 0.415406 0 0 1
0.0447112 0.0260127 0.402006 0 0 -1
-0.0175619 -0.158076 0.415406 0 0 1
0.16236 -0.292953 0.415406 0 0 1
0.267657 0.0911856 0.383996 0 -0.891006 0.453992
-0.118952 -0.230883 0.402006 0 0 -1
-0.187996 -0.033004 0.402006 0 0 -1
-0.237114 -0.290817 0.415406 0 0 1
0.117695 -0.1959 0.415406 0 0 1
-0.0661027 0.0942848 0.402006 0 0 -1
-0.137655 0.287295 0.415406 0 0 1
-0.0821799 0.0127262 0.415406 0 0 1
-0.0351632 -0.189551 0.415406 0 0 1
-0.2873 -0.0759379 0.0465179 -1 0 0
0.040722 0.139081 0.402006 0 0 -1
0.0473523 -0.242807 0.402006 0 0 -1
-0.108747 0.089217 0.402006 0 0 -1
0.143969 0.188707 0.415406 0 0 1
-0.10791 0.00966588 0.415406 0 0 1
-0.286503 0.0788469 0.35978 0 -0.891006 0.453992
0.12353 -0.0772249 0.402006 0 0 -1
-0.28938 -0.122388 0.415406 0 0 1
-0.321605 0.291596 0.411417 -1 0 0
-0.185651 0.109827 0.415406 0 0 1
0.0326984 0.114202 0.415406 0 0 1
0.209876 0.30966 0.402006 0 0 -1
0.249554 -0.0795153 0.402006 0 0 -1
-0.214553 0.221328 0.402006 0 0 -1
0.270297 -0.0345793 0.402006 0 0 -1
0.0968064 -0.153332 0.415406 0 0 1
-0.279879 0.0536316 0.135666 0 0.866025 0.5
-0.144252 -0.0495553 0.402006 0 0 -1
0.0240845 -0.0241462 0.415406 0 0 1
0.142719 -0.110934 0.402006 0 0 -1
0.0351021 0.198696 0.415406 0 0 1
0.277511 -0.0476202 0.0525415 0 0.891006 -0.453991
0.00435612 0.212993 0.415406 0 0 1
-0.125169 -0.187916 0.402006 0 0 -1
0.0465833 -0.189005 0.415406 0 0 1
-0.18563 -0.125039 0.415406 0 0 1
-0.2873 -0.0425324 0.253593 -1 0 0
-0.296619 0.0402375 0.415406 0 0 1
0.0677445 0.0592448 0.402006 0 0 -1
0.265861 0.0723275 0.290016 -1 0 0
-0.29903 0.0789514 0.415406 0 0 1
0.0922212 -0.23327 0.415406 0 0 1
-0.096279 0.16283 0.402006 0 0 -1
-0.208806 -0.171766 0.415406 0 0 1
-0.115031 0.0751112 0.415406 0 0 1
-0.0849731 -0.220671 0.415406 0 0 1
0.272519 -0.104403 0.355789 0 -0.866026 -0.5
0.265719 -0.0901176 0.402006 0 0 -1
-0.267174 -0.0615044 0.402006 0 0 -1
-0.0800231 -0.148942 0.402006 0 0 -1
0.17716 -0.0350774 0.402006 0 0 -1
-0.313687 0.241119 0.402006 0 0 -1
0.127847 0.0781728 0.415406 0 0 1
-0.0955749 -0.0644813 0.415406 0 0 1
-0.0832475 -0.172247 0.415406 0 0 1
-0.155339 -0.142704 0.402006 0 0 -1
0.065163 -0.288039 0.402006 0 0 -1
0.16953 -0.0848465 0.402006 0 0 -1
0.21248 -0.209531 0.402006 0 0 -1
-0.197816 -0.280725 0.402006 0 0 -1
0.265861 0.0169744 0.198063 -1 0 0
0.158398 -0.200884 0.402006 0 0 -1
-0.188338 -0.0870439 0.415406 0 0 1
-0.2873 -0.0752718 0.324238 -1 0 0
-0.271137 -0.0327599 0.415406 0 0 1
0.29555 0.321605 0.407351 0 1 0
-0.319602 -0.117098 0.415406 0 0 1
-0.165309 0.0875995 0.415406 0 0 1
-0.0865277 -0.126323 0.415406 0 0 1
-0.141183 0.166224 0.415406 0 0 1
-0.206609 0.292809 0.415406 0 0 1
0.0635698 -0.315142 0.402006 0 0 -1
-0.196765 0.145624 0.415406 0 0 1
-0.210931 -0.0146907 0.402006 0 0 -1
0.207173 -0.321605 0.407122 0 -1 0
-0.297026 -0.0162784 0.415406 0 0 1
-0.04575 -0.115327 0.415406 0 0 1
0.265861 -0.0859873 0.324265 -1 0 0
-0.279198 0.253277 0.415406 0 0 1
0.0285347 -0.144785 0.402006 0 0 -1
-0.2873 0.0795589 0.0499574 -1 0 0
-0.117664 -0.282768 0.415406 0 0 1
0.209695 0.0771863 0.402006 0 0 -1
0.196238 0.10916 0.415406 0 0 1
-0.148983 -0.295358 0.415406 0 0 1
-0.128046 0.256664 0.415406 0 0 1
-0.155532 0.00728986 0.415406 0 0 1
-0.147059 0.321605 0.414633 0 1 0
0.256535 0.3185 0.402006 0 0 -1
0.2873 0.0521365 0.267091 1 0 0
0.0064483 -0.25467 0.402006 0 0 -1
0.283555 -0.0931107 0.0222958 0 -0.891006 0.453992
0.0551692 -0.0165869 0.402006 0 0 -1
0.284509 0.0644006 0.0634129 0 -0.866026 -0.5
0.0201361 -0.187394 0.402006 0 0 -1
0.0978128 0.267354 0.402006 0 0 -1
-0.0280394 -0.0729799 0.415406 0 0 1
-0.0125097 -0.100286 0.415406 0 0 1
-0.233286 0.166742 0.402006 0 0 -1
-0.321605 -0.0366675 0.411328 -1 0 0
-0.321605 0.165972 0.414044 -1 0 0
-0.265859 0.0692549 0.323688 1 0 0
-0.254294 -0.321605 0.415086 0 -1 0
-0.0614486 0.137034 0.402006 0 0 -1
-0.213738 -0.139955 0.415406 0 0 1
-0.241933 0.294369 0.402006 0 0 -1
0.247929 -0.0436159 0.402006 0 0 -1
0.0717591 -0.0486205 0.415406 0 0 1
0.285336 -0.0153615 0.402006 0 0 -1
-0.29493 -0.213747 0.402006 0 0 -1
-0.314729 0.0573374 0.402006 0 0 -1
0.03229 -0.27459 0.402006 0 0 -1
0.2692 0.0655558 0.115013 0 0.866025 0.5
0.224621 -0.0181186 0.415406 0 0 1
-0.220834 0.0444302 0.402006 0 0 -1
-0.0470427 -0.307311 0.415406 0 0 1
0.0700033 -0.239536 0.415406 0 0 1
-0.117958 -0.149489 0.402006 0 0 -1
-0.246823 -0.104976 0.402006 0 0 -1
0.310653 0.212793 0.415406 0 0 1
0.201296 -0.1172 0.415406 0 0 1
-0.265859 0.050593 0.27598 1 0 0
-0.103402 0.210984 0.402006 0 0 -1
-0.210646 0.189813 0.415406 0 0 1
-0.0475739 0.25436 0.415406 0 0 1
0.000888139 0.177348 0.415406 0 0 1
0.0205212 0.289032 0.402006 0 0 -1
-0.0392382 -0.262085 0.402006 0 0 -1
0.227592 -0.122306 0.415406 0 0 1
-0.0932843 0.0612234 0.402006 0 0 -1
-0.218939 0.0845768 0.402006 0 0 -1
0.0165595 -0.127768 0.415406 0 0 1
0.219088 0.0395699 0.402006 0 0 -1
0.113512 0.213828 0.415406 0 0 1
0.186176 0.2178 0.415406 0 0 1
0.176047 0.159213 0.415406 0 0 1
-0.281012 -0.0849667 0.415406 0 0 1
0.0732849 -0.162335 0.402006 0 0 -1
0.0293568 -0.226123 0.415406 0 0 1
-0.00341731 -0.21142 0.402006 0 0 -1
-0.192255 0.0106143 0.402006 0 0 -1
0.0982129 0.12887 0.402006 0 0 -1
0.268078 0.0914161 0.0702211 0 0.866025 0.5
-0.300185 0.191305 0.415406 0 0 1
0.321605 -0.200845 0.408582 1 0 0
-0.223035 -0.179761 0.415406 0 0 1
0.145555 -0.145957 0.402006 0 0 -1
0.304493 0.265669 0.415406 0 0 1
-0.316399 0.190703 0.402006 0 0 -1
-0.0169736 0.20953 0.402006 0 0 -1
-0.265859 -0.0245813 0.2465 1 0 0
-0.303256 -0.159184 0.415406 0 0 1
-0.0671671 0.310775 0.415406 0 0 1
0.289574 -0.135358 0.402006 0 0 -1
0.2739 -0.0801201 0.415406 0 0 1
0.161395 0.119689 0.402006 0 0 -1
0.2859 0.101903 0.345998 0 0.891006 -0.453991
-0.0347492 0.127115 0.415406 0 0 1
-0.188919 -0.0640022 0.402006 0 0 -1
0.265861 0.113885 0.0246672 -1 0 0
0.116619 0.185535 0.415406 0 0 1
0.0316662 -0.047944 0.402006 0 0 -1
0.274367 0.0413413 0.415406 0 0 1
0.126358 -0.321605 0.410064 0 -1 0
0.145694 -0.0611067 0.402006 0 0 -1
0.0191479 0.0221977 0.402006 0 0 -1
0.249448 0.02547 0.415406 0 0 1
-0.0406381 0.17066 0.415406 0 0 1
-0.116894 0.300698 0.415406 0 0 1
0.321605 0.102448 0.409391 1 0 0
0.210181 -0.188225 0.402006 0 0 -1
0.133352 -0.0472666 0.415406 0 0 1
-0.000297278 -0.300331 0.402006 0 0 -1
-0.273418 0.0167238 0.402006 0 0 -1
-0.0485088 -0.274874 0.415406 0 0 1
-0.321605 -0.146817 0.410288 -1 0 0
-0.267006 0.300187 0.402006 0 0 -1
0.270976 -0.014147 0.17727 0 -0.891006 0.453992
6.86944e-05 0.0710194 0.415406 0 0 1
-0.0902259 0.241348 0.402006 0 0 -1
0.0750967 0.244639 0.402006 0 0 -1
0.260485 -0.205647 0.415406 0 0 1
0.249185 -0.277105 0.402006 0 0 -1
0.314401 -0.285782 0.415406 0 0 1
0.104517 0.0322626 0.415406 0 0 1
0.0945121 -0.12179 0.415406 0 0 1
0.2873 -0.00718732 0.240105 1 0 0
0.0652961 0.205255 0.402006 0 0 -1
-0.149913 0.0454084 0.415406 0 0 1
-0.265859 0.0212694 0.169265 1 0 0
-0.0537467 -0.09623 0.402006 0 0 -1
0.0870674 -0.0689579 0.402006 0 0 -1
0.121845 0.117023 0.415406 0 0 1
-0.146629 -0.110546 0.402006 0 0 -1
-0.265859 -0.0264694 0.131735 1 0 0
-0.260671 0.0810888 0.415406 0 0 1
0.0847518 0.113227 0.402006 0 0 -1
-0.248101 0.128139 0.402006 0 0 -1
0.188863 -0.00815487 0.415406 0 0 1
-0.101949 0.294581 0.402006 0 0 -1
0.233566 0.280927 0.415406 0 0 1
0.0777211 -0.308518 0.415406 0 0 1
0.157864 0.319615 0.402006 0 0 -1
0.265861 0.030829 0.219356 -1 0 0
0.128079 0.00234717 0.415406 0 0 1
-0.265859 0.11296 0.394868 1 0 0
0.17325 0.250457 0.402006 0 0 -1
0.261356 0.145878 0.415406 0 0 1
-0.285732 0.0277621 0.200487 0 0.891006 -0.453991
-0.275155 -0.0721904 0.353596 0 0.866025 0.5
0.265861 -0.0611033 0.0842036 -1 0 0
-0.106688 0.228298 0.415406 0 0 1
0.24712 0.0689577 0.402006 0 0 -1
0.0923364 0.00262731 0.415406 0 0 1
-0.0109573 -0.0251572 0.415406 0 0 1
-0.0420498 -0.227582 0.415406 0 0 1
0.185642 0.299364 0.415406 0 0 1
0.154573 -0.0387358 0.415406 0 0 1
0.124337 -0.263224 0.415406 0 0 1
0.0390581 -0.0931579 0.402006 0 0 -1
0.174386 0.135287 0.402006 0 0 -1
0.272851 -0.0596581 0.278289 0 -0.866026 -0.5
-0.265859 0.0852135 0.348792 1 0 0
0.295615 -0.151272 0.415406 0 0 1
0.2873 -0.0585808 0.325228 1 0 0
-0.265859 0.114743 0.0226234 1 0 0
0.132468 -0.157597 0.415406 0 0 1
0.207604 -0.0423315 0.415406 0 0 1
-0.280645 0.0235345 0.134195 0 -0.866026 -0.5
0.0480443 0.24729 0.415406 0 0 1
0.291543 -0.22697 0.415406 0 0 1
0.00185648 -0.143766 0.415406 0 0 1
0.193475 0.263039 0.415406 0 0 1
-0.315703 0.105232 0.402006 0 0 -1
0.265861 -0.0820537 0.00921796 -1 0 0
0.208027 -0.279964 0.402006 0 0 -1
0.244523 0.110209 0.402006 0 0 -1
0.139547 -0.224971 0.402006 0 0 -1
-0.131476 -0.133678 0.402006 0 0 -1
0.2967 0.172225 0.402006 0 0 -1
-0.299335 0.21679 0.415406 0 0 1
-0.264145 0.041293 0.415406 0 0 1
0.23642 -0.296682 0.415406 0 0 1
-0.275959 -0.235116 0.415406 0 0 1
-0.0999281 0.0480729 0.415406 0 0 1
-0.315966 -0.271416 0.402006 0 0 -1
0.305743 -0.0142358 0.402006 0 0 -1
0.0340302 -0.0162063 0.402006 0 0 -1
-0.0974194 -0.0116068 0.415406 0 0 1
-0.2873 -0.0908265 0.0241254 -1 0 0
0.208639 0.166122 0.415406 0 0 1
0.2873 -0.0421057 0.116383 1 0 0
-0.298241 -0.311069 0.402006 0 0 -1
-0.275031 -0.177117 0.402006 0 0 -1
0.0558205 0.00829035 0.402006 0 0 -1
0.0597032 0.129833 0.415406 0 0 1
-0.309555 0.274502 0.415406 0 0 1
-0.265859 -0.0180779 0.221401 1 0 0
0.229538 0.0014843 0.402006 0 0 -1
-0.122104 0.0269113 0.402006 0 0 -1
-0.252228 -0.152737 0.415406 0 0 1
0.0854338 0.289606 0.402006 0 0 -1
0.0990456 0.224233 0.402006 0 0 -1
-0.198332 0.243066 0.415406 0 0 1
-0.302482 0.128569 0.402006 0 0 -1
-0.182148 0.299416 0.415406 0 0 1
0.118447 0.0437527 0.402006 0 0 -1
-0.158664 0.3021 0.415406 0 0 1
0.0974331 0.0464384 0.402006 0 0 -1
-0.0311626 0.0276836 0.402006 0 0 -1
0.105642 0.321605 0.411605 0 1 0
0.0119032 0.103866 0.415406 0 0 1
-0.228754 0.0270454 0.415406 0 0 1
0.0612525 -0.17 0.415406 0 0 1
0.321605 0.291161 0.415091 1 0 0
0.0955623 0.0826513 0.415406 0 0 1
-0.143768 0.220272 0.415406 0 0 1
-0.0251096 0.0588688 0.402006 0 0 -1
0.321605 -0.0714133 0.413594 1 0 0
0.282793 -0.117079 0.377745 0 -0.866026 -0.5
0.265868 -0.0141964 0.253147 0 0.866025 0.5
-0.265859 -0.0053359 0.175529 1 0 0
0.107518 -0.0304874 0.415406 0 0 1
0.246709 -0.18488 0.402006 0 0 -1
-0.032097 -0.204634 0.402006 0 0 -1
-0.265859 -0.0627678 0.0270418 1 0 0
0.265861 -0.0373482 0.0987537 -1 0 0
-0.0835307 0.130261 0.402006 0 0 -1
0.300204 -0.308554 0.415406 0 0 1
-0.0153369 -0.321605 0.41144 0 -1 0
-0.2873 0.065558 0.309626 -1 0 0
0.00881851 0.144196 0.415406 0 0 1
-0.139549 -0.0189811 0.415406 0 0 1
-0.0721324 -0.0354688 0.415406 0 0 1
-0.2873 -0.00265655 0.14184 -1 0 0
-0.278127 0.0496738 0.243491 0 0.891006 -0.453991
0.294813 0.194445 0.402006 0 0 -1
0.22253 -0.14507 0.402006 0 0 -1
0.308231 0.139631 0.402006 0 0 -1
-0.198765 -0.193862 0.415406 0 0 1
-0.0202928 0.152182 0.415406 0 0 1
-0.116277 -0.0561156 0.415406 0 0 1
-0.179338 -0.146673 0.402006 0 0 -1
-0.0154887 -0.180656 0.415406 0 0 1
-0.0751615 0.201968 0.402006 0 0 -1
0.278683 0.294335 0.402006 0 0 -1
0.224627 -0.251063 0.415406 0 0 1
0.298111 -0.241252 0.402006 0 0 -1
0.280435 -0.279252 0.415406 0 0 1
0.190098 -0.0524732 0.415406 0 0 1
-0.116626 -0.0889617 0.415406 0 0 1
-0.136411 0.239888 0.402006 0 0 -1
0.230261 -0.321605 0.415329 0 -1 0
-0.0292444 0.0998759 0.402006 0 0 -1
-0.210369 0.00134924 0.415406 0 0 1
-0.218186 -0.0653577 0.402006 0 0 -1
-0.170093 0.105889 0.402006 0 0 -1
0.265861 -0.0701936 0.0600367 -1 0 0
-0.0347099 -0.171966 0.402006 0 0 -1
0.150623 0.216797 0.415406 0 0 1
0.223994 0.106771 0.415406 0 0 1
-0.2873 0.061133 0.0778541 -1 0 0
0.198996 0.0557423 0.415406 0 0 1
-0.265859 -0.0897697 0.337422 1 0 0
0.265861 -0.0684761 0.339277 -1 0 0
-0.0423402 0.0281123 0.415406 0 0 1
0.000175178 -0.165982 0.402006 0 0 -1
0.2873 0.00367935 0.154584 1 0 0
-0.0360764 0.233095 0.402006 0 0 -1
0.205062 0.00929537 0.402006 0 0 -1
-0.0823437 0.297597 0.402006 0 0 -1
-0.219822 -0.222753 0.402006 0 0 -1
0.168425 0.050271 0.415406 0 0 1
0.235166 -0.267946 0.415406 0 0 1
-0.265859 0.0600296 0.303571 1 0 0
-0.169696 0.20536 0.402006 0 0 -1
-0.224357 0.205219 0.415406 0 0 1
-0.161162 -0.185082 0.402006 0 0 -1
0.27681 0.0553706 0.0790533 0 -0.866026 -0.5
0.171258 -0.188384 0.415406 0 0 1
-0.147001 -0.0926193 0.415406 0 0 1
-0.159089 -0.0325855 0.402006 0 0 -1
0.285412 -0.00353599 0.139061 0 0.891006 -0.453991
0.0577257 0.0661297 0.415406 0 0 1
0.161665 0.0787241 0.402006 0 0 -1
0.0242215 0.239245 0.415406 0 0 1
-0.21721 -0.296911 0.402006 0 0 -1
-0.153411 -0.259456 0.402006 0 0 -1
0.0953758 0.178964 0.415406 0 0 1
-0.0563137 0.0649432 0.402006 0 0 -1
0.113187 0.0840386 0.402006 0 0 -1
-0.0895533 -0.00433126 0.402006 0 0 -1
0.0217067 0.19295 0.402006 0 0 -1
-0.0750757 0.24495 0.415406 0 0 1
-0.2873 -0.0469647 0.277025 -1 0 0
0.272904 0.0048849 0.402006 0 0 -1
0.144878 0.0348766 0.402006 0 0 -1
-0.298198 0.147225 0.402006 0 0 -1
-0.279618 -0.130754 0.402006 0 0 -1
0.193827 -0.200271 0.415406 0 0 1
0.0794724 0.0434043 0.402006 0 0 -1
-0.170137 0.193865 0.415406 0 0 1
-0.214102 0.320365 0.415406 0 0 1
0.306193 0.0696454 0.402006 0 0 -1
-0.272845 0.0772448 0.0947665 0 0.866025 0.5
-0.0144101 0.00777543 0.402006 0 0 -1
0.196577 -0.0969281 0.402006 0 0 -1
0.216166 0.264547 0.415406 0 0 1
0.121672 -0.277347 0.402006 0 0 -1
-0.257894 -0.112743 0.415406 0 0 1
-0.243657 -0.0072661 0.402006 0 0 -1
-0.105294 -0.301419 0.402006 0 0 -1
-0.0534968 0.0839889 0.415406 0 0 1
0.216579 -0.108179 0.402006 0 0 -1
-0.2873 -0.0547882 0.0619954 -1 0 0
0.170435 0.0879056 0.415406 0 0 1
-0.242066 0.271516 0.402006 0 0 -1
-0.2873 -0.102614 0.00184601 -1 0 0
0.265861 0.0396865 0.118909 -1 0 0
0.240989 0.178738 0.402006 0 0 -1
-0.305504 0.00780216 0.402006 0 0 -1
-0.152094 0.144163 0.415406 0 0 1
0.175898 0.121452 0.415406 0 0 1
0.292327 0.270632 0.402006 0 0 -1
0.2873 0.058438 0.12636 1 0 0
-0.265859 -0.0291749 0.269972 1 0 0
-0.227789 0.301588 0.415406 0 0 1
-0.0835834 0.0965891 0.415406 0 0 1
0.165121 -0.25279 0.402006 0 0 -1
-0.2873 -0.0198986 0.212638 -1 0 0
0.213608 0.316856 0.415406 0 0 1
0.23012 0.30042 0.402006 0 0 -1
0.185338 -0.151842 0.415406 0 0 1
-0.265859 -9.15676e-05 0.203669 1 0 0
0.2873 0.0277252 0.155533 1 0 0
-0.21563 -0.156937 0.402006 0 0 -1
0.0737881 -0.126298 0.415406 0 0 1
-0.0683075 -0.110673 0.415406 0 0 1
0.2873 0.0160983 0.229063 1 0 0
0.274702 0.204255 0.402006 0 0 -1
-0.238826 0.26243 0.415406 0 0 1
-0.2873 -0.0287248 0.121216 -1 0 0
0.0116344 -0.217021 0.415406 0 0 1
0.303721 -0.038303 0.402006 0 0 -1
0.231715 -0.281652 0.402006 0 0 -1
-0.225817 -0.0862176 0.415406 0 0 1
-0.0854348 -0.105406 0.402006 0 0 -1
-0.2873 0.101235 0.357512 -1 0 0
-0.113333 0.125507 0.402006 0 0 -1
-0.26699 0.0352286 0.215141 0 0.891006 -0.453991
0.308004 0.308229 0.415406 0 0 1
-0.0574853 -0.289603 0.402006 0 0 -1
0.172643 -0.166272 0.402006 0 0 -1
0.04625 -0.109548 0.415406 0 0 1
-0.264392 -0.245604 0.402006 0 0 -1
-0.278156 0.287509 0.415406 0 0 1
0.0286068 -0.296987 0.402006 0 0 -1
0.0341302 -0.0801725 0.415406 0 0 1
-0.248625 -0.0549087 0.402006 0 0 -1
-0.312937 0.0953981 0.415406 0 0 1
0.048039 -0.143851 0.402006 0 0 -1
-0.0980221 -0.131634 0.402006 0 0 -1
0.288475 -0.165025 0.402006 0 0 -1
0.265861 -0.0895911 0.367154 -1 0 0
-0.174074 -0.0690139 0.415406 0 0 1
-0.265859 0.0358552 0.15303 1 0 0
-0.265859 -0.0107497 0.150327 1 0 0
0.0691629 0.304348 0.415406 0 0 1
0.143312 0.0817785 0.402006 0 0 -1
-0.274241 0.137365 0.402006 0 0 -1
-0.190999 0.184908 0.415406 0 0 1
0.117242 0.261449 0.402006 0 0 -1
0.188442 -0.248267 0.415406 0 0 1
0.0340851 -0.157995 0.415406 0 0 1
-0.275071 0.00485727 0.415406 0 0 1
-0.222294 -0.0420822 0.402006 0 0 -1
-0.00474927 0.100482 0.402006 0 0 -1
-0.237135 -0.260803 0.415406 0 0 1
-0.265943 -0.0383456 0.294975 0 0.866025 0.5
-0.239374 -0.132457 0.415406 0 0 1
0.265861 -0.0473507 0.297894 -1 0 0
0.271596 -0.305885 0.402006 0 0 -1
0.0552698 0.181063 0.415406 0 0 1
0.196875 -0.175177 0.415406 0 0 1
-0.258338 0.256098 0.402006 0 0 -1
0.252207 0.241856 0.415406 0 0 1
-0.142795 0.0888991 0.415406 0 0 1
0.105633 -0.318315 0.415406 0 0 1
-0.176658 0.153329 0.402006 0 0 -1
-0.167072 -0.279498 0.402006 0 0 -1
-0.308395 -0.290889 0.415406 0 0 1
-0.210709 -0.275705 0.415406 0 0 1
-0.294207 0.0239365 0.402006 0 0 -1
-0.209065 -0.0249608 0.415406 0 0 1
-0.153978 0.263626 0.402006 0 0 -1
-0.258174 -0.0152909 0.415406 0 0 1
0.2873 -0.0844567 0.354017 1 0 0
0.0544177 -0.19988 0.402006 0 0 -1
-0.143471 0.0149986 0.402006 0 0 -1
-0.270957 -0.206181 0.415406 0 0 1
-0.213005 -0.125688 0.402006 0 0 -1
0.282478 -0.0962891 0.402006 0 0 -1
0.28234 0.159958 0.415406 0 0 1
0.192809 0.234019 0.402006 0 0 -1
0.195654 -0.0250233 0.415406 0 0 1
0.281427 0.241413 0.415406 0 0 1
-0.267583 0.0668026 0.112853 0 0.866025 0.5
0.298339 -0.00775176 0.415406 0 0 1
-0.157249 -0.215912 0.402006 0 0 -1
-0.30113 0.0936808 0.402006 0 0 -1
0.0304835 0.151816 0.415406 0 0 1
-0.0972629 -0.0775321 0.402006 0 0 -1
0.309195 0.22761 0.402006 0 0 -1
-0.2873 0.035426 0.118158 -1 0 0
-0.134862 0.130287 0.402006 0 0 -1
-0.191999 0.17 0.402006 0 0 -1
-0.317477 -0.225419 0.402006 0 0 -1
0.0309718 -0.0590826 0.415406 0 0 1
-0.190242 -0.299132 0.402006 0 0 -1
0.275576 0.0432747 0.153605 0 0.866025 0.5
0.244588 0.0811814 0.415406 0 0 1
-0.245586 0.10819 0.402006 0 0 -1
0.107126 0.00136748 0.402006 0 0 -1
-0.0127653 0.27639 0.402006 0 0 -1
0.157422 0.277508 0.415406 0 0 1
-0.275998 0.109021 0.415406 0 0 1
-0.0381221 0.0803962 0.402006 0 0 -1
0.284086 -0.0248302 0.0972693 0 0.891006 -0.453991
-0.275596 -0.0124356 0.196497 0 -0.866026 -0.5
0.265861 0.109093 0.369214 -1 0 0
-0.251773 0.31846 0.402006 0 0 -1
-0.0472606 -0.0694402 0.415406 0 0 1
-0.170649 0.0676673 0.415406 0 0 1
-0.264722 -0.0484268 0.415406 0 0 1
0.217886 0.294984 0.415406 0 0 1
0.233392 -0.0957822 0.402006 0 0 -1
0.00343129 -0.184525 0.415406 0 0 1
0.0716802 0.0052326 0.415406 0 0 1
0.134068 0.230336 0.402006 0 0 -1
-0.00178453 -0.113867 0.402006 0 0 -1
0.2873 -0.0666203 0.0296818 1 0 0
-0.143438 -0.198058 0.402006 0 0 -1
0.268382 -0.269403 0.402006 0 0 -1
0.0663726 -0.0338657 0.402006 0 0 -1
0.321605 -0.0209219 0.413709 1 0 0
0.216772 0.145257 0.402006 0 0 -1
0.00124991 0.0379297 0.402006 0 0 -1
0.2873 0.0821046 0.0735008 1 0 0
0.232091 0.0252289 0.402006 0 0 -1
-0.0967779 0.142257 0.402006 0 0 -1
0.2873 0.0777777 0.330615 1 0 0
0.199731 0.161257 0.402006 0 0 -1
0.260781 0.0895827 0.402006 0 0 -1
-0.267098 -0.0809839 0.402006 0 0 -1
-0.00433418 0.0618874 0.402006 0 0 -1
-0.102705 0.188007 0.402006 0 0 -1
-0.0693594 0.136612 0.415406 0 0 1
0.284613 0.0178841 0.181101 0 0.891006 -0.453991
-0.159215 -0.109274 0.415406 0 0 1
-0.0140944 -0.256666 0.402006 0 0 -1
-0.254346 -0.208932 0.402006 0 0 -1
-0.00593269 0.239148 0.415406 0 0 1
-0.243425 -0.0280002 0.415406 0 0 1
0.278329 0.0266203 0.402006 0 0 -1
-0.143035 -0.24356 0.415406 0 0 1
-0.169084 -0.315256 0.415406 0 0 1
0.192924 0.0200238 0.415406 0 0 1
-0.11544 -0.17 0.415406 0 0 1
-0.260178 -0.176446 0.415406 0 0 1
0.0273876 -0.237933 0.402006 0 0 -1
-0.301498 -0.0667299 0.415406 0 0 1
-0.266372 0.08267 0.30825 0 0.891006 -0.453991
0.142304 0.118683 0.402006 0 0 -1
0.265861 0.0354167 0.248207 -1 0 0
0.264558 0.231665 0.402006 0 0 -1
0.293055 -0.318889 0.402006 0 0 -1
0.265861 0.00560702 0.180938 -1 0 0
0.0750319 0.166121 0.415406 0 0 1
-0.283677 -0.0552498 0.324254 0 0.866025 0.5
0.222741 -0.308218 0.402006 0 0 -1
-0.0589919 0.191903 0.415406 0 0 1
-0.300167 -0.204102 0.415406 0 0 1
-0.23819 0.154024 0.415406 0 0 1
0.155501 -0.0208043 0.402006 0 0 -1
-0.229233 0.14298 0.402006 0 0 -1
0.316112 0.0506387 0.415406 0 0 1
-0.257082 0.223856 0.402006 0 0 -1
-0.0597706 -0.164069 0.415406 0 0 1
-0.15487 0.280724 0.415406 0 0 1
-0.0658163 -0.30159 0.415406 0 0 1
-0.164572 -0.298214 0.402006 0 0 -1
0.267876 -0.143584 0.402006 0 0 -1
-0.293808 0.281229 0.402006 0 0 -1
-0.0970001 -0.269828 0.415406 0 0 1
-0.249055 -0.307505 0.402006 0 0 -1
0.285105 0.0698034 0.282998 0 0.891006 -0.453991
-0.207117 0.251803 0.402006 0 0 -1
0.308306 -0.143887 0.402006 0 0 -1
0.0416435 0.10125 0.402006 0 0 -1
-0.0477665 -0.0191118 0.402006 0 0 -1
-0.2873 0.0393961 0.270358 -1 0 0
0.126607 -0.207285 0.402006 0 0 -1
-0.0948383 0.0725637 0.415406 0 0 1
0.0740117 0.222053 0.402006 0 0 -1
-0.236143 0.0575826 0.402006 0 0 -1
0.270056 0.108693 0.402006 0 0 1
-0.00297809 0.321605 0.407368 0 1 0
-0.2873 0.091158 0.03706 -1 0 0
-0.268029 0.159884 0.402006 0 0 -1
0.0745423 -0.0734863 0.415406 0 0 1
-0.0426433 -0.0547697 0.402006 0 0 -1
0.150558 0.30239 0.402006 0 0 -1
0.265861 0.079282 0.356609 -1 0 0
-0.0444165 0.207954 0.415406 0 0 1
0.140279 0.305063 0.415406 0 0 1
0.103665 -0.19268 0.402006 0 0 -1
0.158736 -0.0931653 0.415406 0 0 1
-0.291059 -0.253521 0.415406 0 0 1
0.124614 -0.103327 0.402006 0 0 -1
0.201746 0.129248 0.402006 0 0 -1
-0.266075 0.0169915 0.145528 0 -0.866026 -0.5
-0.092682 -0.156202 0.415406 0 0 1
-0.2873 0.0169067 0.223594 -1 0 0
-0.310852 0.159958 0.402006 0 0 -1
-0.131786 -0.069725 0.402006 0 0 -1
0.297924 0.121404 0.402006 0 0 -1
-0.101256 0.312383 0.415406 0 0 1
-0.228883 0.318888 0.402006 0 0 -1
-0.270763 0.022877 0.1909 0 0.891006 -0.453991
-0.28097 0.0290622 0.415406 0 0 1
0.278227 -0.0667016 0.402006 0 0 -1
0.192701 -0.267995 0.402006 0 0 -1
0.271776 -0.0191419 0.415406 0 0 1
0.273071 0.106711 0.0437293 0 0.866025 0.5
0.175414 -0.118525 0.415406 0 0 1
0.282448 -0.0509861 0.415406 0 0 1
0.313407 -0.240284 0.415406 0 0 1
-0.273998 -0.0410973 0.0653434 0 0.891006 -0.453991
-0.314971 0.221504 0.402006 0 0 -1
-0.0176606 -0.124654 0.415406 0 0 1
0.283247 0.0938805 0.0123521 0 -0.866026 -0.5
-0.2873 -0.0994784 0.38408 -1 0 0
-0.265859 0.102076 0.380925 1 0 0
0.065772 0.0755752 0.402006 0 0 -1
0.211761 0.231407 0.402006 0 0 -1
-0.0547805 0.117762 0.402006 0 0 -1
-0.101851 -0.0340181 0.415406 0 0 1
-0.222449 0.0979477 0.415406 0 0 1
-0.207108 -0.228172 0.415406 0 0 1
-0.0182599 -0.273012 0.415406 0 0 1
0.132608 -0.0668245 0.415406 0 0 1
-0.0804329 -0.208891 0.402006 0 0 -1
-0.0983799 -0.184583 0.402006 0 0 -1
0.282286 0.0968 0.415406 0 0 1
-0.180158 -0.24768 0.415406 0 0 1
0.091644 -0.25043 0.402006 0 0 -1
-0.0788382 0.265639 0.402006 0 0 -1
0.278098 0.0299099 0.204703 0 0.891006 -0.453991
0.249046 -0.161705 0.402006 0 0 -1
0.126525 0.270401 0.415406 0 0 1
-0.190249 0.313621 0.415406 0 0 1
-0.16636 -0.142672 0.415406 0 0 1
0.2873 0.0803508 0.0380766 1 0 0
-0.0725675 0.167272 0.415406 0 0 1
0.268585 -0.0851286 0.0379614 0 -0.891006 0.453992
0.112475 -0.0693899 0.415406 0 0 1
0.169238 0.00940898 0.415406 0 0 1
0.107152 -0.264379 0.415406 0 0 1
-0.0603948 -0.225123 0.415406 0 0 1
-0.127457 -0.00299725 0.415406 0 0 1
-0.0498196 -0.190927 0.415406 0 0 1
-0.265859 -0.0613708 0.311145 1 0 0
-0.287258 0.12511 0.011861 0 0.866025 0.5
-0.0423169 0.265006 0.402006 0 0 -1
0.258811 -0.301819 0.415406 0 0 1
-0.159684 -0.124639 0.402006 0 0 -1
0.123325 0.143828 0.402006 0 0 -1
0.179505 -0.0760489 0.415406 0 0 1
-0.165332 -0.17 0.415406 0 0 1
0.2873 -0.0303645 0.13918 1 0 0
0.295708 0.0255266 0.415406 0 0 1
0.0404548 0.27161 0.402006 0 0 -1
0.287513 -0.121227 0.415406 0 0 1
-0.232233 -0.238016 0.415406 0 0 1
0.279557 -0.242048 0.402006 0 0 -1
0.0289759 0.299106 0.415406 0 0 1
-0.0629775 0.231504 0.415406 0 0 1
0.0044508 -0.0141239 0.415406 0 0 1
-0.320844 0.00870794 0.415406 0 0 1
0.208662 -0.167635 0.402006 0 0 -1
-0.183363 0.0285101 0.402006 0 0 -1
0.286555 0.205599 0.415406 0 0 1
0.100773 -0.291845 0.402006 0 0 -1
-0.125376 0.227047 0.415406 0 0 1
-0.2873 -0.0717345 0.0280312 -1 0 0
0.0193434 -0.303216 0.415406 0 0 1
-0.111411 0.265094 0.415406 0 0 1
0.166049 0.187008 0.415406 0 0 1
0.137113 -0.0179107 0.415406 0 0 1
-0.260818 -0.285225 0.415406 0 0 1
0.2873 0.106434 0.363993 1 0 0
-0.254367 0.211244 0.415406 0 0 1
-0.196183 -0.0918737 0.402006 0 0 -1
-0.218766 0.0655855 0.415406 0 0 1
-0.00615552 -0.0705518 0.415406 0 0 1
-0.189838 0.072213 0.402006 0 0 -1
-0.146411 0.308015 0.402006 0 0 -1
0.272102 0.0962799 0.334961 0 0.891006 -0.453991
0.2873 -0.0394496 0.278271 1 0 0
-0.226767 0.110849 0.402006 0 0 -1
-0.268061 0.0331591 0.270113 0 -0.891006 0.453992
0.274678 0.0709251 0.052112 0 -0.866026 -0.5
-0.131568 0.0478728 0.415406 0 0 1
0.141861 0.321605 0.403052 0 1 0
0.164379 0.266684 0.402006 0 0 -1
0.260967 0.299415 0.402006 0 0 -1
-0.293484 -0.175989 0.402006 0 0 -1
-0.171489 0.14118 0.415406 0 0 1
0.231153 0.145644 0.415406 0 0 1
0.154964 -0.162001 0.402006 0 0 -1
0.106406 0.233664 0.415406 0 0 1
-0.037627 -0.105546 0.402006 0 0 -1
0.185976 -0.21844 0.402006 0 0 -1
0.158667 0.201501 0.415406 0 0 1
-0.0927882 -0.299478 0.415406 0 0 1
0.0691432 0.286568 0.402006 0 0 -1
0.0827528 -0.185995 0.402006 0 0 -1
-0.119965 0.199472 0.402006 0 0 -1
-0.27615 0.190644 0.415406 0 0 1
-0.278413 0.173241 0.402006 0 0 -1
0.269761 0.129528 0.415406 0 0 1
0.180443 -0.308528 0.402006 0 0 -1
0.222985 0.117525 0.402006 0 0 -1
-0.31983 0.25387 0.415406 0 0 1
0.168084 -0.281767 0.402006 0 0 -1
-0.0144885 -0.0375927 0.402006 0 0 -1
0.265861 0.0624441 0.0919724 -1 0 0
-0.277117 -0.0429851 0.402006 0 0 -1
0.215112 -0.0823063 0.415406 0 0 1
0.172535 0.225927 0.402006 0 0 -1
-0.281516 0.0801136 0.415406 0 0 1
0.0512426 0.0840548 0.415406 0 0 1
-0.0498263 -0.206473 0.415406 0 0 1
0.265861 0.0307035 0.160236 -1 0 0
0.162497 0.0397435 0.402006 0 0 -1
-0.0802987 -0.0666858 0.402006 0 0 -1
0.288063 0.26051 0.415406 0 0 1
0.245086 0.0438273 0.415406 0 0 1
0.0130919 -0.0386782 0.415406 0 0 1
0.0196519 0.0100781 0.415406 0 0 1
0.31739 -0.108473 0.402006 0 0 -1
-0.0729457 -0.140656 0.415406 0 0 1
0.187745 0.0413839 0.415406 0 0 1
0.311062 -0.164269 0.415406 0 0 1
-0.253321 -0.0945894 0.415406 0 0 1
-0.0151925 0.0982023 0.415406 0 0 1
-0.151718 -0.167021 0.402006 0 0 -1
0.100514 -0.224295 0.402006 0 0 -1
-0.283959 0.0184941 0.241332 0 -0.891006 0.453992
0.136189 -0.307849 0.415406 0 0 1
-0.174606 -0.0988411 0.415406 0 0 1
0.273049 -0.0944464 0.338544 0 -0.866026 -0.5
-0.223646 0.17418 0.415406 0 0 1
-0.265859 -0.0874814 0.356294 1 0 0
-0.0198368 -0.112659 0.402006 0 0 -1
-0.280297 -0.0562406 0.0946572 0 -0.891006 0.453992
-0.203595 0.0504202 0.402006 0 0 -1
-0.270857 -0.276797 0.402006 0 0 -1
0.275739 0.0473158 0.238864 0 0.891006 -0.453991
-0.252346 0.186081 0.415406 0 0 1
-0.276047 0.0393153 0.402006 0 0 -1
-0.265859 0.0691292 0.0785451 1 0 0
0.2873 -0.0513165 0.263931 1 0 0
0.0198911 0.263867 0.402006 0 0 -1
-0.0664842 0.213841 0.415406 0 0 1
-0.0535973 0.242136 0.402006 0 0 -1
0.0858749 -0.0917156 0.415406 0 0 1
0.26658 0.281027 0.402006 0 0 -1
-0.181862 -0.259132 0.402006 0 0 -1
0.319529 -0.0575466 0.402006 0 0 -1
0.302051 0.248667 0.415406 0 0 1
-0.0488564 -0.253103 0.415406 0 0 1
0.210459 0.0313094 0.415406 0 0 1
-0.210417 -0.321605 0.405522 0 -1 0
0.299503 0.282804 0.415406 0 0 1
-0.111507 -0.318443 0.415406 0 0 1
0.265861 0.119703 0.00770796 -1 0 0
-0.151767 -0.267807 0.415406 0 0 1
-0.17835 0.0395872 0.415406 0 0 1
0.105758 0.173225 0.402006 0 0 -1
-0.299343 0.249089 0.415406 0 0 1
-0.168409 0.270254 0.415406 0 0 1
0.117288 0.0666367 0.402006 0 0 -1
0.2873 0.0349353 0.271963 1 0 0
0.208361 -0.143988 0.415406 0 0 1
0.287275 0.00887582 0.415406 0 0 1
-0.279664 -0.0690909 0.0694371 0 -0.891006 0.453992
0.163371 -0.173531 0.415406 0 0 1
-0.00887272 0.170806 0.402006 0 0 -1
0.147207 0.177431 0.402006 0 0 -1
0.320995 0.303221 0.402006 0 0 -1
-0.0590064 0.294958 0.415406 0 0 1
-0.0288646 0.175692 0.402006 0 0 -1
-0.286736 0.0285046 0.179187 0 0.866025 0.5
0.31686 0.276662 0.402006 0 0 -1
-0.287607 -0.292446 0.402006 0 0 -1
-0.309396 -0.16837 0.402006 0 0 -1
-0.195821 -0.111374 0.402006 0 0 -1
0.306266 -0.207788 0.415406 0 0 1
0.116887 0.167882 0.415406 0 0 1
-0.267884 -0.0204214 0.164956 0 -0.891006 0.453992
0.2873 -0.062293 0.0530743 1 0 0
0.221133 -0.0292513 0.402006 0 0 -1
-0.306536 -0.321605 0.41346 0 -1 0
-0.308182 -0.0300604 0.402006 0 0 -1
-0.0164542 0.234642 0.402006 0 0 -1
0.0784851 -0.276507 0.402006 0 0 -1
-0.294304 0.0622337 0.415406 0 0 1
0.149058 -0.0731139 0.415406 0 0 1
0.256986 0.00273627 0.415406 0 0 1
-0.0206827 -0.231117 0.402006 0 0 -1
-0.14746 0.154474 0.402006 0 0 -1
0.00403932 0.285377 0.415406 0 0 1
0.312911 -0.270379 0.402006 0 0 -1
-0.287171 0.00866675 0.159947 0 -0.866026 -0.5
-0.135661 -0.306821 0.402006 0 0 -1
0.281061 -0.038966 0.296049 0 0.866025 0.5
-0.0268041 -0.0623103 0.402006 0 0 -1
0.0753963 0.121999 0.415406 0 0 1
-0.269019 -0.318868 0.402006 0 0 -1
0.265861 0.0628756 0.275254 -1 0 0
0.200677 0.0922099 0.415406 0 0 1
-0.2873 -0.0186977 0.243789 -1 0 0
0.181455 0.288888 0.402006 0 0 -1
-0.236671 -0.211246 0.415406 0 0 1
0.220568 -0.201757 0.415406 0 0 1
0.141594 -0.278498 0.415406 0 0 1
-0.167185 -0.00587541 0.402006 0 0 -1
-0.0736405 0.00549665 0.402006 0 0 -1
-0.265859 -0.0349791 0.0811376 1 0 0
0.273497 -0.288013 0.402006 0 0 -1
-0.139566 0.188382 0.415406 0 0 1
0.2873 -0.0513475 0.0681509 1 0 0
-0.0185426 0.133491 0.415406 0 0 1
0.0517848 0.257768 0.402006 0 0 -1
-0.0670221 -0.0909104 0.415406 0 0 1
0.302934 -0.0684642 0.415406 0 0 1
-0.2873 -0.0623444 0.308709 -1 0 0
-0.211271 -0.181777 0.402006 0 0 -1
-0.265859 -0.0336531 0.101296 1 0 0
-0.0122948 -0.0529282 0.415406 0 0 1
-0.2873 -0.0666607 0.339262 -1 0 0
0.0401317 -0.205067 0.415406 0 0 1
0.267102 -0.0184545 0.206922 0 -0.866026 -0.5
0.265861 -0.116942 0.393098 -1 0 0
0.318569 0.24049 0.415406 0 0 1
0.0845556 0.180436 0.402006 0 0 -1
-0.289449 -0.275034 0.402006 0 0 -1
0.213686 0.171411 0.402006 0 0 -1
-0.238432 0.069264 0.415406 0 0 1
0.238912 -0.0773593 0.415406 0 0 1
0.112935 0.0961462 0.415406 0 0 1
-0.0279326 -0.292834 0.415406 0 0 1
-0.18613 0.0915847 0.415406 0 0 1
-0.199894 0.232338 0.402006 0 0 -1
0.250187 -0.208993 0.402006 0 0 -1
-0.321605 -0.289999 0.404393 -1 0 0
0.285562 -0.00236866 0.200386 0 -0.891006 0.453992
-0.273371 -0.305197 0.415406 0 0 1
0.27765 0.00351435 0.222471 0 0.866025 0.5
-0.198478 0.123645 0.415406 0 0 1
-0.0251693 0.202678 0.415406 0 0 1
0.195227 0.192013 0.415406 0 0 1
-0.221064 0.187568 0.402006 0 0 -1
0.217367 0.185182 0.415406 0 0 1
0.0626507 0.256206 0.415406 0 0 1
-0.0631714 -0.257986 0.402006 0 0 -1
-0.107559 0.2012 0.415406 0 0 1
-0.111494 0.0273779 0.415406 0 0 1
-0.0227593 0.272807 0.415406 0 0 1
0.112385 -0.159729 0.415406 0 0 1
0.250663 -0.118409 0.415406 0 0 1
0.321605 0.0625151 0.403853 1 0 0
-0.265859 0.103359 0.00432849 1 0 0
-0.152938 -0.07311 0.402006 0 0 -1
-0.0885821 0.205373 0.415406 0 0 1
-0.0570121 -0.192782 0.402006 0 0 -1
0.101803 0.157633 0.415406 0 0 1
0.201356 0.305884 0.415406 0 0 1
-0.258923 0.174043 0.402006 0 0 -1
-0.0558043 -0.143908 0.402006 0 0 -1
-0.14097 0.274589 0.402006 0 0 -1
-0.0104698 0.187977 0.402006 0 0 -1
0.229452 -0.209976 0.402006 0 0 -1
-0.277682 -0.258462 0.415406 0 0 1
0.0290407 0.00341102 0.402006 0 0 -1
0.0754821 0.203178 0.415406 0 0 1
0.231127 -0.191559 0.402006 0 0 -1
0.0327795 -0.0698935 0.402006 0 0 -1
-0.0992281 -0.114416 0.415406 0 0 1
0.197678 -0.243611 0.402006 0 0 -1
0.156552 0.0628251 0.415406 0 0 1
0.281127 -0.0749399 0.304758 0 -0.866026 -0.5
0.282187 -0.215838 0.402006 0 0 -1
0.0855777 -0.0587571 0.415406 0 0 1
0.225096 0.318149 0.402006 0 0 -1
0.109712 0.254468 0.415406 0 0 1
-0.2873 0.0803822 0.324308 -1 0 0
-0.2904 -0.148266 0.415406 0 0 1
0.00759953 0.256801 0.415406 0 0 1
0.318632 0.0865218 0.402006 0 0 -1
0.153551 -0.21578 0.415406 0 0 1
-0.265859 0.093763 0.364414 1 0 0
0.256846 0.12118 0.402006 0 0 -1
-0.111712 -0.274511 0.402006 0 0 -1
-0.2409 0.0175053 0.402006 0 0 -1
0.128798 0.298112 0.402006 0 0 -1
0.0418838 -0.226906 0.402006 0 0 -1
0.253001 0.309051 0.415406 0 0 1
0.141717 0.0987436 0.402006 0 0 -1
-0.102455 -0.21687 0.415406 0 0 1
0.0623619 -0.301844 0.415406 0 0 1
-0.251554 0.0541167 0.415406 0 0 1
0.102954 -0.0148332 0.402006 0 0 -1
-0.152246 -0.0398704 0.415406 0 0 1
0.29469 0.153468 0.402006 0 0 -1
-0.22903 -0.120943 0.402006 0 0 -1
0.306021 0.102255 0.415406 0 0 1
0.271447 -0.0335582 0.233083 0 -0.866026 -0.5
0.265861 0.0729928 0.334002 -1 0 0
-0.078564 0.284522 0.415406 0 0 1
0.282233 0.0704768 0.415406 0 0 1
0.256019 0.28854 0.415406 0 0 1
-0.2999 0.119718 0.415406 0 0 1
-0.137996 -0.235015 0.402006 0 0 -1
0.265861 -0.0550649 0.068663 -1 0 0
0.265861 -0.0700628 0.316536 -1 0 0
-0.093392 0.135795 0.415406 0 0 1
-0.175198 0.245264 0.415406 0 0 1
-0.163158 0.242416 0.402006 0 0 -1
0.00583008 0.203244 0.402006 0 0 -1
0.205916 0.240524 0.415406 0 0 1
0.132797 -0.167416 0.402006 0 0 -1
-0.0208633 0.302003 0.415406 0 0 1
-0.298824 -0.0330189 0.415406 0 0 1
0.0139969 -0.0835648 0.402006 0 0 -1
-0.254216 -0.121805 0.402006 0 0 -1
0.123615 -0.00634047 0.402006 0 0 -1
0.136694 0.16887 0.415406 0 0 1
0.0077588 0.17042 0.402006 0 0 -1
-0.307659 -0.193775 0.402006 0 0 -1
-0.311848 0.0666401 0.415406 0 0 1
-0.122434 -0.197258 0.415406 0 0 1
-0.0225193 -0.149699 0.402006 0 0 -1
-0.204496 0.208191 0.402006 0 0 -1
0.0356695 0.093605 0.415406 0 0 1
-0.138148 -0.154248 0.402006 0 0 -1
0.0619408 0.18809 0.402006 0 0 -1
0.30833 -0.254501 0.402006 0 0 -1
0.0937822 0.0921341 0.402006 0 0 -1
0.147251 -0.170158 0.415406 0 0 1
-0.0723785 -0.0258396 0.402006 0 0 -1
-0.217693 0.230423 0.415406 0 0 1
-0.2873 -0.000758991 0.189859 -1 0 0
-0.302816 -0.111951 0.415406 0 0 1
0.0956638 -0.0840891 0.402006 0 0 -1
-0.252509 0.101526 0.415406 0 0 1
-0.00237206 0.219838 0.402006 0 0 -1
-0.0749761 -0.269482 0.402006 0 0 -1
0.039179 0.0338239 0.415406 0 0 1
-0.285848 0.0778213 0.298734 0 0.891006 -0.453991
-0.122574 -0.0369047 0.415406 0 0 1
-0.257104 -0.225217 0.415406 0 0 1
0.0877653 0.249598 0.415406 0 0 1
0.19157 0.279725 0.415406 0 0 1
0.0712488 0.317732 0.402006 0 0 -1
-0.0183414 0.0655809 0.415406 0 0 1
-0.2873 -0.113155 0.393193 -1 0 0
-0.300363 0.0652987 0.402006 0 0 -1
-0.319471 -0.190374 0.415406 0 0 1
0.206084 -0.0779587 0.402006 0 0 -1
-0.128597 -0.215289 0.402006 0 0 -1
-0.130956 0.121691 0.415406 0 0 1
-0.12673 0.166722 0.402006 0 0 -1
0.140412 -0.00834313 0.402006 0 0 -1
0.28655 -0.0909361 0.386064 0 0.866025 0.5
-0.0433911 -0.315978 0.402006 0 0 -1
0.268355 0.0833872 0.415406 0 0 1
0.267833 0.00506175 0.155936 0 0.891006 -0.453991
0.157387 0.286888 0.402006 0 0 -1
0.179982 -0.00516638 0.402006 0 0 -1
-0.212996 0.145839 0.402006 0 0 -1
-0.149133 0.229622 0.402006 0 0 -1
-0.288439 -0.0995208 0.415406 0 0 1
-0.315849 0.0399576 0.402006 0 0 -1
-0.294647 -0.238817 0.415406 0 0 1
-0.192964 0.296 0.402006 0 0 -1
0.0832588 -0.0101589 0.402006 0 0 -1
0.304085 0.178582 0.415406 0 0 1
0.0432641 -0.0169275 0.415406 0 0 1
0.203615 -0.0297437 0.402006 0 0 -1
0.2873 0.0407309 0.250422 1 0 0
-0.283473 0.100797 0.402006 0 0 -1
-0.0602526 0.160107 0.402006 0 0 -1
0.0709141 0.146727 0.402006 0 0 -1
-0.143134 0.105159 0.415406 0 0 1
0.128349 -0.236761 0.402006 0 0 -1
0.285407 0.0771824 0.29748 0 0.891006 -0.453991
0.2873 -0.111961 0.391144 1 0 0
-0.187373 -0.141201 0.415406 0 0 1
-0.265859 -0.0545155 0.293328 1 0 0
-0.0368666 0.321605 0.414156 0 1 0
-0.0930929 0.296946 0.415406 0 0 1
-0.083968 0.0440874 0.402006 0 0 -1
0.247759 0.149362 0.402006 0 0 -1
-0.000945389 0.307662 0.415406 0 0 1
0.0467378 0.154468 0.415406 0 0 1
-0.192924 -0.23706 0.415406 0 0 1
-0.0997168 0.0903377 0.415406 0 0 1
-0.168614 0.157559 0.415406 0 0 1
0.0463174 -0.054003 0.402006 0 0 -1
-0.0633565 -0.00773025 0.402006 0 0 -1
-0.265859 0.0831566 0.331967 1 0 0
-0.117484 0.102833 0.402006 0 0 -1
-0.085426 -0.236838 0.415406 0 0 1
-0.265859 -0.0103277 0.132626 1 0 0
0.0533365 0.300867 0.402006 0 0 -1
0.158404 0.0191154 0.402006 0 0 -1
0.0195494 0.0976606 0.402006 0 0 -1
-0.0385174 0.118965 0.402006 0 0 -1
0.25753 0.270929 0.415406 0 0 1
-0.0699326 0.237597 0.402006 0 0 -1
0.0254012 -0.321605 0.411437 0 -1 0
0.265861 0.0311821 0.263764 -1 0 0
-0.0461233 -0.216 0.402006 0 0 -1
-0.282371 0.308899 0.415406 0 0 1
0.0326557 0.314797 0.415406 0 0 1
0.265861 -0.0157516 0.159452 -1 0 0
0.0682637 -0.152483 0.415406 0 0 1
0.153896 0.133936 0.402006 0 0 -1
0.303588 -0.121436 0.415406 0 0 1
0.298275 -0.0482168 0.415406 0 0 1
-0.269517 0.0816478 0.402006 0 0 -1
0.022328 -0.0328285 0.402006 0 0 -1
0.115389 -0.0345306 0.402006 0 0 -1
-0.224299 -0.155183 0.415406 0 0 1
-0.174332 -0.165784 0.402006 0 0 -1
-0.171078 0.0111805 0.415406 0 0 1
-0.2873 -0.0841971 0.00448843 -1 0 0
-0.232821 0.0765831 0.402006 0 0 -1
0.166728 -0.119775 0.402006 0 0 -1
0.101816 -0.302767 0.415406 0 0 1
-0.300831 0.155579 0.415406 0 0 1
-0.00619414 -0.203123 0.415406 0 0 1
0.269586 0.016495 0.237408 0 -0.891006 0.453992
-0.0298621 -0.101596 0.415406 0 0 1
-0.177009 0.21007 0.415406 0 0 1
-0.2873 0.0866323 0.345853 -1 0 0
-0.321605 0.148284 0.404564 -1 0 0
0.125901 0.124701 0.402006 0 0 -1
0.130287 -0.109872 0.415406 0 0 1
0.14719 -0.285106 0.402006 0 0 -1
0.0751028 0.0737999 0.415406 0 0 1
-0.246377 0.0302036 0.415406 0 0 1
-0.217273 -0.240527 0.402006 0 0 -1
-0.146704 -0.152678 0.415406 0 0 1
-0.256072 0.311007 0.415406 0 0 1
-0.248475 0.136735 0.415406 0 0 1
-0.26407 -0.0695276 0.415406 0 0 1
-0.27587 -0.0175586 0.415406 0 0 1
-0.0641266 0.0191718 0.415406 0 0 1
-0.146676 -0.0577926 0.415406 0 0 1
-0.269905 0.239264 0.402006 0 0 -1
-0.161678 0.119355 0.402006 0 0 -1
-0.0278529 0.043229 0.402006 0 0 -1
0.208378 0.0542268 0.402006 0 0 -1
0.214238 -0.259813 0.402006 0 0 -1
0.122179 -0.180689 0.415406 0 0 1
-0.265859 -0.0103147 0.238137 1 0 0
-0.0434774 0.0392789 0.402006 0 0 -1
-0.151051 0.087028 0.402006 0 0 -1
-0.095368 0.0123133 0.402006 0 0 -1
-0.20153 0.321605 0.404453 0 1 0
-0.0291917 -0.00378281 0.402006 0 0 -1
0.256753 -0.233807 0.415406 0 0 1
-0.2873 -0.0231048 0.103127 -1 0 0
0.0308865 -0.114742 0.415406 0 0 1
0.180835 0.152292 0.402006 0 0 -1
0.220375 -0.0526122 0.402006 0 0 -1
0.237615 -0.111926 0.402006 0 0 -1
-0.321605 0.307409 0.413264 -1 0 0
-0.289034 -0.307307 0.415406 0 0 1
-0.266357 -0.0224041 0.402006 0 0 -1
-0.287032 -0.199905 0.402006 0 0 -1
-0.200525 0.10453 0.415406 0 0 1
-0.078211 0.16113 0.402006 0 0 -1
0.253085 0.168599 0.402006 0 0 -1
-0.0039385 0.131152 0.402006 0 0 -1
-0.270608 0.129889 0.415406 0 0 1
0.277288 0.321605 0.405014 0 1 0
0.113517 -0.0899683 0.402006 0 0 -1
-0.214267 -0.0400165 0.415406 0 0 1
-0.0776301 -0.184568 0.402006 0 0 -1
-0.225711 0.274264 0.415406 0 0 1
0.275545 -0.0322226 0.0827609 0 0.891006 -0.453991
-0.0990368 -0.224366 0.402006 0 0 -1
0.265861 -0.0257757 0.109387 -1 0 0
-0.265859 -0.0394309 0.258067 1 0 0
-0.11173 -0.261375 0.415406 0 0 1
0.0415193 0.0809181 0.402006 0 0 -1
-0.321605 -0.0643418 0.4143 -1 0 0
0.279226 -0.190082 0.415406 0 0 1
0.0361891 0.206996 0.402006 0 0 -1
0.162646 0.151032 0.415406 0 0 1
-0.2266 0.0818833 0.415406 0 0 1
0.265861 -0.0946161 0.0113088 -1 0 0
-0.0553143 -0.321565 0.415406 0 0 1
-0.0853688 -0.31197 0.402006 0 0 -1
0.192697 -0.165667 0.402006 0 0 -1
-0.0726601 0.316666 0.402006 0 0 -1
-0.105269 0.0417865 0.402006 0 0 -1
-0.15181 0.133583 0.402006 0 0 -1
0.278971 -0.143051 0.415406 0 0 1
0.0481464 -0.31761 0.402006 0 0 -1
-0.152478 0.202526 0.415406 0 0 1
-0.0581078 -0.0569291 0.402006 0 0 -1
-0.234442 -0.169112 0.415406 0 0 1
-0.26192 0.208698 0.402006 0 0 -1
-0.141668 0.264252 0.415406 0 0 1
0.0987114 -0.128476 0.402006 0 0 -1
-0.0232012 -0.238593 0.415406 0 0 1
-0.277563 -0.112652 0.415406 0 0 1
-0.122913 -0.0711608 0.415406 0 0 1
0.2873 0.0932457 0.329065 1 0 0
-0.049687 0.0965647 0.402006 0 0 -1
0.0559495 -0.24611 0.415406 0 0 1
-0.147671 0.0227442 0.415406 0 0 1
-0.279631 0.0462602 0.415406 0 0 1
0.260997 0.0174209 0.402006 0 0 -1
-0.194272 -0.273773 0.415406 0 0 1
0.285463 0.298172 0.415406 0 0 1
0.265861 0.0992115 0.0552133 -1 0 0
0.245505 0.306974 0.402006 0 0 -1
0.163168 0.130277 0.415406 0 0 1
-0.202102 0.181715 0.402006 0 0 -1
0.23026 0.271152 0.402006 0 0 -1
0.155271 -0.0779393 0.402006 0 0 -1
0.166295 -0.302282 0.402006 0 0 -1
-0.2873 -0.0577826 0.293934 -1 0 0
0.0766418 0.193715 0.402006 0 0 -1
0.302689 -0.136863 0.415406 0 0 1
0.130868 -0.127138 0.415406 0 0 1
-0.265859 -0.0475858 0.0935633 1 0 0
-0.0254125 0.130078 0.402006 0 0 -1
-0.173344 0.178496 0.402006 0 0 -1
-0.0862986 0.103727 0.402006 0 0 -1
0.303587 -0.158571 0.402006 0 0 -1
-0.275636 0.0732879 0.34887 0 -0.891006 0.453992
-0.265859 -0.000153482 0.219088 1 0 0
-0.17312 -0.0547411 0.402006 0 0 -1
-0.295281 -0.160692 0.402006 0 0 -1
-0.199262 -0.151052 0.415406 0 0 1
-0.161438 -0.0953463 0.402006 0 0 -1
0.0980454 -0.105712 0.415406 0 0 1
-0.265844 -0.261125 0.402006 0 0 -1
-0.161411 -0.19263 0.415406 0 0 1
-0.305943 -0.0771854 0.402006 0 0 -1
-0.125043 -0.226462 0.415406 0 0 1
-0.108842 0.0595084 0.402006 0 0 -1
0.270771 -0.321605 0.404884 0 -1 0
0.208555 -0.227863 0.402006 0 0 -1
-0.194544 0.152793 0.402006 0 0 -1
-0.0233797 -0.204979 0.415406 0 0 1
0.0929694 -0.159765 0.402006 0 0 -1
-0.00932676 0.195372 0.415406 0 0 1
0.20294 -0.00204185 0.415406 0 0 1
-0.0238822 0.240729 0.415406 0 0 1
0.15308 -0.113229 0.415406 0 0 1
-0.2873 0.0467071 0.255423 -1 0 0
-0.128614 -0.0134239 0.402006 0 0 -1
-0.320611 -0.104905 0.402006 0 0 -1
-0.0937557 0.0858767 0.402006 0 0 -1
0.0096201 -0.288643 0.402006 0 0 -1
0.237025 0.240533 0.402006 0 0 -1
0.265861 -0.0831109 0.343755 -1 0 0
0.1037 -0.185287 0.415406 0 0 1
0.00755733 -0.223183 0.402006 0 0 -1
0.286907 -0.0133433 0.178848 0 -0.891006 0.453992
0.21996 0.089085 0.415406 0 0 1
0.10456 -0.0716588 0.402006 0 0 -1
-0.316807 -0.0477893 0.402006 0 0 -1
0.304677 0.12428 0.415406 0 0 1
0.0824837 0.263774 0.402006 0 0 -1
0.00340164 0.022809 0.402006 0 0 -1
-0.278634 0.260574 0.402006 0 0 -1
0.315645 -0.0264665 0.402006 0 0 -1
0.220291 -0.27135 0.415406 0 0 1
0.316694 0.208718 0.402006 0 0 -1
0.272936 0.184245 0.402006 0 0 -1
0.218245 -0.0637805 0.415406 0 0 1
-0.199968 -0.287908 0.415406 0 0 1
0.303027 0.309472 0.402006 0 0 -1
0.240877 -0.231995 0.402006 0 0 -1
0.256053 -0.101631 0.415406 0 0 1
0.0587605 0.0318399 0.402006 0 0 -1
-0.263593 -0.165033 0.402006 0 0 -1
0.154373 0.177104 0.415406 0 0 1
0.199826 0.321605 0.411132 0 1 0
-0.2873 0.077451 0.0650007 -1 0 0
-0.164174 0.0646308 0.402006 0 0 -1
0.133925 0.0920813 0.415406 0 0 1
0.169628 -0.0368219 0.415406 0 0 1
-0.105226 -0.000436097 0.402006 0 0 -1
-0.192625 0.111196 0.402006 0 0 -1
0.15602 0.0831899 0.415406 0 0 1
-0.2873 0.0996514 0.0496248 -1 0 0
0.241366 0.0109672 0.402006 0 0 -1
-0.115991 0.315829 0.415406 0 0 1
-0.123221 -0.0915418 0.402006 0 0 -1
-0.108497 0.273429 0.402006 0 0 -1
0.181308 -0.204021 0.402006 0 0 -1
-0.280326 0.211172 0.402006 0 0 -1
0.0503235 0.0529095 0.415406 0 0 1
0.0470497 0.314646 0.402006 0 0 -1
-0.320174 -0.124128 0.402006 0 0 -1
0.0905106 0.294483 0.415406 0 0 1
-0.133907 0.26052 0.402006 0 0 -1
0.137042 -0.133456 0.402006 0 0 -1
-0.140063 0.305054 0.415406 0 0 1
-0.2367 -0.073192 0.415406 0 0 1
-0.028857 -0.0267204 0.415406 0 0 1
-0.0821046 0.308474 0.415406 0 0 1
0.0187842 0.132834 0.415406 0 0 1
-0.276698 -0.0330397 0.285785 0 0.866025 0.5
0.130521 0.276115 0.402006 0 0 -1
-0.0835193 -0.0197603 0.415406 0 0 1
