0.259875 0.249712 0.551163 0 0 -1
0.249344 0.0850181 0.135946 0 0.390365 0.92066
0.160026 -0.0909223 0.570708 0 0 1
-0.0200831 0.144695 0.570708 0 0 1
0.0290913 -0.040492 0.570708 0 0 1
0.114303 0.157769 0.570708 0 0 1
0.12043 0.183025 0.551163 0 0 -1
-0.166772 0.00515758 0.526927 0 0 1
0.227529 -0.293171 0.562018 0 -1 0
-0.276708 -0.232701 0.551163 0 0 -1
0.245907 -0.242419 0.570708 0 0 1
-0.184893 -0.267502 0.570708 0 0 1
0.234851 0.00116354 0.505801 -0.965775 0.25938 0
0.246038 -0.0819043 0.535527 0 0 -1
-0.266218 -0.00993691 0.414475 -0.7073 -0.706913 0
-0.293173 -0.0907153 0.553656 -1 0 0
0.201996 0.222152 0.551163 0 0 -1
-0.24836 -0.141744 0.111895 0 -0.390361 0.920662
-0.094867 -0.00982772 0.526927 0 0 1
-0.233605 -0.194168 0.0511051 0.995228 0.0542093 0.0811332
-0.23657 0.0294885 0.125541 0 -0.335419 -0.942069
-0.0408348 -0.0693361 0.551163 0 0 -1
-0.234931 0.00147739 0.194606 0.96616 0.257944 0
0.267472 -0.00840022 0.278845 0.965995 -0.25856 0
0.0980682 0.208491 0.570708 0 0 1
-0.0108243 -0.167283 0.570708 0 0 1
-0.0573815 0.156562 0.551163 0 0 -1
0.250482 -0.0171488 0.408723 -0.258674 -0.965964 0
0.029169 0.293171 0.55435 0 1 0
-0.169131 -0.133209 0.551163 0 0 -1
-0.229518 -0.193663 0.570708 0 0 1
0.0963492 -0.27083 0.570708 0 0 1
0.271663 -0.224028 0.0396802 0.995298 -0.0805479 0.0537981
-0.248404 0.0567671 0.570708 0 0 1
0.118516 0.0315183 0.551163 0 0 -1
-0.245425 -0.286195 0.551163 0 0 -1
0.121435 -0.108251 0.551163 0 0 -1
0.191579 0.11697 0.570708 0 0 1
-0.238054 -0.130089 0.570708 0 0 1
-0.141288 -0.0142393 0.551163 0 0 -1
-0.201253 0.0808036 0.551163 0 0 -1
-0.0939971 0.274345 0.570708 0 0 1
-0.0212782 0.225768 0.570708 0 0 1
-0.0599943 0.0136804 0.511172 0 1 0
-0.126237 -0.0868122 0.570708 0 0 1
-0.106818 0.196387 0.551163 0 0 -1
-0.191127 0.223761 0.551163 0 0 -1
-0.212354 0.0401947 0.551163 0 0 -1
-0.0705236 0.209419 0.570708 0 0 1
0.259632 0.0793377 0.551163 0 0 -1
-0.230015 0.157597 0.570708 0 0 1
-0.0103286 -0.219451 0.570708 0 0 1
-0.026448 -0.230576 0.531829 0 0.382674 -0.923884
-0.246586 0.146465 0.551163 0 0 1
-0.0146822 -0.0136812 0.492934 0 -1 0
-0.193912 -0.0899217 0.570708 0 0 1
0.0178735 -0.274734 0.570708 0 0 1
0.148013 0.224984 0.570708 0 0 1
0.184219 -0.0712702 0.570708 0 0 1
-0.246928 -0.19299 0.0895826 0.537206 -0.843451 0
0.242581 0.125614 0.551163 0 0 1
-0.0383154 0.0356244 0.551163 0 0 -1
0.267826 0.186861 0.551163 0 0 -1
0.244998 0.0156797 0.257288 -0.258859 0.965915 0
-0.234266 -0.100987 0.551163 0 0 -1
-0.129719 0.137586 0.551163 0 0 -1
-0.0630762 -0.0136812 0.488592 0 -1 0
0.110346 -0.0644142 0.551163 0 0 -1
-0.0264429 0.250454 0.551163 0 0 -1
0.240099 0.0119957 0.180553 -0.707407 0.706806 0
0.289091 0.0657158 0.570708 0 0 1
-0.127732 0.00174459 0.487838 0 0 -1
-0.293173 -0.0268328 0.551618 -1 0 0
-0.167052 0.0302872 0.551163 0 0 -1
-0.254334 0.101556 0.570708 0 0 1
0.0270754 -0.249978 0.551163 0 0 -1
0.234599 0.000226629 0.363496 -0.965775 0.25938 0
0.149628 -0.228902 0.551163 0 0 -1
-0.268299 0.0420863 0.124044 -0.998352 0.0573922 0
0.237262 -0.0649967 0.131032 -0.998353 -0.0573741 0
-0.255558 0.0166191 0.179813 0 0 -1
0.0617262 0.0136804 0.504793 0 1 0
-0.213314 -0.0790324 0.551163 0 0 -1
-0.0222545 0.0951196 0.570708 0 0 1
-0.158964 -0.225758 0.570708 0 0 1
0.192551 0.173256 0.551163 0 0 -1
0.188563 -0.102383 0.551163 0 0 -1
0.259743 -0.0614865 0.570708 0 0 1
0.0410076 0.26792 0.551163 0 0 -1
0.224156 0.219838 0.570708 0 0 1
-0.241703 -0.0136171 0.257338 0.707299 -0.706914 0
0.0427976 0.0745603 0.551163 0 0 -1
0.0423975 -0.132361 0.551163 0 0 -1
-0.257874 -0.198331 0.535527 0 0 -1
-0.173027 -0.238412 0.535119 0 -0.923812 -0.382847
-0.0591855 0.0163397 0.570708 0 0 1
-0.131698 -0.228161 0.533609 0 0.923886 -0.382669
-0.0880322 -0.134828 0.570708 0 0 1
-0.246496 0.0160843 0.242054 0.258694 0.965959 0
0.167133 -0.263701 0.570708 0 0 1
0.267548 -0.0998304 0.570708 0 0 1
-0.189927 0.0988722 0.570708 0 0 1
-0.0362081 -0.245833 0.551163 0 0 -1
0.0732774 -0.210054 0.551163 0 0 -1
-0.232155 -0.0136812 0.495516 0 -1 0
-0.221097 0.261567 0.570708 0 0 1
0.176662 0.00922161 0.570708 0 0 1
-0.277473 -0.18599 0.570708 0 0 1
0.265361 -0.0934218 0.114373 0.998352 -0.0573858 0
0.191477 0.130936 0.551163 0 0 -1
0.089424 0.0877973 0.570708 0 0 1
-0.270879 0.187698 0.0294104 -0.995228 0.0956966 -0.0190476
0.242075 0.205759 0.551163 0 0 -1
0.00410011 -0.131195 0.570708 0 0 1
-0.0137446 0.180757 0.570708 0 0 1
0.173346 0.0673217 0.551163 0 0 -1
0.109036 0.27455 0.551163 0 0 -1
-0.239691 -0.107257 0.122537 0.998352 -0.0573917 0
-0.291676 0.0473626 0.551163 0 0 -1
0.266746 0.287252 0.551163 0 0 -1
0.261296 0.0148611 0.492728 0.706913 0.707301 0
0.0708478 0.0364637 0.570708 0 0 1
0.263854 -0.162104 0.549429 1 0 0
0.240838 0.0302776 0.159157 0 0.390365 0.92066
0.192124 -0.192507 0.570708 0 0 1
0.281923 -0.221308 0.551163 0 0 -1
-0.262636 0.0827406 0.551163 0 0 -1
0.256709 -0.0163631 0.437549 0.258701 -0.965957 0
-0.0863601 0.0635854 0.551163 0 0 -1
-0.125958 0.17647 0.570708 0 0 1
-0.271673 -0.213456 0.0258124 -1 0 0
0.233483 0.183698 0.0462766 -0.995291 0.0805881 0.0538554
0.207515 -0.168495 0.570708 0 0 1
-0.23106 0.1124 0.551163 0 0 -1
0.0768689 0.124143 0.551163 0 0 -1
-0.141138 -0.0379781 0.551163 0 0 -1
0.010796 0.176234 0.551163 0 0 -1
-0.00291884 -0.167807 0.551163 0 0 -1
0.0608292 -0.0429533 0.551163 0 0 -1
0.0588072 0.082327 0.570708 0 0 1
-0.258383 -0.00384201 0.546355 -1 0 0
0.111106 0.00598684 0.570708 0 0 1
-0.193385 0.157873 0.570708 0 0 1
-0.21661 -0.162683 0.570708 0 0 1
0.249978 -0.13564 0.114483 0 -0.390361 0.920662
0.158413 0.0136804 0.488894 0 1 0
-0.191466 -0.0136812 0.518371 0 -1 0
0.253243 -0.183867 0.0719248 0 0 1
-0.211354 0.0505008 0.570708 0 0 1
-0.193989 -0.197331 0.551163 0 0 -1
-0.0533877 0.175261 0.570708 0 0 1
-0.0120065 0.28369 0.551163 0 0 -1
0.00409144 0.000555873 0.570708 0 0 1
-0.1994 0.0136804 0.506152 0 1 0
-0.267493 -0.251057 0.570708 0 0 1
-0.24489 -4.24438e-07 0.133648 0 1 0
0.0163177 -0.115127 0.551163 0 0 -1
0.25145 0.0492045 0.118521 0 -0.335419 -0.942069
0.168025 -0.0146241 0.570708 0 0 1
-0.0575647 -0.210643 0.551163 0 0 -1
0.268112 -0.000552475 0.551163 0 0 -1
0.254174 -0.207245 0.570708 0 0 1
0.232046 0.0581255 0.551163 0 0 -1
-0.0532283 0.110593 0.551163 0 0 -1
-0.267374 0.00873631 0.442266 -0.966159 0.257946 0
-0.000581264 -0.259064 0.551163 0 0 -1
-0.264212 -0.113177 0.107768 -0.998352 -0.0573916 0
0.293173 0.135558 0.556578 1 0 0
0.194247 0.293171 0.56918 0 1 0
0.0036788 -0.0136812 0.524544 0 -1 0
0.0655417 -0.00573396 0.526927 0 0 1
-0.256205 0.235722 0.570708 0 0 1
-0.243564 0.174633 0.0925941 0.998352 0.0573923 0
0.242573 0.157397 0.0954063 -0.998353 0.0573748 0
-0.148516 0.112698 0.551163 0 0 -1
0.269569 0.0202231 0.140322 0.998352 0.0573864 0
0.235874 -0.00497616 0.261102 -0.965775 -0.25938 0
0.185153 -0.122068 0.570708 0 0 1
0.0243606 0.188997 0.570708 0 0 1
0.222598 0.265287 0.570708 0 0 1
0.116717 0.0593381 0.551163 0 0 -1
0.265369 -0.0187582 0.129361 0 0.335415 -0.94207
0.150022 -0.14217 0.551163 0 0 -1
-0.0982202 -0.0289552 0.551163 0 0 -1
0.290108 0.232049 0.570708 0 0 1
-0.236204 -0.0156201 0.551163 0 0 -1
-0.253405 0.0172468 0.484 -0.258667 0.965967 0
-0.183876 -0.0331291 0.551163 0 0 -1
0.246253 -0.135694 0.570708 0 0 1
0.0384901 -0.0136812 0.492905 0 -1 0
0.222648 0.163567 0.570708 0 0 1
-0.105701 -0.124732 0.551163 0 0 -1
0.100957 0.241289 0.570708 0 0 1
0.225061 -0.164558 0.551163 0 0 -1
0.263854 -0.0490565 0.540081 1 0 0
-0.268765 0.00352863 0.293809 -0.966159 0.257946 0
0.0418893 0.239868 0.551163 0 0 -1
-0.263976 0.0121789 0.339252 -0.707297 0.706916 0
-0.265804 -0.272468 0.551163 0 0 -1
0.236377 -0.00684606 0.199441 -0.965775 -0.25938 0
0.274024 0.188854 0.570708 0 0 1
-0.177562 0.154174 0.551163 0 0 -1
-0.272909 -0.0495559 0.570708 0 0 1
-0.226783 0.293171 0.56572 0 1 0
0.232442 -0.112462 0.551163 0 0 -1
0.0811214 -0.237324 0.532638 0 -0.382746 -0.923854
0.105278 -0.143133 0.570708 0 0 1
-0.118194 0.285244 0.570708 0 0 1
0.260593 -0.0767722 0.551163 0 0 -1
-0.0485672 -0.0133642 0.570708 0 0 1
0.270594 0.187518 0.0186509 0.995298 0.0805334 -0.0538195
-0.0924343 0.00936848 0.570708 0 0 1
-0.262541 0.0358029 0.156814 0 0.390365 0.92066
-0.0334496 -0.120863 0.570708 0 0 1
-0.291403 -0.222447 0.570708 0 0 1
-0.254432 -0.00924935 0.179813 0 0 -1
-0.240872 -0.0462812 0.551163 0 0 1
0.102149 -0.0136812 0.50927 0 -1 0
-0.167709 -0.0875442 0.570708 0 0 1
0.0366947 -0.264602 0.570708 0 0 1
-0.123244 -0.269331 0.551163 0 0 -1
0.153101 -0.00531518 0.551163 0 0 -1
-0.245079 0.164043 0.0312717 0 0 -1
-0.101451 0.0965435 0.570708 0 0 1
0.193096 0.0463932 0.570708 0 0 1
0.0717818 0.0135494 0.526927 0 0 1
0.0433375 0.00818169 0.570708 0 0 1
0.277056 -0.069958 0.551163 0 0 -1
0.19571 0.271111 0.551163 0 0 -1
0.115353 -0.144798 0.551163 0 0 -1
-0.108703 -0.0626774 0.551163 0 0 -1
0.234538 0.00489973 0.154082 -1 0 0
0.0454697 0.130569 0.570708 0 0 1
-0.250704 -4.24438e-07 0.151851 0 -1 0
0.276597 -0.179221 0.570708 0 0 1
0.0478529 -0.059001 0.570708 0 0 1
0.143006 0.0607674 0.570708 0 0 1
-0.211684 0.229195 0.570708 0 0 1
-0.0256005 0.0171327 0.551163 0 0 -1
-0.0938472 -0.191678 0.570708 0 0 1
-0.105489 -0.0136812 0.49598 0 -1 0
0.123347 -0.181516 0.551163 0 0 -1
-0.14105 0.0460514 0.570708 0 0 1
0.0596249 0.230859 0.570708 0 0 1
-0.242718 -0.014632 0.429239 0.707299 -0.706914 0
0.252515 -0.0174865 0.488364 0.258701 -0.965957 0
0.253694 0.0235723 0.551163 0 0 -1
0.24752 0.0163554 0.338391 -0.258859 0.965915 0
0.147035 0.258925 0.570708 0 0 1
-0.268895 0.00304205 0.217514 -0.966159 0.257946 0
-0.220725 -0.207082 0.551163 0 0 -1
0.274754 0.0363621 0.570708 0 0 1
0.228042 0.0498372 0.570708 0 0 1
-0.257588 -0.0943373 0.131995 0 -0.390361 0.920662
-0.14804 -0.0136812 0.510022 0 -1 0
-0.249847 0.0725989 0.110192 0 -0.335419 -0.942069
0.258382 -0.023764 0.544696 1 0 0
0.252458 -0.0175018 0.188298 0.258701 -0.965957 0
0.267784 -0.00723469 0.353853 0.965995 -0.25856 0
-0.248473 0.126196 0.118487 0 0.390365 0.92066
0.292848 -0.116893 0.570708 0 0 1
-0.2637 0.122092 0.0967205 -0.998352 0.0573922 0
-0.0451061 -0.0624603 0.570708 0 0 1
-0.167542 -0.283179 0.551163 0 0 -1
0.121926 -0.00641868 0.526927 0 0 1
0.187818 0.0949832 0.551163 0 0 -1
0.122035 0.101585 0.570708 0 0 1
-0.0453918 0.240446 0.570708 0 0 1
0.078722 0.00895268 0.570708 0 0 1
-0.2689 -0.225386 0.00394025 0 -0.555578 -0.831464
-0.267592 -0.103858 0.570708 0 0 1
0.284553 0.0890198 0.551163 0 0 -1
-0.152722 -0.196989 0.570708 0 0 1
0.257323 0.170674 0.0752725 0 -0.335419 -0.942069
-0.194118 0.204517 0.570708 0 0 1
0.123169 0.200403 0.570708 0 0 1
-0.0665596 0.067806 0.570708 0 0 1
0.104097 -0.210464 0.551163 0 0 -1
-0.239702 0.0201812 0.54514 0.889141 -0.32343 0.323762
-0.0889501 0.0136804 0.524225 0 1 0
0.0353781 0.153853 0.551163 0 0 -1
0.0475735 -0.109336 0.570708 0 0 1
0.243034 -0.239245 0.0350066 0.995733 -0.0905118 0.018008
0.207048 -0.075543 0.551163 0 0 -1
0.24431 0.165193 0.0369304 -1 0 0
0.108502 -0.0215845 0.570708 0 0 1
0.0342931 0.0136804 0.488703 0 1 0
0.22003 0.143716 0.551163 0 0 -1
0.0686684 -0.263837 0.570708 0 0 1
-0.117628 -0.216268 0.551163 0 0 -1
0.259307 -0.0156675 0.305002 0.258701 -0.965957 0
0.0183393 -0.253376 0.570708 0 0 1
-0.258078 -0.16473 0.551163 0 0 -1
0.0690723 -0.0949219 0.570708 0 0 1
-0.129723 0.21698 0.551163 0 0 -1
0.137557 0.13355 0.551163 0 0 -1
-0.262476 0.212304 0.570708 0 0 1
0.150858 -0.18437 0.570708 0 0 1
0.23812 -0.20706 0.00080054 0 0.195077 -0.980788
-0.263674 0.16027 0.0617663 0 -0.1951 0.980783
-0.110264 0.161936 0.551163 0 0 -1
-0.0333182 -0.176708 0.551163 0 0 -1
0.164027 -0.20659 0.570708 0 0 1
-0.201659 -0.226907 0.537544 0 0.923855 0.382744
-0.074728 -0.237574 0.551163 0 0 -1
0.241413 0.103389 0.0992288 0 -0.335419 -0.942069
0.240401 -0.210743 0.55057 -1 0 0
0.142132 -0.0466301 0.551163 0 0 -1
0.0116338 -0.293171 0.554299 0 -1 0
0.00588152 0.127901 0.570708 0 0 1
0.017127 -0.177103 0.570708 0 0 1
0.25624 0.0677479 0.111919 0 -0.335419 -0.942069
0.146835 0.239811 0.551163 0 0 -1
-0.175655 -0.0101422 0.570708 0 0 1
-0.263846 -0.0815205 0.540205 -1 0 0
-0.206051 0.255915 0.551163 0 0 -1
-0.154132 0.0823737 0.570708 0 0 1
-0.081356 -0.254274 0.570708 0 0 1
-0.280926 0.212539 0.551163 0 0 -1
-0.141735 -0.093516 0.551163 0 0 -1
0.000814021 -0.0615898 0.570708 0 0 1
0.250968 -0.182171 0.551163 0 0 1
-0.167178 0.26253 0.551163 0 0 -1
0.0548071 -0.149296 0.551163 0 0 -1
0.264892 0.0112667 0.236072 0.706913 0.707301 0
0.273085 0.123824 0.551163 0 0 -1
-0.240398 0.076278 0.542264 1 0 0
-0.284942 0.130302 0.570708 0 0 1
-0.247544 -0.0273587 0.526927 0 0 -1
-0.203308 -0.0675719 0.570708 0 0 1
-0.0391524 -0.0949703 0.570708 0 0 1
-0.17114 0.0835962 0.551163 0 0 -1
0.242629 -0.0198513 0.570708 0 0 1
0.271958 -0.250126 0.551163 0 0 -1
-0.0203437 0.000497243 0.526927 0 0 1
-0.268493 -0.185641 0.0141432 0 0.831502 -0.555522
-0.0220115 0.128509 0.551163 0 0 -1
-0.262729 0.293171 0.555065 0 1 0
-0.122198 0.123194 0.570708 0 0 1
-0.236228 -0.0470237 0.123069 0.998352 -0.0573916 0
-0.240757 -0.124938 0.535527 0 0 -1
0.089251 -0.0131304 0.551163 0 0 -1
0.168841 -0.0555886 0.570708 0 0 1
-0.166103 -0.114359 0.570708 0 0 1
-0.00586447 0.0136804 0.499662 0 1 0
0.055468 -0.253131 0.551163 0 0 -1
0.150226 -0.193323 0.551163 0 0 -1
0.266703 -0.133048 0.551163 0 0 -1
0.0614127 -0.193751 0.551163 0 0 -1
-0.234571 0.000130749 0.388547 0.96616 0.257944 0
-0.26572 0.0869395 0.121987 -0.998352 0.0573922 0
0.197658 -0.148112 0.570708 0 0 1
-0.247278 -0.196148 0.551163 0 0 1
0.130394 -0.0105419 0.551163 0 0 -1
-0.0814405 -0.204315 0.551163 0 0 -1
-0.285848 0.0820185 0.551163 0 0 -1
0.250057 -0.0720412 0.11039 0 0.335415 -0.94207
-0.212838 0.0969361 0.551163 0 0 -1
0.0129035 0.232354 0.570708 0 0 1
-0.0390261 0.283442 0.551163 0 0 -1
0.236065 -0.0441548 0.147199 -0.998353 -0.0573741 0
0.267303 -0.234512 0.0514155 0 -0.8315 0.555525
-0.267954 0.00656514 0.387248 -0.966159 0.257946 0
0.202153 -0.228496 0.5328 0 0.923886 -0.382669
-0.293173 -0.159517 0.566561 -1 0 0
0.167729 0.168113 0.570708 0 0 1
0.11621 -0.293171 0.568531 0 -1 0
0.24095 -0.104599 0.0987981 0 0.335415 -0.94207
0.072222 0.106741 0.570708 0 0 1
0.190367 -0.16029 0.551163 0 0 -1
0.281551 -0.192238 0.551163 0 0 -1
0.0769596 0.170682 0.551163 0 0 -1
0.0977679 -0.0982779 0.570708 0 0 1
-0.293173 0.259686 0.566827 -1 0 0
0.248381 -0.0165861 0.377482 -0.258674 -0.965964 0
0.173132 0.0299736 0.551163 0 0 -1
0.206332 0.241362 0.570708 0 0 1
0.203215 -0.269015 0.551163 0 0 -1
0.042348 -0.0319958 0.551163 0 0 -1
-0.198486 -0.156229 0.551163 0 0 -1
0.270305 -0.234641 0.0136258 0.995298 -0.080543 -0.05381
0.21114 0.0136804 0.518605 0 1 0
-0.0844825 0.211131 0.551163 0 0 -1
0.240401 0.00163251 0.535892 -1 0 0
-0.179972 0.2774 0.570708 0 0 1
-0.108614 0.105059 0.551163 0 0 -1
-0.0976991 0.268017 0.551163 0 0 -1
0.15669 0.137787 0.570708 0 0 1
0.136366 0.20302 0.551163 0 0 -1
-0.293173 -0.248164 0.567072 -1 0 0
0.230396 -0.0208226 0.551163 0 0 -1
0.196749 -0.0102071 0.570708 0 0 1
0.223931 0.0264816 0.570708 0 0 1
0.232775 0.158547 0.0147548 -0.995291 -0.0189087 -0.0950665
0.144875 -0.114116 0.570708 0 0 1
0.123718 0.108553 0.551163 0 0 -1
0.0218761 -0.224709 0.570708 0 0 1
0.118033 -0.0136812 0.498936 0 -1 0
0.050936 0.0549342 0.570708 0 0 1
-0.263846 0.134078 0.538962 -1 0 0
-0.232006 -0.229901 0.570708 0 0 1
-0.150079 0.172474 0.570708 0 0 1
0.090098 -0.0402851 0.551163 0 0 -1
-0.242273 0.152181 0.104571 0.998352 0.0573923 0
-0.00808659 -0.198594 0.551163 0 0 -1
-0.189399 0.109693 0.551163 0 0 -1
0.0310365 0.216547 0.570708 0 0 1
-0.0533295 0.219121 0.551163 0 0 -1
0.170062 0.222996 0.551163 0 0 -1
-0.111496 -0.00665987 0.570708 0 0 1
-0.115012 -0.165371 0.570708 0 0 1
-0.173457 0.234323 0.570708 0 0 1
-0.0696556 -0.276635 0.551163 0 0 -1
0.237599 -0.00396703 0.129777 0 0 -1
0.293173 -0.273182 0.558996 1 0 0
0.0271038 0.135577 0.551163 0 0 -1
-0.135293 -0.131882 0.551163 0 0 -1
-0.0374139 -0.00876868 0.551163 0 0 -1
-0.259306 -0.0156673 0.235615 -0.258482 -0.966016 0
0.226874 -0.208942 0.551163 0 0 -1
0.124157 0.0136804 0.513338 0 1 0
-0.251321 0.254247 0.551163 0 0 -1
-0.271673 0.154348 0.0218927 -1 0 0
-0.23987 0.0117814 0.513844 0.707296 0.706917 0
0.00417787 -0.0901744 0.551163 0 0 -1
-0.158679 0.202422 0.551163 0 0 -1
-0.0446938 -0.153239 0.570708 0 0 1
0.174819 -0.180175 0.551163 0 0 -1
0.264621 0.106298 0.116944 0.998352 0.0573864 0
0.123496 0.131517 0.570708 0 0 1
0.072961 -0.115561 0.551163 0 0 -1
0.181167 -0.0136812 0.519998 0 -1 0
0.0797597 -0.293171 0.568199 0 -1 0
-0.0949322 -0.148092 0.551163 0 0 -1
0.248736 -0.187781 0.0488418 0 0.831506 0.555516
0.228143 -0.267977 0.570708 0 0 1
0.100262 -0.00261143 0.487838 0 0 -1
-0.0999102 -0.109625 0.570708 0 0 1
-0.242462 -0.241924 0.0291025 0 -0.980792 -0.195057
0.269441 0.164553 0.551163 0 0 -1
-0.0114925 0.035824 0.551163 0 0 -1
0.250965 -0.105854 0.535527 0 0 -1
-0.23257 -0.203314 0.031627 1 0 0
0.156374 0.278567 0.551163 0 0 -1
-0.239995 -0.0119079 0.407911 0.707299 -0.706914 0
-0.261972 -0.152145 0.0872163 -0.998352 -0.0573916 0
0.0240424 -0.115112 0.570708 0 0 1
0.213192 0.204573 0.551163 0 0 -1
0.166282 0.0460138 0.570708 0 0 1
-0.145636 0.273284 0.551163 0 0 -1
-0.0420291 -0.122858 0.551163 0 0 -1
0.248058 -0.207462 0.0312717 0 0 -1
-0.248703 -0.0474693 0.151867 0 -0.390361 0.920662
0.202668 -0.273686 0.570708 0 0 1
-0.0538959 0.0548801 0.551163 0 0 -1
-0.269707 -0.00610067 0.162555 -1 0 0
0.00395873 0.206335 0.570708 0 0 1
-0.166582 -0.247676 0.570708 0 0 1
0.0871423 0.216731 0.551163 0 0 -1
0.174364 0.242134 0.570708 0 0 1
-0.23504 -0.0636861 0.570708 0 0 1
0.0668748 0.0871155 0.551163 0 0 -1
0.16989 -0.283355 0.551163 0 0 -1
-0.105607 -0.230804 0.570708 0 0 1
-0.109532 0.156051 0.570708 0 0 1
-0.108498 0.051299 0.551163 0 0 -1
0.0589936 -0.159616 0.570708 0 0 1
0.158119 0.276049 0.570708 0 0 1
0.273528 0.157801 0.570708 0 0 1
0.239534 -0.0114315 0.518894 -0.70741 -0.706804 0
-0.214763 0.0258586 0.570708 0 0 1
-0.242056 -0.16628 0.570708 0 0 1
0.0336993 0.00985101 0.551163 0 0 -1
0.24123 -0.0131285 0.234661 -0.70741 -0.706804 0
0.0770155 0.0350348 0.551163 0 0 -1
0.240401 0.0670222 0.536752 -1 0 0
-0.208775 -0.24264 0.551163 0 0 -1
-0.25017 -0.0400641 0.570708 0 0 1
0.251302 0.194835 0.0665999 -0.258782 0.965936 0
-0.249829 -0.182287 0.0358495 0 0.980791 0.19506
0.224655 0.000196368 0.570708 0 0 1
-0.23342 -0.205258 0.00795739 0.995228 0.0190345 -0.095699
-0.254149 0.0170477 0.314821 -0.258667 0.965967 0
-0.244878 0.135842 0.038181 0 -0.980792 0.195059
0.28003 0.259895 0.551163 0 0 -1
0.258554 -0.203871 0.0448956 0 0.555453 0.831548
0.265031 0.0111276 0.432695 0.706913 0.707301 0
0.259946 0.166293 0.0555674 1 0 0
-0.0772969 -0.125261 0.551163 0 0 -1
-0.0624502 0.287627 0.570708 0 0 1
0.0798686 0.134457 0.570708 0 0 1
-0.215741 0.108612 0.570708 0 0 1
-0.248159 -0.0650545 0.112878 0 0.335415 -0.94207
-0.250353 -0.291979 0.570708 0 0 1
-0.273489 0.176273 0.551163 0 0 -1
-0.167776 0.203631 0.570708 0 0 1
0.120162 -0.0831471 0.551163 0 0 -1
-0.140536 -0.141995 0.570708 0 0 1
0.244894 0.293171 0.569926 0 1 0
0.141503 0.0108112 0.551163 0 0 -1
0.25403 -0.0118736 0.164176 0 0 -1
-0.00893226 0.160283 0.551163 0 0 -1
-0.234374 0.194698 0.0350432 0 0.980776 0.195137
-0.161817 0.257753 0.570708 0 0 1
-0.242951 -0.163981 0.0875811 0.998352 -0.0573917 0
0.145243 -0.00153458 0.570708 0 0 1
0.239793 0.140269 0.0506978 0 -0.8315 0.555525
-0.288836 -0.129011 0.570708 0 0 1
-0.136735 0.0896508 0.551163 0 0 -1
0.156832 -0.00882491 0.487838 0 0 -1
-0.269368 0.0577353 0.551163 0 0 -1
-0.114968 -0.241985 0.551163 0 0 -1
-0.0795828 -0.0433567 0.551163 0 0 -1
-0.236785 -0.00842457 0.306012 0.96616 -0.257944 0
0.0235926 0.109526 0.551163 0 0 -1
-0.198776 -0.0943134 0.551163 0 0 -1
0.189007 -0.0390731 0.570708 0 0 1
0.238311 -0.07515 0.570708 0 0 1
0.241408 -0.013307 0.464464 -0.70741 -0.706804 0
-0.277974 -0.0530971 0.551163 0 0 -1
0.00878251 -0.0332323 0.551163 0 0 -1
-0.0917179 0.0386867 0.570708 0 0 1
-0.253592 0.0148199 0.548036 0 0 1
-0.251812 0.080131 0.138019 0 0.390365 0.92066
0.0862304 0.0136804 0.497165 0 1 0
-0.241102 0.131806 0.0968766 0.998352 0.0573923 0
0.253289 -0.121887 0.541692 0.991162 0 -0.132659
0.293173 -0.0932407 0.551367 1 0 0
0.228892 -0.258953 0.551163 0 0 -1
0.261617 -0.158561 0.082938 0.998352 -0.0573858 0
0.26364 0.219514 0.551163 0 0 -1
-0.281924 -0.0827995 0.570708 0 0 1
-0.223231 0.0171733 0.551163 0 0 -1
0.0408936 0.282953 0.570708 0 0 1
0.20769 -0.0136812 0.502722 0 -1 0
-0.266646 -0.0089897 0.129777 0 0 -1
0.112311 -0.271142 0.551163 0 0 -1
-0.150246 0.0216679 0.570708 0 0 1
0.0143543 0.284376 0.570708 0 0 1
0.230401 -0.0821463 0.551163 0 0 -1
0.270393 0.137341 0.0201554 0.995297 -0.0805376 -0.053823
-0.17416 -0.291427 0.570708 0 0 1
0.279447 0.293171 0.568716 0 1 0
-0.179099 -0.231612 0.551163 0 0 -1
0.177077 -0.142185 0.551163 0 0 -1
0.0478168 -0.212706 0.551163 0 0 -1
-0.212007 0.196106 0.551163 0 0 -1
0.239394 0.0112899 0.485051 -0.707407 0.706806 0
0.0773003 0.191727 0.570708 0 0 1
0.221726 -0.214708 0.570708 0 0 1
-0.00534949 -0.27372 0.570708 0 0 1
0.267875 0.0568104 0.551163 0 0 -1
0.254346 0.187476 0.0312717 0 0 -1
0.130828 -0.232352 0.551163 0 0 -1
-0.0729258 0.0337735 0.551163 0 0 -1
-0.0226223 0.119851 0.570708 0 0 1
0.203161 0.0835682 0.570708 0 0 1
0.223842 0.146375 0.570708 0 0 1
-0.133687 -0.247688 0.570708 0 0 1
0.136855 -0.145529 0.570708 0 0 1
0.245737 0.14294 0.570708 0 0 1
-0.254643 0.0770666 0.570708 0 0 1
-0.127303 -0.197567 0.570708 0 0 1
0.0316698 0.0714302 0.570708 0 0 1
-0.24033 -0.118372 0.105284 0.998352 -0.0573916 0
-0.168458 -0.0136812 0.508692 0 -1 0
-0.258887 -0.0157793 0.359512 -0.258482 -0.966016 0
0.244374 0.178408 0.551163 0 0 -1
0.274719 0.211958 0.570708 0 0 1
-0.0101948 0.0192621 0.570708 0 0 1
0.0530567 -0.0700648 0.551163 0 0 -1
0.261644 -0.265352 0.570708 0 0 1
0.288434 0.0135297 0.551163 0 0 -1
0.240401 0.144127 0.538345 -1 0 0
0.102232 0.268093 0.570708 0 0 1
-0.253354 -0.180449 0.0523827 -0.195383 0.980727 0
-0.120521 -0.0629005 0.570708 0 0 1
0.23646 0.0510321 0.138211 -0.998353 0.0573748 0
-0.117458 -0.0417973 0.551163 0 0 -1
-0.00995374 0.188832 0.551163 0 0 -1
-0.263846 0.159602 0.541828 -1 0 0
0.138264 0.156808 0.570708 0 0 1
-0.240529 0.158609 0.00110727 0 -0.195092 -0.980785
-0.076061 -0.0154018 0.551163 0 0 -1
-0.203376 -0.249532 0.570708 0 0 1
-0.111134 0.197941 0.570708 0 0 1
-0.0693729 -0.0122405 0.526927 0 0 1
0.264237 -0.112975 0.106339 0.998352 -0.0573858 0
-0.254152 0.177309 0.0729102 0 -0.335419 -0.942069
0.10104 0.118809 0.551163 0 0 -1
0.2411 0.0965498 0.551163 0 0 1
-0.293173 -0.199021 0.563984 -1 0 0
0.236182 0.00612089 0.428716 -0.965775 0.25938 0
-0.220142 -0.289344 0.551163 0 0 -1
0.0409016 -0.0156955 0.570708 0 0 1
-0.137754 -0.184338 0.551163 0 0 -1
0.00253209 0.168783 0.570708 0 0 1
0.267806 0.00714962 0.303164 0.965995 0.25856 0
-0.204244 0.179725 0.570708 0 0 1
0.0909865 -0.158391 0.570708 0 0 1
-0.160163 -0.0535903 0.551163 0 0 -1
-0.270816 0.00448421 0.570708 0 0 1
0.169488 -0.141342 0.570708 0 0 1
-0.104557 0.0136804 0.507492 0 1 0
-0.0782614 -0.0136812 0.50431 0 -1 0
-0.0601619 -0.0347645 0.570708 0 0 1
0.240401 0.0358144 0.540634 -1 0 0
0.250989 -0.0172845 0.211295 -0.258674 -0.965964 0
0.123287 0.0463024 0.570708 0 0 1
-0.233306 0.191153 0.551163 0 0 -1
0.247131 -0.154321 0.551163 0 0 -1
0.196062 -0.00366146 0.526927 0 0 1
0.252793 -0.293171 0.561163 0 -1 0
-0.153269 -0.150788 0.551163 0 0 -1
0.206365 -0.142259 0.551163 0 0 -1
0.219483 0.195913 0.570708 0 0 1
0.108432 -0.193061 0.570708 0 0 1
0.2394 0.102188 0.123469 -0.998353 0.0573748 0
0.00366819 -0.144696 0.551163 0 0 -1
0.0793416 -0.206164 0.570708 0 0 1
0.0352387 -0.19617 0.570708 0 0 1
0.25593 -0.19388 0.0864571 0.537362 -0.843352 0
-0.0961391 -0.293171 0.552214 0 -1 0
-0.271982 0.0526776 0.570708 0 0 1
0.269336 0.078711 0.570708 0 0 1
0.185287 -0.236914 0.570708 0 0 1
0.175301 0.102933 0.570708 0 0 1
-0.124413 -0.0781506 0.551163 0 0 -1
-0.245778 -0.0136812 0.507565 0 -1 0
-0.125221 -0.107524 0.551163 0 0 -1
0.241348 0.241753 0.551163 0 0 -1
-0.182005 -0.171461 0.570708 0 0 1
-0.269707 0.0128817 0.130738 -1 0 0
-0.252342 -0.214225 0.0603551 0 -0.195113 0.980781
-0.240398 0.0401516 0.545604 1 0 0
-0.244572 -0.166725 0.535527 0 0 -1
-0.260413 -0.230323 0.0272633 0.99572 -0.090647 -0.0180136
-0.0505359 0.198878 0.570708 0 0 1
-0.293173 0.000932693 0.557143 -1 0 0
0.0797304 -0.0400332 0.570708 0 0 1
-0.228687 0.243912 0.551163 0 0 -1
-0.212452 -0.00653942 0.487838 0 0 -1
0.185004 0.0136804 0.498491 0 1 0
0.13114 0.240968 0.570708 0 0 1
0.00468865 -0.197656 0.570708 0 0 1
0.252769 -0.0955569 0.551163 0 0 -1
0.242886 -0.0147866 0.316145 -0.70741 -0.706804 0
0.0980178 -0.124919 0.551163 0 0 -1
-0.14273 0.00993043 0.487838 0 0 -1
0.167602 -0.0979133 0.551163 0 0 -1
0.264783 0.0113755 0.458295 0.706913 0.707301 0
-0.190721 0.0605845 0.551163 0 0 -1
-0.121386 0.0457265 0.570708 0 0 1
-0.0811177 -0.0660705 0.551163 0 0 -1
-0.253553 -0.0663824 0.551163 0 0 -1
0.283472 0.254733 0.570708 0 0 1
0.248225 0.0165445 0.370984 -0.258859 0.965915 0
0.129839 -0.0896628 0.570708 0 0 1
0.188753 -0.229677 0.551163 0 0 -1
-0.0339238 -0.22297 0.551163 0 0 -1
-0.143135 -0.0136812 0.488304 0 -1 0
-0.0149179 0.248365 0.570708 0 0 1
-0.243766 -0.178146 0.0730294 0.998352 -0.0573916 0
-0.0182672 -0.0157932 0.570708 0 0 1
0.05601 0.164457 0.551163 0 0 -1
-0.00900918 -0.116605 0.551163 0 0 -1
-0.252135 0.0973167 0.551163 0 0 -1
-0.264718 -0.0114373 0.26159 -0.7073 -0.706913 0
-0.0705441 0.134034 0.570708 0 0 1
0.141111 -0.268267 0.551163 0 0 -1
0.0642372 0.22795 0.551163 0 0 -1
0.234051 -0.043676 0.551163 0 0 -1
-0.262001 -0.0595011 0.535527 0 0 -1
0.261451 -0.18122 0.0244911 -0.699956 0.700458 -0.13936
0.137935 -0.229223 0.53239 0 0.382674 -0.923884
0.263338 0.0300138 0.159269 0 0.390365 0.92066
0.0964714 0.293171 0.55768 0 1 0
0.0023371 0.117469 0.551163 0 0 -1
0.0173157 -0.0136812 0.50582 0 -1 0
0.230912 -0.238303 0.543977 -0.109721 -0.919634 0.377139
-0.0198827 -0.0665792 0.551163 0 0 -1
-0.256656 -0.178165 0.570708 0 0 1
-0.195735 0.134988 0.570708 0 0 1
-0.239906 -0.0118187 0.354313 0.707299 -0.706914 0
0.147729 0.0136804 0.506357 0 1 0
-0.197398 -0.115857 0.570708 0 0 1
-0.07391 -0.089545 0.551163 0 0 -1
-0.200515 0.0136486 0.551163 0 0 -1
0.192273 -0.0440849 0.551163 0 0 -1
0.100572 0.237035 0.551163 0 0 -1
0.254618 -0.0169232 0.334321 0.258701 -0.965957 0
0.233666 -0.229907 0.0505035 -0.995291 -0.0538509 0.0805968
-0.115803 -0.00400114 0.551163 0 0 -1
0.0632725 0.0550869 0.551163 0 0 -1
0.293173 0.19992 0.566563 1 0 0
-0.293173 -0.0457836 0.569662 -1 0 0
-0.134517 -0.273036 0.570708 0 0 1
0.146157 -0.102367 0.551163 0 0 -1
0.0682818 0.19626 0.551163 0 0 -1
0.0331533 0.179431 0.551163 0 0 -1
0.266496 -0.224404 0.570708 0 0 1
-0.157568 0.161307 0.551163 0 0 -1
0.0492891 -0.0362476 0.570708 0 0 1
-0.00532091 -0.280195 0.551163 0 0 -1
0.0505414 0.287086 0.551163 0 0 -1
-0.252154 0.150789 0.0237034 0 -0.831425 -0.555638
-0.266097 0.0100569 0.23954 -0.707297 0.706916 0
-0.246245 0.0234526 0.528082 0 1 0
0.292045 -0.0206439 0.570708 0 0 1
0.154473 0.0901433 0.570708 0 0 1
0.230086 -0.0530778 0.570708 0 0 1
-0.250421 -0.114221 0.551163 0 0 1
0.255871 0.15059 0.0312717 0 0 -1
0.131476 -0.238052 0.570708 0 0 1
-0.159798 -0.234617 0.551163 0 0 -1
-0.259932 -0.205914 0.0409724 -1 0 0
-0.263846 -0.172508 0.538399 -1 0 0
-0.252241 0.180234 0.0423028 -0.259541 -0.965732 0
0.180011 0.136066 0.570708 0 0 1
-0.159069 -0.268271 0.570708 0 0 1
0.198948 -0.121059 0.551163 0 0 -1
-0.25366 0.0886266 0.535527 0 0 -1
0.0519293 -0.0136812 0.508641 0 -1 0
-0.238426 -0.085254 0.129796 0.998352 -0.0573917 0
-0.243795 -0.21343 0.535909 0 -1 0
-0.254296 0.12013 0.551163 0 0 -1
0.0843781 0.0564776 0.570708 0 0 1
0.256953 -0.215845 0.0600328 0 -0.195113 0.980781
0.22615 -0.15137 0.570708 0 0 1
-0.129782 0.23403 0.570708 0 0 1
0.263086 -0.209521 0.549571 0 1 0
-0.0855037 0.239664 0.570708 0 0 1
-0.0947382 -0.249502 0.551163 0 0 -1
0.268496 -0.00457335 0.487511 0.965995 -0.25856 0
0.262647 0.0298292 0.12542 0 -0.335419 -0.942069
0.271673 -0.207805 0.0304268 1 0 0
-0.0504968 0.2513 0.551163 0 0 -1
0.244091 -0.0241461 0.127443 0 0.335415 -0.94207
0.235934 -0.00519712 0.445373 -0.965775 -0.25938 0
-0.0431243 -0.293171 0.558491 0 -1 0
-0.0442596 0.105475 0.570708 0 0 1
0.015228 0.240428 0.551163 0 0 -1
0.0839349 0.254884 0.570708 0 0 1
0.028721 -0.228042 0.551163 0 0 -1
0.106505 -0.0426478 0.570708 0 0 1
0.269404 0.00118074 0.260254 0.965995 0.25856 0
-0.0791067 0.153572 0.551163 0 0 -1
-0.107674 -0.210657 0.570708 0 0 1
0.232584 -0.212658 0.0223543 -1 0 0
0.238333 0.010228 0.319863 -0.707407 0.706806 0
-0.056082 -0.260739 0.551163 0 0 -1
-0.00208244 0.0876663 0.570708 0 0 1
-0.240398 0.123741 0.538648 1 0 0
-0.270284 0.144897 0.0538747 -0.995228 -0.0542067 0.0811292
-0.238158 -0.0100695 0.464515 0.707299 -0.706914 0
-0.0183847 -0.235965 0.551163 0 0 -1
-0.0544948 -0.181884 0.551163 0 0 -1
0.107585 0.210879 0.551163 0 0 -1
0.259008 -4.24438e-07 0.135034 0 1 0
-0.0906556 -0.274451 0.570708 0 0 1
0.151444 -0.248296 0.551163 0 0 -1
0.284734 -0.0124457 0.551163 0 0 -1
0.209629 0.104222 0.570708 0 0 1
-0.252121 -0.00762741 0.488579 -1 0 0
0.240401 -0.192793 0.53964 -1 0 0
0.239035 0.000516981 0.551163 0 0 -1
0.293173 -0.132785 0.559763 1 0 0
0.182243 0.197359 0.551163 0 0 -1
-0.0410442 0.0273083 0.570708 0 0 1
0.193474 -0.0942198 0.570708 0 0 1
0.0207786 0.277273 0.551163 0 0 -1
-0.248564 0.0105377 0.534745 0 0 1
0.240233 -0.00822124 0.168508 0 -0.390365 0.92066
0.166184 -0.216344 0.551163 0 0 -1
-0.267274 0.142923 0.00858498 0 -0.555579 -0.831464
0.252036 -0.0115302 0.539486 -0.472867 0 -0.881134
-0.236221 0.00631058 0.262916 0.96616 0.257944 0
0.255825 -0.223957 0.0312717 0 0 -1
-0.0698647 -0.0561348 0.570708 0 0 1
-0.235517 0.00367519 0.216897 0.96616 0.257944 0
0.253569 0.0338474 0.570708 0 0 1
-0.111819 0.0110992 0.526927 0 0 1
-0.248654 -0.252469 0.551163 0 0 -1
0.0277323 -0.293171 0.567036 0 -1 0
0.168065 -0.0681278 0.551163 0 0 -1
-0.215496 0.221913 0.551163 0 0 -1
-0.176317 0.132206 0.551163 0 0 -1
-0.25784 -0.271384 0.570708 0 0 1
-0.176425 0.0136804 0.509703 0 1 0
0.0929445 0.158376 0.551163 0 0 -1
-0.262023 -0.209521 0.551001 0 1 0
0.24997 0.017012 0.196092 -0.258859 0.965915 0
-0.241897 -0.0138104 0.169812 0.707299 -0.706914 0
-0.2613 -0.152905 0.535527 0 0 -1
0.0804807 -0.233655 0.551163 0 0 -1
-0.264213 0.0119416 0.410722 -0.707297 0.706916 0
-0.0433096 0.138909 0.551163 0 0 -1
-0.234536 0.00856686 0.141247 1 0 0
0.178587 -0.206514 0.551163 0 0 -1
0.262786 0.106351 0.570708 0 0 1
0.262415 -0.0137434 0.392681 0.706916 -0.707298 0
-0.0614338 -0.133123 0.570708 0 0 1
-0.249536 0.153079 0.0422666 0 -0.831425 0.555638
-0.258067 0.223877 0.551163 0 0 -1
-0.266572 -0.00958212 0.192113 -0.7073 -0.706913 0
-0.0940654 0.213647 0.570708 0 0 1
-0.071029 0.009639 0.487838 0 0 -1
-0.215078 -0.0959699 0.570708 0 0 1
0.217856 0.112609 0.551163 0 0 -1
-0.0555962 0.2586 0.570708 0 0 1
-0.268571 -0.0373588 0.128925 -0.998352 -0.0573916 0
-0.226996 0.183121 0.570708 0 0 1
0.187645 0.178342 0.570708 0 0 1
0.255301 0.198852 0.570708 0 0 1
0.152967 0.0658005 0.551163 0 0 -1
-0.11264 0.224124 0.551163 0 0 -1
0.248598 0.149318 0.551163 0 0 -1
-0.170319 0.0507348 0.551163 0 0 -1
-0.147855 -0.0909795 0.570708 0 0 1
-0.139524 0.293171 0.558797 0 1 0
0.293173 0.115434 0.556738 1 0 0
-0.0327077 -0.096755 0.551163 0 0 -1
0.129811 -0.0177082 0.570708 0 0 1
-0.271673 0.16105 0.041423 -1 0 0
0.0495596 0.109421 0.570708 0 0 1
-0.217415 0.280472 0.551163 0 0 -1
-0.210355 -0.143096 0.570708 0 0 1
-0.0935439 0.246227 0.551163 0 0 -1
0.186173 0.051521 0.551163 0 0 -1
-0.073189 -0.148891 0.551163 0 0 -1
-0.293173 0.0349859 0.569823 -1 0 0
-0.253482 0.0172263 0.222813 -0.258667 0.965967 0
0.261906 -0.155069 0.535527 0 0 -1
-0.265559 0.118666 0.570708 0 0 1
0.109784 -0.166193 0.551163 0 0 -1
0.181734 0.154466 0.551163 0 0 -1
-0.0551834 -0.190633 0.570708 0 0 1
0.12953 -0.293171 0.553335 0 -1 0
0.278037 0.0162576 0.570708 0 0 1
-0.242117 0.0505698 0.118035 0 -0.335419 -0.942069
0.245874 0.0201819 0.53307 -1 0 0
-0.240398 -0.0879638 0.536649 1 0 0
-0.146064 0.11651 0.570708 0 0 1
-0.291683 0.103313 0.570708 0 0 1
-0.0659586 0.157103 0.570708 0 0 1
0.133067 0.286103 0.551163 0 0 -1
-0.238267 -0.00994023 0.526927 0 0 1
0.20292 0.0275276 0.570708 0 0 1
-0.248208 -0.201382 0.570708 0 0 1
0.156159 0.131468 0.551163 0 0 -1
0.244017 -0.0154176 0.275056 -0.258674 -0.965964 0
0.0369439 -0.167873 0.570708 0 0 1
0.0661334 0.169895 0.570708 0 0 1
-0.249621 0.261145 0.570708 0 0 1
0.163585 0.208043 0.570708 0 0 1
0.083517 -0.00334242 0.526927 0 0 1
0.0461558 0.0136804 0.51882 0 1 0
-0.0218985 -0.265543 0.570708 0 0 1
-0.172118 0.174996 0.551163 0 0 -1
0.112086 -0.246158 0.551163 0 0 -1
0.251645 0.017461 0.277743 -0.258859 0.965915 0
0.0230689 -0.0595314 0.570708 0 0 1
-0.166851 0.0343765 0.570708 0 0 1
-0.0293008 -0.176519 0.570708 0 0 1
-0.125077 -0.0434789 0.570708 0 0 1
-0.122858 -0.293171 0.554635 0 -1 0
-0.0102654 0.00439069 0.551163 0 0 -1
-0.0301354 -0.221732 0.570708 0 0 1
0.263854 -0.0915121 0.539137 1 0 0
0.265989 0.0825052 0.125282 0.998352 0.0573864 0
-0.0491374 0.0839411 0.570708 0 0 1
0.269905 -0.0786018 0.570708 0 0 1
0.185677 -0.0672106 0.551163 0 0 -1
-0.249955 0.0272755 0.551163 0 0 -1
0.260616 -0.233798 0.551163 0 0 -1
-0.0919012 0.00577289 0.551163 0 0 -1
-0.0501799 -0.279178 0.570708 0 0 1
0.243218 -0.137593 0.551163 0 0 1
-0.234429 -0.0602406 0.551163 0 0 -1
0.264801 0.177523 0.00330277 0 0.555541 -0.831489
0.189994 0.0687082 0.570708 0 0 1
-0.137979 -0.234043 0.551163 0 0 -1
-0.0781466 -0.203523 0.570708 0 0 1
-0.0192818 -0.136853 0.570708 0 0 1
-0.269609 0.000366023 0.354109 -0.966159 0.257946 0
0.293173 0.0852272 0.568554 1 0 0
0.209395 -0.0272923 0.551163 0 0 -1
-0.261958 0.0141983 0.460472 -0.707297 0.706916 0
-0.163601 -0.143554 0.570708 0 0 1
-0.191144 0.00291875 0.570708 0 0 1
-0.0842114 0.0813637 0.570708 0 0 1
-0.108658 0.0052353 0.487838 0 0 -1
-0.202055 -0.0210392 0.551163 0 0 -1
-0.242083 0.14887 0.0851467 0.998352 0.0573923 0
0.0246344 -0.140866 0.551163 0 0 -1
-0.239449 0.00257651 0.487838 0 0 -1
-0.143532 0.00532374 0.551163 0 0 -1
-0.161776 -0.0340078 0.551163 0 0 -1
0.100117 0.0425359 0.551163 0 0 -1
-0.111262 0.130895 0.551163 0 0 -1
-0.254752 0.194335 0.0669834 -0.248958 0.968514 0
0.29072 -0.0402378 0.570708 0 0 1
0.0635282 0.207593 0.570708 0 0 1
0.240652 -0.123974 0.0957428 -0.998353 -0.0573741 0
-0.00590597 -0.234924 0.531644 0 -0.382746 -0.923854
0.267484 0.0578773 0.570708 0 0 1
-0.267946 -0.200501 0.00210514 0 0.195077 -0.980788
-0.293173 0.210926 0.566295 -1 0 0
-0.125752 0.114415 0.551163 0 0 -1
0.275502 -0.00308156 0.570708 0 0 1
-0.241131 0.00668472 0.551163 0 0 -1
0.0122614 0.0562685 0.551163 0 0 -1
0.26437 0.108121 0.0975442 0 -0.335419 -0.942069
0.210372 -0.105275 0.551163 0 0 -1
0.128989 0.22084 0.570708 0 0 1
0.261175 -0.0617224 0.535527 0 0 -1
0.237727 0.0730837 0.125881 -0.998353 0.0573748 0
-0.0122057 -0.186676 0.570708 0 0 1
-0.0255179 -0.0479751 0.551163 0 0 -1
-0.237374 -0.00928502 0.275771 0.707299 -0.706914 0
-0.190414 0.076959 0.570708 0 0 1
-0.0512283 0.00168128 0.487838 0 0 -1
-0.0382084 0.216275 0.570708 0 0 1
-0.179061 -0.230859 0.570708 0 0 1
-0.227574 -0.272976 0.551163 0 0 -1
0.267314 -0.0594467 0.14631 0.998352 -0.0573858 0
0.134215 -0.000980017 0.487838 0 0 -1
0.229162 0.261606 0.551163 0 0 -1
0.0579635 -0.0790542 0.570708 0 0 1
0.240314 0.162645 0.570708 0 0 1
0.176296 -0.293171 0.566571 0 -1 0
-0.234401 -0.181153 0.0380072 0 0.980792 0.195058
0.240401 0.0772704 0.550916 -1 0 0
0.098953 0.140982 0.570708 0 0 1
0.00163957 0.261794 0.570708 0 0 1
-0.263063 -0.0186306 0.537541 1 0 0
-0.258925 0.0896018 0.104138 0 -0.335419 -0.942069
-0.0520474 -0.234812 0.551163 0 0 -1
-0.119027 0.17803 0.551163 0 0 -1
0.0301473 -0.101716 0.551163 0 0 -1
-0.122115 0.213762 0.570708 0 0 1
0.25075 0.194687 0.0473545 -0.258782 0.965936 0
0.0589709 0.00146589 0.487838 0 0 -1
-0.23257 -0.21836 0.0436329 1 0 0
0.232836 0.248995 0.570708 0 0 1
-0.279401 0.0325664 0.551163 0 0 -1
-0.236168 -0.00611288 0.445809 0.96616 -0.257944 0
0.139639 0.182359 0.551163 0 0 -1
0.130687 -0.199277 0.551163 0 0 -1
0.102135 -0.22736 0.538639 0 0.923855 0.382744
-0.0346331 0.171201 0.570708 0 0 1
-0.227397 0.130771 0.551163 0 0 -1
-0.28469 -0.107703 0.551163 0 0 -1
0.0779281 0.10275 0.551163 0 0 -1
-0.261178 0.187068 0.0153059 0.995721 0.0768332 -0.0513467
0.216072 0.293171 0.567032 0 1 0
0.00498298 -0.156549 0.570708 0 0 1
-0.235859 0.0898559 0.551163 0 0 -1
0.293173 -0.188277 0.56936 1 0 0
-0.267509 -0.0082318 0.335423 -0.966159 -0.257946 0
0.121788 0.0777414 0.551163 0 0 -1
-0.0572937 -0.213428 0.570708 0 0 1
0.259908 -0.191424 0.551163 0 0 -1
0.268365 0.00506165 0.414953 0.965995 0.25856 0
-0.264125 0.0228927 0.536232 -0.886506 -0.119952 -0.446898
-0.251949 0.164256 0.570708 0 0 1
-0.234295 0.104473 0.570708 0 0 1
0.209751 0.123231 0.570708 0 0 1
-0.140182 0.153446 0.551163 0 0 -1
-0.0602171 -0.258758 0.570708 0 0 1
-0.220294 -0.215007 0.570708 0 0 1
-0.201677 0.265595 0.570708 0 0 1
0.201893 0.149151 0.551163 0 0 -1
-0.219479 0.0681503 0.551163 0 0 -1
-0.0278736 0.0887754 0.551163 0 0 -1
0.0317889 0.171604 0.570708 0 0 1
-0.0345296 0.0136804 0.512433 0 1 0
-0.185749 -0.0605578 0.570708 0 0 1
0.223149 0.227688 0.551163 0 0 -1
-0.195284 -0.0199023 0.570708 0 0 1
0.0811383 -0.109451 0.570708 0 0 1
-0.197077 -0.178735 0.551163 0 0 -1
-0.277989 0.131597 0.551163 0 0 -1
0.0815015 0.158926 0.570708 0 0 1
0.142807 -0.0246986 0.551163 0 0 -1
0.163294 0.185357 0.551163 0 0 -1
0.151807 -0.163961 0.570708 0 0 1
-0.155443 0.0636223 0.570708 0 0 1
0.285981 -0.237584 0.551163 0 0 -1
0.236195 -0.0464143 0.128453 -0.998353 -0.0573741 0
0.263073 0.0156684 0.539813 -1 0 0
0.258382 0.0011397 0.530115 1 0 0
0.0913866 -0.0757633 0.551163 0 0 -1
-0.192841 0.0136804 0.523715 0 1 0
0.262991 0.134647 0.0984339 0.998352 0.0573864 0
0.251224 -0.0477179 0.551163 0 0 -1
0.293173 0.232251 0.55163 1 0 0
-0.0584437 -0.165888 0.570708 0 0 1
-0.187219 0.0136804 0.492023 0 1 0
-0.185571 0.0325301 0.551163 0 0 -1
-0.150933 -0.290154 0.551163 0 0 -1
-0.275108 -0.160077 0.551163 0 0 -1
0.10603 0.25617 0.551163 0 0 -1
-0.23902 0.0109315 0.37405 0.707296 0.706917 0
0.244945 0.0156655 0.502264 -0.258859 0.965915 0
0.256159 0.169141 0.100278 0 0.390365 0.92066
0.015639 -0.167061 0.551163 0 0 -1
-0.279188 -0.236517 0.570708 0 0 1
0.0322299 0.0413642 0.551163 0 0 -1
0.238296 -0.082986 0.11962 -0.998353 -0.0573741 0
-0.265592 -0.0891778 0.115357 -0.998352 -0.0573916 0
-0.265434 -0.0547921 0.148762 0 -0.390361 0.920662
-0.11325 -0.227564 0.535051 0 0.923886 -0.382669
-0.259856 0.183254 0.0942941 0 0.390365 0.92066
-0.146899 0.000926713 0.526927 0 0 1
-0.159242 0.188528 0.570708 0 0 1
0.241652 0.141377 0.105441 -0.998353 0.0573748 0
-0.170947 -0.0183964 0.551163 0 0 -1
-0.25041 -0.0469083 0.536237 0 1 0
-0.281556 -0.250486 0.551163 0 0 -1
0.274489 0.104463 0.551163 0 0 -1
-0.0926981 -0.111237 0.551163 0 0 -1
-0.245315 0.127047 0.570708 0 0 1
0.262947 0.267874 0.551163 0 0 -1
0.0111513 -0.0446477 0.570708 0 0 1
-0.251411 0.0192292 0.129194 0 -0.335419 -0.942069
0.0203785 -0.0546466 0.551163 0 0 -1
-0.0775709 -0.293171 0.552215 0 -1 0
-0.235179 0.0287824 0.150898 0.998352 0.0573923 0
-0.284516 0.194551 0.551163 0 0 -1
0.242956 0.13856 0.0170625 0.995734 -0.0767258 -0.0512597
-0.257359 -0.192962 0.0680936 -0.537206 -0.843451 0
-0.0265105 -0.155547 0.570708 0 0 1
-0.0316674 -0.158461 0.551163 0 0 -1
-0.158291 0.128954 0.551163 0 0 -1
0.250744 -0.0892773 0.104253 0 0.335415 -0.94207
0.213042 -0.234633 0.542657 0 -0.382566 0.923928
0.249824 0.0608271 0.551163 0 0 -1
0.167318 -0.187326 0.570708 0 0 1
-0.181146 -0.0892249 0.551163 0 0 -1
0.196768 0.291524 0.551163 0 0 -1
-0.121379 -0.148388 0.570708 0 0 1
0.256003 -0.11398 0.570708 0 0 1
0.270891 -0.0244723 0.551163 0 0 -1
0.260934 0.12352 0.535527 0 0 -1
-0.238705 -0.0901082 0.112218 0.998352 -0.0573916 0
0.213049 -0.220118 0.551163 0 0 -1
0.284985 0.172036 0.570708 0 0 1
-0.0341144 0.0485019 0.570708 0 0 1
-0.0929915 0.29253 0.570708 0 0 1
-0.0734867 0.126254 0.551163 0 0 -1
0.163219 0.250605 0.570708 0 0 1
0.181935 -0.207667 0.570708 0 0 1
0.259102 0.00710132 0.179813 0 0 -1
0.267929 -0.00669193 0.178891 0.965995 -0.25856 0
-0.0951895 0.17538 0.551163 0 0 -1
-0.258383 0.00169885 0.531018 -1 0 0
-0.149714 -0.229655 0.532211 0 0.382674 -0.923884
-0.154743 -0.217222 0.551163 0 0 -1
0.257103 0.218477 0.570708 0 0 1
0.105516 -0.0937864 0.551163 0 0 -1
0.26379 0.0123687 0.362751 0.706913 0.707301 0
0.293173 -0.150775 0.557873 1 0 0
-0.0727885 0.00601765 0.526927 0 0 1
-0.244301 0.0154965 0.32989 0.258694 0.965959 0
-0.0167371 0.00542244 0.487838 0 0 -1
-0.234687 -0.131619 0.551163 0 0 -1
-0.174549 0.112978 0.570708 0 0 1
0.0766779 0.150613 0.551163 0 0 -1
0.2607 -0.219223 0.00973554 -0.995733 -0.018005 -0.0905067
-0.21046 0.00835925 0.570708 0 0 1
-0.234492 -0.214356 0.0618927 0 -0.1951 0.980783
-0.0689805 0.0682409 0.551163 0 0 -1
0.132246 0.0136804 0.497225 0 1 0
0.249662 -0.0394436 0.570708 0 0 1
0.162996 -0.236036 0.542076 0 -0.382566 0.923928
0.0778472 0.0731931 0.570708 0 0 1
-0.0558067 0.289794 0.551163 0 0 -1
0.223934 -0.138628 0.551163 0 0 -1
-0.238397 0.0847506 0.117469 0.998352 0.0573923 0
0.0891285 -0.254409 0.570708 0 0 1
0.251047 -0.202583 0.54111 -0.990824 0 -0.135156
-0.252408 -0.231019 0.570708 0 0 1
-0.270793 0.194811 0.570708 0 0 1
-0.277831 0.101016 0.551163 0 0 -1
0.273277 0.239874 0.570708 0 0 1
0.0644053 -0.0492062 0.570708 0 0 1
0.194568 0.227925 0.570708 0 0 1
-0.155731 -0.0743296 0.570708 0 0 1
-0.0756081 0.0232614 0.570708 0 0 1
-0.272609 0.0876819 0.570708 0 0 1
0.020637 -0.0022659 0.551163 0 0 -1
0.00214484 0.293171 0.556358 0 1 0
0.236476 0.00721602 0.523378 -0.965775 0.25938 0
0.269416 -4.24438e-07 0.149457 0 -1 0
-0.0171086 -0.265611 0.551163 0 0 -1
-0.127856 0.0835405 0.570708 0 0 1
-0.235763 -0.038934 0.138876 0.998352 -0.0573916 0
-0.194549 0.233873 0.570708 0 0 1
0.165444 0.0136804 0.50558 0 1 0
0.165935 -0.0507481 0.551163 0 0 -1
0.0428478 -0.2407 0.551163 0 0 -1
0.15126 -0.271548 0.570708 0 0 1
0.209607 -0.195311 0.570708 0 0 1
0.199425 0.193101 0.551163 0 0 -1
-0.267545 0.00809691 0.478561 -0.966159 0.257946 0
0.123033 0.156971 0.551163 0 0 -1
0.2669 -0.0666543 0.12565 0.998352 -0.0573858 0
0.27164 0.170407 0.0459633 0.995298 0.0538119 0.0805384
0.0582067 -0.176361 0.551163 0 0 -1
0.0335509 0.117513 0.570708 0 0 1
0.275501 -0.0437384 0.551163 0 0 -1
0.267854 0.0500604 0.125022 0.998352 0.0573864 0
0.138063 -0.118059 0.551163 0 0 -1
-0.172815 -0.215304 0.551163 0 0 -1
-0.246929 0.203981 0.570708 0 0 1
0.237738 -0.0096339 0.42096 -0.70741 -0.706804 0
-0.151631 0.254242 0.551163 0 0 -1
-0.018192 -0.0136812 0.516712 0 -1 0
0.232637 -0.0672324 0.551163 0 0 -1
-0.265451 -0.219167 0.551163 0 0 -1
-0.210944 -0.0136812 0.517391 0 -1 0
0.263854 0.0396921 0.550632 1 0 0
-0.0890765 0.0409703 0.551163 0 0 -1
0.166775 0.00574133 0.551163 0 0 -1
-0.166056 0.0139918 0.570708 0 0 1
-0.251318 0.0173756 0.263864 0.258694 0.965959 0
0.00614202 -0.241477 0.551163 0 0 -1
0.058241 -0.227651 0.551163 0 0 -1
-0.00958502 0.0753786 0.551163 0 0 -1
-0.0817434 -0.00874156 0.487838 0 0 -1
0.0178325 0.153183 0.551163 0 0 -1
0.140472 0.19754 0.570708 0 0 1
-0.152 -0.127562 0.551163 0 0 -1
0.24479 0.0324293 0.124494 0 -0.335419 -0.942069
-0.0583221 -0.068318 0.551163 0 0 -1
-0.271673 -0.219187 0.0423632 -1 0 0
0.204255 0.101024 0.551163 0 0 -1
-0.278435 -0.285114 0.551163 0 0 -1
-0.207738 -0.0546422 0.551163 0 0 -1
-0.252121 0.000511397 0.515567 -1 0 0
-0.293173 0.0595957 0.567751 -1 0 0
0.207569 -0.286542 0.551163 0 0 -1
0.0785387 -0.0533846 0.551163 0 0 -1
0.188497 -0.162966 0.570708 0 0 1
0.148577 0.215617 0.551163 0 0 -1
-0.271673 0.172144 0.021661 -1 0 0
-0.20913 0.238755 0.551163 0 0 -1
-0.190386 0.291381 0.570708 0 0 1
-0.190664 0.165671 0.551163 0 0 -1
-0.104153 -0.151016 0.570708 0 0 1
-0.293173 0.0168854 0.564137 -1 0 0
-0.293173 0.247635 0.554253 -1 0 0
0.151097 0.0149649 0.570708 0 0 1
-0.251004 -0.177636 0.0966765 0 -0.390361 0.920662
-0.257934 -0.120305 0.0932062 0 0.335415 -0.94207
-0.255318 0.291593 0.570708 0 0 1
0.154624 -0.293171 0.554638 0 -1 0
0.121369 0.00429186 0.551163 0 0 -1
-0.0694259 -0.14853 0.570708 0 0 1
-0.292599 -0.177487 0.570708 0 0 1
0.0400588 -0.124965 0.570708 0 0 1
0.236763 -0.00828575 0.216708 -0.965775 -0.25938 0
0.268628 -0.0365946 0.140419 0.998352 -0.0573858 0
-0.259196 0.0588549 0.115085 0 -0.335419 -0.942069
-0.0440479 -0.199811 0.551163 0 0 -1
-0.257066 -0.0995271 0.551163 0 0 -1
-0.195163 0.206924 0.551163 0 0 -1
-0.268833 0.0327928 0.140971 -0.998352 0.0573922 0
-0.219346 -0.293171 0.565779 0 -1 0
-0.0234017 0.048362 0.551163 0 0 -1
0.138813 -0.215004 0.570708 0 0 1
-0.247308 0.155891 0.535527 0 0 -1
-0.0002307 0.0136804 0.51895 0 1 0
0.032146 -0.205397 0.551163 0 0 -1
0.169234 0.0247867 0.570708 0 0 1
-0.0613523 0.179342 0.551163 0 0 -1
0.201774 0.146423 0.570708 0 0 1
0.163583 -0.155208 0.551163 0 0 -1
-0.0858699 -0.049854 0.570708 0 0 1
0.168436 -0.22196 0.570708 0 0 1
0.244823 -0.0317942 0.551163 0 0 -1
-0.17361 0.210935 0.551163 0 0 -1
-0.188463 -0.142289 0.551163 0 0 -1
0.0858193 -0.0136812 0.50398 0 -1 0
-0.250901 -0.107822 0.570708 0 0 1
0.00624681 -0.228945 0.570708 0 0 1
0.196213 0.253974 0.551163 0 0 -1
-0.12485 0.0447592 0.551163 0 0 -1
0.252259 0.127097 0.570708 0 0 1
-0.0903146 0.0587612 0.570708 0 0 1
-0.233102 0.172379 0.0117837 0.995229 0.0541968 -0.0811336
0.0346582 0.224345 0.551163 0 0 -1
-0.10652 0.116307 0.570708 0 0 1
-0.262076 -0.150339 0.106368 -0.998352 -0.0573916 0
0.171684 0.184734 0.570708 0 0 1
0.259142 0.283756 0.570708 0 0 1
-0.24847 0.0642927 0.551163 0 0 -1
0.241714 0.142452 0.0872504 -0.998353 0.0573748 0
0.262176 -0.0977558 0.130546 0 -0.390361 0.920662
-0.23257 0.155993 0.0295822 1 0 0
0.248892 0.0167232 0.233942 -0.258859 0.965915 0
-0.215831 0.167246 0.570708 0 0 1
-0.245395 -0.149587 0.570708 0 0 1
0.225769 0.193118 0.551163 0 0 -1
0.263656 0.123089 0.114443 0.998352 0.0573864 0
-0.251335 0.187572 0.570708 0 0 1
0.272397 -0.278501 0.570708 0 0 1
-0.269354 -0.0237323 0.139035 -0.998352 -0.0573916 0
-0.19826 -0.199273 0.570708 0 0 1
-0.0408234 -0.0328391 0.570708 0 0 1
-0.209454 -0.219771 0.551163 0 0 -1
-0.234544 2.92056e-05 0.418669 0.96616 0.257944 0
-0.224879 -0.245298 0.570708 0 0 1
0.0210654 0.0255927 0.551163 0 0 -1
0.0565704 -0.188753 0.570708 0 0 1
-0.23244 -0.247605 0.551163 0 0 -1
-0.271751 -0.202476 0.551163 0 0 -1
-0.237208 -0.0640711 0.127308 0.998352 -0.0573916 0
-0.234536 -0.00993123 0.134253 1 0 0
-0.239742 -0.210518 0.551163 0 0 -1
0.198922 0.277022 0.570708 0 0 1
0.264505 0.0116534 0.28698 0.706913 0.707301 0
0.054503 0.181244 0.551163 0 0 -1
-0.158417 0.0718385 0.551163 0 0 -1
-0.146561 0.217006 0.551163 0 0 -1
0.0962638 0.134947 0.551163 0 0 -1
-0.266125 -0.055769 0.116184 0 0.335415 -0.94207
-0.0940414 0.14526 0.551163 0 0 -1
0.292517 0.177146 0.551163 0 0 -1
0.252285 0.00715765 0.544043 0.473483 0 0.880803
-0.0888809 0.256117 0.570708 0 0 1
-0.247037 -0.0272113 0.548036 0 0 1
-0.223043 -0.231176 0.551163 0 0 -1
-0.104891 -0.125631 0.570708 0 0 1
0.263854 -0.174594 0.538333 1 0 0
0.252129 0.00123661 0.496019 1 0 0
0.0491703 -0.110263 0.551163 0 0 -1
0.101024 0.0998579 0.570708 0 0 1
-0.0949991 -0.244589 0.570708 0 0 1
-0.0359624 0.264192 0.551163 0 0 -1
-0.259932 0.177 0.0328357 -1 0 0
0.0980355 -0.0136812 0.525458 0 -1 0
0.111973 0.25383 0.570708 0 0 1
0.134233 -0.183061 0.570708 0 0 1
0.196459 -0.18817 0.551163 0 0 -1
0.168841 -0.239655 0.570708 0 0 1
0.208225 0.171909 0.570708 0 0 1
0.0370355 -0.055031 0.551163 0 0 -1
0.257639 0.176981 0.0228334 0 0.8315 -0.555525
-0.111223 -0.193287 0.570708 0 0 1
-0.0653915 0.000902534 0.570708 0 0 1
0.230023 -0.0359659 0.570708 0 0 1
-0.0750112 0.0136804 0.504034 0 1 0
-0.264523 -0.0316726 0.570708 0 0 1
-0.282673 -0.0104865 0.551163 0 0 -1
0.251235 -0.0557551 0.148354 0 -0.390361 0.920662
0.0305492 -0.0136812 0.515874 0 -1 0
0.293173 -0.0274722 0.554796 1 0 0
