0.060561 0.0142083 0.381785 0 0 -1
0.208857 -0.226639 0.396449 0 0 1
-0.17133 0.0335319 0.381785 0 0 -1
0.25165 -0.073969 0.381785 0 0 -1
0.136365 0.262638 0.396449 0 0 1
0.325986 0.294792 0.381785 0 0 -1
-0.242042 0.0388072 0.108595 0.336389 0.941723 0
0.00746703 -0.015111 0.396449 0 0 1
-0.264141 -0.194076 0.00335981 -0.441655 -0.0888597 0.892774
0.0704469 -0.266501 0.381785 0 0 -1
0.228595 0.06837 0.381323 -0.993605 -0.112912 0
0.0745933 0.187984 0.396449 0 0 1
0.0635515 -0.303447 0.381785 0 0 -1
0.195874 0.302987 0.396449 0 0 1
0.187069 0.234712 0.381785 0 0 -1
-0.147826 0.242604 0.381785 0 0 -1
-0.315221 -0.189768 0.381785 0 0 -1
0.00204112 0.0502316 0.396449 0 0 1
-0.241477 -0.0386053 0.286467 0.336388 -0.941724 0
-0.0250035 -0.0368525 0.396449 0 0 1
-0.177816 -0.139753 0.396449 0 0 1
0.273366 0.0568039 0.396449 0 0 1
-0.190159 -0.133531 0.381785 0 0 -1
-0.236982 -0.0947351 0.396449 0 0 1
-0.285589 -0.00688563 0.396449 0 0 1
-0.00809825 -0.103871 0.381785 0 0 -1
-0.0783046 -0.303124 0.396449 0 0 1
0.0959169 0.0200866 0.381785 0 0 -1
-0.245995 0.0208654 0.381785 0 0 -1
-0.246077 -0.144013 0.381785 0 0 -1
-0.221788 -0.196351 0.396449 0 0 1
-0.0950639 0.169103 0.381785 0 0 -1
0.049588 0.123759 0.396449 0 0 1
-0.0245671 0.226506 0.396449 0 0 1
0.250822 -0.0350401 0.097254 0.800074 -0.599901 0
-0.14868 0.0586458 0.381785 0 0 -1
0.0102243 0.031846 0.381785 0 0 -1
-0.322058 0.238979 0.381785 0 0 -1
-0.0245619 -0.0905748 0.396449 0 0 1
-0.24137 -0.0683962 0.0876968 0 -0.396664 0.917964
-0.122187 0.27029 0.381785 0 0 -1
0.136865 0.208451 0.381785 0 0 -1
0.324287 0.192964 0.381785 0 0 -1
0.109622 0.308084 0.381785 0 0 -1
0.264971 0.151445 0.396449 0 0 1
-0.263732 -0.104375 0.381785 0 0 -1
0.248499 -0.145266 0.396449 0 0 1
0.322101 -0.122325 0.396449 0 0 1
-0.117132 0.324219 0.384995 0 1 0
0.25077 -0.0351086 0.214981 0.800074 -0.599901 0
-0.364227 -0.0456945 0.3908 -0.999694 -0.0247336 0
-0.0662847 -0.222582 0.381785 0 0 -1
0.0787029 -0.325849 0.38983 0 -1 0
0.0837327 -0.0850598 0.381785 0 0 -1
-0.35416 -0.184124 0.388477 -0.992283 -0.123998 0
0.254662 -0.233347 0.381785 0 0 -1
0.201837 -0.00169112 0.396449 0 0 1
-0.032715 0.255006 0.396449 0 0 1
0.216686 -0.298093 0.381785 0 0 -1
0.0952356 0.15657 0.396449 0 0 1
-0.249077 -0.0202008 0.100849 -0.799971 0.600039 0
-0.284145 0.0980422 0.396449 0 0 1
-0.197563 0.145626 0.381785 0 0 -1
0.317604 -0.087317 0.396449 0 0 1
0.146715 0.324219 0.392038 0 -1 0
0.294907 -0.0467772 0.381785 0 0 -1
0.364571 -0.0317397 0.39289 -0.999693 0.0247805 0
-0.25231 -0.0414903 0.0795166 -0.999847 -0.0174901 0
-0.224514 -0.194167 0.00169107 0.980375 -0.197143 0
-0.315112 0.0193754 0.396449 0 0 1
0.197265 -0.208609 0.396449 0 0 1
-0.265296 -0.251598 0.381785 0 0 -1
-0.277697 0.324871 0.383525 0 0.936354 -0.351057
0.350264 -0.199505 0.389199 0.984848 -0.173419 0
0.0460581 -0.0643997 0.396449 0 0 1
-0.315047 0.324219 0.383783 0 -1 0
-0.054928 -0.207689 0.396449 0 0 1
-0.313318 -0.157739 0.396449 0 0 1
-0.309388 -0.196679 0.396449 0 0 1
-0.207908 0.326544 0.387521 0 0.894211 -0.447646
0.244586 -0.0744938 0.381785 0 0 -1
-0.233018 -0.10795 0.381785 0 0 1
0.169295 0.0717061 0.381785 0 0 -1
0.318137 0.277509 0.396449 0 0 1
0.244414 -0.0179323 0.363905 0.336337 0.941742 0
-0.0218505 0.246938 0.396449 0 0 1
-0.202399 0.0388376 0.381785 0 0 -1
0.059178 -0.324219 0.390674 0 1 0
-0.319646 0.0561671 0.396449 0 0 1
0.249331 0.173915 0.0421005 0 0.396666 0.917963
0.223741 0.19672 0.381785 0 0 -1
-0.0673646 0.310831 0.381785 0 0 -1
5.48827e-07 -0.300538 0.389126 -1 0 0
-0.00570804 -0.282438 0.381785 0 0 -1
-0.186634 -0.316503 0.381785 0 0 -1
0.169542 -0.235009 0.381785 0 0 -1
-0.233163 0.0333937 0.396449 0 0 1
-0.141586 -0.0154014 0.381785 0 0 -1
0.294065 0.23752 0.396449 0 0 1
-0.243383 0.160818 0.0477596 0 0.396666 0.917963
-0.283144 0.246694 0.396449 0 0 1
-0.128686 0.249061 0.396449 0 0 1
0.0855861 -0.214574 0.396449 0 0 1
0.163849 0.214808 0.396449 0 0 1
-0.307201 0.140423 0.396449 0 0 1
-0.0730138 0.101494 0.396449 0 0 1
-0.281665 0.240955 0.381785 0 0 -1
-0.259234 0.204323 -1.21227e-18 8.16435e-17 2.70887e-21 -1
0.203545 0.244887 0.396449 0 0 1
-0.239113 -0.0209777 0.353043 0.800068 0.599909 0
-0.272007 -0.00127954 0.381785 0 0 -1
0.226779 -0.210309 0.396449 0 0 1
-0.317359 -0.0895045 0.396449 0 0 1
0.261089 -0.0458228 0.381785 0 0 -1
-0.250496 -0.00208454 0.0970662 -1 0 0
-0.237814 0.0348571 0.122139 0.800068 0.599909 0
5.48827e-07 -0.0294709 0.383029 1 0 0
-0.303213 0.308512 0.381785 0 0 -1
0.248064 -0.255934 0.396449 0 0 1
-0.236259 0.0288831 0.356588 0.980341 0.19731 0
0.245658 -0.0170172 0.366036 0 0 -1
-0.202799 0.326233 0.386898 0 0.894211 -0.447646
0.245896 0.0512365 0.381785 0 0 -1
-0.134785 0.083797 0.396449 0 0 1
0.0917004 -0.115526 0.381785 0 0 -1
0.302046 0.0736443 0.381785 0 0 -1
-0.325116 0.323471 0.389508 0.974607 -0.223923 0
0.240546 0.196086 0.0276684 -0.793105 0.609085 0
-0.237239 0.0858907 0.0692711 0.999847 0.0175024 0
0.270335 0.201423 0.396449 0 0 1
0.227517 -0.326663 0.388368 0 -1 0
-0.214704 0.214532 0.396449 0 0 1
0.0224969 0.0168495 0.396449 0 0 1
0.107386 0.0182705 0.396449 0 0 1
-0.263719 -0.0995266 0.366188 -0.993605 0.112912 0
0.0584986 0.000692577 0.396449 0 0 1
0.232051 0.325848 0.390554 0 1 0
0.0583897 -0.181934 0.381785 0 0 -1
0.133194 0.100406 0.396449 0 0 1
0.148011 0.326409 0.390439 0 0.894434 0.447201
0.331956 -0.293568 0.385321 0.97452 -0.224302 0
0.128414 -0.034288 0.381785 0 0 -1
-0.254972 -0.124883 0.396449 0 0 1
0.31016 6.2695e-07 0.396147 0 1 0
0.0626855 -0.00970175 0.396449 0 0 1
0.207453 0.116772 0.396449 0 0 1
-0.156281 -0.242428 0.396449 0 0 1
-0.0399705 0.180121 0.381785 0 0 -1
0.3281 -0.0806788 0.396449 0 0 1
0.252406 0.0603072 0.366036 0 0 -1
-0.242796 0.0138435 0.366036 0 0 -1
0.336825 0.272415 0.394196 0.974517 0.224312 0
-0.0978294 -0.034107 0.396449 0 0 1
-0.238278 0.00706777 0.0799235 1 0 0
0.189707 -0.31793 0.381785 0 0 -1
-0.153838 0.189795 0.381785 0 0 -1
-0.209286 -0.0728208 0.396449 0 0 1
-0.357006 -0.156408 0.386575 -0.992276 -0.12405 0
0.305349 0.171576 0.381785 0 0 -1
0.0922688 0.146957 0.396449 0 0 1
-0.252125 0.0520435 0.0853186 -0.999847 0.0174902 0
0.237917 0.0225718 0.351086 -0.800068 -0.599909 0
-0.155568 0.120267 0.396449 0 0 1
0.327407 0.319065 0.390979 -0.974602 -0.223946 0
0.161653 6.2695e-07 0.386117 0 1 0
-0.280528 -0.077101 0.381785 0 0 -1
0.263225 0.199305 0.000187225 0.980391 0.19706 0
-0.073092 -0.22478 0.381785 0 0 -1
0.322071 0.0706277 0.396449 0 0 1
-0.113522 -0.304898 0.396449 0 0 1
0.142243 0.00475354 0.381785 0 0 -1
-0.342498 -0.0384063 0.396449 0 0 1
-0.235842 -0.300853 0.396449 0 0 1
0.237223 0.084976 0.0686217 -0.999847 0.0174963 0
0.355809 0.156068 0.38758 0.992317 0.123718 0
0.329902 -0.0952559 0.396449 0 0 1
0.341791 -0.0211608 0.381785 0 0 -1
0.108648 0.281 0.381785 0 0 -1
-0.265929 0.0151127 0.396449 0 0 1
0.221153 0.052974 0.381785 0 0 -1
-0.015442 0.208576 0.381785 0 0 -1
-0.250706 -0.0752143 0.381785 0 0 -1
-0.138327 0.101573 0.381785 0 0 -1
-0.0251404 0.238442 0.381785 0 0 -1
-0.254394 0.0634323 0.381785 0 0 1
0.21335 0.173501 0.396449 0 0 1
0.345571 0.0972035 0.396449 0 0 1
-0.248661 0.197996 0.0115623 -0.730499 0.547413 0.408302
0.166201 -0.0578274 0.396449 0 0 1
-0.145202 -0.323443 0.396449 0 0 1
0.0826278 -0.299425 0.396449 0 0 1
0.150069 -0.156163 0.396449 0 0 1
-0.339315 0.261579 0.384094 0.984773 -0.173844 0
0.33779 0.268225 0.385472 0.974517 0.224312 0
-0.280228 0.0398136 0.381785 0 0 -1
-0.0996361 0.182311 0.381785 0 0 -1
0.348471 -0.216837 0.389074 -0.98477 0.173865 0
0.359165 0.12724 0.393127 -0.997231 -0.0743628 0
-0.290455 0.206772 0.396449 0 0 1
-0.328679 -0.202676 0.396449 0 0 1
0.342417 0.234019 0.381785 0 0 -1
-0.347836 0.213309 0.393927 0.984773 -0.173844 0
-0.187485 0.324219 0.395589 0 1 0
-0.1688 -0.324219 0.392271 0 1 0
-0.00268278 0.324219 0.391701 0 1 0
0.345473 -0.00941591 0.396449 0 0 1
-0.0102618 -0.20145 0.396449 0 0 1
0.335411 0.156573 0.396449 0 0 1
0.164496 -0.070935 0.396449 0 0 1
-0.206167 0.0234411 0.396449 0 0 1
0.203219 -0.298176 0.396449 0 0 1
0.223224 0.163108 0.381785 0 0 -1
-0.159146 -0.0814857 0.396449 0 0 1
-0.161208 0.324219 0.394831 0 1 0
-0.00764728 0.057154 0.396449 0 0 1
-0.317512 0.0253999 0.396449 0 0 1
0.229788 -0.0813113 0.381785 0 0 1
-0.189674 -0.200988 0.381785 0 0 -1
0.202865 -0.326663 0.388495 0 -1 0
0.24481 -0.0394931 0.347128 0.336316 -0.941749 0
-0.234875 -0.0820777 0.396449 0 0 1
-0.205198 0.325848 0.386597 0 1 0
0.361346 0.0979961 0.39195 -0.997231 -0.0743628 0
-0.18538 -0.282043 0.396449 0 0 1
-0.204794 -0.101519 0.381785 0 0 -1
-0.0754384 0.235072 0.396449 0 0 1
-0.245744 0.0391591 0.219456 -0.33639 0.941723 0
-0.307805 -0.0340888 0.396449 0 0 1
0.0439076 -0.300895 0.381785 0 0 -1
0.344322 -0.233222 0.38715 -0.984766 0.173886 0
0.173329 0.205128 0.381785 0 0 -1
-0.0441763 0.153549 0.381785 0 0 -1
0.160195 -0.0348127 0.381785 0 0 -1
-0.250352 -0.0219016 0.106976 -0.799971 0.600039 0
-0.252163 0.0514259 0.381785 0 0 -1
0.244956 0.116762 0.377877 0 1 0
5.48827e-07 -0.183795 0.383286 -1 0 0
-0.0182283 0.162588 0.381785 0 0 -1
0.130205 -0.143447 0.381785 0 0 -1
-0.336701 0.197439 0.396449 0 0 1
-0.157764 -0.325675 0.385666 0 -0.936284 -0.351243
-0.251469 0.0895628 0.067721 -0.999847 0.0174902 0
-0.26633 0.2435 0.396449 0 0 1
-0.242396 -0.0866498 0.381785 0 0 1
-0.259562 0.159505 0.396449 0 0 1
-0.265295 0.202851 0.381785 0 0 -1
-0.338049 0.212253 0.396449 0 0 1
0.251782 0.0325161 0.293232 0.980376 0.197134 0
-0.252129 -0.0307897 0.0992452 -0.98041 -0.196967 0
-0.0484144 0.144426 0.396449 0 0 1
-0.167073 0.219431 0.396449 0 0 1
-0.291804 -0.276133 0.396449 0 0 1
0.126371 0.202998 0.396449 0 0 1
0.294409 -0.162506 0.381785 0 0 -1
0.0521271 -0.325849 0.386143 0 1 0
-0.065453 -0.0670601 0.381785 0 0 -1
0.360367 -0.0784108 0.381785 0 0 -1
-0.0490407 0.118288 0.396449 0 0 1
-0.337358 0.254817 0.381785 0 0 -1
0.188962 -0.173657 0.396449 0 0 1
-0.364148 -0.0488906 0.393836 -0.999694 -0.0247336 0
0.260053 0.229144 0.396449 0 0 1
-0.186085 -0.270499 0.381785 0 0 -1
-0.220535 -0.269482 0.396449 0 0 1
0.305586 0.323793 0.381785 0 0 -1
0.354042 -0.170239 0.392677 0.992317 -0.12372 0
0.212511 0.0779167 0.396449 0 0 1
0.0282255 -0.160395 0.381785 0 0 -1
0.248276 0.0193114 0.232107 0.336317 -0.941749 0
0.0252738 0.257193 0.381785 0 0 -1
-0.252818 0.0676252 0.396449 0 0 1
-0.217692 0.171344 0.396449 0 0 1
0.259536 0.0627197 0.370121 0.993605 -0.112912 0
-0.0100883 0.307946 0.396449 0 0 1
-0.124133 -0.250794 0.381785 0 0 -1
-0.212157 0.171477 0.396449 0 0 1
-0.216294 0.218696 0.396449 0 0 1
0.112604 0.152934 0.396449 0 0 1
-0.153954 -0.234974 0.396449 0 0 1
0.260071 0.255325 0.381785 0 0 -1
-0.313716 0.279846 0.381785 0 0 -1
0.0400435 0.266557 0.396449 0 0 1
0.238398 0.0448379 0.0978765 0 0.396666 0.917963
0.177392 0.11047 0.396449 0 0 1
0.331109 -0.297388 0.393614 -0.97461 0.223911 0
0.252592 0.181033 -6.69929e-19 -8.16452e-17 -1.44028e-21 -1
0.108851 0.108929 0.396449 0 0 1
-0.344108 -0.120467 0.396449 0 0 1
-0.157195 -0.317835 0.381785 0 0 -1
0.337838 -0.202853 0.396449 0 0 1
0.358621 0.133571 0.396382 -0.992279 -0.124025 0
-0.299676 -0.282573 0.396449 0 0 1
0.0128217 -0.172952 0.381785 0 0 -1
0.11376 0.0545152 0.381785 0 0 -1
-0.252744 0.156098 0.381785 0 0 -1
0.240827 0.033261 0.366036 0 0 -1
0.261168 -0.136634 0.396449 0 0 1
0.294787 0.0139286 0.396449 0 0 1
0.358158 0.137276 0.384072 -0.992279 -0.124025 0
-0.238839 0.0362233 0.0898515 0.800068 0.599909 0
-0.265272 -0.247881 0.381785 0 0 -1
-0.193863 -0.209826 0.381785 0 0 -1
-0.312333 -0.324219 0.392607 0 1 0
0.137871 0.264761 0.381785 0 0 -1
-0.242741 0.23964 0.396449 0 0 1
0.245597 -0.039212 0.320264 0.336316 -0.941749 0
0.180403 0.215794 0.381785 0 0 -1
0.238335 0.13956 0.0569458 0 0.396666 0.917963
0.248249 -0.0666032 0.366036 0 0 -1
0.0687656 -0.239566 0.381785 0 0 -1
-0.0276641 0.192616 0.396449 0 0 1
-0.0791319 -0.259282 0.396449 0 0 1
0.11906 0.305621 0.381785 0 0 -1
0.327853 0.142988 0.381785 0 0 -1
0.124493 -0.197313 0.381785 0 0 -1
0.161739 0.304155 0.381785 0 0 -1
-0.251486 -0.0339883 0.331322 -0.98041 -0.196967 0
0.354271 -0.166742 0.396449 0 0 1
0.175225 0.0543437 0.396449 0 0 1
-0.19654 -0.160356 0.381785 0 0 -1
0.111194 0.326066 0.391125 0 0.894434 0.447201
-0.240835 -0.0953248 0.0516556 0 0.330349 -0.943859
-0.189071 0.135043 0.381785 0 0 -1
-0.310149 0.051574 0.381785 0 0 -1
0.260854 0.0222356 0.381785 0 0 -1
-0.306846 0.229825 0.396449 0 0 1
-0.354449 0.150336 0.396449 0 0 1
0.154825 -0.317737 0.396449 0 0 1
0.236856 -0.0257202 0.312619 -0.980376 0.197137 0
-0.353047 -0.157169 0.396449 0 0 1
0.247079 0.197761 0.0206943 0.800001 0.599998 0
0.334386 0.118262 0.381785 0 0 -1
0.236657 0.0267119 0.242992 -0.980376 -0.197137 0
-0.144622 0.324219 0.38847 0 -1 0
-0.365267 -0.0699324 0.389964 -0.934079 -0.0696678 0.350204
0.268606 -0.0115745 0.396449 0 0 1
0.27842 0.283702 0.396449 0 0 1
0.307561 0.246471 0.396449 0 0 1
0.239159 -0.0366506 0.243268 -0.800076 -0.599899 0
-0.344801 0.104562 0.381785 0 0 -1
-0.290507 0.224087 0.396449 0 0 1
-0.0332743 -0.171128 0.396449 0 0 1
-0.046405 -0.237851 0.396449 0 0 1
-0.283976 0.0818934 0.396449 0 0 1
-0.283319 -0.324268 0.396302 0 -0.948644 0.316346
-0.102613 -0.0779073 0.396449 0 0 1
-0.164729 0.32469 0.395035 0 0.948701 0.316174
-0.0727777 -0.0958282 0.381785 0 0 -1
5.48827e-07 -0.160172 0.384813 -1 0 0
-0.169119 0.22216 0.381785 0 0 -1
-0.252039 0.0863407 0.381785 0 0 -1
-0.30696 0.0608411 0.381785 0 0 -1
0.264134 0.300838 0.396449 0 0 1
-0.0516358 0.265169 0.381785 0 0 -1
0.191524 0.252776 0.396449 0 0 1
-0.251255 0.106132 0.396449 0 0 1
-0.31106 0.263738 0.396449 0 0 1
0.293008 -0.300658 0.381785 0 0 -1
-0.10814 0.0908946 0.396449 0 0 1
-0.362224 6.2695e-07 0.393228 0 -1 0
-0.077756 -0.304701 0.396449 0 0 1
0.186063 -0.0415187 0.396449 0 0 1
0.0843804 -0.0118084 0.396449 0 0 1
-0.0448964 -0.324219 0.38884 0 1 0
0.0898615 0.00112167 0.396449 0 0 1
-0.314327 -0.154572 0.396449 0 0 1
0.318583 0.125329 0.381785 0 0 -1
-0.0618448 -0.215581 0.381785 0 0 -1
-0.255894 0.186742 0.00718099 -0.441646 -0.0888578 0.892778
-0.156992 0.0406584 0.396449 0 0 1
-0.360624 0.124157 0.386259 -0.997236 0.0743047 0
0.164905 -0.178319 0.396449 0 0 1
-0.250505 -0.0354612 0.181113 -0.799978 -0.60003 0
-0.0392783 0.260646 0.381785 0 0 -1
-0.228038 -0.0817693 0.396449 0 0 1
0.365212 0.0551932 0.386595 0.999693 0.0247657 0
-0.304543 -0.172406 0.396449 0 0 1
0.341114 -0.0393923 0.381785 0 0 -1
0.263853 0.137533 0.396449 0 0 1
-0.268872 -0.0619751 0.396449 0 0 1
-0.240135 0.0239059 0.381785 0 0 1
-0.251612 0.081369 0.0806169 -0.999847 0.0174902 0
-0.143696 -0.06711 0.396449 0 0 1
-0.308206 0.238895 0.381785 0 0 -1
-0.0516801 -0.125918 0.381785 0 0 -1
-0.137869 0.326249 0.390759 0 0.894434 0.447201
-0.266768 -0.112242 0.381785 0 0 1
0.193491 0.299017 0.396449 0 0 1
-0.0723859 0.0449036 0.396449 0 0 1
-0.3123 0.0471481 0.396449 0 0 1
-0.235247 0.0584009 0.396449 0 0 1
-0.290542 0.0540127 0.381785 0 0 -1
-0.0268952 -0.299175 0.396449 0 0 1
0.116239 0.232231 0.396449 0 0 1
-0.014749 -0.154524 0.396449 0 0 1
0.139644 0.0162251 0.396449 0 0 1
0.200323 -0.258888 0.381785 0 0 -1
0.0214835 0.0270441 0.381785 0 0 -1
-0.108522 0.169191 0.396449 0 0 1
0.354774 0.178328 0.387466 0.928091 0.116019 -0.353819
-0.20227 -0.253989 0.381785 0 0 -1
-0.242745 0.0185083 0.223199 0.336389 -0.941723 0
0.024809 -0.13866 0.381785 0 0 -1
-0.200993 -0.135 0.396449 0 0 1
-0.146623 -0.167033 0.396449 0 0 1
-0.306476 -0.176619 0.396449 0 0 1
-0.312708 -0.101246 0.396449 0 0 1
-0.229695 -0.0239591 0.396449 0 0 1
-0.330126 0.174091 0.396449 0 0 1
0.294279 -0.015441 0.381785 0 0 -1
0.0590538 0.0578684 0.396449 0 0 1
-0.0284785 0.183699 0.381785 0 0 -1
0.358433 -0.144985 0.387147 -0.99228 0.12402 0
-0.0978532 0.273614 0.396449 0 0 1
-0.196161 -0.116579 0.381785 0 0 -1
-0.131213 0.149647 0.381785 0 0 -1
0.0060665 0.260599 0.396449 0 0 1
-0.133515 -0.196512 0.381785 0 0 -1
-0.0411047 0.0585015 0.396449 0 0 1
0.198229 0.138629 0.381785 0 0 -1
0.0246595 0.262105 0.381785 0 0 -1
0.300878 -0.0455215 0.381785 0 0 -1
-0.0604635 -0.0966738 0.396449 0 0 1
0.0662273 0.119056 0.396449 0 0 1
0.216427 0.0888797 0.396449 0 0 1
0.197012 -0.143143 0.381785 0 0 -1
0.237292 0.0235531 0.211305 -0.980376 -0.197137 0
0.153524 0.160159 0.396449 0 0 1
-0.230398 0.0664631 0.366036 0 0 -1
0.244583 0.198535 0.0286452 0.331782 0.943356 0
0.147422 -0.250246 0.396449 0 0 1
0.0948873 -0.242243 0.381785 0 0 -1
-0.234203 -0.00383696 0.373175 1 0 0
-0.249111 0.250927 0.381785 0 0 -1
-0.103575 0.102551 0.381785 0 0 -1
0.239496 0.302914 0.381785 0 0 -1
0.0163925 0.087497 0.396449 0 0 1
0.128502 -0.0968575 0.381785 0 0 -1
0.191186 0.00252565 0.396449 0 0 1
0.290676 -0.32536 0.384826 0 -0.936284 -0.351243
0.160866 -0.0151867 0.396449 0 0 1
-0.247762 0.186564 0.0197856 -0.800001 -0.599998 0
0.00960809 -0.092811 0.381785 0 0 -1
-0.127603 -0.324379 0.39597 0 -0.948644 0.316346
0.121253 0.0940131 0.396449 0 0 1
0.165268 0.306444 0.396449 0 0 1
-0.236918 -0.0254096 0.134713 0.980341 0.19731 0
0.301057 0.0458882 0.381785 0 0 -1
-0.221141 0.0481025 0.381785 0 0 -1
0.352926 -0.179131 0.389803 -0.992279 0.124025 0
-0.017424 -0.1853 0.381785 0 0 -1
0.238405 0.0356452 0.0882555 -0.800068 0.599909 0
0.125319 -0.0361312 0.396449 0 0 1
-0.17677 -0.151197 0.381785 0 0 -1
0.196211 0.12392 0.396449 0 0 1
0.273084 -0.108294 0.381785 0 0 -1
-0.304262 0.0318021 0.396449 0 0 1
0.166097 -0.324219 0.382048 0 -1 0
0.250496 0.027984 0.100764 1 0 0
0.111423 0.318432 0.381785 0 0 -1
0.0309747 0.131219 0.381785 0 0 -1
-0.23538 -0.0298969 0.396449 0 0 1
-0.35072 -0.149629 0.381785 0 0 -1
0.266963 -0.0886752 0.381785 0 0 -1
0.252068 -0.266372 0.381785 0 0 -1
-0.365277 -0.0524531 0.38925 0.999692 0.0248259 0
0.0545666 0.202426 0.381785 0 0 -1
-0.23666 0.0528289 0.0696419 0.999847 0.0175024 0
-0.331914 -0.248638 0.396449 0 0 1
0.0485959 -0.289109 0.396449 0 0 1
0.0985406 -0.02872 0.396449 0 0 1
0.0327324 -0.177215 0.396449 0 0 1
0.316224 -0.151333 0.381785 0 0 -1
0.243388 -0.116762 0.367817 0 -1 0
0.025753 -0.325849 0.388175 0 1 0
0.236517 -0.044615 0.0700452 -0.999847 -0.0174962 0
-0.0071542 0.228003 0.396449 0 0 1
0.269362 -0.268724 0.396449 0 0 1
0.201123 0.167728 0.381785 0 0 -1
0.0133178 0.269015 0.396449 0 0 1
-0.0693143 -0.267134 0.396449 0 0 1
-0.246654 0.0287832 0.0908029 0 -1 0
-0.163415 -0.193078 0.396449 0 0 1
0.277058 -0.159774 0.396449 0 0 1
-0.260359 -0.257892 0.396449 0 0 1
0.129017 0.00501979 0.396449 0 0 1
-0.296221 -0.326663 0.389113 0 -1 0
-0.152233 0.16864 0.381785 0 0 -1
-0.250411 -0.150028 0.035581 -0.999847 -0.0174901 0
-0.312266 0.217348 0.381785 0 0 -1
0.264614 -0.107403 0.380508 0.993605 0.112912 0
0.0514695 0.0742735 0.396449 0 0 1
-0.0253768 0.234717 0.396449 0 0 1
-0.350412 0.0793118 0.396449 0 0 1
-0.28876 -0.24689 0.396449 0 0 1
0.354277 0.173015 0.394136 0.962303 0.120273 0.243942
0.193005 -0.163548 0.396449 0 0 1
-0.296117 0.0965421 0.396449 0 0 1
0.102908 0.0218499 0.396449 0 0 1
0.342309 0.171385 0.396449 0 0 1
0.0403139 0.017655 0.381785 0 0 -1
0.063964 0.155007 0.396449 0 0 1
-0.119268 0.208028 0.396449 0 0 1
-0.250598 -0.0570101 0.0926169 0 -0.396664 0.917964
0.249839 -0.182705 0.0377527 0.999847 -0.0175023 0
-0.0103765 0.157404 0.396449 0 0 1
-0.156392 0.0757047 0.396449 0 0 1
0.153394 0.151428 0.396449 0 0 1
-0.247668 0.263985 0.381785 0 0 -1
0.112557 0.0122679 0.381785 0 0 -1
-0.32628 0.207091 0.381785 0 0 -1
-0.325185 0.162397 0.381785 0 0 -1
-0.0641349 -0.050145 0.396449 0 0 1
-0.210227 -0.217043 0.381785 0 0 -1
-0.364817 0.0217911 0.382278 0.999693 -0.0247805 0
0.200304 -0.130005 0.396449 0 0 1
-0.23676 0.0261944 0.279652 0.980341 -0.19731 0
-0.252276 -0.0434428 0.0909256 -0.999847 -0.0174901 0
0.347096 0.217495 0.390732 0.984849 0.173414 0
0.028017 0.143419 0.381785 0 0 -1
0.168042 -0.325152 0.384271 0 -0.936284 -0.351243
0.242663 0.0390288 0.187252 -0.336389 0.941723 0
0.113324 -0.12362 0.396449 0 0 1
0.15458 -0.259987 0.396449 0 0 1
0.0240101 0.167748 0.381785 0 0 -1
0.104933 -0.197279 0.381785 0 0 -1
-0.317895 -0.22882 0.396449 0 0 1
0.226886 -0.0625771 0.381785 0 0 -1
-0.257801 -0.195067 -1.0952e-18 8.1646e-17 3.82417e-21 -1
-0.156227 0.0794327 0.396449 0 0 1
0.00514969 0.289476 0.396449 0 0 1
0.0442325 0.115635 0.396449 0 0 1
0.323253 0.00484227 0.381785 0 0 -1
-0.0484214 0.323597 0.381785 0 0 -1
-0.077478 -0.194494 0.396449 0 0 1
0.160641 0.202225 0.396449 0 0 1
-0.353788 0.166263 0.396449 0 0 1
-0.157722 0.182194 0.381785 0 0 -1
-0.254912 0.0507778 0.366036 0 0 -1
5.48827e-07 -0.296042 0.395617 1 0 0
0.0167018 -0.149977 0.396449 0 0 1
-0.363482 -0.0857984 0.39137 -0.997236 -0.0743032 0
-0.359943 0.116798 0.387551 0.99723 -0.0743775 0
0.1372 0.190149 0.396449 0 0 1
-0.0985593 0.0770549 0.381785 0 0 -1
0.0767846 -0.280182 0.381785 0 0 -1
-0.103918 0.110563 0.381785 0 0 -1
-0.0153888 -0.200576 0.396449 0 0 1
-0.233791 -0.0585308 0.396449 0 0 1
0.251975 -0.0260085 0.282136 0.980376 0.197134 0
0.177907 0.0919935 0.381785 0 0 -1
0.278891 0.167137 0.381785 0 0 -1
-0.0763851 0.297431 0.396449 0 0 1
0.22729 -0.202886 1.39579e-18 -8.16437e-17 2.64496e-21 -1
0.245587 -0.101984 0.396449 0 0 1
-0.282553 -0.0172358 0.396449 0 0 1
0.26918 -0.117265 0.381785 0 0 -1
-0.058636 0.325341 0.384779 0 0.936354 -0.351057
0.017537 0.217255 0.381785 0 0 -1
-0.361337 0.0624483 0.396449 0 0 1
5.48827e-07 -0.148434 0.382765 1 0 0
5.48827e-07 0.275772 0.389505 1 0 0
-0.217274 -0.288348 0.396449 0 0 1
0.214277 0.0650804 0.381785 0 0 -1
-0.012273 0.22271 0.381785 0 0 -1
-0.0947256 -0.235922 0.381785 0 0 -1
-0.365373 0.0675463 0.390154 -0.93317 0.0695311 0.352647
-0.330179 -0.301282 0.392418 -0.974523 -0.224287 0
0.119342 -0.0307225 0.396449 0 0 1
0.0814151 -0.278496 0.381785 0 0 -1
0.287609 -0.121135 0.381785 0 0 -1
0.0374621 -0.108894 0.381785 0 0 -1
0.0559467 6.2695e-07 0.388656 0 -1 0
0.27187 -0.322566 0.381785 0 0 -1
0.36551 -0.0431644 0.390818 0.999693 -0.0247657 0
0.361152 0.103387 0.395622 0.967331 0.0721331 0.243037
-0.137678 -0.324219 0.394461 0 -1 0
0.10488 -0.0261183 0.396449 0 0 1
0.32923 0.136447 0.396449 0 0 1
0.356299 0.0846074 0.381785 0 0 -1
-0.237511 -0.230859 0.381785 0 0 -1
-0.248948 0.148665 0.0530115 0 0.396666 0.917963
0.110293 -0.256914 0.396449 0 0 1
-0.228771 0.0668111 0.36626 0.993605 -0.112912 0
-0.237187 0.0829362 0.0709741 0.999847 0.0175024 0
0.297363 0.224738 0.396449 0 0 1
-0.242774 -0.125707 0.0410219 0 0.330349 -0.943859
0.193148 0.0446897 0.396449 0 0 1
0.254323 -0.0894077 0.366036 0 0 -1
0.103945 -0.0350751 0.396449 0 0 1
-0.290755 0.270225 0.381785 0 0 -1
0.0685354 0.211967 0.396449 0 0 1
-0.110527 -0.00518182 0.381785 0 0 -1
5.48827e-07 -0.127682 0.384634 -1 0 0
0.325728 -0.321647 0.395714 0.944443 -0.217013 0.246844
0.328502 -0.278098 0.381785 0 0 -1
0.231038 -0.312548 0.381785 0 0 -1
0.32409 0.260402 0.396449 0 0 1
0.256328 -0.202131 -9.74981e-19 -8.16435e-17 3.29566e-21 -1
0.260262 -0.0691042 0.374824 0.993605 0.112912 0
0.148346 -0.010793 0.381785 0 0 -1
-0.192465 0.236162 0.381785 0 0 -1
0.288456 -0.0922677 0.381785 0 0 -1
0.0813977 0.0739787 0.396449 0 0 1
-0.290554 -0.248252 0.396449 0 0 1
0.00387837 0.287593 0.396449 0 0 1
-0.255121 -0.0962665 0.381785 0 0 -1
-0.360147 0.13055 0.388069 0.997236 -0.0743047 0
0.0674917 0.0630444 0.381785 0 0 -1
0.237223 -0.0849447 0.0659928 -0.999847 -0.0174962 0
-0.212273 6.2695e-07 0.387503 0 1 0
-0.312815 0.247598 0.381785 0 0 -1
0.313399 0.319128 0.381785 0 0 -1
0.260855 -0.143543 0.396449 0 0 1
0.124576 -0.0315353 0.381785 0 0 -1
0.0166219 0.185485 0.396449 0 0 1
0.270766 0.324219 0.392125 0 -1 0
-0.364294 0.042896 0.387975 0.999693 -0.0247805 0
-0.192003 6.2695e-07 0.383707 0 1 0
-0.0543394 0.106647 0.381785 0 0 -1
0.35909 0.128364 0.388024 0.997246 0.0741621 0
-0.13764 0.126089 0.381785 0 0 -1
0.178839 -0.290671 0.396449 0 0 1
-0.252065 0.0264597 0.220205 -0.980411 -0.196964 0
0.348042 -0.175945 0.381785 0 0 -1
-0.0657782 -0.250034 0.396449 0 0 1
0.154858 -0.275823 0.381785 0 0 -1
0.15799 -0.0612378 0.381785 0 0 -1
-0.0625896 0.18676 0.381785 0 0 -1
0.124637 0.198555 0.396449 0 0 1
0.250017 0.0214537 0.207453 0.800067 -0.599911 0
5.48827e-07 -0.0185296 0.387994 1 0 0
0.0591889 -0.113114 0.396449 0 0 1
0.236908 -0.0669797 0.0853578 -0.999847 -0.0174962 0
5.48827e-07 -0.0439204 0.385587 1 0 0
-0.116008 -0.0704209 0.396449 0 0 1
-0.011981 -0.130482 0.396449 0 0 1
-0.239031 -0.29154 0.396449 0 0 1
0.235346 -0.2552 0.381785 0 0 -1
0.255128 0.142062 0.396449 0 0 1
0.314282 -0.263508 0.396449 0 0 1
0.172741 0.0809209 0.396449 0 0 1
5.48827e-07 -0.314781 0.392506 -1 0 0
0.0976046 -0.165039 0.381785 0 0 -1
-0.166604 -0.060006 0.396449 0 0 1
0.249962 0.0642049 0.381785 0 0 -1
-0.0155879 0.149265 0.381785 0 0 -1
5.48827e-07 -0.209777 0.394786 -1 0 0
0.240263 -0.0381231 0.34172 -0.800076 -0.599899 0
-0.15877 0.035654 0.396449 0 0 1
0.119304 -0.324219 0.391894 0 1 0
-0.162053 0.118278 0.396449 0 0 1
0.330784 -0.216318 0.381785 0 0 -1
0.310232 0.222004 0.396449 0 0 1
0.166527 0.0252019 0.381785 0 0 -1
-0.176502 0.128093 0.381785 0 0 -1
-0.147199 -0.239061 0.381785 0 0 -1
-0.32774 -0.31205 0.394651 0.974606 0.223926 0
0.25061 0.0961361 0.0513715 0 -0.330351 -0.943858
0.23419 0.180882 0.00673478 -0.329967 -0.247442 0.910985
-0.114338 0.301587 0.396449 0 0 1
-0.336551 -0.260888 0.396449 0 0 1
-0.280722 -0.0682789 0.396449 0 0 1
0.153345 -0.131551 0.381785 0 0 -1
0.0967873 0.240285 0.381785 0 0 -1
0.212944 0.232755 0.396449 0 0 1
0.206653 0.193244 0.396449 0 0 1
0.0231832 6.2695e-07 0.38262 0 1 0
0.206979 0.238738 0.396449 0 0 1
0.280706 -0.209218 0.381785 0 0 -1
0.294487 0.207293 0.396449 0 0 1
-0.0211891 -0.168416 0.396449 0 0 1
0.179924 0.206415 0.396449 0 0 1
-0.0352003 0.00405381 0.396449 0 0 1
-0.0718311 -0.245145 0.396449 0 0 1
0.136232 -0.00683963 0.396449 0 0 1
0.0241045 0.325848 0.386841 0 -1 0
0.218975 0.285258 0.396449 0 0 1
0.0605629 0.0831313 0.396449 0 0 1
0.16215 0.042415 0.396449 0 0 1
-0.176263 -0.0822084 0.381785 0 0 -1
0.0550035 -0.0352848 0.381785 0 0 -1
-0.0796099 -0.244772 0.381785 0 0 -1
0.275309 -0.296801 0.381785 0 0 -1
-0.281234 -0.140867 0.396449 0 0 1
0.246521 -0.0287834 0.095384 0 -1 0
-0.0184274 0.233298 0.381785 0 0 -1
-0.14161 -0.102766 0.396449 0 0 1
-0.242771 0.055043 0.381785 0 0 -1
0.360661 0.123655 0.390335 -0.997231 -0.0743647 0
-0.366226 0.014252 0.387943 -0.999692 0.0248259 0
-0.0978542 0.251129 0.396449 0 0 1
0.336238 -0.283406 0.387931 0.974611 -0.223906 0
-0.0542655 -0.252748 0.396449 0 0 1
-0.0823922 -0.0810573 0.381785 0 0 -1
-0.247213 -0.183277 0.381785 0 0 -1
-0.0481986 0.220973 0.381785 0 0 -1
0.253796 0.148808 0.396449 0 0 1
-0.341643 -0.253524 0.392927 -0.954634 -0.16853 0.245504
0.0719879 0.197468 0.396449 0 0 1
-0.215694 -0.190267 0.381785 0 0 -1
0.26574 0.0793298 0.396449 0 0 1
0.0255763 0.27202 0.396449 0 0 1
-0.237883 -0.0490983 0.366036 0 0 -1
-0.239256 0.0830435 0.381785 0 0 -1
0.282423 -0.0931583 0.381785 0 0 -1
0.204024 0.089444 0.381785 0 0 -1
-0.251997 0.0261187 0.164383 -0.980411 -0.196964 0
-0.145986 0.121067 0.396449 0 0 1
-0.252001 0.075303 0.366036 0 0 -1
-0.2578 -0.174795 0.396449 0 0 1
0.296037 -0.186172 0.396449 0 0 1
-0.00413929 -0.114191 0.396449 0 0 1
0.365106 -0.0594505 0.386149 -0.999693 0.0247657 0
0.199603 -0.0186837 0.381785 0 0 -1
-0.147731 0.226703 0.396449 0 0 1
0.124729 0.0381453 0.381785 0 0 -1
-0.254411 -0.210581 0.396449 0 0 1
0.105728 -0.324841 0.394584 0 -0.948644 0.316346
-0.233975 0.0950466 0.381785 0 0 1
0.154021 0.187283 0.396449 0 0 1
-0.261271 0.262665 0.381785 0 0 -1
0.0850251 0.167766 0.381785 0 0 -1
-0.323195 -0.156245 0.396449 0 0 1
0.236407 -0.0296143 0.133029 -0.980375 -0.19714 0
0.0131315 -0.0533777 0.381785 0 0 -1
0.31376 0.193488 0.381785 0 0 -1
0.00975371 0.0365975 0.396449 0 0 1
0.303697 0.027647 0.381785 0 0 -1
-0.0252814 0.310162 0.396449 0 0 1
-0.249519 0.0810063 0.396449 0 0 1
-0.276302 0.2098 0.381785 0 0 -1
-0.0233675 -0.21282 0.381785 0 0 -1
-0.23584 -0.0669954 0.381785 0 0 1
0.187403 0.1279 0.381785 0 0 -1
0.360596 -0.0708507 0.396449 0 0 1
5.48827e-07 -0.312913 0.393618 -1 0 0
-0.238124 -0.136467 0.0554336 0.999847 -0.0175023 0
-0.165348 -0.00201648 0.381785 0 0 -1
-0.125032 -0.324219 0.383269 0 1 0
-0.191747 -0.233207 0.381785 0 0 -1
-0.0362212 0.321015 0.396449 0 0 1
0.237568 -0.108997 0.381785 0 0 -1
-0.162506 0.175397 0.381785 0 0 -1
0.0966092 -0.100618 0.396449 0 0 1
-0.196072 -0.259589 0.396449 0 0 1
0.146949 -0.0686714 0.381785 0 0 -1
-0.174557 -0.0896145 0.381785 0 0 -1
0.0754414 -0.249217 0.396449 0 0 1
0.106067 -0.324219 0.395506 0 -1 0
0.219607 0.231326 0.381785 0 0 -1
0.279694 -0.266832 0.396449 0 0 1
-0.245526 0.0912436 0.0530838 0 -0.330351 -0.943858
0.244196 0.184715 0.015682 -0.33654 -0.941669 0
0.240988 -0.187985 0.381785 0 0 -1
0.25201 -0.211029 0.00518796 0.123416 -0.345247 0.930362
-0.134481 -0.270618 0.381785 0 0 -1
0.273099 0.129793 0.396449 0 0 1
-0.0601038 0.075619 0.381785 0 0 -1
0.334297 0.0751524 0.396449 0 0 1
-0.201092 0.0372614 0.396449 0 0 1
-0.0860704 6.2695e-07 0.396057 0 1 0
-0.203766 -0.0202708 0.396449 0 0 1
-0.213149 0.247449 0.396449 0 0 1
0.334799 0.181296 0.396449 0 0 1
0.131051 6.2695e-07 0.38792 0 -1 0
-0.213149 0.174792 0.381785 0 0 -1
0.193832 -0.000586645 0.381785 0 0 -1
-0.353457 0.174923 0.39165 -0.992319 0.123703 0
-0.1303 0.0420248 0.396449 0 0 1
0.246495 0.179896 0.00870597 0.123316 -0.34523 0.930381
-0.190975 0.307086 0.396449 0 0 1
-0.365335 0.0521371 0.386262 -0.935541 0.0232328 -0.352453
-0.238397 -0.00495012 0.366036 0 0 -1
0.228459 -0.101803 0.381785 0 0 1
-0.200794 -0.297942 0.381785 0 0 -1
0.0516985 -0.121818 0.381785 0 0 -1
0.0499111 0.325273 0.384596 0 0.936354 -0.351057
0.085843 0.324219 0.393436 0 1 0
-0.33029 -0.232575 0.396449 0 0 1
-0.366362 -0.00876302 0.390846 0.999692 0.0248259 0
0.0563776 0.279268 0.381785 0 0 -1
-0.203182 -0.0279166 0.396449 0 0 1
-0.232781 -0.202986 9.47578e-19 8.16415e-17 -8.90508e-21 -1
0.25013 -0.105773 0.396449 0 0 1
-0.0779826 -0.269435 0.396449 0 0 1
0.120393 0.0423254 0.396449 0 0 1
-0.0785167 0.303588 0.381785 0 0 -1
0.236279 -0.0310253 0.0785619 -0.999847 -0.0174962 0
0.160997 6.2695e-07 0.389794 0 1 0
-0.181616 -0.0634684 0.381785 0 0 -1
0.200778 0.183436 0.396449 0 0 1
0.220193 0.161056 0.381785 0 0 -1
0.189127 -0.270126 0.381785 0 0 -1
-0.213839 0.116154 0.369209 1 0 0
-0.354072 0.179876 0.389375 0.992276 -0.12405 0
-0.254369 -0.073366 0.396449 0 0 1
-0.032964 -0.142743 0.396449 0 0 1
0.0562357 0.324219 0.384424 0 -1 0
0.248535 -0.0194766 0.351943 0.800067 0.599911 0
-0.263669 -0.0990848 0.373404 -0.993605 0.112912 0
-0.284048 -0.295594 0.381785 0 0 -1
0.30116 0.218218 0.396449 0 0 1
0.333206 0.288263 0.385368 -0.97461 -0.223908 0
-0.154672 -0.196185 0.381785 0 0 -1
-0.172442 -0.186637 0.396449 0 0 1
0.25049 0.110592 0.0694631 0 0.396666 0.917963
-0.191885 -0.303226 0.381785 0 0 -1
-0.184547 -0.218541 0.396449 0 0 1
-0.210112 0.293636 0.396449 0 0 1
-0.100481 -0.110731 0.381785 0 0 -1
0.218106 -0.316749 0.396449 0 0 1
-0.00246694 -0.303954 0.381785 0 0 -1
-0.0978813 -0.324219 0.393408 0 -1 0
-0.252033 -0.0262987 0.354974 -0.980411 0.196964 0
0.361611 0.110908 0.387602 0.997231 0.0743647 0
-0.131398 0.225844 0.396449 0 0 1
-0.0402175 -0.03883 0.396449 0 0 1
-0.355813 -0.0827822 0.381785 0 0 -1
0.163196 6.2695e-07 0.391217 0 -1 0
-0.258425 0.0418249 0.396449 0 0 1
0.204656 0.238179 0.396449 0 0 1
0.273071 0.0298151 0.381785 0 0 -1
0.234327 0.0549542 0.381785 0 0 -1
0.0834362 -0.27211 0.381785 0 0 -1
0.298142 0.0700707 0.381785 0 0 -1
-0.334818 0.159216 0.381785 0 0 -1
0.112287 -0.0377611 0.396449 0 0 1
0.226608 -0.248191 0.396449 0 0 1
0.0125356 -0.232427 0.381785 0 0 -1
-0.213142 -0.156625 0.396449 0 0 1
-0.361178 0.100248 0.396095 0.99723 -0.0743775 0
-0.2714 -0.116762 0.377079 0 -1 0
0.133329 0.0356971 0.381785 0 0 -1
0.240963 0.0191449 0.253641 -0.336389 -0.941723 0
0.212213 -0.093259 0.396449 0 0 1
0.307325 -0.123459 0.396449 0 0 1
0.239704 -0.144808 0.381785 0 0 -1
-0.250796 0.128013 0.0590913 -0.999847 0.0174902 0
-0.157733 -0.260038 0.381785 0 0 -1
0.230668 -0.289346 0.381785 0 0 -1
0.256899 -0.230784 0.396449 0 0 1
0.0918717 0.215047 0.381785 0 0 -1
-0.344906 -0.229906 0.382011 0.984774 0.173841 0
-0.208631 0.11602 0.381785 0 0 -1
-0.186171 0.140175 0.381785 0 0 -1
0.342987 0.0839317 0.396449 0 0 1
-0.137776 -0.183141 0.396449 0 0 1
-0.338108 -0.24064 0.396449 0 0 1
0.122028 0.207998 0.396449 0 0 1
-0.0503118 -0.29784 0.396449 0 0 1
0.238648 0.0215981 0.25636 -0.800068 -0.599909 0
-0.250666 -0.0352468 0.225709 -0.799978 -0.60003 0
-0.0743988 -0.0321544 0.396449 0 0 1
-0.250316 -0.258464 0.396449 0 0 1
0.26638 0.287314 0.381785 0 0 -1
0.238511 0.158566 0.0419452 -0.999847 0.0174963 0
-0.361746 0.109098 0.390728 0.997236 -0.0743047 0
-0.0307554 -0.285814 0.381785 0 0 -1
0.104981 -0.324219 0.392039 0 -1 0
0.0484902 -0.324219 0.385606 0 1 0
-0.300853 0.0546172 0.396449 0 0 1
0.114248 0.21157 0.381785 0 0 -1
-0.287457 0.324219 0.394885 0 1 0
-0.252222 -0.0272423 0.30347 -0.980411 0.196964 0
0.0779602 -0.0662099 0.396449 0 0 1
-0.0488017 0.125423 0.396449 0 0 1
-0.334103 -0.289923 0.387091 0.974602 0.223943 0
-0.0792175 -0.324219 0.389458 0 1 0
0.272603 -0.10057 0.381785 0 0 -1
0.0796344 0.202681 0.381785 0 0 -1
0.248674 0.209213 0.396449 0 0 1
0.117288 -0.325849 0.3871 0 1 0
0.306985 0.238114 0.381785 0 0 -1
0.18512 -0.0398949 0.381785 0 0 -1
0.247125 -0.0935641 0.381785 0 0 1
0.260277 0.032029 0.396449 0 0 1
0.022429 -0.115514 0.396449 0 0 1
-0.107464 -0.191695 0.396449 0 0 1
-0.225464 0.0959052 0.370477 0.993605 -0.112912 0
0.229167 0.14122 0.381785 0 0 -1
-0.00925058 0.182789 0.381785 0 0 -1
0.256003 0.0393785 0.381785 0 0 -1
0.0225429 -0.0542525 0.396449 0 0 1
0.251936 -0.160958 0.396449 0 0 1
0.271036 -0.296976 0.381785 0 0 -1
-0.101714 -0.324219 0.388131 0 1 0
0.257089 -0.0575961 0.381785 0 0 1
0.140971 -0.326545 0.390167 0 -0.89465 0.446769
0.315495 0.325848 0.387173 0 1 0
0.255628 0.0663524 0.381785 0 0 1
-0.365834 -0.0300452 0.391342 -0.999692 -0.0248259 0
0.24303 0.122055 0.0423 0 -0.330351 -0.943858
-0.134942 -0.240752 0.381785 0 0 -1
-0.280143 -0.201056 0.381785 0 0 -1
0.0128359 0.307575 0.396449 0 0 1
-0.00916202 -0.207093 0.381785 0 0 -1
-0.294473 0.106427 0.381785 0 0 -1
-0.304925 0.1361 0.396449 0 0 1
-0.230164 -0.136008 0.396449 0 0 1
0.338147 0.0201236 0.396449 0 0 1
0.0545439 -0.18699 0.396449 0 0 1
-0.0443328 0.324219 0.384093 0 -1 0
0.0535732 -0.240803 0.381785 0 0 -1
-0.137615 -0.218932 0.381785 0 0 -1
-0.210763 0.178664 0.381785 0 0 -1
-0.323241 0.189256 0.396449 0 0 1
-0.286247 0.124711 0.381785 0 0 -1
-0.0337561 0.0231264 0.396449 0 0 1
-0.157052 -0.172921 0.396449 0 0 1
0.234707 -0.0120685 0.381785 0 0 1
0.126637 -0.0810035 0.396449 0 0 1
0.0922122 -0.0217821 0.396449 0 0 1
-0.36316 -0.0901164 0.391006 0.997236 0.0743032 0
-0.10938 0.181426 0.381785 0 0 -1
0.0219654 -0.16676 0.381785 0 0 -1
-0.215237 -0.0896827 0.396449 0 0 1
-0.250391 -0.099977 0.0740503 0 -0.396664 0.917964
0.051052 -0.0385428 0.396449 0 0 1
-0.232919 -0.0303063 0.380036 0.993605 0.112912 0
-0.178031 -0.159823 0.381785 0 0 -1
-0.133826 -0.136242 0.381785 0 0 -1
0.0110651 0.248458 0.381785 0 0 -1
0.167555 0.0333672 0.381785 0 0 -1
0.186583 0.22974 0.381785 0 0 -1
0.249242 -0.0204207 0.200451 0.800067 0.599911 0
-0.36332 -0.00200699 0.396449 0 0 1
-0.359717 -0.12298 0.382613 -0.959724 -0.0715804 -0.271673
-0.258794 0.136936 0.396449 0 0 1
0.29642 -0.287277 0.381785 0 0 -1
0.24859 0.0195503 0.258038 0.800067 -0.599911 0
-0.248784 -0.0377563 0.265632 -0.799978 -0.60003 0
-0.2259 -0.225405 0.381785 0 0 -1
0.0908461 0.325848 0.387702 0 -1 0
-0.284075 0.118725 0.396449 0 0 1
-0.129941 -0.0740883 0.396449 0 0 1
0.202619 0.206968 0.396449 0 0 1
-0.0782579 -0.234156 0.396449 0 0 1
-0.259665 -0.29311 0.396449 0 0 1
-0.348066 -0.105677 0.396449 0 0 1
0.24579 0.0184236 0.118449 0.336317 -0.941749 0
0.350099 -0.146419 0.381785 0 0 -1
0.248025 0.0913136 0.0530593 0 -0.330351 -0.943858
0.320826 -0.0191225 0.396449 0 0 1
-0.238218 0.14184 0.0547552 0.999847 0.0175024 0
0.0411497 -0.30392 0.396449 0 0 1
-0.330871 0.0289528 0.381785 0 0 -1
0.331672 -0.0213821 0.381785 0 0 -1
5.48827e-07 -0.271253 0.396326 -1 0 0
-0.243498 -0.0393274 0.0992194 0.336388 -0.941724 0
0.247552 0.147506 0.053512 0 0.396666 0.917963
0.117688 -0.301341 0.396449 0 0 1
-0.108908 0.166658 0.381785 0 0 -1
-0.267248 -0.309683 0.396449 0 0 1
0.296823 0.137471 0.396449 0 0 1
0.0123954 -0.0143123 0.381785 0 0 -1
0.359456 -0.123442 0.387103 0.997246 -0.0741622 0
0.343344 0.113808 0.381785 0 0 -1
0.359945 -0.090855 0.396449 0 0 1
-0.31501 -0.085589 0.381785 0 0 -1
-0.264853 0.0972059 0.396449 0 0 1
0.235746 -0.0135377 0.381785 0 0 -1
-0.0738508 0.0675983 0.396449 0 0 1
-0.107304 0.215293 0.381785 0 0 -1
-0.323154 0.145133 0.396449 0 0 1
-0.359378 -0.0832816 0.381785 0 0 -1
0.319821 0.0715985 0.396449 0 0 1
0.320882 6.2695e-07 0.387128 0 1 0
0.109725 -0.02965 0.396449 0 0 1
-0.242673 -0.0816213 0.381785 0 0 1
-0.176694 0.0998785 0.381785 0 0 -1
-0.0855493 -0.276479 0.381785 0 0 -1
-0.238607 0.0359144 0.200857 0.800068 0.599909 0
0.362191 -0.103136 0.388063 0.997231 -0.0743632 0
-0.318627 -0.0549588 0.381785 0 0 -1
0.162524 -0.303424 0.396449 0 0 1
-0.00916011 -0.275713 0.396449 0 0 1
0.22966 0.206232 1.20231e-18 -8.16412e-17 3.66345e-21 -1
-0.168395 0.270624 0.381785 0 0 -1
-0.0114115 0.139963 0.396449 0 0 1
-0.207864 -0.0655058 0.396449 0 0 1
-0.124622 -0.19748 0.396449 0 0 1
-0.263108 0.185264 0.396449 0 0 1
-0.252505 0.0286466 0.294409 -0.980411 -0.196964 0
-0.0761949 0.0617102 0.396449 0 0 1
-0.164907 0.0708332 0.396449 0 0 1
0.197707 0.0442854 0.381785 0 0 -1
0.0242721 -0.0487323 0.381785 0 0 -1
-0.307741 -0.169422 0.381785 0 0 -1
0.235988 -0.0211108 0.396449 0 0 1
0.194092 -0.106663 0.381785 0 0 -1
0.148547 -0.259791 0.381785 0 0 -1
0.282197 -0.0902871 0.381785 0 0 -1
-0.343915 -0.128807 0.381785 0 0 -1
0.356827 0.0309625 0.396449 0 0 1
0.187501 -0.180046 0.396449 0 0 1
0.233241 -0.0274817 0.374695 -0.993605 0.112912 0
0.252506 0.0286475 0.298327 0.980376 -0.197134 0
0.313515 0.248563 0.396449 0 0 1
0.0123386 -0.144956 0.381785 0 0 -1
5.48827e-07 0.0202995 0.388758 -1 0 0
-0.248158 -0.0172517 0.0754882 0 0 -1
-0.136897 -0.285934 0.396449 0 0 1
-0.0325667 -0.312428 0.381785 0 0 -1
0.246259 0.0287832 0.105016 0 1 0
-0.359825 0.118379 0.390444 0.99723 -0.0743775 0
0.0658095 -0.129752 0.396449 0 0 1
-0.207923 -0.325849 0.391199 0 -1 0
0.342292 0.24478 0.393309 0.984849 0.173414 0
0.273741 0.0197878 0.396449 0 0 1
0.330868 -0.298296 0.395955 0.97452 -0.224302 0
-0.238605 0.195854 0.0114826 0.910016 0.183091 0.371953
0.066088 -0.217779 0.396449 0 0 1
0.10396 -0.207312 0.381785 0 0 -1
0.261051 0.236732 0.381785 0 0 -1
-0.330683 0.276529 0.396449 0 0 1
-0.299868 -0.198153 0.396449 0 0 1
0.0327528 0.285957 0.396449 0 0 1
0.249047 0.0201599 0.364233 0.800067 -0.599911 0
-0.0582042 0.0665385 0.396449 0 0 1
0.0802261 -0.324219 0.396071 0 1 0
0.24038 0.0162428 0.105358 0 0 1
-0.309304 0.234883 0.396449 0 0 1
0.362392 -0.100431 0.387776 -0.997231 0.0743632 0
0.222044 0.0506496 0.396449 0 0 1
0.018898 0.0361321 0.381785 0 0 -1
0.019162 0.156846 0.381785 0 0 -1
-0.0508573 0.250725 0.396449 0 0 1
-0.24424 0.0392082 0.0712963 0 -0.330351 -0.943858
0.166128 0.00745117 0.396449 0 0 1
0.300639 0.172521 0.396449 0 0 1
0.076356 -0.0779253 0.381785 0 0 -1
0.331587 -0.29517 0.387968 0.97452 -0.224302 0
0.171753 0.0734473 0.396449 0 0 1
-0.26398 0.163484 0.381785 0 0 -1
0.258128 0.278154 0.396449 0 0 1
0.277638 -0.324219 0.392434 0 1 0
0.103826 0.0310367 0.381785 0 0 -1
0.228316 -0.306137 0.381785 0 0 -1
0.237155 0.0333359 0.105991 -0.980376 0.197137 0
-0.24346 -0.018253 0.271588 0.336409 0.941716 0
-0.173173 0.113423 0.396449 0 0 1
-0.331631 0.00642209 0.396449 0 0 1
0.328825 -0.0461364 0.381785 0 0 -1
0.246798 0.033548 0.381785 0 0 -1
0.192864 -0.215295 0.396449 0 0 1
0.241037 0.111848 0.381785 0 0 1
-0.246725 -0.0287834 0.104677 0 -1 0
-0.185973 0.253255 0.381785 0 0 -1
0.296049 0.231207 0.396449 0 0 1
-0.276893 -0.14841 0.381785 0 0 -1
-0.297198 -0.324219 0.384069 0 -1 0
-0.299721 0.238198 0.396449 0 0 1
-0.185778 0.0606841 0.381785 0 0 -1
-0.226811 -0.134222 0.381785 0 0 -1
0.304204 0.0630983 0.396449 0 0 1
0.113561 0.323869 0.396449 0 0 1
0.360039 -0.131991 0.390925 -0.997231 0.0743632 0
0.252146 -0.0268603 0.122226 0.980376 0.197134 0
-0.0664881 0.115429 0.381785 0 0 -1
-0.160021 -0.298531 0.381785 0 0 -1
0.269721 0.147621 0.396449 0 0 1
0.00592357 0.310936 0.381785 0 0 -1
0.286838 -0.0532874 0.381785 0 0 -1
5.48827e-07 -0.164329 0.386003 1 0 0
-0.237753 -0.171444 0.381785 0 0 -1
0.0984032 0.313803 0.396449 0 0 1
0.225783 0.0931093 0.378043 -0.993605 -0.112912 0
0.0513316 0.32476 0.394824 0 0.948701 0.316174
-0.231745 0.289874 0.381785 0 0 -1
-0.151102 0.324219 0.38518 0 -1 0
-0.0886827 0.239753 0.381785 0 0 -1
0.0912347 -0.0481712 0.396449 0 0 1
-0.340801 0.199249 0.381785 0 0 -1
-0.247041 0.185603 0.0163908 -0.800001 -0.599998 0
-0.049395 -0.324219 0.39012 0 1 0
0.197305 -0.15315 0.396449 0 0 1
-0.344611 -0.2316 0.391655 -0.984846 -0.173434 0
-0.348703 -0.0360696 0.381785 0 0 -1
0.276841 0.184322 0.381785 0 0 -1
-0.16461 -0.0526017 0.381785 0 0 -1
0.21788 0.0513632 0.381785 0 0 -1
-0.0814516 -0.25565 0.381785 0 0 -1
-0.171892 -0.0181588 0.396449 0 0 1
0.316077 -0.267359 0.396449 0 0 1
-0.236512 -0.169789 6.42879e-19 8.16412e-17 -1.27623e-20 -1
-0.00413227 0.172391 0.381785 0 0 -1
0.170482 0.162755 0.381785 0 0 -1
-0.189977 0.0630758 0.381785 0 0 -1
0.25198 -0.0260308 0.121477 0.980376 0.197134 0
-0.251159 0.0926843 0.0525796 0 -0.330351 -0.943858
-0.30645 -0.272634 0.381785 0 0 -1
-0.0563925 0.0134347 0.396449 0 0 1
0.219613 -0.0567411 0.396449 0 0 1
-0.353094 0.176148 0.396449 0 0 1
0.067276 -0.040297 0.381785 0 0 -1
0.292451 -0.0407125 0.396449 0 0 1
-0.0218257 -0.321344 0.381785 0 0 -1
0.264022 0.0865255 0.396449 0 0 1
0.05177 0.0318737 0.396449 0 0 1
-0.258227 -0.0818426 0.381785 0 0 -1
-0.125104 0.0779507 0.396449 0 0 1
0.195964 0.117789 0.381785 0 0 -1
0.255482 0.0322443 0.366036 0 0 -1
-0.132112 0.260439 0.381785 0 0 -1
-0.0245853 0.24144 0.381785 0 0 -1
0.0993183 -0.110112 0.381785 0 0 -1
-0.0995603 0.188036 0.396449 0 0 1
-0.136271 0.023224 0.396449 0 0 1
-0.124961 -0.0606678 0.396449 0 0 1
-0.289646 0.289201 0.396449 0 0 1
-0.363977 -0.0556803 0.394713 0.999693 0.0247805 0
-0.252039 -0.0312381 0.117766 -0.98041 -0.196967 0
0.128073 6.2695e-07 0.396137 0 1 0
-0.283994 -0.209919 0.381785 0 0 -1
-0.187536 0.256775 0.381785 0 0 -1
0.245537 -0.112537 0.381785 0 0 -1
0.239548 -0.193978 0.0170776 -0.980366 -0.197187 0
-0.282012 -0.0369955 0.396449 0 0 1
0.066759 -0.280411 0.396449 0 0 1
-0.356679 -0.126291 0.381785 0 0 -1
0.333299 0.293815 0.391329 0.910788 0.209283 0.3559
0.285654 -0.249234 0.396449 0 0 1
-0.0214477 -0.294262 0.396449 0 0 1
0.0309069 0.127463 0.396449 0 0 1
-0.0715804 -0.26692 0.381785 0 0 -1
0.238277 -0.00342285 0.10393 -1 0 0
0.166056 -0.178394 0.381785 0 0 -1
0.321531 0.291911 0.381785 0 0 -1
0.337755 -0.228244 0.396449 0 0 1
-0.208613 0.25544 0.396449 0 0 1
-0.231898 0.190553 1.01953e-18 8.16395e-17 -8.51041e-21 -1
0.192863 -0.306165 0.381785 0 0 -1
0.0259171 0.290138 0.396449 0 0 1
-0.225913 0.0793864 0.396449 0 0 1
0.251765 0.0249616 0.315606 0.980376 -0.197134 0
0.143021 -0.0308635 0.396449 0 0 1
-0.012503 0.059482 0.381785 0 0 -1
-0.044378 0.202838 0.381785 0 0 -1
-0.251318 0.0982077 0.0535122 -0.999847 0.0174902 0
0.0880717 0.221821 0.381785 0 0 -1
-0.0701806 -0.231478 0.381785 0 0 -1
0.160396 0.0951988 0.381785 0 0 -1
-0.333147 -0.148162 0.396449 0 0 1
0.0477812 0.0327903 0.381785 0 0 -1
-0.258331 -0.227399 0.381785 0 0 -1
0.354755 -0.164519 0.394523 0.992317 -0.12372 0
0.365581 0.0360568 0.385758 0.962396 0.0238417 -0.270601
0.160701 0.326068 0.391121 0 0.894434 0.447201
-0.292146 0.210165 0.381785 0 0 -1
-0.245133 0.223541 0.396449 0 0 1
0.0414492 0.0186179 0.396449 0 0 1
-0.24859 0.019552 0.210551 -0.799971 -0.600039 0
-0.243362 -0.196415 8.36596e-20 8.16415e-17 -8.90508e-21 -1
-0.130204 0.325848 0.390959 0 -1 0
0.251734 0.0248114 0.130945 0.980376 -0.197134 0
0.244465 -0.0396162 0.127059 0.336316 -0.941749 0
-0.243786 -0.117714 0.066386 0 -0.396664 0.917964
-0.271505 0.200196 0.396449 0 0 1
-0.264543 -0.190669 0.00191053 -0.980394 0.197046 0
-0.0607079 -0.147379 0.396449 0 0 1
-0.239714 -0.165398 0.381785 0 0 -1
-0.261241 0.0889097 0.381785 0 0 1
0.335182 0.279552 0.385252 0.974517 0.224312 0
-0.324516 -0.05776 0.381785 0 0 -1
0.250225 -0.160647 0.035619 0.999847 -0.0175023 0
-0.293349 0.140312 0.381785 0 0 -1
0.00331713 0.324219 0.390511 0 1 0
0.155801 0.0104661 0.381785 0 0 -1
0.083583 -0.264115 0.381785 0 0 -1
-0.247535 -0.0190472 0.0816768 -0.33641 0.941716 0
-0.295724 0.000682376 0.396449 0 0 1
0.119682 0.232331 0.396449 0 0 1
-0.234749 -0.0124099 0.381785 0 0 -1
0.0064364 0.243828 0.396449 0 0 1
0.152698 0.0440416 0.381785 0 0 -1
0.0542692 6.2695e-07 0.391503 0 1 0
0.309804 -0.309665 0.396449 0 0 1
-0.114129 -0.271032 0.381785 0 0 -1
0.249472 0.0840479 0.396449 0 0 1
0.264791 -0.314308 0.396449 0 0 1
0.264623 0.324219 0.386782 0 1 0
-0.11749 -0.0215564 0.396449 0 0 1
-0.133536 0.0180158 0.396449 0 0 1
-0.166895 -0.268319 0.396449 0 0 1
-0.33284 -0.0793241 0.381785 0 0 -1
0.252063 0.0311206 0.177914 0.980376 0.197134 0
-0.207032 0.105324 0.381785 0 0 -1
0.247351 6.2695e-07 0.097192 0 -1 0
-0.0095304 0.306582 0.381785 0 0 -1
-0.188421 0.144447 0.381785 0 0 -1
-0.244764 0.0287832 0.103956 0 1 0
0.0389419 -0.149448 0.396449 0 0 1
0.070196 0.289425 0.396449 0 0 1
-0.215409 0.299844 0.396449 0 0 1
0.337812 0.113929 0.381785 0 0 -1
0.189903 0.0789433 0.396449 0 0 1
0.0483982 0.0700745 0.381785 0 0 -1
-0.20663 -0.0980086 0.381785 0 0 -1
-0.241002 -0.0191309 0.207876 0.336409 0.941716 0
-0.226211 -0.0827116 0.396449 0 0 1
0.232967 0.14123 0.396449 0 0 1
0.123067 -0.141697 0.396449 0 0 1
-0.0354986 0.160238 0.396449 0 0 1
0.254381 -0.165954 0.381785 0 0 -1
-0.233905 -0.168749 0.381785 0 0 -1
0.0830702 -0.239902 0.396449 0 0 1
0.248326 -0.324219 0.388778 0 -1 0
-0.33764 -0.018842 0.381785 0 0 -1
-0.122389 -0.153408 0.396449 0 0 1
0.0912685 0.295382 0.396449 0 0 1
-0.238798 0.174963 0.0386502 0.999847 0.0175024 0
0.0542541 0.169649 0.396449 0 0 1
0.0151549 0.194039 0.381785 0 0 -1
0.251349 -0.0964434 0.069386 0.999847 -0.0175023 0
-0.168339 -0.191419 0.381785 0 0 -1
0.249739 -0.0210834 0.301198 0.800067 0.599911 0
0.0166514 0.232475 0.381785 0 0 -1
-0.0209323 0.0401036 0.381785 0 0 -1
-0.316453 0.0418042 0.381785 0 0 -1
-0.267968 -0.0781774 0.381785 0 0 -1
-0.314424 -0.0741506 0.381785 0 0 -1
0.123776 0.00497347 0.396449 0 0 1
-0.24293 0.018442 0.125866 0.336389 -0.941723 0
-0.107844 0.110208 0.381785 0 0 -1
-0.0269131 -0.141217 0.396449 0 0 1
-0.110812 -0.220654 0.381785 0 0 -1
5.48827e-07 0.184235 0.387776 -1 0 0
0.174943 -0.274627 0.381785 0 0 -1
0.347168 -0.00576138 0.396449 0 0 1
-0.251991 -0.0536259 0.381785 0 0 1
0.135935 -0.216144 0.381785 0 0 -1
0.133538 0.28745 0.381785 0 0 -1
0.0783086 0.230372 0.381785 0 0 -1
0.34136 0.257115 0.389618 0.98477 0.173865 0
0.307223 -0.200211 0.396449 0 0 1
0.0677708 -0.0974406 0.381785 0 0 -1
-0.362159 0.0870939 0.388596 0.99723 -0.0743775 0
-0.158029 -0.0429672 0.396449 0 0 1
-0.349644 -0.213747 0.389024 -0.984766 -0.173883 0
-0.0430058 0.324219 0.391199 0 -1 0
-0.239388 0.193076 0.030811 0.977316 0.211786 0
0.149009 0.17258 0.381785 0 0 -1
-0.144941 -0.323441 0.381785 0 0 -1
0.226092 -0.0903924 0.375773 -0.993605 0.112912 0
-0.241804 0.0188443 0.321048 0.336389 -0.941723 0
0.0727353 -0.0188145 0.381785 0 0 -1
-0.0128507 -0.156691 0.381785 0 0 -1
-0.334893 0.286487 0.389435 -0.974602 0.223946 0
0.242707 -0.126499 0.396449 0 0 1
0.240368 -0.0382091 0.101853 -0.336388 -0.941724 0
0.250309 0.0357234 0.11633 0.800067 0.599911 0
-0.172022 0.0847043 0.381785 0 0 -1
-0.35381 6.2695e-07 0.382629 0 -1 0
-0.349715 -0.202664 0.388843 0.984774 0.173841 0
0.0489578 0.116578 0.381785 0 0 -1
-0.234888 0.116762 0.377839 0 1 0
-0.126809 0.0691701 0.381785 0 0 -1
-0.129405 -0.235198 0.396449 0 0 1
0.234204 -0.0087573 0.380846 -1 0 0
-0.268373 -0.0728673 0.396449 0 0 1
-0.249315 -0.0370481 0.298698 -0.799978 -0.60003 0
0.0568008 -0.170433 0.381785 0 0 -1
