0.0254224 0.227058 0.719703 0 0 1
-0.129868 0.0739049 0.719703 0 0 1
-0.263411 0.0590686 0.710285 0 0 -1
0.259882 -0.0168368 0.719703 0 0 1
-0.272214 -0.00764508 0.035313 0.687818 -0.689859 0.225836
-0.0124568 -0.162546 0.615298 -0.699666 -0.699685 0.144597
-0.248862 -0.00794986 0.156441 0.699685 -0.699666 -0.144596
0.270492 0.0120691 0.710285 0 0 -1
0.274208 -0.0433845 0.719703 0 0 1
0.315729 -0.00335388 0.710285 0 0 -1
-0.00778626 0.000558658 0.0159542 0 1 0
-0.0100428 0.235337 0.0161704 -0.63172 0 0.775197
0.0948284 -0.146614 0.710285 0 0 -1
-0.180717 0.0608576 0.719703 0 0 1
0.151589 -0.0152078 0.719703 0 0 1
-0.00594907 -0.131455 0.685622 -0.252942 0.947461 -0.195802
-0.0282631 0.0642864 0.719703 0 0 1
-0.117799 0.0968438 0.710285 0 0 -1
-0.00810341 -0.208238 0.31686 -0.252944 0.94746 -0.195802
0.00282647 0.227508 0.329825 0.699666 0.699685 0.144596
0.227717 0.0990458 0.710285 0 0 -1
-0.266045 0.0220097 0.710285 0 0 -1
-0.238561 -0.0544513 0.719703 0 0 1
0.174618 -0.079826 0.710285 0 0 -1
0.0873895 -0.232632 0.710285 0 0 -1
-0.233608 -0.0801508 0.719703 0 0 1
-0.272115 0.0480332 0.719703 0 0 1
-0.00711409 -0.21685 0.273913 -0.252944 0.94746 -0.195802
-0.159016 0.0728257 0.710285 0 0 -1
-0.0823768 0.109542 0.710285 0 0 -1
-0.232174 0.011856 0.0110851 0 0.949945 0.312417
-0.0174941 0.00419503 0.719703 0 0 1
-0.000174739 -0.244573 0.240884 0.254816 -0.946979 0.195703
-0.209285 0.00700464 0.00146083 0 0.632861 -0.774266
-0.0139656 0.231219 0.258477 -0.964388 -0.25902 -0.0535241
0.0263428 0.0605492 0.719703 0 0 1
0.128499 0.0187502 0.719703 0 0 1
0.223385 -0.0869413 0.710285 0 0 -1
-0.240559 0.0820068 0.719703 0 0 1
-0.168711 0.001589 0.630205 -0.946979 0.254815 0.195703
0.18594 -0.00957923 0.451195 -0.259012 -0.964389 -0.0535322
-0.194034 0.00970459 0.486712 -0.699685 0.699667 0.144596
-0.0138129 0.313118 0.719703 0 0 1
-0.187141 0.00477537 0.536874 -0.94698 0.254811 0.195703
-0.0326694 0.184143 0.710285 0 0 -1
-0.204618 0.11366 0.710285 0 0 -1
0.0509283 0.231205 0.719703 0 0 1
-0.166078 0.00197576 0.642444 -0.94698 0.254811 0.195703
-0.0386454 0.263659 0.710285 0 0 -1
-0.00249084 -0.113422 0.719703 0 0 1
0.215447 0.0634677 0.710285 0 0 -1
-0.023409 -0.000277696 0.710285 0 0 -1
0.0507238 -0.204675 0.710285 0 0 -1
0.248972 -0.00453528 0.111441 -0.94694 -0.254969 -0.195695
-0.0639938 0.162085 0.710285 0 0 -1
0.156759 0.00172603 0.551171 -0.94694 0.254969 -0.195693
0.0316904 -0.261721 0.710285 0 0 -1
-0.0149602 0.0165524 0.719703 0 0 1
-0.278953 -0.0477389 0.719703 0 0 1
-0.0855131 -0.21503 0.719703 0 0 1
0.178902 0.00754586 0.719703 0 0 1
0.204169 -0.0855002 0.710285 0 0 -1
-0.00286017 0.187117 0.422892 0.252944 -0.94746 -0.195801
0.163267 -0.16649 0.710285 0 0 -1
-0.344125 0.0030168 0.713263 -0.707107 0.707106 0
0.00708989 -0.22386 0.264779 0.964795 0.257561 -0.0532277
-0.0661792 -0.181674 0.719703 0 0 1
-0.0133221 -0.190964 0.00639173 -0.9507 0 -0.310113
0.0400593 -0.28842 0.719703 0 0 1
0.259114 0.00215512 0.163825 0.94698 0.254811 0.195703
0.00626531 0.0122885 0.710285 0 0 -1
-0.189079 0.0867828 0.710285 0 0 -1
-0.0575844 -0.00293559 0.710285 0 0 -1
0.286636 0.0222166 0.710285 0 0 -1
0.0316959 -0.23595 0.719703 0 0 1
-0.136939 0.0147921 0.719703 0 0 1
0.00416613 -0.188389 0.710285 0 0 -1
-0.262862 0.0410893 0.710285 0 0 -1
0.000932604 0.341701 0.710285 0 0 -1
0.172641 -0.043519 0.719703 0 0 1
0.144663 -0.00533473 0.619788 -0.700673 -0.698634 -0.144801
-0.00226867 -0.153404 0.576321 0.252944 0.94746 -0.195802
0.00718987 0.26223 0.0913903 0.964795 -0.257562 -0.0532228
0.0354447 -0.253589 0.719703 0 0 1
-0.00685809 0.23618 0.29039 -0.254969 0.94694 0.195693
-0.0297822 0.299835 0.710285 0 0 -1
-0.120674 -0.0100192 0.0102085 0 -0.949944 0.312419
-0.208959 -0.138181 0.719242 -0.70712 -0.707093 0
-0.234324 0.0294134 0.710285 0 0 -1
0.215255 0.00219164 0.376006 0.94694 0.254969 0.195693
-0.0806101 0.0508916 0.719703 0 0 1
0.228822 -0.00352881 0.207631 -0.94694 -0.254969 -0.195695
0.239818 0.000369097 0.149346 -0.94698 -0.254812 -0.195702
0.00505162 -0.25645 0.0952387 0.699663 0.699688 -0.144598
-0.02943 0.316399 0.710285 0 0 -1
-0.0146279 -0.302283 0.719703 0 0 1
0.0826388 -0.264495 0.711086 0.707107 -0.707107 0
-0.180157 -0.0656788 0.719703 0 0 1
-0.0136475 -0.152915 0.644576 -0.964245 -0.259529 0.0536343
0.160288 -0.0769063 0.719703 0 0 1
-0.0448115 -0.0684392 0.710285 0 0 -1
-0.0250359 0.0735951 0.719703 0 0 1
0.00406421 -0.194403 0.473565 0.699666 -0.699685 0.144597
0.0297071 -0.0476171 0.719703 0 0 1
-0.182251 -0.00836329 0.480765 0.699685 -0.699666 -0.144596
-0.0919106 -0.0329117 0.719703 0 0 1
-0.263996 0.0114148 0.0958297 0.258978 0.964399 -0.0535204
-0.0155394 -0.267382 0.719703 0 0 1
-0.00701043 0.26372 0.156929 -0.254969 0.94694 0.195693
-0.233368 0.0593035 0.719703 0 0 1
0.209993 -0.093367 0.710285 0 0 -1
-0.000582332 0.248062 0.719703 0 0 1
-0.285807 -0.0336575 0.710285 0 0 -1
-0.00973396 0.238886 0.0164221 -0.63172 0 0.775197
-0.167762 -0.138836 0.719703 0 0 1
-0.107897 -0.00955448 0.719703 0 0 1
0.181767 0.0099853 0.719703 0 0 1
0.165237 -0.00836831 0.593869 0.699686 -0.699664 0.144597
-0.00915016 0.21522 0.386879 -0.699665 0.699687 0.144596
-0.026449 -0.0177972 0.710285 0 0 -1
0.243249 0.0273752 0.719703 0 0 1
0.183204 0.0335765 0.710285 0 0 -1
0.0158443 -0.196694 0.719703 0 0 1
-0.255271 -0.078809 0.710285 0 0 -1
0.00290039 0.186777 0.0172704 0.632858 -3.25161e-05 0.774268
-0.0549908 -0.207631 0.710285 0 0 -1
-0.051775 -0.289443 0.710285 0 0 -1
0.00751925 0.0544889 0.0122335 0.950698 -4.88442e-05 0.310119
-0.153974 -0.00861815 0.00451666 0 -0.632859 -0.774267
0.232517 0.00892957 0.276056 0.699684 0.699667 0.144597
0.0768543 0.0407916 0.710285 0 0 -1
0.0879561 -0.248585 0.719703 0 0 1
-0.126406 -0.124878 0.719703 0 0 1
-0.192862 0.0104089 0.488978 -0.699685 0.699667 0.144596
0.104665 0.0934475 0.719703 0 0 1
0.014737 -0.32551 0.719703 0 0 1
0.223698 -0.00305142 0.231804 -0.94694 -0.254969 -0.195695
0.215181 -0.00761168 0.355858 0.699686 -0.699664 0.144597
-0.0649728 0.197095 0.710285 0 0 -1
0.171548 -0.131894 0.710285 0 0 -1
-0.00976977 0.235692 0.200784 -0.699666 -0.699685 -0.144596
0.171183 -0.00842768 0.719703 0 0 1
0.31289 0.0342513 0.714273 0.707105 0.707108 0
0.00726915 0.144869 0.703858 0.964654 0.258069 0.0533277
-0.256312 -0.00324485 0.10245 0.947461 -0.252944 -0.195801
-0.0388727 -0.117329 0.719703 0 0 1
-0.132102 0.0603219 0.719703 0 0 1
0.00102216 0.174159 0.710285 0 0 -1
0.161363 -0.018731 0.710285 0 0 -1
0.0812808 -0.0018091 0.710285 0 0 -1
0.0272418 0.315759 0.719703 0 0 1
-0.162329 -0.0123003 0.719703 0 0 1
-0.299717 -0.000586689 0.719703 0 0 1
-0.0136885 0.26904 0.0923967 -0.964245 0.25953 0.0536294
0.144685 -0.110864 0.710285 0 0 -1
-0.0689882 0.100976 0.719703 0 0 1
0.14679 -0.117489 0.710285 0 0 -1
-0.242368 0.00288271 0.272107 -0.946979 0.254815 0.195703
-0.0540175 -0.152137 0.719703 0 0 1
-0.22891 -0.0569078 0.719703 0 0 1
0.0069646 0.161923 0.626844 0.964794 0.257563 0.0532276
0.164581 -0.00747483 0.533736 -0.700673 -0.698634 -0.144801
0.0423353 -0.216366 0.710285 0 0 -1
-0.279539 0.00928979 0.037202 0 0 -1
0.148787 -0.00559175 0.0165705 0 -0.632859 0.774267
-0.161982 -0.0510705 0.719703 0 0 1
-0.00320916 0.238815 6.81321e-05 -0.2158 0 -0.976438
-0.0102529 -0.268947 0.0123293 -0.653917 -0.47862 -0.585931
-0.186674 0.0675294 0.710285 0 0 -1
0.247226 0.0109471 0.140352 -0.259529 0.964245 -0.053639
-0.0122467 -0.170655 0.577078 -0.699666 -0.699685 0.144597
0.012082 0.173542 0.719703 0 0 1
-0.0032198 -0.252035 0.207946 -0.254815 -0.94698 0.195702
-0.134907 0.144537 0.710285 0 0 -1
0.124514 -0.17019 0.719703 0 0 1
-0.0136586 0.236582 0.250004 -0.964245 0.25953 0.0536294
0.0679907 0.0455134 0.719703 0 0 1
0.0305296 0.149326 0.719703 0 0 1
0.11688 0.167663 0.719703 0 0 1
0.0873451 0.0898745 0.710285 0 0 -1
-0.0881336 -0.196293 0.710285 0 0 -1
-0.21225 -0.00917821 0.344888 0.25897 -0.964402 -0.0535184
-0.223409 -0.00482882 0.264504 0.699685 -0.699666 -0.144596
0.186075 0.0116127 0.478899 0.259529 0.964245 0.0536343
0.210585 -0.00954404 0.358612 0.25952 -0.964247 0.0536325
0.0130729 -0.26107 0.719703 0 0 1
0.177995 0.0255431 0.719703 0 0 1
0.0139406 -0.0394348 0.719703 0 0 1
-0.0850666 0.0030501 0.710285 0 0 -1
-0.027723 0.246125 0.710285 0 0 -1
-0.143097 0.0286501 0.710285 0 0 -1
-0.211867 -0.00922369 0.386381 -0.260031 -0.964104 0.0537377
-0.236434 0.00463817 0.197642 0.947461 0.252944 -0.195801
-0.176966 -0.00961637 0.52352 0.259013 -0.96439 -0.0535277
-0.159861 0.0923342 0.710285 0 0 -1
0.0320119 0.314108 0.710285 0 0 -1
-0.0824354 -0.21742 0.710285 0 0 -1
-0.237485 0.00721617 0.288504 -0.699604 0.699751 0.14458
0.0693644 0.0278178 0.710285 0 0 -1
-0.240077 -0.101971 0.710285 0 0 -1
0.192595 -0.0828878 0.710285 0 0 -1
0.00773376 -0.245966 0.195763 0.964794 -0.257563 0.0532281
-0.00567115 -0.21244 0.293385 -0.252944 0.94746 -0.195802
0.143898 0.0105848 0.710285 0 0 -1
-0.214506 -0.107311 0.710285 0 0 -1
0.134992 0.00806945 0.669352 -0.700671 0.698634 -0.144813
0.00548867 0.220672 0.280939 0.699666 -0.699685 -0.144596
0.183944 -0.0819485 0.710285 0 0 -1
0.220041 -0.00992803 0.292457 -0.259522 -0.964247 -0.0536328
0.136171 0.00550543 0.000981132 0 0.21535 -0.976537
-0.250884 -0.0383104 0.710285 0 0 -1
-0.0395396 0.00107005 0.710285 0 0 -1
-0.129813 0.154707 0.719703 0 0 1
-0.0635384 0.0380017 0.710285 0 0 -1
0.164288 -0.00924672 0.587981 0.259521 -0.964247 0.0536326
-0.183817 0.00743049 0.547157 -0.699604 0.699751 0.14458
0.2844 0.0153221 0.719703 0 0 1
0.00233525 0.229165 0.719703 0 0 1
-0.0244216 0.131796 0.710285 0 0 -1
0.196649 0.00864642 0.450986 0.699686 0.699665 0.144597
0.0234181 -0.323716 0.714465 0.707107 -0.707107 0
-0.00137822 0.259068 0.182776 0.254969 0.94694 0.195695
-0.256777 -0.0773321 0.719703 0 0 1
0.0741085 0.0146813 0.719703 0 0 1
-0.0284342 -0.109852 0.710285 0 0 -1
0.194229 0.0534576 0.719703 0 0 1
0.103645 -0.158985 0.719703 0 0 1
0.0275768 -0.11338 0.710285 0 0 -1
-0.273531 -0.000173591 0.037202 0 0 1
0.245471 -0.00341586 0.126924 -0.94694 -0.254969 -0.195695
-0.0184151 -0.240282 0.719703 0 0 1
-0.0763105 -0.0995664 0.710285 0 0 -1
-0.00727324 -0.189647 0.504552 -0.254967 -0.94694 0.195695
0.00351158 0.170131 0.604149 0.699665 0.699687 0.144596
-0.199204 -0.0512012 0.710285 0 0 -1
-0.236186 -0.00468056 0.296593 -0.699685 -0.699666 0.144597
0.21362 -0.0950931 0.710285 0 0 -1
-0.18993 -0.147182 0.719703 0 0 1
0.144183 0.0111307 0.690272 0.259529 0.964245 0.0536343
0.21269 0.00899227 0.371695 0.699684 0.699667 0.144597
-0.176201 0.00942618 0.574354 -0.699685 0.699667 0.144596
-0.171432 0.0112199 0.540225 0.259021 0.964387 -0.0535289
-0.303799 0.0120182 0.719703 0 0 1
-0.06159 0.0415256 0.719703 0 0 1
-0.0914444 0.211046 0.710285 0 0 -1
0.0695151 0.277625 0.711047 0.707105 0.707108 0
0.00302724 -0.271212 0.10691 0.699666 -0.699685 0.144597
-0.238868 -0.00740377 0.710285 0 0 -1
-0.0618017 0.106878 0.710285 0 0 -1
-0.224944 -0.0562751 0.719703 0 0 1
-0.0945493 -0.00873283 0.719703 0 0 1
0.201963 -0.0242332 0.710285 0 0 -1
-0.146105 0.00451683 0.63458 0.947461 0.252942 -0.195801
0.135269 0.0114208 0.69058 -0.25902 0.964387 -0.0535292
0.176624 0.0113077 0.488435 -0.259529 0.964245 -0.053639
-0.0662229 0.230902 0.710285 0 0 -1
-0.245335 -0.00908725 0.183154 0.25897 -0.964402 -0.0535184
0.00501311 0.25169 0.710285 0 0 -1
0.18613 -0.118025 0.710285 0 0 -1
-0.244112 -0.0484415 0.710285 0 0 -1
-0.235111 0.0119115 0.244548 0.258978 0.964399 -0.0535204
0.00747357 -0.120755 0.0123652 0.950698 0 0.310119
-0.00326616 -0.343881 0.710439 -0.70712 -0.707093 0
0.00809514 -0.232611 0.253838 0.964794 -0.257563 0.0532281
0.163081 0.165928 0.710285 0 0 -1
-0.0135911 -0.233799 0.254207 -0.964245 -0.259529 0.0536344
0.00670992 0.0781755 0.0141584 0.631724 0 0.775194
-0.242765 -0.0743596 0.710285 0 0 -1
0.000559507 0.144938 0.631408 0.252944 -0.94746 -0.195801
0.153209 0.105043 0.719703 0 0 1
-0.0118712 0.262494 0.14496 -0.699666 0.699685 0.144596
0.209223 -0.00820597 0.321269 -0.699684 -0.699665 -0.144609
-0.17917 0.0805432 0.719703 0 0 1
-0.327719 0.0194221 0.719132 -0.707107 0.707106 0
0.107866 0.233977 0.719703 0 0 1
0.0877508 -0.131703 0.719703 0 0 1
-0.000236108 0.234954 0.194804 0.25294 -0.947461 -0.195801
0.00665761 -0.146299 0.636013 0.699666 0.699685 -0.144597
0.132915 -0.122723 0.719703 0 0 1
-0.0131958 -0.247213 0.196404 -0.964245 -0.259529 0.0536344
-0.0026404 0.0753756 0.710285 0 0 -1
0.137472 -0.173866 0.710285 0 0 -1
0.0154056 -0.184737 0.710285 0 0 -1
0.232931 -0.0591833 0.710285 0 0 -1
-0.0113128 -0.149475 0.684083 -0.699666 -0.699685 0.144597
-0.0124423 0.156911 0.653102 -0.699666 0.699685 0.144596
0.163814 -0.00619344 0.611276 0.699686 -0.699664 0.144597
0.00211527 -0.196186 0.37497 0.252942 0.947461 -0.195802
-0.177863 0.00308094 0.47905 0.947461 0.252942 -0.195801
-0.0477061 0.0665741 0.719703 0 0 1
0.0920138 0.0420406 0.719703 0 0 1
0.0439222 0.134228 0.710285 0 0 -1
-0.251563 0.000213432 0.228826 -0.94698 -0.254811 0.195703
0.154092 0.00945471 0.583621 -0.700671 0.698634 -0.144813
-0.00107412 0.189547 0.518784 0.254814 0.94698 0.195702
-0.249224 -0.085747 0.719703 0 0 1
0.14346 -0.0891892 0.710285 0 0 -1
-0.0225929 -0.0120471 0.719703 0 0 1
0.00695394 0.234242 0.277095 0.964794 0.257563 0.0532276
-0.0113762 0.143315 0.0150838 -0.63172 0 0.775197
-0.154091 -0.0434581 0.719703 0 0 1
0.0594098 -0.285235 0.710285 0 0 -1
-0.0122334 -0.271919 0.710285 0 0 -1
-0.252125 0.0116495 0.0131545 0.0680783 0.947793 0.311534
0.108612 0.171182 0.710285 0 0 -1
-0.0127226 0.228364 0.250529 -0.699665 -0.699687 -0.144596
0.05633 -0.140486 0.710285 0 0 -1
0.123533 -0.134707 0.710285 0 0 -1
0.0208106 -0.298126 0.719703 0 0 1
-0.00136307 0.0734247 0.710285 0 0 -1
-0.119251 0.1272 0.710285 0 0 -1
0.263924 -0.00500854 0.132591 0.699685 -0.699666 0.144597
-0.0134304 0.205845 0.371632 -0.964245 -0.259528 -0.0536337
-0.274529 0.0718819 0.719703 0 0 1
0.0290883 -0.0321826 0.710285 0 0 -1
0.0508679 0.255797 0.719703 0 0 1
-0.152926 0.132658 0.719703 0 0 1
-0.128296 -0.216608 0.719703 0 0 1
0.211866 0.0114129 0.31981 -0.259529 0.964245 -0.053639
0.323832 0.0131489 0.719703 0 0 1
0.0500265 0.174579 0.719703 0 0 1
0.0558762 0.0848027 0.710285 0 0 -1
0.165336 0.00914243 0.600105 0.699686 0.699665 0.144597
-0.0141476 0.250829 0.011252 -0.948522 -0.0676565 0.309401
-0.077236 -0.257498 0.710285 0 0 -1
0.0907181 0.108944 0.719703 0 0 1
0.0035982 -0.185076 0.433574 0.699663 0.699688 -0.144598
0.126215 -0.161951 0.710285 0 0 -1
-0.187115 0.0121954 0.481912 0.258978 0.964399 -0.0535204
-0.0561682 -0.170235 0.719703 0 0 1
0.263258 0.000321414 0.144182 0.94698 -0.254811 0.195702
0.000908509 -0.223695 0.340498 0.254816 -0.946979 0.195703
0.0965306 -0.162559 0.719703 0 0 1
-0.00866477 -0.189249 0.504435 -0.699665 -0.699686 0.144597
0.00473628 0.184391 0.00284125 0.632858 0 -0.774268
-0.273134 0.0256965 0.710285 0 0 -1
0.194326 -0.152808 0.715715 0.707107 -0.707107 0
0.0338902 -0.0380167 0.719703 0 0 1
0.150014 0.011878 0.648623 0.259529 0.964245 0.0536343
-0.228925 0.0672838 0.719703 0 0 1
0.204115 0.126562 0.719703 0 0 1
0.00301363 -0.179916 0.455712 0.699663 0.699688 -0.144598
-0.00570142 0.265855 0.0454181 -0.25294 -0.947461 -0.195801
-0.159151 0.00588032 0.710285 0 0 -1
0.00829448 -0.246294 0.178059 0.964794 0.257562 -0.0532279
0.00737908 0.196169 0.414496 0.964935 -0.257057 -0.0531231
-0.108705 -0.0937606 0.719703 0 0 1
-0.0049462 0.284889 0.037202 0 0 1
-0.0768207 0.2084 0.719703 0 0 1
0.196596 0.13471 0.719703 0 0 1
0.0807942 -0.140289 0.710285 0 0 -1
0.202831 0.00569584 0.333407 -0.94698 0.254812 -0.195703
0.0977146 -0.203805 0.710285 0 0 -1
-0.0107075 0.228657 0.23936 -0.699666 -0.699685 -0.144596
0.0943233 -0.0921621 0.710285 0 0 -1
-0.0486693 -0.250278 0.710285 0 0 -1
0.159982 -0.155296 0.719703 0 0 1
0.264002 0.0299937 0.719703 0 0 1
0.0277557 -0.293178 0.719703 0 0 1
0.0171736 0.178327 0.719703 0 0 1
0.00709294 0.160604 0.581394 0.964935 -0.257057 -0.0531231
0.283737 -0.0453526 0.719703 0 0 1
-0.0393617 0.262201 0.719703 0 0 1
0.238319 -0.108815 0.717135 0.707107 -0.707107 0
0.106746 0.159449 0.710285 0 0 -1
-0.0100219 0.219004 0.282754 -0.699666 -0.699685 -0.144596
-0.0141519 -0.16163 0.59334 -0.964245 -0.259529 0.0536343
0.0565388 0.257296 0.710285 0 0 -1
-0.253998 -0.00557183 0.206092 -0.699685 -0.699666 0.144597
-0.12308 -0.147268 0.710285 0 0 -1
-0.254278 -0.0695584 0.719703 0 0 1
-0.166597 0.0539244 0.719703 0 0 1
0.0871 0.0537708 0.719703 0 0 1
-0.148112 0.0527416 0.710285 0 0 -1
0.262039 0.00827781 0.136358 0.699684 0.699667 0.144597
0.254198 -0.0790354 0.719703 0 0 1
-0.0725873 0.136346 0.710285 0 0 -1
0.0495322 -0.0199791 0.710285 0 0 -1
0.01424 0.166744 0.719703 0 0 1
0.00747215 0.238899 0.245167 0.964794 0.257563 0.0532276
-0.103059 0.126124 0.710285 0 0 -1
0.0439016 0.252132 0.710285 0 0 -1
0.115005 0.00897659 0.0155408 0 0.632861 0.774266
0.188053 0.0928549 0.719703 0 0 1
0.073312 -0.103297 0.710285 0 0 -1
0.224501 -0.116297 0.710285 0 0 -1
-0.240763 -0.000935207 0.0181733 0 -0.21579 0.97644
0.00805675 0.216908 0.340994 0.964654 0.258069 0.0533277
-0.0326295 -0.307047 0.710285 0 0 -1
0.250591 -0.0165194 0.719703 0 0 1
0.0327969 -0.00779375 0.719703 0 0 1
-0.233716 0.00378084 0.209689 0.947461 0.252944 -0.195801
-0.229374 0.00563566 0.233096 0.947461 0.252944 -0.195801
-0.0838971 -0.0472435 0.719703 0 0 1
-0.0952 -0.13801 0.710285 0 0 -1
0.157826 0.0104051 0.570136 -0.700671 0.698634 -0.144813
0.168357 -0.0057567 0.591409 0.699686 -0.699664 0.144597
0.275989 -0.00091715 0.0809674 0.94698 -0.254811 0.195702
0.272838 -0.0012261 0.710285 0 0 -1
-0.0132206 0.216051 0.357226 -0.964102 0.260039 0.0537393
-0.136424 -0.0134189 0.719703 0 0 1
0.108286 0.152206 0.710285 0 0 -1
-0.135297 -0.0612892 0.719703 0 0 1
0.0581069 -0.0146451 0.710285 0 0 -1
-0.209896 -0.0191102 0.719703 0 0 1
0.0937416 -0.0436144 0.719703 0 0 1
0.00827036 0.196626 0.00866545 0.949946 -4.88054e-05 -0.312415
0.0371478 0.156656 0.710285 0 0 -1
-0.0134777 -0.295446 0.719703 0 0 1
-0.220312 0.0475333 0.710285 0 0 -1
0.193567 0.121971 0.710285 0 0 -1
0.0276302 -0.250176 0.719703 0 0 1
-0.233701 0.0794041 0.710285 0 0 -1
-0.134272 0.00980776 0.0148614 0 0.632861 0.774266
-0.00221445 -0.22941 0.208609 0.252944 0.94746 -0.195802
0.00742456 -0.0571645 0.00608895 0.950697 4.88443e-05 -0.31012
-0.0135084 0.0364254 0.00696264 -0.9507 0 -0.310113
0.247594 -0.0581619 0.710285 0 0 -1
-0.29293 0.0295959 0.719703 0 0 1
-0.0102428 0.165068 0.624274 -0.699665 0.699687 0.144596
0.252507 0.00649135 0.0940669 -0.94698 0.254812 -0.195703
0.116649 0.0745251 0.710285 0 0 -1
-0.0942721 0.187869 0.710285 0 0 -1
-0.0572217 0.285897 0.710285 0 0 -1
-0.0386854 0.296209 0.710285 0 0 -1
0.00787748 -0.16712 0.553613 0.964794 0.257562 -0.0532279
0.109744 -0.0372539 0.719703 0 0 1
-0.120153 -0.225785 0.719703 0 0 1
0.0733779 0.273762 0.712727 0.707105 0.707108 0
-0.0398583 0.138234 0.710285 0 0 -1
-0.269226 -0.0107925 0.719703 0 0 1
0.213985 0.101164 0.719703 0 0 1
-0.0137642 -0.23951 0.204268 -0.964245 0.259528 -0.0536341
0.00637841 -0.21904 0.343149 0.699666 -0.699685 0.144597
0.13511 0.184627 0.719703 0 0 1
-0.0058277 -0.266702 0.133577 -0.254815 -0.94698 0.195702
-0.00671733 0.147337 0.620226 -0.252944 -0.94746 -0.195801
-0.0053538 0.260514 0.0708156 -0.25294 -0.947461 -0.195801
0.249711 -0.000368008 0.208838 0.94698 -0.254811 0.195702
-0.04614 -0.236221 0.719703 0 0 1
0.00331295 0.00210811 0.710285 0 0 -1
-0.227662 0.0119084 0.28054 0.258978 0.964399 -0.0535204
-0.0598348 0.287307 0.718112 -0.707107 0.707106 0
0.107252 -0.233607 0.710285 0 0 -1
0.0737858 0.00702549 0.00147787 0 0.632861 -0.774266
0.166445 0.011573 0.542465 -0.25902 0.964387 -0.0535292
-0.0419078 -0.00863716 0.719703 0 0 1
-0.116001 0.182578 0.719703 0 0 1
-0.00804176 0.167132 0.0174773 -0.21579 0 0.97644
0.101395 0.176208 0.710285 0 0 -1
0.217921 0.0108834 0.33723 0.699684 0.699667 0.144597
0.00326867 0.216917 0.288369 0.699665 -0.699687 -0.144596
-0.00676486 0.246851 0.710285 0 0 -1
0.243842 0.0111618 0.00631839 0.0683334 0.947724 -0.311688
-0.00732732 0.239883 0.271861 -0.254969 0.94694 0.195693
0.103086 -0.0206144 0.710285 0 0 -1
-0.0723478 0.093498 0.710285 0 0 -1
0.124611 -0.0951706 0.719703 0 0 1
0.00730587 0.219362 0.342718 0.964794 0.257563 0.0532276
-0.13546 0.188572 0.710285 0 0 -1
-0.245041 -0.00305888 0.256123 -0.946979 -0.254816 0.195703
-0.0072699 -0.242753 0.148771 -0.252944 0.94746 -0.195802
-0.1578 -0.00942895 0.644324 -0.260031 -0.964104 0.0537377
-0.0651186 -0.00629646 0.719703 0 0 1
0.159685 0.00856786 0.630228 0.699686 0.699665 0.144597
-0.046171 -0.0343531 0.710285 0 0 -1
-0.19884 0.0413072 0.719703 0 0 1
-0.160379 -0.0102227 0.617601 -0.260074 -0.964092 0.0537469
0.00841799 0.326036 0.719703 0 0 1
0.130757 -0.0721571 0.719703 0 0 1
0.00740153 -0.24654 0.710285 0 0 -1
-0.00865798 0.186342 0.528999 -0.699665 0.699687 0.144596
-0.00327658 -0.253288 0.0926328 -0.252942 0.947461 -0.195802
-0.0101985 -0.1766 0.00256992 -0.63172 0 -0.775197
-0.282849 0.0272016 0.719703 0 0 1
-0.0335311 -0.00479232 0.710285 0 0 -1
0.049235 0.1121 0.710285 0 0 -1
-0.119525 -0.067585 0.710285 0 0 -1
-0.238433 -0.00150638 0.186716 0.947461 -0.252944 -0.195801
-0.290164 0.00416447 0.037202 0 0 -1
0.204846 -0.00991618 0.365772 -0.259522 -0.964247 -0.0536328
-0.0111081 0.134673 0.710285 0 0 -1
0.293495 0.00821391 0.719703 0 0 1
-0.0136924 0.235004 0.235244 -0.964245 -0.259528 -0.0536337
-0.2626 -0.00229231 0.172159 -0.946979 -0.254816 0.195703
0.0405464 -0.133709 0.719703 0 0 1
0.104536 0.236287 0.710285 0 0 -1
0.0261431 -0.235378 0.710285 0 0 -1
0.0795699 -0.170354 0.710285 0 0 -1
-0.00798462 -0.227055 0.225655 -0.252944 0.94746 -0.195802
0.277013 0.0155455 0.719703 0 0 1
-0.107292 -0.0032228 0.0176677 0 -0.21579 0.97644
-0.156244 0.110552 0.719703 0 0 1
0.0451699 -0.00985497 0.00790554 0 -0.949944 -0.31242
-0.212696 -0.00955344 0.349494 0.25897 -0.964402 -0.0535184
-0.0135929 0.187908 0.46136 -0.964388 -0.25902 -0.0535241
0.255221 -0.00438647 0.0810074 -0.94694 -0.254969 -0.195695
-0.0140701 -0.269389 0.719703 0 0 1
-0.0774137 0.0980732 0.719703 0 0 1
0.240333 -0.00455837 0.248757 0.94694 -0.254969 0.195695
-0.197305 -0.0404013 0.710285 0 0 -1
-0.219413 0.118895 0.710285 0 0 -1
-0.289108 -0.0376464 0.710285 0 0 -1
-0.251457 0.00391831 0.12402 0.947461 0.252944 -0.195801
-0.192133 0.00789189 0.420203 0.699685 0.699667 -0.144596
0.0540227 -0.0560036 0.719703 0 0 1
0.169625 -0.171967 0.710285 0 0 -1
-0.22332 0.100413 0.710285 0 0 -1
0.00942669 0.167852 0.719703 0 0 1
-0.19102 -0.0595283 0.719703 0 0 1
0.113891 0.0716959 0.710285 0 0 -1
-0.0406482 0.143998 0.710285 0 0 -1
0.00179532 0.0139574 0.710285 0 0 -1
0.00249389 -0.158667 0.557009 0.252942 0.947461 -0.195802
0.020514 -0.159366 0.710285 0 0 -1
0.0844763 0.249659 0.719703 0 0 1
-0.00239075 -0.00668868 0.0135 -1 0 0
-0.24133 0.0319826 0.710285 0 0 -1
0.138793 -0.199413 0.719703 0 0 1
-0.187999 -0.103153 0.710285 0 0 -1
-0.181166 0.139207 0.710285 0 0 -1
-0.074413 -0.000644237 0.719703 0 0 1
-0.0262312 0.109134 0.710285 0 0 -1
0.000263772 0.141798 0.646221 0.252944 -0.94746 -0.195801
-0.228111 -0.00889546 0.263041 0.25897 -0.964402 -0.0535184
-0.139713 -0.0988236 0.710285 0 0 -1
-0.0796063 0.145088 0.719703 0 0 1
-0.214428 -0.00278045 0.000847957 0 -0.2158 -0.976438
0.176405 0.0964018 0.710285 0 0 -1
-0.179943 0.0535574 0.710285 0 0 -1
0.140401 0.179844 0.719703 0 0 1
-0.0487584 0.130892 0.719703 0 0 1
0.322945 -0.0240642 0.719703 0 0 1
-0.00925994 0.137509 0.673412 -0.699665 -0.699687 -0.144596
-0.270233 -0.00814017 0.710285 0 0 -1
-0.0136784 0.206742 0.0111296 -0.9507 0 0.310112
0.0972984 0.000935668 2.66694e-05 0 -0.2158 -0.976438
0.109706 -0.0514214 0.710285 0 0 -1
0.187027 0.012329 0.00964692 0 0.949945 0.312417
-0.156979 -0.00907297 0.610444 0.259013 -0.96439 -0.0535277
0.161911 -0.010342 0.710285 0 0 -1
0.219439 0.053444 0.710285 0 0 -1
0.022618 0.24974 0.710285 0 0 -1
-0.013823 0.153785 0.647717 -0.964102 0.260039 0.0537393
0.00316719 0.115491 0.719703 0 0 1
0.224096 0.107664 0.710285 0 0 -1
0.226222 -0.0286813 0.719703 0 0 1
0.0783992 -0.0940993 0.719703 0 0 1
0.0139748 0.239789 0.710285 0 0 -1
0.222616 0.0073318 0.331699 0.699686 0.699665 0.144597
0.131136 0.0880081 0.710285 0 0 -1
-0.0518147 -0.188681 0.710285 0 0 -1
-0.0600167 0.16272 0.719703 0 0 1
-0.0690909 -0.0382935 0.710285 0 0 -1
-0.000505811 0.146744 0.00052927 0.21535 -1.10644e-05 -0.976537
0.0867532 0.182819 0.710285 0 0 -1
0.277099 -0.0317288 0.710285 0 0 -1
-0.0130388 -0.141799 0.00552314 -0.9507 0 -0.310113
0.00297364 0.0892973 0.0172064 0.632858 -3.25161e-05 0.774268
-0.172571 0.156084 0.710285 0 0 -1
0.118087 -0.170228 0.719703 0 0 1
-0.0136206 -0.0822198 0.0113069 -0.9507 0 0.310112
0.00717134 0.258501 0.155768 0.964794 0.257563 0.0532276
0.172427 0.108694 0.719703 0 0 1
-0.119911 0.129233 0.719703 0 0 1
-0.272594 0.0110606 0.0983683 -0.260082 0.96409 0.0537482
0.0407387 0.129947 0.710285 0 0 -1
-0.283689 -0.00466481 0.0668103 -0.699685 -0.699666 0.144597
-0.0155863 -0.331561 0.719433 -0.70712 -0.707093 0
-0.0676094 0.160876 0.719703 0 0 1
0.122806 0.0571268 0.719703 0 0 1
0.211689 0.00150054 0.394164 0.94694 0.254969 0.195693
-0.0440537 0.303088 0.715257 -0.707107 0.707106 0
0.00201078 -0.171478 0.494393 0.252942 0.947461 -0.195802
0.0239551 -0.016737 0.710285 0 0 -1
0.0904791 -0.233296 0.719703 0 0 1
-0.191951 0.0752989 0.719703 0 0 1
-0.0332852 -0.207538 0.710285 0 0 -1
0.00925326 0.0768377 0.710285 0 0 -1
-0.108009 -0.0341383 0.719703 0 0 1
0.0262952 -0.0840169 0.710285 0 0 -1
-0.13309 -0.020572 0.719703 0 0 1
-0.0595558 -0.164311 0.719703 0 0 1
0.225058 0.113172 0.710285 0 0 -1
-0.0133192 -0.190854 0.431709 -0.964245 0.259529 -0.0536343
-0.00121957 -0.231204 0.201216 0.252944 0.94746 -0.195802
0.148566 0.0981237 0.719703 0 0 1
-0.126713 -0.187687 0.710285 0 0 -1
0.132416 0.00371313 0.000585888 0 0.21535 -0.976537
-0.0375778 0.00944588 0.719703 0 0 1
0.0652658 -0.253926 0.719703 0 0 1
-0.0236957 -0.280795 0.719703 0 0 1
-0.0284414 0.0095797 0.0035656 0 0.632861 -0.774266
-0.0648715 -0.14284 0.710285 0 0 -1
0.0710413 -0.172871 0.719703 0 0 1
-0.0383163 0.26246 0.719703 0 0 1
0.01586 -0.0241093 0.710285 0 0 -1
-0.0061975 0.176351 0.0178849 -0.21579 0 0.97644
-0.0348088 0.310608 0.710285 0 0 -1
-0.0110227 0.259566 0.0913207 -0.699666 -0.699685 -0.144596
0.26254 -0.0101858 0.0956727 0.259521 -0.964247 0.0536326
-0.275266 0.0286703 0.710285 0 0 -1
0.105108 0.0109061 0.719703 0 0 1
0.004671 0.310281 0.719703 0 0 1
-0.00931907 0.180421 0.554452 -0.699665 0.699687 0.144596
0.102241 0.243104 0.719703 0 0 1
-0.177067 -0.00881276 0.562146 -0.260031 -0.964104 0.0537377
-0.29736 -0.0486414 0.710285 0 0 -1
-0.0873552 0.24281 0.719703 0 0 1
-0.0136693 -0.264777 0.1029 -0.964245 -0.259529 0.0536344
0.216498 0.0852083 0.710285 0 0 -1
-0.0125844 0.242333 0.239066 -0.699666 0.699685 0.144596
0.0351338 0.018202 0.710285 0 0 -1
-0.132499 0.00440349 0.700269 0.947461 0.252942 -0.195801
-0.196967 0.0123501 0.437027 0.258978 0.964399 -0.0535204
-0.00691989 0.255959 0.710285 0 0 -1
0.329954 -0.0171801 0.717511 0.707107 -0.707107 0
-0.0403156 -0.148659 0.710285 0 0 -1
0.248689 0.00590992 0.111782 -0.94694 0.254969 -0.195693
-0.290368 -0.0567681 0.719494 -0.70712 -0.707093 0
0.212296 -0.00379089 0.385427 0.94694 -0.254969 0.195695
0.134512 0.156878 0.719703 0 0 1
-0.0330399 0.0869606 0.719703 0 0 1
-0.268614 0.0125251 0.719703 0 0 1
-0.220711 -0.0246684 0.710285 0 0 -1
-0.178279 0.0173531 0.719703 0 0 1
0.186129 0.010499 0.492927 0.699684 0.699667 0.144597
-0.00401461 -0.0694247 0.710285 0 0 -1
0.187371 0.00912465 0.42101 -0.700671 0.698634 -0.144813
-0.317891 -0.0136745 0.719703 0 0 1
0.154284 0.0277122 0.710285 0 0 -1
0.117366 0.229774 0.713033 0.707105 0.707108 0
0.275182 -0.0314525 0.710285 0 0 -1
0.00697341 -0.115904 0.719703 0 0 1
0.143897 0.0452501 0.719703 0 0 1
-0.148145 -0.00312636 0.625706 0.947461 -0.252942 -0.195801
0.231245 -0.00439876 0.292941 0.94694 -0.254969 0.195695
-0.0298145 0.217129 0.719703 0 0 1
0.162528 0.157548 0.710285 0 0 -1
0.00351364 0.178315 0.476347 0.699665 -0.699687 -0.144596
-0.0850874 -0.164003 0.719703 0 0 1
0.0475667 -0.0593619 0.719703 0 0 1
-0.00999942 -0.201495 0.356907 -0.699666 0.699685 -0.144597
-0.155469 0.0907728 0.710285 0 0 -1
-0.182807 0.0111535 0.0132214 0 0.949945 0.312417
-0.193201 0.00376541 0.508866 -0.94698 0.254811 0.195703
0.00742196 -0.277368 0.0494663 0.964794 -0.257563 0.0532281
0.109882 0.146435 0.719703 0 0 1
0.00695553 0.197316 0.40125 0.964935 -0.257057 -0.0531231
-0.0374554 -0.117394 0.710285 0 0 -1
-0.186524 -0.156023 0.719703 0 0 1
-0.00341207 0.0813887 0.710285 0 0 -1
0.263523 0.0114213 0.0700232 -0.259529 0.964245 -0.053639
0.0485943 0.27419 0.710285 0 0 -1
-0.0122058 0.0852803 0.0144077 -0.63172 0 0.775197
-0.0160549 -0.117362 0.719703 0 0 1
0.246738 0.000293321 0.11596 -0.94694 -0.254969 -0.195695
0.261958 0.0493064 0.710285 0 0 -1
-0.271875 0.0457452 0.710285 0 0 -1
-0.0945461 0.196781 0.719703 0 0 1
-0.167195 -0.0286666 0.719703 0 0 1
0.00735353 0.138342 0.693849 0.964935 -0.257057 -0.0531231
-0.228925 0.00618876 0.00113182 0 0.21535 -0.976537
-0.0686146 -0.27853 0.714855 -0.70712 -0.707093 0
0.232705 -0.00793206 0.00395588 0 -0.632859 -0.774267
0.0210828 0.194197 0.719703 0 0 1
0.00625992 -0.275713 0.0694908 0.699666 -0.699685 0.144597
-0.130958 0.109812 0.710285 0 0 -1
0.122491 0.105454 0.710285 0 0 -1
0.236788 0.00314552 0.719703 0 0 1
0.00739015 0.183844 0.474337 0.964935 -0.257057 -0.0531231
-0.138396 -0.00117275 0.719703 0 0 1
-0.025706 0.0264616 0.719703 0 0 1
-0.046735 0.146025 0.719703 0 0 1
-0.0689229 -0.276196 0.719703 0 0 1
-0.110197 0.114184 0.719703 0 0 1
0.0360125 0.00864002 0.719703 0 0 1
0.159804 -0.0931311 0.710285 0 0 -1
0.00837223 -0.15358 0.00897892 0.950697 4.88443e-05 -0.31012
-0.00425815 -0.256312 0.185898 -0.254815 -0.94698 0.195702
0.0437219 -0.00368483 0.00104783 0 -0.2158 -0.976438
-0.245493 0.0976949 0.719703 0 0 1
0.0875157 -0.143243 0.710285 0 0 -1
-0.00230389 -0.205328 0.325022 0.252944 0.94746 -0.195802
0.0364386 -0.0742698 0.710285 0 0 -1
-0.325169 -0.0163369 0.710285 0 0 -1
0.24079 0.0119457 0.189442 -0.259529 0.964245 -0.053639
0.117528 -0.17715 0.710285 0 0 -1
0.0760185 0.00702054 0.0171396 0 0.632861 0.774266
0.0384542 0.175531 0.719703 0 0 1
0.102455 0.0982046 0.719703 0 0 1
0.25288 0.012246 0.144254 0.259528 0.964245 0.0536341
0.170006 0.177134 0.716089 0.707105 0.707108 0
-0.28087 -0.0631157 0.710285 0 0 -1
-0.223865 0.0100568 0.340661 -0.699685 0.699667 0.144596
-0.160786 0.0485431 0.710285 0 0 -1
0.0998159 -0.035851 0.710285 0 0 -1
-0.00690776 -0.00145507 0.0180584 0 -0.21579 0.97644
-0.0135895 -0.162193 0.575254 -0.964245 0.259529 -0.0536343
0.172366 -0.0395872 0.710285 0 0 -1
-0.252111 -0.019037 0.710285 0 0 -1
-0.00537338 -0.211234 0.402572 -0.254815 -0.94698 0.195702
0.00953221 0.103461 0.710285 0 0 -1
-0.163748 0.00743155 0.555329 0.699685 0.699667 -0.144596
-0.0166175 0.106213 0.719703 0 0 1
0.222808 -0.0364127 0.710285 0 0 -1
0.23871 -0.0932236 0.710285 0 0 -1
0.126242 0.12544 0.710285 0 0 -1
0.147878 -0.00736381 0.0151221 0 -0.632859 0.774267
-0.199227 0.00685814 0.719703 0 0 1
0.0117901 -0.269805 0.710285 0 0 -1
-0.312424 -0.00608176 0.719703 0 0 1
0.003988 0.232016 0.302393 0.699666 0.699685 0.144596
0.0510569 -0.211054 0.710285 0 0 -1
-0.207803 -0.00918283 0.406779 -0.260031 -0.964104 0.0537377
-0.00238449 -0.190731 0.5043 0.254967 -0.94694 0.195694
0.0536954 -0.236838 0.710285 0 0 -1
0.00806026 0.216946 0.340747 0.964654 0.258069 0.0533277
-0.0956465 -0.144314 0.710285 0 0 -1
-0.188217 -0.041018 0.719703 0 0 1
-0.00738199 -0.262386 0.152435 -0.254815 -0.94698 0.195702
0.163266 0.0262041 0.719703 0 0 1
-0.0612437 0.2181 0.719703 0 0 1
0.166966 0.147295 0.710285 0 0 -1
-0.129326 0.133105 0.719703 0 0 1
-0.0114961 0.313115 0.719703 0 0 1
0.183057 0.00662811 0.00122871 0 0.21535 -0.976537
-0.244324 -0.0135991 0.719703 0 0 1
0.18409 -0.0349019 0.719703 0 0 1
-0.179728 -0.140777 0.719703 0 0 1
-0.0435689 0.271459 0.719703 0 0 1
-0.00331342 -0.0803673 0.710285 0 0 -1
0.206443 -0.0612773 0.710285 0 0 -1
-0.276026 0.0222049 0.710285 0 0 -1
0.0833048 0.173808 0.719703 0 0 1
0.236639 -0.00214508 0.719703 0 0 1
0.0073323 -0.272959 0.710285 0 0 -1
-0.223311 0.00394567 0.000637167 0 0.21535 -0.976537
-0.159536 0.0105213 0.649695 -0.699685 0.699667 0.144596
-0.0484603 0.0294416 0.719703 0 0 1
0.0473257 0.244845 0.710285 0 0 -1
0.0176232 0.0115002 0.012167 0 0.949945 0.312417
0.0168786 0.325581 0.719703 0 0 1
0.0212181 -0.314125 0.719703 0 0 1
-0.0142113 -0.15002 0.645335 -0.964245 0.259528 -0.0536341
-0.30323 0.0419509 0.710285 0 0 -1
0.24378 0.0976393 0.710285 0 0 -1
-0.0364925 0.294965 0.719703 0 0 1
-0.0123789 0.0547734 0.0043468 -0.63172 0 -0.775197
-0.0850395 0.2186 0.719703 0 0 1
-0.192382 -0.00943984 0.445741 0.259013 -0.96439 -0.0535277
0.0157682 0.00238032 0.000291971 0 0.21535 -0.976537
-0.0308513 0.0145644 0.710285 0 0 -1
-0.0475632 -0.212724 0.710285 0 0 -1
0.0718849 -0.193494 0.710285 0 0 -1
-0.0533936 0.293748 0.711233 -0.707107 0.707106 0
0.00820176 -0.229475 0.257764 0.964794 0.257562 -0.0532279
0.00387129 -0.163189 0.625538 0.699666 -0.699685 0.144597
-0.199619 -0.147521 0.712782 -0.70712 -0.707093 0
-0.182459 -0.0825011 0.710285 0 0 -1
-0.180572 -0.0179171 0.710285 0 0 -1
-0.160256 0.0188948 0.719703 0 0 1
-0.0133507 0.171802 0.0121342 -0.9507 0 0.310112
0.215444 -0.126726 0.710285 0 0 -1
0.206726 0.00264938 0.0182621 0 0.21534 0.976539
-0.201797 -0.126797 0.719703 0 0 1
0.165292 0.0308638 0.719703 0 0 1
0.159634 -0.095824 0.719703 0 0 1
0.205176 -0.0476866 0.719703 0 0 1
-0.177852 -0.00974127 0.541691 -0.260031 -0.964104 0.0537377
-0.0104936 0.164177 0.55034 -0.699665 -0.699687 -0.144596
0.116116 -0.115112 0.719703 0 0 1
0.00227317 -0.22439 0.2387 0.252942 0.947461 -0.195802
-0.0845605 0.182377 0.710285 0 0 -1
0.0073203 0.0927787 0.00577843 0.950697 0 -0.31012
0.212754 0.0149845 0.719703 0 0 1
-0.00239075 0.00722128 0.00700152 -1 0 0
-0.0142376 0.206375 0.383605 -0.964388 -0.25902 -0.0535241
-0.00177586 -0.262489 0.0491137 0.252944 0.94746 -0.195802
-0.173984 0.0479135 0.710285 0 0 -1
-0.154346 -0.0085005 0.616456 0.699685 -0.699666 -0.144596
-0.119267 -0.218271 0.710285 0 0 -1
-0.236623 0.012224 0.242867 0.258978 0.964399 -0.0535204
-0.0169472 0.203137 0.710285 0 0 -1
-0.245524 -0.00185105 0.0104032 0.999997 -0.00105741 -0.00223781
0.223949 0.0609254 0.719703 0 0 1
-0.0786264 0.128408 0.719703 0 0 1
0.223542 0.0118639 0.00755236 0 0.949945 -0.312418
-0.0415592 0.00974918 0.0149093 0 0.632861 0.774266
-0.1455 -0.0716336 0.710285 0 0 -1
-0.0907922 0.235968 0.719703 0 0 1
0.115893 0.106562 0.719703 0 0 1
-0.167807 -0.00772127 0.547549 0.699685 -0.699666 -0.144596
-0.0746597 -0.00935981 0.710285 0 0 -1
0.148769 0.0116035 0.628545 -0.25902 0.964387 -0.0535292
-0.172858 0.145286 0.710285 0 0 -1
-0.109456 0.00885341 0.0156415 0 0.632861 0.774266
0.00610184 0.245166 0.228532 0.699665 0.699687 0.144596
-0.0752503 -0.118182 0.710285 0 0 -1
-0.128251 -0.0385352 0.710285 0 0 -1
-0.0971057 -0.169782 0.710285 0 0 -1
-0.142013 -0.0157836 0.719703 0 0 1
0.224578 -0.003475 0.326409 0.94694 -0.254969 0.195695
-0.00086771 0.230412 0.320772 0.254969 0.94694 0.195695
-0.112531 0.228087 0.719703 0 0 1
-0.151359 0.00721536 0.00163307 0 0.632861 -0.774266
-0.00971417 0.224854 0.252955 -0.699666 -0.699685 -0.144596
0.116365 0.0174797 0.710285 0 0 -1
0.04612 0.238752 0.719703 0 0 1
0.0456253 0.08498 0.719703 0 0 1
0.0639057 0.0538669 0.719703 0 0 1
-0.157938 0.000745317 0.68256 -0.94698 -0.254811 0.195703
0.182729 0.00739971 0.0168297 0 0.632861 0.774266
0.0124895 -0.131461 0.710285 0 0 -1
0.153645 -0.00254113 0.570118 -0.94698 -0.254812 -0.195702
-0.230438 -0.0975214 0.719703 0 0 1
-0.00243853 -0.209849 0.719703 0 0 1
0.248868 -0.00617514 0.199801 0.699685 -0.699666 0.144597
-0.0745958 0.0222303 0.710285 0 0 -1
0.00653977 0.109955 0.00431536 0.632858 0 -0.774268
-0.25521 0.0113162 0.177903 -0.260082 0.96409 0.0537482
-0.0635435 0.0525807 0.710285 0 0 -1
0.12108 0.0391268 0.710285 0 0 -1
-0.0419112 0.294266 0.710285 0 0 -1
0.00728378 0.183249 0.517866 0.964794 0.257563 0.0532276
0.117667 -0.0512397 0.710285 0 0 -1
-0.00305039 -0.278293 0.0811064 -0.254815 -0.94698 0.195702
0.00301682 -0.0412871 0.0171698 0.631724 3.24569e-05 0.775194
0.0950213 0.0647826 0.719703 0 0 1
0.139152 0.0736709 0.710285 0 0 -1
0.24209 -0.105044 0.716668 0.707107 -0.707107 0
0.0842662 -0.200582 0.710285 0 0 -1
-0.0400016 0.119927 0.719703 0 0 1
-0.139579 0.170111 0.710285 0 0 -1
0.00767568 0.311346 0.710285 0 0 -1
0.0983049 0.152595 0.710285 0 0 -1
0.00329667 -0.334747 0.719703 0 0 1
0.0362114 0.104474 0.719703 0 0 1
0.00144655 -0.030047 0.000960467 0.2158 1.10874e-05 -0.976438
-0.00941851 -0.203313 0.00193432 -0.63172 0 -0.775197
0.207985 0.0119299 0.367178 0.259528 0.964245 0.0536341
0.00463459 -0.155266 0.660182 0.699666 -0.699685 0.144597
-0.0308711 0.0541461 0.719703 0 0 1
-0.0385961 -0.00835631 0.0143108 0 -0.632859 0.774267
0.00791437 0.0392239 0.0110198 0.950698 -4.88442e-05 0.310119
0.0823695 -0.264765 0.711845 0.707107 -0.707107 0
-0.0250332 0.293416 0.710285 0 0 -1
-0.0799167 0.022063 0.710285 0 0 -1
-0.141833 -0.189413 0.719703 0 0 1
-0.173677 -0.00538253 0.59567 -0.699685 -0.699666 0.144597
0.0311413 -0.0783606 0.710285 0 0 -1
-0.213226 -0.133914 0.718043 -0.70712 -0.707093 0
0.0771714 -0.186164 0.719703 0 0 1
-0.0106742 0.00657696 0.0156558 -0.63172 0 0.775197
-0.160371 0.00854483 0.719703 0 0 1
0.117979 0.21729 0.719703 0 0 1
0.032413 -0.29847 0.710285 0 0 -1
0.129484 0.150104 0.719703 0 0 1
-0.221923 0.0630285 0.719703 0 0 1
-0.067166 0.254704 0.719703 0 0 1
-0.012139 -0.18568 0.443786 -0.699663 0.699688 -0.144598
0.0427767 0.0414224 0.719703 0 0 1
0.0137753 -0.322577 0.719703 0 0 1
0.0885622 0.0530659 0.710285 0 0 -1
-0.211162 0.0114629 0.352353 0.259021 0.964387 -0.0535289
0.124436 0.1916 0.710285 0 0 -1
0.116317 -0.191914 0.719703 0 0 1
0.00207621 -0.0797768 0.710285 0 0 -1
0.0727198 -0.127873 0.710285 0 0 -1
0.00413477 -0.149331 0.609134 0.699666 0.699685 -0.144597
0.00759429 0.203273 0.719703 0 0 1
-0.180376 -0.0100273 0.514423 0.259013 -0.96439 -0.0535277
-0.26811 0.0790317 0.719061 -0.707107 0.707106 0
0.0181777 -0.0388022 0.710285 0 0 -1
0.186634 0.000918627 0.405983 -0.94698 -0.254812 -0.195702
-0.00856716 0.171162 0.507333 -0.252944 -0.94746 -0.195801
0.167413 0.138103 0.719703 0 0 1
-0.115542 -0.00933811 0.00633396 0 -0.949944 -0.31242
-0.0803598 0.238671 0.719703 0 0 1
-0.00497365 0.19821 0.710285 0 0 -1
0.283229 0.0371177 0.719703 0 0 1
-0.163103 0.172933 0.710285 0 0 -1
-0.10419 -0.103838 0.710285 0 0 -1
-0.23571 0.00752535 0.207564 0.699685 0.699667 -0.144596
0.098815 0.24506 0.710285 0 0 -1
-0.0619934 -0.281401 0.719703 0 0 1
-0.237509 -0.0455145 0.719703 0 0 1
-0.0137044 -0.246069 0.192794 -0.964245 -0.259529 0.0536344
-0.108484 -0.0963287 0.710285 0 0 -1
-0.00222528 -0.175361 0.710285 0 0 -1
-0.224956 -0.000951316 0.356057 -0.94698 -0.254811 0.195703
-0.016871 -0.207071 0.719703 0 0 1
-0.00304422 0.14319 0.635549 -0.25294 -0.947461 -0.195801
0.06927 0.0639783 0.719703 0 0 1
0.129362 0.0645449 0.719703 0 0 1
-0.0930247 0.0818312 0.710285 0 0 -1
-0.031521 -0.182384 0.719703 0 0 1
-0.0213553 0.205384 0.719703 0 0 1
-0.201721 -0.0195984 0.719703 0 0 1
0.035129 0.00821488 0.00245004 0 0.632861 -0.774266
-0.0542152 -0.128696 0.710285 0 0 -1
-0.140444 0.0102046 0.00407635 0 0.632861 -0.774266
-0.00328526 0.220729 0.260657 -0.25294 -0.947461 -0.195801
-0.186867 -0.0885415 0.710285 0 0 -1
0.00336729 -0.152867 0.719703 0 0 1
-0.00466105 0.251737 0.112388 -0.25294 -0.947461 -0.195801
0.152133 -0.00494639 0.581767 -0.700673 -0.698634 -0.144801
-0.216165 0.0120506 0.353665 -0.260039 0.964102 0.0537397
0.00834653 0.262779 0.113769 0.964654 0.258069 0.0533277
-0.267142 -0.0687225 0.710285 0 0 -1
-0.000630139 0.211528 0.307648 0.25294 -0.947461 -0.195801
-0.181837 0.00834747 0.00255842 0 0.632861 -0.774266
-0.121954 0.219883 0.710285 0 0 -1
-0.00522793 -0.167459 0.614581 -0.254967 -0.94694 0.195695
0.239733 0.00407457 0.015731 -1 0 0
-0.0137675 -0.232275 0.239337 -0.964245 0.259528 -0.0536341
0.111236 -0.120698 0.710285 0 0 -1
0.0971274 0.105511 0.710285 0 0 -1
0.274122 -0.00918399 0.0576388 0.25952 -0.964247 0.0536325
0.00498915 -0.0660323 0.710285 0 0 -1
-0.252599 -0.00932761 0.0138585 0.0681452 -0.947688 0.31184
0.00409513 -0.241227 0.164274 0.699663 0.699688 -0.144598
0.106998 -0.0605575 0.710285 0 0 -1
-0.0932688 -0.139924 0.719703 0 0 1
-0.145292 -0.00903553 0.666317 0.259013 -0.96439 -0.0535277
0.00696878 -0.206848 0.3449 0.964795 0.257561 -0.0532277
0.215036 -0.00318932 0.273898 -0.94694 -0.254969 -0.195695
0.145259 -0.00607825 0.620493 -0.700673 -0.698634 -0.144801
0.0027434 -0.242871 0.245321 0.254816 -0.946979 0.195703
-0.252992 -0.0496127 0.710285 0 0 -1
-0.179367 0.0655485 0.719703 0 0 1
-0.0618855 -0.0782676 0.719703 0 0 1
0.11864 0.150554 0.710285 0 0 -1
0.0704225 0.128724 0.710285 0 0 -1
-0.0293374 0.127815 0.719703 0 0 1
-0.228887 0.010874 0.312407 -0.699685 0.699667 0.144596
-0.0341175 -0.131175 0.719703 0 0 1
0.055576 -0.250894 0.710285 0 0 -1
-0.127585 0.209363 0.710285 0 0 -1
0.190786 0.147296 0.710285 0 0 -1
0.0883779 0.067081 0.719703 0 0 1
-0.267553 -0.0098041 0.106511 -0.260074 -0.964092 0.0537469
0.0883116 -0.0684408 0.710285 0 0 -1
-0.114448 -0.182934 0.710285 0 0 -1
0.0874036 0.114685 0.710285 0 0 -1
0.0267046 -0.26906 0.719703 0 0 1
0.0748782 0.244636 0.710285 0 0 -1
-0.00318944 0.132954 0.708443 0 0 1
-0.00599322 -0.205152 0.01793 -0.21579 0 0.97644
-0.0284479 0.296941 0.710285 0 0 -1
0.00629886 -0.251333 0.126033 0.699663 0.699688 -0.144598
-0.117388 -0.0762259 0.719703 0 0 1
0.0255366 0.0698291 0.710285 0 0 -1
-0.157306 0.0643493 0.710285 0 0 -1
-0.135014 0.111648 0.710285 0 0 -1
0.21554 -0.0512023 0.719703 0 0 1
2.86402e-05 0.0207784 0.719703 0 0 1
-0.0132567 0.250325 0.710285 0 0 -1
0.0319739 0.214057 0.710285 0 0 -1
-0.00165537 0.200361 0.360359 0.252944 -0.94746 -0.195801
0.176218 0.114771 0.710285 0 0 -1
0.174887 0.000437875 0.571954 0.94698 -0.254811 0.195702
-0.00669845 -0.107 0.0177741 -0.21579 0 0.97644
-0.0388871 0.181167 0.719703 0 0 1
0.271434 -0.0051023 0.0957994 0.699685 -0.699666 0.144597
-0.0115921 0.0675627 0.719703 0 0 1
0.190409 0.142892 0.719703 0 0 1
-0.299163 0.0338198 0.710285 0 0 -1
-0.198987 -0.000794456 0.710285 0 0 -1
0.117529 -0.149155 0.719703 0 0 1
0.0207994 -0.268155 0.710285 0 0 -1
-0.134653 0.169057 0.719703 0 0 1
-0.212315 0.1135 0.710285 0 0 -1
0.115511 0.216289 0.719703 0 0 1
-0.170246 -0.00400858 0.00111938 0 -0.2158 -0.976438
0.315123 0.0206509 0.719703 0 0 1
0.173504 -0.172874 0.719703 0 0 1
0.142269 -0.183104 0.719703 0 0 1
-0.0983035 -0.24884 0.713847 -0.70712 -0.707093 0
0.0866946 -0.210608 0.719703 0 0 1
0.19585 -0.151285 0.719003 0.707107 -0.707107 0
0.130436 0.216704 0.714874 0.707105 0.707108 0
0.273074 -0.0101987 0.0444666 0.25952 -0.964247 0.0536325
0.0680174 0.0892791 0.719703 0 0 1
-0.048303 0.00234288 0.000283713 0 0.21535 -0.976537
0.078876 0.227656 0.710285 0 0 -1
0.00801178 -0.179907 0.494171 0.964794 0.257562 -0.0532279
-0.0839266 -0.013252 0.719703 0 0 1
0.165911 -0.00357778 0.0175893 0 -0.21579 0.97644
-0.0183359 0.212885 0.719703 0 0 1
0.0024951 0.136838 0.673104 0.25294 -0.947461 -0.195801
0.0390681 0.279651 0.710285 0 0 -1
-0.305839 -0.0412969 0.716925 -0.70712 -0.707093 0
-0.126141 0.0358782 0.719703 0 0 1
-0.0137496 -0.235139 0.710285 0 0 -1
-0.146477 0.0264402 0.710285 0 0 -1
0.29301 0.0216561 0.719703 0 0 1
0.210989 -0.00169007 0.291526 -0.94694 -0.254969 -0.195695
-0.00165331 0.000558658 0.0136758 0 1 0
-0.0116625 -0.232081 0.282673 -0.699666 -0.699685 0.144597
-0.0101787 -0.116965 0.0160597 -0.63172 0 0.775197
0.206308 0.09808 0.710285 0 0 -1
0.202335 -0.00730028 0.419521 0.699686 -0.699664 0.144597
-0.000796316 -0.126926 0.000464108 0.215351 0 -0.976537
0.252667 0.010326 0.171795 0.699684 0.699667 0.144597
-0.211728 0.0701236 0.719703 0 0 1
-0.133645 0.0689299 0.710285 0 0 -1
-0.00339857 0.0107845 0.00723226 1 0 0
-0.0267353 0.107317 0.719703 0 0 1
0.00099538 0.17299 0.596206 0.254814 0.94698 0.195702
0.00240105 -0.00055847 0.0182565 0 -0.21579 0.97644
-0.0835394 -0.239953 0.719703 0 0 1
0.158617 0.137968 0.710285 0 0 -1
0.096543 -0.0505686 0.719703 0 0 1
0.21465 -0.0102313 0.326585 0.259521 -0.964247 0.0536326
-0.249404 0.0104338 0.215256 -0.699685 0.699667 0.144596
-0.0511167 -0.0225187 0.719703 0 0 1
-0.229304 0.0756327 0.710285 0 0 -1
-0.125936 0.10348 0.710285 0 0 -1
-0.123392 -0.0487755 0.710285 0 0 -1
-0.00520503 0.0597578 0.719703 0 0 1
0.256478 0.007463 0.0785779 -0.699684 0.699667 -0.144597
-0.1905 0.00758573 0.426623 0.699685 0.699667 -0.144596
-0.0110113 0.18335 0.710285 0 0 -1
-0.00384298 -0.185887 0.527217 -0.254815 -0.94698 0.195702
-0.177416 0.0121119 0.540066 -0.260039 0.964102 0.0537397
-0.0107965 0.171577 0.590098 -0.699665 0.699687 0.144596
0.14022 -0.0607495 0.710285 0 0 -1
0.109192 -0.200135 0.719703 0 0 1
-0.129741 0.0214552 0.710285 0 0 -1
0.179005 0.0111646 0.474344 -0.259529 0.964245 -0.053639
-0.00950853 0.151256 0.69466 -0.699665 0.699687 0.144596
0.108004 -0.111773 0.710285 0 0 -1
-0.215754 0.0109878 0.321575 0.259021 0.964387 -0.0535289
0.143183 0.100403 0.710285 0 0 -1
-0.00606804 -0.18652 0.521254 -0.254967 -0.94694 0.195695
-0.00880216 0.20985 0.321149 -0.699666 -0.699685 -0.144596
-0.0303947 -0.120698 0.710285 0 0 -1
-0.00901425 -0.202224 0.439961 -0.699665 -0.699686 0.144597
-0.0130443 -0.140402 0.670898 -0.964245 0.259529 -0.0536343
0.132366 0.0883592 0.719703 0 0 1
0.065981 -0.281153 0.716518 0.707107 -0.707107 0
-0.270383 0.0750277 0.719703 0 0 1
0.0243192 0.125622 0.719703 0 0 1
-0.122251 -0.108084 0.710285 0 0 -1
-0.0752294 0.230222 0.710285 0 0 -1
0.0732524 0.271652 0.719703 0 0 1
-0.0057922 0.249661 0.123899 -0.25294 -0.947461 -0.195801
-0.219521 0.00265384 0.382955 -0.946979 0.254815 0.195703
0.269214 -0.0779208 0.714817 0.707107 -0.707107 0
-0.012127 0.18668 0.510578 -0.699666 0.699685 0.144596
-0.214746 0.0861574 0.719703 0 0 1
0.183898 -0.108966 0.719703 0 0 1
-0.0740082 -0.273137 0.71539 -0.70712 -0.707093 0
0.199272 -0.000822098 0.0181983 0 -0.21579 0.97644
0.26092 0.0237689 0.719703 0 0 1
0.288741 -0.0243628 0.710285 0 0 -1
-0.281413 0.00278031 0.0833037 -0.946979 0.254815 0.195703
-0.0315502 -0.248806 0.719703 0 0 1
0.199308 0.0681374 0.719703 0 0 1
0.24761 -0.0035536 0.11675 -0.94694 -0.254969 -0.195695
-0.0210857 0.0208367 0.710285 0 0 -1
0.239733 0.0110687 0.0129202 1 0 0
-0.121717 -0.202386 0.719703 0 0 1
-0.205938 -0.0298923 0.719703 0 0 1
-0.131951 0.183959 0.710285 0 0 -1
0.18594 0.0762683 0.719703 0 0 1
-0.0536579 -0.207881 0.710285 0 0 -1
0.175352 -0.00923129 0.496154 -0.259012 -0.964389 -0.0535322
0.0477381 0.254312 0.710285 0 0 -1
0.0181077 0.181332 0.719703 0 0 1
0.073949 0.201625 0.719703 0 0 1
0.200593 -0.144174 0.719703 0 0 1
0.0015691 0.111063 0.0176268 0.21579 -1.10869e-05 0.97644
0.291698 0.00887953 0.710285 0 0 -1
0.175195 0.00923867 0.0153266 0 0.632861 0.774266
0.145966 -0.00910197 0.710285 0 0 -1
-0.232227 -0.0427178 0.710285 0 0 -1
0.0497724 0.124754 0.710285 0 0 -1
0.185426 0.108605 0.710285 0 0 -1
0.0029189 -0.145074 0.708443 0 0 1
0.171587 0.0109376 0.00473574 0 0.949945 -0.312418
-0.133355 -0.100533 0.710285 0 0 -1
-0.258251 0.00812725 0.18361 -0.699604 0.699751 0.14458
-0.00106272 0.0337269 0.710285 0 0 -1
0.125087 -0.199503 0.710285 0 0 -1
-0.011159 -0.015628 0.0152608 -0.63172 0 0.775197
-0.19136 0.00282082 0.719703 0 0 1
0.0631792 0.14255 0.719703 0 0 1
0.172246 0.0967352 0.710285 0 0 -1
0.00751656 0.11799 0.0122474 0.949946 0 0.312414
-0.0565131 -0.0961119 0.710285 0 0 -1
-0.0860673 -0.0580379 0.719703 0 0 1
0.16326 -0.0210385 0.719703 0 0 1
0.0135281 0.0107211 0.00449853 0 0.632861 -0.774266
0.183077 -0.0912281 0.719703 0 0 1
0.00746755 -0.174971 0.544124 0.964794 -0.257562 0.0532279
0.0589098 0.217245 0.719703 0 0 1
0.0775362 -0.204623 0.719703 0 0 1
0.208111 -0.00781367 0.324752 -0.699684 -0.699665 -0.144609
0.240758 0.0917967 0.710285 0 0 -1
0.155713 -0.0492732 0.719703 0 0 1
-0.306713 0.0184368 0.719703 0 0 1
0.119764 -0.159472 0.719703 0 0 1
