-0.297248 0.0494256 0.639673 0 0 1
-0.175224 -0.242318 0.613208 0 0 -1
0.00638629 0.160858 0.613208 0 0 -1
0.216499 0.040116 0.639215 0 0 1
-0.0832631 0.21127 0.639673 0 0 1
-0.110894 0.256967 0.639673 0 0 1
0.0318642 0.338783 0.639673 0 0 1
0.175819 -0.335775 0.613208 0 0 -1
-0.187774 -0.259 0.639215 0 0 1
0.350416 0.116618 0.639215 0 0 1
0.273077 -0.0605033 0.639215 0 0 1
-0.0438753 0.333224 0.613208 0 0 -1
-0.244096 -0.0118512 0.639215 0 0 1
0.179671 -0.139826 0.613647 0 0 -1
0.368863 -0.0023232 0.639673 0 0 1
0.327686 -0.0829629 0.639673 0 0 1
0.207774 -0.215331 0.0683321 -0.349875 -0.77722 0.522989
-0.0550787 -0.0513227 0.419274 -0.739503 0.673141 0.00401676
0.0407684 0.0693361 0.613647 0 0 -1
0.22105 0.154054 0.613647 0 0 -1
0.064418 -0.363207 0.613647 0 0 -1
-0.254565 -0.282132 0.627252 -0.684689 -0.728836 0
0.172589 -0.333622 0.613208 0 0 -1
-0.0596494 -0.0429037 0.23561 -0.602797 0.602794 0.522758
0.108733 0.107014 0.237844 0.860189 -0.506994 0.055067
0.229359 -0.300211 0.639215 0 0 1
-0.373607 0.0308888 0.639215 0 0 1
-0.163475 0.144043 0.639215 0 0 1
-0.273624 0.0484954 0.613208 0 0 -1
0.0875605 -0.259595 0.613208 0 0 -1
0.0542537 0.237438 0.613208 0 0 -1
0.227201 0.175887 0.639215 0 0 1
-0.212368 -0.210051 0.0395289 -0.654717 0.747406 -0.112823
0.0859853 0.265571 0.639215 0 0 1
-0.0384154 -0.320866 0.613647 0 0 -1
-0.339753 -0.151159 0.613208 0 0 -1
0.324665 0.0500153 0.639673 0 0 1
0.301665 -0.23265 0.62918 0.770417 -0.63754 0
-0.0473175 0.042353 0.616089 -0.251524 0.253714 0.934005
-0.106725 0.27771 0.613208 0 0 -1
0.329631 0.102431 0.613647 0 0 -1
0.20494 0.0917834 0.613647 0 0 -1
-0.295097 -0.0967245 0.613647 0 0 -1
-0.204468 -0.137529 0.613208 0 0 -1
0.111368 0.121811 0.613208 0 0 -1
0.181353 0.0470072 0.639673 0 0 1
-0.15523 0.178707 0.613208 0 0 -1
0.220229 0.101146 0.613208 0 0 -1
0.0807439 0.268547 0.639673 0 0 1
-0.200511 0.153902 0.613647 0 0 -1
0.148569 0.148993 0.10093 0.262375 -0.8511 -0.45474
-0.254987 -0.272762 0.613208 0 0 -1
0.0571629 -0.00971433 0.639673 0 0 1
-0.0201966 0.0943907 0.639673 0 0 1
0.0262866 -0.013014 0.613208 0 0 -1
0.0768104 0.0725688 0.393 0.739431 -0.673116 0.0125321
-0.254522 0.158768 0.613208 0 0 -1
-0.179175 -0.138162 0.613647 0 0 -1
0.171566 0.15609 0.613647 0 0 -1
-0.311109 0.142027 0.639215 0 0 1
-0.103845 0.0985534 0.262524 -0.971154 -0.114251 0.2093
-0.176531 -0.135262 0.613647 0 0 -1
0.228101 -0.220917 0.0407402 0.746975 0.655322 0.112165
0.269857 0.00557326 0.613647 0 0 -1
0.310139 0.00686694 0.613647 0 0 -1
-0.136011 -0.233772 0.613647 0 0 -1
0.153972 0.0615143 0.639673 0 0 1
-0.0501165 0.0813541 0.613647 0 0 -1
-0.0703407 -0.063735 0.639215 0 0 1
-0.233448 -0.241022 0.0511993 0.350411 -0.777494 0.522222
-0.273947 0.0607367 0.613208 0 0 -1
0.161085 0.314274 0.613647 0 0 -1
-0.239652 0.188794 0.639215 0 0 1
-0.353317 0.123389 0.613208 0 0 -1
-0.0390467 -0.0377445 0.478023 -0.594666 0.803873 -0.0126878
-0.0732169 0.130214 0.613208 0 0 -1
-0.162921 0.231833 0.613208 0 0 -1
-0.231049 0.253467 0.613208 0 0 -1
0.205869 -0.29019 0.613647 0 0 -1
0.238071 0.279266 0.639673 0 0 1
-0.354424 -0.138646 0.636686 -0.950937 -0.309386 0
0.0748372 0.255041 0.639215 0 0 1
0.193887 0.169691 0.639215 0 0 1
-0.221548 0.0537946 0.639215 0 0 1
-0.0768816 -0.21697 0.639215 0 0 1
-0.0639164 -0.00974734 0.613647 0 0 -1
0.163606 0.318565 0.639673 0 0 1
-0.261267 -0.216688 0.639673 0 0 1
0.0565391 0.0654316 0.613647 0 0 -1
-0.295991 -0.238244 0.626809 -0.770388 -0.637575 0
-0.125029 0.319905 0.639673 0 0 1
-0.175673 -0.200644 0.639673 0 0 1
0.171955 0.0590493 0.613208 0 0 -1
0.297616 -0.057263 0.613208 0 0 -1
0.0538129 0.347947 0.613647 0 0 -1
0.0236562 -0.204299 0.639215 0 0 1
0.152505 0.149077 0.104887 0.636305 -0.765006 -0.0994116
-0.0725202 0.258457 0.639673 0 0 1
0.0247214 0.318329 0.639215 0 0 1
0.051337 -0.0625358 0.410756 -0.682717 -0.730681 0.00135662
0.0437186 0.378229 0.629263 0.125178 0.992134 0
0.235255 0.248594 0.613208 0 0 -1
-0.0833785 0.0219091 0.639673 0 0 1
-0.234437 0.151205 0.639673 0 0 1
0.291755 0.176027 0.639215 0 0 1
0.164597 0.22463 0.639673 0 0 1
0.211769 -0.303903 0.613208 0 0 -1
0.233168 -0.067682 0.639215 0 0 1
-0.228356 -0.0341634 0.613208 0 0 -1
-0.0582548 0.215885 0.639215 0 0 1
-0.10786 0.23437 0.639673 0 0 1
0.307739 -0.217302 0.613647 0 0 -1
0.332539 0.0892055 0.639215 0 0 1
0.257318 0.151381 0.639673 0 0 1
-0.219782 -0.0459174 0.639215 0 0 1
0.108668 0.141841 0.613647 0 0 -1
-0.344626 -0.0228232 0.613647 0 0 -1
0.0923912 0.148821 0.613208 0 0 -1
0.0412605 0.33852 0.613208 0 0 -1
-0.0539581 0.0430478 0.479668 -0.730808 -0.682577 0.00291926
0.203146 -0.244395 0.613647 0 0 -1
0.210205 -0.219476 0.0325131 -0.747114 -0.655165 -0.112159
0.159398 0.0383798 0.639215 0 0 1
0.032328 -0.0337245 0.498374 0.0735129 0.995725 -0.0559293
-0.173555 0.178456 0.613647 0 0 -1
-0.340092 -0.171467 0.614742 -0.90482 -0.425795 0
0.0598753 0.0723831 0.537673 -0.689619 0.724166 -0.0030344
0.279396 0.158188 0.613647 0 0 -1
0.0416635 0.0492943 0.394947 -0.995862 0.0714034 -0.0562229
0.0771481 -0.208919 0.613647 0 0 -1
0.214898 0.117711 0.639215 0 0 1
-0.0905946 0.0982506 0.233876 0.66942 0.742491 0.0241864
-0.182115 -0.181823 0.613647 0 0 -1
-0.119444 -0.049895 0.613647 0 0 -1
-0.117112 -0.0408528 0.639215 0 0 1
-0.0814577 -0.0930661 0.321544 0.0816458 -0.984072 0.157911
-0.253714 -0.250284 0.0127466 -0.619231 0.78122 -0.0790446
-0.138593 -0.138125 0.158694 -0.766049 0.635405 0.0971091
0.00136797 -0.0507967 0.639673 0 0 1
-0.0659468 0.0711498 0.270309 0.791355 0.60836 -0.0604523
-0.303306 -0.114549 0.639673 0 0 1
0.0843107 -0.0147866 0.639215 0 0 1
0.0652813 -0.058908 0.536345 0.736846 0.67604 -0.00534093
0.173898 -0.114792 0.613647 0 0 -1
0.22684 -0.304799 0.62018 0.587868 -0.808957 0
-0.0181442 0.376518 0.613208 0 0 -1
0.177887 -0.328804 0.613647 0 0 -1
0.213615 -0.300722 0.613647 0 0 -1
-0.298609 -0.214172 0.639215 0 0 1
-0.255177 -0.00691013 0.639215 0 0 1
-0.0611662 -0.353227 0.639215 0 0 1
0.0246129 0.125992 0.639215 0 0 1
-0.329926 -0.0194363 0.613647 0 0 -1
0.0718133 0.339376 0.613208 0 0 -1
-0.240049 -0.120847 0.613647 0 0 -1
-0.0689827 0.337233 0.639215 0 0 1
-0.0395062 0.251992 0.639215 0 0 1
-0.0921304 -0.107728 0.258607 0.681882 -0.73006 0.0452712
-0.106156 0.306998 0.639673 0 0 1
-0.00854882 0.286965 0.613647 0 0 -1
-0.100834 -0.367052 0.639215 0 0 1
-0.183591 -0.164363 0.639673 0 0 1
0.273787 -0.262301 0.613647 0 0 -1
-0.0780308 -0.264927 0.639673 0 0 1
0.00482757 -0.00566223 0.639673 0 0 1
0.0873509 0.0788767 0.639673 0 0 1
-0.0152638 0.153059 0.639215 0 0 1
0.219462 -0.230638 0.0361264 -0.746754 -0.655708 -0.111385
0.103458 -0.262622 0.613647 0 0 -1
0.139963 -0.223165 0.613208 0 0 -1
0.357885 0.0752698 0.639673 0 0 1
0.197854 0.0242661 0.639673 0 0 1
-0.321932 -0.123566 0.639673 0 0 1
-0.289097 0.108302 0.613208 0 0 -1
-0.275899 -0.0739599 0.613647 0 0 -1
0.273323 -0.110233 0.613208 0 0 -1
-0.0653586 -0.0141405 0.639215 0 0 1
0.295991 -0.239506 0.630333 0.770417 -0.63754 0
-0.0890906 -0.103505 0.213308 0.791281 -0.608451 -0.0605136
0.156434 -0.181438 0.639673 0 0 1
0.313805 -0.0277696 0.639215 0 0 1
-0.00376283 0.239953 0.613208 0 0 -1
-0.201992 0.0542324 0.613647 0 0 -1
0.321656 -0.203702 0.618091 0.844365 -0.535768 0
0.347379 -0.0579432 0.613208 0 0 -1
0.31694 -0.172553 0.613208 0 0 -1
0.0040668 0.291513 0.639673 0 0 1
0.117823 0.114437 0.163936 0.621564 -0.779169 -0.0809501
-0.138544 -0.223638 0.613208 0 0 -1
-0.0253889 0.26272 0.639215 0 0 1
-0.256338 -0.0126926 0.639673 0 0 1
-0.0389329 -0.00366599 0.613208 0 0 -1
0.0683475 -0.0479131 0.613647 0 0 -1
-0.00937538 0.379914 0.618542 0 1 0
0.018902 -0.110662 0.613647 0 0 -1
-0.124441 0.262403 0.639673 0 0 1
0.0237979 0.00835274 0.639673 0 0 1
0.249323 0.0422311 0.613208 0 0 -1
-0.343153 0.163068 0.637282 -0.904913 0.425597 0
0.25713 0.101093 0.639673 0 0 1
-0.0905561 0.226682 0.613647 0 0 -1
0.299799 0.216049 0.613208 0 0 -1
-0.170617 0.233059 0.613208 0 0 -1
-0.0543908 -0.0690461 0.370823 0.676603 -0.736264 0.0111549
-0.136657 -0.248398 0.639215 0 0 1
0.217295 0.237071 0.613208 0 0 -1
-0.201952 -0.246118 0.613208 0 0 -1
-0.0593354 0.333562 0.613208 0 0 -1
-0.185986 -0.0453605 0.613208 0 0 -1
0.049489 -0.155207 0.639215 0 0 1
-0.103602 -0.118997 0.639673 0 0 1
0.0987052 -0.0502602 0.639673 0 0 1
-0.0593897 0.321424 0.639215 0 0 1
-0.0451078 -0.0490025 0.613208 0 0 -1
-0.220356 0.0924391 0.639215 0 0 1
0.180854 0.00332621 0.613647 0 0 -1
0.0279291 0.14271 0.639673 0 0 1
-0.0752986 -0.075727 0.247974 -0.131316 0.953232 -0.272221
-0.0246076 0.156455 0.639215 0 0 1
-0.0482755 -0.0446671 0.47194 -0.594509 0.803989 -0.0126794
0.132026 -0.250693 0.613208 0 0 -1
-0.246902 0.184936 0.639673 0 0 1
-0.0920162 -0.238818 0.639673 0 0 1
0.120651 0.305923 0.639673 0 0 1
0.349128 -0.150332 0.638278 0.904981 -0.425452 0
-0.136019 0.269179 0.639673 0 0 1
0.311838 -0.219175 0.617924 0.844365 -0.535768 0
-0.165118 0.171506 0.10505 0.636472 0.764892 0.0992164
0.340397 -0.16133 0.639673 0 0 1
-0.194473 -0.239975 0.613647 0 0 -1
-0.121899 0.330864 0.639215 0 0 1
0.351774 -0.0742777 0.639215 0 0 1
-0.156338 0.102751 0.613208 0 0 -1
-0.301576 -0.0251021 0.613647 0 0 -1
0.0662526 0.0622663 0.317842 0.598854 -0.79998 -0.0375003
0.0860001 -0.0961394 0.295477 -0.761311 -0.648387 -0.000243898
-0.260251 -0.246781 0.639215 0 0 1
-0.00759945 0.0424528 0.613647 0 0 -1
0.363834 -0.0273441 0.639215 0 0 1
0.0910682 -0.0858962 0.613208 0 0 -1
-0.119404 -0.225215 0.613647 0 0 -1
-0.191353 -0.0271417 0.639215 0 0 1
0.00611939 -0.287825 0.639673 0 0 1
0.0880349 -0.0980463 0.212368 -0.791815 -0.607713 -0.0609449
-0.0610161 -0.315621 0.613208 0 0 -1
-0.114521 -0.0483199 0.639673 0 0 1
0.0588448 0.0560791 0.336675 0.0940029 -0.981595 -0.166237
-0.106506 0.116209 0.639215 0 0 1
-0.164715 -0.187018 0.639215 0 0 1
0.20102 0.150411 0.639673 0 0 1
-0.175773 -0.181898 0.613647 0 0 -1
0.127428 0.04926 0.613647 0 0 -1
-0.0382928 -0.0514515 0.413501 0.803525 -0.595136 -0.0126381
0.0102414 0.290497 0.613647 0 0 -1
-0.294655 0.210223 0.639215 0 0 1
-0.23458 -0.0935407 0.639215 0 0 1
0.240594 -0.0287494 0.613647 0 0 -1
0.197522 -0.0947957 0.613208 0 0 -1
0.0752324 0.0751546 0.258352 0.132247 -0.953182 -0.271947
0.180605 -0.176904 0.0598157 0.262221 0.85109 -0.454847
0.0995262 -0.0962471 0.262306 0.748999 0.662383 -0.0157812
-0.132417 0.140576 0.142988 0.585319 0.809563 0.0448301
-0.29132 0.245152 0.616858 -0.770439 0.637514 0
-0.0583127 0.0658325 0.367508 0.674211 0.738441 0.0120215
0.194104 0.0208126 0.639673 0 0 1
-0.167193 -0.0862878 0.639673 0 0 1
0.320626 0.121744 0.639673 0 0 1
-0.183394 0.259617 0.613647 0 0 -1
-0.0882491 0.0781244 0.247656 -0.608402 -0.791315 -0.0605533
0.08487 0.0810091 0.364204 0.745169 -0.666763 0.0122544
-0.278113 -0.227018 0.613208 0 0 -1
0.140942 0.0577627 0.639673 0 0 1
-0.240378 0.185447 0.613647 0 0 -1
-0.133841 0.0328534 0.639215 0 0 1
-0.258482 0.141722 0.639215 0 0 1
0.000333494 0.197845 0.639215 0 0 1
-0.110594 0.202349 0.639673 0 0 1
-0.121206 0.142774 0.639673 0 0 1
0.16846 -0.184041 0.613208 0 0 -1
-0.355438 0.0207864 0.613647 0 0 -1
-0.137145 0.0132156 0.613647 0 0 -1
0.0432855 -0.274535 0.639215 0 0 1
-0.318395 0.0784298 0.613208 0 0 -1
-0.0420028 -0.120542 0.613647 0 0 -1
0.00864556 -0.324635 0.639215 0 0 1
-0.233607 -0.0441644 0.613647 0 0 -1
-0.0789647 0.259367 0.613208 0 0 -1
0.03667 -0.0348681 0.508792 0.076359 0.993816 0.0806121
0.0658492 -0.192729 0.639215 0 0 1
0.120092 0.257884 0.639215 0 0 1
0.0759307 -0.0862799 0.3176 -0.674145 -0.738551 0.00848011
-0.373618 -0.0402166 0.613208 0 0 -1
0.328097 -0.153861 0.613208 0 0 -1
-0.156173 0.113448 0.639215 0 0 1
-0.072035 -0.0700234 0.410772 -0.741871 0.670534 0.00330766
0.0527927 -0.235751 0.613647 0 0 -1
0.254657 -0.264896 0.0101018 -0.60454 -0.795038 0.0494576
-0.157522 0.0509426 0.639673 0 0 1
0.0564123 -0.219669 0.613208 0 0 -1
0.276414 0.257342 0.639673 0 0 1
0.174414 -0.034154 0.639673 0 0 1
-0.219179 -0.259872 0.613647 0 0 -1
-0.102481 0.364674 0.639215 0 0 1
-0.0338521 -0.306095 0.613208 0 0 -1
0.168577 -0.174647 0.639673 0 0 1
0.282468 -0.194536 0.639215 0 0 1
-0.0990372 -0.0196595 0.639673 0 0 1
-0.00169718 0.0925571 0.613208 0 0 -1
0.173223 0.291242 0.613208 0 0 -1
-0.213668 0.150356 0.639673 0 0 1
-0.24584 0.264837 0.639673 0 0 1
-0.35756 -0.0259289 0.639673 0 0 1
-0.204943 0.243502 0.639215 0 0 1
-0.107411 -0.139234 0.639215 0 0 1
-0.21264 -0.172436 0.639215 0 0 1
0.218412 -0.122723 0.639673 0 0 1
-0.150075 -0.18473 0.639215 0 0 1
-0.270662 0.0649656 0.613208 0 0 -1
0.308435 0.0962797 0.639215 0 0 1
0.379577 -0.030066 0.620623 0.998005 -0.0631419 0
0.168626 -0.0400637 0.639215 0 0 1
-0.256465 0.102488 0.639215 0 0 1
0.305699 -0.126148 0.613647 0 0 -1
0.30583 -0.226355 0.631049 0.770388 -0.637575 0
-0.37008 -0.04083 0.639215 0 0 1
-0.191393 0.282177 0.613647 0 0 -1
-0.137122 0.253485 0.613647 0 0 -1
-0.151092 0.0152676 0.639215 0 0 1
0.23271 -0.240754 0.0472309 -0.349875 -0.77722 0.522989
0.175668 -0.31308 0.639673 0 0 1
-0.211523 -0.213794 0.0699469 -0.777096 0.348471 0.524108
0.0909908 -0.256507 0.639673 0 0 1
-0.150843 0.210555 0.639215 0 0 1
0.0211344 0.00431753 0.238483 0.603591 -0.603657 0.520841
0.186274 0.068569 0.613647 0 0 -1
-0.1289 -0.331079 0.639673 0 0 1
0.0976616 -0.220868 0.639673 0 0 1
-0.24648 -0.238825 0.613647 0 0 -1
-0.0309582 -0.119389 0.639215 0 0 1
0.202842 0.296457 0.613208 0 0 -1
-0.0778184 -0.0756096 0.356429 -0.746115 0.665695 0.0127442
0.243751 0.237935 0.028338 0.655318 -0.746982 -0.112141
-0.177267 -0.173925 0.0806466 -0.636226 0.765061 -0.0994882
0.18328 -0.17597 0.0785376 0.637157 0.764465 -0.0981006
-0.192564 0.0898922 0.613647 0 0 -1
0.0670847 0.0628562 0.53375 0.737532 -0.675271 0.00744021
0.0928749 -0.294482 0.613647 0 0 -1
0.17516 0.168518 0.639215 0 0 1
0.108054 0.0799018 0.613208 0 0 -1
-0.339351 -0.121088 0.613647 0 0 -1
0.18195 -0.222998 0.639215 0 0 1
-0.0144385 0.131069 0.639673 0 0 1
-0.129461 -0.142957 0.12521 0.7797 -0.620831 -0.0814615
-0.071926 -0.168006 0.613647 0 0 -1
0.214685 0.15182 0.613208 0 0 -1
0.377729 -0.0466585 0.63842 0.998019 -0.0629065 0
-0.108528 -0.110821 0.639673 0 0 1
0.175505 -0.108206 0.639215 0 0 1
0.155025 -0.192052 0.639215 0 0 1
0.210133 0.31694 0.624758 0.587868 0.808957 0
-0.0572847 0.00349741 0.639215 0 0 1
0.15577 0.309701 0.613208 0 0 -1
-0.0145962 -0.115094 0.639215 0 0 1
0.236663 -0.29766 0.637368 0.587868 -0.808957 0
0.236862 -0.0784651 0.639673 0 0 1
0.141153 -0.312103 0.613208 0 0 -1
0.0673873 0.350487 0.639215 0 0 1
0.15111 -0.00955983 0.639673 0 0 1
-0.151694 -0.292091 0.639215 0 0 1
0.348834 0.14797 0.613208 0 0 -1
0.244042 -0.130679 0.613647 0 0 -1
0.180473 0.303987 0.639215 0 0 1
-0.0940377 -0.247956 0.613208 0 0 -1
-0.0928549 -0.00158589 0.639215 0 0 1
-0.228519 0.284116 0.639673 0 0 1
0.0922451 -0.160453 0.639215 0 0 1
0.071925 0.0777588 0.502104 -0.0719915 0.99699 0.0287913
0.0692029 -0.185211 0.639673 0 0 1
0.154915 -0.339343 0.639215 0 0 1
0.303976 0.0543394 0.613208 0 0 -1
-0.0670287 -0.0636175 0.639215 0 0 1
-0.0832929 -0.264894 0.639673 0 0 1
0.0902519 0.132793 0.639215 0 0 1
-0.203916 -0.107589 0.613647 0 0 -1
-0.176191 0.294302 0.639673 0 0 1
0.322741 -0.200489 0.633253 0.844391 -0.535727 0
-0.00774691 -0.162659 0.639673 0 0 1
-0.148792 0.335509 0.613647 0 0 -1
0.232065 -0.0180912 0.639673 0 0 1
-0.0267387 -0.0543108 0.613647 0 0 -1
-0.0692554 0.111938 0.639215 0 0 1
0.26708 -0.0664139 0.639673 0 0 1
0.124924 -0.336174 0.639215 0 0 1
-0.271122 0.20374 0.613647 0 0 -1
-0.14681 0.208386 0.613208 0 0 -1
-0.18496 0.0406524 0.639673 0 0 1
-0.240806 0.154845 0.613647 0 0 -1
-0.213327 0.211779 0.639673 0 0 1
-0.0715877 -0.14133 0.639673 0 0 1
-0.125115 -0.0623386 0.639673 0 0 1
-0.227747 0.182804 0.639673 0 0 1
-0.165007 0.0499621 0.613208 0 0 -1
-0.0681896 0.306934 0.639215 0 0 1
0.214401 0.24764 0.639673 0 0 1
-0.0215629 0.144356 0.639673 0 0 1
-0.189956 -0.314208 0.639673 0 0 1
0.18463 -0.119589 0.639215 0 0 1
-0.0541306 -0.237686 0.639215 0 0 1
-0.143642 -0.296153 0.613647 0 0 -1
-0.08386 -0.0943599 0.613647 0 0 -1
0.0219974 0.217924 0.613647 0 0 -1
-0.0752451 0.018151 0.639215 0 0 1
0.212957 -0.0101044 0.639673 0 0 1
0.249276 0.195917 0.613647 0 0 -1
-0.255836 -0.24313 0.613208 0 0 -1
0.157917 0.16681 0.129064 -0.262642 0.85111 0.454566
-0.24901 0.0327168 0.613208 0 0 -1
0.305043 -0.216343 0.613647 0 0 -1
-0.0571047 -0.0702336 0.585164 0.585635 -0.810429 0.0153365
0.210097 0.245461 0.639673 0 0 1
0.0360175 0.164265 0.613208 0 0 -1
-0.0666523 0.08373 0.238174 0.602876 0.602876 0.522572
0.0512292 -0.324143 0.639673 0 0 1
0.126495 0.134166 0.130034 -0.909838 0.18703 -0.370426
0.132613 0.234088 0.613647 0 0 -1
0.0995505 0.309053 0.639673 0 0 1
0.154799 -0.2235 0.639215 0 0 1
0.0839755 0.119974 0.613647 0 0 -1
0.0369253 -0.366714 0.613208 0 0 -1
-0.128509 -0.281504 0.639673 0 0 1
0.0346707 -0.127469 0.613208 0 0 -1
0.215782 0.246749 0.613647 0 0 -1
0.0289842 0.253692 0.613208 0 0 -1
0.281036 -0.0475589 0.639215 0 0 1
0.0496453 0.258331 0.613647 0 0 -1
0.29592 -0.0461964 0.613647 0 0 -1
-0.123856 0.0498583 0.639673 0 0 1
-0.0897852 0.0813899 0.220568 -0.607785 -0.791752 -0.061041
-0.0736419 -0.373344 0.616786 -0.248672 -0.968588 0
0.176476 -0.183149 0.0570908 -0.851064 -0.262157 -0.454932
-0.0123926 -0.200892 0.639215 0 0 1
-0.242369 -0.0577762 0.639673 0 0 1
0.0289323 0.375547 0.639673 0 0 1
0.115416 -0.0314273 0.639215 0 0 1
0.113781 -0.258776 0.613647 0 0 -1
0.0722234 -0.116289 0.639673 0 0 1
0.0871439 0.0941401 0.33669 -0.0813009 0.984268 0.156865
-0.112129 -0.323145 0.613208 0 0 -1
-0.376786 0.0566594 0.614588 -0.98232 0.187211 0
-0.2846 -0.192137 0.639215 0 0 1
-0.121066 0.103489 0.613647 0 0 -1
-0.334486 0.01111 0.613647 0 0 -1
0.115916 0.0228774 0.639673 0 0 1
0.154229 -0.0896766 0.639215 0 0 1
0.25472 0.282275 0.613647 0 0 -1
0.0423972 0.0501063 0.639673 0 0 1
-0.217545 -0.281811 0.639215 0 0 1
0.266475 0.213992 0.613208 0 0 -1
-0.019447 0.356683 0.639673 0 0 1
-0.0882227 -0.250851 0.613208 0 0 -1
0.227384 0.0366257 0.613208 0 0 -1
0.234319 0.128815 0.639215 0 0 1
0.301016 -0.183134 0.639673 0 0 1
0.169752 0.257481 0.639673 0 0 1
-0.273674 0.162571 0.613208 0 0 -1
-0.0400202 -0.122596 0.639215 0 0 1
0.190547 -0.00958303 0.639215 0 0 1
-0.17598 0.165303 0.0931519 -0.764281 -0.637394 0.0979952
0.215162 -0.292974 0.613647 0 0 -1
-0.252534 0.0829006 0.639673 0 0 1
0.130687 -0.350802 0.613647 0 0 -1
-0.361294 0.0171491 0.639673 0 0 1
0.051686 -0.06276 0.450998 -0.686691 -0.726946 0.00243723
0.162692 -0.0427899 0.613647 0 0 -1
-0.297598 -0.113218 0.613208 0 0 -1
0.322342 0.201101 0.632234 0.844397 0.535717 0
-0.0918851 0.258241 0.613208 0 0 -1
-0.0436401 0.0541018 0.639215 0 0 1
-0.0809953 0.0276451 0.613647 0 0 -1
0.0540144 0.0668249 0.410974 -0.684911 0.728622 0.00264573
0.11513 0.0517836 0.613647 0 0 -1
-0.0717355 0.0741869 0.411225 0.0706842 0.996139 0.0520584
-0.0927153 -0.156019 0.613647 0 0 -1
-0.0608961 -0.262946 0.639673 0 0 1
0.0716544 -0.227459 0.613208 0 0 -1
0.0485227 0.0446396 0.5352 0.59578 -0.802942 0.0182121
-0.0735587 -0.0872519 0.341248 0.685728 -0.727847 0.00407892
0.0153382 0.380723 0.626053 0 1 0
-0.0508965 -0.0654985 0.422546 0.685608 -0.727966 0.00256448
-0.339107 0.0290867 0.639215 0 0 1
-0.158241 0.224124 0.613647 0 0 -1
-0.169134 -0.1437 0.613647 0 0 -1
0.0506009 0.159402 0.639215 0 0 1
-0.0926235 -0.3519 0.639673 0 0 1
-0.101609 -0.148374 0.639673 0 0 1
0.170743 0.319817 0.613208 0 0 -1
-0.0994689 0.0605174 0.613647 0 0 -1
0.352757 0.0243719 0.639215 0 0 1
0.161015 0.231228 0.613647 0 0 -1
-0.258047 0.184283 0.639673 0 0 1
-0.0345624 0.35533 0.613647 0 0 -1
-0.114568 -0.350363 0.639673 0 0 1
0.0505609 0.231038 0.639673 0 0 1
0.31454 0.0364205 0.613208 0 0 -1
0.0673078 -0.0552607 0.613647 0 0 -1
-0.319248 0.114699 0.613647 0 0 -1
0.175257 -0.1713 0.108651 0.851058 0.262263 0.454882
0.170945 0.250804 0.639215 0 0 1
-0.0220865 0.339957 0.613647 0 0 -1
0.283729 0.253057 0.626101 0.770532 0.637401 0
-0.357105 -0.124479 0.639673 0 0 1
0.100821 0.331191 0.613647 0 0 -1
0.0409057 -0.034705 0.228669 0 0 -1
-0.135951 -0.193506 0.639215 0 0 1
0.302524 -0.106643 0.613647 0 0 -1
0.104693 -0.212371 0.639215 0 0 1
-0.234955 -0.292136 0.639673 0 0 1
0.128716 -0.138759 0.130088 -0.780151 -0.620218 -0.0818171
0.281 -0.208803 0.613647 0 0 -1
0.0702467 0.141132 0.613647 0 0 -1
-0.304449 0.176401 0.639673 0 0 1
0.0606456 -0.279272 0.613208 0 0 -1
-0.112309 -0.187872 0.613647 0 0 -1
0.217262 0.0932007 0.639673 0 0 1
-0.0413705 0.240904 0.613647 0 0 -1
-0.0792501 -0.077119 0.254251 -0.609012 0.790863 -0.06034
-0.288178 0.0958595 0.613208 0 0 -1
-0.133601 0.0494801 0.639673 0 0 1
-0.0868206 0.268221 0.613208 0 0 -1
0.355113 0.133383 0.613647 0 0 -1
-0.150673 0.0695081 0.613208 0 0 -1
0.0455293 -0.0427624 0.597688 0.0770707 0.993763 0.0805887
-0.0812332 0.0476795 0.613647 0 0 -1
0.146044 -0.125368 0.639673 0 0 1
-0.0719796 -0.113697 0.613647 0 0 -1
0.261439 0.259063 0.639215 0 0 1
0.264875 0.0139476 0.613647 0 0 -1
-0.0279476 0.379404 0.630292 -0.125035 0.992152 0
-0.0949587 -0.367871 0.636938 -0.248672 -0.968588 0
-0.0437418 0.209763 0.639215 0 0 1
-0.125537 0.304579 0.639215 0 0 1
0.15861 0.177902 0.613208 0 0 -1
0.00714375 -0.030605 0.613647 0 0 -1
0.00386004 0.0672291 0.639673 0 0 1
0.0365418 0.0221468 0.639215 0 0 1
-0.282021 -0.17845 0.613208 0 0 -1
0.165976 -0.289858 0.613647 0 0 -1
0.127073 -0.120472 0.613647 0 0 -1
-0.188168 -0.0857251 0.639215 0 0 1
0.23751 -0.169599 0.613208 0 0 -1
0.0870057 -0.0935608 0.307612 -0.0817866 -0.983991 0.158343
-0.271841 0.205434 0.639673 0 0 1
0.168559 0.170307 0.613647 0 0 -1
-0.282156 0.167292 0.613647 0 0 -1
-0.0803894 0.0699736 0.306977 -0.738529 -0.674114 0.0120561
-0.154078 -0.267293 0.613647 0 0 -1
-0.212856 0.0594865 0.639673 0 0 1
-0.304438 0.049689 0.639673 0 0 1
-0.254742 -0.0161263 0.639215 0 0 1
-0.0672172 -0.277628 0.639215 0 0 1
-0.0870406 0.170806 0.613647 0 0 -1
-0.0220785 0.274088 0.613208 0 0 -1
0.15272 -0.233543 0.613647 0 0 -1
0.0850189 0.0821468 0.238556 0.12909 -0.953371 -0.272798
-0.364518 -0.110211 0.62554 -0.951043 -0.309058 0
-0.0974724 0.287419 0.613647 0 0 -1
-0.244332 -0.292841 0.636053 -0.684359 -0.729145 0
0.00845334 -0.100049 0.639215 0 0 1
0.0762396 0.000795867 0.613208 0 0 -1
-0.182061 0.0175389 0.639673 0 0 1
0.0837593 -0.05835 0.639673 0 0 1
0.225996 0.210778 0.613647 0 0 -1
0.0581521 0.0549198 0.344854 0.600462 -0.798785 -0.0372451
-0.0166093 0.0296718 0.240053 0.252479 0.25248 0.934081
0.114285 0.243419 0.639673 0 0 1
0.231521 0.0789919 0.613208 0 0 -1
0.341812 -0.0972698 0.613647 0 0 -1
-0.28359 0.188443 0.639215 0 0 1
-0.0486647 0.296804 0.613208 0 0 -1
0.132088 0.161318 0.639673 0 0 1
-0.0678168 0.0677337 0.578613 0.0721474 0.997186 0.0203749
0.0129854 0.302506 0.613647 0 0 -1
-0.338742 -0.126171 0.613647 0 0 -1
0.248756 -0.285765 0.639673 0 0 1
-0.12785 0.0730221 0.639215 0 0 1
0.142015 0.0245344 0.613208 0 0 -1
-0.252314 -0.284247 0.622391 -0.684689 -0.728836 0
-0.362134 -0.11495 0.613545 -0.950937 -0.309386 0
0.0347267 -0.181426 0.639673 0 0 1
-0.211096 -0.211405 0.613647 0 0 -1
-0.0451809 -0.0625257 0.613647 0 0 -1
0.252147 -0.285489 0.617782 0.684348 -0.729155 0
-0.172243 0.211104 0.613647 0 0 -1
0.233676 0.270208 0.613647 0 0 -1
-0.00943054 0.13799 0.613647 0 0 -1
-0.152034 -0.122553 0.613208 0 0 -1
0.0760669 -0.0695216 0.330891 0.744262 0.667737 0.0141886
0.219155 -0.105441 0.613208 0 0 -1
0.110036 -0.0107345 0.639215 0 0 1
0.100784 -0.124981 0.639673 0 0 1
0.0863751 -0.154752 0.639215 0 0 1
-0.0695711 -0.28202 0.613647 0 0 -1
0.0269121 -0.0990911 0.639215 0 0 1
0.368979 -0.0665184 0.639673 0 0 1
-0.00986757 -0.177611 0.613208 0 0 -1
-0.0121394 -0.138663 0.639673 0 0 1
-0.229807 -0.112695 0.639215 0 0 1
0.221448 0.0250524 0.613208 0 0 -1
0.379987 -0.0235812 0.626079 0.998005 -0.0631419 0
0.0772454 0.102485 0.613647 0 0 -1
0.0845999 0.176306 0.613208 0 0 -1
-0.0840756 0.371494 0.631396 -0.248915 0.968525 0
0.211009 -0.0526625 0.639215 0 0 1
-0.0365421 -0.308739 0.639673 0 0 1
-0.167392 -0.125517 0.639673 0 0 1
0.141245 0.352695 0.621578 0.36815 0.929766 0
0.104399 0.19487 0.613647 0 0 -1
0.165337 -0.0419921 0.639215 0 0 1
-0.327566 0.0151814 0.639215 0 0 1
0.161328 0.316287 0.639215 0 0 1
-0.0855404 0.203474 0.613647 0 0 -1
-0.0578204 -0.0751189 0.639673 0 0 1
0.0816932 0.168936 0.613208 0 0 -1
-0.208593 -0.0326955 0.613647 0 0 -1
-0.17966 -0.274062 0.613208 0 0 -1
-0.323318 -0.0379172 0.639215 0 0 1
-0.0910364 0.254872 0.613647 0 0 -1
-0.10587 -0.211032 0.613647 0 0 -1
0.263702 0.00464858 0.613208 0 0 -1
-0.330566 -0.166539 0.639673 0 0 1
0.0270178 0.215238 0.639215 0 0 1
0.193599 -0.0549992 0.613208 0 0 -1
-0.341976 -0.0410002 0.639673 0 0 1
0.140941 0.0118652 0.639673 0 0 1
-0.291863 0.0839521 0.639673 0 0 1
-0.0115007 -0.148331 0.613647 0 0 -1
0.0310719 0.0634345 0.613647 0 0 -1
-0.245215 0.230756 0.613208 0 0 -1
0.0334558 0.137391 0.639215 0 0 1
-0.0216131 -0.241263 0.639215 0 0 1
-0.330618 0.13236 0.639215 0 0 1
-0.198776 0.218343 0.613208 0 0 -1
0.21122 -0.216461 0.0263895 -0.777297 -0.349075 -0.523408
0.062605 0.0752168 0.360829 -0.676818 0.736069 0.0109572
0.204138 0.155208 0.613647 0 0 -1
-0.182525 0.109773 0.613647 0 0 -1
0.263287 -0.126223 0.639215 0 0 1
-0.0932493 -0.108727 0.259344 0.681882 -0.73006 0.0452712
0.229104 -0.3028 0.639673 0 0 1
0.0364499 0.323106 0.613208 0 0 -1
0.222656 0.0903915 0.613647 0 0 -1
-0.0274293 -0.0457444 0.639215 0 0 1
-0.206615 -0.0398021 0.613208 0 0 -1
-0.0999799 0.108603 0.208458 0.753975 0.654952 -0.0505931
-0.0566814 -0.093245 0.639215 0 0 1
0.101462 0.237077 0.613208 0 0 -1
-0.0823904 0.371098 0.627737 -0.248672 0.968588 0
-0.00430402 -0.307687 0.613208 0 0 -1
-0.243519 0.21834 0.639673 0 0 1
-0.250958 -0.265088 0.0118519 0.603611 -0.79577 0.0490243
0.12415 -0.0427756 0.613208 0 0 -1
-0.140079 -0.183809 0.639215 0 0 1
-0.00515273 0.319448 0.613208 0 0 -1
-0.278373 -0.0434979 0.639673 0 0 1
0.279821 -0.153846 0.639215 0 0 1
-0.119669 -0.303837 0.639673 0 0 1
-0.096483 -0.291474 0.613647 0 0 -1
0.0479306 -0.0306855 0.613647 0 0 -1
0.355092 -0.136541 0.618424 0.950943 -0.309367 0
0.132108 0.254651 0.639673 0 0 1
-0.313927 -0.211716 0.639673 0 0 1
0.254925 -0.282882 0.619879 0.684348 -0.729155 0
0.1578 0.231952 0.613647 0 0 -1
-0.144329 0.00281858 0.639673 0 0 1
-0.185956 0.332245 0.630577 -0.481683 0.876345 0
0.312755 -0.16403 0.613208 0 0 -1
0.043468 -0.37826 0.623821 0.125178 -0.992134 0
-0.0537419 -0.315781 0.613647 0 0 -1
0.0455631 -0.152509 0.639673 0 0 1
-0.154086 0.265471 0.613647 0 0 -1
0.280608 0.204109 0.613647 0 0 -1
0.145695 0.183215 0.613647 0 0 -1
0.110472 -0.281023 0.639215 0 0 1
-0.112447 0.09563 0.639215 0 0 1
-0.0228321 0.13886 0.613208 0 0 -1
-0.101345 -0.0145071 0.613208 0 0 -1
0.103742 -0.227995 0.613208 0 0 -1
-0.0800641 0.201962 0.639673 0 0 1
0.00532873 0.380723 0.637383 0 1 0
-0.0643259 0.0757942 0.240484 0.252462 0.252463 0.934091
-0.171784 0.20104 0.613208 0 0 -1
-0.0440585 0.308396 0.613647 0 0 -1
0.113109 0.110152 0.613647 0 0 -1
0.0564247 -0.0493402 0.52555 0.736846 0.67604 -0.00534093
0.225161 -0.0590032 0.613208 0 0 -1
-0.0217681 -0.0573749 0.639673 0 0 1
-0.124876 0.0756194 0.613647 0 0 -1
-0.180044 0.180556 0.0526098 0.851101 0.262624 -0.454595
0.129235 0.140617 0.134245 -0.779622 0.620947 -0.081327
0.227588 -0.0574453 0.639215 0 0 1
0.221885 0.234415 0.0358363 -0.747004 0.655284 -0.112194
-0.100773 -0.0162433 0.639673 0 0 1
0.345571 0.113041 0.613647 0 0 -1
0.239292 0.020198 0.613647 0 0 -1
-0.15217 -0.252589 0.613208 0 0 -1
-0.349236 0.12975 0.639215 0 0 1
-0.135079 -0.303979 0.639673 0 0 1
0.191026 -0.185559 0.0827131 0.764507 0.637027 0.0986144
-0.174447 0.306601 0.639215 0 0 1
0.295018 -0.205652 0.613647 0 0 -1
-0.163469 0.201954 0.613647 0 0 -1
0.207997 0.215147 0.639673 0 0 1
0.378175 -0.0389214 0.639673 0 0 1
-0.184656 -0.195031 0.0888271 0.262761 -0.851095 0.454526
0.124193 -0.0448009 0.613208 0 0 -1
0.26924 0.0779931 0.639215 0 0 1
0.0484974 0.0614698 0.457504 -0.684911 0.728622 0.00264573
-0.17821 0.133709 0.613208 0 0 -1
-0.367942 -0.0970977 0.613239 -0.950937 -0.309386 0
-0.0662903 0.0683592 0.542591 0.0721474 0.997186 0.0203749
0.248167 -0.0524409 0.613647 0 0 -1
0.19024 0.0690549 0.613647 0 0 -1
-0.186012 -0.175492 0.613647 0 0 -1
0.201304 -0.100414 0.639215 0 0 1
-0.00375826 -0.380319 0.639215 0 0 1
0.248714 0.14305 0.613647 0 0 -1
0.322192 0.201338 0.620359 0.844397 0.535717 0
-0.0741251 -0.192477 0.639215 0 0 1
0.102699 0.117511 0.244196 -0.682961 0.728589 0.0521877
-0.17518 -0.174334 0.106454 -0.850915 0.260438 0.456196
0.0665443 -0.374539 0.638208 0.125431 -0.992102 0
-0.229477 -0.243486 0.613647 0 0 -1
0.217115 -0.275532 0.613208 0 0 -1
-0.132469 -0.00569322 0.613208 0 0 -1
0.215505 0.0398633 0.639673 0 0 1
-0.358101 -0.127345 0.613544 -0.950937 -0.309386 0
-0.154861 -0.297925 0.639673 0 0 1
-0.291034 0.0281918 0.613208 0 0 -1
0.139219 -0.0681729 0.639215 0 0 1
-0.26665 -0.246674 0.613647 0 0 -1
0.053112 -0.0507976 0.613208 0 0 -1
0.0490089 0.231945 0.639673 0 0 1
-0.171812 -0.222192 0.639673 0 0 1
-0.135671 0.101575 0.639215 0 0 1
-0.223113 0.0599228 0.639673 0 0 1
0.0528366 -0.045597 0.544229 0.595771 0.802948 0.0181973
0.191738 -0.328141 0.625741 0.481739 -0.876315 0
0.344336 0.16243 0.634091 0.904964 0.425487 0
-0.236485 0.188684 0.639673 0 0 1
0.161479 0.292084 0.639215 0 0 1
-0.0890261 -0.225973 0.613647 0 0 -1
-0.122848 -0.319193 0.613208 0 0 -1
0.160846 0.266835 0.613208 0 0 -1
-0.100685 -0.356999 0.639215 0 0 1
-0.29463 -0.134645 0.639673 0 0 1
0.0887811 0.146565 0.613647 0 0 -1
-0.1035 0.186885 0.613647 0 0 -1
0.141746 -0.0752852 0.613208 0 0 -1
0.246603 -0.184587 0.613208 0 0 -1
-0.132294 -0.163448 0.613647 0 0 -1
0.06499 0.104 0.639673 0 0 1
0.0824547 -0.0648883 0.639215 0 0 1
0.0739478 0.077831 0.500196 0.99691 -0.0740482 0.0262081
-0.14461 -0.161264 0.639673 0 0 1
0.0400038 -0.0514357 0.500091 -0.802863 -0.595887 0.0181797
0.102035 -0.108274 0.639673 0 0 1
-0.136753 -0.251214 0.613208 0 0 -1
-0.313057 -0.110239 0.613647 0 0 -1
-0.106604 -0.348573 0.639673 0 0 1
0.270791 0.0200748 0.613208 0 0 -1
-0.0631431 0.267138 0.613647 0 0 -1
-0.0342959 -0.274749 0.613208 0 0 -1
0.273789 -0.0509302 0.613208 0 0 -1
-0.163184 -0.276271 0.639673 0 0 1
0.0317033 0.018598 0.639673 0 0 1
0.0501794 -0.0613611 0.443737 -0.686691 -0.726946 0.00243723
-0.238641 -0.235089 0.0315031 -0.746791 0.655657 0.111435
0.0786872 -0.361855 0.639673 0 0 1
0.250718 0.0788134 0.639673 0 0 1
-0.0697694 0.0597675 0.443249 -0.72719 -0.686436 0.000944404
-0.0268174 0.0157583 0.230464 -0.252503 -0.252503 -0.934069
-0.221991 0.0931349 0.613647 0 0 -1
-0.015562 0.342123 0.639673 0 0 1
0.153973 -0.260483 0.639215 0 0 1
0.321409 -0.0140962 0.613208 0 0 -1
-0.0676749 0.0639693 0.269398 -0.129797 -0.953291 -0.272744
0.201883 -0.195801 0.0512231 0.655253 0.747016 -0.112299
0.0745364 0.0789261 0.480896 -0.071535 0.996154 0.0505926
-0.227642 0.116559 0.639673 0 0 1
0.0393752 0.043815 0.428521 -0.995862 0.0714034 -0.0562229
-0.237589 -0.276537 0.613647 0 0 -1
0.0828877 -0.298657 0.639215 0 0 1
0.36157 0.0537133 0.613647 0 0 -1
-0.152516 0.310214 0.639215 0 0 1
0.3355 0.0559237 0.639673 0 0 1
0.330999 0.00295298 0.639215 0 0 1
-0.0570868 -0.135816 0.613647 0 0 -1
-0.182524 0.186958 0.0931833 0.261936 0.851029 0.455127
-0.369708 -0.0937994 0.614336 -0.98232 -0.187211 0
0.222729 0.246875 0.639673 0 0 1
-0.156469 -0.00319246 0.639673 0 0 1
-0.296097 0.10109 0.639215 0 0 1
-0.302735 -0.0241949 0.613647 0 0 -1
0.0458656 0.0441164 0.415373 0.0713321 -0.995885 -0.0559052
-0.0236479 -0.103596 0.613208 0 0 -1
0.130752 -0.35771 0.633826 0.36816 -0.929762 0
0.0609468 0.256495 0.639215 0 0 1
-0.179374 0.00766165 0.639673 0 0 1
-0.0464423 -0.330443 0.613208 0 0 -1
0.168483 -0.0628853 0.613647 0 0 -1
-0.204178 -0.0550082 0.639673 0 0 1
0.147686 -0.149504 0.613208 0 0 -1
0.364709 -0.10957 0.615722 0.951043 -0.309058 0
-0.179792 0.134078 0.613208 0 0 -1
0.000306543 -0.283991 0.639673 0 0 1
0.0609894 0.0680776 0.639673 0 0 1
-0.368822 -0.0308796 0.639215 0 0 1
-0.267815 0.0591481 0.639215 0 0 1
-0.0838546 0.140753 0.639673 0 0 1
0.195213 -0.00066723 0.613647 0 0 -1
-0.12544 -0.256153 0.639673 0 0 1
-0.0142739 -0.326478 0.639673 0 0 1
-0.265857 0.264436 0.639215 0 0 1
-0.269435 0.0941683 0.639673 0 0 1
0.178347 0.131411 0.613208 0 0 -1
0.131071 -0.142083 0.154021 -0.588784 -0.806836 0.0484704
-0.0819746 0.103998 0.613647 0 0 -1
-0.0979155 -0.094398 0.233747 -0.743943 0.667762 0.0253662
0.129949 0.176403 0.613208 0 0 -1
0.152766 -0.206418 0.613208 0 0 -1
0.110045 0.0725022 0.639215 0 0 1
0.288148 -0.199597 0.639215 0 0 1
-0.19118 -0.114857 0.639215 0 0 1
0.19518 -0.123906 0.613647 0 0 -1
-0.129838 -0.022137 0.613208 0 0 -1
0.258905 0.0288738 0.613208 0 0 -1
0.131814 -0.216682 0.613208 0 0 -1
-0.11894 0.204945 0.639215 0 0 1
0.201149 0.135771 0.639215 0 0 1
0.168114 0.136233 0.639673 0 0 1
0.266 -0.267505 0.613647 0 0 -1
0.118223 0.327984 0.613647 0 0 -1
0.118672 -0.0635314 0.639673 0 0 1
-0.0814115 -0.22469 0.639673 0 0 1
0.317914 0.131785 0.639673 0 0 1
-0.0707798 0.0782443 0.27844 0.790856 0.609035 -0.0601932
-0.0519017 0.0415948 0.435627 -0.595293 -0.80341 -0.0125969
0.133186 0.0763535 0.613208 0 0 -1
0.127694 -0.130185 0.639215 0 0 1
0.144707 0.244416 0.639673 0 0 1
-0.167724 0.310749 0.613208 0 0 -1
-0.158633 0.198798 0.639215 0 0 1
-0.0871901 0.0775771 0.296209 -0.744216 -0.667487 -0.0245736
0.120528 -0.00295182 0.639673 0 0 1
-0.36398 0.00537397 0.639673 0 0 1
0.034865 -0.0372798 0.445577 -0.995725 -0.0735125 -0.0559238
0.232248 0.185429 0.613647 0 0 -1
-0.0956563 0.086152 0.217258 -0.607785 -0.791752 -0.061041
0.0711272 0.116215 0.613647 0 0 -1
-0.0699039 0.0598107 0.407269 -0.730808 -0.682577 0.00291926
-0.139146 -0.259439 0.613647 0 0 -1
0.0863187 -0.0902811 0.202564 -0.953233 -0.131316 -0.27222
-0.0576239 -0.290959 0.613208 0 0 -1
-0.0488228 -0.276624 0.613208 0 0 -1
-0.0453473 -0.0594444 0.606452 0.802945 -0.595775 0.0181968
0.052636 0.0145706 0.613647 0 0 -1
0.101161 -0.106225 0.172223 -0.909842 -0.18865 -0.369592
0.160276 -0.119283 0.639215 0 0 1
0.17323 -0.166254 0.613647 0 0 -1
-0.211241 0.275511 0.613208 0 0 -1
0.193572 -0.171716 0.613208 0 0 -1
-0.0377021 -0.0369139 0.508088 -0.0765431 0.993801 0.0806268
0.0613918 0.146924 0.639215 0 0 1
0.349191 -0.0888562 0.613647 0 0 -1
0.178581 0.161981 0.639215 0 0 1
-0.00980444 0.149731 0.613647 0 0 -1
-0.232179 0.207703 0.613647 0 0 -1
0.236235 0.0724984 0.639673 0 0 1
0.195965 -0.0150362 0.613208 0 0 -1
-0.321463 0.202501 0.625482 -0.844246 0.535956 0
-0.334518 -0.10875 0.613647 0 0 -1
-0.187265 0.164401 0.639215 0 0 1
0.182161 0.160081 0.613647 0 0 -1
-0.0714144 0.318361 0.613208 0 0 -1
0.221348 0.167743 0.639215 0 0 1
-0.184933 0.218375 0.613647 0 0 -1
0.157352 -0.0264969 0.613208 0 0 -1
-0.112286 0.0889021 0.639215 0 0 1
-0.012417 0.319442 0.639673 0 0 1
-0.0185608 0.34896 0.613208 0 0 -1
0.0742161 0.06715 0.639215 0 0 1
-0.00103441 -0.368264 0.639215 0 0 1
-0.239387 0.163568 0.639215 0 0 1
-0.33153 0.188142 0.626175 -0.844365 0.535768 0
-0.28709 0.0885771 0.639215 0 0 1
-0.29935 0.135792 0.639673 0 0 1
-0.174359 -0.134097 0.639215 0 0 1
-0.031898 -0.147937 0.613647 0 0 -1
0.239098 0.0999677 0.613647 0 0 -1
-0.183367 0.200307 0.639215 0 0 1
-0.183104 -0.0507087 0.639215 0 0 1
0.229122 0.30314 0.639604 0.587868 0.808957 0
0.135316 0.146138 0.16824 -0.130947 0.944652 0.300809
0.0678871 -0.287676 0.613647 0 0 -1
-0.338701 -0.174424 0.629274 -0.90482 -0.425795 0
0.254646 0.0240073 0.613208 0 0 -1
0.207624 -0.0556742 0.639215 0 0 1
-0.255529 0.280695 0.639673 0 0 1
0.123973 0.269201 0.639673 0 0 1
-0.067593 0.0571324 0.377084 -0.730611 -0.682773 0.00538579
-0.284454 -0.0142215 0.613208 0 0 -1
-0.0196418 0.0352784 0.231011 0.252462 0.252463 -0.934091
-0.0615008 -0.37228 0.639215 0 0 1
-0.207291 0.0773588 0.613208 0 0 -1
0.0917062 0.326976 0.613647 0 0 -1
0.120187 0.203213 0.639215 0 0 1
0.0766148 0.224907 0.613647 0 0 -1
0.124403 -0.0704512 0.613647 0 0 -1
0.00224872 -0.101795 0.639215 0 0 1
0.0307677 -0.379062 0.6396 0.125431 -0.992102 0
-0.0559435 0.063132 0.410949 0.673487 0.739194 0.00274587
0.15557 0.153308 0.639215 0 0 1
-0.261053 0.249594 0.613647 0 0 -1
0.2029 0.0196882 0.613647 0 0 -1
0.182757 -0.0236601 0.613208 0 0 -1
-0.0523151 -0.358879 0.613208 0 0 -1
-0.194879 -0.279461 0.639215 0 0 1
0.249606 0.281061 0.613208 0 0 -1
0.33181 -0.177259 0.639215 0 0 1
0.218008 0.290691 0.613208 0 0 -1
0.022131 -0.282906 0.639215 0 0 1
-0.144511 0.352266 0.625396 -0.368031 0.929813 0
0.315725 0.0108434 0.639673 0 0 1
0.110177 -0.00367808 0.639215 0 0 1
0.134166 -0.136775 0.176288 0.916786 0.187206 0.352785
0.188816 -0.199559 0.0687957 -0.655382 -0.746945 0.112018
-0.332582 0.186483 0.617152 -0.844365 0.535768 0
-0.277845 0.159195 0.613208 0 0 -1
-0.00682322 -0.264918 0.639673 0 0 1
0.145928 -0.228458 0.639673 0 0 1
-0.133159 -0.306649 0.613647 0 0 -1
-0.302529 -0.01853 0.613208 0 0 -1
0.0587355 0.149131 0.639215 0 0 1
-0.249946 0.176469 0.639673 0 0 1
-0.223474 0.0901917 0.639215 0 0 1
0.156892 -0.160744 0.613647 0 0 -1
-0.257922 -0.280086 0.637618 -0.684359 -0.729145 0
0.0108581 -0.210232 0.639673 0 0 1
-0.291286 -0.134213 0.639673 0 0 1
0.120934 -0.118354 0.143468 0.188563 0.909841 -0.369639
-0.290609 -0.209659 0.639673 0 0 1
-0.0873565 -0.0957709 0.613647 0 0 -1
0.329108 0.167941 0.613647 0 0 -1
-0.25621 -0.255193 0.613208 0 0 -1
-0.0521672 0.0595558 0.442423 0.676679 0.736269 0.00360754
0.0705671 -0.0724863 0.484518 0.995944 0.0735108 0.0518757
-0.159761 -0.34537 0.622228 -0.368157 -0.929764 0
-0.0338962 -0.0957764 0.639215 0 0 1
-0.121134 0.129522 0.164014 0.753975 0.654952 -0.0505931
0.0100729 -0.142654 0.613208 0 0 -1
0.171184 0.295809 0.639673 0 0 1
0.195487 -0.243619 0.639215 0 0 1
0.196458 0.325546 0.626942 0.481739 0.876315 0
0.14095 0.0421273 0.613208 0 0 -1
-0.0993266 -0.262778 0.639215 0 0 1
0.0403442 -0.206969 0.639673 0 0 1
0.133512 -0.0148633 0.613647 0 0 -1
0.0323334 -0.26572 0.639673 0 0 1
0.150161 -0.0362318 0.639215 0 0 1
-0.0501673 -0.360982 0.613647 0 0 -1
0.272903 0.11764 0.613208 0 0 -1
-0.18419 0.0310384 0.613647 0 0 -1
0.11588 -0.268236 0.639215 0 0 1
0.168671 0.0172962 0.639215 0 0 1
-0.158316 -0.17304 0.100275 0.636949 -0.76458 0.0985582
-0.199561 0.248768 0.639215 0 0 1
0.168656 0.0616811 0.639673 0 0 1
0.0675209 -0.0125502 0.613647 0 0 -1
0.125992 -0.342102 0.639673 0 0 1
-0.296663 -0.237433 0.631809 -0.770388 -0.637575 0
-0.0406877 -0.265498 0.639215 0 0 1
0.146632 0.157081 0.102296 -0.764697 0.636769 -0.0988149
-0.110445 0.101077 0.205496 -0.819923 -0.549659 0.160005
0.152319 -0.0173535 0.639673 0 0 1
0.205625 0.0894679 0.613208 0 0 -1
-0.024935 0.380601 0.615496 -0.125178 0.992134 0
0.100116 -0.203016 0.639673 0 0 1
-0.206143 -0.0436994 0.613647 0 0 -1
-0.099061 -0.101617 0.269835 -0.971776 0.100119 0.213606
-0.171714 -0.186624 0.0814729 0.636949 -0.76458 0.0985582
-0.0317238 0.0488527 0.639215 0 0 1
0.00173124 -0.103267 0.613647 0 0 -1
0.130198 0.063891 0.613647 0 0 -1
0.16991 0.321044 0.639673 0 0 1
0.358462 -0.0595327 0.613647 0 0 -1
-0.191027 -0.18472 0.639673 0 0 1
0.297679 0.23746 0.628359 0.770264 0.637725 0
0.0711422 -0.333979 0.639673 0 0 1
-0.181623 0.217207 0.639215 0 0 1
-0.150686 0.150273 0.613208 0 0 -1
0.265312 0.27203 0.6358 0.684511 0.729002 0
-0.0608485 0.0669013 0.531537 0.676624 0.736286 0.00789887
-0.00263073 -0.085905 0.639215 0 0 1
-0.129465 0.0670018 0.639673 0 0 1
-0.00430798 0.304396 0.639673 0 0 1
0.316388 0.183657 0.613208 0 0 -1
-0.154893 -0.304372 0.613208 0 0 -1
0.313124 -0.0390819 0.639673 0 0 1
-0.187558 -0.187055 0.639673 0 0 1
-0.00853781 0.339452 0.613647 0 0 -1
-0.337609 0.100457 0.639215 0 0 1
0.27635 0.0972442 0.639215 0 0 1
0.103206 0.14929 0.639215 0 0 1
0.325334 -0.0388094 0.639215 0 0 1
0.133975 0.242599 0.639673 0 0 1
0.302792 -0.039513 0.639215 0 0 1
-0.377435 -0.0273206 0.639673 0 0 1
0.211708 -0.278534 0.613208 0 0 -1
-0.0710759 -0.0684352 0.285566 -0.609012 0.790863 -0.06034
-0.194227 -0.0621054 0.613208 0 0 -1
-0.160064 -0.164762 0.613208 0 0 -1
-0.109551 -0.293807 0.613208 0 0 -1
-0.338717 0.152762 0.613647 0 0 -1
0.240583 0.287115 0.639215 0 0 1
0.355948 0.049855 0.639673 0 0 1
-0.0120565 0.161779 0.639215 0 0 1
-0.349589 -0.0879851 0.639215 0 0 1
-0.0347466 -0.318933 0.639215 0 0 1
0.0507739 0.258245 0.613208 0 0 -1
-0.321103 0.0326348 0.613647 0 0 -1
-0.0600808 -0.0585764 0.608775 -0.343643 -0.177083 0.922253
0.368945 0.0784251 0.613208 0 0 -1
-0.169678 -0.091823 0.639215 0 0 1
0.235995 0.19515 0.639673 0 0 1
-0.0439451 0.240878 0.639215 0 0 1
0.329044 0.189636 0.639673 0 0 1
-0.25615 -0.0612551 0.639215 0 0 1
-0.236712 -0.109063 0.613647 0 0 -1
0.354523 -0.0886257 0.639673 0 0 1
-0.258874 0.186085 0.613208 0 0 -1
0.262802 -0.180438 0.639673 0 0 1
-0.27046 0.128804 0.613208 0 0 -1
0.0892939 -0.10262 0.613208 0 0 -1
0.00174383 -0.0234186 0.639673 0 0 1
-0.304956 -0.051848 0.613647 0 0 -1
0.0022175 -0.00438759 0.613647 0 0 -1
0.303624 -0.200343 0.613208 0 0 -1
-0.147693 -0.0338465 0.613208 0 0 -1
0.10627 0.115996 0.613208 0 0 -1
-0.192512 -0.0743672 0.639215 0 0 1
-0.193007 -0.00517872 0.613647 0 0 -1
-0.329053 -0.00437473 0.639673 0 0 1
-0.359794 0.0763734 0.613647 0 0 -1
-0.122516 0.104219 0.613208 0 0 -1
0.120448 0.120132 0.203171 0.829607 -0.537913 0.149674
0.0436845 -0.0314484 0.613208 0 0 -1
0.0585324 0.0709747 0.437727 -0.684911 0.728622 0.00264573
0.0210354 0.315816 0.639673 0 0 1
0.199975 0.0955319 0.639673 0 0 1
-0.234689 0.0401651 0.613647 0 0 -1
0.00555706 0.245427 0.639215 0 0 1
0.192464 -0.066485 0.613208 0 0 -1
-0.16009 -0.201942 0.613647 0 0 -1
0.357257 -0.0342902 0.639673 0 0 1
0.258883 0.20947 0.613647 0 0 -1
0.335729 0.156399 0.613647 0 0 -1
0.375056 -0.0228519 0.613208 0 0 -1
-0.23634 0.0782642 0.613647 0 0 -1
-0.208942 -0.258632 0.639673 0 0 1
-0.124277 -0.0274915 0.613208 0 0 -1
-0.292222 -0.0905709 0.639215 0 0 1
-0.0982344 0.250238 0.613208 0 0 -1
0.0466028 0.282427 0.613208 0 0 -1
-0.084708 0.0648492 0.639673 0 0 1
-0.0235348 0.324398 0.613647 0 0 -1
-0.0296018 0.249141 0.639215 0 0 1
0.337013 0.163185 0.613208 0 0 -1
-0.316233 0.0315349 0.613647 0 0 -1
0.00112699 0.167035 0.639673 0 0 1
-0.157559 -0.106362 0.613647 0 0 -1
-0.268804 -0.0641862 0.639215 0 0 1
-0.293973 0.0227922 0.613208 0 0 -1
-0.346264 -0.148279 0.639215 0 0 1
0.175335 0.170076 0.0894176 0.636226 -0.765061 -0.0994883
-0.106799 0.11197 0.241894 0.099407 0.955437 0.277955
0.147844 0.174297 0.639215 0 0 1
0.138431 -0.344988 0.613647 0 0 -1
-0.071755 0.0618263 0.41514 -0.730808 -0.682577 0.00291926
0.319062 0.1937 0.639673 0 0 1
0.0615957 0.074039 0.391408 -0.685054 0.728478 0.00450853
-0.0549199 -0.342931 0.613208 0 0 -1
-0.0478517 -0.299547 0.639215 0 0 1
0.238404 -0.157734 0.613208 0 0 -1
-0.197345 0.285981 0.613647 0 0 -1
-0.144048 0.178899 0.639673 0 0 1
0.209528 -0.09508 0.639215 0 0 1
-0.0675131 0.0678006 0.574261 0.0721474 0.997186 0.0203749
-0.253398 0.284327 0.63508 -0.684559 0.728958 0
-0.280029 0.228686 0.639673 0 0 1
-0.172705 0.3222 0.613647 0 0 -1
-0.0320401 -0.267472 0.639673 0 0 1
-0.064268 0.0539619 0.459554 -0.72719 -0.686436 0.000944404
-0.0691022 0.0622411 0.581846 -0.997018 -0.0741327 0.0214302
0.373745 -0.0682666 0.6241 0.982321 -0.187206 0
0.128633 0.0386579 0.613208 0 0 -1
0.0615573 -0.130927 0.639215 0 0 1
-0.136877 -0.0276164 0.613647 0 0 -1
-0.266726 -0.0939272 0.639215 0 0 1
0.322759 0.15938 0.613208 0 0 -1
-0.23781 0.196515 0.639673 0 0 1
0.373696 0.0252407 0.613208 0 0 -1
0.290221 0.179103 0.613647 0 0 -1
-0.0293634 0.380042 0.638381 -0.125178 0.992134 0
0.246949 -0.111917 0.639215 0 0 1
0.124058 0.152543 0.613208 0 0 -1
-0.351441 0.00974837 0.639673 0 0 1
-0.0569971 0.372792 0.639673 0 0 1
0.302583 0.206863 0.639673 0 0 1
0.121469 -0.0502835 0.639673 0 0 1
0.257543 -0.266258 0.639215 0 0 1
0.0477776 -0.376912 0.629391 0.125431 -0.992102 0
-0.0374261 -0.051126 0.453294 0.80341 -0.595293 -0.0125961
0.0547411 -0.0679423 0.613647 0 0 -1
-0.183725 -0.0684617 0.613208 0 0 -1
0.316487 -0.210347 0.63305 0.844391 -0.535727 0
-0.0585509 -0.221098 0.639215 0 0 1
0.0937455 0.0895019 0.227653 0.609107 -0.790792 -0.0603034
0.169938 0.304097 0.639673 0 0 1
-0.00885589 0.210679 0.613208 0 0 -1
0.165895 -0.277201 0.639215 0 0 1
0.327574 0.154428 0.613208 0 0 -1
0.117012 0.130579 0.639215 0 0 1
0.266349 0.0759403 0.639215 0 0 1
0.0503469 -0.328028 0.639215 0 0 1
0.0444376 0.370778 0.639673 0 0 1
0.261409 -0.215784 0.639215 0 0 1
-0.176198 0.0766549 0.639215 0 0 1
-0.254695 -0.0116699 0.613647 0 0 -1
0.0695821 -0.0153841 0.613647 0 0 -1
0.151927 0.254236 0.639673 0 0 1
0.0427404 -0.344027 0.639673 0 0 1
0.21034 -0.127719 0.613647 0 0 -1
-0.0638736 -0.374483 0.639673 0 0 1
-0.0833801 0.166365 0.639673 0 0 1
0.255055 -0.131945 0.639673 0 0 1
-0.183956 0.290712 0.613208 0 0 -1
-0.216894 -0.0971004 0.639673 0 0 1
-0.348899 0.150851 0.634545 -0.904913 0.425597 0
0.232521 -0.242413 0.0388369 -0.656194 -0.746404 0.110866
0.135335 -0.342524 0.639673 0 0 1
0.287324 0.0829083 0.613647 0 0 -1
-0.29946 0.125094 0.613647 0 0 -1
-0.0785835 -0.0775681 0.243112 -0.131316 0.953232 -0.272221
0.0369905 -0.30145 0.639215 0 0 1
-0.371996 -0.0222876 0.613208 0 0 -1
-0.0632544 -0.375766 0.619952 -0.125178 -0.992134 0
0.280853 0.209104 0.613208 0 0 -1
0.213051 0.139531 0.613208 0 0 -1
0.0477175 -0.0592021 0.586185 -0.802863 -0.595887 0.0181797
-0.238289 0.0549003 0.639673 0 0 1
-0.232874 -0.0707133 0.613647 0 0 -1
-0.266499 -0.0987748 0.639673 0 0 1
-0.150025 -0.337646 0.639673 0 0 1
0.268232 -0.110765 0.639215 0 0 1
-0.213717 -0.042901 0.639673 0 0 1
0.187679 -0.11099 0.613647 0 0 -1
-0.0467654 -0.129986 0.613208 0 0 -1
-0.0497299 0.313267 0.613208 0 0 -1
0.155302 0.110268 0.639673 0 0 1
-0.199189 -0.199353 0.0786334 -0.777096 0.348471 0.524108
0.0895937 -0.0223724 0.639673 0 0 1
0.00232191 -0.00834304 0.229102 -0.252483 -0.252481 -0.93408
-0.00191198 0.127952 0.613208 0 0 -1
-0.0601849 -0.203808 0.613647 0 0 -1
-0.161878 -0.17677 0.094357 0.636949 -0.76458 0.0985582
0.221051 -0.0141368 0.639673 0 0 1
-0.22629 -0.268452 0.639215 0 0 1
0.116794 0.318331 0.613647 0 0 -1
0.197475 0.0973115 0.639215 0 0 1
0.117337 -0.241353 0.639215 0 0 1
-0.129759 -0.255489 0.613208 0 0 -1
-0.0011218 0.0158199 0.639215 0 0 1
0.304454 -0.169982 0.639673 0 0 1
-0.20427 0.044625 0.639215 0 0 1
0.0426479 -0.0590714 0.234386 -0.602797 -0.602794 -0.522757
-0.243091 0.181246 0.613647 0 0 -1
-0.227426 0.0324288 0.613208 0 0 -1
0.266007 0.0296425 0.639673 0 0 1
-0.0558321 -0.0773124 0.639215 0 0 1
0.163402 0.309978 0.639673 0 0 1
0.26179 -0.0943899 0.639673 0 0 1
-0.321105 -0.106729 0.613208 0 0 -1
-0.203379 0.0592976 0.613647 0 0 -1
0.0903563 0.0852047 0.280761 0.743104 -0.668728 0.0244877
0.245826 -0.290327 0.628921 0.684511 -0.729002 0
0.0836788 0.145496 0.613647 0 0 -1
0.22286 -0.162746 0.639673 0 0 1
0.0585276 -0.0188357 0.613208 0 0 -1
-0.0689031 -0.28554 0.639215 0 0 1
0.0732122 -0.199263 0.613208 0 0 -1
0.258003 0.118861 0.613647 0 0 -1
0.0918044 0.0978658 0.315728 -0.0813009 0.984268 0.156865
0.0920101 0.0149014 0.639215 0 0 1
0.260187 -0.246332 0.639673 0 0 1
0.00399385 -0.0519926 0.639673 0 0 1
0.353859 -0.0558607 0.639215 0 0 1
0.097372 0.234053 0.613208 0 0 -1
-0.100321 -0.114994 0.197578 0.621031 -0.779565 0.0812396
-0.155707 -0.0446903 0.639673 0 0 1
0.369452 -0.0867642 0.613208 0 0 -1
-0.372692 -0.0635893 0.639215 0 0 1
0.153584 -0.221997 0.613647 0 0 -1
0.00553961 -0.287556 0.639673 0 0 1
-0.0260363 0.297894 0.639673 0 0 1
0.269988 -0.147944 0.639215 0 0 1
-0.31101 0.151186 0.639215 0 0 1
0.329359 0.0339339 0.613208 0 0 -1
-0.367993 0.0654609 0.639215 0 0 1
-0.323436 0.153302 0.613208 0 0 -1
0.106493 0.102511 0.191729 0.621564 -0.779169 -0.0809501
0.154216 -0.16329 0.124315 -0.636882 -0.764619 0.0986874
-0.0351438 -0.0672995 0.639215 0 0 1
-0.22944 -0.267919 0.613208 0 0 -1
0.0889773 -0.0992015 0.211643 -0.791815 -0.607713 -0.0609449
-0.222654 -0.198521 0.613208 0 0 -1
-0.139567 0.303202 0.613208 0 0 -1
0.160321 -0.345141 0.63757 0.36815 -0.929766 0
-0.122873 0.152976 0.613208 0 0 -1
-0.291475 -0.125149 0.639215 0 0 1
0.158131 -0.0335444 0.639215 0 0 1
-0.339705 -0.1285 0.639215 0 0 1
-0.102907 -0.116335 0.176483 0.779602 -0.620976 -0.0812924
-0.198564 -0.265157 0.639215 0 0 1
